# .PCD v0.7 - Point Cloud Data file format
VERSION 0.7
FIELDS x y z rgb
SIZE 4 4 4 4
TYPE F F F U
COUNT 1 1 1 1
WIDTH 1123
HEIGHT 1
VIEWPOINT 0 0 0 1 0 0 0
POINTS 1123
DATA ascii
11.716681 -0.28433076 -1.8592244 4288085770
5.0720868 -0.11524491 -1.8293668 4288085770
15.798329 -0.41400355 -1.8916123 4288085770
11.199656 -0.29823399 -1.8564823 4288085770
5.6900449 -0.14554358 -1.8243765 4288085770
14.916308 -0.42713374 -1.8876567 4288085770
10.737628 -0.31325519 -1.8549212 4288085770
5.5550241 -0.1592544 -1.8219053 4288085770
14.088309 -0.43837118 -1.8788835 4288085770
18.866865 -0.59253752 -1.9255546 4288085770
18.603777 -0.59801316 -1.9476707 4288085770
10.326595 -0.32738727 -1.8555311 4288085770
5.4290004 -0.1729857 -1.8204637 4288085770
13.374291 -0.45185575 -1.874486 4288085770
17.346811 -0.60233498 -1.9324803 4288085770
9.9365616 -0.34256229 -1.8552095 4288085770
17.716818 -0.6240958 -1.9176788 4288085770
12.709283 -0.46443978 -1.8672531 4288085770
5.3269539 -0.18777639 -1.8251004 4288085770
16.262827 -0.60603011 -1.9228666 4288085770
9.5905199 -0.35783342 -1.8570337 4288085770
16.676785 -0.65188253 -1.9071748 4288085770
12.129261 -0.47820953 -1.8643011 4288085770
15.280854 -0.60593998 -1.912598 4288085770
5.2159257 -0.20154086 -1.8247087 4288085770
9.2235088 -0.37204859 -1.8507898 4288085770
14.420872 -0.60511243 -1.9057366 4288085770
11.612228 -0.49311557 -1.8635569 4288085770
15.788742 -0.67999554 -1.9001759 4288085770
5.1088958 -0.21531521 -1.8253303 4288085770
8.9264717 -0.387422 -1.8517768 4288085770
13.624902 -0.60241759 -1.8970907 4288085770
11.138205 -0.50710976 -1.8609573 4288085770
12.913933 -0.59690428 -1.8897321 4288085770
14.996698 -0.7063148 -1.895499 4288085770
8.6274471 -0.40178686 -1.8497587 4288085770
5.0098639 -0.2291065 -1.8259783 4288085770
19.793968 -0.95955431 -1.9650846 4288085770
12.271958 -0.5925386 -1.8836013 4288085770
10.757137 -0.52431679 -1.8696618 4288085770
11.694978 -0.5863148 -1.8806897 4288085770
18.337078 -0.92645371 -1.950285 4288085770
8.3474245 -0.41619056 -1.8468039 4288085770
14.266668 -0.73175955 -1.8870299 4288085770
11.165999 -0.58019114 -1.8769377 4288085770
17.034206 -0.89267087 -1.9299988 4288085770
10.327127 -0.53839844 -1.8632084 4288085770
8.0854044 -0.43063238 -1.8439087 4288085770
10.671029 -0.57213819 -1.8723017 4288085770
15.944294 -0.86435342 -1.9204134 4288085770
10.24903 -0.56624997 -1.8749053 4288085770
13.61463 -0.75637388 -1.8818213 4288085770
9.9351187 -0.55156064 -1.8568826 4288085770
14.989366 -0.83832324 -1.9122738 4288085770
5.0147357 -0.27712876 -1.834918 4288085770
9.8380508 -0.55737931 -1.8735503 4288085770
7.8373809 -0.44510385 -1.8410599 4288085770
14.110454 -0.81144989 -1.9013883 4288085770
5.1227126 -0.29135448 -1.8332554 4288085770
9.4600658 -0.54957986 -1.8733034 4288085770
13.348517 -0.7868315 -1.8958888 4288085770
9.5950851 -0.56684148 -1.8567264 4288085770
9.085104 -0.53877974 -1.8680711 4288085770
5.2446771 -0.3066141 -1.8346378 4288085770
13.022592 -0.78111517 -1.8768121 4288085770
12.676575 -0.76440513 -1.8916855 4288085770
19.762503 -1.2024674 -1.9506117 4288085770
8.7521286 -0.52907288 -1.8659769 4288085770
7.6113553 -0.45962325 -1.8392842 4288085770
5.357657 -0.32084903 -1.8319917 4288085770
19.715469 -1.2143737 -1.9544371 4288085770
12.038642 -0.74104643 -1.8845969 4288085770
8.4131718 -0.51734757 -1.859866 4288085770
5.4816303 -0.3351101 -1.8313824 4288085770
11.484688 -0.72087288 -1.8827831 4288085770
8.1231966 -0.5077318 -1.8579148 4288085770
9.2730618 -0.58115757 -1.8546315 4288085770
5.0056596 -0.3091132 -1.8378369 4288085770
5.621594 -0.35040796 -1.8328247 4288085770
7.8402324 -0.49612799 -1.8539901 4288085770
5.1236343 -0.32136306 -1.8382107 4288085770
11.019706 -0.7038964 -1.8872603 4288085770
5.7665582 -0.36571634 -1.8342836 4288085770
12.512542 -0.80603445 -1.8750755 4288085770
7.5872521 -0.48559341 -1.8541635 4288085770
5.2536049 -0.33363974 -1.8396246 4288085770
7.4103146 -0.47520134 -1.8415902 4288085770
10.524768 -0.68184209 -1.8816458 4288085770
18.530535 -1.2098403 -1.9344988 4288085770
7.3292913 -0.47404116 -1.849322 4288085770
5.9175258 -0.38103607 -1.8347627 4288085770
5.3795781 -0.34590653 -1.8400251 4288085770
5.50457 -0.35616553 -1.8364254 4288085770
7.0993199 -0.46255252 -1.8475735 4288085770
10.082823 -0.66190147 -1.8772045 4288085770
6.8843446 -0.45109704 -1.8468752 4288085770
5.646543 -0.36846626 -1.8368793 4288085770
6.0774908 -0.39737487 -1.8352702 4288085770
5.8045073 -0.38080513 -1.8403864 4288085770
6.6753721 -0.43965289 -1.8451966 4288085770
9.6728716 -0.64203024 -1.8738694 4288085770
8.9770317 -0.5965302 -1.8536216 4288085770
6.4853983 -0.42825043 -1.8445812 4288085770
6.2864428 -0.41482177 -1.8389393 4288085770
5.9634771 -0.39314333 -1.8418969 4288085770
6.1294522 -0.40449491 -1.8424321 4288085770
6.240458 -0.41272002 -1.8357892 4288085770
18.775396 -1.2633692 -1.9422328 4288085770
9.2769337 -0.62118411 -1.8675827 4288085770
6.4284096 -0.42912388 -1.8403898 4288085770
8.9359732 -0.60346174 -1.8664743 4288085770
6.6163678 -0.44552487 -1.8429908 4288085770
8.5860386 -0.58271194 -1.8593404 4288085770
6.8213263 -0.46196193 -1.8456481 4288085770
7.1992955 -0.4897497 -1.8378643 4288085770
8.2830801 -0.5650686 -1.8573583 4288085770
7.0163021 -0.47737062 -1.8432738 4288085770
7.9961276 -0.54645777 -1.8544312 4288085770
7.2522464 -0.49587762 -1.8490311 4288085770
7.4712191 -0.51133859 -1.8477367 4288085770
7.7211781 -0.52886951 -1.8495424 4288085770
12.042492 -0.83103836 -1.8734717 4288085770
17.427574 -1.2164837 -1.9168164 4288085770
8.6740217 -0.60988081 -1.8475914 4288085770
7.0172615 -0.50536519 -1.8382331 4288085770
17.895346 -1.3074888 -1.9282357 4288085770
11.583464 -0.85305858 -1.8669089 4288085770
16.528559 -1.2295746 -1.910803 4288085770
8.4189863 -0.62534165 -1.8477176 4288085770
6.8402295 -0.52098978 -1.8376186 4288085770
19.767746 -1.5235158 -1.9761424 4288085770
11.200399 -0.87925243 -1.8695925 4288085770
17.112295 -1.3498156 -1.9155638 4288085770
8.178956 -0.64083278 -1.8468937 4288085770
15.748535 -1.2459192 -1.9061805 4288085770
6.6751976 -0.53564119 -1.8380454 4288085770
18.655762 -1.5371428 -1.9604192 4288085770
7.9459319 -0.65533733 -1.8450946 4288085770
10.842341 -0.90449643 -1.870361 4288085770
15.051497 -1.2644438 -1.9048308 4288085770
16.469212 -1.3964486 -1.9103513 4288085770
6.5191631 -0.55131173 -1.8385005 4288085770
7.7239122 -0.66986239 -1.8413317 4288085770
17.657778 -1.5460156 -1.9480823 4288085770
10.50829 -0.92878985 -1.8702105 4288085770
14.413469 -1.2810906 -1.9016804 4288085770
6.3541498 -0.56495595 -1.8339288 4288085770
15.950083 -1.4493573 -1.9145418 4288085770
7.5298724 -0.68645382 -1.842659 4288085770
16.800776 -1.5561939 -1.9412125 4288085770
10.173256 -0.95107543 -1.8660597 4288085770
13.806452 -1.2967985 -1.8956343 4288085770
6.2071218 -0.58064258 -1.8324138 4288085770
7.3388419 -0.70204866 -1.8419977 4288085770
15.429989 -1.4952554 -1.9127395 4288085770
15.983789 -1.5604544 -1.9324847 4288085770
6.0870767 -0.59639359 -1.8359885 4288085770
9.8891945 -0.9764775 -1.8680738 4288085770
13.264424 -1.314647 -1.8918011 4288085770
7.1628103 -0.71767533 -1.8413863 4288085770
15.220816 -1.5608277 -1.9229426 4288085770
14.930908 -1.5391934 -1.9080099 4288085770
5.9480543 -0.61109567 -1.8335016 4288085770
9.622139 -1.0009142 -1.869146 4288085770
12.785394 -1.3326304 -1.8891774 4288085770
6.9717989 -0.73226309 -1.8357264 4288085770
14.533829 -1.5613676 -1.9176532 4288085770
5.8340106 -0.62785804 -1.8360944 4288085770
14.54878 -1.5903935 -1.9136586 4288085770
9.3341198 -1.0212951 -1.8621542 4288085770
12.316377 -1.3496293 -1.8825886 4288085770
6.8287468 -0.74996674 -1.8402213 4288085770
13.917829 -1.5630624 -1.9155982 4288085770
5.7109885 -0.64259398 -1.8336604 4288085770
9.0960684 -1.0447917 -1.8623241 4288085770
11.903344 -1.3687524 -1.8801827 4288085770
6.6747189 -0.76563847 -1.838683 4288085770
14.160672 -1.6385754 -1.9152919 4288085770
13.334837 -1.5618255 -1.9126574 4288085770
16.923258 -1.9938468 -1.5189512 4293729569
5.5919662 -0.65733838 -1.8312397 4288085770
6.5296879 -0.78133082 -1.8381742 4288085770
11.535299 -1.3899738 -1.8799233 4288085770
8.8830061 -1.0703441 -1.8645741 4288085770
12.786853 -1.5576628 -1.9098375 4288085770
13.791582 -1.682793 -1.9139943 4288085770
5.479938 -0.67309916 -1.8298407 4288085770
16.718563 -2.0616527 -1.685167 4293729569
17.087059 -2.1141706 -1.5033135 4293729569
17.055758 -2.1192293 -1.5902022 4293729569
6.3896599 -0.79703224 -1.8366821 4288085770
11.159282 -1.4071695 -1.8736435 4288085770
8.6609688 -1.0928704 -1.8617984 4288085770
12.238904 -1.5464916 -1.9010283 4288085770
16.294346 -2.0838282 -1.7357203 4293729569
5.393888 -0.68992352 -1.8345267 4288085770
13.429502 -1.7250227 -1.910723 4288085770
16.896736 -2.1978304 -1.5465523 4293729569
6.2436409 -0.81171799 -1.8331714 4288085770
16.593613 -2.1672699 -1.6025891 4293729569
11.75193 -1.5384566 -1.8974173 4288085770
10.820253 -1.4264466 -1.8694836 4288085770
8.4339457 -1.1123818 -1.8560108 4288085770
15.623315 -2.0664368 -1.7545109 4293729569
5.2948508 -0.70671463 -1.8351691 4288085770
13.123396 -1.772378 -1.91263 4282675967
11.301956 -1.5305001 -1.8939295 4288085770
6.1315994 -0.82948303 -1.8347694 4288085770
16.567495 -2.2611799 -1.5783589 4293729569
14.996289 -2.0491366 -1.7724478 4293729569
16.42131 -2.2529595 -1.6398846 4293729569
16.781708 -2.3030703 -1.1870061 4293729569
10.507229 -1.4447787 -1.8654114 4288085770
8.2538843 -1.1380039 -1.8583703 4288085770
16.880899 -2.3317375 -0.80929047 4293729569
16.838024 -2.3285964 -0.7741521 4293729569
5.2058129 -0.72252822 -1.8368462 4288085770
16.799185 -2.3330066 -0.42101368 4293729569
10.90996 -1.524675 -1.8966314 4288085770
6.0115676 -0.8452282 -1.8343436 4288085770
14.252374 -2.0095615 -1.7710289 4293729569
16.793173 -2.3749623 -0.39892954 4293729569
12.75436 -1.8065816 -1.9013473 4288085770
16.464138 -2.3510356 -1.6298777 4293729569
10.29213 -1.4753382 -1.8756468 4288085770
8.0778427 -1.1606293 -1.8567475 4288085770
16.290993 -2.3417406 -1.6793153 4293729569
10.519979 -1.5158484 -1.8953444 4288085770
16.775528 -2.4205942 -0.86480421 4293729569
16.754457 -2.4190152 -1.1887386 4293729569
5.1187763 -0.73934472 -1.8375287 4288085770
13.620425 -1.9772309 -1.7749721 4293729569
16.753729 -2.4374459 -0.7937054 4293729569
16.762075 -2.4408772 -0.38572529 4293729569
5.9055252 -0.86300588 -1.8359615 4288085770
10.120031 -1.5009933 -1.8890333 4288085770
12.183505 -1.8073097 -1.8564427 4288085770
16.775911 -2.4949281 -0.4006891 4293729569
16.3288 -2.4328201 -1.6793022 4293729569
10.051069 -1.4998316 -1.877805 4288085770
12.966524 -1.936841 -1.7698539 4293729569
7.9127879 -1.1842817 -1.8581598 4288085770
5.032742 -0.75516331 -1.8382158 4288085770
16.147688 -2.4294884 -1.7147039 4293729569
16.815083 -2.5297713 -0.92976993 4293729569
5.7954979 -0.87877083 -1.8345686 4288085770
16.81616 -2.5501559 -1.1957442 4293729569
9.7580671 -1.4882232 -1.8858455 4288085770
16.818933 -2.5639455 -0.34972686 4293729569
16.803375 -2.5655882 -0.81967556 4293729569
12.480527 -1.914831 -1.7822673 4293729569
11.615677 -1.8010387 -1.8075578 4288085770
9.8250074 -1.5253564 -1.8800106 4288085770
16.04056 -2.4902613 -1.7142532 4293729569
7.744751 -1.2069211 -1.8545626 4288085770
9.3971233 -1.4714502 -1.878666 4288085770
15.887478 -2.4969685 -1.7347314 4293729569
5.6934638 -0.89555442 -1.8342001 4288085770
11.871654 -1.8695288 -1.7713047 4293729569
9.0881462 -1.4597977 -1.8786516 4288085770
11.422688 -1.8425905 -1.7778471 4293729569
9.5809736 -1.5458381 -1.8771625 4288085770
15.713358 -2.5366175 -1.7450881 4293729569
11.132809 -1.8019619 -1.7669426 4293729569
7.5946999 -1.2306058 -1.8550229 4288085770
5.6014214 -0.91336286 -1.835863 4288085770
15.671255 -2.5685456 -1.7558975 4293729569
8.7751961 -1.4441298 -1.8736302 4288085770
11.003719 -1.8177139 -1.7834865 4293729569
15.247276 -2.5546534 -1.7575034 4293729569
9.3559361 -1.5683603 -1.8743744 4288085770
7.4536524 -1.2543081 -1.854513 4288085770
8.4882355 -1.4295199 -1.8706938 4288085770
5.50739 -0.92916417 -1.8355223 4288085770
10.879761 -1.8354194 -1.7600441 4293729569
10.683687 -1.8040643 -1.8014387 4288085770
15.341125 -2.6188614 -1.7627163 4293729569
8.2262611 -1.4169668 -1.8708378 4288085770
10.417621 -1.7975374 -1.8255599 4288085770
14.895131 -2.5859461 -1.7812785 4293729569
9.1688738 -1.5939697 -1.8767081 4288085770
5.4223514 -0.94698596 -1.8362085 4288085770
7.3245935 -1.2800387 -1.85604 4288085770
10.550799 -1.8526927 -1.7369171 4293729569
7.9643016 -1.4014094 -1.8679862 4288085770
10.216507 -1.8001597 -1.8578836 4288085770
14.989028 -2.6631215 -1.7634709 4293729569
7.7283297 -1.3879114 -1.8682183 4288085770
10.003414 -1.7977523 -1.8871752 4288085770
14.252224 -2.5605707 -1.7681705 4293729569
8.9698362 -1.6165465 -1.8740066 4288085770
5.3283272 -0.96278429 -1.8338677 4288085770
7.1865568 -1.3017443 -1.8535433 4288085770
10.299778 -1.8811473 -1.7250328 4293729569
7.4903727 -1.3714046 -1.8654486 4288085770
9.6984301 -1.7761209 -1.8961898 4282675967
14.703903 -2.7145295 -1.7684379 4293729569
13.710266 -2.5454216 -1.7643837 4293729569
9.3565035 -1.7443955 -1.8940967 4282675967
7.2774 -1.3579552 -1.8657572 4288085770
5.2552795 -0.98163438 -1.8365921 4288085770
8.793786 -1.6411749 -1.8733786 4288085770
7.0685039 -1.3264966 -1.8541083 4288085770
8.9976063 -1.7076253 -1.8859549 4288085770
7.0624437 -1.3414972 -1.8630641 4288085770
10.090734 -1.9146962 -1.7172806 4293729569
13.136365 -2.5161934 -1.752512 4293729569
14.380821 -2.7558465 -1.7662936 4293729569
5.1792426 -0.99847507 -1.8373097 4288085770
8.71066 -1.6800205 -1.8870388 4288085770
8.652709 -1.6698862 -1.8788611 4288085770
6.8524895 -1.3250481 -1.8593874 4288085770
6.9474597 -1.3502399 -1.8526648 4288085770
8.4147339 -1.6493908 -1.8840976 4288085770
6.6705155 -1.3106656 -1.8608012 4288085770
9.9116745 -1.9503127 -1.7126254 4293729569
12.556486 -2.480947 -1.7376295 4293729569
5.1052074 -1.0163186 -1.8370323 4288085770
14.081733 -2.7982156 -1.7652279 4293729569
8.125823 -1.6177701 -1.8771811 4288085770
6.4845533 -1.2952703 -1.8592031 4288085770
8.5176258 -1.7006099 -1.8843602 4288085770
6.8493981 -1.376037 -1.8552952 4288085770
7.8598981 -1.5872023 -1.8733399 4288085770
6.3055959 -1.2788881 -1.8566301 4288085770
19.230307 -3.9171586 -1.7936754 4293729569
9.7725811 -1.9940214 -1.7130909 4293729569
7.5959864 -1.5556346 -1.8665068 4288085770
5.031177 -1.0331606 -1.8357564 4288085770
6.1336374 -1.2615224 -1.8550819 4288085770
13.682756 -2.8153484 -1.7468677 4293729569
8.3146343 -1.715165 -1.8726575 4288085770
7.3660483 -1.5291458 -1.8647795 4288085770
6.744348 -1.4008155 -1.8549035 4288085770
5.9746699 -1.2471855 -1.8545723 4288085770
10.354794 -2.1670065 -1.5397631 4293729569
18.133608 -3.796819 -1.7782005 4293729569
7.1531 -1.5036958 -1.8651072 4288085770
5.8217092 -1.2308599 -1.853086 4288085770
9.6015329 -2.0276518 -1.7064654 4293729569
6.9341745 -1.4752262 -1.8604196 4288085770
8.2504921 -1.7570549 -1.8893762 4288085770
10.432264 -2.2219174 -1.362934 4293729569
5.6657572 -1.2135249 -1.8495913 4288085770
6.6492896 -1.4266176 -1.8565434 4288085770
6.7372317 -1.4508072 -1.858799 4288085770
10.231608 -2.2007973 -1.5742978 4293729569
10.454115 -2.2485702 -1.0889629 4293729569
5.5207992 -1.1972147 -1.8471315 4288085770
10.464314 -2.2700515 -0.71296066 4293729569
6.5562816 -1.4274236 -1.8582305 4288085770
10.420325 -2.2649584 -0.71282154 4293729569
9.4974203 -2.075439 -1.7100413 4293729569
5.3928246 -1.1829464 -1.8487256 4288085770
6.3773389 -1.4030428 -1.8566701 4288085770
8.1114388 -1.7827615 -1.8888696 4282675967
10.29615 -2.2686384 -1.3674047 4293729569
10.105436 -2.2315784 -1.6068271 4293729569
10.325923 -2.279356 -1.1274858 4293729569
6.5462484 -1.4503973 -1.8541598 4288085770
5.2658553 -1.1686771 -1.8483229 4288085770
6.1954088 -1.3766513 -1.8521029 4288085770
10.399905 -2.3101888 -0.2066783 4293729569
5.144886 -1.1534221 -1.8489418 4288085770
6.0354576 -1.3543121 -1.8516028 4288085770
10.325163 -2.3127859 -0.73142767 4293729569
10.319268 -2.317723 -0.69639993 4293729569
10.382748 -2.3361979 -0.23757997 4293729569
5.023922 -1.1381642 -1.8475606 4288085770
9.3623505 -2.11415 -1.7065278 4293729569
5.8835058 -1.3319899 -1.8511294 4288085770
10.275677 -2.3243172 -1.1732469 4293729569
7.963407 -1.8054429 -1.8843379 4282675967
9.9303141 -2.2492461 -1.6322135 4293729569
5.732563 -1.3086669 -1.8486611 4288085770
10.251966 -2.3335681 -1.3821543 4293729569
6.4531984 -1.4752008 -1.853808 4288085770
5.5796294 -1.2843367 -1.8441875 4288085770
10.349808 -2.375067 -0.19440797 4293729569
5.4496694 -1.2640625 -1.8447843 4288085770
10.291939 -2.3787549 -0.75721228 4293729569
10.2534 -2.3763452 -1.2240902 4293729569
10.327538 -2.3951199 -0.26330221 4293729569
9.781168 -2.2719746 -1.6616786 4293729569
10.292163 -2.388649 -0.68319696 4293729569
5.3247104 -1.243799 -1.8453981 4288085770
9.2512598 -2.1579158 -1.7060866 4293729569
7.7714458 -1.8150126 -1.8666795 4288085770
5.2087455 -1.2245557 -1.8470402 4288085770
10.226766 -2.4025412 -1.3989609 4293729569
6.3671451 -1.5000204 -1.8544796 4288085770
5.0917869 -1.2053076 -1.846679 4288085770
10.248108 -2.431412 -1.2769858 4293729569
10.340692 -2.4510312 -0.1812572 4293729569
9.5661077 -2.2755442 -1.6779534 4293729569
10.266706 -2.4457438 -0.78502214 4293729569
10.32529 -2.4671588 -0.29218087 4293729569
10.290045 -2.4636295 -0.67107105 4293729569
7.5515246 -1.8165125 -1.8419405 4288085770
9.1621542 -2.2067318 -1.7077107 4293729569
6.2771034 -1.5238274 -1.8521392 4288085770
10.234533 -2.4815888 -1.418862 4293729569
10.250812 -2.4864986 -1.3319081 4293729569
9.4000006 -2.288229 -1.7023776 4293729569
10.376553 -2.537091 -0.16824092 4293729569
10.332397 -2.5349371 -0.82110095 4293729569
10.378011 -2.5513172 -0.32322437 4293729569
10.324902 -2.5486898 -0.66005313 4293729569
7.3525915 -1.8210598 -1.8192666 4288085770
10.265495 -2.5456147 -1.389864 4293729569
9.0790424 -2.2555618 -1.7103552 4293729569
9.1529932 -2.2787189 -1.7105659 4293729569
6.2050405 -1.5516783 -1.8538527 4288085770
10.288258 -2.5717428 -1.4448993 4293729569
8.9119949 -2.2662203 -1.717779 4293729569
7.1257033 -1.8165363 -1.7885132 4288085770
8.9829578 -2.2983582 -1.7089654 4293729569
6.1469593 -1.5815645 -1.8596097 4288085770
12.08525 -3.109937 -1.7110634 4293729569
11.08307 -2.8626826 -1.6201001 4293729569
8.6989708 -2.2597864 -1.7290759 4293729569
6.941771 -1.8201152 -1.7658906 4293729569
8.9338236 -2.3532643 -1.7147137 4293729569
6.0759053 -1.6084148 -1.8593279 4288085770
8.4829664 -2.2493417 -1.7373692 4293729569
11.943145 -3.1626368 -1.7095051 4293729569
10.508032 -2.8215206 -1.6572411 4293729569
6.7928019 -1.8297783 -1.7503755 4293729569
8.263978 -2.2338877 -1.7436603 4293729569
8.8707085 -2.4041367 -1.7174215 4293729569
6.0158386 -1.6362922 -1.8620813 4288085770
11.836008 -3.2244151 -1.7110496 4293729569
10.134127 -2.7727323 -1.6590669 4293729569
8.0689688 -2.223489 -1.7530235 4293729569
6.7057533 -1.8555931 -1.7490422 4293729569
8.811595 -2.4550159 -1.7191427 4293729569
5.9497838 -1.6631529 -1.8618163 4288085770
9.8151817 -2.7350688 -1.6670589 4293729569
11.728884 -3.2831917 -1.7115984 4293729569
7.8509965 -2.2050331 -1.7563225 4293729569
6.6276984 -1.8824284 -1.7487372 4293729569
9.6001387 -2.7216451 -1.6883603 4293729569
7.634037 -2.1835756 -1.7576296 4293729569
5.8927197 -1.6920354 -1.8635781 4288085770
8.7474871 -2.505883 -1.7198471 4293729569
11.629749 -3.3459852 -1.7121677 4293729569
9.355134 -2.6981504 -1.7045771 4293729569
7.4220862 -2.1601276 -1.7579565 4293729569
6.5576344 -1.912282 -1.7494541 4293729569
9.1311274 -2.6766984 -1.7198609 4293729569
5.8396506 -1.7209278 -1.8663532 4288085770
8.671402 -2.5517187 -1.7165194 4293729569
7.1612124 -2.1205566 -1.7451448 4293729569
11.541611 -3.4098024 -1.7127724 4293729569
8.7882776 -2.6179609 -1.7118056 4293729569
6.4765906 -1.9371079 -1.7471421 4293729569
6.9622655 -2.0961347 -1.7445166 4293729569
5.7825933 -1.7488073 -1.8661164 4288085770
8.6442614 -2.6096714 -1.7223364 4293729569
8.5602989 -2.5904944 -1.7230855 4293729569
11.464474 -3.4746425 -1.713412 4293729569
6.7823048 -2.0757558 -1.7459455 4293729569
6.388567 -1.9589133 -1.7408117 4293729569
8.323348 -2.5570021 -1.7293447 4293729569
5.7285342 -1.7766947 -1.8668898 4288085770
8.5961494 -2.6635714 -1.7220895 4293729569
6.5763936 -2.0443101 -1.739305 4293729569
11.394327 -3.5424979 -1.7140704 4293729569
8.1213665 -2.5305908 -1.7407098 4293729569
6.2855692 -1.9746808 -1.7304405 4293729569
6.3924608 -2.0179155 -1.7357298 4293729569
7.9253831 -2.5051925 -1.7520932 4293729569
5.6724858 -1.8035736 -1.8646579 4288085770
8.5490417 -2.7154727 -1.7218492 4293729569
11.336178 -3.6123779 -1.7147657 4293729569
6.2195225 -1.9925455 -1.7331898 4293729569
7.7833419 -2.4939198 -1.7716351 4288085770
6.2125282 -1.9995221 -1.7271551 4293729569
6.0376091 -1.9621505 -1.7266278 4293729569
7.5334578 -2.4463835 -1.7668728 4293729569
5.5795026 -1.8173578 -1.851323 4288085770
8.5109224 -2.770395 -1.7226341 4293729569
11.28902 -3.6852834 -1.7164931 4293729569
5.9126148 -1.9478966 -1.734231 4293729569
7.2985697 -2.4008789 -1.7621573 4293729569
6.1434894 -2.0253706 -1.7228816 4293729569
5.4505868 -1.819047 -1.8248868 4288085770
7.05371 -2.3493459 -1.7524182 4293729569
5.7846317 -1.9326322 -1.7388254 4293729569
8.4618263 -2.8202894 -1.7203902 4293729569
11.248858 -3.7602022 -1.7172406 4293729569
6.1094012 -2.0603063 -1.7277108 4293729569
6.8288307 -2.3028595 -1.7457376 4293729569
5.6696324 -1.919401 -1.7474601 4293729569
5.318687 -1.8167267 -1.7964467 4288085770
6.6229391 -2.2604148 -1.7401142 4293729569
8.4177246 -2.8731928 -1.7171583 4293729569
5.554646 -1.9041655 -1.7530984 4293729569
11.221684 -3.8381517 -1.7200269 4293729569
6.0663261 -2.0932183 -1.7295132 4293729569
6.4350338 -2.2210114 -1.7365464 4293729569
5.4226894 -1.8828866 -1.7536891 4293729569
5.1828032 -1.8113936 -1.7649978 4293729569
6.247139 -2.1806049 -1.73098 4293729569
8.2997284 -2.8989191 -1.6997216 4293729569
5.2847548 -1.8575891 -1.750266 4293729569
11.21349 -3.9241424 -1.7238642 4293729569
5.9833241 -2.1110282 -1.7192055 4293729569
6.0862064 -2.1472645 -1.731493 4293729569
5.1657963 -1.8373379 -1.7508984 4293729569
5.8943419 -2.1018407 -1.7199211 4293729569
5.1048193 -1.8252096 -1.7517129 4293729569
8.2955809 -2.9629178 -1.7036061 4293729569
5.0707994 -1.8241475 -1.7586002 4293729569
11.21429 -4.0131526 -1.7277267 4293729569
5.7623878 -2.0745659 -1.7235215 4293729569
5.921289 -2.1348915 -1.7149584 4293729569
5.0027585 -1.819026 -1.7743796 4293729569
5.6184587 -2.0432587 -1.7220881 4293729569
5.0507956 -1.8470867 -1.7454956 4293729569
8.313406 -3.0359676 -1.71055 4293729569
4.9407101 -1.8159187 -1.7911757 4288085770
5.4695482 -2.0079362 -1.7176442 4293729569
5.8912053 -2.1708326 -1.7177994 4293729569
5.3456035 -1.9796754 -1.7192727 4293729569
4.8906422 -1.8158425 -1.8120074 4288085770
5.0097508 -1.8719969 -1.7433169 4293729569
5.2126827 -1.9473885 -1.7158777 4293729569
4.8465681 -1.8177809 -1.833856 4288085770
8.3122549 -3.1029711 -1.7134396 4293729569
5.1067204 -1.9241691 -1.7195585 4293729569
5.8671145 -2.2077878 -1.7216589 4293729569
5.0037603 -1.8999555 -1.723251 4293729569
4.9387693 -1.8848276 -1.7300569 4293729569
4.9257598 -1.8848042 -1.733013 4293729569
8.3081112 -3.1679668 -1.7153226 4293729569
5.8130774 -2.2326677 -1.717437 4293729569
4.8447709 -1.8676437 -1.7407681 4293729569
4.7548041 -1.8464581 -1.7444996 4293729569
4.8877468 -1.9057108 -1.7238511 4293729569
4.6658401 -1.8232743 -1.7482374 4293729569
10.347283 -4.0143223 -1.7288209 4293729569
8.3279343 -3.2430193 -1.72127 4293729569
5.7590466 -2.257545 -1.7112153 4293729569
4.6128111 -1.8141835 -1.7630734 4293729569
10.019416 -3.9526258 -1.7278194 4293729569
4.8556957 -1.9326419 -1.7226992 4293729569
8.3367815 -3.3130429 -1.7231886 4293729569
5.722991 -2.287466 -1.7090458 4293729569
9.7245207 -3.8980052 -1.7309173 4293729569
4.7957048 -1.9474971 -1.7104728 4293729569
8.3396349 -3.3810523 -1.7240906 4293729569
5.6999102 -2.3234205 -1.7109101 4293729569
9.4416265 -3.8444085 -1.7330537 4293729569
4.7097692 -1.9512842 -1.6891768 4293729569
8.3614655 -3.4571044 -1.7270433 4293729569
5.6438932 -2.3452904 -1.7026865 4293729569
9.1557512 -3.7868013 -1.732186 4293729569
4.6567707 -1.9671574 -1.6789721 4293729569
8.887866 -3.7312348 -1.7333754 4293729569
8.3783026 -3.5311449 -1.7289824 4293729569
5.5838876 -2.3641486 -1.6924539 4293729569
8.6299772 -3.6776881 -1.733595 4293729569
4.6387019 -1.9971224 -1.6808624 4293729569
5.5618153 -2.3991022 -1.6923233 4293729569
8.3871536 -3.603164 -1.727898 4293729569
8.3661213 -3.6161225 -1.729807 4293729569
4.5807252 -2.0089788 -1.6666473 4293729569
5.5457373 -2.4350705 -1.6932114 4293729569
8.4129829 -3.6812239 -1.7298613 4293729569
8.1332226 -3.5656302 -1.7311054 4293729569
4.558671 -2.0369308 -1.6655276 4293729569
7.8983474 -3.5101292 -1.7294048 4293729569
5.5496221 -2.4810884 -1.6991503 4293729569
8.4388142 -3.7592819 -1.7308245 4293729569
7.6894403 -3.4636879 -1.7307771 4293729569
4.4887199 -2.0427561 -1.6472818 4293729569
5.5235682 -2.5120287 -1.696013 4293729569
8.4796228 -3.8463748 -1.7338237 4293729569
7.4775496 -3.4132373 -1.7301455 4293729569
4.3898411 -2.0335023 -1.6169629 4293729569
5.5025029 -2.5449831 -1.6948888 4293729569
8.5224314 -3.9324722 -1.7368313 4293729569
7.2686663 -3.3607912 -1.7285271 4293729569
7.0697846 -3.3093653 -1.7259405 4293729569
4.3548293 -2.0524163 -1.6088136 4293729569
5.4934235 -2.5829644 -1.6947972 4293729569
8.5692329 -4.0225759 -1.7388461 4288085770
6.8768997 -3.2589519 -1.7233722 4293729569
4.3477564 -2.0844045 -1.6107377 4293729569
5.4813504 -2.6199377 -1.6936972 4293729569
6.7029929 -3.2145827 -1.7238582 4293729569
8.2483673 -3.9668884 -1.733857 4293729569
4.3277173 -2.1083581 -1.6076311 4293729569
5.4872446 -2.6639566 -1.6976463 4293729569
6.5141239 -3.1601751 -1.7193096 4293729569
8.0105247 -3.8923833 -1.7341762 4293729569
6.3532171 -3.1168325 -1.7188375 4293729569
7.7866721 -3.8219082 -1.7345361 4293729569
5.4811635 -2.7029445 -1.6975633 4293729569
4.3096771 -2.1343138 -1.6035278 4293729569
6.2003036 -3.0755081 -1.7193887 4293729569
7.5668297 -3.7504385 -1.7329106 4293729569
5.4870615 -2.7469623 -1.7005124 4293729569
4.2607045 -2.1441896 -1.5893461 4293729569
7.3569822 -3.6809902 -1.7313157 4293729569
6.0464005 -3.0321789 -1.71794 4293729569
7.1571302 -3.6135626 -1.7297509 4293729569
5.8984976 -2.9888623 -1.716511 4293729569
5.4889712 -2.7889683 -1.7014515 4293729569
4.2406735 -2.16714 -1.5842409 4293729569
6.950305 -3.5401146 -1.7241721 4293729569
5.7196674 -2.9284637 -1.7040054 4293729569
6.7614536 -3.4737093 -1.7216426 4293729569
5.1915035 -2.6772056 -1.6116275 4293729569
4.2156544 -2.187077 -1.5771244 4293729569
5.5787725 -2.8831594 -1.7006037 4293729569
6.5985689 -3.4183633 -1.7221831 4293729569
4.8251681 -2.5212774 -1.5096422 4293729569
4.7663078 -2.4961145 -1.483484 4293729569
6.4426823 -3.364032 -1.7227452 4293729569
4.2016163 -2.2120404 -1.5730364 4293729569
4.3729672 -2.3091607 -1.4034569 4293729569
6.2748322 -3.3006678 -1.7182811 4293729569
4.3151841 -2.293956 -1.3472859 4293729569
4.3684764 -2.3249123 -1.2384151 4293729569
4.2910028 -2.2869909 -1.4072158 4293729569
4.1795983 -2.2319825 -1.5659294 4293729569
4.3364172 -2.3238709 -1.2573085 4293729569
4.2649245 -2.2919652 -1.4281197 4293729569
4.2782044 -2.3058577 -1.3341414 4293729569
4.2993708 -2.3198161 -1.2741899 4293729569
4.1555872 -2.2509193 -1.5578173 4293729569
4.2428384 -2.2989497 -1.4500339 4293729569
4.2703176 -2.3177795 -1.2920952 4293729569
4.3756104 -2.3793776 -0.85834837 4293729569
4.2207584 -2.3049324 -1.4709496 4293729569
4.2482452 -2.3197627 -1.3130174 4293729569
4.2442231 -2.3177657 -1.321007 4293729569
4.1295862 -2.267849 -1.5477018 4293729569
4.2361579 -2.3257701 -1.3359668 4293729569
4.1976824 -2.308913 -1.491865 4293729569
4.2150908 -2.3267536 -1.3558942 4293729569
4.3484149 -2.3969493 -0.60222614 4293729569
4.31567 -2.3802233 -0.84014422 4293729569
4.2122393 -2.3296795 -1.3088795 4293729569
4.1716127 -2.3108859 -1.5117738 4293729569
4.1980219 -2.3287458 -1.3758334 4293729569
4.1165557 -2.290813 -1.5426203 4293729569
4.1879368 -2.3337574 -1.3987913 4293729569
4.1216016 -2.2997949 -1.5226228 4293729569
4.1698718 -2.3337476 -1.4187303 4293729569
4.3037539 -2.4046972 -0.49406186 4293729569
4.2884722 -2.396796 -0.58502358 4293729569
4.2766976 -2.3911176 -0.82499468 4293729569
4.1922321 -2.3476236 -1.2997826 4293729569
4.1035242 -2.3047857 -1.5435536 4293729569
4.1548042 -2.3347442 -1.4386778 4293729569
4.3074365 -2.4153943 -0.27905551 4293729569
4.1045275 -2.3137779 -1.5365424 4293729569
4.1367521 -2.3317313 -1.4566218 4293729569
4.0724754 -2.3017442 -1.5604534 4293729569
4.1216903 -2.3317266 -1.4755709 4293729569
4.266686 -2.4126406 -0.5099237 4293729569
4.1802096 -2.3695867 -1.2927063 4293729569
4.1066327 -2.3297215 -1.4945233 4293729569
4.2514935 -2.4076977 -0.57188076 4293729569
4.2447152 -2.4050279 -0.81086373 4293729569
4.0224767 -2.2876503 -1.5693073 4293729569
4.2583828 -2.4153135 -0.29588985 4293729569
4.0965672 -2.3297288 -1.5144893 4293729569
4.0725365 -2.3216991 -1.5294211 4293729569
4.0785341 -2.3287063 -1.5254301 4293729569
4.0475149 -2.3116646 -1.5423527 4293729569
3.8434858 -2.1993475 -1.623845 4293729569
3.9914398 -2.2826056 -1.5842104 4293729569
4.0115223 -2.2946005 -1.5512588 4293729569
3.8854337 -2.225435 -1.6229446 4293729569
3.9934907 -2.2865837 -1.5662109 4293729569
3.9124241 -2.2424815 -1.6150082 4293729569
3.933434 -2.2545102 -1.6040598 4293729569
3.9744639 -2.2775631 -1.580161 4293729569
3.9554424 -2.2675412 -1.5931131 4293729569
4.2396059 -2.4246066 -0.52681285 4293729569
4.1652007 -2.3885415 -1.2836248 4293729569
3.9633956 -2.2785685 -1.6001222 4293729569
4.2313046 -2.4262795 -0.31278059 4293729569
4.2284989 -2.4256289 -0.55877382 4293729569
4.228704 -2.4279773 -0.79977238 4293729569
3.9223905 -2.2664952 -1.610003 4293729569
4.0764899 -2.3566954 -1.5213778 4293729569
4.2225065 -2.4425969 -0.54572594 4293729569
3.8903689 -2.2584436 -1.6219076 4293729569
4.159173 -2.4115191 -1.277567 4293729569
4.2122111 -2.4412656 -0.33169183 4293729569
4.2055016 -2.4435616 -0.54666692 4293729569
4.2097082 -2.4469175 -0.7866773 4293729569
3.8374019 -2.2373362 -1.6257625 4293729569
4.0754433 -2.3836882 -1.5183305 4293729569
4.2104058 -2.4615979 -0.56465441 4293729569
4.1571412 -2.4365058 -1.2715197 4293729569
4.2001171 -2.4582655 -0.34962353 4293729569
4.1894975 -2.4645097 -0.53457874 4293729569
4.1996922 -2.4718795 -0.775603 4293729569
4.0803828 -2.4146969 -1.5172968 4293729569
4.1953058 -2.4795926 -0.5835743 4293729569
4.1840234 -2.4732575 -0.36854491 4293729569
4.1620941 -2.4655099 -1.2674894 4293729569
4.1844802 -2.4904823 -0.52351969 4293729569
4.1896787 -2.4958417 -0.7645303 4293729569
4.1819139 -2.49628 -0.38750067 4293729569
4.0953064 -2.4497297 -1.5182906 4293729569
4.1871967 -2.5006037 -0.60351306 4293729569
4.1520848 -2.4844751 -1.2584249 4293729569
4.1764698 -2.5144475 -0.51145375 4293729569
4.1698208 -2.5112815 -0.40643561 4293729569
4.1876531 -2.5238223 -0.75447804 4293729569
4.1860809 -2.5246294 -0.6234706 4293729569
4.1660256 -2.5174999 -1.2554185 4293729569
4.0952644 -2.4767232 -1.5142467 4293729569
4.1736975 -2.5373194 -0.42740679 4293729569
4.1804428 -2.5444393 -0.50041854 4293729569
4.1829648 -2.5476525 -0.64442295 4293729569
4.1996064 -2.5588357 -0.74646193 4293729569
4.185955 -2.5525408 -1.2544295 4293729569
4.1281495 -2.5218015 -1.5202854 4293729569
4.178576 -2.5623596 -0.448383 4293729569
4.1938243 -2.5787089 -0.66740978 4293729569
5.8073344 -3.5566545 -1.7092992 4293729569
4.1884065 -2.5774412 -0.49039224 4293729569
4.2225413 -2.6008742 -0.73947161 4293729569
4.2109156 -2.5970111 -1.543444 4293729569
4.1964383 -2.5934291 -0.47039348 4293729569
5.8941159 -3.6398585 -1.7224596 4293729569
4.2286425 -2.6228213 -0.69445652 4293729569
4.5430698 -2.8248789 -1.6542014 4293729569
4.2602668 -2.6495881 -0.48651901 4293729569
4.2572269 -2.6515973 -0.49750552 4293729569
5.9369955 -3.6969492 -1.7225134 4293729569
4.6148629 -2.8950579 -1.6723316 4293729569
5.9848757 -3.7550499 -1.7215825 4293729569
4.6547389 -2.9461498 -1.6773844 4293729569
6.035749 -3.8151584 -1.7216587 4293729569
4.7305255 -3.0193372 -1.6955234 4293729569
6.0995946 -3.8832991 -1.7247658 4293729569
4.7704082 -3.068428 -1.6995795 4293729569
6.1604562 -3.9474301 -1.7258692 4293729569
6.225316 -4.0135684 -1.7259828 4293729569
4.8003178 -3.1114917 -1.6996117 4293729569
4.8452005 -3.1625915 -1.7026815 4293729569
4.8850923 -3.2106791 -1.7047395 4293729569
4.9299774 -3.2607794 -1.7078111 4293729569
4.9688849 -3.3058605 -1.7068704 4293729569
5.0117855 -3.352952 -1.7069402 4293729569
5.0666609 -3.4070735 -1.7100393 4293729569
5.1165547 -3.4571795 -1.7101279 4293729569
5.1684451 -3.5072916 -1.7112235 4293729569
5.228322 -3.5624223 -1.7133378 4293729569
5.2822242 -3.6115346 -1.7114416 4293729569
5.3590708 -3.6757059 -1.716599 4293729569
5.4229565 -3.7298422 -1.7167284 4293729569
5.5028119 -3.7930169 -1.7198977 4293729569
5.5826697 -3.8551919 -1.7230685 4293729569
5.6645341 -3.9173682 -1.724246 4293729569
5.7464004 -3.9785442 -1.725425 4293729569
6.8813848 4.8110399 -1.7588882 4288085770
6.7702155 4.7342753 -1.7604477 4288085770
6.9945569 4.8868017 -1.7563329 4288085770
6.6630497 4.658504 -1.7610204 4288085770
7.1107302 4.9625583 -1.7527862 4288085770
6.5398722 4.5697742 -1.7565267 4288085770
7.2168989 5.0303416 -1.7451981 4288085770
6.4186974 4.481041 -1.7510387 4288085770
7.3440824 5.110075 -1.7416894 4288085770
6.3015299 4.3943019 -1.7445654 4288085770
7.4662585 5.1838212 -1.7361569 4288085770
6.2133789 4.3244891 -1.7452021 4288085770
7.593442 5.2595587 -1.7296419 4288085770
6.1222301 4.251688 -1.7428255 4288085770
7.7196259 5.3313026 -1.7201179 4288085770
6.0490918 4.1908407 -1.7455194 4288085770
7.8688273 5.4169912 -1.7146821 4288085770
5.9919643 4.1379561 -1.750272 4288085770
8.0090199 5.4937034 -1.7062062 4288085770
5.937839 4.0870638 -1.7560364 4288085770
8.1742334 5.5843577 -1.7008246 4288085770
8.9183502 6.0827856 -1.686749 4288085770
8.722064 5.9502044 -1.6869758 4288085770
9.1096411 6.2103834 -1.6815 4288085770
8.5708218 5.8465199 -1.6933779 4288085770
9.4090281 6.4077239 -1.6946716 4288085770
8.4165745 5.737843 -1.6977632 4288085770
9.79249 6.6568651 -1.720167 4288085770
8.2623262 5.6271687 -1.7011455 4288085770
5.8847132 4.0341706 -1.7608005 4288085770
10.084878 6.8442311 -1.7263033 4288085770
8.3564634 5.6839738 -1.6965059 4288085770
8.1250963 5.5264559 -1.7055926 4288085770
10.294188 6.9718003 -1.7141064 4288085770
8.0128889 5.4406848 -1.7131351 4288085770
5.8265886 3.978292 -1.7625452 4288085770
10.509503 7.1003575 -1.7019284 4288085770
8.5587053 5.7925434 -1.694259 4288085770
7.8996797 5.3519177 -1.7196702 4288085770
10.738831 7.2348838 -1.6898003 4288085770
7.7994847 5.2701225 -1.7262535 4288085770
5.7654605 3.9174235 -1.7622738 4288085770
10.97817 7.3723917 -1.6757058 4288085770
8.7609491 5.900116 -1.6910106 4288085770
7.6992879 5.1873264 -1.7328352 4288085770
11.275573 7.5457678 -1.6668347 4288085770
5.7283468 3.873493 -1.7690979 4288085770
8.9832067 6.0156426 -1.6888326 4288085770
7.6010952 5.1035304 -1.7374212 4288085770
11.642035 7.7599826 -1.667227 4288085770
7.5119066 5.0247116 -1.744041 4288085770
5.7032399 3.8345339 -1.7779645 4288085770
9.2174778 6.137145 -1.6866986 4288085770
7.429729 4.9488797 -1.7496854 4288085770
5.6611257 3.78462 -1.7807647 4288085770
9.5067987 6.2905183 -1.6907734 4288085770
7.3345428 4.8640809 -1.7512785 4288085770
5.634017 3.7426682 -1.7876205 4288085770
9.9112225 6.5136223 -1.7112893 4288085770
7.2573705 4.7892385 -1.7559391 4288085770
10.30864 6.7277474 -1.7277712 4288085770
7.1601849 4.7004495 -1.7545199 4288085770
5.6069098 3.6997178 -1.7934748 4288085770
7.0529947 4.6036863 -1.7490593 4288085770
10.619979 6.881083 -1.7259099 4288085770
5.5728025 3.6527867 -1.7963029 4288085770
6.9888372 4.5348186 -1.7527666 4288085770
10.882268 6.9985371 -1.714851 4288085770
5.5476966 3.6088336 -1.8011613 4288085770
6.8796487 4.4360628 -1.7452971 4288085770
11.179593 7.133914 -1.7049216 4288085770
5.5235929 3.5648794 -1.8050227 4288085770
6.8004837 4.3552356 -1.7429422 4288085770
11.455894 7.2513442 -1.6899034 4288085770
5.4874845 3.5129576 -1.8048368 4288085770
6.7513385 4.293334 -1.7477036 4288085770
11.836287 7.4275327 -1.6872777 4288085770
5.4663839 3.4699969 -1.8087081 4288085770
6.6691761 4.209518 -1.7423351 4288085770
12.199664 7.5887666 -1.6785797 4288085770
5.4442816 3.4250402 -1.8115734 4288085770
6.6300406 4.1515946 -1.7471315 4288085770
12.633101 7.7878394 -1.6771435 4288085770
6.5899029 4.0916748 -1.7509217 4288085770
5.419178 3.3780913 -1.813427 4288085770
6.5607729 4.0377293 -1.756753 4288085770
5.3760705 3.3181932 -1.8072083 4288085770
3.9301682 2.4312954 -1.8036464 4288085770
6.5296445 3.9817896 -1.7605754 4288085770
3.8861108 2.4043901 -1.8034772 4288085770
3.8490534 2.3814654 -1.8063344 4288085770
3.9762239 2.4571965 -1.8038199 4288085770
4.0232849 2.484097 -1.8029977 4288085770
3.8059988 2.3545592 -1.8051679 4288085770
4.0883436 2.5199485 -1.8092417 4288085770
5.3649783 3.279211 -1.8111144 4288085770
3.7649422 2.3266492 -1.8040055 4288085770
4.1454086 2.5498261 -1.8094528 4288085770
3.7338872 2.3047113 -1.8068814 4288085770
4.2034698 2.5796998 -1.810667 4288085770
3.697835 2.2787902 -1.8057365 4288085770
4.251534 2.6026039 -1.8058412 4288085770
3.6617861 2.2528708 -1.8035916 4288085770
6.5015173 3.9278431 -1.7654095 4288085770
4.321599 2.6364493 -1.8090962 4288085770
3.6417315 2.2339067 -1.8085036 4288085770
5.3388772 3.2292688 -1.8099602 4288085770
4.395668 2.6722863 -1.8123658 4288085770
3.6136813 2.2099671 -1.8083848 4288085770
4.4597335 2.7011499 -1.8115956 4288085770
3.5846317 2.1850314 -1.8072616 4288085770
6.4683881 3.8689115 -1.7672213 4288085770
4.5408034 2.73897 -1.8158885 4288085770
3.5655787 2.1650667 -1.8111748 4288085770
5.3187809 3.1823123 -1.8098279 4288085770
4.6118751 2.7688205 -1.81414 4288085770
3.535533 2.1391356 -1.8080467 4288085770
4.6829491 2.7986724 -1.8113915 4288085770
6.4412651 3.8139653 -1.7700566 4288085770
3.4984901 2.1072271 -1.7998893 4288085770
4.7540169 2.8255243 -1.8086382 4288085770
5.30269 3.1383474 -1.8097117 4288085770
4.8361144 2.8653538 -1.8049374 4288085770
3.4994357 2.0962093 -1.8108741 4288085770
4.706955 2.7906313 -1.8044475 4288085770
4.7660332 2.8245075 -1.802671 4288085770
4.902195 2.9012132 -1.8041842 4288085770
4.6618805 2.7627208 -1.8092736 4288085770
4.9742785 2.9400582 -1.8044529 4288085770
4.5988059 2.723861 -1.8060304 4288085770
4.830091 2.8553653 -1.805904 4288085770
5.0583653 2.9848738 -1.8077658 4288085770
4.5577345 2.6969419 -1.8108697 4288085770
6.4191408 3.7600071 -1.7739078 4288085770
5.1304522 3.0207231 -1.8050299 4288085770
4.5026608 2.6610615 -1.8096542 4288085770
3.4773917 2.0722597 -1.8087723 4288085770
5.2145414 3.0635412 -1.8063396 4288085770
4.4575911 2.6291568 -1.810474 4288085770
4.9101677 2.8861978 -1.8031831 4288085770
5.3006325 3.1043577 -1.8056519 4288085770
4.4155216 2.5982461 -1.8113039 4288085770
5.2945967 3.0973604 -1.8126233 4288085770
3.4413526 2.0393522 -1.7986158 4288085770
5.4027309 3.1541338 -1.8090245 4288085770
4.3754573 2.5693309 -1.8121426 4288085770
5.0132461 2.9289694 -1.8085471 4288085770
5.5078311 3.2049041 -1.8124073 4288085770
6.4070292 3.713026 -1.7787989 4288085770
4.3343906 2.5374193 -1.8119737 4288085770
5.6019297 3.2477047 -1.8107456 4288085770
3.5102828 2.0651417 -1.8418546 4288085770
5.1083279 2.9647667 -1.8078773 4288085770
4.2903233 2.5025167 -1.8097916 4288085770
5.7110357 3.2964706 -1.8111367 4288085770
5.2845082 3.0543826 -1.812526 4288085770
4.2542605 2.4725943 -1.80964 4288085770
3.4702444 2.0282466 -1.8286802 4288085770
5.8091354 3.338264 -1.8084852 4288085770
5.2124095 3.0035419 -1.8092378 4288085770
6.385911 3.6590686 -1.7806528 4288085770
4.2192006 2.4426713 -1.8084915 4288085770
5.902236 3.3750741 -1.8018115 4288085770
5.3154926 3.0413203 -1.8095943 4288085770
4.189137 2.4137347 -1.8093587 4288085770
5.2684164 3.0084186 -1.8114066 4288085770
6.0093446 3.4198501 -1.7981905 4288085770
4.1570783 2.3828065 -1.8072172 4288085770
6.3818011 3.6140685 -1.7865701 4288085770
5.4305768 3.0840688 -1.812993 4288085770
6.139461 3.4745693 -1.7996516 4288085770
4.1250191 2.3518786 -1.8050754 4288085770
6.2545738 3.5193291 -1.795054 4288085770
5.5506697 3.128808 -1.8154093 4288085770
5.258328 2.9654405 -1.8113092 4288085770
4.1069608 2.3279135 -1.8079851 4288085770
6.3836913 3.5710545 -1.7935076 4288085770
6.3696876 3.5620918 -1.7884531 4288085770
5.6577549 3.1635823 -1.8127726 4288085770
4.081903 2.2999673 -1.8078684 4288085770
6.4918032 3.6068382 -1.7828755 4288085770
5.2502403 2.9224584 -1.8112174 4288085770
5.7798491 3.2053216 -1.8121902 4288085770
4.0538478 2.2690325 -1.8047379 4288085770
6.3745813 3.5220699 -1.7964039 4288085770
6.5879092 3.636652 -1.7691994 4288085770
6.7510424 3.7002988 -1.77177 4288085770
5.8849359 3.2351062 -1.8055397 4288085770
4.0437937 2.2470498 -1.8076736 4288085770
5.2351532 2.8754954 -1.808099 4288085770
6.374476 3.4780631 -1.801334 4288085770
6.9051743 3.7569716 -1.7693038 4288085770
4.0207343 2.2171013 -1.8065591 4288085770
6.009028 3.2738426 -1.8039583 4288085770
7.0673113 3.8156278 -1.7668639 4288085770
4.0086827 2.1931262 -1.8074858 4288085770
6.1421227 3.315558 -1.8034077 4288085770
5.2360725 2.8374922 -1.809041 4288085770
6.3693686 3.4300694 -1.8042436 4288085770
7.2274466 3.8712907 -1.7624134 4288085770
4.000627 2.1701393 -1.8104255 4288085770
6.2872233 3.3612463 -1.8038979 4288085770
7.3895874 3.9259524 -1.7559673 4288085770
5.2349877 2.7974935 -1.8099742 4288085770
6.3652616 3.3810756 -1.8061541 4288085770
3.9885759 2.1451657 -1.8103505 4288085770
6.4343243 3.4059315 -1.8033923 4288085770
7.5797386 3.9915476 -1.7536191 4288085770
3.9855223 2.124167 -1.8143077 4288085770
6.5674219 3.4416544 -1.7978324 4288085770
6.3531561 3.330102 -1.8060385 4288085770
7.7748933 4.0581331 -1.7512872 4288085770
5.2279038 2.7535121 -1.8078835 4288085770
3.9784732 2.1001821 -1.8142486 4288085770
7.9580426 4.1157508 -1.7439065 4288085770
6.7045221 3.4773698 -1.791284 4288085770
6.3510542 3.282105 -1.8069563 4288085770
5.2308259 2.7155061 -1.807831 4288085770
3.9714231 2.0751977 -1.8141878 4288085770
8.1842127 4.192266 -1.7436799 4288085770
6.8906331 3.5349624 -1.7969116 4288085770
3.9673724 2.0522053 -1.8151388 4288085770
8.4193878 4.269763 -1.7424809 4288085770
6.3559532 3.2370903 -1.8098992 4288085770
5.2317443 2.6755044 -1.8077697 4288085770
7.0537415 3.5786176 -1.793451 4288085770
8.6615667 4.3492446 -1.7413055 4288085770
3.96732 2.0302014 -1.8181028 4288085770
7.2298517 3.6272423 -1.7920364 4288085770
6.3488531 3.1871088 -1.8078003 4288085770
5.2346649 2.6365004 -1.8067167 4288085770
8.9147482 4.4287062 -1.7381636 4288085770
3.9652681 2.0062068 -1.8180593 4288085770
7.4019604 3.6698794 -1.7876021 4288085770
9.1889477 4.5161214 -1.7360951 4288085770
6.3577538 3.1430852 -1.810758 4288085770
5.2375889 2.5964971 -1.8046627 4288085770
3.9672189 1.9832011 -1.8190281 4288085770
7.5740733 3.711519 -1.7811661 4288085770
9.5461836 4.6393375 -1.7473235 4288085770
3.963172 1.9582113 -1.8179771 4288085770
6.3556533 3.093091 -1.8096746 4288085770
7.7711887 3.7610977 -1.7798152 4288085770
5.2595119 2.5654426 -1.8096776 4288085770
9.9134293 4.763535 -1.7565824 4288085770
16.22101 7.7450643 -1.7144978 4288085770
3.9781199 1.9411708 -1.823993 4288085770
7.9643044 3.8066893 -1.7754467 4288085770
10.248657 4.8668151 -1.7567163 4288085770
6.3585596 3.0460858 -1.8086102 4288085770
5.2694359 2.5284212 -1.8096484 4288085770
15.918434 7.4827042 -1.7192189 4288085770
3.9810753 1.9171661 -1.8229634 4288085770
8.147418 3.8453078 -1.7670383 4288085770
10.612902 4.980031 -1.7579499 4288085770
6.3594666 2.9980867 -1.8065385 4288085770
5.2783618 2.4904037 -1.8086147 4288085770
15.761979 7.2930121 -1.7364759 4288085770
3.9750299 1.8891851 -1.8189013 4288085770
8.3375292 3.8839114 -1.7586504 4288085770
10.990149 5.0932183 -1.7592217 4288085770
6.3643732 2.9510775 -1.8054798 4288085770
11.328378 5.1855044 -1.750348 4288085770
8.5726585 3.9404082 -1.7574213 4288085770
3.9909825 1.8711452 -1.8229187 4288085770
5.2912893 2.4543755 -1.8085958 4288085770
15.630544 7.113265 -1.7548211 4288085770
11.699626 5.2877183 -1.7425855 4288085770
8.8147907 3.9958901 -1.7552109 4288085770
6.3722816 2.9050617 -1.8044313 4288085770
3.9979367 1.8481306 -1.8229021 4288085770
15.487111 6.932548 -1.7701296 4288085770
5.3092179 2.4193368 -1.8085929 4288085770
12.113893 5.4018345 -1.7379671 4288085770
9.0729265 4.0553379 -1.7540532 4288085770
4.0088902 1.8261056 -1.8238986 4288085770
6.3781939 2.858053 -1.8013755 4288085770
15.136564 6.6623135 -1.7596976 4288085770
5.3261471 2.3843005 -1.808587 4288085770
3.6154399 1.6399261 -1.840467 4288085770
12.530162 5.5119524 -1.7293483 4288085770
9.3580723 4.1227226 -1.7559866 4288085770
3.6205065 1.6349531 -1.8144735 4288085770
4.0188451 1.8040843 -1.8238922 4288085770
3.6835451 1.6538161 -1.8156853 4288085770
6.4001055 2.8180027 -1.8033769 4288085770
12.974441 5.6300068 -1.7228236 4288085770
3.7525845 1.6756632 -1.8189191 4288085770
3.6314754 1.6219267 -1.8164842 4288085770
3.581434 1.6000375 -1.8143049 4288085770
3.6725204 1.6388428 -1.8136296 4288085770
14.663961 6.3433661 -1.7318352 4288085770
3.6113539 1.6119205 -1.8504105 4288085770
3.7325594 1.6637064 -1.8188424 4288085770
3.5443256 1.5820823 -1.8381693 4288085770
3.7846041 1.6845945 -1.8190258 4288085770
9.6142025 4.1741791 -1.7508111 4288085770
5.3480754 2.3502519 -1.8095973 4288085770
3.8456469 1.7084587 -1.8222399 4288085770
3.8276224 1.6984959 -1.8231722 4288085770
3.8996925 1.7283438 -1.8214276 4288085770
3.5252886 1.5671204 -1.8400904 4288085770
4.0338016 1.7830508 -1.8249016 4288085770
3.9647403 1.753201 -1.8236548 4288085770
4.0317855 1.7770538 -1.8258862 4288085770
3.9056582 1.7213207 -1.8284336 4288085770
4.0928349 1.7979238 -1.8250957 4288085770
13.472747 5.7629409 -1.7184792 4288085770
6.4120207 2.7719808 -1.8003398 4288085770
4.1498904 1.8168086 -1.8202903 4288085770
3.9796982 1.7421587 -1.8306804 4288085770
9.8703327 4.2206407 -1.7426281 4288085770
14.358476 6.103035 -1.7215796 4288085770
4.2179379 1.838662 -1.8205216 4288085770
5.3670044 2.3152108 -1.8095971 4288085770
4.2839947 1.8605243 -1.817747 4288085770
4.0527525 1.7630059 -1.8279244 4288085770
4.0547442 1.7629973 -1.8309301 4288085770
3.4732866 1.5192808 -1.8068634 4288085770
4.3530507 1.8823801 -1.8149812 4288085770
14.031089 5.9157443 -1.7163403 4288085770
4.1287889 1.7818394 -1.8301737 4288085770
4.4410996 1.9101847 -1.8192796 4288085770
10.184485 4.2889647 -1.7426476 4288085770
6.4339366 2.7309334 -1.8003397 4288085770
4.5221572 1.9350117 -1.8185533 4288085770
14.198088 5.9263716 -1.7258437 4288085770
4.2028346 1.799683 -1.8284159 4288085770
4.0657096 1.7399795 -1.8269248 4288085770
4.6022148 1.9588424 -1.8168224 4288085770
3.5202332 1.5131581 -1.8219888 4288085770
5.3929367 2.2831535 -1.8106219 4288085770
14.642455 6.0804315 -1.7153744 4288085770
4.2838807 1.8205086 -1.828683 4288085770
4.680275 1.9806803 -1.8130827 4288085770
10.518645 4.3602462 -1.7427301 4288085770
4.7743301 2.0074763 -1.814397 4288085770
4.3489337 1.8333803 -1.8208914 4288085770
6.4608564 2.6918755 -1.8003571 4288085770
4.0846677 1.7199377 -1.8279476 4288085770
14.073727 5.7666249 -1.7332386 4288085770
15.468935 6.3246279 -1.7341568 4288085770
4.8643937 2.0322869 -1.8116966 4288085770
3.5381963 1.4941196 -1.8220098 4288085770
4.4329791 1.8522009 -1.8201641 4288085770
5.4048672 2.2431335 -1.8065934 4288085770
4.9544578 2.0560989 -1.807995 4288085770
10.877806 4.4354711 -1.7448918 4288085770
4.529026 1.8759912 -1.8224796 4288085770
5.050518 2.0808949 -1.8063121 4288085770
6.4817719 2.6488314 -1.7993507 4288085770
16.460508 6.6244545 -1.7625064 4288085770
4.1056209 1.6988897 -1.8299744 4288085770
13.986394 5.6227965 -1.7427655 4288085770
3.554163 1.4740887 -1.8200234 4288085770
5.1615839 2.1106558 -1.8066806 4288085770
4.608077 1.8908298 -1.8167316 4288085770
11.287992 4.5275774 -1.752228 4288085770
