# .PCD v0.7 - Point Cloud Data file format
VERSION 0.7
FIELDS x y z rgb
SIZE 4 4 4 4
TYPE F F F U
COUNT 1 1 1 1
WIDTH 1118
HEIGHT 1
VIEWPOINT 0 0 0 1 0 0 0
POINTS 1118
DATA ascii
0.38296509 -2.1114731 -1.8682685 4288085770
0.22595215 -2.0698357 -1.8657453 4288085770
0.094024658 -2.0361547 -1.8701425 4288085770
-0.032958984 -2.003459 -1.8715255 4288085770
-0.16796875 -1.9647751 -1.8709433 4288085770
-0.28991699 -1.9310637 -1.8713176 4288085770
-0.41091919 -1.8953485 -1.871695 4288085770
-0.54293823 -1.8546448 -1.8661118 4288085770
-0.58035278 0.28376198 -1.8131218 4288085770
-0.46231079 0.29602432 -1.8138821 4288085770
-0.34423828 0.30728531 -1.8136406 4288085770
-0.23516846 0.31954288 -1.8084221 4288085770
-0.099090576 0.33184242 -1.8101416 4288085770
0.039978027 0.34415245 -1.8108537 4288085770
0.18502808 0.35647202 -1.8115523 4288085770
0.33413696 0.3688097 -1.8102417 4288085770
-0.58483887 0.38568974 -1.8194165 4288085770
0.46817017 0.38112831 -1.8029654 4288085770
-0.45977783 0.39596653 -1.8201554 4288085770
0.64123535 0.39351368 -1.8035989 4288085770
-0.3427124 0.40623665 -1.8159134 4288085770
0.8453064 0.40594864 -1.811161 4288085770
-0.20663452 0.41553593 -1.8176243 4288085770
1.0274048 0.41836357 -1.8097742 4288085770
-0.073547363 0.42583752 -1.815345 4288085770
1.2084656 0.42977619 -1.8063865 4288085770
0.058532715 0.43514156 -1.8120654 4288085770
1.4285583 0.4422636 -1.8089118 4288085770
0.20059204 0.44447136 -1.8077621 4288085770
1.647644 0.4547596 -1.8074393 4288085770
0.38168335 0.45486164 -1.8133721 4288085770
1.8727112 0.46727276 -1.8049529 4288085770
0.53973389 0.46422291 -1.8100321 4288085770
2.1217651 0.47883415 -1.8044081 4288085770
0.71780396 0.47362328 -1.8096461 4288085770
2.402832 0.49246025 -1.8067946 4288085770
0.91790771 0.48306465 -1.8122091 4288085770
2.678894 0.50408459 -1.8051875 4288085770
1.117981 0.49251175 -1.8127723 4288085770
2.9659424 0.51674175 -1.8005579 4288085770
1.3190613 0.50096703 -1.8103302 4288085770
3.2970276 0.52948761 -1.8008263 4288085770
1.5501099 0.51048279 -1.8118215 4288085770
3.6311035 0.54124832 -1.7970853 4288085770
1.801239 0.51903725 -1.8152637 4288085770
4.0091553 0.55410194 -1.7972448 4288085770
2.0162964 0.52654266 -1.8067868 4288085770
4.4092102 0.56700706 -1.7953539 4288085770
2.2933655 0.53516197 -1.8081689 4288085770
4.853302 0.58001041 -1.795361 4288085770
2.569458 0.54278755 -1.8065507 4288085770
5.3233643 0.59307575 -1.7933083 4288085770
2.8535461 0.55043507 -1.8029141 4288085770
5.8574219 0.60728168 -1.7931101 4288085770
3.1646118 0.55814648 -1.7992151 4288085770
6.4525146 0.62162018 -1.7947712 4288085770
3.5216675 0.56494522 -1.8004067 4288085770
7.0765686 0.63504028 -1.7913623 4288085770
3.8857727 0.57176876 -1.7985823 4288085770
7.7606506 0.64859581 -1.7878149 4288085770
4.3028564 0.57870674 -1.7996354 4288085770
8.5387268 0.66335869 -1.7860525 4288085770
4.7509766 0.58571243 -1.8006167 4288085770
9.4047852 0.6773243 -1.7830844 4288085770
5.2080078 0.59075165 -1.7975717 4288085770
10.390869 0.69355488 -1.7828443 4288085770
5.7221069 0.59691429 -1.7963977 4288085770
11.5289 0.71013355 -1.7812526 4288085770
6.3092346 0.60223579 -1.7980523 4288085770
12.920013 0.72925758 -1.7900815 4288085770
6.9453125 0.60667229 -1.797591 4288085770
7.615387 0.60919094 -1.7950451 4288085770
8.3604736 0.61188412 -1.7913263 4288085770
9.2165833 0.61382103 -1.7903476 4288085770
10.216675 0.61506748 -1.7950332 4288085770
11.276794 0.61347389 -1.7905722 4288085770
12.555908 0.61236286 -1.7926047 4288085770
13.96402 0.60754967 -1.7903278 4288085770
5.2750854 -4.6156397 -0.39916912 4293729569
5.2830811 -4.5407267 -0.43435678 4293729569
5.289093 -4.4638128 -0.46855482 4293729569
5.2880859 -4.3829136 -0.50177979 4293729569
5.3141174 -4.3139515 -0.53390932 4293729569
5.5683594 -4.3365059 -0.57525611 4293729569
5.825592 -4.3550539 -0.61760664 4293729569
11.837433 -5.4530401 -0.36459336 4293729569
11.842285 -5.3231115 -0.39093903 4293729569
11.853302 -5.1966314 -1.3112674 4293729569
11.873138 -5.068656 -1.333573 4293729569
11.963074 -4.9645338 -1.35865 4293729569
13.555054 0.90340424 -1.7924719 4288085770
12.309082 0.9316988 -1.7894471 4288085770
11.285126 0.9604578 -1.7939076 4288085770
10.212158 0.98215961 -1.7804623 4288085770
9.3321533 1.0042591 -1.7735693 4288085770
8.5482178 1.0255613 -1.7694514 4288085770
7.9532776 1.0522394 -1.778909 4288085770
7.3763123 1.0759706 -1.7823167 4288085770
6.8563538 1.099822 -1.7875922 4288085770
13.323486 1.5648394 -1.7888625 4288085770
6.3274536 1.1196747 -1.7848773 4288085770
12.314545 1.576622 -1.7962401 4288085770
5.8544617 1.1396446 -1.7840326 4288085770
11.268616 1.5793695 -1.7886786 4288085770
5.4335632 1.1597261 -1.7840676 4288085770
10.41571 1.5885143 -1.7876866 4288085770
5.0505981 1.179884 -1.7860141 4288085770
9.4737549 1.5835161 -1.7688618 4288085770
4.6766663 1.19907 -1.7849371 4288085770
8.6798096 1.5848198 -1.7567105 4288085770
4.324707 1.2163086 -1.7818038 4288085770
8.0958862 1.5985384 -1.7601061 4288085770
4.0467529 1.2386847 -1.7875128 4288085770
7.5259399 1.6092978 -1.7594609 4288085770
3.7368164 1.2550154 -1.7842791 4288085770
7.1580505 1.6354399 -1.7783892 4288085770
3.494873 1.2774668 -1.7909043 4288085770
6.7671204 1.6585522 -1.7913628 4288085770
3.2149353 1.2938662 -1.7866011 4288085770
6.3541565 1.6746368 -1.7953675 4288085770
2.9779968 1.3123436 -1.7872036 4288085770
5.9212341 1.6857052 -1.7914047 4288085770
2.7620544 1.3328648 -1.788763 4288085770
5.5263062 1.6978474 -1.7893567 4288085770
2.5531006 1.3524008 -1.7903037 4288085770
5.1573486 1.7100506 -1.7862484 4288085770
2.3531799 1.3709612 -1.7908204 4288085770
4.8234558 1.7243242 -1.7850645 4288085770
2.1722107 1.3905582 -1.7922959 4288085770
4.5214844 1.7396641 -1.7848091 4288085770
1.9932861 1.4101639 -1.7927668 4288085770
4.2165833 1.7520075 -1.7805526 4288085770
1.8153381 1.4277792 -1.79023 4288085770
3.9606323 1.7694426 -1.782196 4288085770
1.6454163 1.4444113 -1.7886717 4288085770
3.6796875 1.7798462 -1.7758784 4288085770
1.4984436 1.4640827 -1.7900684 4288085770
3.4377441 1.7953234 -1.773484 4288085770
1.3564758 1.4837723 -1.7894535 4288085770
3.217804 1.8108444 -1.7720387 4288085770
1.206543 1.5004473 -1.7868488 4288085770
3.0258789 1.8304129 -1.7755394 4288085770
1.0866394 1.5221767 -1.7891884 4288085770
2.8249512 1.8469782 -1.7730529 4288085770
0.96066284 1.5408974 -1.7885334 4288085770
2.6889954 1.8736515 -1.7824435 4288085770
0.8347168 1.5586252 -1.786876 4288085770
2.5180664 1.8922749 -1.7828929 4288085770
0.72775269 1.5793877 -1.7871828 4288085770
2.3611145 1.9119272 -1.7833126 4288085770
0.62084961 1.5991497 -1.7874868 4288085770
2.2031555 1.9315815 -1.7827344 4288085770
0.51086426 1.6179085 -1.7857947 4288085770
2.071228 1.9542847 -1.7851048 4288085770
0.43093872 1.6417198 -1.7900472 4288085770
1.919281 1.9709549 -1.7825043 4288085770
0.32800293 1.6604977 -1.7873392 4288085770
1.7843323 1.9906616 -1.7808731 4288085770
0.2350769 1.6792984 -1.7856078 4288085770
1.6743774 2.0144129 -1.783195 4288085770
0.16513062 1.7031307 -1.7888372 4288085770
1.5384216 2.031126 -1.7785578 4288085770
0.056152344 1.7179117 -1.7811317 4288085770
1.4344788 2.0538902 -1.7798629 4288085770
-0.0047607422 1.7427626 -1.7853429 4288085770
1.3185425 2.0746393 -1.7781904 4288085770
-0.094726562 1.7605762 -1.7796018 4288085770
1.2185669 2.0964203 -1.7774837 4288085770
-0.16070557 1.7834244 -1.7808187 4288085770
1.114624 2.1171961 -1.7747831 4288085770
-0.21862793 1.8082895 -1.7830231 4288085770
1.0196838 2.1389894 -1.7730646 4288085770
-0.2895813 1.8291359 -1.7812462 4288085770
0.9347229 2.1628008 -1.7723286 4288085770
-0.33850098 1.8540134 -1.7844298 4288085770
0.85879517 2.1896305 -1.7735801 4288085770
-0.4074707 1.8738737 -1.7796452 4288085770
0.77383423 2.2114439 -1.7718382 4288085770
-0.45544434 1.8997574 -1.7818291 4288085770
0.69985962 2.2362823 -1.7700796 4288085770
-0.50839233 1.9226408 -1.7810159 4288085770
0.63589478 2.2631359 -1.7713027 4288085770
-0.56033325 1.9465227 -1.7802036 4288085770
0.56695557 2.2879877 -1.7695327 4288085770
-0.60128784 1.9734287 -1.7813737 4288085770
0.51095581 2.3168535 -1.7707431 4288085770
0.45401001 2.3447285 -1.7699533 4288085770
0.38104248 2.3665791 -1.7651837 4288085770
0.34210205 2.3984842 -1.7673631 4288085770
0.28512573 2.4243622 -1.7645676 4288085770
0.2411499 2.455265 -1.7637558 4288085770
0.20217896 2.4861727 -1.7639325 4288085770
0.15823364 2.5150814 -1.7611151 4288085770
0.11724854 2.5459909 -1.7592962 4288085770
0.072265625 2.5729036 -1.7544758 4288085770
0.054321289 2.6118498 -1.7576261 4288085770
0.028320312 2.6467876 -1.7577837 4288085770
0.017333984 2.6867514 -1.7599201 4288085770
0.0024108887 2.725708 -1.7620633 4288085770
-0.014587402 2.763669 -1.7612085 4288085770
-0.038604736 2.7986193 -1.7583616 4288085770
-0.060577393 2.8335762 -1.7545094 4288085770
-0.060577393 2.8775644 -1.7566319 4288085770
-0.066558838 2.919549 -1.7557626 4288085770
-0.065582275 2.9635439 -1.7558825 4288085770
-0.056549072 3.0115528 -1.7579951 4288085770
-0.051544189 3.0585585 -1.7581139 4288085770
-0.030548096 3.112586 -1.7622151 4288085770
0.0014038086 3.1716337 -1.7683046 4288085770
0.015380859 3.2226562 -1.7684138 4288085770
0.018371582 3.2676706 -1.7635317 4288085770
0.070373535 3.3387537 -1.7726085 4288085770
0.091339111 3.3917942 -1.7717071 4288085770
0.1333313 3.4568686 -1.77579 4288085770
0.16427612 3.5169315 -1.7748847 4288085770
0.21923828 3.5890303 -1.7799571 4288085770
0.24420166 3.6450887 -1.7760546 4288085770
0.31314087 3.7252121 -1.7831166 4288085770
0.37008667 3.8003244 -1.785193 4288085770
0.42303467 3.8704357 -1.7842641 4288085770
0.49395752 3.9525709 -1.7883275 4288085770
0.54992676 4.0256939 -1.7854002 4288085770
0.61184692 4.1028252 -1.7834702 4288085770
0.71273804 4.2020178 -1.7905109 4288085770
-0.59576416 3.5172386 -1.775655 4288085770
0.7666626 4.2731495 -1.7825828 4288085770
-0.49984741 3.6074047 -1.7886822 4288085770
0.85656738 4.3653355 -1.7836294 4288085770
-0.47384644 3.6524882 -1.7767472 4288085770
0.97143555 4.4735622 -1.7886627 4288085770
-0.37094116 3.7466674 -1.7897692 4288085770
1.0763245 4.57478 -1.7896993 4288085770
-0.31698608 3.8097954 -1.7838192 4288085770
1.1901855 4.682014 -1.7917323 4288085770
-0.24206543 3.8849506 -1.7838538 4288085770
1.2781067 4.7722187 -1.7837782 4288085770
-0.137146 3.9791493 -1.7918715 4288085770
1.4099426 4.890491 -1.7858 4288085770
-0.040222168 4.0683403 -1.7958937 4288085770
1.5428162 5.0087709 -1.7858193 4288085770
0.028717041 4.1385016 -1.7889285 4288085770
1.6906128 5.1350794 -1.7868257 4288085770
0.12463379 4.2247028 -1.7889447 4288085770
1.8444519 5.2654076 -1.7858298 4288085770
0.23254395 4.3179269 -1.789953 4288085770
2.0062866 5.4007497 -1.7858293 4288085770
0.35842896 4.4231801 -1.7939525 4288085770
2.1860657 5.5471301 -1.7858174 4288085770
0.48529053 4.5284414 -1.7959497 4288085770
2.3608398 5.6895113 -1.7818058 4288085770
0.62417603 4.6397247 -1.7999361 4288085770
2.5755615 5.8569603 -1.7837708 4288085770
0.71908569 4.7209487 -1.7899413 4288085770
2.8282776 6.0484786 -1.7907147 4288085770
0.8609314 4.8322482 -1.7899203 4288085770
3.0959473 6.2490311 -1.7966487 4288085770
1.0157776 4.9515753 -1.789892 4288085770
3.403595 6.4766626 -1.8055649 4288085770
1.193634 5.0839376 -1.7948463 4288085770
3.7391968 6.7213473 -1.8164635 4288085770
1.3753967 5.2193141 -1.7977993 4288085770
4.0827942 6.970057 -1.8243542 4288085770
1.5552368 5.350698 -1.7967467 4288085770
4.4583435 7.2378349 -1.8322239 4288085770
1.7320557 5.4780827 -1.7926896 4288085770
4.8578186 7.5196686 -1.839077 4288085770
1.9318542 5.6195083 -1.7916181 4288085770
5.2563477 7.8005123 -1.8409297 4288085770
2.1496277 5.7709699 -1.7915325 4288085770
5.6887817 8.1004267 -1.8437564 4288085770
2.3873596 5.9344721 -1.7924342 4288085770
2.6630859 6.1210442 -1.7973118 4288085770
2.9797363 6.3326931 -1.8061635 4288085770
3.3054199 6.5483656 -1.8140059 4288085770
3.6760254 6.7911248 -1.8248186 4288085770
4.0666199 7.0439267 -1.8356133 4288085770
4.4651794 7.2977543 -1.8433919 4288085770
4.8757324 7.5566187 -1.8471572 4288085770
5.2962646 7.8165112 -1.8479021 4288085770
5.7787476 8.1135273 -1.8526063 4288085770
13.734894 -1.1383867 -1.8144929 4288085770
12.862122 -1.1752615 -1.820389 4288085770
12.04129 -1.20502 -1.8251848 4288085770
11.255432 -1.229701 -1.8279145 4288085770
10.561584 -1.2541943 -1.8344347 4288085770
9.8637085 -1.269681 -1.8349886 4288085770
9.243866 -1.2850103 -1.8383644 4288085770
8.6369629 -1.2953024 -1.8387239 4288085770
8.0810852 -1.304493 -1.8409705 4288085770
7.5502014 -1.3086224 -1.8411732 4288085770
13.982971 -2.1080198 -1.8403254 4288085770
7.0523071 -1.312685 -1.841301 4288085770
12.865967 -2.0623837 -1.8370011 4288085770
6.5793762 -1.3136902 -1.8403797 4288085770
12.002045 -2.0382462 -1.8480413 4288085770
6.1495056 -1.3156118 -1.8423579 4288085770
11.134064 -2.0041008 -1.8511176 4288085770
5.7175903 -1.3115263 -1.8403568 4288085770
10.30307 -1.9648638 -1.8501232 4288085770
5.3276978 -1.310359 -1.8412521 4288085770
9.5761108 -1.932415 -1.8528726 4288085770
4.9377747 -1.304184 -1.8381608 4288085770
8.9111328 -1.9028378 -1.8564725 4288085770
4.5988464 -1.3019171 -1.8419421 4288085770
8.2831726 -1.87218 -1.8589911 4288085770
4.2409363 -1.2916689 -1.8377888 4288085770
7.6901855 -1.8394423 -1.8594351 4288085770
3.9440308 -1.2893133 -1.8414745 4288085770
7.1092224 -1.8036661 -1.8558605 4288085770
3.6240845 -1.2789879 -1.8382347 4288085770
6.5942383 -1.7717609 -1.8551242 4288085770
3.3591919 -1.2745647 -1.8428531 4288085770
6.0822754 -1.735836 -1.8503919 4288085770
3.0732727 -1.2631702 -1.840538 4288085770
5.6192627 -1.7048187 -1.8485343 4288085770
2.8323669 -1.2576962 -1.8451045 4288085770
5.2062988 -1.6767025 -1.8505547 4288085770
2.5984497 -1.2512093 -1.8486576 4288085770
4.8003235 -1.6455584 -1.8475676 4288085770
2.3454895 -1.2377396 -1.8452728 4288085770
4.4353638 -1.6183395 -1.8484762 4288085770
2.1226196 -1.2282209 -1.8468094 4288085770
4.0864563 -1.5910826 -1.8483481 4288085770
1.8906555 -1.2137079 -1.8433793 4288085770
3.7564697 -1.5637856 -1.8481767 4288085770
1.6927185 -1.2041378 -1.8458586 4288085770
3.4655151 -1.5414152 -1.851903 4288085770
1.4837952 -1.1905785 -1.8433738 4288085770
3.1665649 -1.5140533 -1.851661 4288085770
1.2978516 -1.1789818 -1.8448312 4288085770
2.877594 -1.4866638 -1.8493965 4288085770
1.1169434 -1.1663713 -1.8452797 4288085770
2.6116333 -1.4612293 -1.8490736 4288085770
0.9420166 -1.1547508 -1.8467119 4288085770
2.357666 -1.4357729 -1.8487239 4288085770
0.7651062 -1.139122 -1.8441596 4288085770
2.1157227 -1.4102869 -1.8483465 4288085770
0.59915161 -1.1254807 -1.8445766 4288085770
1.8857422 -1.3847742 -1.8469419 4288085770
0.44223022 -1.1118135 -1.8439732 4288085770
1.6748352 -1.3612289 -1.8484888 4288085770
0.29129028 -1.0971365 -1.843359 4288085770
1.4668884 -1.3376703 -1.8470287 4288085770
0.16937256 -1.088418 -1.8496623 4288085770
1.2628784 -1.3121033 -1.8455648 4288085770
0.020446777 -1.072732 -1.8470461 4288085770
1.0639343 -1.2855196 -1.842092 4288085770
-0.12249756 -1.0560303 -1.844419 4288085770
0.91201782 -1.269866 -1.849483 4288085770
-0.2444458 -1.0433006 -1.8467331 4288085770
0.72906494 -1.2442503 -1.8469713 4288085770
-0.35534668 -1.0325527 -1.8520167 4288085770
0.55908203 -1.2196093 -1.8444271 4288085770
-0.48529053 -1.0148277 -1.8493626 4288085770
0.40515137 -1.1979437 -1.8458385 4288085770
0.25817871 -1.1772614 -1.8462312 4288085770
0.12026978 -1.1565599 -1.8476036 4288085770
-0.022674561 -1.1338606 -1.8459928 4288085770
-0.16165161 -1.1111565 -1.8443725 4288085770
-0.27655029 -1.092412 -1.847687 4288085770
-0.4095459 -1.0686884 -1.8440559 4288085770
-0.52548218 -1.0479403 -1.844378 4288085770
-0.58483887 0.86140537 -1.7988985 4288085770
-0.46279907 0.87564754 -1.8006623 4288085770
-0.34570312 0.88889599 -1.7984347 4288085770
-0.21963501 0.90315342 -1.7981896 4288085770
-0.087585449 0.91642761 -1.7969282 4288085770
0.044494629 0.92970181 -1.7946668 4288085770
0.18258667 0.94299221 -1.7913921 4288085770
0.3576355 0.95933533 -1.7980416 4288085770
-0.52813721 0.891469 -1.8038604 4288085770
0.4967041 0.97164154 -1.7907622 4288085770
-0.40707397 0.90171814 -1.8036156 4288085770
0.66577148 0.9859848 -1.7914197 4288085770
-0.28900146 0.90997124 -1.7993722 4288085770
0.84686279 1.0003538 -1.7920506 4288085770
-0.15991211 0.91924 -1.7971067 4288085770
1.045929 1.0157604 -1.7936437 4288085770
-0.015838623 0.92953205 -1.7978101 4288085770
1.2399902 1.0301609 -1.7932453 4288085770
0.12121582 0.93782139 -1.794524 4288085770
1.4510193 1.0455952 -1.7928114 4288085770
0.28833008 0.94915295 -1.7991781 4288085770
1.6771545 1.0600624 -1.7933412 4288085770
0.44439697 0.95747852 -1.7968493 4288085770
1.9292297 1.0775681 -1.7978201 4288085770
0.61547852 0.96782875 -1.797492 4288085770
2.1652527 1.0910625 -1.7943242 4288085770
0.79653931 0.97620106 -1.7971065 4288085770
2.4213257 1.1055975 -1.7917862 4288085770
0.98861694 0.98559093 -1.7986991 4288085770
2.6974182 1.12117 -1.7912059 4288085770
1.1837463 0.99399376 -1.7982821 4288085770
2.9884644 1.1357737 -1.7895887 4288085770
1.3988342 1.0034294 -1.8008227 4288085770
3.3295593 1.15347 -1.7928672 4288085770
1.6068726 1.0108633 -1.7983739 4288085770
3.6506042 1.1681433 -1.7891827 4288085770
1.8389893 1.018343 -1.7978711 4288085770
3.9866638 1.180851 -1.7834587 4288085770
2.0840454 1.0258465 -1.7983387 4288085770
4.3677063 1.1966486 -1.7806416 4288085770
2.3421631 1.0333767 -1.7987771 4288085770
4.8277893 1.2165823 -1.7876577 4288085770
2.5962219 1.0379114 -1.7942164 4288085770
5.2858582 1.233532 -1.7866697 4288085770
2.8723145 1.0434895 -1.7916088 4288085770
5.756897 1.2495174 -1.7826498 4288085770
3.1763916 1.049119 -1.7909381 4288085770
6.3800049 1.2737761 -1.7943091 4288085770
3.4954834 1.0537815 -1.7892311 4288085770
6.9880676 1.2940311 -1.7959914 4288085770
3.8405762 1.0584965 -1.7884655 4288085770
7.4801025 1.3011074 -1.7749002 4288085770
4.2206726 1.0622797 -1.789618 4288085770
8.1321716 1.3164778 -1.7674699 4288085770
4.6257629 1.0661154 -1.7897141 4288085770
8.847229 1.3319817 -1.7598977 4288085770
5.0378418 1.067975 -1.7867894 4288085770
10.046295 1.375371 -1.7963076 4288085770
5.5119629 1.069952 -1.7877247 4288085770
11.079346 1.400506 -1.8000426 4288085770
6.0020447 1.0709686 -1.7866216 4288085770
12.235443 1.4278917 -1.8045065 4288085770
6.5951843 1.0731773 -1.7932889 4288085770
13.487488 1.4514961 -1.8017433 4288085770
7.1472778 1.0693388 -1.7870324 4288085770
7.7203674 1.0625486 -1.7787206 4288085770
8.37146 1.0559149 -1.772233 4288085770
9.1665649 1.0505562 -1.7744231 4288085770
10.11972 1.0475006 -1.7852631 4288085770
11.180847 1.0406752 -1.7948487 4288085770
12.347992 1.0300713 -1.8041849 4288085770
13.538147 1.0115452 -1.8014474 4288085770
1.2062073 -4.4825125 -0.18858805 4293729569
1.2053833 -4.4696321 -0.22962555 4293729569
1.1994934 -4.4507561 -0.26969025 4293729569
1.2006836 -4.4348688 -0.30973122 4293729569
1.1948242 -4.4129934 -0.3488045 4293729569
1.1959839 -4.3940992 -0.38685355 4293729569
1.197113 -4.3722095 -0.42591074 4293729569
1.1972351 -4.3493166 -0.46397284 4293729569
1.2003784 -4.3254166 -0.50103092 4293729569
1.1965027 -4.2955322 -0.5381211 4293729569
1.1956482 -4.2666349 -0.57420218 4293729569
1.4350281 -4.3671446 -0.20438752 4293729569
1.2358093 -4.2626648 -0.6131227 4293729569
1.3160095 -4.2554846 -0.2379587 4293729569
1.2859802 -4.2636728 -0.65200722 4293729569
1.3320923 -4.2305574 -0.27399024 4293729569
1.3461914 -4.267664 -0.69286132 4293729569
1.4022827 -4.2385178 -0.31081095 4293729569
1.4093933 -4.2726479 -0.73270571 4293729569
1.4684753 -4.2424879 -0.34765151 4293729569
1.4655457 -4.2716465 -0.77258205 4293729569
1.5417175 -4.2474422 -0.38447353 4293729569
1.5417786 -4.2806053 -0.81338668 4293729569
1.6109009 -4.249403 -0.42031249 4293729569
1.6149902 -4.2865705 -0.85320568 4293729569
1.6850586 -4.2513561 -0.4571403 4293729569
1.6831665 -4.2865448 -0.89305258 4293729569
1.7682495 -4.2572908 -0.49393681 4293729569
1.7643433 -4.2914953 -0.93485618 4293729569
1.8464355 -4.2572308 -0.52976131 4293729569
1.838562 -4.2914562 -0.97468948 4293729569
1.9195862 -4.2531843 -0.56560731 4293729569
1.9147339 -4.2894135 -1.0145235 4293729569
6.6720581 -7.0693998 -1.6622674 4293729569
6.3686523 -6.8090467 -1.6686568 4293729569
6.1282959 -6.589572 -1.678793 4293729569
5.829895 -6.3371878 -1.6771495 4293729569
5.5534668 -6.0997572 -1.6754158 4293729569
5.3061218 -5.8822699 -1.6745629 4293729569
5.131897 -5.7066545 -1.6824312 4293729569
4.9686584 -5.5400114 -1.6882508 4293729569
4.8244019 -5.3833303 -1.6950002 4293729569
4.6802368 -5.2296476 -1.6997418 4293729569
4.5680542 -5.0939035 -1.7073624 4293729569
9.4909363 -7.4836569 -1.6557784 4293729569
4.4729309 -4.9671259 -1.7159202 4293729569
9.2645874 -7.254159 -1.6669104 4293729569
4.3527222 -4.8283854 -1.7175672 4293729569
9.0492554 -7.0346327 -1.6759903 4293729569
4.2565613 -4.7025995 -1.7221246 4293729569
8.8238831 -6.8111143 -1.6811037 4293729569
4.16745 -4.5818033 -1.7266529 4293729569
8.6155701 -6.5995607 -1.6851463 4293729569
4.1043396 -4.4739571 -1.7340875 4293729569
8.3431702 -6.3601065 -1.6784091 4293729569
4.0272217 -4.3611259 -1.7355671 4293729569
8.1658936 -6.1694841 -1.681325 4293729569
3.9681091 -4.2562656 -1.7399843 4293729569
7.9775696 -5.975873 -1.6792738 4293729569
3.8699341 -4.1354637 -1.7365329 4293729569
5.274231 -4.6515989 -1.3729618 4293729569
3.8088074 -4.0315971 -1.737952 4293729569
5.2731628 -4.5656443 -1.3871965 4293729569
3.8408203 -3.9695816 -1.7540479 4293729569
5.2851562 -4.4856625 -1.400386 4293729569
3.9028625 -3.922514 -1.7740352 4293729569
5.2871094 -4.4006939 -1.4116114 4293729569
4.0900574 -3.9262514 -1.8166025 4293729569
5.4271851 -4.3734875 -1.4393686 4293729569
4.3323669 -3.9498968 -1.8669913 4288085770
5.6634216 -4.3821096 -1.4768119 4293729569
4.5455627 -3.9575863 -1.9114892 4288085770
5.9336243 -4.4036741 -1.5181429 4293729569
4.5875244 -3.8935375 -1.9235675 4288085770
7.2930908 -4.8503733 -1.6958637 4293729569
4.5333862 -3.7906361 -1.9169683 4288085770
7.2949829 -4.7483931 -1.7021351 4293729569
4.4983215 -3.694705 -1.9133074 4288085770
7.277832 -4.642436 -1.70346 4293729569
4.4772339 -3.6057453 -1.9105957 4288085770
7.3148193 -4.5553846 -1.7096121 4293729569
4.4571228 -3.5177813 -1.905879 4288085770
7.3347168 -4.4633579 -1.7128158 4293729569
4.4440613 -3.4338074 -1.9031358 4288085770
7.3896484 -4.382268 -1.7189109 4293729569
4.4519958 -3.3557911 -1.901329 4288085770
7.4446106 -4.2991772 -1.7240112 4293729569
4.4579468 -3.2787762 -1.898524 4288085770
7.5145569 -4.223052 -1.7290587 4293729569
4.4728394 -3.2037487 -1.8966932 4288085770
7.6004944 -4.1508951 -1.7340596 4293729569
4.4848022 -3.127718 -1.8928721 4288085770
7.7235107 -4.0886726 -1.7429497 4293729569
4.5247803 -3.0606422 -1.8929634 4288085770
7.9635925 -4.06425 -1.7654729 4293729569
4.5596924 -2.9935694 -1.8900654 4288085770
8.3167725 -4.069622 -1.7996597 4293729569
4.5946655 -2.9244947 -1.8871734 4288085770
8.8801575 -4.1346312 -1.8572104 4288085770
4.6606445 -2.8653679 -1.8881845 4288085770
9.1752319 -4.1130943 -1.8806009 4288085770
4.712616 -2.8012629 -1.8862402 4288085770
9.5414124 -4.1074324 -1.9097884 4288085770
4.7785645 -2.7401323 -1.8852563 4288085770
9.7354126 -4.0490599 -1.9175072 4282675967
4.8375244 -2.6780052 -1.8812912 4288085770
9.8873596 -3.9747524 -1.9163642 4282675967
4.9155273 -2.6188478 -1.8792751 4288085770
9.98526 -3.8865337 -1.9073811 4288085770
5.0014954 -2.5626736 -1.8782325 4288085770
10.156219 -3.816185 -1.9051843 4288085770
5.0894775 -2.5054941 -1.8761883 4288085770
10.356201 -3.75278 -1.9049032 4288085770
5.194458 -2.4522829 -1.8750947 4288085770
10.535126 -3.6804047 -1.8996937 4288085770
5.2944336 -2.3960733 -1.8720207 4288085770
10.81012 -3.6268587 -1.9032164 4288085770
5.4194336 -2.3448238 -1.8718765 4288085770
11.012054 -3.5564318 -1.8959494 4288085770
5.5574341 -2.2955446 -1.8716977 4288085770
11.271027 -3.4939022 -1.8935323 4288085770
5.6894226 -2.2432756 -1.8695407 4288085770
11.563995 -3.4372997 -1.891022 4288085770
5.8414001 -2.1929722 -1.8693328 4288085770
11.860962 -3.3786898 -1.8875082 4288085770
5.977356 -2.1396837 -1.8641691 4288085770
12.188904 -3.3220139 -1.883919 4288085770
6.1723938 -2.0952969 -1.8668482 4288085770
12.53894 -3.2662935 -1.8802772 4288085770
6.3493958 -2.0459347 -1.8645811 4288085770
12.901886 -3.20854 -1.8736117 4288085770
6.5033875 -1.9896059 -1.8573849 4288085770
13.352905 -3.1616211 -1.8727176 4288085770
6.7123413 -1.9421835 -1.8570402 4288085770
13.831879 -3.1156416 -1.8707573 4288085770
6.9333496 -1.8947306 -1.8546684 4288085770
14.313843 -3.0636444 -1.8648067 4288085770
7.1923523 -1.8502111 -1.8562024 4288085770
7.497406 -1.8106079 -1.8616195 4288085770
7.7613831 -1.7620659 -1.859153 4288085770
8.056427 -1.7144642 -1.8576143 4288085770
8.359375 -1.6648436 -1.8550622 4288085770
8.7053833 -1.6181402 -1.8544054 4288085770
9.0763855 -1.5713863 -1.8546917 4288085770
9.4363708 -1.5196438 -1.8490167 4288085770
9.8363647 -1.4678192 -1.8452511 4288085770
10.288391 -1.4178953 -1.8433628 4288085770
10.783356 -1.3668871 -1.8423798 4288085770
11.28833 -1.3108473 -1.8373878 4288085770
11.876312 -1.2576437 -1.8352003 4288085770
12.469269 -1.19942 -1.8290145 4288085770
13.186279 -1.1429586 -1.8285434 4288085770
13.911224 -1.0794697 -1.8230731 4288085770
14.282379 1.4784021 -1.7930083 4288085770
13.406372 1.5336199 -1.7991576 4288085770
12.580383 1.585947 -1.8021851 4288085770
11.799408 1.6303787 -1.8000884 4288085770
11.047394 1.6708755 -1.7949145 4288085770
10.376404 1.7095385 -1.7895513 4288085770
9.7073975 1.7412167 -1.7791648 4288085770
8.9743958 1.7598066 -1.7538886 4288085770
8.6254272 1.8130579 -1.7698298 4288085770
8.2184753 1.8552256 -1.7738729 4288085770
7.6705017 1.8761635 -1.7571812 4288085770
7.3444824 1.919486 -1.7630429 4288085770
7.09552 1.9689445 -1.7767453 4288085770
13.977631 2.9158087 -1.7545836 4288085770
6.7935486 2.0083227 -1.7805417 4288085770
13.335693 2.9494925 -1.762141 4288085770
6.5335693 2.0517759 -1.7872529 4288085770
12.757721 2.9863052 -1.77056 4288085770
6.2276001 2.0851641 -1.7840426 4288085770
12.158783 3.013093 -1.7720006 4288085770
5.9426575 2.1175938 -1.7817814 4288085770
11.659821 3.0500669 -1.7782402 4288085770
5.6906433 2.1540813 -1.7814555 4288085770
11.263855 3.0962353 -1.7902694 4288085770
5.4436646 2.1875877 -1.7791104 4288085770
10.800873 3.1282969 -1.7914133 4288085770
5.2307129 2.2241516 -1.7806962 4288085770
10.395935 3.1654634 -1.7964389 4288085770
5.0077209 2.2577038 -1.7782962 4288085770
9.980957 3.1946297 -1.7944655 4288085770
4.7967529 2.2902822 -1.7748666 4288085770
9.6309814 3.2339115 -1.7983711 4288085770
4.619751 2.3289185 -1.7763753 4288085770
9.302002 3.2722397 -1.8002264 4288085770
4.4208069 2.3585291 -1.7709103 4288085770
9.0500183 3.3227053 -1.8089383 4288085770
4.2418518 2.3911753 -1.7674077 4288085770
8.8100281 3.3722 -1.8156204 4288085770
4.0978394 2.4298801 -1.7678416 4288085770
8.5970154 3.4257431 -1.8242517 4288085770
3.9558716 2.4675875 -1.7682681 4288085770
8.335083 3.4662094 -1.8249598 4288085770
3.8189087 2.5053091 -1.7676833 4288085770
8.1240845 3.5157676 -1.829576 4288085770
3.6959229 2.5440531 -1.7680693 4288085770
7.8261108 3.5431862 -1.8213308 4288085770
3.5509338 2.5767736 -1.7624891 4288085770
7.5801086 3.578702 -1.815989 4288085770
3.4499817 2.6185627 -1.7638333 4288085770
7.3531494 3.6162529 -1.811609 4288085770
3.3569946 2.6623631 -1.7661645 4288085770
7.1591492 3.6598625 -1.8101704 4288085770
3.2399902 2.6981344 -1.7625287 4288085770
6.9491577 3.6964517 -1.8037491 4288085770
3.1679993 2.7449751 -1.76582 4288085770
6.788147 3.7441244 -1.8032458 4288085770
3.0790405 2.7857943 -1.7641342 4288085770
6.6371765 3.7928209 -1.8017228 4288085770
3.0060425 2.8306389 -1.7654221 4288085770
6.4781799 3.8375058 -1.798207 4288085770
2.9380188 2.8764944 -1.7667019 4288085770
6.3371582 3.8862262 -1.7946608 4288085770
2.8760376 2.9223633 -1.766968 4288085770
6.1991577 3.9329567 -1.7901025 4288085770
2.8300476 2.9742575 -1.7702136 4288085770
6.091095 3.9897375 -1.7885029 4288085770
2.7790833 3.0241461 -1.7714653 4288085770
5.9941101 4.0465422 -1.7868781 4288085770
2.7940369 3.0941353 -1.7846205 4288085770
5.9130859 4.1083732 -1.7872307 4288085770
2.7370605 3.1410198 -1.7828777 4288085770
5.8430481 4.1722279 -1.7865634 4288085770
2.6620483 3.1808825 -1.7761574 4288085770
5.7770386 4.2380891 -1.7868924 4288085770
2.6330566 3.2368155 -1.7773752 4288085770
5.7510071 4.3160229 -1.7901626 4288085770
2.598053 3.2887411 -1.7765956 4288085770
5.7019653 4.3859196 -1.7894638 4288085770
2.5790405 3.346693 -1.778796 4288085770
5.6629028 4.4598379 -1.7887528 4288085770
2.5710144 3.4096622 -1.7819848 4288085770
5.6498413 4.5437994 -1.7910094 4288085770
2.5479736 3.4666142 -1.7801917 4288085770
5.6437683 4.629775 -1.7932556 4288085770
2.5379639 3.5295863 -1.7813849 4288085770
5.3308411 4.5952678 -1.7468779 4288085770
2.5489502 3.5985913 -1.7855468 4288085770
4.9888916 4.5447221 -1.6935232 4293729569
2.5448914 3.6635771 -1.7857318 4288085770
4.7869263 4.5464015 -1.6619914 4293729569
2.5558777 3.7335949 -1.7868991 4288085770
4.7198792 4.5992961 -1.6492898 4293729569
2.5688171 3.8046126 -1.7880633 4288085770
4.704834 4.6742773 -1.6435292 4293729569
2.5877686 3.8796377 -1.7902246 4288085770
5.5372925 5.1156049 -1.765821 4288085770
2.5857239 3.9456387 -1.7864096 4288085770
2.6047058 4.0196748 -1.7855682 4288085770
4.2338257 4.7105613 -1.5527101 4293729569
2.6436157 4.1037412 -1.7877085 4288085770
4.1967773 4.7715187 -1.5389614 4293729569
2.6555481 4.1767726 -1.7828803 4288085770
4.1417236 4.8244505 -1.5212321 4293729569
2.707489 4.2678618 -1.7860098 4288085770
4.1636353 4.9105101 -1.5134165 4293729569
2.7424011 4.3519301 -1.7841587 4288085770
4.1026001 4.9584408 -1.4916875 4293729569
2.787323 4.440021 -1.7822959 4288085770
4.0995178 5.0324659 -1.4778967 4293729569
2.8632202 4.545155 -1.7864087 4288085770
4.2733154 5.1937799 -1.4879375 4293729569
2.9191589 4.6402674 -1.7845399 4288085770
4.2892151 5.2788434 -1.4741328 4293729569
2.9760437 4.7353826 -1.7816684 4288085770
4.2691345 5.343854 -1.4533563 4293729569
3.0519104 4.8415313 -1.7807837 4288085770
4.0731812 5.3185825 -1.4067376 4293729569
3.1408081 4.9557033 -1.7808912 4288085770
4.0301208 5.3695602 -1.3809758 4293729569
3.2666321 5.0899305 -1.7879682 4288085770
4.09198 5.4747148 -1.3671203 4293729569
3.3804932 5.220149 -1.7890618 4288085770
4.0988464 5.5507822 -1.3453118 4293729569
3.4933167 5.349369 -1.7891548 4288085770
4.0947571 5.6208353 -1.3205123 4293729569
3.6261292 5.4906249 -1.790235 4288085770
4.1086731 5.6989207 -1.2966934 4293729569
3.7339783 5.6188455 -1.7863371 4288085770
4.1035767 5.7669811 -1.2688907 4293729569
3.8747559 5.767128 -1.7844179 4288085770
4.1324463 5.8540978 -1.2450619 4293729569
4.069519 5.9484911 -1.7914648 4288085770
4.1133423 5.9111414 -1.2122612 4293729569
4.2652893 6.1318674 -1.7955153 4288085770
4.3140564 6.0955586 -1.2043031 4293729569
4.5149536 6.3483329 -1.8055317 4288085770
4.3778992 6.2017546 -1.1774461 4293729569
4.7606812 6.5638022 -1.8115549 4288085770
5.0762634 6.8243856 -1.82654 4288085770
5.3609009 7.068933 -1.8325527 4288085770
5.6794739 7.336545 -1.8395505 4288085770
5.9820557 7.5951409 -1.84056 4288085770
6.3186035 7.877799 -1.8435574 4288085770
6.6791077 8.1775112 -1.8445461 4288085770
14.075104 -0.44083118 -1.7980394 4288085770
12.846252 -0.46726227 -1.7987466 4288085770
11.839417 -0.49227238 -1.8059564 4288085770
10.878571 -0.51218128 -1.8090751 4288085770
9.9987183 -0.52792835 -1.8110225 4288085770
9.2168274 -0.54047871 -1.8127565 4288085770
8.5219727 -0.5528717 -1.8182948 4288085770
7.8500671 -0.56020451 -1.8187943 4288085770
7.2181396 -0.56444931 -1.8172116 4288085770
13.166016 -0.95872307 -1.8107352 4288085770
6.6782837 -0.56952858 -1.8204193 4288085770
12.026062 -0.93998814 -1.815361 4288085770
6.1533813 -0.57257366 -1.8215981 4288085770
11.017151 -0.92199516 -1.819689 4288085770
5.6724854 -0.57352638 -1.8216834 4288085770
10.102203 -0.90381241 -1.8228059 4288085770
5.2035522 -0.57245064 -1.8197467 4288085770
9.2342529 -0.88252544 -1.8218241 4288085770
4.8067017 -0.57325268 -1.8246424 4288085770
8.4913025 -0.86500645 -1.8255501 4288085770
4.3887939 -0.56906986 -1.8205988 4288085770
7.800415 -0.84737492 -1.8271592 4288085770
4.0258789 -0.56679249 -1.8214262 4288085770
7.1594543 -0.82864285 -1.8266578 4288085770
3.6799316 -0.56347942 -1.8212175 4288085770
6.5875244 -0.81177998 -1.8279958 4288085770
3.3710327 -0.56010056 -1.8239255 4288085770
6.022583 -0.79089069 -1.8253288 4288085770
3.0681458 -0.55570793 -1.8256228 4288085770
5.5136108 -0.772892 -1.8225272 4288085770
2.7832336 -0.55027294 -1.8252823 4288085770
5.0666809 -0.75678253 -1.8245811 4288085770
2.530304 -0.54578209 -1.8288665 4288085770
4.6397095 -0.73862362 -1.8245959 4288085770
2.260376 -0.53831291 -1.826499 4288085770
4.2467957 -0.72240257 -1.8245301 4288085770
2.0254822 -0.53178406 -1.8280499 4288085770
3.901886 -0.70809841 -1.8283508 4288085770
1.798584 -0.52523994 -1.8295829 4288085770
3.5679626 -0.69276619 -1.8301487 4288085770
1.5786438 -0.5176754 -1.8291025 4288085770
3.2430115 -0.67640877 -1.8299291 4288085770
1.3757324 -0.51008797 -1.8305836 4288085770
2.9260864 -0.65903378 -1.8276942 4288085770
1.1888123 -0.50346851 -1.8340259 4288085770
2.6351624 -0.64260864 -1.8263977 4288085770
0.9899292 -0.49385834 -1.8315034 4288085770
2.3752136 -0.62812805 -1.8280258 4288085770
0.80895996 -0.4842186 -1.8309402 4288085770
2.1202698 -0.6116333 -1.826648 4288085770
0.63803101 -0.47555923 -1.8303516 4288085770
1.8933716 -0.59709167 -1.8292019 4288085770
0.46911621 -0.4658947 -1.8297608 4288085770
1.681427 -0.58352089 -1.8317192 4288085770
0.33120728 -0.4581871 -1.8350954 4288085770
1.45047 -0.56597233 -1.8282895 4288085770
0.17828369 -0.44849014 -1.8344688 4288085770
1.2545776 -0.5513649 -1.8297732 4288085770
0.026397705 -0.43778515 -1.8318427 4288085770
1.0576477 -0.5357523 -1.8282619 4288085770
-0.084533691 -0.43103123 -1.8401134 4288085770
0.88668823 -0.52210331 -1.8316863 4288085770
-0.22946167 -0.41930962 -1.8354738 4288085770
0.70578003 -0.50645828 -1.8291388 4288085770
-0.35534668 -0.40856361 -1.8357892 4288085770
0.54483032 -0.49178314 -1.8305433 4288085770
-0.47229004 -0.39880562 -1.8380809 4288085770
0.39190674 -0.47809315 -1.8319273 4288085770
0.23498535 -0.46240234 -1.8303256 4288085770
0.08102417 -0.4457016 -1.8267193 4288085770
-0.046905518 -0.43196392 -1.829047 4288085770
-0.17480469 -0.41822433 -1.8303742 4288085770
-0.30776978 -0.40248394 -1.827718 4288085770
-0.41870117 -0.38971329 -1.8300045 4288085770
-0.6055603 1.4693928 -1.7917044 4288085770
-0.49349976 1.4876051 -1.7915084 4288085770
-0.37841797 1.5068264 -1.7913084 4288085770
-0.26638794 1.5230446 -1.7881074 4288085770
-0.14230347 1.5412874 -1.7858853 4288085770
-0.020263672 1.5585222 -1.7836649 4288085770
0.12680054 1.5807991 -1.785403 4288085770
0.25588989 1.5970554 -1.7811651 4288085770
-0.56976318 1.4434214 -1.7925756 4288085770
0.41192627 1.6183491 -1.7828808 4288085770
-0.45266724 1.4576397 -1.7933583 4288085770
0.56796265 1.6376448 -1.7825916 4288085770
-0.33660889 1.4698648 -1.7911379 4288085770
0.73803711 1.6599646 -1.7842796 4288085770
-0.21954346 1.4810953 -1.7879128 4288085770
0.90609741 1.6792889 -1.7829642 4288085770
-0.10046387 1.4913282 -1.7846808 4288085770
1.0871582 1.6996355 -1.7826233 4288085770
0.042572021 1.5065947 -1.7874093 4288085770
1.2732239 1.7199945 -1.7812712 4288085770
0.18966675 1.5198708 -1.789124 4288085770
1.4873047 1.7453909 -1.785871 4288085770
0.34176636 1.534152 -1.7918305 4288085770
1.7163696 1.7708158 -1.7914383 4288085770
0.49081421 1.5464373 -1.7905383 4288085770
1.9194031 1.789217 -1.7870445 4288085770
0.63589478 1.5557251 -1.7862473 4288085770
2.1574707 1.8126669 -1.7885869 4288085770
0.80596924 1.5690451 -1.7879119 4288085770
2.3955078 1.8341265 -1.7871242 4288085770
0.97506714 1.5803699 -1.7865734 4288085770
2.6515808 1.8566141 -1.7876251 4288085770
1.1701355 1.5947313 -1.7911861 4288085770
2.8856506 1.873085 -1.7791586 4288085770
1.341217 1.6020699 -1.7858331 4288085770
3.1936951 1.9006653 -1.7835588 4288085770
1.5422974 1.6144514 -1.7874277 4288085770
3.4917297 1.9232388 -1.7819679 4288085770
1.7533875 1.6258497 -1.7889981 4288085770
3.8327942 1.9508858 -1.7852969 4288085770
1.9814453 1.638279 -1.7915339 4288085770
4.1668701 1.9745302 -1.7836306 4288085770
2.2055054 1.6477098 -1.7900708 4288085770
4.5169067 1.9972086 -1.7809269 4288085770
2.4216003 1.6541338 -1.7866173 4288085770
4.9209595 2.0259752 -1.784121 4288085770
2.6576538 1.6615896 -1.7841227 4288085770
5.3269958 2.0507622 -1.7823005 4288085770
2.8987732 1.6680584 -1.7806149 4288085770
5.7650452 2.0776033 -1.7824159 4288085770
3.164856 1.6745729 -1.7790523 4288085770
6.262085 2.1075525 -1.7844098 4288085770
3.4589233 1.6831322 -1.7804341 4288085770
6.7371216 2.1304779 -1.779434 4288085770
3.7789917 1.6927385 -1.783762 4288085770
7.1881714 2.1453791 -1.76649 4288085770
4.1361389 1.7034054 -1.7900119 4288085770
7.6282043 2.1542749 -1.7465546 4288085770
4.466217 1.7070417 -1.7883027 4288085770
8.4132385 2.2047405 -1.7649736 4288085770
4.833313 1.7137423 -1.7895205 4288085770
8.9143066 2.2117643 -1.7419002 4288085770
5.240387 1.7205114 -1.7946513 4288085770
9.8913269 2.2725801 -1.7669272 4288085770
5.6575012 1.7243071 -1.7957528 4288085770
10.748352 2.3092241 -1.7691536 4288085770
6.1156006 1.7291775 -1.7997673 4288085770
11.611389 2.3389015 -1.7633493 4288085770
6.5816956 1.7300701 -1.8007543 4288085770
12.543427 2.3677158 -1.756392 4288085770
6.9888 1.7188807 -1.7888389 4288085770
13.570435 2.3957157 -1.7472255 4288085770
7.3829041 1.7016811 -1.7719362 4288085770
7.8730164 1.6896439 -1.7638376 4288085770
8.5701294 1.6939497 -1.7763295 4288085770
9.084198 1.6729755 -1.7621553 4288085770
10.034363 1.6847267 -1.791115 4288085770
10.80954 1.6722088 -1.7943933 4288085770
11.65564 1.6568289 -1.7975097 4288085770
12.582794 1.6376038 -1.8004396 4288085770
13.490936 1.6053658 -1.7943769 4288085770
1.8653564 -4.1855001 -0.21505848 4293729569
1.8495789 -4.2226267 -0.24900141 4293729569
1.8038025 -4.2388105 -0.28406337 4293729569
1.7449951 -4.2470169 -0.3181738 4293729569
1.6801758 -4.2492371 -0.35231277 4293729569
1.6183167 -4.2504501 -0.38644752 4293729569
1.5585327 -4.2526655 -0.42257586 4293729569
1.4997253 -4.2528753 -0.4577069 4293729569
1.4508972 -4.2570677 -0.49380621 4293729569
1.4000549 -4.259263 -0.52891505 4293729569
1.3562622 -4.2624502 -0.5660063 4293729569
1.5758057 -4.4190722 -0.19813004 4293729569
1.3094482 -4.2626362 -0.60111129 4293729569
1.3166809 -4.2756643 -0.23206231 4293729569
1.2676086 -4.2648182 -0.63820076 4293729569
1.2047729 -4.2279758 -0.26743123 4293729569
1.2237549 -4.2640038 -0.67430198 4293729569
1.1960144 -4.2451029 -0.30741134 4293729569
1.1989746 -4.2731571 -0.71333706 4293729569
1.1952209 -4.2672148 -0.34736112 4293729569
1.1982117 -4.2972708 -0.75428188 4293729569
1.1934509 -4.285327 -0.38732359 4293729569
1.1964417 -4.3183861 -0.79523659 4293729569
1.1966858 -4.3064299 -0.42726758 4293729569
1.1926575 -4.3375053 -0.83620071 4293729569
1.1949158 -4.3215446 -0.46823785 4293729569
1.1988831 -4.3606119 -0.87913299 4293729569
1.190094 -4.3336678 -0.50922251 4293729569
1.1950989 -4.3757324 -0.92110765 4293729569
1.1913147 -4.346777 -0.5501914 4293729569
1.1962891 -4.3918486 -0.96406865 4293729569
1.1975098 -4.3618765 -0.59114468 4293729569
1.1925354 -4.4029703 -1.006054 4293729569
1.1927185 -4.3679981 -0.63214505 4293729569
1.1897583 -4.4120913 -1.0480419 4293729569
1.1929321 -4.3761148 -0.67412925 4293729569
1.1929321 -4.4252043 -1.0920067 4293729569
1.1931152 -4.3812256 -0.71512151 4293729569
1.1911621 -4.4323215 -1.133998 4293729569
1.1923218 -4.383337 -0.75612354 4293729569
1.1893921 -4.4364414 -1.1769973 4293729569
1.1995239 -4.3894396 -0.79809833 4293729569
1.1935425 -4.443553 -1.2199756 4293729569
1.1936951 -4.3845634 -0.83912897 4293729569
1.2027588 -4.4516573 -1.2649407 4293729569
1.191864 -4.3806744 -0.87914884 4293729569
1.1989441 -4.4487762 -1.3059623 4293729569
1.1890259 -4.3747902 -0.9191761 4293729569
1.1991272 -4.4468899 -1.3479726 4293729569
1.1952209 -4.3728895 -0.9591738 4293729569
1.1932983 -4.4390116 -1.3880113 4293729569
1.1963806 -4.3649979 -1.0001975 4293729569
1.1994934 -4.4371157 -1.4310089 4293729569
1.1885376 -4.3491163 -1.0372612 4293729569
1.199646 -4.4292269 -1.4720349 4293729569
1.1947021 -4.3412132 -1.0772747 4293729569
1.2018433 -4.4193354 -1.513062 4293729569
1.1928711 -4.3253202 -1.1153258 4293729569
1.2019958 -4.4084415 -1.5520959 4293729569
1.1989746 -4.3134146 -1.153349 4293729569
1.2011414 -4.3925486 -1.5911448 4293729569
1.2031555 -4.2985106 -1.1913848 4293729569
1.2002869 -4.3756552 -1.6291964 4293729569
1.2443542 -4.3055506 -1.235285 4293729569
1.2044067 -4.3597555 -1.6682343 4293729569
1.2805481 -4.3075914 -1.2772089 4293729569
1.1775513 -4.321887 -1.6983957 4293729569
1.3147278 -4.3066425 -1.3191445 4293729569
1.1436157 -4.2760305 -1.7265925 4293729569
1.3529053 -4.3056803 -1.3600718 4293729569
1.0655823 -4.2002268 -1.7419603 4293729569
1.4021301 -4.3107052 -1.4039603 4293729569
0.94247437 -4.0924702 -1.7435067 4293729569
1.4583435 -4.3177185 -1.4488291 4293729569
0.80435181 -3.9747295 -1.7401106 4293729569
1.51651 -4.3237295 -1.492696 4293729569
0.71426392 -3.8869257 -1.7465346 4293729569
1.5787659 -4.3307266 -1.536552 4293729569
0.6703186 -3.8290586 -1.763783 4293729569
1.6369324 -4.332736 -1.5804293 4293729569
0.70144653 -3.8200979 -1.7997456 4293729569
1.7041626 -4.3377304 -1.6252801 4293729569
0.76367188 -3.8270998 -1.8446014 4293729569
1.7603149 -4.3347321 -1.6661747 4293729569
0.84490967 -3.8460789 -1.8943853 4288085770
1.7814331 -4.3077841 -1.7002058 4293729569
0.86401367 -3.8221264 -1.9254124 4288085770
1.7894897 -4.2698517 -1.7292931 4293729569
0.76589966 -3.7233105 -1.9218814 4288085770
1.7084351 -4.1770306 -1.7367113 4293729569
0.66781616 -3.6254883 -1.916348 4288085770
1.6033325 -4.070241 -1.7382162 4293729569
0.59173584 -3.5396328 -1.9147365 4288085770
1.5172729 -3.9734154 -1.7406552 4293729569
0.47961426 -3.431819 -1.9012585 4288085770
1.4622192 -3.8955479 -1.7489789 4293729569
0.42758179 -3.3619328 -1.9045544 4288085770
1.4582825 -3.8476105 -1.7691174 4293729569
0.35150146 -3.2770653 -1.8989401 4288085770
1.5374756 -3.8475647 -1.8079557 4293729569
0.31048584 -3.2121601 -1.9022 4288085770
1.6487122 -3.8624763 -1.8536878 4288085770
0.24740601 -3.1342707 -1.8975396 4288085770
1.7558899 -3.8723927 -1.8984413 4288085770
0.1973877 -3.0633678 -1.8958337 4288085770
1.7799683 -3.8344107 -1.9214947 4288085770
0.15335083 -2.9964542 -1.8951049 4288085770
1.7229004 -3.7505264 -1.9218383 4288085770
0.10430908 -2.9275408 -1.8903913 4288085770
1.6377869 -3.6516724 -1.9142792 4288085770
0.069274902 -2.8656092 -1.8896303 4288085770
1.5546875 -3.5538149 -1.9057138 4288085770
0.037261963 -2.8056736 -1.8888576 4288085770
1.482605 -3.4629383 -1.8981066 4288085770
0.012268066 -2.7487278 -1.8890624 4288085770
1.4385681 -3.3880234 -1.896399 4288085770
-0.011749268 -2.6927748 -1.8882623 4288085770
1.3885193 -3.3091125 -1.8927143 4288085770
-0.023773193 -2.6418133 -1.8914242 4288085770
1.3504333 -3.2371826 -1.8899858 4288085770
-0.056793213 -2.5818653 -1.8856535 4288085770
1.326416 -3.1722336 -1.8902097 4288085770
-0.074798584 -2.5288992 -1.8838327 4288085770
1.3153992 -3.1132708 -1.8933909 4288085770
-0.088775635 -2.4769287 -1.8830011 4288085770
1.2763367 -3.0413303 -1.8866646 4288085770
-0.098754883 -2.4279499 -1.8821535 4288085770
1.261322 -2.9803629 -1.885859 4288085770
-0.10379028 -2.3809652 -1.8822899 4288085770
1.2473145 -2.920392 -1.8850489 4288085770
-0.10476685 -2.3359718 -1.8824124 4288085770
1.2333069 -2.8604155 -1.8822386 4288085770
-0.11575317 -2.2859879 -1.8785691 4288085770
1.2322693 -2.8064213 -1.8813856 4288085770
-0.096710205 -2.2499676 -1.8836265 4288085770
1.2302856 -2.7514267 -1.880537 4288085770
-0.11074829 -2.1989822 -1.876792 4288085770
1.2302551 -2.6984272 -1.878679 4288085770
-0.10174561 -2.1589699 -1.8768809 4288085770
1.2382812 -2.6484146 -1.8777966 4288085770
-0.093719482 -2.1169567 -1.8759766 4288085770
1.2532654 -2.6013908 -1.8778918 4288085770
-0.080688477 -2.0779352 -1.8750541 4288085770
1.2782898 -2.5583525 -1.8799548 4288085770
-0.060638428 -2.040905 -1.8771122 4288085770
1.3072815 -2.5163078 -1.8820074 4288085770
-0.066650391 -1.9928999 -1.8692529 4288085770
1.3153076 -2.4652834 -1.8771276 4288085770
-0.054626465 -1.9528732 -1.8653355 4288085770
1.3533325 -2.4262228 -1.8801534 4288085770
-0.038635254 -1.9148426 -1.863404 4288085770
1.3783264 -2.3821764 -1.8782196 4288085770
-0.0075683594 -1.8817921 -1.8654282 4288085770
1.4083862 -2.339119 -1.8762729 4288085770
0.036468506 -1.8537254 -1.8694124 4288085770
1.4494019 -2.300046 -1.8762927 4288085770
0.037445068 -1.8077021 -1.8595333 4288085770
1.4833984 -2.2579784 -1.8743348 4288085770
0.077514648 -1.7776356 -1.861531 4288085770
1.5134277 -2.2149143 -1.8693881 4288085770
0.11450195 -1.7455683 -1.8615403 4288085770
1.5614014 -2.1768246 -1.8683906 4288085770
0.15057373 -1.7125006 -1.8605542 4288085770
1.5974426 -2.1337481 -1.863431 4288085770
0.19161987 -1.6814289 -1.8605525 4288085770
1.65448 -2.0986443 -1.8634069 4288085770
0.22665405 -1.6483564 -1.8565686 4288085770
1.7185364 -2.0655279 -1.863363 4288085770
0.27667236 -1.6182671 -1.8575454 4288085770
1.7775269 -2.0294104 -1.8603375 4288085770
0.33673096 -1.592164 -1.860491 4288085770
1.8395691 -1.9942913 -1.8583031 4288085770
0.37576294 -1.5590858 -1.8564985 4288085770
1.9176025 -1.9621477 -1.8582275 4288085770
0.43682861 -1.5319748 -1.857445 4288085770
1.989624 -1.9290104 -1.8561668 4288085770
0.48883057 -1.5018768 -1.8554177 4288085770
2.0756836 -1.8998489 -1.8560669 4288085770
0.54885864 -1.4737635 -1.8543687 4288085770
2.166687 -1.8696785 -1.8549588 4288085770
0.61096191 -1.4466457 -1.853313 4288085770
2.2507629 -1.8375168 -1.8528712 4288085770
0.67300415 -1.4175253 -1.8502624 4288085770
2.3357544 -1.8053503 -1.8487809 4288085770
0.75701904 -1.3943768 -1.8531501 4288085770
2.4568176 -1.7801275 -1.8505979 4288085770
0.83007812 -1.3662405 -1.8520744 4288085770
2.546875 -1.7469473 -1.8455 4288085770
0.9201355 -1.34408 -1.8549471 4288085770
2.6698914 -1.7207203 -1.8463154 4288085770
0.98916626 -1.3149433 -1.8508821 4288085770
2.8199768 -1.700449 -1.8500588 4288085770
1.0751953 -1.2887764 -1.848774 4288085770
2.9610291 -1.6761847 -1.8508317 4288085770
1.1812744 -1.2665892 -1.8516135 4288085770
3.0980835 -1.6489248 -1.8496206 4288085770
1.2633362 -1.2384243 -1.8475192 4288085770
3.255127 -1.6256351 -1.8503575 4288085770
1.3573608 -1.2122412 -1.8443942 4288085770
3.4001465 -1.5993547 -1.8471274 4288085770
1.4553833 -1.1860533 -1.8422616 4288085770
3.5922241 -1.5800037 -1.8517814 4288085770
1.5884705 -1.1668148 -1.8460376 4288085770
3.7692566 -1.5556669 -1.8504801 4288085770
1.7195435 -1.1455755 -1.8488231 4288085770
3.9513245 -1.5313187 -1.8481679 4288085770
1.8205872 -1.1173735 -1.842689 4288085770
4.1323853 -1.50597 -1.8448608 4288085770
1.9465942 -1.093132 -1.840493 4288085770
4.3454285 -1.4835663 -1.8434792 4288085770
2.0956421 -1.0718565 -1.842241 4288085770
4.5645142 -1.4601479 -1.8420882 4288085770
2.2407227 -1.048584 -1.8420029 4288085770
4.8175354 -1.440671 -1.8436208 4288085770
2.3837891 -1.0243044 -1.8387768 4288085770
5.075592 -1.4201822 -1.8431413 4288085770
2.5608215 -1.0039787 -1.841465 4288085770
5.350647 -1.3996601 -1.8416266 4288085770
2.7198792 -0.97867107 -1.8382032 4288085770
5.6577148 -1.3820848 -1.8430378 4288085770
2.8959351 -0.95533562 -1.8359015 4288085770
5.9677734 -1.3604908 -1.8414538 4288085770
3.0959778 -0.93396378 -1.8375444 4288085770
6.3228455 -1.3448248 -1.8437607 4288085770
3.3000488 -0.91057491 -1.836185 4288085770
6.6669006 -1.3221636 -1.8391089 4288085770
3.5161133 -0.88816738 -1.8357978 4288085770
7.0799561 -1.3053837 -1.8402982 4288085770
3.7381592 -0.86374092 -1.8334033 4288085770
7.52005 -1.2875538 -1.841435 4288085770
3.9711609 -0.83929539 -1.8299861 4288085770
7.9870911 -1.2706652 -1.8405128 4288085770
