# .PCD v0.7 - Point Cloud Data file format
VERSION 0.7
FIELDS x y z rgb
SIZE 4 4 4 4
TYPE F F F U
COUNT 1 1 1 1
WIDTH 1126
HEIGHT 1
VIEWPOINT 0 0 0 1 0 0 0
POINTS 1126
DATA ascii
9.5178919 3.9552076 -1.7239729 4288085770
11.336873 4.709857 -1.1119461 4293729569
11.834724 4.9121294 -0.22548686 4293729569
11.598445 4.7849827 -0.56823641 4293729569
3.6342506 1.4944005 -1.7855937 4288085770
7.711607 3.1744347 -1.7710196 4288085770
9.5029421 3.9101951 -1.7189647 4288085770
5.4595218 2.2342105 -1.7815779 4288085770
4.7018137 1.9224639 -1.7957553 4288085770
11.49831 4.7009344 -0.7501387 4293729569
7.6406593 3.1173704 -1.7729496 4288085770
12.108737 4.9404011 -0.18980426 4293729569
11.52983 4.7030673 -1.1521758 4293729569
9.5469475 3.892247 -1.7280217 4288085770
9.8088675 3.9855053 -1.7163097 4288085770
7.9245596 3.217654 -1.7722619 4288085770
3.6362708 1.4734106 -1.7826005 4288085770
11.721444 4.7451239 -0.5973931 4293729569
5.4795508 2.201241 -1.7806094 4288085770
4.7128472 1.8904847 -1.7897756 4288085770
11.70334 4.699142 -0.72238332 4293729569
10.136786 4.0658379 -1.7156795 4288085770
12.354766 4.9526467 -0.15209417 4293729569
8.1515093 3.2638872 -1.77352 4288085770
11.802745 4.7253604 -1.2004949 4293729569
7.6297259 3.0513697 -1.7669529 4288085770
3.6532767 1.4584372 -1.7866238 4288085770
9.5769997 3.8282893 -1.7320734 4288085770
11.872434 4.7152929 -0.6275804 4293729569
10.45072 4.1361556 -1.7100352 4288085770
8.3924541 3.3131344 -1.7757941 4288085770
5.5075774 2.1712797 -1.7796496 4288085770
11.942354 4.7073836 -0.69766575 4293729569
3.6582961 1.4384503 -1.7836341 4288085770
4.7498589 1.8685337 -1.7938243 4288085770
12.10865 4.7556882 -1.2518516 4293729569
7.6497707 2.9994013 -1.7679893 4288085770
9.6250429 3.7723501 -1.7381446 4288085770
10.823628 4.2245321 -1.7094568 4288085770
12.084396 4.7075224 -0.65983474 4293729569
8.6234121 3.3543715 -1.7740582 4288085770
3.6743059 1.421476 -1.7856566 4288085770
5.5465937 2.14533 -1.7827018 4288085770
12.15439 4.7025986 -0.66891932 4293729569
4.7748809 1.8415697 -1.7928599 4288085770
12.274628 4.7278724 -1.2880561 4293729569
11.175557 4.3008876 -1.7028562 4288085770
7.6668186 2.9454296 -1.7680228 4288085770
9.6830816 3.7194211 -1.7452269 4288085770
8.8893528 3.4066439 -1.7763612 4288085770
12.338346 4.7127943 -0.69413567 4293729569
3.6903162 1.4045014 -1.7876791 4288085770
12.433396 4.7188802 -0.64524734 4293729569
5.5776196 2.1153717 -1.7817454 4288085770
11.620444 4.4073381 -1.7073587 4288085770
4.7999053 1.8146052 -1.7908956 4288085770
12.547557 4.7371669 -1.3353788 4293729569
9.1113272 3.437871 -1.7686173 4288085770
7.6928635 2.8934681 -1.7690662 4288085770
9.7601118 3.6715119 -1.7553302 4288085770
3.7063277 1.387527 -1.7887014 4288085770
12.693256 4.7511683 -0.73454851 4293729569
12.078332 4.5137997 -1.7088767 4288085770
5.6136417 2.0864189 -1.7827948 4288085770
9.3852739 3.4861512 -1.7699306 4288085770
4.8329244 1.7896496 -1.7909404 4288085770
15.712063 5.8134007 -1.6948737 4288085770
3.7213421 1.3695511 -1.7877231 4288085770
9.8481369 3.6276133 -1.7654458 4288085770
7.7328997 2.8475204 -1.7721249 4288085770
12.63518 4.6503634 -1.720505 4288085770
9.6512337 3.5274229 -1.7662364 4288085770
5.6506653 2.0584662 -1.7818451 4288085770
4.8759356 1.7687044 -1.7949958 4288085770
15.620195 5.6603241 -1.7048033 4288085770
13.246014 4.7989798 -1.7341946 4288085770
3.7293627 1.3485676 -1.7837369 4288085770
9.9201736 3.5766985 -1.7725438 4288085770
7.7499514 2.7935479 -1.7691581 4288085770
9.9291925 3.5697064 -1.7625563 4288085770
5.6886888 2.0295157 -1.7818968 4288085770
13.817879 4.9265561 -1.737843 4288085770
3.7583663 1.3346075 -1.7887739 4288085770
4.9039593 1.7407434 -1.7930353 4288085770
15.594299 5.5333133 -1.7198048 4288085770
10.205159 3.6059873 -1.7568754 4288085770
9.9802198 3.5207705 -1.7756289 4288085770
7.7739992 2.7415831 -1.7671992 4288085770
14.417747 5.0551591 -1.7385248 4288085770
5.7347064 2.0035725 -1.7839571 4288085770
3.7833729 1.3196424 -1.7918066 4288085770
4.93998 1.7157905 -1.7920834 4288085770
10.508117 3.6482964 -1.753225 4288085770
15.516429 5.3872504 -1.7287489 4288085770
10.042267 3.4648442 -1.7787164 4288085770
7.8250318 2.6986468 -1.77127 4288085770
14.992635 5.1697369 -1.7331802 4288085770
3.8033876 1.3016721 -1.790834 4288085770
5.7727332 1.9746211 -1.7820088 4288085770
10.807081 3.6866002 -1.7475709 4288085770
4.9819942 1.6938436 -1.7941378 4288085770
15.457549 5.2482071 -1.7377138 4288085770
15.595529 5.2843409 -1.7248689 4288085770
10.103317 3.4079168 -1.779803 4288085770
7.8870606 2.6577215 -1.7763532 4288085770
3.8303962 1.2857093 -1.7928691 4288085770
11.11605 3.7229145 -1.7409289 4288085770
5.8127584 1.9456711 -1.7800628 4288085770
16.28639 5.4220343 -1.7246567 4288085770
5.0200143 1.6688927 -1.7931882 4288085770
15.434654 5.1241989 -1.7487175 4288085770
10.165369 3.3499906 -1.7798908 4288085770
3.8574045 1.2697465 -1.7949042 4288085770
7.9291029 2.6097753 -1.7764144 4288085770
11.45201 3.7632561 -1.7363185 4288085770
5.8717732 1.9217417 -1.783138 4288085770
17.023251 5.5637736 -1.7204982 4288085770
5.0680294 1.6459525 -1.7952501 4288085770
15.387772 4.9911652 -1.7556951 4288085770
3.8794205 1.2517779 -1.7929338 4288085770
11.816964 3.8096263 -1.7337408 4288085770
10.265401 3.3041036 -1.7860205 4288085770
7.96415 2.5598214 -1.7734678 4288085770
17.804106 5.7105556 -1.7163907 4288085770
5.9217949 1.8948027 -1.7832032 4288085770
5.118042 1.6240145 -1.7983141 4288085770
15.368878 4.8671618 -1.7647033 4288085770
3.9044333 1.2338129 -1.7929672 4288085770
12.199916 3.856015 -1.7311846 4288085770
18.655949 5.8684082 -1.7123652 4288085770
10.362437 3.2562122 -1.7901474 4288085770
8.0181875 2.5158873 -1.7745422 4288085770
5.971818 1.8678631 -1.7812685 4288085770
5.177052 1.6040854 -1.8023882 4288085770
12.608867 3.9044302 -1.7296588 4288085770
3.9394398 1.2188586 -1.7960113 4288085770
15.22804 4.7070322 -1.7575755 4288085770
19.63876 6.0563922 -1.714488 4288085770
10.45448 3.2053161 -1.792269 4288085770
8.0772247 2.4719577 -1.7746226 4288085770
6.0378332 1.8439407 -1.7843519 4288085770
13.040813 3.9548676 -1.7281598 4288085770
3.967452 1.2018964 -1.7960479 4288085770
5.2180758 1.5781369 -1.7994424 4288085770
14.961256 4.5097756 -1.7353067 4288085770
10.55352 3.1554267 -1.7953985 4288085770
8.1372604 2.4280295 -1.7757041 4288085770
6.1098461 1.8220241 -1.7874423 4288085770
13.485763 4.0033183 -1.7276767 4288085770
4.0014606 1.1859407 -1.7980913 4288085770
5.2760892 1.5562067 -1.8015157 4288085770
14.83341 4.3586583 -1.7261919 4293729569
10.655564 3.1045403 -1.7965318 4288085770
3.820472 1.1117817 -1.8468934 4282675967
6.170867 1.7950959 -1.7875205 4288085770
8.1983013 2.3831019 -1.7747869 4288085770
13.981699 4.0608211 -1.7302521 4288085770
4.0454621 1.1729958 -1.8031456 4288085770
3.7735529 1.093724 -1.7928418 4288085770
3.8415372 1.1087933 -1.7929187 4288085770
3.8394749 1.1068048 -1.8469167 4282675967
3.826551 1.1027775 -1.7859024 4288085770
3.7605751 1.0837111 -1.7818286 4288085770
3.9005239 1.1228528 -1.7919853 4288085770
5.3171148 1.529258 -1.79857 4288085770
3.9675035 1.1409202 -1.7940605 4288085770
3.9135201 1.1238672 -1.7940004 4288085770
4.0514712 1.1630059 -1.8021548 4288085770
4.130444 1.1840861 -1.8072435 4288085770
14.829514 4.244668 -1.730215 4293729569
4.2074223 1.203164 -1.8093303 4288085770
3.9835048 1.137939 -1.7940799 4288085770
4.281405 1.221238 -1.8084137 4288085770
4.3533912 1.2373108 -1.8064952 4288085770
4.080471 1.15904 -1.8041899 4288085770
14.509633 4.1193552 -1.7328652 4293729569
10.782597 3.060679 -1.800693 4288085770
6.2538781 1.7741905 -1.7916234 4288085770
4.4333711 1.2563912 -1.8065854 4288085770
4.0804749 1.1560408 -1.8031905 4288085770
8.2603407 2.339175 -1.7738706 4288085770
4.1674476 1.1761301 -1.8082888 4288085770
4.5133557 1.2734721 -1.8046762 4288085770
4.6003337 1.2935599 -1.8057745 4288085770
5.3791265 1.5093312 -1.8006476 4288085770
4.2574234 1.1942228 -1.812391 4288085770
4.6923132 1.3136529 -1.8058788 4288085770
14.926575 4.1607795 -1.7443508 4288085770
4.3424053 1.2103102 -1.8134879 4288085770
4.7812963 1.3317431 -1.80398 4288085770
15.060566 4.1779122 -1.7355059 4293729569
4.8722796 1.3498349 -1.8020835 4288085770
4.4163995 1.222385 -1.8075725 4288085770
4.1124883 1.1380829 -1.8022318 4288085770
6.3169007 1.747264 -1.7907039 4288085770
10.882647 3.0077896 -1.7988244 4288085770
8.3443718 2.2992711 -1.7759795 4288085770
4.9772577 1.3709415 -1.8022029 4288085770
4.5173731 1.2404897 -1.8126878 4288085770
5.0782375 1.3910438 -1.8013178 4288085770
5.4311485 1.484394 -1.7987146 4288085770
4.6053596 1.25458 -1.8107886 4288085770
5.1852179 1.4111522 -1.8004398 4288085770
14.990653 4.064857 -1.7534502 4288085770
15.583524 4.2204404 -1.7321171 4293729569
5.2882028 1.4292564 -1.7965577 4288085770
4.1554956 1.1231363 -1.8042856 4288085770
4.6993446 1.2696764 -1.8098965 4288085770
6.3989143 1.7253571 -1.7928058 4288085770
10.991696 2.9549093 -1.7969662 4288085770
5.4111772 1.4523815 -1.7976979 4288085770
8.4463949 2.2643852 -1.7811085 4288085770
4.785337 1.2817641 -1.8049954 4288085770
5.5551424 1.479529 -1.8038621 4288085770
5.4971609 1.4634708 -1.8007971 4288085770
4.8853226 1.2968665 -1.8031101 4288085770
16.11849 4.2579799 -1.7267437 4293729569
5.6921139 1.5036685 -1.8060188 4288085770
4.185514 1.1041753 -1.8013248 4288085770
15.042738 3.9659221 -1.7595359 4288085770
4.9972992 1.3149819 -1.8062385 4288085770
6.4849296 1.7024541 -1.7949127 4288085770
5.8210921 1.5257992 -1.8041664 4288085770
11.103744 2.9030318 -1.7951115 4288085770
8.5184374 2.2204685 -1.7792039 4288085770
5.108283 1.330096 -1.8053664 4288085770
5.9610691 1.5479417 -1.8043271 4288085770
5.5811653 1.4455673 -1.8079003 4288085770
5.2292604 1.3482206 -1.8075054 4288085770
16.697443 4.3005638 -1.7244214 4293729569
6.0920529 1.5680741 -1.7994776 4288085770
4.2355175 1.0902362 -1.8053865 4288085770
15.170795 3.8860648 -1.7727073 4288085770
6.5689459 1.6795485 -1.7960172 4288085770
5.3412485 1.3623353 -1.8046347 4288085770
6.2460279 1.5922303 -1.7986544 4288085770
11.215796 2.8501534 -1.790257 4288085770
8.5934792 2.1755538 -1.7763033 4288085770
6.4060035 1.6163929 -1.7978383 4288085770
5.4732256 1.380471 -1.8067867 4288085770
5.6401863 1.4216366 -1.8059753 4288085770
17.331394 4.3482027 -1.7241633 4293729569
4.2715349 1.0722812 -1.8024328 4288085770
6.5699792 1.6395596 -1.7970272 4288085770
5.6042051 1.3976055 -1.8079377 4288085770
6.6609602 1.6576512 -1.798131 4288085770
15.31785 3.809226 -1.7869003 4288085770
6.7149692 1.6577059 -1.7891948 4288085770
11.383827 2.8093328 -1.7934659 4288085770
5.7521796 1.4167581 -1.8121085 4288085770
8.7174978 2.1426904 -1.7824577 4288085770
5.715199 1.4007225 -1.8080683 4288085770
4.3155446 1.0553356 -1.8034881 4288085770
18.104303 4.4209828 -1.7350643 4288085770
6.8919463 1.681885 -1.786399 4288085770
5.8791685 1.429888 -1.8082558 4288085770
6.7329888 1.6297325 -1.7932224 4288085770
15.471907 3.7313945 -1.8001019 4288085770
7.0879159 1.7090842 -1.7876248 4288085770
6.0351439 1.4490484 -1.8114362 4288085770
11.507881 2.7554669 -1.7886256 4288085770
8.8065367 2.1007898 -1.7805728 4288085770
7.2828908 1.7342818 -1.7858502 4288085770
4.349565 1.0363783 -1.7985321 4288085770
5.802206 1.381821 -1.8131753 4288085770
6.1731343 1.4621893 -1.8065965 4288085770
6.8310037 1.606841 -1.7953433 4288085770
7.4818683 1.759483 -1.7820802 4288085770
15.692942 3.6676304 -1.8193796 4288085770
6.3491058 1.4823704 -1.8118004 4288085770
11.689914 2.7156594 -1.790851 4288085770
7.7128344 1.7887175 -1.7843472 4288085770
4.4035726 1.0214425 -1.8005987 4288085770
8.9275627 2.0649221 -1.7837244 4288085770
5.8902173 1.3619205 -1.8162836 4288085770
6.5070925 1.4965317 -1.8089842 4288085770
7.9528027 1.817961 -1.7846249 4288085770
6.945014 1.5869656 -1.7984827 4288085770
6.6680789 1.5106963 -1.8061715 4288085770
15.866998 3.5898182 -1.8316047 4288085770
4.4515843 1.0045003 -1.8006588 4288085770
8.195775 1.8462069 -1.7839063 4288085770
11.857958 2.6688371 -1.7880611 4288085770
5.9612374 1.3390009 -1.8143724 4288085770
9.0755806 2.0330825 -1.7899069 4288085770
6.8340688 1.5238653 -1.8013653 4288085770
7.0440345 1.5630744 -1.797605 4288085770
8.4767351 1.8804915 -1.7862316 4288085770
4.5005975 0.98755872 -1.79972 4288085770
6.9980636 1.5340328 -1.795557 4288085770
16.046059 3.5110106 -1.8428359 4288085770
8.7796898 1.9167986 -1.7915825 4288085770
12.065987 2.6300557 -1.7903169 4288085770
6.0402575 1.3150902 -1.813471 4288085770
9.2046099 1.9962223 -1.7920682 4288085770
7.1990433 1.5512379 -1.7957911 4288085770
7.1650467 1.5422059 -1.800753 4288085770
9.0896511 1.9521124 -1.793942 4288085770
4.561604 0.97263014 -1.8027949 4288085770
16.188131 3.4251647 -1.8480247 4288085770
7.407022 1.5684507 -1.7970338 4288085770
9.3986177 1.9834247 -1.793301 4288085770
12.280022 2.5892799 -1.7915803 4288085770
6.1272726 1.2931877 -1.8145785 4288085770
9.3546343 1.9623835 -1.7962538 4288085770
7.2840619 1.520335 -1.8018986 4288085770
7.6120095 1.5816596 -1.7942735 4288085770
9.7335806 2.0177627 -1.7936903 4288085770
4.6056232 0.95468211 -1.7978505 4288085770
16.346207 3.3383348 -1.8522327 4288085770
6.2222867 1.2722929 -1.8156954 4288085770
12.523049 2.5535326 -1.7938769 4288085770
7.8519835 1.6009046 -1.7975537 4288085770
10.077548 2.0501096 -1.7920909 4288085770
9.4926662 1.9245319 -1.7964258 4288085770
7.4040809 1.4974641 -1.8010457 4288085770
4.6686316 0.93875539 -1.7999282 4288085770
8.12395 1.6231827 -1.8058708 4288085770
10.474501 2.0895102 -1.7955527 4288085770
6.3223 1.2524027 -1.816818 4288085770
16.501282 3.2505014 -1.8554374 4288085770
12.751088 2.5107701 -1.7921572 4288085770
7.5400925 1.4776102 -1.804211 4288085770
9.6676846 1.8927183 -1.8016404 4288085770
8.3859262 1.64045 -1.8081774 4288085770
10.87946 2.1269186 -1.7970244 4288085770
4.7316413 0.92382765 -1.8010055 4288085770
11.296423 2.1633384 -1.7955108 4288085770
6.4183192 1.2295084 -1.8159363 4288085770
8.6549053 1.6567237 -1.8094925 4288085770
13.021116 2.4750495 -1.7934859 4288085770
16.637375 3.1546483 -1.8536211 4288085770
7.7120929 1.4617933 -1.8124181 4288085770
4.7916541 0.90689671 -1.8000798 4288085770
9.8377104 1.857899 -1.8048496 4288085770
11.739389 2.1987836 -1.793028 4288085770
8.9588757 1.6770334 -1.815848 4288085770
6.5213361 1.2076212 -1.8160629 4288085770
13.330139 2.4433682 -1.7978597 4288085770
7.8631067 1.4409537 -1.8146015 4288085770
12.219349 2.2362661 -1.7915889 4288085770
4.8516707 0.88996518 -1.7971539 4288085770
9.2408619 1.6893198 -1.8141797 4288085770
16.753475 3.0557742 -1.8477818 4288085770
10.004744 1.8210762 -1.8050559 4288085770
12.73031 2.2757795 -1.790186 4288085770
6.6223559 1.1847312 -1.8141873 4288085770
9.5398464 1.7026232 -1.8135309 4288085770
4.9226804 0.87404549 -1.798241 4288085770
8.0081272 1.4181073 -1.8127782 4288085770
13.667159 2.4127147 -1.8022665 4288085770
16.912569 2.9629436 -1.843992 4288085770
10.221759 1.7913041 -1.8123198 4288085770
13.283267 2.316335 -1.7898328 4288085770
9.846837 1.7129345 -1.8108927 4288085770
6.7283764 1.1618463 -1.8123176 4288085770
4.9886947 0.85712004 -1.7963225 4288085770
8.1851349 1.3992939 -1.8169919 4288085770
13.998186 2.3780544 -1.8036671 4288085770
14.097157 2.3941553 -1.8147808 4288085770
10.196817 1.7262899 -1.8133045 4288085770
10.428783 1.7575215 -1.8155726 4288085770
17.070662 2.8681111 -1.8392015 4288085770
6.8264031 1.1369523 -1.8064388 4288085770
5.0657048 0.84120619 -1.7974167 4288085770
14.923055 2.4679866 -1.837744 4288085770
8.357152 1.3784745 -1.8172002 4288085770
10.561799 1.7396595 -1.8147341 4288085770
14.579148 2.379648 -1.831356 4288085770
10.659804 1.7257628 -1.8208535 4288085770
17.188768 2.7662377 -1.8273649 4288085770
15.786963 2.5378547 -1.8537533 4288085770
6.9334288 1.1120676 -1.8015708 4288085770
10.941782 1.7510443 -1.8161823 4288085770
5.1467152 0.82529616 -1.7985154 4288085770
8.5931454 1.3657213 -1.8294827 4288085770
15.111134 2.3671904 -1.84899 4288085770
16.50493 2.5775726 -1.8475962 4288085770
11.320776 1.7584275 -1.81363 4288085770
10.890829 1.6910036 -1.8241351 4288085770
5.2307243 0.81038868 -1.7996178 4288085770
7.0594459 1.091202 -1.8007243 4288085770
17.414852 2.6794734 -1.824653 4288085770
8.8071537 1.3479446 -1.8347399 4288085770
17.16193 2.599227 -1.826371 4288085770
11.723767 1.7648348 -1.8121065 4288085770
15.616141 2.3447042 -1.8585944 4288085770
5.3117385 0.79447746 -1.7977167 4288085770
11.136854 1.6562594 -1.8274344 4288085770
7.1894674 1.0683403 -1.7978829 4288085770
9.010169 1.3271555 -1.833985 4288085770
17.659939 2.5927279 -1.8219635 4288085770
17.924917 2.6279879 -1.81027 4288085770
12.16076 1.7702758 -1.8106235 4288085770
5.1537819 0.75132668 -1.7945385 4288085770
4.9248195 0.71809864 -1.7902743 4288085770
5.0368004 0.73421025 -1.7924035 4288085770
5.2747631 0.76844704 -1.7956781 4288085770
4.8208365 0.70199573 -1.7891545 4288085770
5.3947482 0.78456616 -1.7948169 4288085770
5.5127363 0.79968309 -1.7919536 4288085770
5.6537151 0.81782413 -1.7951167 4288085770
4.7918396 0.69197011 -1.7941221 4288085770
16.090168 2.3121853 -1.859164 4288085770
5.3907557 0.7765646 -1.7948138 4288085770
5.7916994 0.83396184 -1.7942766 4288085770
4.8928304 0.70407045 -1.7912391 4288085770
5.9466777 0.85311675 -1.796456 4288085770
7.345479 1.0495052 -1.8010716 4288085770
5.0178099 0.71819675 -1.7963842 4288085770
6.1056566 0.87127614 -1.7986406 4288085770
11.385884 1.6205174 -1.8277376 4288085770
18.928858 2.6839917 -1.8114487 4288085770
5.1327977 0.73031223 -1.7965177 4288085770
9.2191877 1.305372 -1.8332375 4288085770
6.272635 0.88944364 -1.8008344 4288085770
5.2587814 0.74343908 -1.7986641 4288085770
12.63375 1.7767533 -1.811183 4288085770
6.4576101 0.90962946 -1.8050493 4288085770
17.919022 2.5069957 -1.8182904 4288085770
5.384768 0.75656545 -1.7988105 4288085770
6.6415863 0.92981386 -1.8072629 4288085770
5.5167542 0.76869822 -1.7989643 4288085770
6.7995815 0.94397068 -1.7994472 4288085770
5.4827662 0.76166427 -1.7949256 4288085770
5.642746 0.77982438 -1.7961111 4288085770
4.8028588 0.66399217 -1.7971405 4288085770
16.572201 2.2756741 -1.8577442 4288085770
6.9715724 0.95914185 -1.7936475 4288085770
7.4914975 1.0276593 -1.7992492 4288085770
5.7897305 0.79297233 -1.7972825 4288085770
7.1735539 0.97734427 -1.7928829 4288085770
9.4492025 1.2856095 -1.8335142 4288085770
11.649918 1.5827901 -1.828059 4288085770
13.199722 1.789325 -1.8198515 4288085770
5.946713 0.80613112 -1.8004656 4288085770
7.3875351 0.99655831 -1.7921325 4288085770
6.0927043 0.81727743 -1.797636 4288085770
5.5717816 0.74476075 -1.7920343 4288085770
7.6385059 1.0188109 -1.7974252 4288085770
18.252094 2.4273379 -1.8187035 4288085770
4.8808689 0.64907837 -1.7972356 4288085770
6.2636876 0.83045006 -1.7998358 4288085770
7.8954782 1.041069 -1.8007249 4288085770
7.6725078 1.0088491 -1.8034675 4288085770
17.011257 2.2301171 -1.8452753 4288085770
6.4556637 0.84564447 -1.80606 4288085770
13.7947 1.7989256 -1.828555 4288085770
9.6872225 1.2638545 -1.8318009 4288085770
8.1964426 1.0663724 -1.8100761 4288085770
11.927948 1.5460765 -1.8283966 4288085770
6.6256561 0.85581529 -1.8032591 4288085770
8.4514275 1.0846273 -1.8063745 4288085770
5.6747928 0.72887182 -1.7931591 4288085770
4.9578834 0.63316321 -1.7953297 4288085770
6.8046474 0.86699522 -1.8004687 4288085770
18.627165 2.3487225 -1.8211664 4288085770
8.7733946 1.108951 -1.8127507 4288085770
7.8815084 0.99206793 -1.8127185 4288085770
14.501661 1.8156394 -1.8453901 4288085770
6.9936371 0.87718546 -1.7986906 4288085770
17.504309 2.1856143 -1.8338704 4288085770
9.9312429 1.2411051 -1.829095 4288085770
9.0963669 1.1322752 -1.8151287 4288085770
12.259972 1.5124174 -1.8327975 4288085770
5.7848001 0.71498966 -1.795292 4288085770
7.1666393 0.88435853 -1.7908939 4288085770
9.4623337 1.1576432 -1.8215569 4288085770
5.0628829 0.62127721 -1.8024561 4288085770
7.4106154 0.89860559 -1.7971801 4288085770
8.0485315 0.96924186 -1.8089212 4288085770
9.8293047 1.182011 -1.8239866 4288085770
15.306608 1.8374516 -1.8693401 4288085770
19.069227 2.2761734 -1.8267071 4288085770
10.237252 1.2244186 -1.8334613 4288085770
18.101351 2.1492155 -1.8285867 4288085770
7.6625948 0.91186023 -1.8024758 4288085770
5.8858161 0.69809759 -1.7924149 4288085770
10.235274 1.207418 -1.8274626 4288085770
12.601 1.4767666 -1.8352097 4288085770
5.1518946 0.60637367 -1.8015643 4288085770
7.9105816 0.92311013 -1.8027672 4288085770
10.657246 1.2318407 -1.8289577 4288085770
8.2415495 0.94844246 -1.8091542 4288085770
15.969608 1.8321184 -1.8701278 4288085770
10.559261 1.2067477 -1.8368468 4288085770
8.1745682 0.93437624 -1.8040779 4288085770
6.0148225 0.68423438 -1.7955704 4288085770
11.150207 1.2603359 -1.8375361 4288085770
18.877357 2.126997 -1.8345125 4288085770
19.543293 2.1986563 -1.8302869 4288085770
5.2469044 0.59147656 -1.8026797 4288085770
8.4255638 0.94162858 -1.8003736 4288085770
13.005019 1.4451792 -1.8426958 4288085770
11.592191 1.2817771 -1.8320556 4288085770
8.4445648 0.9276526 -1.8093991 4288085770
16.651617 1.8218032 -1.8679391 4288085770
10.918264 1.1911139 -1.8432757 4288085770
8.7325449 0.95293844 -1.8047351 4288085770
6.1328344 0.6683594 -1.7957133 4288085770
12.083172 1.3032675 -1.8286332 4288085770
5.3469152 0.57658398 -1.8028009 4288085770
19.729374 2.103853 -1.8385286 4288085770
9.049531 0.96425712 -1.8061084 4288085770
12.675137 1.3328602 -1.8333288 4288085770
13.510018 1.4196938 -1.8593003 4288085770
8.6595821 0.9068743 -1.8086581 4288085770
17.265659 1.7944181 -1.8526738 4288085770
11.27428 1.1724757 -1.843702 4288085770
6.2618461 0.6524955 -1.7958692 4288085770
9.396513 0.97460699 -1.8105175 4288085770
5.4399295 0.5616833 -1.7999136 4288085770
13.417073 1.3726048 -1.8512002 4288085770
9.7714939 0.98498535 -1.8169597 4288085770
8.9115915 0.88813388 -1.8129606 4288085770
14.253 1.4164438 -1.8741822 4288085770
14.058019 1.3942517 -1.8779557 4288085770
6.3818641 0.63562131 -1.7920146 4288085770
11.638297 1.1528447 -1.8421377 4288085770
17.98069 1.7701347 -1.8445274 4288085770
5.5359459 0.54578578 -1.7970304 4288085770
10.153481 0.99336922 -1.818411 4288085770
15.197922 1.4643917 -1.8992928 4288085770
6.5188766 0.62076449 -1.7911799 4288085770
10.59146 1.0038104 -1.8249279 4288085770
9.1636105 0.86639249 -1.8132639 4288085770
12.042315 1.1332537 -1.841621 4288085770
5.6389599 0.53089476 -1.7941552 4288085770
14.701009 1.3709049 -1.9017235 4288085770
16.064882 1.4972576 -1.9033141 4288085770
18.933683 1.7590917 -1.8546607 4288085770
11.076437 1.0142989 -1.8345009 4288085770
6.6748857 0.60592711 -1.7933675 4288085770
16.812891 1.5120008 -1.8841983 4288085770
9.4506187 0.84768653 -1.818608 4288085770
12.486329 1.1147025 -1.8421516 4288085770
5.7529731 0.51601505 -1.7932932 4288085770
11.526433 1.0187503 -1.8330334 4288085770
15.321016 1.3405331 -1.9174656 4282675967
19.812714 1.7299722 -1.85071 4288085770
17.614899 1.5257967 -1.8621469 4288085770
6.8318968 0.59109008 -1.7935566 4288085770
12.000432 1.0202255 -1.8305953 4288085770
9.7546282 0.82899702 -1.8229723 4288085770
5.862988 0.50013101 -1.7904265 4288085770
13.042323 1.1032641 -1.8528135 4288085770
18.724867 1.5589033 -1.8624567 4288085770
15.907046 1.3011252 -1.9221693 4282675967
7.0019073 0.57626617 -1.7947609 4288085770
12.555422 1.0237826 -1.8342528 4288085770
6.0089917 0.48728403 -1.795602 4288085770
10.076638 0.80932534 -1.8273582 4288085770
13.65132 1.0908788 -1.8645384 4288085770
19.893845 1.586067 -1.8558378 4288085770
13.176407 1.0284058 -1.8409883 4288085770
7.1929126 0.56246352 -1.7989899 4288085770
6.1350064 0.4724153 -1.7927541 4288085770
16.439102 1.2526606 -1.913811 4288085770
10.437648 0.79069245 -1.83279 4288085770
14.402291 1.0876365 -1.8884299 4288085770
13.972367 1.0392066 -1.8639302 4288085770
7.3859215 0.54766226 -1.8012216 4288085770
6.2750173 0.45856091 -1.7929225 4288085770
10.793664 0.76905358 -1.834217 4288085770
15.243266 1.0824836 -1.9124286 4288085770
16.987164 1.200211 -1.9014723 4288085770
14.867324 1.0501064 -1.8899895 4288085770
7.5869312 0.5328685 -1.8024627 4288085770
6.4260287 0.44371751 -1.7931044 4288085770
15.79929 1.056042 -1.911094 4288085770
16.040266 1.0702834 -1.9213768 4288085770
11.230668 0.75049663 -1.8437389 4288085770
7.7919431 0.51807821 -1.8027087 4288085770
17.562231 1.1457874 -1.8861665 4288085770
6.5870385 0.42988393 -1.7942979 4288085770
16.531317 1.039772 -1.898966 4288085770
16.719303 1.0439609 -1.906188 4288085770
11.680677 0.73095143 -1.8492765 4288085770
8.0429478 0.50433505 -1.8090091 4288085770
6.7650447 0.41606781 -1.7985116 4288085770
18.328281 1.0975561 -1.8840858 4288085770
17.229364 1.0164659 -1.8757992 4288085770
8.282958 0.48957929 -1.8092966 4288085770
17.458349 1.0176972 -1.8890705 4288085770
12.108705 0.70638239 -1.8457896 4288085770
6.9340577 0.40124118 -1.7967147 4288085770
8.529973 0.47382995 -1.8075925 4288085770
18.192389 0.99842763 -1.8729455 4288085770
19.3393 1.0565709 -1.897294 4288085770
18.472361 1.0027102 -1.8902768 4288085770
12.533739 0.67980886 -1.8362993 4288085770
7.1240673 0.38743582 -1.7979426 4288085770
8.8169794 0.46012148 -1.8129356 4288085770
8.9339895 0.45823738 -1.8050749 4288085770
9.2829695 0.475584 -1.8074852 4288085770
19.355392 0.98258996 -1.8803289 4288085770
8.6140099 0.44091979 -1.8026987 4288085770
9.61796 0.49091551 -1.8028795 4288085770
8.3170261 0.42462513 -1.80135 4288085770
10.073924 0.51137102 -1.815416 4288085770
19.630367 0.98886633 -1.8946538 4288085770
8.0110521 0.40732053 -1.7939904 4288085770
7.3390727 0.37365612 -1.8032004 4288085770
13.069757 0.65734744 -1.8369398 4288085770
10.526901 0.53082168 -1.8199494 4288085770
7.7520685 0.39106411 -1.7926866 4288085770
11.029869 0.55132329 -1.8285418 4288085770
7.5230803 0.37583822 -1.794418 4288085770
11.529851 0.56882024 -1.8291312 4288085770
7.1421084 0.35246056 -1.7899709 4288085770
7.2731042 0.35859013 -1.7881249 4288085770
7.3840914 0.36370185 -1.7952555 4288085770
6.9451132 0.34226623 -1.7937392 4288085770
7.6300769 0.37494648 -1.7975451 4288085770
9.1219883 0.44543031 -1.8153003 4288085770
12.084833 0.58737206 -1.8297858 4288085770
7.8560743 0.3841697 -1.7918111 4288085770
6.7351289 0.33005774 -1.7904925 4288085770
6.5541368 0.31987908 -1.79228 4288085770
8.1730509 0.39648697 -1.8021847 4288085770
7.0641165 0.3433845 -1.7898802 4288085770
12.655819 0.60493898 -1.8264595 4288085770
8.4600401 0.40677235 -1.802523 4288085770
6.3691506 0.30769598 -1.790063 4288085770
6.856133 0.32817906 -1.7876364 4288085770
8.7670288 0.41707793 -1.803885 4288085770
7.5460849 0.35986677 -1.8024485 4288085770
6.2101564 0.29753971 -1.7928765 4288085770
13.324797 0.62460458 -1.8292491 4288085770
6.0371718 0.28536856 -1.7896736 4288085770
9.1310091 0.42744187 -1.8113146 4288085770
13.718765 0.63699973 -1.845714 4288085770
6.6751447 0.31400144 -1.7894248 4288085770
14.120763 0.64739788 -1.8381888 4288085770
9.4190168 0.43372592 -1.7986549 4288085770
5.8811841 0.27321509 -1.7884911 4288085770
9.4250031 0.42973599 -1.8136629 4288085770
6.4841633 0.2978133 -1.7862012 4288085770
9.8120031 0.44311818 -1.8031193 4288085770
5.7431912 0.26208028 -1.7913295 4288085770
15.117706 0.67639375 -1.8623655 4288085770
6.3191757 0.28365168 -1.7870082 4288085770
7.7570996 0.34508115 -1.8007016 4288085770
10.27398 0.45358041 -1.8136652 4288085770
5.6081991 0.25094843 -1.7931716 4288085770
16.081676 0.69935334 -1.8685044 4288085770
10.731968 0.46203712 -1.8162067 4288085770
6.1611876 0.26849741 -1.7878239 4288085770
5.4832067 0.23982665 -1.7950253 4288085770
14.457767 0.61674213 -1.858595 4288085770
17.036669 0.71830082 -1.8596336 4288085770
9.768014 0.41508183 -1.8150727 4288085770
11.26795 0.47057274 -1.8248408 4288085770
6.0052009 0.25434488 -1.7876416 4288085770
5.3592157 0.22770631 -1.7968806 4288085770
7.9931121 0.33032042 -1.7999843 4288085770
18.153654 0.73841023 -1.8549547 4288085770
11.796937 0.47810003 -1.8274667 4288085770
5.236228 0.21558636 -1.7957369 4288085770
5.8612142 0.24020442 -1.7874734 4288085770
19.574615 0.76582456 -1.8656353 4288085770
10.137025 0.4004533 -1.8165135 4288085770
15.377754 0.59966624 -1.8826901 4288085770
12.357933 0.48265865 -1.8261315 4288085770
5.1212368 0.20447472 -1.7966028 4288085770
5.7232275 0.22507042 -1.7873126 4288085770
8.2711163 0.31760263 -1.8063165 4288085770
12.96893 0.486267 -1.8248556 4288085770
5.5932388 0.21094453 -1.7881612 4288085770
10.538036 0.38585606 -1.816992 4288085770
13.692919 0.49098942 -1.8317136 4288085770
16.184776 0.57347286 -1.8826531 4288085770
5.4752488 0.19783071 -1.7900238 4288085770
8.5491238 0.3038837 -1.8086489 4288085770
14.532902 0.4948279 -1.8417095 4288085770
10.974045 0.37129405 -1.8205122 4288085770
5.3562593 0.18371603 -1.7908851 4288085770
8.8611298 0.29119888 -1.8140216 4288085770
15.581863 0.50187719 -1.8669525 4288085770
17.084808 0.54537106 -1.879727 4288085770
5.2472701 0.16961181 -1.7927586 4288085770
11.48505 0.35780698 -1.8271211 4288085770
16.499874 0.49878994 -1.8620427 4288085770
9.1491461 0.27648827 -1.8103662 4288085770
5.1362824 0.15550527 -1.7926295 4288085770
18.103836 0.51638746 -1.8779423 4288085770
11.981064 0.34230313 -1.8257128 4288085770
17.526884 0.49281141 -1.8582627 4288085770
9.4841576 0.26282495 -1.8107663 4288085770
18.810877 0.48809049 -1.8657874 4288085770
12.536077 0.32785788 -1.8263743 4288085770
19.371849 0.48965302 -1.8884528 4288085770
9.8351707 0.24917707 -1.8101854 4288085770
13.188084 0.31351003 -1.8321509 4288085770
10.23918 0.23558256 -1.8136675 4288085770
13.884093 0.2992048 -1.8349798 4288085770
10.673188 0.22201738 -1.8161852 4288085770
14.704096 0.28602359 -1.8429556 4288085770
11.153193 0.20949793 -1.8207573 4288085770
15.653092 0.27297127 -1.8560846 4288085770
11.651206 0.19599542 -1.8213509 4288085770
16.671099 0.25998566 -1.8622954 4288085770
12.185219 0.18252823 -1.8209873 4288085770
17.806103 0.24611595 -1.8686453 4288085770
12.827224 0.16916937 -1.8267519 4288085770
19.106112 0.23240936 -1.873191 4288085770
13.559225 0.1569002 -1.8356233 4288085770
14.358228 0.14469686 -1.842574 4288085770
15.256232 0.1325918 -1.8506423 4288085770
16.246233 0.1205776 -1.8578197 4288085770
17.381239 0.10870712 -1.8651693 4288085770
18.709251 0.10302411 -1.8577466 4288085770
17.379271 0.094703048 -1.8491699 4288085770
18.679237 0.097998306 -1.8737122 4288085770
16.228287 0.085560054 -1.8418057 4288085770
15.227301 0.076566458 -1.8366194 4288085770
19.038271 0.086351842 -1.8561406 4288085770
14.301319 0.066646591 -1.8275222 4288085770
13.522332 0.055874407 -1.8255998 4288085770
17.695295 0.068019226 -1.8485506 4288085770
12.78935 0.045146689 -1.817732 4288085770
16.506321 0.050839573 -1.8411427 4288085770
12.155366 0.033518165 -1.8129818 4288085770
15.507338 0.033849731 -1.8389604 4288085770
11.593376 0.022961929 -1.8123169 4288085770
14.567363 0.017916799 -1.828848 4288085770
11.071387 0.01144547 -1.8106996 4288085770
13.761383 0.0011182502 -1.8238946 4288085770
10.6004 -2.0220876e-05 -1.8091428 4288085770
13.026405 -0.015609622 -1.8190255 4288085770
10.159414 -0.012456052 -1.8066219 4288085770
12.366426 -0.031263217 -1.8132453 4288085770
9.7664232 -0.024843439 -1.8071576 4288085770
11.800441 -0.046822261 -1.8125765 4288085770
9.3934364 -0.037211243 -1.8057175 4288085770
11.281454 -0.062334463 -1.8119634 4288085770
9.0434484 -0.049556278 -1.8033042 4288085770
10.797471 -0.07781218 -1.8093921 4288085770
8.7334595 -0.061860807 -1.8039386 4288085770
10.379271 -0.11319524 -1.8126844 4288085770
8.4512539 -0.094421141 -1.8055582 4288085770
8.1802654 -0.10673094 -1.8072584 4288085770
10.002284 -0.12862733 -1.8152674 4288085770
7.9082832 -0.12004111 -1.8029573 4288085770
9.6203032 -0.14406462 -1.8128451 4288085770
7.673295 -0.13230896 -1.8036972 4288085770
9.2673216 -0.1584684 -1.8094547 4288085770
7.4523072 -0.14556032 -1.8054526 4288085770
8.9593372 -0.17481998 -1.8111137 4288085770
7.2293248 -0.15881345 -1.8022054 4288085770
8.6343594 -0.18919075 -1.8047543 4288085770
7.0173397 -0.17105396 -1.7999707 4288085770
8.3553743 -0.20350869 -1.8044454 4288085770
19.492634 -0.48464912 -1.8737203 4288085770
19.136627 -0.50005913 -1.8953266 4288085770
6.833354 -0.18526176 -1.8007667 4288085770
8.1123886 -0.21878487 -1.8061763 4288085770
18.22868 -0.517102 -1.8653239 4288085770
17.80065 -0.50759703 -1.8818521 4288085770
6.6633654 -0.19845356 -1.8025781 4288085770
7.8584061 -0.23407316 -1.8038951 4288085770
16.646664 -0.51292509 -1.8725785 4288085770
6.4833813 -0.21165636 -1.8003786 4288085770
17.109718 -0.54638743 -1.8560877 4288085770
7.6254234 -0.24933712 -1.8026369 4288085770
15.643672 -0.51707911 -1.8664714 4288085770
6.3143973 -0.22484629 -1.7981911 4288085770
7.4184375 -0.26357132 -1.8034074 4288085770
14.725678 -0.51713514 -1.8584583 4288085770
16.146757 -0.57449269 -1.8490236 4288085770
13.911683 -0.51607144 -1.8505598 4288085770
6.167408 -0.23801099 -1.8000278 4288085770
7.202457 -0.27881509 -1.8001679 4288085770
13.189684 -0.51390165 -1.8457632 4288085770
5.1853657 -0.20814328 -1.8059455 4288085770
15.314789 -0.60244656 -1.8461038 4288085770
12.525686 -0.51066506 -1.8400304 4288085770
5.2943835 -0.22201407 -1.8040648 4288085770
6.0284209 -0.25216603 -1.8018732 4288085770
7.0084729 -0.29303366 -1.7989527 4288085770
11.939679 -0.50633895 -1.8393838 4288085770
5.4094 -0.23587823 -1.8031908 4288085770
18.65996 -0.79058027 -1.8907859 4288085770
14.544823 -0.62932861 -1.8412526 4288085770
11.382679 -0.50097919 -1.8337693 4288085770
5.878437 -0.26433367 -1.7987068 4288085770
5.5334144 -0.24973227 -1.8033267 4288085770
17.339941 -0.76410091 -1.8773304 4288085770
6.8354874 -0.30822784 -1.7997607 4288085770
10.918669 -0.49651268 -1.8372574 4288085770
16.227921 -0.74038208 -1.8691043 4288085770
5.6644301 -0.26457822 -1.8044703 4288085770
10.460662 -0.49003914 -1.8347521 4288085770
5.8014455 -0.27841768 -1.8046209 4288085770
5.1834044 -0.2501317 -1.8109401 4288085770
15.2559 -0.71850193 -1.8630327 4288085770
13.864854 -0.65510666 -1.8375006 4288085770
5.7504492 -0.27747586 -1.7995646 4288085770
6.6695013 -0.32241398 -1.8005766 4288085770
10.045654 -0.48251641 -1.8332943 4288085770
5.3054166 -0.26198879 -1.8120741 4288085770
5.9494605 -0.29324448 -1.805783 4288085770
14.380881 -0.69750953 -1.8560679 4288085770
9.6706419 -0.47594765 -1.8358808 4288085770
5.4254308 -0.27384818 -1.8112056 4288085770
6.1024756 -0.30806565 -1.8069512 4288085770
13.601861 -0.67640686 -1.8512093 4288085770
9.2866354 -0.46638912 -1.8314575 4288085770
5.560442 -0.2856907 -1.8133539 4288085770
8.9396267 -0.45678824 -1.8280747 4288085770
6.2584925 -0.32288349 -1.8071226 4288085770
12.887842 -0.65622914 -1.8454221 4288085770
5.6254644 -0.29161403 -1.7994254 4288085770
19.90719 -1.0101256 -1.9071512 4288085770
5.6814599 -0.29554945 -1.807487 4288085770
6.4975204 -0.33760613 -1.7973855 4288085770
13.256884 -0.6798017 -1.8348283 4288085770
8.6226187 -0.44815284 -1.8267251 4288085770
5.8304706 -0.30737618 -1.8096508 4288085770
6.4225087 -0.33769229 -1.8073027 4288085770
12.265823 -0.63694561 -1.8417366 4288085770
8.3176079 -0.43750387 -1.8233891 4288085770
5.9784842 -0.319204 -1.8098134 4288085770
6.6015239 -0.35248411 -1.8084993 4288085770
11.691805 -0.61860669 -1.8391039 4288085770
8.0296001 -0.42783526 -1.8210716 4288085770
6.1434951 -0.33101261 -1.8119949 4288085770
7.7675886 -0.41713706 -1.818783 4288085770
6.7905388 -0.36726466 -1.8107071 4288085770
19.83626 -1.0562022 -1.8920708 4288085770
6.3045087 -0.34182596 -1.8111719 4288085770
11.186783 -0.60018873 -1.8385473 4288085770
7.5215783 -0.40742037 -1.8175118 4288085770
6.4715228 -0.35263243 -1.8093557 4288085770
7.2945662 -0.39668226 -1.8172618 4288085770
7.0755544 -0.38593486 -1.8160206 4288085770
6.667532 -0.36440593 -1.8135715 4288085770
6.8635435 -0.37517959 -1.8147871 4288085770
6.9885564 -0.38303468 -1.8109248 4288085770
10.73776 -0.58470619 -1.8430525 4288085770
5.5174747 -0.30573279 -1.803305 4288085770
6.3445344 -0.35177678 -1.7972155 4288085770
7.1925735 -0.39779809 -1.8111491 4288085770
10.273743 -0.56524086 -1.8375413 4288085770
7.4325862 -0.41452038 -1.8174131 4288085770
18.664225 -1.0275527 -1.8947785 4288085770
9.8617249 -0.54771566 -1.8340874 4288085770
12.70491 -0.70543158 -1.8332175 4288085770
7.6666036 -0.43024942 -1.8176706 4288085770
9.4817076 -0.53015387 -1.8316689 4288085770
18.749258 -1.0444524 -1.8788714 4288085770
9.1316881 -0.51355755 -1.8302833 4288085770
7.9066229 -0.44597161 -1.8169347 4288085770
8.1896362 -0.46264482 -1.8222461 4288085770
8.7786741 -0.4959645 -1.8238945 4288085770
8.4696569 -0.47932115 -1.8215543 4288085770
5.4084849 -0.31885266 -1.8051835 4288085770
6.1965499 -0.36594141 -1.7960509 4288085770
18.845325 -1.1063365 -1.8839743 4288085770
17.574247 -1.0428036 -1.8855746 4288085770
12.196939 -0.73001051 -1.8306553 4288085770
17.633282 -1.0567331 -1.8676389 4288085770
5.2994995 -0.33297184 -1.8050621 4288085770
6.0765619 -0.38207367 -1.8009174 4288085770
16.567266 -1.0509588 -1.8744627 4288085770
11.740966 -0.75352943 -1.8291506 4288085770
17.932384 -1.1513805 -1.8729643 4288085770
16.661304 -1.0708477 -1.8595655 4288085770
5.1925125 -0.34608883 -1.8049427 4288085770
5.9445758 -0.39621958 -1.8007704 4288085770
15.713276 -1.0609376 -1.8725194 4288085770
11.330992 -0.77799523 -1.8296964 4288085770
15.857324 -1.0887685 -1.8576769 4288085770
17.145439 -1.1952792 -1.8650934 4288085770
5.8175921 -0.41135922 -1.7996291 4288085770
14.916286 -1.0668508 -1.8666391 4288085770
10.942017 -0.80143642 -1.8282654 4288085770
15.111344 -1.106622 -1.8548523 4288085770
5.6926088 -0.42549649 -1.7974896 4288085770
16.459492 -1.2390612 -1.8603339 4288085770
14.185291 -1.0696881 -1.8618319 4288085770
10.606039 -0.82681644 -1.831893 4288085770
14.431364 -1.1233989 -1.8511007 4288085770
5.59062 -0.44060746 -1.801376 4288085770
13.528294 -1.0714402 -1.8591064 4288085770
15.87754 -1.2857234 -1.8616889 4288085770
5.4886322 -0.4557181 -1.803262 4288085770
10.293062 -0.85116994 -1.8345457 4288085770
13.824386 -1.1410918 -1.8484296 4288085770
12.903296 -1.0701551 -1.8534163 4288085770
19.842926 -1.6781402 -1.9260466 4282675967
5.382648 -0.46983314 -1.8021437 4288085770
12.312296 -1.0658311 -1.8467637 4288085770
15.337589 -1.331337 -1.8620902 4288085770
13.289407 -1.1607009 -1.8468376 4288085770
9.9590883 -0.87254679 -1.8291757 4288085770
18.457886 -1.6277325 -1.9055202 4288085770
11.795292 -1.063422 -1.8451929 4288085770
5.2856627 -0.48493743 -1.8020353 4288085770
17.335848 -1.5890219 -1.8972832 4288085770
12.783426 -1.1792768 -1.8452779 4288085770
9.6871109 -0.89585257 -1.8318738 4288085770
14.817637 -1.373927 -1.8595138 4288085770
11.324286 -1.05996 -1.8446729 4288085770
19.22616 -1.7978314 -1.8323597 4288085770
16.308811 -1.5512017 -1.8871511 4288085770
5.1986752 -0.50003046 -1.804938 4288085770
10.899278 -1.0564452 -1.8472036 4288085770
12.299449 -1.1968267 -1.8397424 4288085770
9.4081345 -0.9181658 -1.8295642 4288085770
15.346778 -1.5103064 -1.873091 4288085770
14.346684 -1.4154603 -1.8579916 4288085770
17.959185 -1.7802826 -1.7909616 4293729569
10.522268 -1.0548754 -1.8527873 4288085770
14.573743 -1.4811934 -1.8712388 4288085770
11.872469 -1.2153112 -1.8382696 4288085770
9.1451588 -0.93946064 -1.8272722 4288085770
10.101263 -1.0443556 -1.8443226 4288085770
19.885559 -2.0550463 -1.7370745 4293729569
13.92373 -1.4579383 -1.8575221 4288085770
13.85671 -1.4510163 -1.8684484 4288085770
17.042198 -1.7853314 -1.7779487 4293729569
9.7382507 -1.0367697 -1.8449218 4288085770
19.414581 -2.0665846 -1.7275541 4293729569
11.470491 -1.2337661 -1.8348244 4288085770
8.9131813 -0.96271944 -1.8280144 4288085770
13.173676 -1.4197997 -1.8626957 4288085770
9.3692436 -1.0261906 -1.8395147 4288085770
19.309649 -2.1246994 -1.7254353 4293729569
16.267212 -1.7942165 -1.7720925 4293729569
12.532645 -1.3885345 -1.8559893 4288085770
13.501776 -1.4964148 -1.8530538 4288085770
9.0602322 -1.0185425 -1.8411736 4288085770
18.107601 -2.0380809 -1.6791122 4293729569
11.16151 -1.2591144 -1.8414816 4288085770
8.6862068 -0.98497224 -1.8257622 4288085770
11.951616 -1.3582006 -1.849349 4288085770
8.7372198 -1.0069106 -1.8368173 4288085770
15.582223 -1.8049979 -1.7713354 4293729569
11.410588 -1.3288203 -1.8427529 4288085770
13.170819 -1.5407865 -1.856686 4288085770
17.181683 -2.0081367 -1.5680913 4293729569
8.4372091 -0.99525249 -1.8334863 4288085770
10.792534 -1.2755308 -1.8340729 4288085770
8.4812298 -1.0081996 -1.826534 4288085770
16.900612 -2.0064616 -1.6287808 4293729569
10.966557 -1.3063287 -1.8452636 4288085770
8.164196 -0.98456323 -1.832185 4288085770
14.980227 -1.8166841 -1.7766697 4293729569
10.523529 -1.2808359 -1.8427753 4288085770
7.8911834 -0.971874 -1.8278841 4288085770
12.853863 -1.584142 -1.8593333 4288085770
10.472556 -1.2948909 -1.8317182 4288085770
16.85277 -2.0865049 -1.5687239 4293729569
8.2692537 -1.0274349 -1.8222985 4288085770
10.1285 -1.2582879 -1.84334 4288085770
16.530651 -2.0648792 -1.6523693 4293729569
7.6511703 -0.96114707 -1.8276192 4288085770
9.7564735 -1.2357136 -1.8429301 4288085770
14.350228 -1.8174024 -1.7729739 4293729569
7.4311557 -0.95039737 -1.8283765 4288085770
17.30019 -2.2159662 -1.3212113 4293729569
9.4084444 -1.2121119 -1.8425468 4288085770
10.196578 -1.3172001 -1.8324119 4288085770
12.536905 -1.6244972 -1.8589809 4288085770
8.0952768 -1.0516263 -1.8251047 4288085770
7.1991429 -0.93766117 -1.8251207 4288085770
16.607857 -2.1717758 -1.5744491 4293729569
9.0714188 -1.1894972 -1.8401755 4288085770
17.172352 -2.2511024 -1.2110684 4293729569
16.203691 -2.1272473 -1.6770049 4293729569
13.810227 -1.8220172 -1.775377 4288085770
7.0081272 -0.92787838 -1.8279099 4288085770
8.7443953 -1.1648712 -1.8358153 4288085770
16.932175 -2.2573855 -1.3758028 4293729569
17.041656 -2.2811847 -0.057922307 4293729569
6.802114 -0.91411281 -1.8246828 4288085770
17.010799 -2.2852631 -0.83888817 4293729569
17.000645 -2.2842324 -0.073876843 4293729569
9.9215994 -1.3365084 -1.8301067 4288085770
8.4393711 -1.14122 -1.8314795 4288085770
7.9093003 -1.0728312 -1.8218975 4288085770
6.6021013 -0.90034032 -1.8204626 4288085770
12.254951 -1.6668117 -1.8596669 4288085770
16.954823 -2.3143244 -0.8488248 4293729569
8.1703453 -1.1205275 -1.8321832 4288085770
13.277225 -1.8226237 -1.7757879 4288085770
15.839731 -2.1806576 -1.6936001 4293729569
16.557957 -2.2808225 -1.5963882 4293729569
16.903406 -2.3284032 -1.2397673 4293729569
6.4220877 -0.8885448 -1.8192639 4288085770
16.824173 -2.3295054 -1.4516797 4293729569
7.9033198 -1.0978329 -1.8288894 4288085770
6.2550707 -0.87573504 -1.82008 4288085770
16.947315 -2.3633056 -0.45081392 4293729569
9.6876211 -1.3607688 -1.8328465 4288085770
16.929777 -2.3743017 -0.043793891 4293729569
7.6622972 -1.0781081 -1.8286238 4288085770
16.918808 -2.3813128 -0.024781406 4293729569
7.7503223 -1.0950053 -1.8227202 4288085770
16.933788 -2.3872962 -0.046797644 4293729569
16.947899 -2.394325 -0.86081302 4293729569
6.0960565 -0.86491561 -1.8209047 4288085770
7.4272733 -1.0573769 -1.8273653 4288085770
12.797217 -1.8221694 -1.7782576 4288085770
11.982992 -1.7071148 -1.8603642 4288085770
5.9360418 -0.85109782 -1.8187283 4288085770
7.1992502 -1.0356376 -1.8241143 4288085770
16.842175 -2.4164805 -1.5376952 4293729569
16.924963 -2.4293458 -0.83678585 4293729569
15.482772 -2.2310596 -1.707203 4293729569
5.7820277 -0.83727324 -1.816559 4288085770
16.891478 -2.4374082 -1.2867484 4293729569
16.507055 -2.38887 -1.6163263 4293729569
6.9892287 -1.0158776 -1.8218832 4288085770
5.6320143 -0.82344401 -1.8133937 4288085770
9.4486446 -1.3810349 -1.8305811 4288085770
16.94239 -2.4743025 -0.49780267 4293729569
6.7992039 -0.99709511 -1.8236742 4288085770
7.5893459 -1.1171809 -1.8215407 4288085770
5.5119967 -0.81358063 -1.8182615 4288085770
6.6051836 -0.97631717 -1.8204607 4288085770
12.265209 -1.8087749 -1.7696702 4288085770
16.916925 -2.4943037 -0.033773471 4293729569
16.954941 -2.5102587 -0.033814635 4293729569
5.3799825 -0.80073106 -1.8171163 4288085770
17.00301 -2.5212502 -0.88786739 4293729569
6.4261627 -0.9575218 -1.8192637 4288085770
16.724165 -2.4846125 -1.6135612 4293729569
11.714038 -1.7464138 -1.8580647 4288085770
5.2529664 -0.78787589 -1.8169764 4288085770
6.2491431 -0.93772447 -1.8150691 4288085770
6.0931206 -0.91990316 -1.8158975 4288085770
16.898108 -2.5443637 -0.82275021 4293729569
15.136812 -2.2804484 -1.7188181 4293729569
17.022556 -2.5692487 -1.3478866 4293729569
5.9420996 -0.90207624 -1.8157315 4288085770
16.486158 -2.501883 -1.6382974 4293729569
9.2276669 -1.4032799 -1.8303353 4288085770
5.7850823 -0.88325596 -1.811559 4288085770
11.8242 -1.8042756 -1.7701832 4293729569
7.4463692 -1.1403362 -1.8223809 4288085770
5.6490626 -0.86641192 -1.8114095 4288085770
5.5220404 -0.84955812 -1.81327 4288085770
16.35314 -2.5100348 -1.66315 4293729569
5.4040198 -0.83369386 -1.8151404 4288085770
5.2790008 -0.81683743 -1.814003 4288085770
11.41108 -1.7757518 -1.845728 4288085770
14.802855 -2.3288231 -1.7274466 4293729569
11.387187 -1.7937719 -1.7677007 4293729569
9.0386887 -1.4274886 -1.8341248 4288085770
15.964105 -2.5284786 -1.7097192 4293729569
7.2993927 -1.1614956 -1.8202168 4288085770
16.374258 -2.6000006 -1.6481687 4293729569
10.990125 -1.7842247 -1.813262 4288085770
11.043174 -1.7941613 -1.7773201 4288085770
15.362057 -2.508167 -1.7290549 4293729569
8.8517113 -1.4516943 -1.8349165 4288085770
14.38489 -2.3582945 -1.722983 4293729569
7.1654162 -1.1846398 -1.820067 4288085770
16.400366 -2.7219591 -1.6711912 4293729569
10.709161 -1.7925392 -1.7849509 4288085770
14.711003 -2.4709115 -1.7363374 4293729569
10.528164 -1.7807446 -1.7687514 4293729569
8.6807356 -1.4768814 -1.8367257 4288085770
19.473 -3.3204043 -1.7285552 4293729569
13.930923 -2.3778064 -1.7094804 4293729569
7.048439 -1.2087646 -1.8219358 4288085770
10.420147 -1.7938657 -1.7966312 4288085770
13.92194 -2.4038141 -1.7204689 4293729569
16.273472 -2.8180938 -1.6760459 4293729569
10.199203 -1.7941116 -1.7443867 4293729569
8.4957571 -1.4970847 -1.8345196 4288085770
10.166131 -1.7981522 -1.81335 4288085770
18.592978 -3.2924087 -1.7145845 4293729569
13.218879 -2.3436182 -1.709695 4293729569
13.622962 -2.4161513 -1.7111378 4293729569
6.9214606 -1.2299006 -1.8207937 4288085770
16.087566 -2.9012954 -1.6728362 4293729569
9.9151134 -1.8004349 -1.828072 4288085770
12.511819 -2.2754261 -1.689917 4293729569
8.3297815 -1.519266 -1.8333346 4288085770
9.9322414 -1.8144078 -1.7270901 4293729569
17.830956 -3.2722778 -1.7077434 4293729569
6.8214827 -1.2550057 -1.8246814 4288085770
13.293 -2.4495201 -1.7067711 4293729569
9.6920967 -1.804686 -1.845825 4288085770
11.615746 -2.1644511 -1.6369323 4293729569
16.100681 -3.0192688 -1.6888444 4293729569
8.1748056 -1.5434341 -1.8331615 4288085770
9.7502823 -1.8486058 -1.7228867 4293729569
17.127937 -3.2550783 -1.7039675 4293729569
6.7025075 -1.2761322 -1.821548 4288085770
9.4450779 -1.8009642 -1.8575519 4288085770
10.871684 -2.0743008 -1.5961144 4293729569
12.920034 -2.4689388 -1.6933577 4293729569
16.081799 -3.1332786 -1.6998175 4293729569
8.02983 -1.5665911 -1.8329996 4288085770
10.468639 -2.0417595 -1.5996704 4293729569
9.1710577 -1.7892737 -1.8612493 4288085770
9.5933237 -1.8857754 -1.7217108 4293729569
16.514919 -3.244776 -1.7052904 4293729569
6.6005316 -1.300239 -1.8214333 4288085770
12.651076 -2.5062375 -1.6910583 4293729569
10.276608 -2.047976 -1.6324575 4293729569
8.8980389 -1.7755816 -1.8619479 4288085770
7.8868542 -1.5897452 -1.8318397 4288085770
16.009909 -3.2363496 -1.7037326 4293729569
15.941901 -3.2344272 -1.7086576 4293729569
6.5025539 -1.3233413 -1.8223232 4288085770
9.3923616 -1.9119952 -1.7104868 4293729569
10.018573 -2.0392683 -1.6531725 4293729569
8.6220169 -1.7568935 -1.8596433 4288085770
10.672967 -2.1884983 -1.4528878 4293729569
9.7875366 -2.0315297 -1.6759171 4293729569
8.3679943 -1.7411797 -1.8603631 4288085770
7.7588782 -1.6148821 -1.8326964 4288085770
15.373878 -3.2170727 -1.7090304 4293729569
10.598354 -2.2205591 -1.1338035 4293729569
6.413578 -1.3474331 -1.8232229 4288085770
9.256403 -1.9501404 -1.7093341 4293729569
9.5344992 -2.0178158 -1.6926379 4293729569
10.488005 -2.2237003 -1.4526811 4293729569
8.1269751 -1.7244515 -1.8600972 4288085770
10.583943 -2.2575421 -0.6387853 4293729569
10.599234 -2.273509 -0.39280123 4293729569
