# .PCD v0.7 - Point Cloud Data file format
VERSION 0.7
FIELDS x y z rgb
SIZE 4 4 4 4
TYPE F F F U
COUNT 1 1 1 1
WIDTH 1128
HEIGHT 1
VIEWPOINT 0 0 0 1 0 0 0
POINTS 1128
DATA ascii
4.0498505 1.6914592 -1.8338062 4288085770
3.3377838 1.4608531 -1.819949 4288085770
8.2115707 3.0194473 -1.8245949 4288085770
11.815247 4.1395903 -1.8488365 4288085770
17.429108 5.9047031 -1.8883003 4288085770
5.8254623 2.2195644 -1.835282 4288085770
8.4859161 3.0522983 -1.8231236 4288085770
7.4037781 2.7078166 -1.8263217 4288085770
11.123344 3.8709226 -1.8468825 4288085770
4.0952606 1.6684141 -1.8338012 4288085770
3.3862 1.4437926 -1.823969 4288085770
12.352592 4.2372942 -1.8529817 4288085770
17.435493 5.7646651 -1.8898376 4288085770
8.7952805 3.092114 -1.8267287 4288085770
5.8918915 2.186496 -1.8382746 4288085770
12.946968 4.3439608 -1.8592433 4288085770
4.1376724 1.6443766 -1.8317882 4288085770
7.4871979 2.6687431 -1.8283192 4288085770
11.147751 3.7848737 -1.8496312 4288085770
3.4246216 1.4227567 -1.8219603 4288085770
9.1206284 3.1339252 -1.8293647 4288085770
17.416862 5.6176529 -1.8873135 4288085770
13.565346 4.4516225 -1.8635446 4288085770
5.9553146 2.152437 -1.8392595 4288085770
4.1850815 1.6213336 -1.8307861 4288085770
7.5726242 2.6286714 -1.8293167 4288085770
11.198151 3.706809 -1.8534461 4288085770
3.4650497 1.4007161 -1.8209516 4288085770
9.473999 3.1777151 -1.8340498 4288085770
14.168732 4.5453134 -1.8607756 4288085770
17.449257 5.4856081 -1.8869175 4288085770
4.2364883 1.5992854 -1.8307933 4288085770
6.0287476 2.1203687 -1.841266 4288085770
7.6610489 2.5896022 -1.8293217 4288085770
9.8333588 3.2195058 -1.837737 4288085770
3.5114822 1.3806661 -1.8219584 4288085770
11.21656 3.6187768 -1.8521792 4288085770
14.893127 4.666913 -1.8672839 4288085770
17.475647 5.3515692 -1.8855053 4288085770
4.2909012 1.5762382 -1.8298019 4288085770
10.205734 3.2602918 -1.8404406 4288085770
6.0911713 2.0843158 -1.8402427 4288085770
15.655525 4.7915049 -1.8708597 4288085770
3.5538788 1.3606296 -1.819959 4288085770
7.7634735 2.5535195 -1.8313583 4288085770
11.257957 3.5367231 -1.8539673 4288085770
10.605095 3.3040588 -1.8451952 4288085770
17.557045 5.2324967 -1.8862275 4288085770
4.3532944 1.5561781 -1.8318328 4288085770
16.447937 4.914083 -1.873474 4288085770
6.1735992 2.0532393 -1.8432664 4288085770
3.6012955 1.3405828 -1.8199676 4288085770
7.8648834 2.5164406 -1.83239 4288085770
11.289383 3.4496863 -1.8517236 4288085770
11.034477 3.3498023 -1.8520015 4288085770
17.393349 5.067554 -1.8854238 4288085770
4.4187012 1.5361161 -1.8338679 4288085770
17.668434 5.1204014 -1.8890184 4288085770
6.2440262 2.0181794 -1.8432583 4288085770
3.6547241 1.320529 -1.820985 4288085770
7.9813004 2.4823508 -1.8344544 4288085770
11.318794 3.3646548 -1.8484837 4288085770
11.443863 3.3855789 -1.8517438 4288085770
18.424767 5.2319818 -1.8975405 4293729569
4.4771118 1.5130708 -1.8318826 4288085770
17.783836 5.0083122 -1.8898159 4288085770
3.7051392 1.3004847 -1.8199979 4288085770
6.3354568 1.9880991 -1.8462988 4288085770
8.0977249 2.4462643 -1.835512 4288085770
11.926254 3.4332945 -1.858637 4288085770
11.393211 3.2895839 -1.8503455 4288085770
4.5405197 1.4910158 -1.8319079 4288085770
17.915237 4.8992167 -1.8896478 4288085770
3.7555389 1.2804404 -1.8190106 4288085770
6.4178925 1.9530358 -1.8453094 4288085770
12.484627 3.494947 -1.8736922 4288085770
8.2271347 2.4121675 -1.8375963 4288085770
11.440636 3.206543 -1.8471397 4288085770
4.6099091 1.4709594 -1.8319491 4288085770
3.8129578 1.2603881 -1.8190342 4288085770
18.078644 4.7970991 -1.8915516 4293729569
12.989021 3.5346611 -1.8775915 4288085770
6.5183029 1.9239516 -1.8483669 4288085770
8.3715591 2.3800569 -1.8417097 4288085770
11.503059 3.1274941 -1.8439702 4288085770
4.6843109 1.4498961 -1.8329948 4288085770
13.525414 3.5763586 -1.8815457 4288085770
3.8853607 1.2443125 -1.8240937 4288085770
18.301033 4.7069464 -1.8955852 4293729569
6.60672 1.8898828 -1.8483897 4288085770
8.5299683 2.3499396 -1.8458511 4288085770
2.9674759 1.0088185 -1.8049127 4288085770
11.590469 3.0544238 -1.8438588 4288085770
3.0534973 1.0277579 -1.8101069 4288085770
3.1295242 1.0447154 -1.8112794 4288085770
4.7587051 1.4288368 -1.8330404 4288085770
3.2145615 1.0626646 -1.8134688 4288085770
3.2955933 1.0796223 -1.8136488 4288085770
14.032822 3.60309 -1.8794054 4288085770
3.3726578 1.0945907 -1.8108164 4288085770
3.0526123 1.0187287 -1.8170766 4288085770
3.4657211 1.1125348 -1.8130184 4288085770
3.9507675 1.2252538 -1.8251325 4288085770
3.1317062 1.0316875 -1.8162407 4288085770
3.5527725 1.1294954 -1.8112077 4288085770
3.6548233 1.149431 -1.8144299 4288085770
6.7091446 1.8588035 -1.8494433 4288085770
8.6443939 2.3078768 -1.8398858 4288085770
3.2208099 1.0456308 -1.8184236 4288085770
3.7559128 1.1673766 -1.814644 4288085770
3.3068924 1.0595896 -1.8166019 4288085770
3.8649826 1.1873119 -1.816877 4288085770
4.8440933 1.4097681 -1.8341089 4288085770
11.674881 2.9813614 -1.8417429 4288085770
3.9760666 1.2062485 -1.8181099 4288085770
3.4000092 1.0735335 -1.8177909 4288085770
14.604218 3.6377726 -1.8823887 4288085770
4.0881577 1.2251875 -1.818344 4288085770
4.0201645 1.2071908 -1.8271807 4288085770
3.4861221 1.0854949 -1.8149625 4288085770
4.2072525 1.24512 -1.8195924 4288085770
3.5912323 1.1014266 -1.8181764 4288085770
8.7808075 2.2707903 -1.8379701 4288085770
6.815567 1.8267219 -1.8505002 4288085770
4.3213654 1.2620666 -1.8168231 4288085770
3.6923447 1.1153735 -1.8173774 4288085770
4.9244919 1.3887062 -1.8341633 4288085770
4.4544678 1.2829914 -1.8180958 4288085770
11.797302 2.9132659 -1.8437015 4288085770
15.245621 3.6794062 -1.8895015 4288085770
3.802475 1.1303082 -1.8185958 4288085770
4.5985641 1.3059007 -1.8223921 4288085770
4.0855713 1.1871388 -1.8262163 4288085770
4.7456894 1.3278136 -1.8246895 4288085770
3.9116058 1.1442461 -1.8188092 4288085770
8.9612198 2.2406647 -1.8411452 4288085770
6.9139786 1.7926583 -1.8475379 4288085770
4.9038239 1.3507209 -1.8270072 4288085770
4.0357437 1.1601634 -1.823052 4288085770
5.0008926 1.3656552 -1.8312052 4288085770
15.914032 3.7180259 -1.8966445 4288085770
5.0449524 1.369653 -1.8242859 4288085770
4.1568909 1.1750952 -1.8232867 4288085770
11.917717 2.8451786 -1.8436569 4288085770
4.1559601 1.1680815 -1.8262626 4288085770
5.2200851 1.394545 -1.8286358 4288085770
4.2870331 1.1910152 -1.8255388 4288085770
5.4032288 1.4194322 -1.8329979 4288085770
9.1446228 2.2095413 -1.8433207 4288085770
7.0543976 1.7655432 -1.8536628 4288085770
4.4101868 1.2039518 -1.8237702 4288085770
5.0882721 1.3445932 -1.8302702 4288085770
16.605453 3.7516427 -1.9008054 4288085770
5.5883713 1.443325 -1.8353599 4288085770
4.5353622 1.2158934 -1.8200012 4288085770
12.063133 2.7790718 -1.8456568 4288085770
4.2293549 1.1490225 -1.8263136 4288085770
5.7775192 1.4672184 -1.836728 4288085770
4.6875076 1.2337921 -1.8252934 4288085770
5.9836807 1.4930965 -1.8401283 4288085770
9.3220215 2.1764345 -1.8414809 4288085770
7.168808 1.7324681 -1.8517281 4288085770
5.1786575 1.3235288 -1.8293399 4288085770
4.8386841 1.2487037 -1.826574 4288085770
17.30584 3.7802553 -1.9049629 4288085770
6.2028427 1.5199709 -1.8425518 4288085770
4.305748 1.1299622 -1.8263689 4288085770
12.256531 2.7239289 -1.8517662 4288085770
4.998848 1.2646072 -1.8288711 4288085770
6.4230194 1.5438474 -1.8439671 4288085770
9.5464401 2.1482804 -1.8467287 4288085770
5.2820358 1.3044522 -1.8304356 4288085770
5.1610336 1.2795131 -1.8301686 4288085770
7.3022156 1.7023745 -1.8528322 4288085770
6.6432114 1.5667334 -1.8423785 4288085770
18.182251 3.8317385 -1.9214636 4288085770
4.389122 1.1118958 -1.827438 4288085770
5.321228 1.2924286 -1.8284563 4288085770
6.8843918 1.5926024 -1.8428322 4288085770
12.418953 2.6578164 -1.8527921 4288085770
5.4944153 1.3063309 -1.8287669 4288085770
5.378418 1.2833887 -1.8285142 4288085770
7.141571 1.618463 -1.8433098 4288085770
9.7638321 2.1191435 -1.8479627 4288085770
7.4426193 1.6722764 -1.8539468 4288085770
5.6886215 1.3222122 -1.8321158 4288085770
4.4615097 1.090848 -1.8244807 4288085770
7.4177628 1.6473067 -1.8458263 4288085770
12.637367 2.6006596 -1.8589329 4288085770
5.8728104 1.3361124 -1.831443 4288085770
5.496788 1.2652981 -1.8316358 4288085770
7.7219696 1.6771293 -1.8503886 4288085770
9.9892349 2.0880055 -1.8482019 4288085770
7.5720291 1.6381972 -1.8510312 4288085770
4.5498886 1.0727788 -1.8255571 4288085770
6.0820236 1.3509889 -1.8338114 4288085770
8.0231781 1.7039664 -1.8509361 4288085770
5.6191559 1.2472124 -1.8327638 4288085770
12.839775 2.5395246 -1.8610359 4288085770
8.3423843 1.7327943 -1.8515176 4288085770
6.3042297 1.3668554 -1.8372029 4288085770
10.238617 2.0598495 -1.8504874 4288085770
7.7454147 1.6120701 -1.8562092 4288085770
4.6522446 1.0566936 -1.829662 4288085770
8.6706085 1.7586267 -1.8491029 4288085770
6.5254517 1.3807285 -1.8385864 4288085770
5.7375183 1.2271316 -1.8328787 4288085770
9.0258408 1.7874413 -1.8477389 4288085770
13.106171 2.4873402 -1.868266 4288085770
6.7576752 1.3935986 -1.8389829 4288085770
10.516014 2.0326753 -1.8538185 4288085770
7.8928146 1.5779822 -1.853321 4288085770
4.7486191 1.0376239 -1.8297473 4288085770
9.3970718 1.815248 -1.8463956 4288085770
7.0178986 1.4094423 -1.8434318 4288085770
5.8598785 1.2080531 -1.832003 4288085770
9.7973099 1.8430426 -1.8440961 4288085770
13.36657 2.4301653 -1.8734702 4288085770
10.80439 2.0054994 -1.8561662 4288085770
7.2751236 1.4222996 -1.843866 4288085770
8.050209 1.5458889 -1.8504544 4288085770
4.8429871 1.0175588 -1.8288261 4288085770
10.243546 1.8758004 -1.8458833 4288085770
5.99823 1.1889591 -1.8331517 4288085770
7.5463715 1.4351486 -1.8443216 4288085770
11.122772 1.9803052 -1.8595659 4288085770
13.703964 2.3819287 -1.8858212 4288085770
4.9443512 0.99849027 -1.8279189 4288085770
10.739799 1.9125228 -1.8507589 4288085770
8.2475891 1.5177567 -1.8536619 4288085770
7.846611 1.44897 -1.8488244 4288085770
6.1565781 1.1728464 -1.8373405 4288085770
11.251045 1.9462464 -1.8526472 4288085770
8.1528473 1.4617952 -1.8513328 4288085770
5.0737 0.98338586 -1.8340677 4288085770
11.457161 1.9531057 -1.8619832 4288085770
8.4339752 1.4876398 -1.8538457 4288085770
14.030373 2.3277142 -1.8931352 4288085770
11.805305 1.981952 -1.8536073 4288085770
6.3169174 1.155735 -1.8405286 4288085770
8.4711075 1.47262 -1.8518528 4288085770
5.1880493 0.96530473 -1.8351833 4288085770
12.439568 2.0235999 -1.8597084 4288085770
11.830528 1.9298804 -1.8664726 4288085770
8.7813721 1.4784644 -1.8473436 4288085770
8.6233673 1.4545313 -1.8510243 4288085770
6.473259 1.136637 -1.8407043 4288085770
14.370766 2.2724922 -1.9004668 4288085770
13.20182 2.0771461 -1.8770429 4288085770
9.1096344 1.4842969 -1.8438617 4288085770
5.2973938 0.94523978 -1.8322846 4288085770
12.240891 1.90763 -1.873021 4288085770
8.8377304 1.4244037 -1.8502506 4288085770
6.6415939 1.1185288 -1.8419012 4288085770
14.022079 2.1326694 -1.8924719 4288085770
14.682167 2.209311 -1.8997279 4288085770
9.5128937 1.4970574 -1.8505167 4288085770
5.4287415 0.92715037 -1.8334259 4288085770
14.786369 2.1712685 -1.8927587 4288085770
12.730247 1.8923233 -1.8847121 4288085770
6.8189316 1.1004163 -1.8431116 4288085770
9.0851059 1.3962425 -1.8545331 4288085770
9.9331665 1.5078192 -1.8541907 4288085770
15.020561 2.1461134 -1.9000298 4288085770
5.5570755 0.90806937 -1.8325592 4288085770
15.574654 2.2058723 -1.8880688 4288085770
10.35144 1.5135905 -1.8548447 4288085770
7.0102615 1.0823004 -1.8433434 4288085770
13.315605 1.8829439 -1.9035686 4288085770
9.3504639 1.3690765 -1.8578464 4288085770
3.7271805 0.65400189 -1.8239406 4288085770
16.503952 2.2503805 -1.8906249 4288085770
5.7063828 0.89196599 -1.8357342 4288085770
10.832726 1.5223172 -1.859604 4288085770
15.416946 2.0868733 -1.9044329 4288085770
7.22258 1.0651639 -1.84661 4288085770
13.916946 1.8715672 -1.9194421 4288085770
3.7965012 0.63795906 -1.8209952 4288085770
17.558258 2.2988183 -1.8953835 4288085770
9.617836 1.3379185 -1.8581492 4288085770
11.319 1.5260501 -1.861354 4288085770
5.8467178 0.87287939 -1.8348857 4288085770
7.4289017 1.0470409 -1.8468641 4288085770
15.852341 2.0276122 -1.9088947 4288085770
3.885788 0.6248877 -1.8240896 4288085770
14.501297 1.8512285 -1.9262599 4288085770
11.838295 1.5297632 -1.8641537 4288085770
9.9091873 1.3077457 -1.8594915 4288085770
6.0060425 0.8547768 -1.836069 4288085770
7.6462173 1.0279155 -1.8461312 4288085770
3.9740906 0.61082292 -1.825179 4288085770
16.319717 1.9683397 -1.9124047 4288085770
12.446587 1.5354133 -1.8720948 4288085770
15.029655 1.8189607 -1.9199525 4288085770
10.202538 1.2765789 -1.8588332 4288085770
6.17836 0.83666468 -1.838272 4288085770
4.8503113 0.69136804 -1.8267761 4288085770
4.7043076 0.67544204 -1.826502 4288085770
4.5533066 0.65853143 -1.8222169 4288085770
5.0083313 0.70728391 -1.8280686 4288085770
4.4133148 0.64260876 -1.8199519 4288085770
5.1483536 0.72122848 -1.8233272 4288085770
4.2913208 0.62766296 -1.8217174 4288085770
5.3283768 0.73912603 -1.8266598 4288085770
4.1733398 0.61271828 -1.8224891 4288085770
5.5064011 0.75603491 -1.826986 4288085770
3.9243393 0.58484066 -1.8230191 4288085770
3.8243256 0.57387835 -1.8268312 4288085770
7.897522 1.0107634 -1.8484565 4288085770
4.0483551 0.59676719 -1.8262471 4288085770
4.0623627 0.59776616 -1.8242716 4288085770
4.1753693 0.6096952 -1.8284825 4288085770
5.7024536 0.77292621 -1.8293394 4288085770
4.0713806 0.59674394 -1.8292822 4288085770
4.2974014 0.62063533 -1.8277041 4288085770
5.8924942 0.78983414 -1.8276838 4288085770
3.9524002 0.58281994 -1.8240556 4288085770
4.4334335 0.63256145 -1.82895 4288085770
6.1075363 0.80771953 -1.8290693 4288085770
3.8424225 0.56787682 -1.8228396 4288085770
4.560463 0.64350539 -1.8261791 4288085770
13.159859 1.5479779 -1.8902177 4288085770
4.7145233 0.65541434 -1.8294526 4288085770
6.3386078 0.82558942 -1.8324794 4288085770
4.8715668 0.6683259 -1.8317338 4288085770
15.647011 1.7916343 -1.9177965 4288085770
6.5746689 0.84346592 -1.8328966 4288085770
6.353653 0.81955171 -1.8404826 4288085770
16.866104 1.9100127 -1.9200374 4288085770
5.0246201 0.67925185 -1.8300024 4288085770
10.528885 1.2453915 -1.8592249 4288085770
6.8317413 0.86232841 -1.8343495 4288085770
5.2006912 0.69114912 -1.8333093 4288085770
8.1848145 0.99658012 -1.8548461 4288085770
7.119812 0.88316238 -1.8398556 4288085770
4.1616669 0.58168542 -1.8283712 4288085770
5.3597717 0.70108098 -1.8285836 4288085770
7.3918991 0.90002573 -1.8383244 4288085770
14.006126 1.5644438 -1.9175545 4288085770
5.553833 0.71296901 -1.8319179 4288085770
7.7079926 0.91985059 -1.8418695 4288085770
5.7409286 0.7228756 -1.8302346 4288085770
6.5569534 0.80341446 -1.8457388 4288085770
16.352341 1.7682505 -1.9197866 4288085770
8.0230942 0.93869126 -1.8404099 4288085770
8.4331131 0.97644609 -1.8521568 4288085770
5.957016 0.73475069 -1.8336018 4288085770
10.904221 1.2171667 -1.8637005 4288085770
4.2599487 0.5676198 -1.8284756 4288085770
17.41748 1.8446994 -1.922654 4288085770
8.392189 0.96048236 -1.8460418 4288085770
6.1781006 0.74663067 -1.834977 4288085770
14.69944 1.5570724 -1.9185802 4288085770
6.4092102 0.75750142 -1.8373638 4288085770
8.7673035 0.98028195 -1.8476764 4288085770
6.7462387 0.7853018 -1.8459669 4288085770
17.192673 1.7507784 -1.9280003 4288085770
6.6653137 0.76835489 -1.8407885 4288085770
9.2054214 1.0040333 -1.8544196 4288085770
8.7304001 0.95927501 -1.8535513 4288085770
4.3662415 0.55254281 -1.8305887 4288085770
11.291557 1.1869425 -1.8661875 4288085770
6.9124298 0.77722949 -1.839193 4288085770
9.6495285 1.0267909 -1.858168 4288085770
15.420746 1.5446928 -1.917631 4288085770
18.203842 1.7952073 -1.943679 4288085770
6.9555206 0.76717538 -1.8472255 4288085770
7.1985474 0.78806424 -1.8436629 4288085770
10.10067 1.0455642 -1.8559142 4288085770
9.0396805 0.94210422 -1.8529636 4288085770
4.4685135 0.5374819 -1.8286959 4288085770
18.290985 1.7481222 -1.9526538 4288085770
7.5006638 0.79889423 -1.8471571 4288085770
10.604813 1.0673001 -1.8567504 4288085770
11.724876 1.1566913 -1.8697439 4288085770
16.179062 1.5263064 -1.9127179 4288085770
7.8267975 0.80871105 -1.8506845 4288085770
11.171951 1.0900002 -1.8586849 4288085770
7.188797 0.75102729 -1.8515266 4288085770
4.5897675 0.52439284 -1.8328382 4288085770
9.3939438 0.92689443 -1.8574506 4288085770
3.8657608 0.4617666 -1.8295337 4288085770
8.1649323 0.81852448 -1.8532296 4288085770
11.7761 1.113678 -1.8616787 4288085770
12.194199 1.1254227 -1.873351 4288085770
8.5060806 0.82534552 -1.8527695 4288085770
17.148361 1.5167562 -1.9251531 4288085770
12.482262 1.1402861 -1.8698367 4288085770
7.4200745 0.73188978 -1.8528148 4288085770
4.7080307 0.5093174 -1.8329693 4288085770
9.7542114 0.90969157 -1.85894 4288085770
3.9600372 0.44770658 -1.8286322 4288085770
8.8932343 0.83313054 -1.8563823 4288085770
13.339401 1.1747854 -1.8882493 4288085770
9.2813873 0.83892703 -1.8559898 4288085770
7.6943359 0.71571839 -1.8581778 4288085770
12.743515 1.0960959 -1.8820857 4288085770
14.304543 1.2122149 -1.9108349 4288085770
4.8372955 0.4952305 -1.8351203 4288085770
18.28466 1.5090952 -1.9458469 4288085770
10.181473 0.89544129 -1.8645405 4288085770
4.0672913 0.4346278 -1.8317534 4288085770
9.7155533 0.84469318 -1.8576669 4288085770
15.192726 1.2367592 -1.910261 4288085770
7.9636078 0.69656217 -1.8595232 4288085770
4.9675446 0.48014653 -1.8362693 4288085770
10.13073 0.84549475 -1.8512985 4288085770
4.1755371 0.42155209 -1.833876 4288085770
10.67971 0.88313311 -1.8772546 4288085770
13.360817 1.0677286 -1.8929263 4288085770
16.208908 1.2632269 -1.9128867 4288085770
10.730888 0.85612941 -1.8672427 4288085770
8.2448502 0.67840391 -1.8598899 4288085770
5.1087875 0.46605429 -1.8384382 4288085770
17.544083 1.3044655 -1.9360443 4288085770
4.2897873 0.4084703 -1.8370076 4288085770
11.101982 0.86292797 -1.8698274 4288085770
11.214081 0.85389876 -1.8599671 4288085770
14.062111 1.0393089 -1.9068936 4288085770
5.2500305 0.45096856 -1.8386036 4288085770
8.5661087 0.66021466 -1.8633171 4288085770
4.4160233 0.39538243 -1.8401572 4288085770
11.612228 0.84565276 -1.8705426 4288085770
11.812271 0.85557902 -1.8618785 4288085770
14.724419 1.0019476 -1.9087716 4288085770
5.4052505 0.43687665 -1.8387934 4288085770
12.476456 0.85621905 -1.8658861 4288085770
8.8593597 0.6400674 -1.8586949 4288085770
4.5192642 0.38133004 -1.8362685 4288085770
12.174469 0.82934415 -1.87334 4288085770
13.248634 0.85778028 -1.8770598 4288085770
5.5714798 0.42276907 -1.8419999 4288085770
4.646492 0.3672488 -1.8374163 4288085770
9.2305908 0.62185049 -1.8631972 4288085770
15.451714 0.96455723 -1.9097477 4288085770
12.864693 0.81694466 -1.8843435 4288085770
14.099823 0.85729772 -1.8893462 4288085770
5.7496872 0.40865242 -1.8462242 4288085770
4.7767029 0.3541702 -1.8375717 4288085770
9.611824 0.60264176 -1.8637112 4288085770
13.639908 0.80549896 -1.8964785 4288085770
16.308998 0.92708343 -1.9159199 4288085770
14.964027 0.85083383 -1.8936321 4288085770
5.911911 0.39257067 -1.8424178 4288085770
4.9259186 0.3410688 -1.8417555 4288085770
10.033043 0.58340949 -1.8652855 4288085770
14.44912 0.79105169 -1.9036547 4288085770
15.964226 0.84328687 -1.9021198 4288085770
6.1191101 0.37843606 -1.8476859 4288085770
17.311264 0.88951975 -1.9273108 4288085770
5.0561218 0.32700044 -1.8389074 4288085770
10.496254 0.56515038 -1.8689264 4288085770
15.364334 0.77655083 -1.9109908 4288085770
17.086433 0.83267313 -1.9117817 4288085770
6.3143082 0.36432546 -1.8479356 4288085770
5.2153244 0.31390113 -1.8411065 4288085770
11.02446 0.54584742 -1.8756617 4288085770
16.406525 0.7639792 -1.9205252 4288085770
18.515617 0.8238498 -1.9379133 4288085770
6.556488 0.35016432 -1.8562561 4288085770
5.3815155 0.30079886 -1.8433157 4288085770
11.568665 0.52655363 -1.8774215 4288085770
17.622704 0.75230163 -1.9353253 4288085770
6.785675 0.33503285 -1.8575538 4288085770
5.556694 0.28768888 -1.8465387 4288085770
12.17186 0.50622296 -1.8812665 4288085770
7.039856 0.32087916 -1.8618923 4288085770
5.7368698 0.27458325 -1.8477689 4288085770
12.881027 0.48782203 -1.8902782 4288085770
7.3090134 0.3067216 -1.8652533 4288085770
5.9220428 0.26048177 -1.8470033 4288085770
10.595116 0.39906445 -1.862528 4288085770
11.159126 0.41577929 -1.8624362 4288085770
10.07412 0.38233054 -1.8616847 4288085770
11.798134 0.43344247 -1.8664607 4288085770
9.590126 0.36658749 -1.857901 4288085770
12.51416 0.45106483 -1.8706015 4288085770
9.131134 0.34983438 -1.8531514 4288085770
13.322182 0.46963066 -1.8778847 4288085770
8.742157 0.33402169 -1.8555111 4288085770
14.241211 0.48913553 -1.8863388 4288085770
8.4031754 0.31917349 -1.8609496 4288085770
13.650192 0.46739155 -1.8993734 4288085770
15.274246 0.50857884 -1.8959652 4288085770
7.5821838 0.29157215 -1.8656172 4288085770
8.2182007 0.30928284 -1.8556374 4288085770
7.8742065 0.29946175 -1.8540848 4288085770
8.5752182 0.31810617 -1.8542064 4288085770
8.0582047 0.30334771 -1.860376 4288085770
7.5681992 0.28960833 -1.8565897 4288085770
8.9702377 0.32690346 -1.8548328 4288085770
6.1332016 0.2483514 -1.8512837 4288085770
7.2772141 0.27975604 -1.8561171 4288085770
16.349304 0.52703577 -1.8946515 4288085770
9.4022675 0.33567762 -1.856515 4288085770
6.9852295 0.26891091 -1.85364 4288085770
7.7262344 0.28852192 -1.8578252 4288085770
9.8802948 0.3434217 -1.8602635 4288085770
6.70327 0.25807327 -1.8471779 4288085770
17.678352 0.54832625 -1.9047312 4288085770
10.396332 0.35114902 -1.8630694 4288085770
6.4552994 0.24720156 -1.8457671 4288085770
7.4063034 0.27169511 -1.8532861 4288085770
6.2093353 0.23633498 -1.8423597 4288085770
10.96537 0.35784543 -1.8669518 4288085770
14.512367 0.44691563 -1.9076089 4288085770
7.9103241 0.27736878 -1.8740672 4288085770
7.1213531 0.25684062 -1.8518065 4288085770
6.3463593 0.23523012 -1.8525635 4288085770
11.556427 0.36354679 -1.8658644 4288085770
5.9903946 0.22445023 -1.8399895 4288085770
6.8574066 0.24197242 -1.8513585 4288085770
12.262466 0.36916611 -1.8719505 4288085770
5.7804413 0.21355796 -1.8386365 4288085770
6.5974884 0.22611079 -1.8479136 4288085770
5.5914993 0.2026481 -1.8393153 4288085770
13.017532 0.37276557 -1.8761038 4288085770
8.2034836 0.2612195 -1.8714575 4288085770
15.487518 0.42538297 -1.9160117 4288085770
6.5924988 0.22207546 -1.8588928 4288085770
13.91259 0.37727416 -1.8864716 4288085770
6.3495636 0.21124607 -1.84349 4288085770
5.4085617 0.19073758 -1.8389999 4288085770
14.884666 0.37875533 -1.8929456 4288085770
5.2266464 0.17883605 -1.8356861 4288085770
8.533638 0.24604812 -1.869907 4288085770
6.1366501 0.19635016 -1.8431195 4288085770
6.8466415 0.20892063 -1.8642343 4288085770
16.556679 0.40181139 -1.9215494 4288085770
16.020729 0.37913206 -1.9056641 4288085770
5.0737152 0.16789687 -1.8394192 4288085770
5.9197464 0.18146545 -1.839743 4288085770
8.8737717 0.23087561 -1.8673714 4288085770
17.232819 0.37649971 -1.9094869 4288085770
7.117775 0.19576359 -1.8676015 4288085770
4.9168091 0.15597516 -1.8381432 4288085770
17.912796 0.38004825 -1.9415265 4288085770
5.7338333 0.16754866 -1.8414167 4288085770
4.759903 0.14405656 -1.8358675 4288085770
9.2899017 0.21564135 -1.8719505 4288085770
7.384903 0.18262219 -1.8669626 4288085770
5.5459442 0.15264201 -1.8400842 4288085770
4.6140137 0.13213164 -1.8336085 4288085770
9.7320251 0.20039403 -1.8765687 4288085770
5.3640518 0.13873887 -1.836764 4288085770
7.6820297 0.16945612 -1.8693687 4288085770
4.4791183 0.12019467 -1.833366 4288085770
10.219131 0.18512756 -1.8802546 4288085770
7.9911346 0.15729117 -1.8697962 4288085770
5.1941757 0.12382531 -1.8344589 4288085770
4.3452377 0.10826319 -1.8311251 4288085770
10.743233 0.16984248 -1.8839964 4288085770
8.3342514 0.14410233 -1.8722714 4288085770
5.0462952 0.1098876 -1.8361903 4288085770
4.2273407 0.097310841 -1.8329118 4288085770
8.6933365 0.13191211 -1.8727742 4288085770
11.303345 0.15354204 -1.886789 4288085770
4.8964233 0.095960319 -1.8349189 4288085770
4.1054764 0.085372329 -1.8306893 4288085770
11.945419 0.13819057 -1.8927084 4288085770
9.07444 0.11871445 -1.8723065 4288085770
4.7565536 0.082024336 -1.8346623 4288085770
9.5185242 0.10646492 -1.8779372 4288085770
12.659492 0.12280273 -1.8987366 4288085770
9.9995956 0.094203591 -1.8816239 4288085770
13.462563 0.10736626 -1.9058985 4288085770
4.6226959 0.068084896 -1.8344153 4288085770
10.514656 0.081931949 -1.8833615 4288085770
14.374626 0.09087044 -1.9142219 4288085770
11.081726 0.069626749 -1.8871776 4288085770
15.366692 0.074344218 -1.9196655 4288085770
4.4798584 0.054165781 -1.8291546 4288085770
11.704788 0.057293475 -1.8910779 4288085770
16.52774 0.056721687 -1.9283611 4288085770
12.40683 0.045917034 -1.8961009 4288085770
17.897766 0.039972901 -1.9433748 4288085770
13.211845 0.036475599 -1.9052855 4288085770
4.3590012 0.041216135 -1.8299307 4288085770
14.077873 0.02501595 -1.9105557 4288085770
15.108894 0.014445543 -1.9240779 4288085770
18.154892 0.0028756261 -1.9306399 4288085770
16.217903 0.0048653483 -1.9287211 4288085770
17.577888 -0.0038890243 -1.9477462 4288085770
16.719955 -0.008349061 -1.9154354 4288085770
15.556015 -0.018742323 -1.9096431 4288085770
4.2521591 0.027255297 -1.8317245 4288085770
14.483101 -0.031166911 -1.8989817 4288085770
13.571167 -0.04268682 -1.8925666 4288085770
4.1373291 0.013307571 -1.8305064 4288085770
12.759254 -0.054255545 -1.8853022 4288085770
12.057335 -0.066897094 -1.8832008 4288085770
17.145294 -0.12059528 -1.9167055 4288085770
4.0315094 -0.00064778328 -1.8303019 4288085770
11.374435 -0.079526186 -1.8741282 4288085770
15.945396 -0.13596612 -1.9088429 4288085770
10.810532 -0.092245877 -1.874235 4288085770
14.899498 -0.15042567 -1.9042159 4288085770
10.277641 -0.10497218 -1.8713888 4288085770
13.932617 -0.16390353 -1.8927118 4288085770
9.8047562 -0.11873639 -1.8706297 4288085770
13.11673 -0.1784851 -1.8894321 4288085770
9.3438721 -0.13149345 -1.8658925 4288085770
12.367859 -0.19309181 -1.8832535 4288085770
8.9399948 -0.14429027 -1.864241 4288085770
11.696991 -0.20774204 -1.8781925 4288085770
8.567131 -0.15810674 -1.8636333 4288085770
11.106133 -0.22244054 -1.8752528 4288085770
8.2242661 -0.17193907 -1.8630708 4288085770
17.579086 -0.40592474 -1.930415 4288085770
10.575272 -0.23717618 -1.8744034 4288085770
7.8964157 -0.18477225 -1.8605345 4288085770
10.080429 -0.25192434 -1.8716084 4288085770
16.396294 -0.4313001 -1.9195458 4288085770
7.5965652 -0.19862729 -1.8600372 4288085770
9.6305847 -0.2666961 -1.8688816 4288085770
15.429489 -0.45781928 -1.9189993 4288085770
7.3127289 -0.2124843 -1.8575641 4288085770
9.2117386 -0.28148377 -1.8662015 4288085770
7.0758896 -0.22638816 -1.862162 4288085770
14.485703 -0.48131806 -1.9084979 4288085770
8.8379059 -0.29630166 -1.8655893 4288085770
17.698677 -0.62309486 -1.9488765 4288085770
6.8240585 -0.24026233 -1.8597373 4288085770
13.648926 -0.50287133 -1.8981646 4288085770
8.4840851 -0.31112665 -1.8640076 4288085770
16.49588 -0.63146502 -1.940034 4288085770
6.6002426 -0.254161 -1.860355 4288085770
8.1582718 -0.32596689 -1.8624681 4288085770
12.944138 -0.52652246 -1.8970238 4288085770
15.430069 -0.63791174 -1.9334053 4288085770
6.3514481 -0.26701772 -1.8519386 4288085770
7.8434677 -0.34080595 -1.8589455 4288085770
14.425262 -0.6383695 -1.9208883 4288085770
12.26638 -0.5481649 -1.8889307 4288085770
6.1276474 -0.27989721 -1.8465601 4288085770
7.5756531 -0.35568565 -1.8604935 4288085770
13.547447 -0.63890189 -1.9115633 4288085770
11.678619 -0.56886357 -1.8839766 4288085770
17.765396 -0.86814588 -1.9371661 4288085770
5.938858 -0.2948153 -1.8472277 4288085770
12.772621 -0.63749665 -1.9053999 4288085770
7.3058624 -0.3705557 -1.8590392 4288085770
12.070786 -0.63513118 -1.90035 4288085770
11.157852 -0.59161013 -1.8831171 4288085770
16.628647 -0.87954587 -1.9264141 4288085770
5.764061 -0.30873716 -1.8469197 4288085770
7.0600739 -0.38644129 -1.8586174 4288085770
11.445938 -0.63180834 -1.8964194 4288085770
5.6032715 -0.32367963 -1.8506297 4288085770
15.648903 -0.8930437 -1.9208928 4288085770
10.658104 -0.61135083 -1.8772997 4288085770
17.581802 -1.0031281 -1.9504429 4288085770
10.863098 -0.62750691 -1.8925556 4288085770
6.8222885 -0.40032464 -1.8562146 4288085770
6.5030823 -2.4443395 -1.8930262 4288085770
14.997337 -5.255178 -2.0045462 4288085770
4.7716217 -1.8788023 -1.898846 4288085770
8.5164642 -3.1182065 -1.9226879 4288085770
9.0215149 -3.321655 -1.9145294 4288085770
6.7862473 -2.5746 -1.8884617 4288085770
6.3193741 -2.4191961 -1.8956105 4288085770
8.2077866 -3.0589399 -1.9200281 4288085770
14.936729 -5.358109 -1.9851624 4288085770
4.714035 -1.9037697 -1.8956417 4288085770
6.1206818 -2.3880293 -1.89317 4288085770
7.9151077 -3.0026879 -1.9174026 4288085770
8.9598923 -3.3786247 -1.9142443 4288085770
6.7486343 -2.6235957 -1.8902553 4288085770
5.9339828 -2.3588753 -1.8917557 4288085770
7.6254196 -2.9434338 -1.9127914 4288085770
4.6734161 -1.9327619 -1.8974718 4288085770
14.582291 -5.3577046 -1.9292554 4288085770
7.3567276 -2.888201 -1.9092253 4288085770
5.7602615 -2.3317387 -1.89337 4288085770
8.9172745 -3.4426153 -1.9159926 4288085770
6.7070236 -2.6695814 -1.8890456 4288085770
4.630806 -1.9597476 -1.8973016 4288085770
7.0960236 -2.8329723 -1.9046794 4288085770
14.271843 -5.369348 -1.8774344 4293729569
5.579567 -2.3005862 -1.8899757 4288085770
6.84832 -2.7787552 -1.9001645 4288085770
8.8646545 -3.5015914 -1.9147264 4288085770
6.6664352 -2.7165689 -1.8878363 4288085770
5.4228439 -2.2744641 -1.8916315 4288085770
4.5991898 -1.9917502 -1.9001483 4288085770
14.054344 -5.4100947 -1.8357872 4293729569
6.6266098 -2.732568 -1.8986984 4288085770
5.2611237 -2.2453289 -1.8892812 4288085770
8.8300247 -3.5665896 -1.9164931 4288085770
6.4108734 -2.6843827 -1.8962525 4288085770
6.6458206 -2.7705822 -1.890663 4288085770
5.1164017 -2.2212183 -1.8909632 4288085770
4.5395966 -2.0117071 -1.8929502 4288085770
13.965759 -5.4939857 -1.8083748 4293729569
6.2061462 -2.6392081 -1.8938276 4288085770
4.9676666 -2.1930969 -1.889644 4288085770
8.821373 -3.6416166 -1.9213043 4288085770
6.6122131 -2.8195758 -1.8894676 4288085770
6.0104065 -2.5950429 -1.8924237 4288085770
4.489006 -2.0356762 -1.8877662 4288085770
4.8259277 -2.1659834 -1.8893403 4288085770
13.914154 -5.5899129 -1.7830304 4293729569
5.8076706 -2.5448585 -1.8850154 4288085770
4.7011719 -2.1438911 -1.8920692 4288085770
5.6279144 -2.5017049 -1.88265 4288085770
8.7787628 -3.7035997 -1.9190577 4288085770
6.6005936 -2.8765991 -1.8933107 4288085770
4.46138 -2.0656793 -1.8896281 4288085770
13.824585 -5.6717987 -1.7536203 4293729569
4.5874023 -2.1238098 -1.8958217 4288085770
5.4621582 -2.4625678 -1.8823117 4288085770
4.4666367 -2.0997186 -1.8975652 4288085770
5.3033905 -2.4254348 -1.8809868 4288085770
8.7681198 -3.7776234 -1.9228662 4288085770
6.5609894 -2.9225829 -1.8901068 4288085770
4.4247665 -2.0926666 -1.8874735 4288085770
13.653053 -5.7175875 -1.7130805 4293729569
5.1516113 -2.3873098 -1.8806821 4288085770
4.3468857 -2.0746217 -1.8963135 4288085770
5.0188217 -2.3562071 -1.8834106 4288085770
4.234108 -2.0505345 -1.8970774 4288085770
8.7404938 -3.8446195 -1.920647 4288085770
6.5453796 -2.9775968 -1.8909444 4288085770
4.4051361 -2.1266809 -1.8913466 4288085770
4.8900146 -2.3241074 -1.8861514 4288085770
13.42057 -5.7393064 -1.6654412 4293729569
4.1243439 -2.0284495 -1.8988479 4288085770
4.7622147 -2.2920017 -1.8868986 4288085770
4.0335388 -2.0103896 -1.9036561 4288085770
13.362183 -5.7891541 -1.1051836 4293729569
8.7328339 -3.918638 -1.9224702 4288085770
4.6424026 -2.2619081 -1.8886591 4288085770
4.3625336 -2.1506538 -1.8861884 4288085770
6.532753 -3.0346096 -1.8917912 4288085770
13.1511 -5.7389822 -1.6117594 4293729569
3.9497147 -1.9943411 -1.9114774 4282675967
4.5205841 -2.2288077 -1.8884209 4288085770
13.246124 -5.8237324 -0.43381232 4293729569
4.4057693 -2.1977153 -1.8891963 4288085770
13.125092 -5.789525 -0.88458157 4293729569
13.228416 -5.8361425 -1.1477449 4293729569
4.3339005 -2.1796496 -1.8850526 4288085770
8.7132111 -3.9886429 -1.9212703 4288085770
4.2819519 -2.1616049 -1.8849596 4288085770
6.5141296 -3.0866156 -1.890632 4288085770
13.037552 -5.8018332 -1.5753376 4293729569
4.185112 -2.135534 -1.8887697 4288085770
13.210297 -5.908823 -0.4835403 4293729569
4.095253 -2.1114712 -1.8935934 4288085770
13.201584 -5.9282455 -1.1994808 4293729569
13.0625 -5.8704343 -0.85425043 4293729569
4.3082733 -2.2086475 -1.8839246 4288085770
8.7245483 -4.0706859 -1.9251231 4288085770
3.9944153 -2.0813861 -1.8924021 4288085770
6.5035019 -3.1426311 -1.8904847 4288085770
12.999947 -5.8927655 -1.5460484 4293729569
3.9185333 -2.0603387 -1.8992547 4288085770
13.192459 -6.0009336 -0.535299 4293729569
13.208733 -6.0323877 -1.2562771 4293729569
13.036888 -5.9683762 -0.82397664 4293729569
4.2806549 -2.2366419 -1.8817936 4288085770
8.7169037 -4.1457024 -1.9239432 4288085770
6.4988708 -3.2016535 -1.8913461 4288085770
13.035286 -6.0147772 -1.5238775 4293729569
4.2600021 -2.2666459 -1.8816763 4288085770
8.728241 -4.2277403 -1.9257964 4288085770
6.5052338 -3.2656903 -1.8942248 4288085770
4.2263794 -2.2916284 -1.8765367 4288085770
8.7405701 -4.3097754 -1.9256526 4288085770
6.5055923 -3.3257172 -1.8950969 4288085770
4.2047501 -2.3206275 -1.8744191 4288085770
8.7499161 -4.3908057 -1.9245034 4288085770
6.5049591 -3.385741 -1.894967 4288085770
4.1881027 -2.3516309 -1.87231 4288085770
8.7782288 -4.4818606 -1.9273812 4288085770
6.5203094 -3.4537847 -1.8978602 4288085770
4.1694489 -2.3806338 -1.8712002 4288085770
8.8035583 -4.5699072 -1.9272579 4288085770
6.5326462 -3.5188215 -1.8987528 4288085770
4.150795 -2.4096327 -1.8680905 4288085770
8.8358688 -4.6629615 -1.928142 4288085770
6.54599 -3.5858591 -1.8996435 4288085770
4.1531219 -2.4476626 -1.8710145 4288085770
13.524452 -6.9788885 -1.78207 4293729569
8.9041443 -4.7720575 -1.9340831 4288085770
6.5543289 -3.6498883 -1.8985285 4288085770
4.1504288 -2.4826844 -1.8729328 4288085770
12.876015 -6.759304 -1.769899 4293729569
8.9973984 -4.8951845 -1.9440578 4282675967
4.1437607 -2.515697 -1.8718451 4288085770
6.5836487 -3.7239454 -1.9024452 4288085770
12.534363 -6.6830606 -1.7911991 4293729569
9.0756683 -5.011291 -1.9510099 4282675967
4.1500549 -2.554729 -1.8747774 4288085770
6.6029739 -3.7939866 -1.9023453 4288085770
12.203712 -6.6068258 -1.8125271 4293729569
4.1393738 -2.5847335 -1.8716861 4288085770
9.0859833 -5.0933089 -1.9438626 4282675967
11.815102 -6.4955177 -1.8227826 4293729569
6.6223068 -3.8620241 -1.9012498 4288085770
4.145668 -2.6217606 -1.8726231 4288085770
8.9894028 -5.1201863 -1.9145623 4288085770
11.406517 -6.3681808 -1.8280221 4293729569
6.6546021 -3.9370792 -1.9031726 4288085770
4.154953 -2.6607935 -1.8755633 4288085770
11.022926 -6.2468648 -1.8323115 4293729569
8.8388748 -5.1169953 -1.8751894 4288085770
6.6919022 -4.0161381 -1.9050995 4288085770
4.1542435 -2.694808 -1.873489 4288085770
10.74826 -6.1786757 -1.8517638 4288085770
8.7672653 -5.1529031 -1.8499335 4288085770
6.7252121 -4.0931902 -1.9050208 4288085770
4.1575241 -2.7288265 -1.872425 4288085770
10.425629 -6.0804257 -1.8621584 4288085770
8.7526093 -5.2178798 -1.8337599 4293729569
4.1757812 -2.7708669 -1.8753818 4288085770
6.7694855 -4.1752553 -1.9069594 4288085770
10.103996 -5.9771676 -1.8685664 4288085770
8.7798996 -5.3049092 -1.8256458 4293729569
4.1830444 -2.8068886 -1.8743237 4288085770
9.7124329 -5.8298187 -1.8608905 4288085770
6.8127747 -4.257318 -1.9078959 4288085770
4.2022934 -2.848927 -1.876283 4288085770
8.8901215 -5.4360361 -1.8296481 4293729569
9.3088913 -5.6714497 -1.8482078 4288085770
6.8640442 -4.3433881 -1.909844 4288085770
4.2155228 -2.886955 -1.8762361 4288085770
8.7545013 -5.4238825 -1.8043326 4293729569
9.0952454 -5.6212821 -1.8507761 4288085770
6.917305 -4.43046 -1.9117953 4288085770
4.2387619 -2.929996 -1.8782037 4288085770
8.3659668 -5.2605119 -1.7846979 4293729569
9.2364273 -5.7724423 -1.8578147 4288085770
4.2589874 -2.9710276 -1.8771681 4288085770
6.9545822 -4.5085077 -1.9087251 4288085770
8.1562576 -5.1933608 -1.7953113 4293729569
9.3426285 -5.9035563 -1.8578073 4288085770
4.2772064 -3.0100567 -1.8761314 4288085770
8.0174789 -5.164299 -1.8190237 4293729569
7.0108337 -4.59758 -1.90968 4288085770
11.000938 -6.8960304 -1.8468987 4288085770
4.3084106 -3.0561054 -1.8791131 4288085770
9.4298553 -6.0256457 -1.8537716 4288085770
7.8617325 -5.1222086 -1.8367206 4288085770
10.528381 -6.6785998 -1.8361665 4293729569
7.1140213 -4.7127104 -1.9196986 4288085770
4.3316116 -3.0961361 -1.8770872 4288085770
7.7259445 -5.0891442 -1.8584489 4288085770
10.117775 -6.4912333 -1.8305269 4293729569
9.4920883 -6.1307001 -1.8437089 4288085770
4.3667755 -3.1421866 -1.8800789 4288085770
3.3943253 -2.5733066 -1.8748246 4288085770
7.2142181 -4.8278356 -1.9277097 4288085770
9.7481384 -6.3229113 -1.8289505 4293729569
7.611145 -5.0661011 -1.8812088 4288085770
9.5813065 -6.2537847 -1.8366762 4288085770
4.4069443 -3.1912389 -1.8820771 4288085770
9.4634247 -6.2006845 -1.8374912 4288085770
3.4125443 -2.6083419 -1.8767966 4288085770
7.5273056 -5.0591002 -1.9120132 4288085770
7.3213959 -4.9469695 -1.9377302 4282675967
4.4401169 -3.2362812 -1.8820659 4288085770
9.1947021 -6.0824704 -1.8450636 4288085770
9.6904984 -6.3878903 -1.8316711 4293729569
3.4257507 -2.6393654 -1.8757645 4288085770
7.3895187 -5.0190253 -1.929751 4282675967
4.4812698 -3.2843318 -1.8830684 4288085770
8.7931061 -5.8810854 -1.8264757 4293729569
7.3636475 -5.0280113 -1.9306673 4282675967
3.4399567 -2.670388 -1.8737348 4288085770
7.1748199 -4.9278402 -1.9274021 4288085770
9.8626175 -6.56007 -1.8357445 4288085770
4.5333862 -3.3373969 -1.8870884 4288085770
8.1477661 -5.5273814 -1.7575933 4293729569
6.9431381 -4.8246288 -1.919036 4288085770
3.4681396 -2.7094343 -1.8777236 4288085770
7.3129883 -5.0509257 -1.9014922 4288085770
4.5785141 -3.3864501 -1.8880991 4288085770
7.8101196 -5.3550563 -1.7411052 4293729569
10.0737 -6.7562957 -1.8458663 4288085770
7.6492996 -5.2869506 -1.755844 4293729569
4.623642 -3.4345005 -1.8881119 4288085770
6.7314377 -4.7294402 -1.9137031 4288085770
3.4903183 -2.7444668 -1.8777059 4288085770
7.2083893 -5.0397701 -1.8612531 4288085770
7.5024643 -5.2248588 -1.7716049 4293729569
4.6737518 -3.4845545 -1.8881332 4288085770
10.318748 -6.9745531 -1.8570272 4288085770
6.5347214 -4.640265 -1.9083954 4288085770
3.5164871 -2.7815044 -1.8786939 4288085770
7.3676071 -5.1667795 -1.7883879 4293729569
4.7308426 -3.5386159 -1.8891636 4288085770
6.3439941 -4.5520949 -1.9031004 4288085770
7.1936798 -5.0807304 -1.839131 4288085770
7.2567215 -5.121726 -1.8082036 4293729569
4.7909164 -3.5926816 -1.8912019 4288085770
3.540657 -2.8155355 -1.8776833 4288085770
7.1917877 -5.1027298 -1.8360807 4288085770
4.8449936 -3.6427338 -1.889233 4288085770
6.1812286 -4.4779563 -1.9018465 4288085770
3.5698013 -2.8525743 -1.8786789 4288085770
7.0779114 -5.05267 -1.8538994 4288085770
4.9080582 -3.6967967 -1.8892785 4288085770
7.1779633 -5.1206884 -1.8170084 4293729569
6.0224533 -4.4048209 -1.9006006 4288085770
7.0179672 -5.0326753 -1.8807908 4288085770
4.973114 -3.7508609 -1.8893293 4288085770
3.5929489 -2.8846014 -1.87667 4288085770
6.9859772 -5.0297165 -1.9137169 4288085770
5.0511475 -3.811938 -1.8903979 4288085770
5.8656845 -4.3296828 -1.8973635 4288085770
6.8830643 -4.9786601 -1.9295653 4282675967
7.1382828 -5.1436119 -1.7878615 4293729569
5.1261673 -3.871012 -1.8914629 4288085770
3.6270599 -2.9226427 -1.8776761 4288085770
6.6922455 -4.8694787 -1.9223138 4288085770
5.2141724 -3.9361017 -1.8945483 4288085770
5.7308807 -4.2665744 -1.8991567 4288085770
6.4934387 -4.754282 -1.9110547 4288085770
5.2981796 -3.9971802 -1.894632 4288085770
6.3265839 -4.6561236 -1.9048404 4288085770
3.6581955 -2.9586761 -1.8756789 4288085770
5.3801727 -4.0562525 -1.8927146 4288085770
6.1767197 -4.5669832 -1.9006501 4288085770
5.47715 -4.1233439 -1.8938185 4288085770
6.0428238 -4.4858608 -1.8984829 4288085770
5.5810928 -4.1914396 -1.8949374 4288085770
5.5841064 -4.1954474 -1.8969365 4288085770
5.9199066 -4.4107513 -1.898331 4288085770
5.6900482 -4.2645435 -1.8970586 4288085770
7.0995865 -5.1645365 -1.7597209 4293729569
5.7999878 -4.3356423 -1.8971864 4288085770
3.6992798 -2.9987247 -1.8776985 4288085770
5.4622726 -4.1343422 -1.895758 4288085770
3.7433624 -3.0407758 -1.8797213 4288085770
5.3414383 -4.0732427 -1.896582 4288085770
7.1158142 -5.2195296 -1.7416476 4293729569
3.7844391 -3.0798192 -1.879743 4288085770
5.2246017 -4.013144 -1.8964142 4288085770
3.8225174 -3.1148551 -1.8777655 4288085770
5.1117554 -3.9540465 -1.895254 4288085770
7.1250534 -5.2695136 -1.7215673 4293729569
3.8735657 -3.1589108 -1.8798019 4288085770
5.0058899 -3.8969562 -1.8951072 4288085770
3.9385834 -3.2099855 -1.8858587 4288085770
4.9010162 -3.8388641 -1.8939649 4288085770
3.9796295 -3.2450187 -1.8818887 4288085770
4.797142 -3.7797692 -1.8908273 4288085770
4.0426483 -3.2930846 -1.8849467 4288085770
4.7152405 -3.7337048 -1.8937176 4288085770
7.1133041 -5.3034682 -1.6974674 4293729569
4.1046371 -3.3381445 -1.8860086 4288085770
4.6223297 -3.6786196 -1.8915991 4288085770
4.1636429 -3.3811982 -1.8850671 4288085770
4.5454025 -3.6325567 -1.8935021 4288085770
4.2326126 -3.4292653 -1.8871402 4288085770
4.4654617 -3.5824859 -1.8934056 4288085770
4.2995834 -3.474324 -1.8862144 4288085770
4.3685532 -3.520386 -1.8862916 4288085770
7.1035461 -5.3364215 -1.6713747 4293729569
7.1217575 -5.3874106 -1.6513149 4293729569
7.1279755 -5.4273829 -1.6282477 4293729569
7.102211 -5.445312 -1.5981463 4293729569
7.0984268 -5.4762654 -1.5710728 4293729569
7.1345978 -5.5322695 -1.5510477 4293729569
7.046875 -5.5011153 -1.5078928 4293729569
7.0563889 -5.5330062 -0.93284786 4293729569
7.0140915 -5.5060296 -1.4748008 4293729569
7.0270386 -5.5265188 -0.69478679 4293729569
7.0595322 -5.5549583 -0.90381038 4293729569
6.9843063 -5.509944 -1.4407181 4293729569
7.0280609 -5.5515957 -0.72973788 4293729569
7.0137329 -5.5428553 -0.86872089 4293729569
6.9684982 -5.5228767 -1.409652 4293729569
6.9968948 -5.5467801 -0.83567059 4293729569
7.0000916 -5.5536418 -0.76266408 4293729569
6.9710541 -5.5426974 -0.80261445 4293729569
6.9476624 -5.5288014 -1.3775876 4293729569
6.9561386 -5.5436683 -0.79257524 4293729569
6.9581833 -5.5456271 -0.77057612 4293729569
7.0169449 -5.5880485 -0.44763374 4293729569
6.923851 -5.5317206 -1.3435221 4293729569
6.9523163 -5.5515618 -0.73854911 4293729569
6.9999237 -5.5860987 -0.47959548 4293729569
6.937149 -5.5477195 -0.82451963 4293729569
6.9364395 -5.5484843 -0.7045157 4293729569
6.9678879 -5.5711346 -0.51154655 4293729569
6.9525223 -5.5644412 -0.67452288 4293729569
6.9538422 -5.5661864 -0.54352188 4293729569
6.9229965 -5.5476661 -1.3134871 4293729569
6.9446259 -5.5623713 -0.64150727 4293729569
6.9577789 -5.5722575 -0.57751942 4293729569
6.9537048 -5.5703173 -0.6095134 4293729569
6.9171448 -5.5487685 -0.85646784 4293729569
6.9091492 -5.5525937 -1.2804421 4293729569
6.9111252 -5.5588341 -0.89043236 4293729569
6.9092865 -5.5655394 -1.2504159 4293729569
6.9001083 -5.562891 -0.92239678 4293729569
6.8914108 -5.5624595 -1.2163774 4293729569
6.8930664 -5.5669537 -0.95637107 4293729569
6.8865356 -5.5663948 -1.1843572 4293729569
6.8920212 -5.573019 -0.98935616 4293729569
6.8846359 -5.5713325 -1.1523418 4293729569
6.8909531 -5.5770845 -1.0223452 4293729569
6.8847351 -5.5752697 -1.1193339 4293729569
6.8859024 -5.5771441 -1.0543329 4293729569
6.8778305 -5.5721998 -1.0863229 4293729569
5.3858948 4.183248 -1.8198022 4288085770
5.3018646 4.1252971 -1.8216218 4288085770
5.461937 4.2332082 -1.8139616 4288085770
5.1938248 4.0513716 -1.8143908 4288085770
5.5650024 4.3001423 -1.8151773 4288085770
5.1198349 3.9974122 -1.8162278 4288085770
5.6450653 4.3491001 -1.8083404 4288085770
5.0438232 3.9414561 -1.8170599 4288085770
5.7551498 4.4170294 -1.8085655 4288085770
4.9718399 3.8864963 -1.8178979 4288085770
5.8662415 4.4839597 -1.8077902 4288085770
4.906868 3.8345311 -1.8187484 4288085770
5.9803619 4.5498872 -1.8060173 4288085770
4.8399124 3.7805679 -1.8185939 4288085770
6.0934677 4.6148186 -1.8022419 4288085770
4.7739639 3.7256041 -1.817439 4288085770
6.2386017 4.6977205 -1.8055295 4288085770
4.7160187 3.6756346 -1.8173007 4288085770
6.3867493 4.7796216 -1.8068191 4288085770
4.6560898 3.6226659 -1.8161558 4288085770
6.495903 4.834559 -1.798025 4288085770
4.5931854 3.5657012 -1.8130018 4288085770
6.9581833 5.1202703 -1.7979714 4288085770
7.0842438 5.203198 -1.7932364 4288085770
6.6520691 4.9184566 -1.7983271 4288085770
7.2313156 5.2991085 -1.7925442 4288085770
6.8321457 5.0343423 -1.8007022 4288085770
7.3743973 5.3900251 -1.7878405 4288085770
6.6941147 4.9394283 -1.7984062 4288085770
7.5424881 5.4949212 -1.787186 4288085770
11.337929 7.9885139 -1.8581604 4288085770
6.583107 4.8594904 -1.8011631 4288085770
7.7366028 5.6147976 -1.7895833 4288085770
4.5272827 3.5067403 -1.806841 4288085770
6.8172531 5.0053477 -1.7986439 4288085770
6.4841003 4.7865424 -1.8059443 4288085770
7.9407196 5.739666 -1.7929994 4288085770
6.3951111 4.7185869 -1.8107439 4288085770
8.1458588 5.861537 -1.7924124 4288085770
4.4643936 3.448777 -1.8016855 4288085770
6.2891312 4.6376472 -1.8115057 4288085770
6.9874344 5.0922341 -1.798967 4288085770
11.040009 7.734694 -1.849454 4288085770
8.3650131 5.9893966 -1.7938505 4288085770
6.1871719 4.5577054 -1.8102733 4288085770
8.6131668 6.1342373 -1.7963468 4288085770
4.420517 3.4017942 -1.8015679 4288085770
7.1456375 5.1701341 -1.7942632 4288085770
6.094223 4.4827561 -1.8110589 4288085770
8.8753433 6.2850666 -1.799868 4288085770
10.704086 7.4569044 -1.8326694 4288085770
6.0122757 4.4137993 -1.8118654 4288085770
9.1755524 6.4568672 -1.8074635 4288085770
4.3656616 3.3468239 -1.7964259 4288085770
7.3328476 5.2630105 -1.7946147 4288085770
5.9393387 4.3498344 -1.8146898 4288085770
9.4867554 6.6316633 -1.8130764 4288085770
7.5130615 5.3488936 -1.7909483 4288085770
4.3227997 3.2998407 -1.7953094 4288085770
10.514198 7.2740035 -1.8351902 4288085770
5.8434296 4.2688904 -1.8104631 4288085770
9.8209915 6.8174434 -1.8197318 4288085770
7.7232971 5.4517536 -1.7923411 4288085770
10.190231 7.0231977 -1.8294569 4288085770
4.2789612 3.2508602 -1.792189 4288085770
5.7665176 4.1999283 -1.8102759 4288085770
10.302322 7.0771208 -1.833665 4288085770
10.568489 7.2279506 -1.8361913 4288085770
5.753624 4.16991 -1.8252188 4288085770
7.9585419 5.5655937 -1.7957786 4288085770
4.2371292 3.2018776 -1.7890707 4288085770
10.903748 7.402741 -1.831833 4288085770
5.6437454 4.077981 -1.81396 4288085770
10.050453 6.8562737 -1.8220593 4288085770
8.1867981 5.6724434 -1.7951988 4288085770
4.2163086 3.1658733 -1.7929956 4288085770
11.392052 7.6684146 -1.8477827 4288085770
5.6008682 4.0269918 -1.818838 4288085770
8.4210663 5.7782888 -1.7936243 4288085770
9.8516083 6.6683831 -1.8185619 4288085770
11.881355 7.929091 -1.8597273 4288085770
4.1865005 3.1228795 -1.7918998 4288085770
5.5430145 3.9650154 -1.8186828 4288085770
8.7073517 5.9140954 -1.7991537 4288085770
5.4981689 3.9110281 -1.8215543 4288085770
4.15271 3.0768888 -1.7897953 4288085770
9.6487732 6.4794989 -1.8120588 4288085770
9.0016556 6.0488973 -1.8026909 4288085770
5.4503326 3.8540442 -1.8224181 4288085770
4.1309128 3.0378873 -1.7907146 4288085770
9.477951 6.3095894 -1.8086196 4288085770
9.2879639 6.1757078 -1.8032078 4288085770
5.4004974 3.7950575 -1.8222762 4288085770
4.1021347 2.9938881 -1.7876185 4288085770
9.3091354 6.1426749 -1.8051871 4288085770
9.631279 6.3324714 -1.8098341 4288085770
5.352684 3.7360747 -1.8211371 4288085770
4.0833664 2.9548829 -1.7885414 4288085770
9.9926071 6.4952283 -1.8164903 4288085770
5.3048782 3.6770926 -1.818998 4288085770
9.1433334 5.9797664 -1.7997638 4288085770
4.0765991 2.9238672 -1.7924896 4288085770
10.351944 6.6509895 -1.8201345 4288085770
5.251091 3.6131158 -1.8148447 4288085770
9.0175476 5.8388262 -1.7994183 4288085770
4.0638504 2.8868566 -1.7934226 4288085770
5.2242966 3.5651155 -1.8167456 4288085770
10.805305 6.8566818 -1.83296 4288085770
8.8887787 5.6978879 -1.7980694 4288085770
4.0551071 2.8528428 -1.7953638 4288085770
5.1835175 3.5081279 -1.8146173 4288085770
11.274681 7.0653644 -1.8458089 4288085770
8.7850189 5.5719299 -1.7997707 4288085770
4.0503769 2.8198245 -1.7983116 4288085770
5.1387634 3.4491453 -1.8094817 4288085770
11.691063 7.2360945 -1.8455418 4288085770
8.6792603 5.4449759 -1.7994684 4288085770
5.1139984 3.4001427 -1.8103834 4288085770
4.0366592 2.7808156 -1.7972404 4288085770
12.141441 7.4207997 -1.8483349 4288085770
2.9522934 2.1574607 -1.8110834 4288085770
