# .PCD v0.7 - Point Cloud Data file format
VERSION 0.7
FIELDS x y z rgb
SIZE 4 4 4 4
TYPE F F F U
COUNT 1 1 1 1
WIDTH 1127
HEIGHT 1
VIEWPOINT 0 0 0 1 0 0 0
POINTS 1127
DATA ascii
2.9835281 0.90030503 -1.7893661 4288085770
7.2129898 1.4752619 -1.8130322 4288085770
11.300274 2.0242875 -1.7755361 4288085770
2.249897 0.79513025 -1.7944611 4288085770
15.426888 2.5659697 -1.8039347 4288085770
7.4659271 1.4918461 -1.7917882 4288085770
9.9492912 1.805691 -1.8352922 4288085770
12.015331 2.0654378 -1.7760713 4288085770
5.2699928 1.1712124 -1.792094 4288085770
3.0968132 0.88564634 -1.7909998 4288085770
7.4812965 1.4550388 -1.811038 4288085770
7.8540726 1.5030072 -1.7920038 4288085770
16.657711 2.6524484 -1.7768351 4288085770
2.3321648 0.7803545 -1.7932305 4288085770
16.161263 2.5462139 -1.8099077 4288085770
12.800388 2.1077876 -1.7752916 4288085770
10.27269 1.7666385 -1.8342196 4282675967
8.2912407 1.5153475 -1.7959956 4288085770
3.2110825 0.87099075 -1.7926289 4288085770
5.4653091 1.1518052 -1.7944109 4288085770
7.777607 1.4359236 -1.8119127 4288085770
2.4424667 0.76772785 -1.7998598 4288085770
13.63044 2.148247 -1.7713314 4288085770
8.7814178 1.5308774 -1.8037294 4288085770
17.01564 2.5318468 -1.8193116 4288085770
3.3293533 0.85533094 -1.7922491 4288085770
5.6626244 1.1303883 -1.7947364 4288085770
10.644104 1.7287621 -1.8369277 4282675967
2.5437393 0.75403357 -1.8015373 4288085770
14.55249 2.191988 -1.7679428 4288085770
8.097908 1.4178805 -1.8126733 4288085770
9.2945976 1.5434592 -1.8093883 4288085770
3.4446144 0.83965445 -1.7908823 4288085770
15.595547 2.2411213 -1.7679808 4288085770
2.6380081 0.73829389 -1.8002628 4288085770
5.8859367 1.1110647 -1.7969304 4288085770
8.4502144 1.4009571 -1.8162853 4288085770
11.044502 1.6929715 -1.8394914 4282675967
9.8197823 1.5520523 -1.8120286 4288085770
3.589901 0.82511592 -1.7953755 4288085770
16.817596 2.2978113 -1.770175 4288085770
2.7412682 0.72358966 -1.7999399 4288085770
6.1192398 1.0917706 -1.7990806 4288085770
10.335957 1.5545614 -1.8077599 4288085770
8.8575096 1.388222 -1.8226216 4288085770
11.489902 1.6573319 -1.8438578 4282675967
3.7301598 0.81053829 -1.7968905 4288085770
2.8535233 0.70992947 -1.801569 4288085770
10.910141 1.558275 -1.8072282 4288085770
6.3915443 1.0756345 -1.8060341 4288085770
9.289814 1.3745618 -1.8288569 4288085770
3.8904266 0.79703712 -1.8003092 4288085770
11.965305 1.6197734 -1.8471094 4282675967
11.578362 1.5643182 -1.8122674 4288085770
2.9607773 0.69422889 -1.8002372 4288085770
6.6688576 1.0564966 -1.8109913 4288085770
9.7451019 1.3599451 -1.8319999 4288085770
4.0326653 0.78143334 -1.7978239 4288085770
12.316586 1.570585 -1.8189995 4288085770
3.0870361 0.68061876 -1.8028047 4288085770
12.518719 1.5854871 -1.8549933 4282675967
6.9391403 1.0352893 -1.8099961 4288085770
10.211376 1.3433375 -1.832112 4288085770
4.1959152 0.7669251 -1.7992381 4288085770
3.2232971 0.66704607 -1.8063285 4288085770
13.107822 1.5740178 -1.8265247 4288085770
13.171139 1.5545378 -1.8674176 4282675967
7.2654419 1.0173061 -1.8157297 4288085770
10.721649 1.3258522 -1.8310395 4288085770
4.3691559 0.75244689 -1.800608 4288085770
3.359539 0.6534574 -1.8078523 4288085770
13.909061 1.5694149 -1.8260747 4288085770
7.6087456 0.99836445 -1.8203974 4288085770
11.311928 1.3116465 -1.8345906 4288085770
4.5554047 0.73801541 -1.8029212 4288085770
13.817551 1.5165203 -1.8739276 4282675967
3.4937782 0.6378386 -1.806402 4288085770
14.744305 1.5588965 -1.8235265 4288085770
4.7626572 0.72365475 -1.8061421 4288085770
11.980209 1.3007052 -1.8417741 4288085770
7.9710274 0.97846437 -1.8229902 4288085770
3.6380005 0.62426639 -1.8068906 4288085770
14.509949 1.4766169 -1.8772533 4282675967
15.639561 1.5445487 -1.8197496 4288085770
4.9658852 0.70925808 -1.8063806 4288085770
12.777504 1.2931967 -1.8543659 4282675967
8.3763275 0.95972419 -1.8293859 4288085770
3.7942352 0.60972953 -1.8073351 4288085770
15.20034 1.4296577 -1.8746473 4282675967
5.1951218 0.69597173 -1.8104966 4288085770
16.730854 1.5328653 -1.8250959 4288085770
13.653782 1.2869158 -1.8656033 4282675967
3.951458 0.5951879 -1.8067752 4288085770
8.7595978 0.93583798 -1.8259207 4288085770
5.4243469 0.68065262 -1.8106294 4288085770
16.014736 1.3861086 -1.8764716 4282675967
4.1376953 0.58178186 -1.8120793 4288085770
14.52504 1.2725303 -1.8659309 4282675967
9.2338791 0.91730428 -1.8320138 4288085770
1.7532082 1.836477 -1.7735552 4288085770
8.0164108 4.2532969 -1.7018719 4288085770
3.0028419 2.3157699 -1.7492568 4288085770
3.2477036 2.3964171 -1.7457167 4288085770
4.0847702 2.7166092 -1.7271639 4288085770
12.134296 5.795495 -1.6787707 4288085770
1.1729851 1.597831 -1.7675112 4288085770
3.1379433 2.3431273 -1.7485179 4288085770
12.873814 6.0426407 -1.697098 4288085770
4.4785461 2.8466966 -1.7286849 4288085770
4.2558212 2.7540457 -1.7232101 4288085770
1.7725601 1.8124957 -1.7706289 4288085770
7.9990005 4.1622448 -1.7045346 4288085770
3.2640533 2.3644352 -1.7438552 4288085770
12.761238 5.9312258 -1.6822879 4288085770
3.292141 2.3655384 -1.7487314 4288085770
4.4498787 2.7985766 -1.7241153 4288085770
1.1923523 1.5758481 -1.7645717 4288085770
12.828533 5.90452 -1.7011827 4288085770
4.5349884 2.8118575 -1.7326756 4288085770
3.4131775 2.3928416 -1.7450511 4288085770
1.80093 1.7905624 -1.771652 4288085770
4.6459351 2.8420999 -1.7230183 4288085770
8.0175781 4.0843143 -1.7109627 4288085770
13.403183 6.0619793 -1.6827753 4288085770
3.5612946 2.4192274 -1.7432641 4288085770
1.2217216 1.5579171 -1.7655644 4288085770
3.3445702 2.3376942 -1.753693 4288085770
4.8509941 2.8856466 -1.7218839 4288085770
12.789249 5.7684021 -1.7032291 4288085770
1.8252869 1.7676001 -1.769698 4288085770
4.5844421 2.7729862 -1.7347213 4288085770
3.7124176 2.4446149 -1.7404711 4288085770
8.0231514 4.0023308 -1.7144709 4288085770
14.096115 6.2018824 -1.6849915 4288085770
5.0680504 2.9312203 -1.7196865 4288085770
1.2500954 1.5389841 -1.7665676 4288085770
3.390007 2.3068187 -1.7567033 4288085770
3.8765488 2.4720497 -1.7396109 4288085770
5.2861061 2.9747832 -1.7154976 4288085770
1.8616562 1.7487011 -1.7726681 4288085770
12.767941 5.6403446 -1.7071481 4288085770
4.6438751 2.7381489 -1.7376992 4288085770
14.861015 6.3590012 -1.6897972 4288085770
8.0457039 3.9274061 -1.7198626 4288085770
5.5521584 3.0335333 -1.7200117 4288085770
4.0406761 2.4984784 -1.7377572 4288085770
1.2774658 1.5190351 -1.7655815 4288085770
3.44244 2.2769618 -1.7596778 4288085770
1.8870201 1.7247415 -1.7707165 4288085770
12.739639 5.5082455 -1.7071222 4288085770
4.7003136 2.7012908 -1.7387027 4288085770
5.8062096 3.0842063 -1.7176274 4288085770
15.670906 6.51824 -1.6944023 4288085770
4.2248039 2.5299733 -1.7377875 4288085770
8.0802689 3.8545125 -1.7251909 4288085770
1.3118477 1.501123 -1.7675531 4288085770
6.0702667 3.1359131 -1.7161949 4288085770
3.4908676 2.2460876 -1.7616752 4288085770
4.4099464 2.558471 -1.7378329 4288085770
1.9263878 1.7058444 -1.7726738 4288085770
4.7737541 2.6694982 -1.7426025 4288085770
16.575771 6.6987677 -1.7034751 4288085770
12.736313 5.3872232 -1.7089201 4288085770
6.3573227 3.1916878 -1.7156405 4288085770
8.1138268 3.7816169 -1.7305231 4288085770
4.6090775 2.5910127 -1.7387942 4288085770
1.3352127 1.4791453 -1.7635965 4288085770
1.9597549 1.6839123 -1.7716757 4288085770
3.5492973 2.2172534 -1.7656177 4288085770
6.621376 3.2373579 -1.7082471 4288085770
4.8361855 2.6336625 -1.7445738 4288085770
12.78397 5.2813683 -1.714408 4288085770
4.7952156 2.6154821 -1.7338614 4288085770
8.1443787 3.7077014 -1.7338742 4288085770
1.3725853 1.4622419 -1.7655491 4288085770
6.943428 3.2982328 -1.7085142 4288085770
1.9931297 1.66098 -1.7706839 4288085770
3.60672 2.1884043 -1.7675645 4288085770
5.0073624 2.6460521 -1.7337812 4288085770
4.9106255 2.599849 -1.7464834 4288085770
12.776642 5.1583061 -1.7132363 4288085770
7.3224716 3.3732903 -1.7144538 4288085770
8.1639442 3.6287262 -1.7343037 4288085770
5.2105064 2.6715629 -1.7297714 4288085770
1.414959 1.4463489 -1.7684749 4288085770
2.025486 1.639029 -1.7686905 4288085770
3.6691589 2.1595705 -1.7714907 4288085770
7.6875076 3.4412897 -1.7154949 4288085770
4.976059 2.56301 -1.7464472 4288085770
12.826275 5.0544453 -1.7166991 4288085770
5.4556503 2.7082427 -1.7325134 4288085770
1.443325 1.4253905 -1.7654899 4288085770
8.1695023 3.5457065 -1.7318149 4288085770
8.0645523 3.5073092 -1.7144988 4288085770
2.0678635 1.6181273 -1.7686468 4288085770
3.7215805 2.1276951 -1.7714761 4288085770
5.6958046 2.7398951 -1.7333084 4288085770
5.0574875 2.5312331 -1.7493114 4288085770
12.864914 4.945529 -1.7162396 4288085770
8.5215836 3.5936019 -1.7220389 4288085770
1.4867058 1.4085097 -1.7684162 4288085770
8.2080383 3.4737952 -1.7321166 4288085770
2.1142235 1.5992441 -1.7695739 4288085770
5.9519539 2.7735856 -1.7330238 4288085770
3.7860107 2.0978656 -1.7733984 4288085770
8.9936066 3.6799285 -1.7285162 4288085770
5.1319199 2.4954183 -1.7492307 4288085770
12.887547 4.8325491 -1.7128726 4288085770
6.2071037 2.8042672 -1.7317623 4288085770
1.5290833 1.3906143 -1.769353 4288085770
2.1545906 1.5773311 -1.768545 4288085770
8.2565842 3.4039223 -1.7343634 4288085770
9.4336319 3.7510998 -1.7242243 4288085770
3.8574371 2.0700612 -1.7762784 4288085770
6.4492607 2.8268816 -1.7256067 4288085770
5.2153435 2.4616292 -1.7490993 4288085770
12.970169 4.7357712 -1.7151512 4288085770
9.8546677 3.8111894 -1.7150824 4288085770
1.5704498 1.3727095 -1.769294 4288085770
2.2099533 1.5604842 -1.7714212 4288085770
8.290123 3.328985 -1.7327048 4288085770
6.7124252 2.852566 -1.7213439 4288085770
3.9348564 2.0432792 -1.7801266 4288085770
10.323692 3.8794219 -1.7076883 4288085770
5.3077583 2.4308763 -1.7509109 4288085770
0.9391861 1.1658394 -1.7502534 4288085770
13.080761 4.6470737 -1.7182606 4288085770
1.0542603 1.1953039 -1.7745848 4288085770
2.2603264 1.540611 -1.7723373 4288085770
1.6058121 1.3527775 -1.7672731 4288085770
1.1122665 1.2064273 -1.7692709 4288085770
1.0463219 1.1872418 -1.7686691 4288085770
1.1002769 1.2023757 -1.7663469 4288085770
7.0365868 2.8924711 -1.7257353 4288085770
1.154232 1.2164967 -1.762031 4288085770
8.3486595 3.2611334 -1.7338964 4288085770
1.2202148 1.2336872 -1.7636454 4288085770
1.2811699 1.2498403 -1.7612873 4288085770
1.1802864 1.2206025 -1.7678958 4288085770
1.3481636 1.2660198 -1.7609038 4288085770
10.86171 3.9608724 -1.7049216 4288085770
1.4171333 1.2832003 -1.7595056 4288085770
4.0022812 2.012445 -1.7800422 4288085770
1.2483177 1.2337775 -1.7665272 4288085770
1.4911118 1.3013997 -1.7590801 4288085770
1.5670967 1.3196046 -1.7586461 4288085770
5.403183 2.3981249 -1.7517221 4288085770
1.3223381 1.2489753 -1.7661206 4288085770
1.6520996 1.3388453 -1.7601681 4288085770
2.3106918 1.5207317 -1.7722536 4288085770
1.6471786 1.3338668 -1.7662203 4288085770
13.230343 4.5684967 -1.7231421 4288085770
1.7341003 1.3570654 -1.7597088 4288085770
1.3873672 1.2601166 -1.7607772 4288085770
7.3447533 2.9232962 -1.7242516 4288085770
1.8280983 1.3783369 -1.76218 4288085770
11.436718 4.046423 -1.7019742 4288085770
1.4684029 1.2753396 -1.7613412 4288085770
1.9221115 1.3986013 -1.7636576 4288085770
8.3811836 3.1861808 -1.7302414 4288085770
2.011097 1.4178281 -1.7611626 4288085770
1.5534477 1.2915785 -1.7628818 4288085770
4.0796928 1.9846511 -1.7818966 4288085770
2.1141205 1.4391234 -1.7635958 4288085770
5.4986 2.3653677 -1.7515335 4288085770
1.6404953 1.3068166 -1.7634205 4288085770
7.6699181 2.9551671 -1.7226905 4288085770
2.3660507 1.5018725 -1.7731423 4288085770
2.2221336 1.4614253 -1.7650019 4288085770
1.6975479 1.3169997 -1.7681171 4288085770
12.071705 4.1421566 -1.7017113 4288085770
13.359921 4.4828396 -1.7241521 4288085770
1.7355499 1.3240821 -1.7649127 4288085770
2.3281593 1.4817159 -1.7654291 4288085770
1.8206024 1.337296 -1.7624727 4288085770
2.4301643 1.5009706 -1.7618796 4288085770
8.4807091 3.1284664 -1.7351964 4288085770
4.1601067 1.9568648 -1.7837384 4288085770
8.0150948 2.9881046 -1.7230387 4288085770
2.5521965 1.5243165 -1.7642202 4288085770
1.9176598 1.3535612 -1.7629628 4288085770
12.684715 4.2227793 -1.6936365 4288085770
5.6560402 2.346859 -1.7639949 4288085770
2.4164047 1.4809813 -1.7710649 4288085770
2.668232 1.5446267 -1.7636056 4288085770
1.751915 1.3011494 -1.7709904 4288085770
2.0197182 1.3698387 -1.7634323 4288085770
13.486511 4.3931684 -1.7241998 4288085770
2.7952576 1.5679741 -1.7639257 4288085770
2.1267891 1.3871369 -1.7648741 4288085770
8.3652687 3.0180376 -1.7203853 4288085770
8.5652275 3.065685 -1.7362459 4288085770
2.9402962 1.5943878 -1.7671506 4288085770
13.434685 4.3318357 -1.6948087 4288085770
4.2505379 1.9291124 -1.7865378 4288085770
2.2368622 1.4034357 -1.7653098 4288085770
3.0893364 1.6208124 -1.770359 4288085770
5.747448 2.3100667 -1.7598485 4288085770
2.475769 1.4611266 -1.7709429 4288085770
1.8032799 1.283272 -1.770889 4288085770
2.3589363 1.422787 -1.7686758 4288085770
3.2253723 1.6421645 -1.7676538 4288085770
13.630081 4.3095436 -1.7241372 4288085770
8.7424507 3.0500629 -1.7206057 4288085770
14.251644 4.4490824 -1.6966484 4288085770
2.4790154 1.4401193 -1.770063 4288085770
3.3834267 1.6686132 -1.7708244 4288085770
8.6657486 3.0059607 -1.7392088 4288085770
4.3479424 1.9043851 -1.7902886 4288085770
2.5381203 1.4432867 -1.7717956 4288085770
2.5980911 1.4564366 -1.7694609 4288085770
3.5624733 1.699131 -1.7758813 4288085770
5.8808632 2.2834375 -1.7634616 4288085770
1.8536377 1.265393 -1.7707919 4288085770
9.1346359 3.0801156 -1.7187761 4288085770
15.174576 4.5826397 -1.7019414 4288085770
3.7445374 1.7286565 -1.7809321 4288085770
2.7211723 1.4717579 -1.7678485 4288085770
13.774643 4.2229023 -1.7210895 4288085770
3.9295769 1.7581723 -1.7829702 4288085770
8.7782516 2.9492681 -1.742102 4288085770
2.8512688 1.4881048 -1.7672001 4288085770
4.4533577 1.8796854 -1.7950058 4288085770
2.6014824 1.4234426 -1.7716569 4288085770
6.022274 2.2578371 -1.7680345 4288085770
1.9059944 1.2475193 -1.7706861 4288085770
4.1036301 1.7826266 -1.7800865 4288085770
9.5468216 3.1112292 -1.7178562 4288085770
16.12051 4.7092371 -1.7031831 4288085770
2.989357 1.5054791 -1.7675118 4288085770
13.997185 4.1555223 -1.7255927 4288085770
4.3137016 1.8132217 -1.7840134 4288085770
3.140461 1.523901 -1.7697625 4288085770
2.6628265 1.4035821 -1.7695264 4288085770
8.8817596 2.8885334 -1.7420584 4288085770
4.5397682 1.8488977 -1.7938409 4288085770
4.5037537 1.8387194 -1.7810562 4288085770
9.995018 3.1434529 -1.7187786 4288085770
6.1626778 2.2302153 -1.7696242 4288085770
17.299374 4.8805408 -1.7151662 4288085770
1.9683647 1.2306848 -1.7725321 4288085770
3.2865524 1.5402849 -1.7680471 4288085770
4.6878014 1.8601754 -1.7741498 4288085770
14.298717 4.1013889 -1.734681 4288085770
3.4536591 1.5607622 -1.7722179 4288085770
2.7331848 1.3847637 -1.7703518 4288085770
4.9188652 1.8918152 -1.7759821 4288085770
10.450214 3.1726768 -1.7166908 4288085770
4.6501808 1.8232057 -1.7975434 4288085770
8.9952698 2.8288314 -1.7429662 4288085770
2.0377312 1.2158883 -1.7773358 4288085770
6.3080864 2.2016065 -1.7711995 4288085770
3.6177673 1.578207 -1.7724204 4288085770
5.1399193 1.9193971 -1.7728821 4288085770
3.7878799 1.5956674 -1.7725978 4288085770
14.604225 4.0472479 -1.7407522 4288085770
2.8035355 1.3649333 -1.7691833 4288085770
5.3919983 1.9500864 -1.7736326 4288085770
10.99741 3.2172196 -1.7251211 4288085770
4.7555809 1.7954824 -1.7982794 4288085770
2.0940819 1.1970136 -1.7752196 4288085770
9.1097641 2.7691209 -1.7418693 4288085770
6.4564934 2.1719999 -1.7717681 4288085770
3.9960175 1.6192801 -1.7805772 4288085770
5.6340561 1.9777188 -1.7694445 4288085770
4.1631203 1.6327019 -1.7757928 4288085770
11.512619 3.2456133 -1.7237878 4288085770
2.8868904 1.3481636 -1.7719411 4288085770
14.879757 3.9810002 -1.7430257 4288085770
5.9041252 2.0084448 -1.7681196 4288085770
2.1664467 1.1812191 -1.7790169 4288085770
4.8719864 1.7687948 -1.7999625 4288085770
6.6238937 2.1454523 -1.7732378 4288085770
9.2452583 2.7124798 -1.7426649 4288085770
4.3662491 1.6522701 -1.7788186 4288085770
6.1731949 2.0371499 -1.7638118 4288085770
12.091839 3.2812178 -1.7281412 4288085770
2.9632263 1.3293493 -1.770741 4288085770
4.5953827 1.6749277 -1.7847162 4288085770
6.4602699 2.0659037 -1.7594283 4288085770
15.215275 3.9239342 -1.7479895 4288085770
2.2317963 1.1633809 -1.7788563 4288085770
4.9683723 1.7370164 -1.7957616 4288085770
6.8132896 2.1219821 -1.7775958 4288085770
9.407753 2.6589239 -1.7453279 4288085770
4.8055115 1.6914897 -1.7837319 4288085770
6.7953415 2.1028254 -1.7607924 4288085770
12.726055 3.3209908 -1.735238 4288085770
3.0475769 1.3105633 -1.7705073 4288085770
5.0286446 1.7080874 -1.7826933 4288085770
15.568775 3.8679054 -1.7508711 4288085770
2.3121529 1.1486084 -1.7826134 4288085770
7.1244164 2.1346929 -1.7562135 4288085770
5.0867729 1.708322 -1.7954489 4288085770
7.0056915 2.096514 -1.7809538 4288085770
9.589241 2.609432 -1.7498853 4288085770
5.2467842 1.7216589 -1.7796944 4288085770
13.335278 3.3486588 -1.7365162 4288085770
7.4644966 2.1655908 -1.7515949 4288085770
3.1389275 1.2928092 -1.7722378 4288085770
2.3834953 1.1307869 -1.7824275 4288085770
15.968277 3.8170202 -1.7565273 4288085770
5.4989281 1.7393477 -1.7805274 4288085770
7.8495712 2.2026355 -1.7507492 4288085770
5.2231598 1.6836956 -1.7980351 4288085770
7.1820755 2.0669727 -1.7794044 4288085770
9.7707291 2.5569227 -1.7514616 4288085770
13.958519 3.3693521 -1.7357802 4288085770
3.23526 1.276063 -1.7729405 4288085770
5.746067 1.753998 -1.7774005 4288085770
8.2676544 2.2407632 -1.7487584 4288085770
2.4568405 1.1129718 -1.7822331 4288085770
16.452759 3.7763908 -1.7657628 4288085770
5.3495483 1.6550238 -1.7976887 4288085770
7.4194641 2.0476458 -1.7855351 4288085770
8.7067337 2.2799544 -1.7476734 4288085770
6.0352364 1.7728057 -1.7810717 4288085770
14.622757 3.3901584 -1.7348719 4288085770
3.3376122 1.2583385 -1.7746245 4288085770
9.9712067 2.507477 -1.7549387 4288085770
2.5421753 1.0972013 -1.7839756 4288085770
9.1618118 2.3181767 -1.7445272 4288085770
6.2923813 1.7834642 -1.7749282 4288085770
5.4839325 1.6263678 -1.7963086 4288085770
16.903244 3.7256324 -1.7692043 4288085770
7.6298409 2.0202036 -1.78483 4288085770
3.4379311 1.2416036 -1.7753108 4288085770
15.320019 3.408066 -1.7358441 4288085770
10.188694 2.4570773 -1.7583506 4288085770
9.6468964 2.355468 -1.7392617 4288085770
6.5975418 1.8003027 -1.7765448 4288085770
2.6295166 1.0814424 -1.7867097 4288085770
5.6172981 1.597697 -1.7929326 4288085770
7.886219 1.9999232 -1.7898868 4288085770
17.469719 3.6882269 -1.7780757 4288085770
10.170975 2.3958778 -1.7358134 4288085770
3.5462646 1.2238896 -1.7759694 4288085770
6.914711 1.815161 -1.7761239 4288085770
16.150276 3.4393847 -1.7441748 4288085770
10.438168 2.4107773 -1.7636023 4288085770
2.7088394 1.0636375 -1.7854902 4288085770
10.741058 2.4374127 -1.7321653 4288085770
7.2859001 1.8362095 -1.7824377 4288085770
8.161602 1.9786944 -1.7948701 4288085770
5.7626801 1.5680709 -1.7915124 4288085770
3.6565895 1.2061825 -1.7766197 4288085770
17.000549 3.4627454 -1.7504722 4288085770
2.7971687 1.0458636 -1.7852324 4288085770
11.360134 2.4820814 -1.7282926 4288085770
10.683655 2.359448 -1.7659023 4288085770
7.6190605 1.8470874 -1.777975 4288085770
3.7789154 1.1895134 -1.778213 4288085770
8.4659843 1.960557 -1.8017125 4288085770
5.9480629 1.5445852 -1.7948859 4288085770
12.049217 2.5319641 -1.7280942 4288085770
8.0112572 1.8631744 -1.7812324 4288085770
2.8744812 1.0260286 -1.7800339 4288085770
10.970127 2.3122425 -1.7700044 4288085770
3.8962288 1.1718128 -1.7768339 4288085770
12.788296 2.5819709 -1.7256857 4288085770
8.7793503 1.9414322 -1.8065234 4288085770
6.1394348 1.5211155 -1.7982339 4288085770
8.4374466 1.881366 -1.7863343 4288085770
2.9788132 1.0103166 -1.7826962 4288085770
13.62138 2.6372521 -1.7258508 4288085770
4.0345573 1.155194 -1.7793599 4288085770
11.274609 2.2650926 -1.7750307 4288085770
8.8806534 1.8955853 -1.78839 4288085770
9.1207199 1.9223897 -1.8122165 4288085770
6.3178101 1.4925797 -1.7966682 4288085770
3.0911293 0.99563313 -1.7863187 4288085770
14.505447 2.6946661 -1.724789 4288085770
9.27985 1.8996363 -1.7826942 4288085770
4.1738701 1.138572 -1.7808818 4288085770
11.584084 2.213938 -1.7770612 4288085770
9.4270782 1.894191 -1.8081136 4288085770
6.5231743 1.4671364 -1.7979701 4288085770
3.2034454 0.97993779 -1.7879473 4288085770
15.52652 2.7594769 -1.7271072 4288085770
9.7170372 1.9047904 -1.7768325 4288085770
4.3241806 1.1229801 -1.782351 4288085770
9.7814331 1.8711536 -1.8087773 4288085770
16.683582 2.8346884 -1.7337909 4288085770
3.3127518 0.96322799 -1.788595 4288085770
11.932556 2.166908 -1.7819021 4288085770
6.7265396 1.4396756 -1.7972929 4288085770
10.188251 1.909049 -1.7728338 4288085770
4.4704819 1.105365 -1.7818497 4288085770
3.4310608 0.94654298 -1.7892047 4288085770
10.145775 1.8461256 -1.8064114 4288085770
6.961895 1.4153206 -1.799462 4288085770
10.71048 1.9134648 -1.7716212 4288085770
12.338024 2.1240516 -1.7894779 4288085770
4.6407814 1.0908341 -1.7842287 4288085770
3.5533562 0.9298625 -1.7887976 4288085770
11.289711 1.9190421 -1.7711623 4288085770
10.551113 1.8232219 -1.8058605 4288085770
7.1922493 1.3879275 -1.7976712 4288085770
4.822094 1.075346 -1.7885674 4288085770
12.744488 2.0771799 -1.7940745 4288085770
3.6776466 0.9131887 -1.7883822 4288085770
11.912964 1.9237571 -1.7735248 4288085770
11.03046 1.8065557 -1.8109607 4288085770
7.4636154 1.3626769 -1.8006952 4288085770
4.9973717 1.0588045 -1.7869377 4288085770
13.198959 2.0294454 -1.7994758 4288085770
3.8239517 0.89759207 -1.7908678 4288085770
12.580219 1.9275923 -1.7757088 4288085770
11.537804 1.7869484 -1.8129619 4288085770
5.186657 1.0423141 -1.7872493 4288085770
7.7199478 1.3353488 -1.7977948 4288085770
3.9672432 0.88097644 -1.7913725 4288085770
13.672424 1.980757 -1.8038031 4288085770
13.286484 1.9265275 -1.7767605 4288085770
5.400959 1.0269101 -1.7904493 4288085770
12.098137 1.7704978 -1.8167214 4288085770
7.9992943 1.3070958 -1.7968041 4288085770
4.1205215 0.86539364 -1.7928287 4288085770
14.013752 1.9215076 -1.775749 4288085770
14.241905 1.9363663 -1.8137014 4288085770
5.6132278 1.0114822 -1.790658 4288085770
12.763474 1.7603705 -1.8260014 4288085770
8.3396454 1.2840464 -1.8015252 4288085770
4.2818108 0.84883332 -1.7942574 4288085770
14.761028 1.9075127 -1.7697103 4288085770
5.8415031 0.99509907 -1.7908053 4288085770
14.764362 1.8807807 -1.8128667 4288085770
13.454796 1.7462893 -1.8311975 4288085770
8.7029953 1.2600532 -1.8051559 4288085770
4.4360733 0.83122325 -1.7907221 4288085770
6.1037865 0.98083186 -1.7947972 4288085770
15.610329 1.894825 -1.7682365 4288085770
14.125103 1.7240899 -1.8265326 4288085770
2.2549515 0.59226251 -1.7993592 4288085770
4.615345 0.81470609 -1.7910753 4288085770
9.0603256 1.234026 -1.8058243 4288085770
3.8245583 0.73955345 -1.7948598 4288085770
15.35783 1.8264074 -1.8147269 4288085770
4.0045242 0.75604916 -1.7950023 4288085770
3.6466141 0.72206211 -1.7947148 4288085770
3.4956779 0.70666957 -1.7984439 4288085770
4.1984863 0.77257657 -1.7940861 4288085770
3.333725 0.69021583 -1.7972255 4288085770
4.4034538 0.79013991 -1.7941172 4288085770
4.6164207 0.80771875 -1.7931149 4288085770
3.174778 0.67276382 -1.7950008 4288085770
4.8554001 0.82638669 -1.7949966 4288085770
3.0268364 0.65634775 -1.7937235 4288085770
6.3870659 0.96762967 -1.7996945 4288085770
2.782959 0.63173175 -1.8028998 4288085770
5.0963745 0.84504151 -1.7938703 4288085770
2.6539993 0.61938047 -1.8035175 4288085770
2.9119225 0.6430707 -1.8002883 4288085770
2.5260315 0.60701966 -1.8021311 4288085770
3.0538979 0.6554625 -1.8006158 4288085770
2.8999252 0.64101267 -1.7963514 4288085770
3.1908646 0.66681695 -1.7969707 4288085770
2.4110832 0.59471202 -1.8036898 4288085770
2.7639809 0.62562943 -1.7950174 4288085770
5.3613625 0.86377335 -1.7946427 4288085770
3.3678818 0.68034005 -1.8031447 4288085770
2.2901306 0.5813632 -1.8012801 4288085770
3.5198593 0.69173455 -1.7994365 4288085770
16.552658 1.8794088 -1.7693905 4288085770
5.6363525 0.8825264 -1.7943734 4288085770
2.6490784 0.61032653 -1.7975947 4288085770
3.6998596 0.70424175 -1.8016039 4288085770
5.9343452 0.90234756 -1.7950009 4288085770
2.3412018 0.57848048 -1.7980843 4288085770
3.8688469 0.71568179 -1.7978243 4288085770
2.5391693 0.59604359 -1.8011448 4288085770
14.855392 1.7040544 -1.8216027 4288085770
4.8096199 0.79924846 -1.794359 4288085770
4.0658569 0.72823429 -1.7999204 4288085770
6.2603455 0.92325163 -1.7965044 4288085770
9.4466476 1.2070718 -1.8053772 4288085770
2.4252548 0.58072472 -1.8007179 4288085770
6.6803284 0.95344138 -1.802556 4288085770
4.2638626 0.73976541 -1.7980185 4288085770
6.6163521 0.94524837 -1.7998755 4288085770
16.034294 1.7742784 -1.8192253 4288085770
2.3143425 0.56541395 -1.8002785 4288085770
4.4678841 0.75031829 -1.7970978 4288085770
6.9903641 0.96729422 -1.8031708 4288085770
4.6778908 0.76086903 -1.7931519 4288085770
2.4384613 0.56475258 -1.8007627 4288085770
7.390377 0.98839283 -1.8033633 4288085770
5.0268936 0.78486013 -1.7985398 4288085770
4.9399414 0.7746222 -1.7989682 4288085770
15.733692 1.6874528 -1.8210318 4288085770
7.7963829 1.0084882 -1.800537 4288085770
6.980587 0.93725467 -1.8024008 4288085770
9.8959846 1.1813078 -1.8076588 4288085770
5.1849709 0.78528643 -1.797875 4288085770
8.2313919 1.0296695 -1.7985824 4288085770
5.457016 0.79704213 -1.799662 4288085770
16.798771 1.7204015 -1.8253663 4288085770
2.5307045 0.54998064 -1.7984687 4288085770
8.7614288 1.0561638 -1.8051966 4288085770
5.239151 0.76843333 -1.7987542 4288085770
5.732048 0.80778742 -1.798443 4288085770
7.3008385 0.92212868 -1.8031553 4288085770
16.779003 1.6763489 -1.8267272 4288085770
9.2864456 1.0775836 -1.8018638 4288085770
6.0581207 0.81970787 -1.8030028 4288085770
10.380322 1.1546447 -1.8107995 4288085770
9.8404541 1.1000752 -1.7974027 4288085770
6.3771744 0.82957864 -1.8026048 4288085770
2.6469612 0.53732347 -1.8040612 4288085770
5.468399 0.75306606 -1.8008909 4288085770
6.7502556 0.84163284 -1.8079669 4288085770
10.517502 1.1269569 -1.8013995 4288085770
7.6680908 0.90914941 -1.8066996 4288085770
7.127327 0.85166669 -1.8083252 4288085770
11.234535 1.1539354 -1.803228 4288085770
10.897644 1.1270545 -1.8108076 4288085770
2.7531929 0.52360272 -1.8037019 4288085770
5.7186623 0.73776174 -1.8039391 4288085770
7.4993858 0.85966372 -1.8047171 4288085770
12.051586 1.183198 -1.8066235 4288085770
8.0713501 0.8952744 -1.8110986 4288085770
7.930481 0.86785054 -1.8058608 4288085770
13.071671 1.2221053 -1.824109 4288085770
2.8654251 0.5099045 -1.8043174 4288085770
11.454967 1.0985794 -1.8116541 4288085770
5.9919128 0.72252083 -1.806891 4288085770
8.391571 0.87611938 -1.8068783 4288085770
8.480587 0.8803916 -1.811479 4288085770
14.104725 1.25598 -1.8305714 4288085770
8.8886719 0.88247991 -1.8067572 4288085770
2.9936714 0.49627459 -1.8088655 4288085770
15.189762 1.2869484 -1.8288345 4288085770
6.2771606 0.70731854 -1.8107921 4288085770
12.084297 1.0703125 -1.8141977 4288085770
8.9138107 0.86556911 -1.8107584 4288085770
9.4307747 0.88896275 -1.8064469 4288085770
16.455803 1.3204205 -1.8283242 4288085770
2.3850288 0.43762636 -1.8147818 4288085770
3.1209068 0.48263001 -1.8114181 4288085770
6.5573845 0.69006634 -1.8087269 4288085770
10.039902 0.89565825 -1.8108548 4288085770
9.3900337 0.85186934 -1.8108509 4288085770
12.789623 1.0422595 -1.8174218 4288085770
10.688019 0.90042996 -1.8101115 4288085770
3.2491226 0.46897614 -1.8119665 4288085770
2.5052681 0.42598081 -1.8203511 4288085770
6.8956261 0.67500901 -1.8124053 4288085770
9.8942451 0.83622789 -1.8078382 4288085770
11.341129 0.90017796 -1.8033789 4288085770
13.557945 1.0123723 -1.8193936 4288085770
3.396347 0.45539272 -1.8154349 4288085770
2.6204872 0.41330397 -1.8229479 4288085770
7.2258415 0.65890622 -1.8121239 4288085770
10.483467 0.8228488 -1.8094555 4288085770
12.132286 0.90136266 -1.8060594 4288085770
3.5265465 0.4407202 -1.8119814 4288085770
2.736702 0.40062404 -1.8245401 4288085770
7.5840607 0.64187336 -1.8107308 4288085770
14.42828 0.98076844 -1.821949 4288085770
11.125675 0.80960846 -1.8098503 4288085770
13.032452 0.90285635 -1.8102819 4288085770
3.6707497 0.42610443 -1.8114687 4288085770
2.8458977 0.38690042 -1.8221685 4288085770
7.9702644 0.62491727 -1.8092202 4288085770
13.932598 0.89829516 -1.8055422 4288085770
11.82988 0.79653764 -1.8099843 4288085770
15.394596 0.9494276 -1.8241011 4288085770
2.9620819 0.37419653 -1.8197612 4288085770
3.8419685 0.41259313 -1.8158363 4288085770
8.419487 0.61016989 -1.8134321 4288085770
15.056801 0.89441729 -1.8118607 4288085770
12.653091 0.78481507 -1.8136119 4288085770
16.49593 0.91546679 -1.8277044 4288085770
4.0001526 0.39901054 -1.8142588 4288085770
3.0992851 0.36158693 -1.8232652 4288085770
8.8816872 0.59342742 -1.8126019 4288085770
16.274994 0.88777781 -1.8148029 4288085770
13.519276 0.77217364 -1.8110652 4288085770
4.1703415 0.38446617 -1.813637 4288085770
3.2534904 0.35003591 -1.8286918 4288085770
9.4208984 0.57893181 -1.8174356 4288085770
14.587482 0.76313758 -1.8166503 4288085770
4.3625298 0.37100101 -1.8159163 4288085770
3.4046783 0.33745849 -1.8311369 4288085770
9.9971008 0.56353116 -1.82112 4288085770
15.700665 0.75118828 -1.8160653 4288085770
3.5428391 0.32480979 -1.8276374 4288085770
4.5577164 0.3565315 -1.8161894 4288085770
10.608292 0.54619551 -1.81967 4288085770
16.922817 0.73849893 -1.8090286 4288085770
3.6939964 0.31220865 -1.8260829 4288085770
4.7748985 0.34314072 -1.8193638 4288085770
11.318493 0.53016663 -1.8237975 4288085770
3.8641663 0.29967773 -1.8274485 4288085770
5.0000801 0.32875955 -1.8205109 4288085770
12.059662 0.51317966 -1.820801 4288085770
11.814804 0.47742903 -1.8090498 4288085770
12.643738 0.49666905 -1.8024589 4288085770
11.045868 0.45732808 -1.8113949 4288085770
13.630699 0.51737547 -1.8011974 4288085770
10.336914 0.43837821 -1.8114817 4288085770
12.869823 0.49638116 -1.8175148 4288085770
14.784664 0.540555 -1.8022214 4288085770
5.2252388 0.31436694 -1.819658 4288085770
4.0263214 0.28610086 -1.8248544 4288085770
9.6989822 0.41963363 -1.8132696 4288085770
16.134651 0.5652926 -1.8064151 4288085770
9.1220474 0.40104854 -1.8138013 4288085770
8.5861206 0.38257539 -1.8141606 4288085770
8.3781319 0.37497783 -1.8100787 4288085770
7.9141693 0.3637135 -1.8120916 4288085770
8.9061203 0.38543367 -1.8108029 4288085770
7.4571915 0.35243773 -1.8090752 4288085770
7.0752335 0.34240937 -1.8127372 4288085770
8.0791817 0.36415601 -1.8103982 4288085770
9.5041275 0.39509904 -1.814239 4288085770
10.130127 0.40482163 -1.8145576 4288085770
6.6982803 0.33036911 -1.8123906 4288085770
13.871014 0.48015845 -1.8224252 4288085770
7.6402588 0.34695268 -1.8113432 4288085770
6.3603363 0.31945336 -1.8148738 4288085770
10.831139 0.41375506 -1.815567 4288085770
4.2104759 0.27359629 -1.8241613 4288085770
5.4764023 0.30005145 -1.8196958 4288085770
11.605152 0.42289281 -1.8172694 4288085770
6.0594177 0.30765676 -1.8202075 4288085770
7.2513542 0.33090341 -1.8150718 4288085770
5.7374573 0.29574752 -1.8166295 4288085770
12.439167 0.42916346 -1.8137387 4288085770
6.8654404 0.31383765 -1.8147942 4288085770
13.336159 0.43456876 -1.8039496 4288085770
5.4795494 0.28406715 -1.8217826 4288085770
15.007202 0.46430945 -1.8277686 4288085770
4.392601 0.26206934 -1.8204705 4288085770
5.7445641 0.2857883 -1.8206623 4288085770
6.503521 0.29682469 -1.8124157 4288085770
14.487236 0.44178796 -1.813086 4288085770
5.1836014 0.27121019 -1.8151016 4288085770
15.756294 0.44628596 -1.8147453 4288085770
4.9707108 0.25967026 -1.8230652 4288085770
6.2206612 0.28110015 -1.8216984 4288085770
16.317394 0.44794118 -1.8333867 4288085770
4.6077576 0.24967408 -1.8236473 4288085770
6.0497246 0.27265096 -1.825467 4288085770
17.250385 0.44942689 -1.8204715 4288085770
4.7287865 0.24699008 -1.821157 4288085770
5.9067574 0.26421726 -1.8191179 4288085770
4.5078812 0.23437893 -1.8211607 4288085770
4.8389091 0.23731673 -1.8257565 4288085770
5.6158562 0.24840915 -1.8184344 4288085770
6.3368683 0.25741577 -1.8223599 4288085770
4.3099823 0.22184277 -1.8230673 4288085770
5.3469658 0.23266077 -1.8176584 4288085770
5.0650291 0.22592831 -1.8248807 4288085770
6.6760101 0.24435973 -1.8250216 4288085770
4.1050797 0.20926249 -1.8210036 4288085770
5.1161079 0.21705234 -1.8227224 4288085770
5.3221741 0.21364868 -1.827881 4288085770
7.0111389 0.22925568 -1.8217131 4288085770
3.9201927 0.19675505 -1.8218554 4288085770
4.8822403 0.20040452 -1.8228053 4288085770
5.6043091 0.20244324 -1.8317699 4288085770
3.7402992 0.18424869 -1.8206863 4288085770
7.3972778 0.2153281 -1.8241836 4288085770
4.6673737 0.18482089 -1.8248018 4288085770
5.8714104 0.19014871 -1.8277284 4288085770
7.7953911 0.20140254 -1.8216038 4288085770
3.5764198 0.17179775 -1.8214498 4288085770
4.4484863 0.17019558 -1.8218092 4288085770
6.1765175 0.1789825 -1.8275208 4288085770
8.289547 0.1868062 -1.8296267 4288085770
3.4215469 0.15937734 -1.8231755 4288085770
6.4986191 0.16786301 -1.8272418 4288085770
8.7836685 0.17216098 -1.8296498 4288085770
4.2285995 0.1545428 -1.814827 4288085770
6.843708 0.15680039 -1.8258662 4288085770
3.261673 0.14591181 -1.8199285 4288085770
9.3167648 0.15962315 -1.8294967 4288085770
7.2378082 0.14690197 -1.8292785 4288085770
4.0517464 0.14006793 -1.8176575 4288085770
9.9519043 0.14440525 -1.8359332 4288085770
3.1167908 0.13450682 -1.8196057 4288085770
7.629879 0.13594925 -1.8247056 4288085770
10.628025 0.13028777 -1.8401915 4288085770
8.092968 0.12623954 -1.8278278 4288085770
3.881897 0.12560582 -1.8194584 4288085770
11.36412 0.1163094 -1.8401976 4288085770
8.6090698 0.11568594 -1.8327335 4288085770
2.9639091 0.12204802 -1.8143229 4288085770
12.1432 0.1014241 -1.8360294 4288085770
9.1491432 0.10618043 -1.8345321 4288085770
9.7322083 0.09778583 -1.835144 4288085770
12.959244 0.087603211 -1.8256997 4288085770
17.171387 0.07425046 -1.8371531 4288085770
3.6990395 0.11005831 -1.8143212 4288085770
10.405293 0.088654041 -1.8393844 4288085770
14.028347 0.073569059 -1.8313131 4288085770
11.13134 0.081655979 -1.8403891 4288085770
2.8370667 0.10869527 -1.8159376 4288085770
16.278503 0.057844996 -1.8459929 4288085770
11.925388 0.07384932 -1.8421141 4288085770
12.690365 0.06887269 -1.8289428 4288085770
14.929478 0.060113907 -1.8426255 4288085770
15.301479 0.058127403 -1.8410807 4288085770
13.720417 0.063727856 -1.8326634 4288085770
15.718468 0.05523324 -1.8343531 4288085770
16.697578 0.043997169 -1.8463252 4288085770
3.5451927 0.095632911 -1.8150545 4288085770
14.445541 0.037694216 -1.8287904 4288085770
2.722229 0.096388578 -1.8184944 4288085770
13.291595 0.020448565 -1.8177277 4288085770
3.4123802 0.080288172 -1.8197056 4288085770
12.43475 0.0021401644 -1.8264285 4288085770
2.602375 0.084049582 -1.8180724 4288085770
11.688923 -0.015848517 -1.8376626 4288085770
3.2655411 0.065869093 -1.8184093 4288085770
10.96706 -0.032819986 -1.8407897 4288085770
16.266399 -0.11726105 -1.8391352 4288085770
3.120697 0.05144918 -1.8161048 4288085770
10.238155 -0.048871994 -1.8339403 4288085770
14.98251 -0.13481951 -1.8356184 4288085770
9.6492996 -0.065481901 -1.8365082 4288085770
2.9988861 0.03712213 -1.8187033 4288085770
13.776596 -0.15120852 -1.8247672 4288085770
9.0744286 -0.082096815 -1.8320174 4288085770
2.8730621 0.022759318 -1.8173186 4288085770
12.818737 -0.16884863 -1.8248861 4288085770
8.571579 -0.098479033 -1.8332237 4288085770
12.103958 -0.18872952 -1.8400018 4288085770
2.752243 0.0084102154 -1.8159127 4288085770
8.1077271 -0.11376703 -1.8322599 4288085770
11.358124 -0.20576811 -1.8432291 4288085770
7.6868858 -0.12992632 -1.8331214 4288085770
16.690681 -0.35909557 -1.8458661 4288085770
2.639431 -0.0059117079 -1.8154732 4288085770
16.335793 -0.36196089 -1.8643696 4288085770
10.726315 -0.22447193 -1.8499898 4288085770
7.2990456 -0.14600217 -1.8328441 4288085770
15.084915 -0.37241828 -1.8626697 4288085770
2.5306282 -0.020222902 -1.8150166 4288085770
15.521935 -0.393314 -1.8469703 4288085770
10.031433 -0.23945117 -1.8399906 4288085770
6.9292068 -0.16204095 -1.8304911 4288085770
13.883972 -0.37680602 -1.8497225 4288085770
9.4405937 -0.25610518 -1.8365663 4288085770
14.377129 -0.42254615 -1.8349428 4288085770
12.844028 -0.37872434 -1.8410863 4288085770
6.5743599 -0.17705166 -1.826069 4288085770
8.9257698 -0.27252746 -1.8368225 4288085770
12.060177 -0.38382959 -1.8503982 4288085770
6.2475357 -0.19297433 -1.823535 4288085770
13.377338 -0.45135939 -1.8263054 4288085770
11.290264 -0.38394451 -1.8516208 4288085770
8.4429398 -0.28888118 -1.8339443 4288085770
10.567341 -0.38294983 -1.8496394 4288085770
5.9557114 -0.20778954 -1.8228476 4288085770
2.5043221 -0.076304555 -1.8184727 4288085770
12.602612 -0.48148048 -1.8297346 4288085770
9.87537 -0.37790048 -1.8425032 4288085770
17.347416 -0.68218958 -1.8711283 4288085770
7.9770966 -0.30420697 -1.8279881 4288085770
2.615448 -0.090006351 -1.8180923 4288085770
9.2744179 -0.37357903 -1.8389907 4288085770
5.7059288 -0.22445381 -1.827996 4288085770
15.887383 -0.65625125 -1.8640764 4288085770
2.7455864 -0.1046319 -1.8216383 4288085770
8.7334671 -0.36807489 -1.83822 4288085770
7.6093102 -0.3211993 -1.8326325 4288085770
11.902889 -0.51139152 -1.8338482 4288085770
14.593338 -0.62986678 -1.855327 4288085770
2.8636932 -0.11832643 -1.8192288 4288085770
8.2145004 -0.36152935 -1.8343505 4288085770
5.445118 -0.24019134 -1.8261843 4288085770
13.389259 -0.60227287 -1.8401934 4288085770
3.0118217 -0.13288999 -1.8246992 4288085770
7.7585411 -0.35478747 -1.8342162 4288085770
12.4963 -0.58469796 -1.8458205 4288085770
7.2265015 -0.33727503 -1.8303334 4288085770
3.1539536 -0.14848852 -1.8272011 4288085770
7.3275719 -0.347983 -1.8329771 4288085770
11.242161 -0.53921479 -1.8347853 4288085770
11.661304 -0.56498885 -1.8471919 4288085770
2.6229401 -0.1289562 -1.8263012 4288085770
5.198307 -0.25489068 -1.8243076 4288085770
6.9395943 -0.34005523 -1.8325509 4288085770
3.2840347 -0.16216147 -1.8227413 4288085770
10.91531 -0.54503679 -1.8481894 4288085770
2.7540321 -0.14058375 -1.8288249 4288085770
6.57061 -0.33108139 -1.831039 4288085770
3.4511528 -0.17767894 -1.8271382 4288085770
6.8987122 -0.35417736 -1.8318093 4288085770
6.2506332 -0.32294953 -1.8333272 4288085770
2.8791008 -0.15225732 -1.8263736 4288085770
10.21328 -0.52499509 -1.8440019 4288085770
3.5902252 -0.1913271 -1.8226407 4288085770
3.0191803 -0.16386569 -1.8278595 4288085770
5.9416542 -0.31479359 -1.8345691 4288085770
9.5682564 -0.50479162 -1.8405751 4288085770
3.1602325 -0.1744889 -1.8263352 4288085770
3.7593117 -0.20586276 -1.8230232 4288085770
10.639427 -0.56588602 -1.8344723 4288085770
5.6396523 -0.3046366 -1.8327695 4288085770
4.9735146 -0.2705245 -1.8233443 4288085770
17.175533 -0.91483581 -1.8492924 4288085770
8.9862251 -0.48541629 -1.8368897 4288085770
3.3092995 -0.18607855 -1.8267832 4288085770
5.3666496 -0.29538798 -1.8328542 4288085770
3.9404068 -0.22135961 -1.8243617 4288085770
5.0926247 -0.28415978 -1.8299307 4288085770
3.4633522 -0.19766605 -1.8252105 4288085770
8.4792061 -0.46781182 -1.8369017 4288085770
3.6313972 -0.20820296 -1.8255727 4288085770
4.8506126 -0.27382648 -1.8298792 4288085770
4.1465187 -0.23775756 -1.8306011 4288085770
6.5739059 -0.36908925 -1.8302602 4288085770
4.6266022 -0.26443756 -1.830758 4288085770
3.8144608 -0.22068703 -1.8278841 4288085770
4.022522 -0.2320776 -1.8340845 4288085770
4.3995667 -0.25307477 -1.8286372 4288085770
4.2185631 -0.24353778 -1.8343353 4288085770
7.9971771 -0.4491514 -1.8348024 4288085770
4.3265648 -0.25129271 -1.8259313 4288085770
7.5631561 -0.43234801 -1.8345139 4288085770
4.5436478 -0.2676847 -1.8281248 4288085770
7.150116 -0.41449857 -1.8321313 4288085770
4.7547112 -0.28311682 -1.8263373 4288085770
6.7790833 -0.39751685 -1.8325779 4288085770
5.0077896 -0.29939771 -1.8303796 4288085770
4.7717438 -0.28707778 -1.8252907 4288085770
6.4600754 -0.3823626 -1.8378189 4288085770
5.2498398 -0.31473887 -1.8294621 4288085770
6.1220131 -0.364308 -1.8351209 4288085770
5.8039551 -0.34720516 -1.8313452 4288085770
5.514904 -0.33100486 -1.8304541 4288085770
10.057667 -0.589531 -1.8290526 4288085770
16.058807 -0.93589008 -1.8540955 4288085770
6.2951393 -0.38685226 -1.8325361 4288085770
4.5789566 -0.30261207 -1.8261927 4288085770
9.5639458 -0.61589998 -1.8292811 4288085770
6.0073357 -0.4016701 -1.8298314 4288085770
14.986027 -0.95187908 -1.8496825 4288085770
4.3971825 -0.31811726 -1.8270485 4288085770
5.7375488 -0.41744542 -1.826057 4288085770
9.1032181 -0.640185 -1.8283587 4288085770
13.973213 -0.96274126 -1.8389864 4288085770
4.2284241 -0.33458149 -1.8288558 4288085770
5.4937706 -0.43313181 -1.8251731 4288085770
8.6574745 -0.66244799 -1.8243604 4288085770
13.119434 -0.97813386 -1.8336529 4288085770
4.0596542 -0.35005748 -1.8286567 4288085770
16.90567 -1.2742953 -1.9066526 4288085770
5.2890205 -0.45068181 -1.8291374 4288085770
8.2627563 -0.68655407 -1.8231601 4288085770
12.392704 -0.99714428 -1.83381 4288085770
3.8848763 -0.36457467 -1.8244766 4288085770
15.896946 -1.2940871 -1.9059944 4288085770
5.0572357 -0.4653604 -1.8241969 4288085770
7.8940392 -0.70959514 -1.8208441 4288085770
11.750984 -1.0179174 -1.8346224 4288085770
3.7341156 -0.38000226 -1.8242016 4288085770
17.469654 -1.4867939 -1.9036099 4288085770
4.8694839 -0.48187011 -1.8270836 4288085770
14.876152 -1.3019663 -1.8963121 4288085770
3.5933571 -0.39540267 -1.8238846 4288085770
11.163258 -1.0365434 -1.8351952 4288085770
7.5763435 -0.73446739 -1.8233259 4288085770
4.674736 -0.49843055 -1.8249995 4288085770
13.948349 -1.3065857 -1.8872204 4288085770
16.777153 -1.5557039 -1.9059327 4288085770
3.4536095 -0.41080129 -1.8235631 4288085770
10.646561 -1.0579641 -1.8374879 4288085770
7.2726402 -0.75731373 -1.8237364 4288085770
4.5049896 -0.514898 -1.8268101 4288085770
13.127552 -1.3098892 -1.8816727 4288085770
3.3328667 -0.42613506 -1.8251618 4288085770
16.155617 -1.619432 -1.9059259 4288085770
10.131821 -1.0754094 -1.8347476 4288085770
6.9999504 -0.78106964 -1.8250229 4288085770
4.3352394 -0.53038412 -1.8256147 4288085770
12.383762 -1.3129642 -1.8788015 4288085770
3.2041245 -0.44150984 -1.823794 4288085770
4.1905327 -0.5487662 -1.8303325 4288085770
9.6731186 -1.0956846 -1.8347902 4288085770
15.548065 -1.6791408 -1.902835 4288085770
6.7482796 -0.80675048 -1.8292329 4288085770
11.693974 -1.3138859 -1.8766906 4288085770
3.1004143 -0.45878041 -1.8283331 4288085770
4.0227699 -0.5632714 -1.8251222 4288085770
9.261425 -1.1168258 -1.8356414 4288085770
6.5025864 -0.82943952 -1.8293992 4288085770
11.074165 -1.3126105 -1.8752735 4288085770
14.940491 -1.7338738 -1.8957129 4288085770
2.9886818 -0.47410297 -1.8278937 4288085770
3.8850441 -0.57965291 -1.8267981 4288085770
10.504368 -1.3111866 -1.875646 4288085770
8.8767242 -1.1368999 -1.8353726 4288085770
6.278923 -0.85405046 -1.8324852 4288085770
2.878952 -0.48942053 -1.8274456 4288085770
14.480968 -1.796149 -1.8970181 4288085770
3.7463074 -0.59505492 -1.8254719 4288085770
9.9295197 -1.3028184 -1.8689965 4288085770
8.524025 -1.1568863 -1.8349694 4288085770
16.697155 -2.1018047 -1.9416423 4288085770
6.058239 -0.87667155 -1.8325464 4288085770
2.7752266 -0.50472188 -1.8269724 4288085770
9.4337044 -1.2981925 -1.8690397 4288085770
3.6225967 -0.6123988 -1.8270948 4288085770
13.994411 -1.8515283 -1.8933927 4288085770
15.551159 -2.0470109 -1.9340936 4288085770
8.1803207 -1.1768612 -1.8325281 4288085770
5.8455467 -0.8982833 -1.8305674 4288085770
2.6714935 -0.5190351 -1.8244927 4288085770
8.9428558 -1.2885832 -1.864031 4288085770
3.5008774 -0.62874907 -1.826703 4288085770
14.397064 -1.9783226 -1.9124923 4288085770
13.586887 -1.9116681 -1.8934662 4288085770
7.884655 -1.199675 -1.8349035 4288085770
8.5170364 -1.2827537 -1.8657738 4288085770
5.6458817 -0.92184788 -1.8305458 4288085770
2.5817871 -0.53528678 -1.8259665 4288085770
13.433052 -1.9250443 -1.9021916 4288085770
3.3811607 -0.64509451 -1.8263028 4288085770
8.1001968 -1.273918 -1.8644605 4288085770
7.6500359 -1.22728 -1.8440533 4288085770
12.604099 -1.8803555 -1.8983792 4288085770
5.4391823 -0.94146186 -1.8255287 4288085770
13.220375 -1.9726905 -1.8943731 4288085770
3.2754631 -0.66238958 -1.8278495 4288085770
7.7273636 -1.2659376 -1.8669683 4288085770
11.852127 -1.8364625 -1.8932502 4288085770
17.15947 -2.5786085 -1.9416492 4288085770
7.3783646 -1.2490413 -1.8443211 4288085770
5.2875366 -0.96686536 -1.8303177 4288085770
7.3454933 -1.2530184 -1.8634833 4288085770
3.1707535 -0.67868793 -1.8283861 4288085770
12.860832 -2.0287116 -1.8922197 4288085770
11.178207 -1.7993205 -1.8938364 4288085770
7.0016594 -1.2439653 -1.8648632 4288085770
16.335743 -2.5808988 -1.9401041 4288085770
10.563282 -1.7630174 -1.8941813 4288085770
7.1286926 -1.2717484 -1.8435028 4288085770
5.1228867 -0.99032891 -1.8311487 4288085770
3.0700607 -0.69597638 -1.8289117 4288085770
6.7098389 -1.2367395 -1.8710371 4288085770
12.582355 -2.0944641 -1.897787 4288085770
9.952301 -1.7207457 -1.8874725 4288085770
15.472942 -2.5663431 -1.9306178 4288085770
6.9100494 -1.2963408 -1.8475662 4288085770
6.3769417 -1.2216982 -1.8653339 4288085770
2.9713669 -0.71225905 -1.8294226 4288085770
4.9712372 -1.0137575 -1.8319248 4288085770
9.4013443 -1.6832922 -1.8835424 4288085770
12.245785 -2.1464467 -1.8915116 4288085770
6.0600319 -1.2046125 -1.8595515 4288085770
8.8963966 -1.6477067 -1.8804317 4288085770
14.677135 -2.5515993 -1.9218498 4288085770
6.7013969 -1.3199182 -1.8495814 4288085770
2.8786736 -0.72953171 -1.8289144 4288085770
4.8275795 -1.0371639 -1.8326671 4288085770
5.7651405 -1.189455 -1.8556889 4288085770
8.4604759 -1.617897 -1.8830682 4288085770
11.998295 -2.2101271 -1.8949356 4288085770
5.5202713 -1.1781247 -1.8576409 4288085770
8.0405426 -1.5870615 -1.8826313 4288085770
13.909306 -2.5307851 -1.9119273 4288085770
2.7799568 -0.74383241 -1.8264129 4288085770
6.4997597 -1.3444772 -1.8515731 4288085770
4.6839294 -1.0595769 -1.8324032 4288085770
5.2643776 -1.1638482 -1.8556209 4288085770
7.6115646 -1.5512866 -1.8762017 4288085770
5.0364876 -1.1504768 -1.8564892 4288085770
2.7022858 -0.76204646 -1.8288475 4288085770
13.212502 -2.5127525 -1.9057249 4288085770
11.745781 -2.2698388 -1.8953557 4288085770
7.2376251 -1.5213255 -1.8755783 4288085770
6.3091087 -1.368012 -1.8525122 4288085770
4.5452728 -1.0819825 -1.8311182 4288085770
4.8196106 -1.1380697 -1.8583179 4288085770
6.8986893 -1.4932562 -1.8768202 4288085770
12.572704 -2.495553 -1.9012891 4288085770
2.6196098 -0.7792927 -1.828297 4288085770
4.610714 -1.1246465 -1.8591067 4288085770
6.585762 -1.4671102 -1.8789654 4288085770
6.1274719 -1.3925225 -1.8534195 4288085770
11.51228 -2.3304992 -1.8957019 4288085770
4.4516792 -1.1102049 -1.8396809 4288085770
6.2628021 -1.4370214 -1.876128 4288085770
4.3907967 -1.1082834 -1.8549231 4288085770
11.976898 -2.4762273 -1.8976563 4288085770
5.9648438 -1.4088583 -1.8741981 4288085770
4.217926 -1.0977316 -1.8605795 4288085770
5.9618301 -1.4169894 -1.8542596 4288085770
11.293758 -2.3901246 -1.8949786 4288085770
4.3270378 -1.1335727 -1.8383428 4288085770
5.6618576 -1.3777328 -1.8682706 4288085770
4.0189857 -1.0803045 -1.857302 4288085770
11.39608 -2.4538662 -1.8929421 4288085770
5.3968925 -1.3504853 -1.8652085 4288085770
3.8380699 -1.0658224 -1.8549672 4288085770
5.7921867 -1.4404737 -1.85411 4288085770
5.149929 -1.3241701 -1.8650771 4288085770
3.6601334 -1.0493318 -1.8526077 4288085770
4.2294235 -1.1598306 -1.8429095 4288085770
11.093262 -2.451695 -1.8951916 4288085770
4.9189758 -1.2998114 -1.8648908 4288085770
3.5052223 -1.035748 -1.8551704 4288085770
10.894295 -2.4382598 -1.8929391 4288085770
4.6970139 -1.275434 -1.8636667 4288085770
3.3573074 -1.0231512 -1.8567095 4288085770
5.6455612 -1.4658831 -1.855876 4288085770
4.4910507 -1.2520008 -1.8643817 4288085770
4.1258011 -1.184123 -1.8444891 4288085770
3.1993637 -1.0066054 -1.8542663 4288085770
10.89975 -2.5122523 -1.8943688 4288085770
10.405491 -2.4186234 -1.8918569 4288085770
4.282074 -1.2265934 -1.8620974 4288085770
3.0303802 -0.98713183 -1.844851 4288085770
4.1021156 -1.2050828 -1.8637158 4288085770
2.9004517 -0.97347897 -1.8473089 4288085770
5.4989243 -1.4903048 -1.8556358 4288085770
3.9101257 -1.180635 -1.8603662 4288085770
4.0482178 -1.2133088 -1.8519897 4288085770
9.9296684 -2.3959637 -1.8887017 4288085770
2.7755127 -0.95981854 -1.8487458 4288085770
17.141132 -3.8465872 -1.9895087 4288085770
3.742157 -1.159097 -1.8609343 4288085770
10.737263 -2.5767136 -1.8954399 4288085770
