# .PCD v0.7 - Point Cloud Data file format
VERSION 0.7
FIELDS x y z rgb
SIZE 4 4 4 4
TYPE F F F U
COUNT 1 1 1 1
WIDTH 1116
HEIGHT 1
VIEWPOINT 0 0 0 1 0 0 0
POINTS 1116
DATA ascii
6.4538612 0.81255907 -1.8122867 4288085770
11.449095 1.424476 -1.8474323 4288085770
5.2718019 0.66504753 -1.8095399 4288085770
6.6368685 0.83048236 -1.8143978 4288085770
5.399806 0.6769942 -1.8106167 4288085770
17.251383 2.1200976 -1.8390723 4288085770
17.607401 2.158951 -1.8392922 4288085770
6.8258753 0.84840471 -1.8145118 4288085770
5.5308113 0.6889413 -1.8096954 4288085770
7.0018835 0.86333746 -1.8086164 4288085770
5.6618176 0.70088923 -1.8077738 4288085770
7.4098978 0.91116208 -1.8178712 4288085770
7.2048903 0.88025504 -1.8077366 4288085770
5.8038216 0.71183103 -1.807857 4288085770
9.2319756 1.1193993 -1.8350052 4288085770
5.3307962 0.65302426 -1.8095582 4288085770
7.4288979 0.89916241 -1.8088698 4288085770
5.9628258 0.72476423 -1.8099509 4288085770
16.670311 1.9863119 -1.8706509 4288085770
7.672904 0.91906059 -1.8110142 4288085770
6.1238298 0.73669666 -1.8120449 4288085770
11.72408 1.3873694 -1.8425412 4288085770
6.3018332 0.75062126 -1.8151495 4288085770
17.907377 2.097837 -1.8313944 4288085770
7.9109125 0.93696475 -1.8091537 4288085770
7.5658894 0.89010209 -1.8149318 4288085770
18.014368 2.0857875 -1.8384397 4288085770
6.45084 0.7585662 -1.8082336 4288085770
8.2109175 0.95983517 -1.8173298 4288085770
9.4979639 1.1022891 -1.838127 4288085770
5.4277887 0.63798583 -1.809593 4288085770
6.6608419 0.77347434 -1.8153557 4288085770
8.4869251 0.97872281 -1.8164898 4288085770
17.183575 1.9407539 -1.8638178 4288085770
6.8520021 0.78216064 -1.8199216 4288085770
8.8211098 1.0001302 -1.8284243 4288085770
12.054278 1.3514318 -1.8508861 4288085770
18.726664 2.0799692 -1.8409702 4288085770
7.0490084 0.79305923 -1.8190626 4288085770
7.7600451 0.87068528 -1.8246044 4288085770
9.1211205 1.0179768 -1.8256402 4288085770
5.5289211 0.62085325 -1.8148988 4288085770
9.7791395 1.0816193 -1.8461348 4288085770
7.2450151 0.80196077 -1.815201 4288085770
18.519625 2.0160701 -1.8507793 4288085770
9.4951277 1.0417774 -1.8329109 4288085770
7.4650202 0.81184757 -1.8143567 4288085770
17.817562 1.9084301 -1.8582194 4288085770
9.8731375 1.0645795 -1.8351835 4288085770
7.9480333 0.85158819 -1.8257135 4288085770
12.424257 1.3192387 -1.8541083 4288085770
7.7200232 0.8247115 -1.8195381 4288085770
5.6359119 0.60579836 -1.8159564 4288085770
19.55765 2.0565398 -1.8395119 4288085770
10.308146 1.0903474 -1.8434969 4288085770
4.930871 0.530164 -1.81742 4288085770
10.05013 1.061482 -1.8432997 4288085770
7.9690285 0.83458251 -1.8197132 4288085770
10.747155 1.1131181 -1.8458108 4288085770
19.091581 1.9507689 -1.8581127 4288085770
18.606546 1.886019 -1.8617334 4288085770
8.2540312 0.84643173 -1.8239141 4288085770
8.1640224 0.83347505 -1.8288428 4288085770
5.7369061 0.59074926 -1.8130102 4288085770
11.240164 1.1388575 -1.8521633 4288085770
5.021862 0.51611733 -1.8184675 4288085770
12.836237 1.2880223 -1.85936 4288085770
10.393118 1.0463004 -1.8495173 4288085770
8.4930382 0.85131401 -1.8160783 4288085770
11.718177 1.1596117 -1.849502 4288085770
8.8240404 0.8631379 -1.8223102 4288085770
5.8528957 0.57568955 -1.814074 4288085770
12.246188 1.182338 -1.8488759 4288085770
8.3660107 0.81237286 -1.8269601 4288085770
19.658543 1.8794737 -1.8614384 4288085770
19.501532 1.8645524 -1.8653203 4288085770
5.1308517 0.50405812 -1.8235289 4288085770
10.756104 1.0301089 -1.8547479 4288085770
9.1390448 0.87197465 -1.8225292 4288085770
13.359211 1.2647388 -1.876693 4288085770
12.871199 1.2100098 -1.8543196 4288085770
9.5110445 0.88277644 -1.829788 4288085770
5.9698868 0.56062996 -1.8141388 4288085770
8.585 0.79226172 -1.8250899 4288085770
13.679203 1.2495725 -1.8778963 4288085770
5.2188444 0.48801589 -1.8205731 4288085770
11.145093 1.0149041 -1.8599968 4288085770
9.8820467 0.89058262 -1.8320438 4288085770
13.903187 1.2364473 -1.8900365 4288085770
14.574207 1.2920884 -1.9035342 4288085770
6.0928793 0.54556805 -1.8132076 4288085770
5.3248358 0.47496057 -1.8226318 4288085770
10.296048 0.89936483 -1.8363296 4288085770
8.8389883 0.77412879 -1.828245 4288085770
11.543081 0.99669778 -1.8612496 4288085770
15.553213 1.3335637 -1.9252282 4288085770
10.755047 0.90812141 -1.8436456 4288085770
6.2128725 0.5295099 -1.8092735 4288085770
14.503161 1.2101254 -1.9054195 4288085770
16.37723 1.3561407 -1.9188025 4288085770
5.4318275 0.46090621 -1.8226906 4288085770
9.1119747 0.75598496 -1.8324131 4288085770
11.935073 0.9764986 -1.8564968 4288085770
11.232047 0.91586941 -1.8499732 4288085770
17.127249 1.3667696 -1.8953174 4288085770
6.3608627 0.51543182 -1.8123602 4288085770
5.5388203 0.44685173 -1.8227495 4288085770
11.700049 0.91862893 -1.8472908 4288085770
15.210134 1.184743 -1.9268759 4288085770
9.4089622 0.73782873 -1.8365974 4288085770
12.382065 0.95826805 -1.8557831 4288085770
18.054268 1.3852991 -1.8809584 4288085770
6.5148525 0.50135064 -1.8154509 4288085770
12.20905 0.91936564 -1.8466344 4288085770
5.6328163 0.43180931 -1.8157988 4288085770
19.274282 1.4166636 -1.883808 4288085770
9.7639465 0.72163695 -1.8478227 4288085770
12.933051 0.94397724 -1.8631428 4288085770
15.838109 1.148414 -1.9322705 4288085770
12.780049 0.9220686 -1.8480216 4288085770
6.6648445 0.48527455 -1.8145375 4288085770
5.7488079 0.41675097 -1.8148631 4288085770
10.038938 0.69850111 -1.8399885 4288085770
13.479042 0.92669654 -1.8604971 4288085770
13.526038 0.92966604 -1.8685313 4288085770
6.8298359 0.47118908 -1.815636 4288085770
16.43409 1.10311 -1.9266362 4288085770
5.8678017 0.40269169 -1.8129302 4288085770
14.292033 0.93325996 -1.8800514 4288085770
10.436921 0.68128848 -1.8492423 4288085770
14.297021 0.92125082 -1.889045 4288085770
6.9918289 0.45610738 -1.8137317 4288085770
6.0047932 0.38862076 -1.8140095 4288085770
16.971071 1.0498475 -1.9069562 4288085770
15.229018 0.94075513 -1.9046904 4288085770
10.81391 0.66009283 -1.850479 4288085770
15.155001 0.91478801 -1.9126194 4288085770
7.1678209 0.44101763 -1.8128369 4288085770
6.1337872 0.37455702 -1.8110837 4288085770
16.087013 0.93630576 -1.9102668 4288085770
17.634056 1.0005137 -1.8943646 4288085770
11.263894 0.64185363 -1.8587674 4288085770
15.969985 0.89936042 -1.9191577 4288085770
7.3908072 0.42689735 -1.8199745 4288085770
6.2897768 0.3614746 -1.8141768 4288085770
16.834013 0.91693085 -1.893756 4288085770
7.5987988 0.41178939 -1.8211017 4288085770
11.710881 0.62162137 -1.8600525 4288085770
16.72398 0.87697816 -1.9076494 4288085770
6.4297714 0.34640583 -1.8102579 4288085770
18.552031 0.95703423 -1.8989506 4288085770
17.668011 0.89650851 -1.8803039 4288085770
7.8117905 0.39668027 -1.8202323 4288085770
12.189869 0.60037315 -1.8603585 4288085770
17.532978 0.85356951 -1.8931777 4288085770
6.606761 0.33331168 -1.8143654 4288085770
18.884995 0.88486618 -1.894118 4288085770
19.608 0.91248155 -1.9056295 4288085770
8.06178 0.38254735 -1.8253886 4288085770
6.7937517 0.32021233 -1.8184799 4288085770
12.658862 0.57613623 -1.8526555 4288085770
18.653967 0.83898401 -1.8979247 4288085770
8.3057709 0.36742133 -1.8255403 4288085770
6.9707441 0.30612192 -1.817587 4288085770
19.926954 0.82431793 -1.9047749 4288085770
13.255847 0.55482358 -1.8570416 4288085770
8.5737629 0.35228202 -1.8267084 4288085770
10.554797 0.42624772 -1.832109 4288085770
10.069795 0.40750852 -1.8207656 4288085770
11.035803 0.443995 -1.8354489 4288085770
9.6657867 0.39072046 -1.8184783 4288085770
9.3287773 0.37589216 -1.8232384 4288085770
11.585808 0.46170348 -1.8428354 4288085770
7.1597366 0.29202521 -1.8167021 4288085770
12.149816 0.47940844 -1.8452315 4288085770
8.9867697 0.36007109 -1.8219939 4288085770
8.6627617 0.34424064 -1.8207616 4288085770
12.736826 0.49610531 -1.8426424 4288085770
13.936831 0.53446478 -1.8644856 4288085770
8.3717546 0.32939231 -1.8205523 4288085770
13.407835 0.5137561 -1.8431108 4288085770
8.2207489 0.31947181 -1.819442 4288085770
7.9237471 0.30863023 -1.8142321 4288085770
8.5087538 0.32932189 -1.8196449 4288085770
8.0937462 0.31353796 -1.8193512 4288085770
14.210839 0.53433144 -1.8526709 4288085770
7.670742 0.29776278 -1.8130519 4288085770
8.8317575 0.33915153 -1.8228716 4288085770
7.4357367 0.28788441 -1.8138849 4288085770
9.1397638 0.34799507 -1.818087 4288085770
8.8787508 0.33812034 -1.8319023 4288085770
7.2067308 0.27700445 -1.8127209 4288085770
15.221836 0.55878878 -1.8753752 4288085770
7.8047419 0.29669401 -1.8121414 4288085770
9.5187664 0.35679483 -1.8223506 4288085770
6.9917269 0.26611733 -1.8115662 4288085770
7.3727274 0.2789129 -1.8198346 4288085770
9.8687725 0.36461583 -1.8185936 4288085770
6.7887211 0.25522318 -1.8114197 4288085770
16.223839 0.58026123 -1.884071 4288085770
7.5687342 0.28181636 -1.8129694 4288085770
10.283776 0.37239921 -1.8198807 4288085770
6.5937147 0.24332571 -1.8102778 4288085770
7.324729 0.26694673 -1.8087918 4288085770
17.179857 0.59577298 -1.8727307 4288085770
14.73881 0.5140385 -1.8780119 4288085770
10.775776 0.381138 -1.8272208 4288085770
6.4137106 0.23242041 -1.8091466 4288085770
9.1797419 0.32296452 -1.832093 4288085770
11.304775 0.38985834 -1.833586 4288085770
7.1017227 0.25106543 -1.8056275 4288085770
18.356867 0.61516291 -1.8705435 4288085770
7.6027184 0.26579183 -1.8229785 4288085770
6.2387047 0.22151253 -1.808019 4288085770
11.863775 0.39656377 -1.8389696 4288085770
6.9097128 0.23716345 -1.8084856 4288085770
19.88187 0.64035869 -1.8855966 4288085770
6.0826988 0.21059251 -1.809904 4288085770
12.41378 0.40028164 -1.8343449 4288085770
15.679787 0.49453598 -1.8966329 4288085770
9.5267315 0.30878094 -1.8373156 4288085770
5.9236927 0.19867718 -1.8077862 4288085770
6.7187052 0.22226405 -1.8073436 4288085770
7.8327103 0.25167292 -1.8231217 4288085770
13.10578 0.40591639 -1.841818 4288085770
6.5376987 0.20835871 -1.8072093 4288085770
5.7846861 0.18674845 -1.8096817 4288085770
13.829779 0.40953919 -1.8433111 4288085770
9.8437281 0.29262206 -1.8305163 4288085770
5.6526785 0.17581606 -1.8115828 4288085770
16.474779 0.46713072 -1.8871491 4288085770
6.3576918 0.19345516 -1.8040744 4288085770
8.0807028 0.23754466 -1.8232772 4288085770
14.71477 0.41406828 -1.857914 4288085770
5.5316687 0.16487566 -1.8164912 4288085770
6.2036829 0.17953354 -1.8069582 4288085770
15.760759 0.41850907 -1.8786262 4288085770
10.235717 0.27741796 -1.8317689 4288085770
5.4006634 0.15294513 -1.8153921 4288085770
8.3596935 0.22439787 -1.8264546 4288085770
17.468763 0.44061416 -1.8878012 4288085770
6.0536747 0.1656114 -1.8078446 4288085770
16.672762 0.41404164 -1.8702404 4288085770
10.647709 0.26220351 -1.833035 4288085770
5.2826567 0.14100632 -1.8163016 4288085770
8.6476851 0.21124718 -1.8286383 4288085770
5.9126663 0.15068465 -1.8087358 4288085770
17.739761 0.40848973 -1.8669589 4288085770
18.667746 0.41498566 -1.8955932 4288085770
5.1656494 0.12906779 -1.8162117 4288085770
11.116697 0.24695778 -1.83634 4288085770
19.065754 0.40279472 -1.874853 4288085770
5.7686596 0.13676171 -1.8066262 4288085770
8.9676752 0.19807824 -1.8328438 4288085770
19.915731 0.38533992 -1.8924152 4288085770
11.612689 0.23169878 -1.8386632 4288085770
5.6366529 0.12283106 -1.8065244 4288085770
9.25667 0.18393227 -1.8280274 4288085770
12.162677 0.21641085 -1.8420231 4288085770
5.5146437 0.10889372 -1.8084294 4288085770
9.6146622 0.17074502 -1.8302588 4288085770
12.747669 0.20110688 -1.8424069 4288085770
5.4056349 0.09594883 -1.8113439 4288085770
9.9786549 0.15755764 -1.8284943 4288085770
13.449656 0.18673599 -1.8508711 4288085770
10.399647 0.14433677 -1.8317684 4288085770
5.2856274 0.082012802 -1.81025 4288085770
14.206644 0.17133942 -1.8553716 4288085770
10.857637 0.13209659 -1.8350687 4288085770
15.07163 0.1558836 -1.8639456 4288085770
5.1866179 0.068062812 -1.8131703 4288085770
11.345628 0.11884154 -1.8373884 4288085770
16.041616 0.14037381 -1.8715907 4288085770
11.880621 0.10656197 -1.8397411 4288085770
17.118605 0.12380983 -1.8773078 4288085770
12.483609 0.093245491 -1.8441391 4288085770
18.352589 0.1071633 -1.8841316 4288085770
13.1576 0.080891192 -1.8495861 4288085770
19.787577 0.091410622 -1.8930925 4288085770
13.90759 0.068498105 -1.8540847 4288085770
14.733581 0.057064652 -1.8596357 4288085770
15.708566 0.045549795 -1.870288 4288085770
16.781555 0.033986181 -1.8780066 4288085770
19.478554 0.028585367 -1.8758324 4288085770
18.015543 0.023337193 -1.8878353 4288085770
18.051556 0.020334415 -1.8668574 4288085770
19.405535 0.012609243 -1.8947699 4288085770
16.781559 0.012004033 -1.8549888 4288085770
15.733556 0.0025513098 -1.8522699 4288085770
14.774555 -0.0079454333 -1.8466105 4288085770
19.895521 -0.03463142 -1.8770646 4288085770
13.927554 -0.017498951 -1.8390279 4288085770
18.391521 -0.048839081 -1.8640324 4288085770
13.168551 -0.029099733 -1.833503 4288085770
5.1695776 0.0010718778 -1.8180981 4288085770
12.507548 -0.039753783 -1.8310455 4288085770
17.116516 -0.064170435 -1.8571544 4288085770
11.908543 -0.051440064 -1.8286294 4288085770
16.028513 -0.079600617 -1.8524034 4288085770
5.28057 -0.012985103 -1.8181605 4288085770
11.361538 -0.063153386 -1.8262482 4288085770
15.06551 -0.094095096 -1.8467379 4288085770
10.872532 -0.075898357 -1.8259054 4288085770
5.3965607 -0.027046237 -1.8202269 4288085770
14.204502 -0.10964337 -1.8421404 4288085770
10.423526 -0.08766415 -1.8255907 4288085770
13.454497 -0.12425017 -1.8386191 4288085770
5.4995575 -0.040094625 -1.8142849 4288085770
9.9945221 -0.10043801 -1.8222884 4288085770
12.761493 -0.13888432 -1.8321364 4288085770
5.6385469 -0.054170087 -1.8193669 4288085770
9.6525106 -0.11326398 -1.8280452 4288085770
12.162488 -0.1525712 -1.830718 4288085770
5.7545424 -0.06822601 -1.8144333 4288085770
9.3015032 -0.12608066 -1.8277959 4288085770
11.628481 -0.16829258 -1.8303422 4288085770
5.1565371 -0.06492193 -1.8240291 4288085770
5.9165287 -0.083315745 -1.82253 4288085770
8.979496 -0.13891242 -1.827566 4288085770
11.126472 -0.18302988 -1.8289888 4288085770
5.2795286 -0.076987654 -1.8271018 4288085770
6.0475235 -0.097380295 -1.8186067 4288085770
8.6394949 -0.15072948 -1.8203245 4288085770
19.016329 -0.3681848 -1.8981994 4288085770
5.3895245 -0.088041365 -1.8231668 4288085770
10.679463 -0.19779727 -1.8296725 4288085770
18.608347 -0.36395416 -1.8739258 4288085770
6.2065134 -0.11246398 -1.8207017 4288085770
17.685335 -0.37048534 -1.8892933 4288085770
5.5215178 -0.10011106 -1.825246 4288085770
8.3784847 -0.16459671 -1.8251352 4288085770
10.283454 -0.21259272 -1.8323908 4288085770
17.41234 -0.38732541 -1.8660942 4288085770
6.3525095 -0.12653641 -1.8167887 4288085770
16.488342 -0.37085336 -1.8774794 4288085770
5.6455126 -0.11217283 -1.8223197 4288085770
8.1114779 -0.17745623 -1.8239424 4288085770
6.5374985 -0.14163524 -1.8209015 4288085770
9.8894472 -0.22738534 -1.8301103 4288085770
15.467344 -0.36931765 -1.8717868 4288085770
5.7715092 -0.12423488 -1.8183947 4288085770
16.349335 -0.40976655 -1.8593534 4288085770
6.7184896 -0.15572977 -1.8220123 4288085770
14.568351 -0.36684471 -1.8651775 4288085770
5.9314995 -0.13632078 -1.822493 4288085770
7.8474741 -0.19031501 -1.8197516 4288085770
9.5594358 -0.24221659 -1.8348733 4288085770
13.741357 -0.36240926 -1.8586189 4288085770
6.9194794 -0.1718362 -1.8251354 4288085770
6.0884914 -0.14840361 -1.8245894 4288085770
13.013364 -0.35702616 -1.8531281 4288085770
6.2474861 -0.15948607 -1.824688 4288085770
15.440324 -0.43228865 -1.8537172 4288085770
7.1044731 -0.18592983 -1.8222492 4288085770
7.610467 -0.20319009 -1.8185791 4288085770
12.35837 -0.3506819 -1.8486875 4288085770
6.4174795 -0.17157422 -1.8247932 4288085770
9.2084312 -0.25702929 -1.8296217 4288085770
7.322464 -0.20104444 -1.8243846 4288085770
19.683208 -0.58653235 -1.9034772 4288085770
11.776375 -0.34437707 -1.8462968 4288085770
6.5984735 -0.18266816 -1.8249069 4288085770
7.5634527 -0.21717258 -1.828535 4288085770
18.22723 -0.56076503 -1.8905079 4288085770
11.24838 -0.337102 -1.8459435 4288085770
6.7934656 -0.1947709 -1.8270293 4288085770
7.4024582 -0.2170825 -1.8204253 4288085770
14.617314 -0.45385695 -1.8501396 4288085770
10.751386 -0.32884079 -1.842612 4288085770
7.7964449 -0.23229279 -1.8276807 4288085770
6.9904594 -0.20587248 -1.8261541 4288085770
16.971251 -0.53710419 -1.8806732 4288085770
8.8624296 -0.270843 -1.8223743 4288085770
7.1994543 -0.2169811 -1.8262869 4288085770
10.315388 -0.32161438 -1.8433212 4288085770
8.0524378 -0.24742576 -1.8278421 4288085770
15.887267 -0.51553428 -1.8729535 4288085770
7.4234476 -0.22809827 -1.8274299 4288085770
9.9213905 -0.31341141 -1.8460598 4288085770
9.529397 -0.30320579 -1.8438013 4288085770
7.6774378 -0.24023339 -1.8315928 4288085770
8.3414259 -0.26357901 -1.8320254 4288085770
9.1734037 -0.29401958 -1.8425666 4288085770
7.9324322 -0.25136605 -1.8317571 4288085770
14.942281 -0.49503988 -1.8693274 4288085770
8.209425 -0.26151171 -1.8339372 4288085770
8.5204172 -0.27267662 -1.8381395 4288085770
8.809413 -0.28282553 -1.8363279 4288085770
8.628418 -0.2797274 -1.8312072 4288085770
14.090296 -0.47359169 -1.8627652 4288085770
7.1844521 -0.22996664 -1.8182653 4288085770
8.9624043 -0.29690564 -1.8374203 4288085770
13.303312 -0.45317581 -1.8542463 4288085770
13.877307 -0.47446698 -1.8446195 4288085770
8.5754213 -0.28569192 -1.8211659 4288085770
9.3133955 -0.31308973 -1.8396457 4288085770
12.64832 -0.43583471 -1.8538146 4288085770
9.6873827 -0.33028653 -1.842886 4288085770
12.012337 -0.41549903 -1.8473985 4288085770
10.081374 -0.34649229 -1.8441409 4288085770
11.462346 -0.3982119 -1.8460383 4288085770
10.981354 -0.38096303 -1.847725 4288085770
10.53336 -0.36473134 -1.8494335 4288085770
6.9974432 -0.2438699 -1.8201256 4288085770
8.3084126 -0.30055204 -1.8209713 4288085770
13.211298 -0.49511692 -1.8411491 4288085770
19.89513 -0.75862789 -1.887483 4288085770
6.8174353 -0.25777602 -1.8209906 4288085770
8.0704031 -0.31542873 -1.8227961 4288085770
18.56913 -0.76993054 -1.878572 4288085770
12.618288 -0.51580566 -1.8387282 4288085770
6.6334295 -0.27067697 -1.8178535 4288085770
7.8283978 -0.32930031 -1.8206189 4288085770
17.374132 -0.77929908 -1.8667512 4288085770
12.08128 -0.53552425 -1.8373462 4288085770
6.4604244 -0.28358442 -1.8157238 4288085770
7.6193857 -0.34519276 -1.8234625 4288085770
16.393126 -0.79378498 -1.8630717 4288085770
11.595268 -0.55626941 -1.8359977 4288085770
6.3174133 -0.29851121 -1.8186127 4288085770
7.400382 -0.35907468 -1.8193007 4288085770
15.526119 -0.80833101 -1.8604695 4288085770
11.177253 -0.57805371 -1.8396944 4288085770
6.1714058 -0.31143495 -1.8195014 4288085770
7.2063732 -0.37397343 -1.820155 4288085770
14.734116 -0.82291377 -1.8549179 4288085770
10.755246 -0.59683049 -1.8363907 4288085770
6.0323973 -0.32536227 -1.8203937 4288085770
7.0133667 -0.3878696 -1.817011 4288085770
19.078922 -1.1242138 -1.9096335 4288085770
14.045108 -0.83855313 -1.8534355 4288085770
10.397232 -0.61764598 -1.840129 4288085770
5.8973904 -0.33929008 -1.8192886 4288085770
6.8473577 -0.40278354 -1.8188841 4288085770
19.533882 -1.2044444 -1.9028788 4288085770
17.928925 -1.135604 -1.8958411 4288085770
13.415103 -0.85322165 -1.8499937 4288085770
5.7603846 -0.35221612 -1.817183 4288085770
10.053221 -0.6374656 -1.8398774 4288085770
6.6823492 -0.41769651 -1.8187579 4288085770
18.615864 -1.2519572 -1.8922151 4288085770
16.934923 -1.1470798 -1.8881545 4288085770
12.862093 -0.86993331 -1.8506025 4288085770
5.6433754 -0.36715549 -1.8190892 4288085770
9.7232122 -0.65629101 -1.837636 4288085770
6.5203428 -0.43260947 -1.8166335 4288085770
16.058918 -1.1556195 -1.8835502 4288085770
5.5423641 -0.38210475 -1.8230062 4288085770
12.334085 -0.88565487 -1.8472291 4288085770
6.3673353 -0.44652784 -1.8155161 4288085770
17.763849 -1.2965027 -1.8795985 4288085770
9.4062042 -0.67512238 -1.834403 4288085770
5.4323559 -0.39604697 -1.8239179 4288085770
15.269917 -1.1622061 -1.8810066 4288085770
11.861078 -0.9024058 -1.8448919 4288085770
6.2323256 -0.46245709 -1.8164092 4288085770
9.1371908 -0.69498324 -1.8372021 4288085770
17.042828 -1.3431205 -1.8720691 4288085770
5.3263464 -0.40999129 -1.8248321 4288085770
14.542916 -1.1668249 -1.8785065 4288085770
6.1013165 -0.47738838 -1.8173059 4288085770
11.456065 -0.92119664 -1.8485994 4288085770
8.8701811 -0.71384209 -1.8360031 4288085770
13.86092 -1.1664648 -1.8730409 4288085770
5.2223396 -0.42293513 -1.8237485 4288085770
16.425804 -1.3907959 -1.8696096 4288085770
5.9773083 -0.49232262 -1.8172071 4288085770
11.056056 -0.93798631 -1.8473117 4288085770
8.621171 -0.73270959 -1.8338162 4288085770
13.238921 -1.1661383 -1.8706161 4288085770
5.8523016 -0.50625545 -1.8161085 4288085770
10.713044 -0.9578079 -1.8490604 4288085770
19.767601 -1.7905242 -1.8595666 4288085770
15.94777 -1.4455513 -1.8772385 4288085770
8.391161 -0.7515884 -1.8336421 4288085770
12.657925 -1.1628318 -1.8662214 4288085770
5.7392912 -0.52119607 -1.8170171 4288085770
18.900587 -1.7840968 -1.8919803 4288085770
10.373034 -0.97462946 -1.8488132 4288085770
8.1751509 -0.77047449 -1.8334775 4288085770
12.109929 -1.1575422 -1.8618509 4288085770
15.415749 -1.49027 -1.8738387 4288085770
17.879593 -1.7535696 -1.898308 4288085770
19.207613 -1.8881603 -1.7671058 4293729569
5.6292839 -0.53613734 -1.8169276 4288085770
10.045029 -0.99045491 -1.8455751 4288085770
11.609934 -1.1522785 -1.8585128 4288085770
7.9731398 -0.78936797 -1.8333223 4288085770
16.946609 -1.7220865 -1.9026963 4288085770
14.977721 -1.5380417 -1.8755002 4288085770
5.5302734 -0.55108595 -1.8188456 4288085770
11.179934 -1.1490566 -1.8622208 4288085770
17.989645 -1.8724974 -1.730287 4293729569
9.7620173 -1.0093069 -1.8463649 4288085770
16.028627 -1.6856054 -1.8990985 4288085770
7.7711315 -0.80725896 -1.8301678 4288085770
10.779932 -1.1458496 -1.864949 4288085770
5.4342642 -0.56703532 -1.8197646 4288085770
15.164652 -1.64715 -1.8925389 4288085770
14.573695 -1.5858309 -1.8771849 4288085770
9.4720097 -1.0261521 -1.8431513 4288085770
17.040655 -1.8719896 -1.7136388 4293729569
10.365938 -1.1366308 -1.8616725 4288085770
7.5901213 -0.82616323 -1.8300266 4288085770
14.420671 -1.6137611 -1.8910573 4288085770
5.3422527 -0.58298737 -1.8216864 4288085770
9.9779453 -1.1274254 -1.8584137 4288085770
9.2139988 -1.0440155 -1.8419589 4288085770
14.208665 -1.6346422 -1.880895 4288085770
13.691694 -1.5763761 -1.8845888 4288085770
16.450632 -1.8996904 -1.726213 4293729569
7.4121132 -0.84406751 -1.8278884 4288085770
17.260712 -2.0279465 -1.5096627 4293729569
5.2462473 -0.59693521 -1.8206069 4288085770
9.6199503 -1.1182375 -1.8571754 4288085770
13.05971 -1.5460453 -1.8831806 4288085770
8.9719896 -1.0618873 -1.8407772 4288085770
9.2839565 -1.1070608 -1.8559536 4288085770
15.834617 -1.9183742 -1.7337763 4293729569
7.266099 -0.86499292 -1.8317693 4288085770
13.857639 -1.6824589 -1.8826154 4288085770
12.424735 -1.508707 -1.8737761 4288085770
8.9759607 -1.0978996 -1.8557494 4288085770
17.053638 -2.1128678 -1.5504524 4293729569
11.90675 -1.4804373 -1.8744439 4288085770
8.7479792 -1.0807689 -1.8406067 4288085770
17.169655 -2.1548843 -1.4934976 4293729569
7.0980911 -0.88290083 -1.8276376 4288085770
8.656971 -1.0847287 -1.8505405 4288085770
15.300596 -1.9401051 -1.747393 4293729569
11.354774 -1.4451416 -1.864094 4288085770
13.516616 -1.7262788 -1.8813456 4288085770
8.3859739 -1.0745876 -1.8513623 4288085770
16.679592 -2.1736872 -1.5711471 4293729569
8.5179729 -1.0976447 -1.8364336 4288085770
10.851798 -1.4108721 -1.854777 4288085770
6.9650774 -0.90283227 -1.8305281 4288085770
16.807625 -2.2266879 -1.4851917 4293729569
8.0989876 -1.0594327 -1.8451771 4288085770
14.679593 -1.9437792 -1.7459645 4293729569
16.987104 -2.2712126 -0.73727769 4293729569
10.424813 -1.3836476 -1.852506 4288085770
17.027391 -2.2829061 -0.30629534 4293729569
16.969778 -2.2765675 -1.216262 4293729569
13.166596 -1.7680914 -1.877071 4288085770
16.951853 -2.2924638 -1.0932366 4293729569
7.8539906 -1.0493052 -1.8460165 4288085770
8.3319588 -1.1185484 -1.8392874 4288085770
16.987093 -2.3142009 -0.72324276 4293729569
10.034826 -1.3584437 -1.8522586 4288085770
16.558517 -2.2646534 -1.6119902 4293729569
16.979368 -2.3278775 -0.30322599 4293729569
6.8230677 -0.92175591 -1.8294132 4288085770
7.612998 -1.0361774 -1.843861 4288085770
14.080595 -1.9414643 -1.7435555 4293729569
9.6778393 -1.3332572 -1.8520339 4288085770
16.797548 -2.3436956 -1.5050896 4293729569
16.92668 -2.3626001 -1.2911626 4293729569
16.912062 -2.3781559 -0.71713954 4293729569
7.3880053 -1.0240588 -1.8427157 4288085770
12.747595 -1.7928571 -1.8577629 4288085770
16.920336 -2.3908463 -0.30413452 4293729569
8.1449499 -1.1374495 -1.8391418 4288085770
9.3308516 -1.3080748 -1.8508158 4288085770
16.913767 -2.4024708 -1.1311213 4293729569
16.937019 -2.4251866 -0.74111849 4293729569
6.6970549 -0.94169015 -1.8313082 4288085770
7.1600151 -1.0089364 -1.8385706 4288085770
16.427443 -2.3546116 -1.6498276 4293729569
13.539596 -1.9401809 -1.7431854 4293729569
16.934286 -2.4358816 -0.34210756 4293729569
9.0208626 -1.2859145 -1.8526206 4288085770
16.921579 -2.4536564 -1.3710854 4293729569
6.9710188 -0.99883956 -1.8414483 4288085770
8.7158737 -1.2617542 -1.8514304 4288085770
16.874462 -2.4717531 -1.5310385 4293729569
7.9729376 -1.1573582 -1.8390057 4288085770
16.972006 -2.5051727 -0.70107746 4293729569
12.112636 -1.7824835 -1.803335 4288085770
6.781024 -0.98574072 -1.8423278 4288085770
16.946268 -2.5158596 -0.30705088 4293729569
8.4248886 -1.2376014 -1.8502496 4288085770
16.947676 -2.5225215 -1.1770473 4293729569
6.5670462 -0.96061921 -1.8292011 4288085770
12.958608 -1.92487 -1.733799 4293729569
16.233379 -2.4325306 -1.6786312 4293729569
16.956944 -2.5472081 -0.7590332 4293729569
6.5800352 -0.97063166 -1.8372014 4288085770
17.001467 -2.5557628 -1.4590573 4293729569
16.998192 -2.557945 -0.38505238 4293729569
8.1509018 -1.2144566 -1.84808 4288085770
6.4140396 -0.9585461 -1.8390965 4288085770
7.7919302 -1.1742601 -1.8358659 4288085770
7.890914 -1.191319 -1.8459197 4288085770
17.990227 -2.7654216 -1.6505653 4293729569
6.2450466 -0.94545686 -1.8379903 4288085770
11.553672 -1.775154 -1.7549562 4293729569
12.451614 -1.9166023 -1.7304571 4293729569
7.6419287 -1.1671867 -1.8427678 4288085770
6.4500341 -0.98055732 -1.8301022 4288085770
18.364168 -2.8596263 -1.6647453 4293729569
6.0730572 -0.93036366 -1.8338838 4288085770
16.017326 -2.5054343 -1.7024238 4293729569
7.4209375 -1.1470718 -1.8436319 4288085770
5.9170647 -0.91728115 -1.8327864 4288085770
7.194952 -1.1229514 -1.8404959 4288085770
7.6439171 -1.1951828 -1.8377451 4288085770
11.956625 -1.9023387 -1.7241281 4293729569
5.7760706 -0.90420812 -1.8336997 4288085770
6.9889641 -1.1018423 -1.8383709 4288085770
6.3410225 -1.0004995 -1.8310087 4288085770
18.170122 -2.9245384 -1.6835599 4293729569
17.391201 -2.7981193 -1.6651282 4293729569
11.213671 -1.7979615 -1.736703 4293729569
5.6280785 -0.89012903 -1.8316087 4288085770
6.8029728 -1.0827465 -1.8402582 4288085770
5.5090828 -0.87906963 -1.8355352 4288085770
15.75928 -2.5713117 -1.720193 4293729569
6.6049862 -1.0606407 -1.8371397 4288085770
7.4989052 -1.2151055 -1.8376271 4288085770
6.4239988 -1.0395446 -1.835032 4288085770
5.3810883 -0.86600333 -1.8364575 4288085770
11.507633 -1.890101 -1.720829 4293729569
16.689203 -2.7687669 -1.6836705 4293729569
6.2500114 -1.0184513 -1.8319292 4288085770
5.2570944 -0.85293847 -1.8363823 4288085770
6.2360115 -1.0194433 -1.8309184 4288085770
6.0980196 -1.0003734 -1.8338389 4288085770
18.262028 -3.0716023 -1.707504 4293729569
10.950661 -1.8298148 -1.726495 4293729569
5.9430304 -0.981291 -1.8317477 4288085770
5.7960405 -0.96221411 -1.8316617 4288085770
15.417251 -2.6201353 -1.7249184 4293729569
7.348896 -1.234025 -1.8365064 4288085770
11.057645 -1.8728608 -1.714533 4293729569
5.6490536 -0.94213498 -1.8285767 4288085770
16.066196 -2.7454569 -1.7042621 4293729569
5.5250597 -0.9260717 -1.8305042 4288085770
5.4050674 -0.90900987 -1.8314354 4288085770
5.2850771 -0.89094722 -1.8313674 4288085770
6.1310005 -1.0393867 -1.8308275 4288085770
10.624663 -1.847627 -1.705255 4293729569
18.189959 -3.1895678 -1.7143593 4293729569
10.665655 -1.8586531 -1.7112743 4293729569
15.531188 -2.7301967 -1.729907 4293729569
7.2168837 -1.2549546 -1.8363963 4288085770
15.119217 -2.6729836 -1.7316704 4293729569
6.0359869 -1.0603369 -1.8327422 4288085770
10.365646 -1.8595045 -1.723066 4293729569
14.919195 -2.6968873 -1.7435133 4293729569
10.378655 -1.8754879 -1.6930617 4293729569
18.053905 -3.2954941 -1.7131803 4293729569
7.088871 -1.2758867 -1.8372889 4288085770
14.780195 -2.7148044 -1.7304032 4293729569
5.9399767 -1.0792842 -1.8316582 4288085770
10.107632 -1.8623799 -1.7378851 4293729569
14.196233 -2.6335051 -1.7370679 4293729569
6.9638605 -1.2958193 -1.8361841 4288085770
10.198638 -1.9143898 -1.6899045 4293729569
17.998838 -3.4154661 -1.7170455 4293729569
9.8186312 -1.8562334 -1.7446902 4293729569
13.477275 -2.5641205 -1.7246296 4293729569
14.48317 -2.7606485 -1.7311612 4293729569
5.8489656 -1.100235 -1.8315755 4288085770
6.8558464 -1.3187625 -1.8380885 4288085770
9.5106354 -1.8430731 -1.7464876 4293729569
19.325623 -3.7921758 -1.7456521 4293729569
10.027618 -1.9522965 -1.6867541 4293729569
17.936773 -3.533433 -1.7189074 4293729569
14.127159 -2.7914538 -1.7218908 4293729569
5.758955 -1.1191856 -1.8304952 4288085770
9.2206411 -1.8299223 -1.7482975 4293729569
6.7458353 -1.3397033 -1.8379933 4288085770
18.508648 -3.7527413 -1.736123 4293729569
9.8636007 -1.9902059 -1.6826085 4293729569
17.961697 -3.6684499 -1.7268153 4293729569
5.6719446 -1.1381377 -1.8294179 4288085770
10.493632 -2.1354144 -1.5259244 4293729569
8.9506454 -1.817783 -1.7511212 4293729569
13.792148 -2.8222709 -1.712636 4293729569
6.6418228 -1.3606473 -1.837904 4288085770
17.760668 -3.716346 -1.7296441 4293729569
10.363592 -2.1553767 -1.5678202 4293729569
8.7096424 -1.809661 -1.7579626 4293729569
9.7655687 -2.0401573 -1.6885024 4293729569
5.5899334 -1.1580919 -1.8283442 4288085770
10.572923 -2.222074 -1.0269103 4293729569
10.508718 -2.218272 -1.3318698 4293729569
10.223556 -2.1713319 -1.6067121 4293729569
8.5036364 -1.8045615 -1.7698257 4293729569
6.5368118 -1.3805895 -1.8368152 4288085770
10.553238 -2.2616847 -0.52986544 4293729569
10.501878 -2.2520676 -1.0688386 4293729569
10.550207 -2.2677135 -0.56985879 4293729569
10.557405 -2.2804868 -0.26685345 4293729569
9.6335468 -2.0820849 -1.6873794 4293729569
5.5249176 -1.1810586 -1.8322796 4288085770
10.006537 -2.1692381 -1.6335657 4293729569
8.3436193 -1.8074918 -1.7897136 4288085770
10.4619 -2.2760062 -1.0167924 4293729569
10.432676 -2.2762392 -1.3437726 4293729569
6.4417982 -1.4025376 -1.8367314 4288085770
10.532378 -2.3164821 -0.27880836 4293729569
10.426828 -2.3030508 -1.1007475 4293729569
9.8315125 -2.1741695 -1.6654423 4293729569
10.481155 -2.3197024 -0.60477114 4293729569
10.481206 -2.3236427 -0.52676809 4293729569
8.1676102 -1.8054099 -1.8045945 4288085770
10.499393 -2.3394351 -0.2407679 4293729569
5.455904 -1.2020208 -1.8332139 4288085770
9.4985285 -2.1200094 -1.6832573 4293729569
10.413868 -2.3409758 -1.012709 4293729569
10.404629 -2.3452351 -1.3606997 4293729569
9.6005039 -2.1620641 -1.6862938 4293729569
6.3467884 -1.4224843 -1.8346493 4288085770
8.014595 -1.8073429 -1.8234876 4288085770
10.485332 -2.3824654 -0.29172486 4293729569
10.416766 -2.3680732 -1.13969 4293729569
10.448098 -2.3787117 -0.64170259 4293729569
10.460168 -2.3956277 -0.52369756 4293729569
9.3185101 -2.1369228 -1.6951207 4293729569
5.3908901 -1.2229859 -1.8351511 4288085770
10.469373 -2.4053988 -0.21569602 4293729569
7.864584 -1.8062763 -1.8403857 4288085770
9.4074993 -2.1689618 -1.6861563 4293729569
10.429823 -2.421983 -1.0136567 4293729569
10.394578 -2.418241 -1.3776361 4293729569
6.2567759 -1.443434 -1.8335696 4288085770
9.0855083 -2.1198111 -1.7099746 4293729569
10.395705 -2.4310906 -1.1796266 4293729569
10.455035 -2.4457438 -0.68165523 4293729569
10.486281 -2.4594762 -0.30766559 4293729569
7.7165709 -1.8042105 -1.8572853 4288085770
10.483125 -2.478637 -0.52264863 4293729569
5.327877 -1.2439514 -1.8360894 4288085770
10.509346 -2.4873991 -0.19065951 4293729569
8.8585072 -2.1017029 -1.7248333 4293729569
9.3014755 -2.2119033 -1.68505 4293729569
7.5455675 -1.7961277 -1.867174 4288085770
6.1787615 -1.4663916 -1.8344966 4288085770
10.489771 -2.5130141 -1.016627 4293729569
10.411519 -2.499263 -1.3985845 4293729569
10.44663 -2.5091517 -1.2276007 4293729569
10.51896 -2.5268104 -0.72763592 4293729569
8.5685253 -2.0655501 -1.7236629 4293729569
10.562216 -2.5555286 -0.3276428 4293729569
7.3505745 -1.779026 -1.8690532 4288085770
5.2638645 -1.2649153 -1.8360269 4288085770
8.3165359 -2.0364213 -1.7285128 4293729569
9.2294445 -2.2638664 -1.6889598 4293729569
6.1057472 -1.4893526 -1.8364269 4288085770
14.184772 -3.5114679 -1.7203772 4293729569
7.1485863 -1.7579186 -1.8679308 4288085770
12.405025 -3.0765138 -1.6834987 4293729569
8.0855465 -2.0093033 -1.7333754 4293729569
5.2058516 -1.2858833 -1.8369685 4288085770
6.9416008 -1.7338058 -1.862807 4288085770
6.0347328 -1.5123137 -1.8373585 4288085770
9.1544161 -2.3118253 -1.6898708 4293729569
13.6408 -3.4631791 -1.7150444 4293729569
7.8075705 -1.968152 -1.7262167 4293729569
12.262995 -3.1314375 -1.6833602 4293729569
6.770607 -1.7167165 -1.8647026 4288085770
7.5835838 -1.9380358 -1.7280862 4293729569
5.1448393 -1.3068488 -1.836908 4288085770
6.5866213 -1.6936163 -1.8605936 4288085770
13.088838 -3.4028811 -1.703715 4293729569
5.9707165 -1.5372802 -1.8402934 4288085770
7.4085875 -1.9189508 -1.7379807 4293729569
9.0933847 -2.3647938 -1.6937873 4293729569
12.125965 -3.1853631 -1.6822255 4293729569
6.4186316 -1.6735268 -1.8594934 4288085770
7.2065992 -1.890846 -1.7398636 4293729569
12.588868 -3.3516135 -1.6964139 4293729569
6.2506447 -1.6514357 -1.8563945 4288085770
5.9017029 -1.5602416 -1.8402263 4288085770
6.9976158 -1.8587352 -1.7387446 4293729569
9.0403528 -2.4177668 -1.6977093 4293729569
12.02093 -3.2473073 -1.6841066 4293729569
6.1006536 -1.6333562 -1.8563049 4288085770
6.8096294 -1.8306367 -1.7396371 4293729569
12.115897 -3.3003597 -1.6891308 4293729569
5.9526625 -1.6142777 -1.8562173 4288085770
6.6756277 -1.8155757 -1.7525563 4293729569
5.845686 -1.5862122 -1.8431658 4288085770
8.9793234 -2.4687343 -1.6996275 4293729569
6.5796156 -1.8095404 -1.7734945 4293729569
5.797677 -1.591192 -1.8511281 4288085770
11.920895 -3.3092535 -1.684991 4293729569
11.655931 -3.2451124 -1.6808594 4293729569
6.5025997 -1.807518 -1.7984426 4288085770
5.6476917 -1.5681088 -1.8460422 4288085770
5.7876711 -1.61018 -1.8441055 4288085770
8.9162951 -2.5186977 -1.6985451 4293729569
6.4395781 -1.8095059 -1.8273971 4288085770
5.5117025 -1.5470352 -1.8439643 4288085770
11.271948 -3.2069104 -1.6806264 4293729569
11.842854 -3.3772137 -1.6888859 4293729569
6.355566 -1.8034778 -1.8493435 4288085770
5.3937101 -1.5309733 -1.8448948 4288085770
5.7256575 -1.6331451 -1.8440431 4288085770
6.228569 -1.7844174 -1.8582704 4288085770
5.2667217 -1.5099045 -1.8428231 4288085770
10.919965 -3.1717265 -1.6824127 4293729569
8.863266 -2.5706692 -1.7004678 4293729569
6.0735846 -1.7553341 -1.856186 4288085770
11.744823 -3.4381588 -1.6867723 4293729569
5.1567278 -1.4938476 -1.844759 4288085770
5.9295988 -1.7292573 -1.8551067 4288085770
5.6676435 -1.6571116 -1.8429824 4288085770
10.618972 -3.147573 -1.6892253 4293729569
5.7886114 -1.7021823 -1.8540301 4288085770
8.7952414 -2.618629 -1.6973835 4293729569
5.6406326 -1.6710997 -1.847952 4288085770
11.684781 -3.5091269 -1.6896772 4293729569
5.5026493 -1.6420239 -1.8438792 4288085770
10.265997 -3.1023846 -1.6860183 4293729569
5.6186275 -1.6820848 -1.8449274 4288085770
5.3766642 -1.6159559 -1.8418121 4288085770
5.2686739 -1.5939003 -1.8437544 4288085770
8.7612076 -2.6756105 -1.7003156 4293729569
11.619743 -3.5790915 -1.6905797 4293729569
5.1566868 -1.5698406 -1.8426955 4288085770
9.9490137 -3.0652184 -1.6868298 4293729569
5.5596151 -1.7040499 -1.8428679 4288085770
8.7151785 -2.7285838 -1.6992425 4293729569
9.6440325 -3.0280573 -1.6866491 4293729569
11.554704 -3.6480551 -1.6904826 4293729569
5.5126009 -1.7290227 -1.8428142 4288085770
9.3360529 -2.9848938 -1.6844708 4293729569
8.691144 -2.7885711 -1.703179 4293729569
11.518662 -3.7250361 -1.6933994 4293729569
5.477581 -1.7580056 -1.8477656 4288085770
9.0520744 -2.9457428 -1.6833055 4293729569
8.634119 -2.8375349 -1.6981014 4293729569
11.493615 -3.8060231 -1.6963208 4293729569
5.4325676 -1.7819787 -1.846714 4288085770
8.7610989 -2.9015863 -1.6791394 4293729569
11.755543 -3.9381611 -1.7003995 4293729569
8.5431061 -2.873476 -1.6860106 4293729569
8.5511017 -2.8804815 -1.6880107 4293729569
5.3535681 -1.7939259 -1.8346483 4288085770
11.472568 -3.8890119 -1.6992433 4293729569
11.287596 -3.8409119 -1.6951534 4293729569
8.3720989 -2.8663962 -1.7008979 4293729569
8.4840851 -2.9204381 -1.6799332 4293729569
10.881636 -3.7606995 -1.6959363 4293729569
5.2385845 -1.7928436 -1.8085678 4288085770
11.456521 -3.9740024 -1.7011678 4293729569
8.195097 -2.8513117 -1.7137873 4293729569
10.530665 -3.6945183 -1.7007462 4293729569
8.5190344 -3.0004625 -1.6908951 4293729569
5.1415949 -1.7967755 -1.7884957 4288085770
8.0420904 -2.8412421 -1.7296892 4293729569
10.181699 -3.624336 -1.7025602 4293729569
7.8610935 -2.8201528 -1.7385801 4293729569
5.0446062 -1.7987057 -1.7664253 4293729569
8.5269928 -3.0694675 -1.695847 4293729569
9.8767242 -3.5661807 -1.7093951 4293729569
7.6850977 -2.7980649 -1.7464752 4293729569
9.5337639 -3.4899983 -1.7072173 4293729569
4.9586163 -1.8036439 -1.7473598 4293729569
8.529954 -3.1374683 -1.6987964 4293729569
7.4731178 -2.7599521 -1.7453578 4293729569
9.2098036 -3.416826 -1.7040503 4293729569
4.8896179 -1.8135958 -1.7343022 4293729569
7.2701368 -2.7228436 -1.7442456 4293729569
8.9268341 -3.3546777 -1.7049029 4293729569
8.5459099 -3.2104783 -1.703751 4293729569
8.6478662 -3.2915304 -1.7047589 4293729569
7.0301723 -2.6687076 -1.7321209 4293729569
4.8536072 -1.835572 -1.7312584 4293729569
8.5528698 -3.2804806 -1.7057015 4293729569
8.3928947 -3.2343965 -1.7056264 4293729569
6.8401918 -2.6316044 -1.7290173 4293729569
4.825592 -1.8605549 -1.7312175 4293729569
8.1349258 -3.1722598 -1.7044957 4293729569
6.6672087 -2.5985124 -1.7289224 4293729569
8.5538321 -3.3484793 -1.7066497 4293729569
7.9089518 -3.120141 -1.7053794 4293729569
6.4692373 -2.5524013 -1.7208202 4293729569
4.7785883 -1.8765218 -1.7231705 4293729569
8.5707912 -3.422487 -1.7086043 4293729569
7.6939745 -3.0700295 -1.7082688 4293729569
6.2662706 -2.5022852 -1.7087175 4293729569
4.7065964 -1.8814682 -1.7051148 4293729569
7.4899988 -3.0209229 -1.7101649 4293729569
6.1012917 -2.4651942 -1.7046307 4293729569
8.5827494 -3.4954922 -1.7105565 4293729569
7.2620325 -2.9597993 -1.7050537 4293729569
5.919322 -2.4190893 -1.6935393 4293729569
4.660593 -1.896435 -1.6960692 4293729569
7.0790529 -2.9147043 -1.7079612 4293729569
8.6047068 -3.5725029 -1.7125123 4293729569
5.7643423 -2.3830042 -1.6894586 4293729569
6.8910789 -2.8656042 -1.7068682 4293729569
4.6345806 -1.9194175 -1.6940315 4293729569
5.570384 -2.3268869 -1.6703663 4293729569
6.7520866 -2.8355377 -1.7167946 4293729569
8.6246643 -3.6495109 -1.712467 4293729569
5.3274479 -2.2477324 -1.6352576 4293729569
6.5751123 -2.7874422 -1.7147081 4293729569
4.6045723 -1.9393955 -1.6889931 4293729569
6.4121351 -2.7423563 -1.7146291 4293729569
5.1644812 -2.2016354 -1.621179 4293729569
8.6426229 -3.7245176 -1.7124219 4293729569
4.5595703 -1.9523623 -1.67895 4293729569
6.2481604 -2.695267 -1.7115508 4293729569
5.0464954 -2.1725717 -1.6201183 4293729569
6.0761919 -2.6431715 -1.7054709 4293729569
4.8935299 -2.1264789 -1.6050464 4293729569
8.7015676 -3.8185508 -1.7193909 4293729569
4.5145693 -1.965328 -1.6679065 4293729569
5.9042253 -2.5890729 -1.6953925 4293729569
4.8015366 -2.1064327 -1.6089967 4293729569
5.760251 -2.5439944 -1.6923264 4293729569
8.7445183 -3.9055736 -1.7223542 4293729569
4.7005491 -2.0803788 -1.6089454 4293729569
4.4725685 -1.9782954 -1.6568655 4293729569
5.5932865 -2.4888973 -1.680252 4293729569
4.5995626 -2.0533228 -1.6068949 4293729569
5.330368 -2.3877275 -1.6381462 4293729569
4.4615536 -2.0042875 -1.6568359 4293729569
5.1104345 -2.3035865 -1.604057 4293729569
8.7734747 -3.9875851 -1.7213117 4293729569
4.5175695 -2.0342817 -1.6108514 4293729569
4.935483 -2.2384779 -1.5819846 4293729569
4.4895525 -2.0382824 -1.6328279 4293729569
4.7475405 -2.1653574 -1.5529093 4293729569
4.433548 -2.022265 -1.6498005 4293729569
4.4525394 -2.037276 -1.6518019 4293729569
4.6765442 -2.1463251 -1.5608736 4293729569
4.6205425 -2.1323037 -1.5728449 4293729569
4.3965359 -2.0282536 -1.6627687 4293729569
4.4035444 -2.0382411 -1.6417655 4293729569
4.5475502 -2.1102684 -1.5778102 4293729569
4.3215437 -2.007215 -1.6647317 4293729569
4.499547 -2.0982521 -1.5907854 4293729569
4.4665375 -2.0932469 -1.6077656 4293729569
4.3695421 -2.0512137 -1.63173 4293729569
4.4255323 -2.0832353 -1.621744 4293729569
4.3685369 -2.0642099 -1.6287185 4293729569
4.3175392 -2.0481887 -1.6366947 4293729569
4.3535318 -2.0732002 -1.6277 4293729569
4.2765379 -2.0361753 -1.6486747 4293729569
4.3415213 -2.0961895 -1.6246723 4293729569
4.3265123 -2.1171758 -1.6196438 4293729569
4.3045082 -2.1331563 -1.6116147 4293729569
4.2825041 -2.1491363 -1.6025853 4293729569
4.2814903 -2.175133 -1.601563 4293729569
4.270483 -2.1951208 -1.5955384 4293729569
4.2554779 -2.2131052 -1.5875126 4293729569
4.5089121 -2.3676789 -0.83656985 4293729569
4.5058928 -2.366699 -0.86556852 4293729569
4.2474699 -2.2340949 -1.5814894 4293729569
4.4970245 -2.3785436 -0.66355217 4293729569
4.4618797 -2.3696861 -0.88153398 4293729569
4.2334661 -2.2510798 -1.5734651 4293729569
4.4569206 -2.3726373 -0.81952792 4293729569
4.4790764 -2.3854718 -0.58053333 4293729569
4.4630098 -2.3825378 -0.68152416 4293729569
4.429862 -2.3766813 -0.89950496 4293729569
4.2204628 -2.2670643 -1.5644425 4293729569
4.432992 -2.389535 -0.70049655 4293729569
4.4300842 -2.3904333 -0.56549358 4293729569
4.4219217 -2.386606 -0.80449092 4293729569
4.4058418 -2.387682 -0.91947842 4293729569
4.206461 -2.282048 -1.5544199 4293729569
4.4069738 -2.3965349 -0.7204718 4293729569
4.3980856 -2.403405 -0.55245954 4293729569
4.3959208 -2.4025807 -0.79145885 4293729569
4.3898182 -2.4026885 -0.94145453 4293729569
4.185463 -2.2920256 -1.5413961 4293729569
4.3889532 -2.4075387 -0.74044967 4293729569
4.3827915 -2.4217007 -0.96443385 4293729569
4.1904516 -2.3160241 -1.53838 4293729569
4.3769312 -2.420547 -0.76143026 4293729569
4.3790817 -2.4233844 -0.54042935 4293729569
4.3819151 -2.4255636 -0.78042984 4293729569
4.3657694 -2.434706 -0.98541075 4293729569
4.368907 -2.4365585 -0.78441137 4293729569
4.2004395 -2.3420258 -1.5353659 4293729569
4.3670769 -2.4463689 -0.52840286 4293729569
4.3659124 -2.4465458 -0.76840198 4293729569
4.3578854 -2.4485688 -0.80539429 4293729569
4.3547459 -2.4497161 -1.0073911 4293729569
4.2084284 -2.3670273 -1.531352 4293729569
4.3548594 -2.4655828 -0.82837749 4293729569
4.2124224 -2.3880231 -1.5243369 4293729569
4.3510733 -2.4673502 -0.5163728 4293729569
4.356905 -2.4715312 -0.75737393 4293729569
4.3487196 -2.468729 -1.0303704 4293729569
4.3488369 -2.4795952 -0.85036105 4293729569
4.226409 -2.4150271 -1.5213245 4293729569
4.34869 -2.489747 -1.0563525 4293729569
4.3460665 -2.4933379 -0.50534689 4293729569
4.3478994 -2.495517 -0.74634671 4293729569
4.3448124 -2.4946091 -0.8733452 4293729569
4.2294035 -2.4340215 -1.5133106 4293729569
4.3466625 -2.5087624 -1.0803347 4293729569
4.3477859 -2.5126274 -0.89733213 4293729569
4.2443914 -2.4600255 -1.5092995 4293729569
4.335062 -2.5153217 -0.4933199 4293729569
4.3498898 -2.5255094 -0.7363227 4293729569
4.3566284 -2.5337875 -1.1083211 4293729569
4.3497601 -2.5296457 -0.92131925 4293729569
4.2653799 -2.4880335 -1.5062914 4293729569
4.3567324 -2.5486667 -0.94630826 4293729569
4.3665972 -2.5588112 -1.1353073 4293729569
4.3410521 -2.546315 -0.48229805 4293729569
4.2993584 -2.5240521 -1.5082866 4293729569
4.3638744 -2.5625086 -0.7283017 4293729569
4.3717022 -2.5716932 -0.97230011 4293729569
4.4035511 -2.5988553 -1.1703012 4293729569
4.3713188 -2.5820982 -1.5212915 4293729569
4.3986664 -2.601728 -1.001295 4293729569
4.3590384 -2.5843163 -0.47327933 4293729569
4.4258404 -2.6275389 -0.72729331 4293729569
4.795085 -2.8524172 -1.6543821 4293729569
6.3405523 -3.7902706 -1.715753 4293729569
4.8660488 -2.909461 -1.6643876 4293729569
6.2025833 -3.7311964 -1.7146999 4293729569
4.9380112 -2.9665053 -1.6743938 4293729569
5.039959 -3.0405717 -1.6924081 4293729569
6.0736122 -3.6751282 -1.7146509 4293729569
5.0979338 -3.0876029 -1.6944122 4293729569
5.953639 -3.6220648 -1.7146059 4293729569
3.9143414 -2.3659503 -1.6491294 4293729569
5.1579065 -3.1346352 -1.6964178 4293729569
5.2238789 -3.1846714 -1.6994255 4293729569
6.5294428 -3.9943671 -1.7177261 4293729569
5.8216734 -3.5599921 -1.7105595 4293729569
3.9173396 -2.3809443 -1.6401188 4293729569
5.2808571 -3.2276995 -1.6974323 4293729569
6.4054785 -3.9263017 -1.7166905 4293729569
6.274519 -3.8532298 -1.7126539 4293729569
5.3448315 -3.2747324 -1.697441 4293729569
6.1555567 -3.785166 -1.7106217 4293729569
5.4158049 -3.3247702 -1.6984524 4293729569
5.7017059 -3.5039253 -1.7065167 4293729569
6.0565853 -3.7281144 -1.7115954 4293729569
5.4897795 -3.3748085 -1.6984659 4293729569
3.9273341 -2.3999431 -1.63311 4293729569
5.9486198 -3.6650565 -1.7095672 4293729569
5.5797443 -3.434859 -1.7034832 4293729569
5.8546495 -3.6080074 -1.7095447 4293729569
5.7626791 -3.5509586 -1.7085233 4293729569
5.6697121 -3.4929075 -1.7055023 4293729569
5.5947323 -3.4528689 -1.7064797 4293729569
3.9523194 -2.4279549 -1.6321052 4293729569
5.4827633 -3.3978076 -1.7034419 4293729569
3.9653137 -2.4469566 -1.6260986 4293729569
5.396781 -3.3577642 -1.7064111 4293729569
3.977309 -2.4649565 -1.6180927 4293729569
5.2998085 -3.3087113 -1.7043796 4293729569
3.9923031 -2.4839585 -1.6110876 4293729569
5.2048359 -3.2586591 -1.7013502 4293729569
4.017293 -2.5079679 -1.6070861 4293729569
5.1168604 -3.2126119 -1.7003227 4293729569
4.0412846 -2.5299768 -1.6020856 4293729569
5.0208921 -3.1595569 -1.6942952 4293729569
4.0692739 -2.5549877 -1.5980855 4293729569
4.9399157 -3.1145134 -1.693272 4293729569
4.0982647 -2.5779989 -1.593088 4293729569
4.8599415 -3.069469 -1.6902497 4293729569
4.1762276 -2.6330492 -1.6061007 4293729569
4.772974 -3.0174184 -1.6832278 4293729569
4.2651854 -2.6931074 -1.6221173 4293729569
4.6730127 -2.9573567 -1.6712029 4293729569
4.3311567 -2.7381473 -1.6291291 4293729569
4.5710564 -2.8932929 -1.6571797 4293729569
4.4840927 -2.8382392 -1.6461605 4293729569
4.4061241 -2.7881927 -1.6381437 4293729569
10.963661 7.7200804 -1.6364239 4288085770
10.696561 7.5312157 -1.6401274 4288085770
11.285778 7.9449129 -1.6367797 4288085770
10.457468 7.3593359 -1.6468595 4288085770
10.294395 7.2374105 -1.6616735 4288085770
10.144324 7.1224785 -1.6775004 4288085770
9.9932518 7.0045471 -1.6923244 4288085770
9.8241787 6.8716307 -1.7001268 4288085770
9.5900869 6.6917534 -1.6968559 4288085770
9.2929821 6.4659204 -1.6795141 4288085770
9.016881 6.2530756 -1.662194 4288085770
8.845808 6.1121645 -1.6629891 4288085770
8.6997404 5.9872389 -1.6658105 4288085770
8.5786781 5.8782978 -1.6726586 4288085770
8.4496155 5.7623634 -1.6754966 4288085770
8.3285551 5.650425 -1.6793422 4288085770
8.227499 5.5514746 -1.6852092 4288085770
11.608698 7.7997541 -1.6358659 4288085770
8.1394472 5.4595165 -1.6920888 4288085770
11.37059 7.598875 -1.6405772 4288085770
8.062396 5.3745508 -1.7009803 4288085770
11.158489 7.4139824 -1.6463158 4288085770
7.9793444 5.2835922 -1.7068636 4288085770
11.027411 7.2820406 -1.661141 4288085770
7.9072943 5.1986256 -1.7147578 4288085770
10.88333 7.1401091 -1.6729513 4288085770
7.8312445 5.1106625 -1.7196474 4288085770
10.765254 7.0141621 -1.6877887 4288085770
7.7711983 5.0316906 -1.7265528 4288085770
5.0532341 3.267051 -1.8006409 4288085770
4.989212 3.2250845 -1.8005719 4288085770
10.629174 6.8742266 -1.6976051 4288085770
4.9271917 3.1841173 -1.7995051 4288085770
5.1052542 3.2990277 -1.7956953 4288085770
4.8671703 3.1431489 -1.7994391 4288085770
5.1772757 3.3419898 -1.7967695 4288085770
4.8201513 3.1091719 -1.8013859 4288085770
5.2542992 3.3879499 -1.7968488 4288085770
4.7701311 3.0731974 -1.8033296 4288085770
5.3243198 3.4269152 -1.7949188 4288085770
4.7221117 3.0362222 -1.8032736 4288085770
5.393342 3.4648826 -1.7909873 4288085770
7.6971493 4.9437275 -1.7304435 4288085770
