# .PCD v0.7 - Point Cloud Data file format
VERSION 0.7
FIELDS x y z rgb
SIZE 4 4 4 4
TYPE F F F U
COUNT 1 1 1 1
WIDTH 1131
HEIGHT 1
VIEWPOINT 0 0 0 1 0 0 0
POINTS 1131
DATA ascii
5.8265257 3.1863518 -1.803417 4288085770
9.6151552 5.2565703 -0.2832301 4293729569
8.9231424 4.8737011 -0.67034668 4293729569
6.5172653 3.5568929 -1.7792883 4288085770
6.647223 3.6270027 -1.7664526 4288085770
9.6941843 5.2766819 -0.22630937 4293729569
4.2072034 2.2831349 -1.8023415 4288085770
5.9444971 3.2254424 -1.801543 4288085770
8.734046 4.740335 -0.91907901 4293729569
8.9391375 4.8506899 -0.69633788 4293729569
6.7671976 3.6690996 -1.7585832 4288085770
8.881609 4.8079982 -1.4162552 4293729569
5.3837385 2.9050231 -1.7988169 4288085770
9.6991949 5.2396655 -0.24827941 4293729569
4.1892219 2.2571206 -1.8033029 4288085770
8.9821367 4.8447165 -0.70236546 4293729569
6.5202923 3.5138896 -1.7862504 4288085770
6.9301476 3.7332213 -1.7597671 4288085770
6.0584741 3.2605314 -1.7976623 4288085770
9.651227 5.1866212 -0.25719389 4293729569
9.0471621 4.8487973 -0.66741925 4293729569
4.1722407 2.2311072 -1.804265 4288085770
8.931983 4.7834477 -0.96027088 4293729569
7.0861068 3.7903411 -1.7569392 4288085770
9.0005789 4.8080549 -1.4533466 4293729569
6.1774507 3.2956259 -1.7927854 4288085770
9.7672424 5.2137494 -0.21130817 4293729569
5.3697758 2.8590152 -1.7957627 4288085770
9.0561285 4.821743 -0.73540145 4293729569
6.5183239 3.4668846 -1.7902048 4288085770
4.1592569 2.2070968 -1.805232 4288085770
7.2450666 3.8474646 -1.7531136 4288085770
9.5762863 5.0795403 -0.28503811 4293729569
6.322413 3.343734 -1.7939405 4288085770
9.1791773 4.8569217 -0.63952833 4293729569
8.9849901 4.7464652 -0.98427773 4293729569
7.4030313 3.9015894 -1.7462847 4288085770
9.849287 5.1918445 -0.17535144 4293729569
4.1452765 2.1800866 -1.8051953 4288085770
9.0435944 4.7640657 -1.4773395 4293729569
5.3787975 2.8240192 -1.7997364 4288085770
9.1581087 4.811789 -0.76947081 4293729569
6.5253506 3.4248855 -1.7951709 4288085770
6.460382 3.3858395 -1.7920847 4288085770
9.5473261 4.9964924 -0.31393975 4293729569
7.5769887 3.9617238 -1.7424734 4288085770
4.1262999 2.1510744 -1.803153 4288085770
9.3241873 4.8690557 -0.61265117 4293729569
9.1049709 4.741528 -1.0153656 4293729569
10.019296 5.2150035 -0.14050385 4293729569
6.6093478 3.4319522 -1.7912413 4288085770
9.2575197 4.8081808 -1.5285448 4293729569
7.7659411 4.0278692 -1.7386794 4288085770
9.2281036 4.7848129 -0.80150002 4293729569
5.381825 2.7860208 -1.8007023 4288085770
6.5203853 3.3758802 -1.7971212 4288085770
4.1283092 2.1330717 -1.8081369 4288085770
9.5803404 4.9454899 -0.34391859 4293729569
9.6131411 4.9522901 -0.59395033 4293729569
6.7433267 3.4670596 -1.7843763 4288085770
7.9548969 4.0910163 -1.7338828 4288085770
10.281272 5.2822318 -0.10576777 4293729569
9.2399406 4.7435989 -1.0494716 4293729569
4.1253238 2.1100667 -1.8111125 4288085770
9.3944874 4.809248 -1.5676515 4293729569
9.3280869 4.7708578 -0.83556432 4293729569
6.5014286 3.3198695 -1.7940543 4288085770
5.3748598 2.7420189 -1.7976553 4288085770
8.1578493 4.1591721 -1.7301015 4288085770
6.918282 3.5221884 -1.7875612 4288085770
10.26209 5.2239561 -0.39570004 4293729569
10.212965 5.1887445 -0.58963007 4293729569
4.1163425 2.0850611 -1.8100812 4288085770
10.480279 5.3124146 -0.068949275 4293729569
9.3969069 4.7536864 -1.083602 4293729569
8.3807945 4.2333426 -1.7273414 4288085770
10.261086 5.1767559 -1.7276576 4288085770
9.4470634 4.7639151 -0.87164986 4293729569
7.0792499 3.567312 -1.7847261 4288085770
6.5024614 3.2728682 -1.796011 4288085770
5.3768888 2.7030206 -1.7976197 4288085770
4.1073618 2.0590549 -1.8100493 4288085770
10.271121 5.1539359 -0.42564312 4293729569
10.248034 5.1348033 -0.55360794 4293729569
8.6207352 4.3135247 -1.7255999 4288085770
10.701278 5.3506131 -0.033155214 4293729569
7.2382216 3.6084363 -1.7798861 4288085770
9.5458755 4.7587676 -1.1177217 4293729569
9.5730381 4.7589774 -0.90774274 4293729569
10.216153 5.0777149 -1.7355323 4288085770
4.1093755 2.0370548 -1.8120292 4288085770
6.5004978 3.2238672 -1.7959636 4288085770
8.8666754 4.394711 -1.723864 4288085770
5.3859138 2.6660264 -1.7995914 4288085770
10.293145 5.0889268 -0.45460084 4293729569
10.308094 5.08988 -0.5186134 4293729569
7.4061918 3.652566 -1.7760557 4288085770
4.1053934 2.0130525 -1.8120028 4288085770
9.6958494 4.7588506 -1.1508377 4293729569
9.1306133 4.4799123 -1.7211459 4288085770
9.7130089 4.7580485 -0.94585001 4293729569
10.15623 4.9696655 -1.7413871 4288085770
6.4975333 3.174865 -1.7959154 4288085770
5.3809485 2.6230261 -1.7955467 4288085770
7.5871582 3.700706 -1.7722392 4288085770
10.323169 5.0279236 -0.48356849 4293729569
10.359158 5.0409498 -0.48460826 4293729569
9.4285383 4.5781355 -1.7224661 4288085770
4.1074085 1.990052 -1.8139818 4288085770
9.824832 4.7479186 -1.1829276 4293729569
9.8439875 4.7491145 -0.98194319 4293729569
7.7661281 3.7448447 -1.7674173 4288085770
10.08831 4.8596125 -1.7432342 4288085770
6.4975691 3.1268659 -1.7958704 4288085770
9.7914352 4.7043986 -1.7328624 4288085770
5.3959708 2.589035 -1.7985258 4288085770
4.1124215 1.9690545 -1.8159651 4288085770
10.251234 4.9158492 -0.50641042 4293729569
10.348248 4.9609747 -0.44752675 4293729569
7.9660907 3.7959971 -1.7656184 4288085770
9.9628134 4.7389951 -1.213026 4293729569
10.153337 4.8256655 -1.7382534 4288085770
6.4976068 3.0778677 -1.7938246 4288085770
9.9774113 4.7295346 -1.7370293 4288085770
4.1124401 1.9450557 -1.8149415 4288085770
5.399003 2.5480404 -1.795489 4288085770
10.325337 4.8759894 -0.41243142 4293729569
8.131074 3.8291316 -1.7537761 4288085770
10.49426 4.9319229 -1.7376146 4288085770
10.138783 4.7440958 -1.2491672 4293729569
4.1094604 1.9190557 -1.8129139 4288085770
6.5096369 3.0348756 -1.7957934 4288085770
9.8715096 4.6044612 -1.7308329 4288085770
8.3310452 3.8732884 -1.7469709 4288085770
5.4220223 2.5170548 -1.7994769 4288085770
10.499356 4.880146 -0.38357013 4293729569
10.869169 5.0502033 -1.7390134 4288085770
4.1214719 1.8990622 -1.8159034 4288085770
10.310753 4.7461939 -1.2833024 4293729569
8.5390129 3.9214497 -1.7421757 4288085770
11.232091 5.1574788 -1.7353932 4288085770
6.5036783 2.9828749 -1.7917399 4288085770
9.7676086 4.4793897 -1.7236381 4288085770
10.703365 4.8953233 -0.35674229 4293729569
5.4390459 2.4820662 -1.8014565 4288085770
4.1304879 1.8770685 -1.8168885 4288085770
10.769397 4.8842483 -1.6057847 4293729569
8.763979 3.9716229 -1.7373956 4288085770
10.502718 4.7523046 -1.3204571 4293729569
6.5227065 2.9418871 -1.7937161 4288085770
9.708684 4.3773451 -1.7234989 4288085770
10.895382 4.9014935 -0.32789707 4293729569
5.4510732 2.4450765 -1.8004303 4288085770
4.1345053 1.8530726 -1.815868 4288085770
10.535591 4.7191548 -1.5144526 4293729569
9.0239305 4.0348186 -1.7366545 4288085770
10.688689 4.7544141 -1.3546034 4293729569
6.5267448 2.8928938 -1.7906733 4288085770
9.6647539 4.2823119 -1.7243779 4288085770
4.151516 1.8340821 -1.8198621 4288085770
11.110394 4.9156809 -0.30007705 4293729569
10.748586 4.7533388 -1.487649 4293729569
9.3068752 4.1060295 -1.7389389 4288085770
5.4671001 2.4090889 -1.8004082 4288085770
3.7536476 1.6437714 -1.8333786 4288085770
10.888657 4.7585316 -1.3917626 4293729569
3.7696636 1.6428015 -1.8133893 4288085770
10.919603 4.7644987 -1.4537922 4293729569
4.1595335 1.8110895 -1.8188456 4288085770
6.5367789 2.8479021 -1.7896386 4288085770
9.6708021 4.2083077 -1.7333146 4288085770
9.5708332 4.1632309 -1.7361958 4288085770
11.298417 4.9148474 -0.27122259 4293729569
3.8286507 1.6608467 -1.8124511 4288085770
5.486125 2.3751032 -1.8003904 4288085770
3.8946338 1.6808946 -1.81452 4288085770
3.7166979 1.6027675 -1.8073105 4288085770
3.7586527 1.6207619 -1.8483595 4288085770
3.7656817 1.6238031 -1.8083675 4288085770
3.8756413 1.6708803 -1.8144959 4288085770
3.815665 1.6448398 -1.8094256 4288085770
3.6836905 1.58672 -1.8322699 4288085770
3.9286256 1.6919203 -1.8145562 4288085770
3.9906046 1.7159641 -1.8176262 4288085770
10.998661 4.735599 -1.4078273 4293729569
3.9696124 1.7049472 -1.8185996 4288085770
4.0455894 1.7370052 -1.8176877 4288085770
3.5467823 1.521667 -1.7771037 4288085770
4.1805425 1.793102 -1.8228439 4288085770
4.1085706 1.7600517 -1.8187577 4288085770
11.055643 4.7436285 -1.4228791 4293729569
9.8118076 4.2074203 -1.7264231 4288085770
6.5508127 2.803915 -1.787608 4288085770
4.17555 1.7851002 -1.8208324 4288085770
4.0495892 1.7290022 -1.824683 4288085770
11.52343 4.9260421 -0.24340792 4293729569
9.6548605 4.1252933 -1.7372262 4288085770
4.2305393 1.8041451 -1.816892 4288085770
4.29952 1.828196 -1.8179673 4288085770
5.5011535 2.3371167 -1.7983656 4288085770
4.1255708 1.7510574 -1.8267615 4288085770
11.173682 4.7447629 -1.3719718 4293729569
4.3575101 1.8462441 -1.8130285 4288085770
4.1915607 1.7701116 -1.8218294 4288085770
4.429492 1.8702981 -1.8131059 4288085770
3.6167572 1.5256958 -1.8041596 4288085770
10.095767 4.2666383 -1.7216979 4288085770
4.1945581 1.7691112 -1.8248308 4288085770
11.226628 4.7307291 -1.4540005 4293729569
4.4944806 1.8903515 -1.8081743 4288085770
6.5778399 2.7649338 -1.7895921 4288085770
11.809424 4.959281 -0.21666095 4293729569
9.6229248 4.0372677 -1.7381208 4288085770
4.2685447 1.7881677 -1.823905 4288085770
4.5864539 1.9204164 -1.8132728 4288085770
11.233749 4.7028508 -1.3239806 4293729569
5.5231786 2.3031335 -1.79835 4288085770
4.6664362 1.9444773 -1.8123564 4288085770
4.3445306 1.8072257 -1.8229806 4288085770
10.42271 4.3388824 -1.7230181 4288085770
4.2085738 1.7491238 -1.8228217 4288085770
3.6657479 1.5197175 -1.82119 4288085770
4.746419 1.9685383 -1.81144 4288085770
4.4235163 1.8272862 -1.8220595 4288085770
11.466588 4.7418728 -1.4941975 4293729569
4.8314013 1.9936039 -1.8095285 4288085770
6.5908756 2.7189467 -1.786559 4288085770
11.462754 4.7290511 -1.2931827 4293729569
9.6169806 3.95926 -1.7420448 4288085770
4.919383 2.0186722 -1.8076192 4288085770
4.4985065 1.8433464 -1.8181318 4288085770
10.749661 4.4061308 -1.7203338 4288085770
5.5462031 2.2691514 -1.7983352 4288085770
4.2275887 1.7281375 -1.8238156 4288085770
5.010366 2.0437422 -1.8057123 4288085770
3.6737678 1.4967284 -1.8161731 4288085770
4.5764952 1.8614075 -1.815208 4288085770
11.640781 4.7322183 -1.2563242 4293729569
5.097352 2.066812 -1.8008004 4288085770
11.698555 4.7460141 -1.5313822 4293729569
6.6249008 2.6819708 -1.7885504 4288085770
4.6654792 1.8824754 -1.8142956 4288085770
9.6160326 3.8822553 -1.7469734 4288085770
11.138591 4.4954185 -1.725718 4288085770
5.1933346 2.091886 -1.7988974 4288085770
4.2416058 1.7051494 -1.8228036 4288085770
5.5762243 2.2381732 -1.7993286 4288085770
3.6937802 1.478744 -1.8161701 4288085770
5.3083091 2.1239705 -1.8010155 4288085770
4.7494693 1.8995421 -1.8103757 4288085770
11.724846 4.6933246 -1.2083545 4293729569
11.853555 4.716105 -1.5584761 4293729569
5.422286 2.1540563 -1.801131 4288085770
6.6649241 2.6479993 -1.7905493 4288085770
11.578505 4.5977402 -1.735154 4288085770
4.8484516 1.922616 -1.8114729 4288085770
9.6190844 3.808254 -1.7509081 4288085770
4.2666168 1.6861658 -1.8258039 4288085770
5.5172753 2.1751349 -1.7932236 4288085770
11.900878 4.6904907 -1.1704892 4293729569
3.7087965 1.4587574 -1.8141614 4288085770
5.6012506 2.2031932 -1.7983143 4288085770
4.9264469 1.9356816 -1.8035446 4288085770
5.6532445 2.2122331 -1.7973627 4288085770
12.023425 4.6970668 -1.7425915 4288085770
13.240072 5.1639786 -1.7449652 4288085770
6.6929545 2.6070216 -1.7895324 4288085770
5.0314293 1.9587607 -1.8036466 4288085770
4.2946277 1.6671846 -1.8288064 4288085770
5.7572327 2.234318 -1.7904631 4288085770
9.6541243 3.746273 -1.7588784 4288085770
18.461596 7.1629224 -1.7208571 4288085770
3.7318087 1.4397743 -1.8151597 4288085770
5.1364136 1.9798405 -1.8027465 4288085770
5.6302748 2.1702156 -1.7983052 4288085770
5.8812127 2.2634137 -1.7875856 4288085770
12.475349 4.7914033 -1.7470303 4288085770
5.2413983 2.0009212 -1.8008468 4288085770
13.253142 5.0639839 -1.7508852 4288085770
6.7339792 2.5710509 -1.79153 4288085770
6.0231853 2.2985196 -1.7887276 4288085770
4.3146439 1.6452007 -1.8278 4288085770
19.284456 7.3595514 -1.70868 4288085770
9.7001591 3.6872981 -1.76986 4288085770
3.7578192 1.4227922 -1.8171624 4288085770
6.1641617 2.3306265 -1.7878659 4288085770
5.364378 2.0260119 -1.8029646 4288085770
5.6722913 2.1422441 -1.8023107 4288085770
12.966264 4.8957648 -1.7545087 4288085770
4.334661 1.6232171 -1.8267936 4288085770
6.3191319 2.3677416 -1.7890201 4288085770
6.772006 2.5340793 -1.7915248 4288085770
13.262212 4.9639854 -1.756802 4288085770
5.4853592 2.0501027 -1.80308 4288085770
9.7521925 3.6313283 -1.7798494 4288085770
3.7698393 1.4008074 -1.8111495 4288085770
6.4711099 2.4008584 -1.786168 4288085770
13.416205 4.9771047 -1.7529342 4288085770
5.7003174 2.1082673 -1.8002998 4288085770
5.5973473 2.0691907 -1.7991838 4288085770
4.3606739 1.6032362 -1.8277938 4288085770
6.6420774 2.4399853 -1.7883364 4288085770
6.8160329 2.497113 -1.7915239 4288085770
13.283278 4.8689966 -1.7607327 4288085770
5.7263308 2.0922885 -1.7983046 4288085770
3.7908545 1.3808243 -1.8101454 4288085770
9.7822371 3.5653465 -1.7848123 4288085770
13.925131 5.0714836 -1.7554184 4288085770
6.8230457 2.4801192 -1.7905135 4288085770
5.7373405 2.0762951 -1.8002976 4288085770
5.8583126 2.116389 -1.7974286 4288085770
4.3936858 1.5842595 -1.8298001 4288085770
6.9960198 2.5162518 -1.7876807 4288085770
6.8640571 2.4621484 -1.7925284 4288085770
13.280356 4.7629938 -1.7616347 4288085770
14.461055 5.1708841 -1.7579283 4288085770
3.8248622 1.3648467 -1.814155 4288085770
5.9942946 2.1394908 -1.797555 4288085770
9.84027 3.5103819 -1.7938071 4288085770
7.1819906 2.5543911 -1.7878602 4288085770
5.7733626 2.0453224 -1.8002958 4288085770
4.4057088 1.5582745 -1.823784 4288085770
6.1342783 2.1625979 -1.7956842 4288085770
7.3879571 2.5985451 -1.7890605 4288085770
6.9190793 2.4281871 -1.795539 4288085770
13.195463 4.6309409 -1.7504487 4288085770
14.955001 5.2462602 -1.7523839 4288085770
3.858871 1.34887 -1.8171648 4288085770
9.8603191 3.4413955 -1.7957596 4288085770
6.2822609 2.1867101 -1.7948209 4288085770
7.5939255 2.6396995 -1.7892582 4288085770
4.4377222 1.5382977 -1.8247886 4288085770
5.812386 2.0133529 -1.7992954 4288085770
15.480943 5.3266578 -1.7488694 4288085770
6.4322438 2.2098243 -1.7929584 4288085770
6.9541116 2.3882174 -1.7915286 4288085770
7.8318839 2.6898746 -1.7934895 4288085770
13.145559 4.5129099 -1.742303 4288085770
3.8848848 1.3298907 -1.8161656 4288085770
9.8703747 3.3674042 -1.7946995 4288085770
4.4747329 1.5203233 -1.8277993 4288085770
8.0408592 2.7270358 -1.788686 4288085770
6.6072183 2.239953 -1.7961214 4288085770
5.8544083 1.9833848 -1.7992994 4288085770
16.073874 5.4211035 -1.7484202 4288085770
7.0151334 2.3562615 -1.7935458 4288085770
3.917896 1.3129151 -1.8171736 4288085770
13.101653 4.3938847 -1.7341609 4288085770
8.2878208 2.7752194 -1.7909224 4288085770
6.7642055 2.2610745 -1.7922627 4288085770
9.891427 3.29742 -1.7946519 4288085770
4.5047479 1.4993472 -1.8268017 4288085770
5.9014292 1.9534197 -1.8003069 4288085770
8.5217943 2.8153999 -1.7861414 4288085770
16.677811 5.5105591 -1.7449756 4288085770
6.9371858 2.2862043 -1.7924199 4288085770
7.0741572 2.3223064 -1.7935598 4288085770
3.9499078 1.2949388 -1.8181801 4288085770
13.104731 4.2928905 -1.730072 4288085770
4.5457597 1.4813764 -1.8288153 4288085770
8.7927561 2.8646019 -1.7873979 4288085770
9.9424677 3.2364547 -1.7986361 4288085770
7.1281629 2.314347 -1.7935941 4288085770
5.9564462 1.9264596 -1.8023238 4288085770
17.310745 5.6000366 -1.7425542 4288085770
9.0997066 2.922828 -1.7926905 4288085770
7.135181 2.2893524 -1.7935762 4288085770
3.9889162 1.2789657 -1.8211937 4288085770
7.3181438 2.3404903 -1.7927657 4288085770
13.19278 4.2199502 -1.7370752 4288085770
4.5757766 1.4594011 -1.8268167 4288085770
9.9795141 3.1714816 -1.7996054 4288085770
17.961683 5.6865282 -1.7381443 4288085770
9.4126635 2.9790606 -1.7949864 4288085770
5.9944735 1.8924909 -1.7993208 4288085770
7.5011301 2.3616314 -1.7889274 4288085770
4.0239286 1.2609923 -1.8212023 4288085770
7.2002053 2.2554016 -1.7935948 4288085770
13.30782 4.1550298 -1.7451069 4288085770
4.622787 1.4414341 -1.8298352 4288085770
9.7416162 3.0373054 -1.7972966 4288085770
10.02256 3.1075134 -1.8005804 4288085770
7.7301016 2.3947995 -1.7931362 4288085770
18.717596 5.7970939 -1.739839 4288085770
6.0574894 1.8665357 -1.8023448 4288085770
10.090568 3.0985644 -1.8006254 4288085770
4.0729342 1.2470241 -1.8272258 4288085770
7.2702284 2.2234533 -1.7946193 4288085770
4.648808 1.4174588 -1.8248317 4288085770
7.9560766 2.4249675 -1.7953399 4288085770
13.420867 4.0871081 -1.7511344 4288085770
19.574492 5.9267292 -1.7486306 4288085770
10.077605 3.0465529 -1.8025677 4288085770
10.473514 3.1648471 -1.8059855 4288085770
6.1145086 1.838578 -1.8033624 4288085770
8.156065 2.4441223 -1.7905134 4288085770
4.1109447 1.230052 -1.828238 4288085770
7.3472495 2.1925104 -1.7956502 4288085770
4.6938186 1.3994908 -1.8268486 4288085770
10.84547 3.2231269 -1.80533 4288085770
13.51192 4.0111752 -1.7531374 4288085770
10.114654 2.9815826 -1.8005372 4288085770
8.3930454 2.4703016 -1.7887223 4288085770
6.1865239 1.8136289 -1.8073945 4288085770
11.21743 3.2784095 -1.8016717 4288085770
4.1499572 1.2120819 -1.8282501 4288085770
4.7348342 1.3785229 -1.8258597 4288085770
7.426271 2.1615698 -1.7956828 4288085770
13.630969 3.9422607 -1.7571688 4288085770
8.651021 2.5004933 -1.7909513 4288085770
11.61539 3.3357112 -1.7980362 4288085770
10.1657 2.9186223 -1.7995195 4288085770
6.251543 1.785677 -1.8084183 4288085770
4.1939678 1.1951134 -1.8302667 4288085770
4.7698531 1.3565531 -1.8218651 4288085770
8.8920059 2.5236769 -1.7881608 4288085770
7.4982977 2.1276257 -1.7937071 4288085770
12.027351 3.3920245 -1.7934105 4288085770
13.780009 3.8793659 -1.7642293 4288085770
10.222747 2.8566658 -1.7985076 4288085770
6.3135633 1.7577248 -1.80744 4288085770
9.1619825 2.5508792 -1.7883968 4288085770
4.2319822 1.1761432 -1.8292772 4288085770
4.8218641 1.3385906 -1.8238878 4288085770
12.474307 3.4533632 -1.7898173 4288085770
7.5963154 2.0996969 -1.7967572 4288085770
13.957043 3.8244905 -1.773319 4288085770
9.4549618 2.5800982 -1.7896528 4288085770
10.29679 2.7987218 -1.7985126 4288085770
12.966259 3.5207345 -1.7872652 4288085770
6.3805838 1.7297752 -1.8074656 4288085770
4.2779927 1.1591773 -1.8302956 4288085770
4.8648815 1.317626 -1.8209006 4288085770
7.6903358 2.0707667 -1.7978036 4288085770
9.7599373 2.6103256 -1.7909193 4288085770
3.8601129 1.0318933 -1.7978504 4288085770
3.7651618 1.0058556 -1.7607522 4288085770
3.9230955 1.0479341 -1.8049145 4288085770
4.0000763 1.0669863 -1.8109921 4288085770
14.208057 3.786665 -1.7884825 4288085770
4.0760589 1.0860407 -1.814069 4288085770
13.531194 3.602155 -1.7907832 4288085770
3.961086 1.0539572 -1.8109494 4288085770
4.1600404 1.1060991 -1.8191531 4288085770
4.2460194 1.1271582 -1.8252397 4288085770
4.0370736 1.0690134 -1.8120223 4288085770
4.315011 1.1422133 -1.8213072 4288085770
4.9178925 1.2996652 -1.8219239 4288085770
10.356838 2.7367687 -1.7965031 4288085770
4.3220067 1.1412115 -1.8293117 4288085770
4.395998 1.1602743 -1.8213871 4288085770
6.468596 1.705837 -1.8125112 4288085770
4.1390486 1.09008 -1.8231212 4288085770
4.4789839 1.1783364 -1.8214684 4288085770
4.5699668 1.1984029 -1.823558 4288085770
7.7893553 2.0418408 -1.798854 4288085770
10.064918 2.635555 -1.7901815 4288085770
4.2170382 1.1041384 -1.8231949 4288085770
4.6579533 1.216469 -1.8236432 4288085770
14.120131 3.6825948 -1.7933195 4288085770
4.307023 1.1202033 -1.8262795 4288085770
4.7469416 1.2345376 -1.8217291 4288085770
14.437084 3.7388268 -1.7996199 4288085770
4.840929 1.2526097 -1.819819 4288085770
4.3940105 1.1352677 -1.827361 4288085770
4.973906 1.2807066 -1.8229487 4288085770
4.9329181 1.2696815 -1.8169065 4288085770
4.3560247 1.1202419 -1.8243172 4288085770
10.46787 2.6868472 -1.8015445 4288085770
6.5446153 1.6788943 -1.8125449 4288085770
4.4780035 1.1483333 -1.8244383 4288085770
10.44588 2.6758327 -1.7995172 4288085770
5.0438995 1.2917619 -1.8200133 4288085770
14.750067 3.7660666 -1.7938912 4288085770
7.8883767 2.0119147 -1.7989036 4288085770
4.5849843 1.1674082 -1.8305392 4288085770
5.1498866 1.3108432 -1.8181136 4288085770
5.2758651 1.3339331 -1.8232331 4288085770
4.6719761 1.1804762 -1.8276188 4288085770
14.720097 3.7020242 -1.81581 4288085770
5.3688617 1.348011 -1.8143185 4288085770
5.0319185 1.2617505 -1.8229752 4288085770
10.804853 2.707099 -1.8028276 4288085770
4.4070339 1.1042788 -1.8263406 4288085770
4.7649689 1.1935487 -1.8247032 4288085770
15.380013 3.841542 -1.7904558 4288085770
5.5098367 1.3741114 -1.8204527 4288085770
10.55991 2.6329165 -1.8015676 4288085770
6.6266341 1.6519554 -1.8135831 4288085770
4.8569617 1.2066214 -1.8207868 4288085770
7.9993978 1.9829981 -1.7989633 4288085770
5.6438189 1.3962109 -1.8215774 4288085770
4.9769444 1.2247078 -1.8248969 4288085770
5.785799 1.4203155 -1.8237107 4288085770
11.197823 2.7413888 -1.8081675 4288085770
15.957982 3.8969886 -1.7759618 4293729569
15.009113 3.6652277 -1.8300048 4288085770
5.0789375 1.2397897 -1.8189902 4288085770
5.0789366 1.237787 -1.8219882 4288085770
4.4620452 1.0873194 -1.8273664 4288085770
5.9277825 1.4424219 -1.8238418 4288085770
6.7156506 1.6260204 -1.8156281 4288085770
10.663945 2.5809929 -1.8036017 4288085770
5.1889257 1.2528708 -1.8210878 4288085770
6.0687675 1.4635296 -1.8219714 4288085770
8.1154165 1.9540844 -1.8000271 4288085770
11.533813 2.7576463 -1.8024466 4288085770
6.217752 1.4856431 -1.8201083 4288085770
5.3209085 1.2709658 -1.8252074 4288085770
16.627939 3.9674983 -1.7675538 4293729569
5.1419492 1.2218366 -1.8200216 4288085770
4.5110583 1.0693574 -1.8263863 4288085770
15.333125 3.6314566 -1.8462301 4288085770
6.371737 1.5067601 -1.8182478 4288085770
5.4249063 1.2810502 -1.8182977 4288085770
6.8066678 1.6000872 -1.8176746 4288085770
10.762987 2.5250688 -1.8016286 4288085770
6.5417171 1.5318871 -1.819404 4288085770
8.2564297 1.9311869 -1.8041161 4288085770
5.5598912 1.2981498 -1.8204187 4288085770
11.915798 2.7789342 -1.8007665 4288085770
17.453863 4.0671163 -1.7692956 4293729569
6.7057047 1.5530133 -1.8155515 4288085770
5.1929674 1.2008786 -1.8160409 4288085770
5.7178698 1.319262 -1.8275615 4288085770
4.5670695 1.0523989 -1.8274131 4288085770
15.604156 3.5816531 -1.8533993 4288085770
6.874691 1.5741439 -1.8117033 4288085770
6.8856926 1.5701501 -1.8137081 4288085770
5.8788495 1.3393772 -1.8337059 4288085770
12.317782 2.8012371 -1.7991033 4288085770
18.297792 4.158751 -1.7670447 4288085770
10.89702 2.4771657 -1.8056902 4288085770
8.3864479 1.9042833 -1.8051931 4288085770
7.0536776 1.5962815 -1.8078637 4288085770
6.0148425 1.3524826 -1.8298241 4288085770
5.2609801 1.1829298 -1.8160764 4288085770
4.6310787 1.0364447 -1.830447 4288085770
7.2596569 1.622436 -1.8080493 4288085770
15.863194 3.5248432 -1.8575531 4288085770
6.1688294 1.3685982 -1.8299592 4288085770
19.141737 4.2423902 -1.7587869 4288085770
12.734766 2.8215501 -1.7984504 4288085770
6.9817104 1.5442214 -1.8147588 4288085770
7.4706388 1.6475949 -1.8072375 4288085770
8.54146 1.8803952 -1.8102924 4288085770
11.029057 2.4262643 -1.8067477 4288085770
6.3318167 1.3847203 -1.8301014 4288085770
5.3299932 1.1639819 -1.8161117 4288085770
7.6936188 1.6737628 -1.8064364 4288085770
4.6850939 1.0174882 -1.8274703 4288085770
13.286724 2.8639529 -1.8109239 4288085770
6.4878078 1.3978393 -1.8282354 4288085770
16.145231 3.4710507 -1.8617277 4288085770
7.9465933 1.7049499 -1.8096635 4288085770
7.0807295 1.5172958 -1.8148109 4288085770
8.7094727 1.8585167 -1.8154041 4288085770
11.176089 2.3783722 -1.8088199 4288085770
6.655798 1.412967 -1.8263808 4288085770
5.4110031 1.1470411 -1.8181583 4288085770
8.1855745 1.7301307 -1.8078742 4288085770
4.7351108 0.99752957 -1.8234895 4288085770
14.006644 2.9364634 -1.8435575 4288085770
6.8267899 1.4260979 -1.8235267 4288085770
8.4725456 1.7633421 -1.8121301 4288085770
16.419275 3.4122558 -1.8618916 4288085770
7.2037425 1.4943848 -1.8188856 4288085770
8.8894825 1.8376462 -1.8215261 4288085770
11.315126 2.3264763 -1.8088821 4288085770
5.4800191 1.127095 -1.8161929 4288085770
7.0037837 1.4382341 -1.8196766 4288085770
8.7665186 1.7955596 -1.8153907 4288085770
4.7991209 0.98157698 -1.8245234 4288085770
14.765566 3.0060036 -1.8752196 4288085770
7.1947737 1.452379 -1.8178394 4288085770
9.087491 1.8297975 -1.8186744 4288085770
16.685322 3.3494573 -1.8590457 4288085770
7.3187604 1.4684703 -1.8199514 4288085770
9.0844927 1.8167872 -1.8276602 4288085770
5.5720263 1.1121604 -1.8202502 4288085770
11.466165 2.2755897 -1.8089548 4288085770
7.393765 1.4655302 -1.8160074 4288085770
9.39147 1.8580272 -1.8169394 4288085770
4.8661337 0.96362764 -1.8245579 4288085770
15.402531 3.0414717 -1.8857551 4288085770
7.6087532 1.4806912 -1.81619 4288085770
9.7154493 1.8882716 -1.815222 4288085770
7.4327793 1.4425569 -1.8190165 4288085770
16.915386 3.2756393 -1.8481617 4288085770
9.2715073 1.7929246 -1.830785 4288085770
5.6480417 1.0922196 -1.8182902 4288085770
4.9201503 0.94467276 -1.8195816 4288085770
15.92853 3.0478716 -1.8791766 4288085770
11.657194 2.2297289 -1.8130639 4288085770
7.8677316 1.500879 -1.8234121 4288085770
10.050429 1.9165251 -1.8125116 4288085770
7.5767903 1.4206605 -1.824109 4288085770
5.7440505 1.0762892 -1.82135 4288085770
10.455398 1.9538257 -1.8158648 4288085770
8.1157169 1.5170641 -1.8246217 4288085770
9.4535275 1.7660611 -1.8309035 4288085770
17.189444 3.2078516 -1.8403178 4288085770
4.9861646 0.92672437 -1.8176156 4288085770
16.429544 3.0432565 -1.868569 4288085770
11.841228 2.1828661 -1.8141664 4288085770
10.883365 1.9931424 -1.820238 4288085770
8.3946962 1.5362668 -1.8318588 4288085770
5.8420596 1.0603611 -1.8234112 4288085770
7.7268028 1.3977685 -1.8292054 4288085770
9.6495428 1.7412071 -1.8320351 4288085770
17.463503 3.1370656 -1.8304716 4288085770
5.0621767 0.90978163 -1.8176583 4288085770
11.279347 2.0214441 -1.8155762 4288085770
16.891569 3.0256176 -1.8519189 4288085770
8.6696825 1.5524707 -1.8340901 4288085770
12.033264 2.1340103 -1.8142737 4288085770
5.9360719 1.0424316 -1.8234677 4288085770
11.714324 2.0537729 -1.811949 4288085770
8.9576683 1.5676849 -1.8363305 4288085770
7.856823 1.370867 -1.8282825 4288085770
9.8525629 1.7153602 -1.8311714 4288085770
5.1351905 0.89183843 -1.8156979 4288085770
17.340603 2.9979725 -1.8312498 4288085770
17.859541 3.0843639 -1.8287381 4288085770
12.181302 2.0861256 -1.809347 4288085770
9.2266665 1.5768909 -1.8315508 4288085770
12.254293 2.0881729 -1.8174067 4288085770
6.0280881 1.0225027 -1.8215207 4288085770
8.0198355 1.3489857 -1.8323903 4288085770
10.089575 1.6935351 -1.8343382 4288085770
5.222199 0.87590128 -1.8187505 4288085770
12.689277 2.1215086 -1.8067806 4288085770
17.960615 2.9924426 -1.8247361 4288085770
9.551652 1.5911314 -1.83482 4288085770
18.331575 3.0397148 -1.8310723 4288085770
6.1360993 1.0055838 -1.8215892 4288085770
12.452333 2.036324 -1.8145162 4288085770
13.289238 2.1669528 -1.812296 4288085770
9.8496485 1.5993583 -1.8310626 4288085770
8.1848497 1.3251073 -1.8344978 4288085770
5.3112087 0.85996634 -1.8208046 4288085770
10.344587 1.6717227 -1.8385195 4288085770
18.686611 2.9949844 -1.8273138 4288085770
18.899591 3.0051329 -1.8394917 4288085770
13.9382 2.2134354 -1.8168514 4288085770
10.213635 1.6136281 -1.8343629 4288085770
6.2581077 0.98967165 -1.8256696 4288085770
12.723362 1.9935219 -1.8196917 4288085770
5.4002204 0.84303331 -1.820858 4288085770
8.3768606 1.3032463 -1.8406289 4288085770
10.608603 1.6489184 -1.8407069 4288085770
14.831121 2.2900791 -1.8446275 4288085770
19.451609 2.9935555 -1.8289193 4288085770
10.576626 1.6238999 -1.8346589 4288085770
6.3711205 0.97275752 -1.8247426 4288085770
19.418633 2.9545236 -1.8368585 4288085770
5.4822364 0.82509863 -1.8169048 4288085770
15.70006 2.3537161 -1.8603729 4288085770
13.016386 1.9517365 -1.8258858 4288085770
8.5418787 1.2773707 -1.8397348 4288085770
10.895614 1.6271307 -1.8439139 4288085770
10.959618 1.6331866 -1.8349699 4288085770
6.4831347 0.95384341 -1.8228123 4288085770
19.959669 2.9039319 -1.8332424 4288085770
16.492027 2.3993084 -1.8610415 4288085770
5.5742478 0.80816782 -1.8169606 4288085770
11.365611 1.6414907 -1.8352984 4288085770
11.183632 1.6033461 -1.8441199 4288085770
8.7179003 1.2505035 -1.8388488 4288085770
13.319416 1.9079592 -1.830086 4288085770
6.6281414 0.93894762 -1.8279122 4288085770
17.174026 2.419838 -1.8406006 4288085770
11.788606 1.648808 -1.8346397 4288085770
5.6712613 0.79124147 -1.8160205 4288085770
8.9319124 1.2286601 -1.8429974 4288085770
11.506644 1.5815864 -1.8463554 4288085770
13.682438 1.8682237 -1.8383377 4288085770
17.923025 2.4424164 -1.8212149 4293729569
6.7471581 0.92004067 -1.8239881 4288085770
12.228603 1.6521401 -1.831991 4288085770
5.7712746 0.77431852 -1.8140829 4288085770
18.992975 2.5002131 -1.8261155 4288085770
11.824664 1.557826 -1.8445855 4288085770
9.1319313 1.202811 -1.8421316 4288085770
6.8531799 0.8991282 -1.8150517 4288085770
12.735594 1.6595159 -1.836399 4288085770
14.106453 1.8325284 -1.8526413 4288085770
5.8722887 0.75639617 -1.812145 4288085770
12.174683 1.5330892 -1.8438402 4288085770
9.3489504 1.1759737 -1.8422785 4288085770
6.9971938 0.88123709 -1.8141484 4288085770
13.31558 1.6699429 -1.8448679 4288085770
14.610457 1.8038874 -1.8730153 4288085770
6.0012946 0.7424894 -1.8162333 4288085770
7.1442065 0.86334831 -1.8132476 4288085770
13.969559 1.6824203 -1.8583976 4288085770
12.585694 1.5133941 -1.8471478 4288085770
9.5819702 1.1501491 -1.8414388 4288085770
6.1193066 0.72557789 -1.8163102 4288085770
15.160462 1.7732806 -1.8934239 4288085770
7.3292127 0.84948248 -1.8183804 4288085770
14.748526 1.7019835 -1.8810328 4288085770
13.079696 1.4997544 -1.8575271 4288085770
9.8299885 1.1243348 -1.8416114 4288085770
6.2583141 0.71067864 -1.8204052 4288085770
7.5052242 0.8326143 -1.8185036 4288085770
15.672482 1.7326531 -1.9057937 4288085770
15.516505 1.7115445 -1.8966509 4288085770
13.658688 1.4911723 -1.8749784 4288085770
10.090006 1.0995295 -1.8417943 4288085770
6.3683338 0.69176739 -1.8134741 4288085770
7.6982336 0.81675702 -1.8206413 4288085770
16.222509 1.7050714 -1.8982055 4288085770
16.155516 1.6840115 -1.9091336 4288085770
14.321673 1.4866495 -1.8965006 4288085770
10.399019 1.075757 -1.8460174 4288085770
6.5073452 0.67487162 -1.8135679 4288085770
7.8772497 0.79889482 -1.8167661 4288085770
16.83354 1.6825421 -1.8836706 4288085770
6.6433587 0.65797627 -1.8106592 4288085770
15.093651 1.4862034 -1.9231129 4288085770
16.609562 1.6273556 -1.9044434 4288085770
10.725033 1.0519965 -1.8512539 4288085770
8.1032562 0.78406048 -1.8209312 4288085770
17.499569 1.6560528 -1.870176 4288085770
6.8023691 0.64209455 -1.8117698 4288085770
15.775655 1.4707062 -1.9316406 4288085770
11.076046 1.0282567 -1.8545104 4288085770
8.3322659 0.76822925 -1.8240975 4288085770
17.048618 1.5646939 -1.8937359 4288085770
6.9793763 0.62722361 -1.8158958 4288085770
18.290588 1.6336498 -1.8647845 4288085770
16.393682 1.4441748 -1.9251078 4288085770
8.55128 0.75139678 -1.8202554 4288085770
11.425066 1.0015187 -1.8537631 4288085770
17.55867 1.5030823 -1.8860862 4288085770
7.1643844 0.61235863 -1.8200282 4288085770
19.306591 1.6194015 -1.8745795 4288085770
8.8192863 0.73659384 -1.8244541 4288085770
16.997719 1.4116421 -1.9085586 4288085770
11.768093 0.97177964 -1.8490081 4288085770
6.8974347 0.56317526 -1.8017708 4288085770
7.1324148 0.58134377 -1.8099736 4288085770
6.7074451 0.54703128 -1.8036052 4288085770
6.5184588 0.53089178 -1.8014406 4288085770
7.3583999 0.59851098 -1.8121688 4288085770
7.3443952 0.59649336 -1.8201557 4288085770
6.3484688 0.51576376 -1.8022918 4288085770
7.5943866 0.6156866 -1.8133715 4288085770
7.8263764 0.63186288 -1.8105704 4288085770
6.1824813 0.49963957 -1.8021452 4288085770
8.0923624 0.64906096 -1.811797 4288085770
6.0384889 0.48552829 -1.8060181 4288085770
18.256701 1.4525998 -1.8915961 4288085770
8.3693485 0.66626823 -1.8120325 4288085770
5.7615061 0.4603194 -1.807775 4288085770
5.8895006 0.47041696 -1.805886 4288085770
5.9184952 0.47243494 -1.8099107 4288085770
5.6245122 0.44921517 -1.8096563 4288085770
6.0634899 0.48254615 -1.807035 4288085770
5.5015178 0.43811953 -1.8135483 4288085770
9.1112938 0.72180778 -1.8296719 4288085770
6.2184839 0.49366385 -1.8051682 4288085770
5.367528 0.42602021 -1.812431 4288085770
8.6623373 0.68348825 -1.8112805 4288085770
5.7465105 0.45530903 -1.8067585 4288085770
6.3924747 0.50479412 -1.8053162 4288085770
5.2475357 0.41492957 -1.8133255 4288085770
17.692747 1.3831732 -1.8960856 4288085770
6.5774655 0.51593155 -1.806473 4288085770
9.0133142 0.70474362 -1.8195785 4288085770
5.5975256 0.4392013 -1.8026253 4288085770
5.1295433 0.4028405 -1.8142207 4288085770
12.18611 0.94509143 -1.8503159 4288085770
6.7774549 0.52807933 -1.8086427 4288085770
5.0055556 0.39075139 -1.8101112 4288085770
9.3542995 0.72299862 -1.8198657 4288085770
5.4775348 0.4251098 -1.8045169 4288085770
6.9794459 0.53822953 -1.8098122 4288085770
7.5374069 0.57963789 -1.8202928 4288085770
9.8032694 0.74732095 -1.8352441 4288085770
5.365541 0.41102159 -1.8094149 4288085770
7.2124338 0.55040032 -1.814008 4288085770
7.4454231 0.56157273 -1.8162031 4288085770
9.4073029 0.70702749 -1.8318931 4288085770
10.208254 0.76662296 -1.836583 4288085770
4.9665642 0.37571961 -1.8130658 4288085770
5.2515502 0.39693457 -1.8113112 4288085770
7.6924129 0.57275575 -1.8184091 4288085770
10.651237 0.78695256 -1.8389533 4288085770
5.1415606 0.38285238 -1.8112109 4288085770
19.004736 1.3991544 -1.8971431 4288085770
18.672754 1.3679016 -1.9018513 4288085770
7.9394073 0.58194232 -1.8166134 4288085770
12.636129 0.91842729 -1.851649 4288085770
7.7434173 0.56379122 -1.8214412 4288085770
11.156214 0.80932391 -1.8463746 4288085770
5.0275736 0.36776903 -1.8091061 4288085770
8.2153969 0.59214699 -1.8188417 4288085770
11.678196 0.83071256 -1.8488085 4288085770
9.7743015 0.69529223 -1.8431734 4288085770
5.0665717 0.36179197 -1.8161311 4288085770
8.4903946 0.60135633 -1.8150682 4288085770
12.182186 0.84809488 -1.8432248 4288085770
8.8023853 0.61058789 -1.8173243 4288085770
19.641779 1.3456323 -1.8956022 4288085770
7.9594283 0.54795289 -1.8215977 4288085770
12.788172 0.86954898 -1.8427255 4288085770
13.189138 0.89483267 -1.8610671 4288085770
19.752787 1.3357182 -1.8926817 4288085770
9.1643715 0.6218524 -1.8246218 4288085770
10.109311 0.67954195 -1.844425 4288085770
5.1645818 0.34786549 -1.8161951 4288085770
13.505145 0.895078 -1.8513185 4288085770
9.5523548 0.63313532 -1.8329401 4288085770
8.2084351 0.53313571 -1.8257813 4288085770
14.447098 0.92975897 -1.8780986 4288085770
9.9133539 0.63940984 -1.8282324 4288085770
10.513314 0.66683698 -1.852734 4288085770
13.755155 0.86825329 -1.864493 4288085770
5.2555933 0.33393648 -1.8132536 4288085770
10.354342 0.64873338 -1.8355912 4288085770
15.512045 0.96852833 -1.9089801 4288085770
8.4474478 0.5163154 -1.8249555 4288085770
10.816331 0.6560744 -1.8409649 4288085770
16.399033 0.99019533 -1.9057052 4288085770
10.916323 0.65213662 -1.8550408 4288085770
5.3536048 0.31901088 -1.812317 4288085770
11.325319 0.66445053 -1.846377 4288085770
14.466158 0.8457706 -1.8810382 4288085770
17.249037 1.0048499 -1.8853945 4288085770
8.7214584 0.50051874 -1.8271583 4288085770
11.856314 0.66984588 -1.848804 4288085770
18.371021 1.0286915 -1.8833084 4288085770
11.35933 0.63746524 -1.8583795 4288085770
5.4646134 0.30609316 -1.8133923 4288085770
12.350319 0.67022341 -1.840197 4288085770
15.274158 0.82435673 -1.9016615 4288085770
19.705997 1.057688 -1.886397 4288085770
9.0074682 0.48473173 -1.8283708 4288085770
11.83834 0.62182081 -1.8617461 4288085770
12.930322 0.67065984 -1.8376585 4288085770
5.5716257 0.29117611 -1.8104628 4288085770
9.314477 0.46896052 -1.8296002 4288085770
16.011181 0.79290771 -1.9022198 4288085770
13.624317 0.6731751 -1.8422129 4288085770
12.308356 0.60517764 -1.8561047 4288085770
4.9926534 0.24473521 -1.8189592 4288085770
5.6976342 0.27726871 -1.8125495 4288085770
14.514294 0.67982268 -1.862927 4288085770
9.611495 0.45118725 -1.8248199 4288085770
12.828372 0.58757007 -1.8525023 4288085770
16.712221 0.75444353 -1.8897432 4288085770
5.0946641 0.23181263 -1.8180277 4288085770
5.8226442 0.26336235 -1.8126353 4288085770
15.469277 0.68352228 -1.8796904 4288085770
9.9765034 0.43545753 -1.8280957 4288085770
13.45138 0.57303417 -1.8549849 4288085770
16.40028 0.67921644 -1.8824276 4288085770
5.9446559 0.24945557 -1.8107189 4288085770
5.1986728 0.21889058 -1.8180977 4288085770
17.519255 0.7160567 -1.8793514 4288085770
10.398508 0.42076683 -1.8354177 4288085770
14.183383 0.56057513 -1.8625562 4288085770
17.2843 0.66589004 -1.8691194 4288085770
5.3076811 0.20697314 -1.8171726 4288085770
6.088666 0.23456252 -1.811819 4288085770
10.793522 0.40406403 -1.8337168 4288085770
18.681263 0.68691105 -1.8962505 4288085770
15.103371 0.55224305 -1.8852811 4288085770
18.487299 0.65778124 -1.87907 4288085770
5.4306884 0.19406259 -1.8202578 4288085770
6.2306762 0.22066975 -1.8109186 4288085770
11.288524 0.38942599 -1.8430973 4288085770
16.007378 0.53891355 -1.8919889 4288085770
19.860285 0.65078962 -1.9001575 4288085770
19.859301 0.64579964 -1.8881522 4288085770
5.5536976 0.18115473 -1.8203431 4288085770
6.376688 0.20678082 -1.8090214 4288085770
11.784536 0.37279686 -1.843477 4288085770
16.93239 0.52260774 -1.8897109 4288085770
5.6617112 0.16824102 -1.8144165 4288085770
12.286553 0.35517675 -1.8388608 4288085770
6.5486956 0.19190687 -1.8121442 4288085770
17.962408 0.50638229 -1.8855169 4288085770
12.90556 0.33963412 -1.8453393 4288085770
5.7877226 0.15533808 -1.8115044 4288085770
6.7337027 0.1780417 -1.8162781 4288085770
19.285406 0.49536312 -1.8955611 4288085770
13.598567 0.32314768 -1.8508765 4288085770
5.9297309 0.14244348 -1.812605 4288085770
6.9117122 0.16417488 -1.8164068 4288085770
14.355574 0.30770907 -1.8564656 4288085770
6.0857377 0.13055754 -1.8157179 4288085770
7.1007233 0.1493172 -1.8155432 4288085770
15.22858 0.29135445 -1.8651463 4288085770
6.2387457 0.11867203 -1.8158283 4288085770
7.3057327 0.13546966 -1.8166934 4288085770
16.094591 0.28500897 -1.8578306 4288085770
17.194576 0.30382946 -1.8607241 4288085770
18.443556 0.3237595 -1.8657371 4288085770
15.043613 0.26523331 -1.8459755 4288085770
19.89954 0.34384525 -1.8699154 4288085770
14.157633 0.24657729 -1.8382528 4288085770
13.377649 0.22899783 -1.8336155 4288085770
16.193588 0.2750695 -1.8729007 4288085770
12.650669 0.21146154 -1.8250204 4288085770
11.869682 0.19287688 -1.8253813 4288085770
12.040682 0.19500563 -1.8245195 4288085770
11.308693 0.18345931 -1.8229258 4288085770
12.473675 0.20132655 -1.8278701 4288085770
10.806701 0.17408499 -1.8215173 4288085770
6.3897576 0.10578772 -1.8129363 4288085770
13.162664 0.20983711 -1.8334268 4288085770
7.5337405 0.12163749 -1.819862 4288085770
10.322712 0.16372678 -1.8171222 4288085770
13.901656 0.21738771 -1.8360224 4288085770
11.477696 0.17858747 -1.8210559 4288085770
9.90172 0.15341391 -1.8147774 4288085770
14.772645 0.2240307 -1.8457224 4288085770
17.249598 0.25685704 -1.875726 4288085770
9.5137281 0.14312388 -1.8144588 4288085770
15.738633 0.22974735 -1.8524973 4288085770
10.980709 0.16221505 -1.8216451 4288085770
9.1667356 0.13286363 -1.815173 4288085770
16.843626 0.23456612 -1.8613824 4288085770
10.512722 0.14686705 -1.8192583 4288085770
6.5717635 0.09392117 -1.81607 4288085770
8.8517399 0.12162459 -1.8189117 4288085770
7.7677493 0.1068107 -1.8220345 4288085770
18.029621 0.23744994 -1.8653303 4288085770
18.517605 0.23979756 -1.8847214 4288085770
10.089735 0.13055179 -1.8179063 4288085770
8.5527458 0.11139931 -1.8206643 4288085770
19.445614 0.23850292 -1.8724598 4288085770
8.2467575 0.10017422 -1.8164099 4288085770
9.7027454 0.11526166 -1.818584 4288085770
6.7657704 0.081063598 -1.8192124 4288085770
19.982605 0.22188264 -1.896873 4288085770
8.0277557 0.093002409 -1.8252288 4288085770
7.9837661 0.087976754 -1.8171891 4288085770
9.3377581 0.099989757 -1.817279 4288085770
7.7207766 0.076782018 -1.8149691 4288085770
6.957778 0.069206297 -1.8203541 4288085770
9.0137682 0.084745824 -1.8190068 4288085770
8.2947655 0.078200281 -1.8274279 4288085770
7.4907842 0.06460835 -1.8167746 4288085770
8.6897802 0.069505483 -1.8167346 4288085770
7.1637859 0.057360366 -1.8205072 4288085770
8.5737753 0.063408896 -1.8276365 4288085770
7.2467961 0.053430542 -1.8115696 4288085770
8.3987923 0.05428803 -1.8164885 4288085770
7.3947921 0.0455295 -1.8246802 4288085770
7.0418048 0.041276485 -1.8123947 4288085770
8.880785 0.0486366 -1.8298676 4288085770
8.1338024 0.039088219 -1.8182632 4288085770
7.6178017 0.032697164 -1.8238459 4288085770
6.8338141 0.029121995 -1.8112175 4288085770
9.2077942 0.03387928 -1.8321145 4288085770
7.8618164 0.023888595 -1.8140323 4288085770
7.8648095 0.020880938 -1.8250319 4288085770
6.6498222 0.016983651 -1.8120594 4288085770
9.5608044 0.019141369 -1.8343824 4288085770
8.1348124 0.011080079 -1.8282379 4288085770
7.6248255 0.010711521 -1.813831 4288085770
9.9348135 0.0054209381 -1.834668 4288085770
6.4598331 0.0058453232 -1.8078974 4288085770
8.4248219 -0.00070492178 -1.8304584 4288085770
7.3978386 -0.0044562519 -1.8116359 4288085770
10.322826 -0.01028724 -1.8329632 4288085770
6.3018398 -0.0062753707 -1.81076 4288085770
8.7108297 -0.012489326 -1.8286755 4288085770
10.766836 -0.024956271 -1.8343037 4288085770
9.0298386 -0.023250856 -1.82892 4288085770
7.1718512 -0.018622369 -1.8084422 4288085770
11.264844 -0.039586753 -1.8376878 4288085770
6.1268525 -0.018402457 -1.8066089 4288085770
9.3678455 -0.034999117 -1.8301787 4288085770
11.797852 -0.055191081 -1.8410985 4288085770
9.7718487 -0.045702558 -1.8364912 4288085770
6.9738617 -0.033770248 -1.8082701 4288085770
10.14786 -0.05641792 -1.8327813 4288085770
12.377863 -0.070758507 -1.8425471 4288085770
5.9828596 -0.03051177 -1.8084823 4288085770
10.590864 -0.066089526 -1.8361259 4288085770
18.959887 -0.12685829 -1.8687469 4288085770
13.027872 -0.086275421 -1.8460516 4288085770
11.077869 -0.076728255 -1.8395047 4288085770
18.740877 -0.13904363 -1.8925613 4288085770
13.773878 -0.10172419 -1.8536327 4288085770
11.579877 -0.085351273 -1.8378973 4288085770
6.8008695 -0.047903042 -1.8121188 4288085770
17.41588 -0.13602667 -1.8835071 4288085770
12.162882 -0.094919167 -1.8423538 4288085770
16.258886 -0.13188414 -1.8745879 4288085770
17.646902 -0.14383602 -1.8636843 4288085770
14.592883 -0.11811753 -1.8602713 4288085770
5.8388672 -0.042620171 -1.809356 4288085770
12.804885 -0.10344207 -1.8458583 4288085770
15.273885 -0.12661669 -1.8698069 4288085770
13.540883 -0.11189923 -1.8544377 4288085770
14.359883 -0.11929346 -1.8620844 4288085770
15.512891 -0.13443628 -1.8679905 4288085770
16.562899 -0.15165789 -1.8758126 4288085770
17.751907 -0.16777471 -1.8827467 4288085770
19.146912 -0.18574119 -1.8938435 4288085770
16.484922 -0.16069815 -1.8557425 4288085770
6.614881 -0.062040135 -1.809957 4288085770
5.6898794 -0.055727787 -1.8052247 4288085770
15.481936 -0.17744413 -1.8509272 4288085770
6.4358945 -0.07717108 -1.8067997 4288085770
5.5938802 -0.067809314 -1.8161362 4288085770
14.587952 -0.19310777 -1.8451998 4288085770
13.763969 -0.20871633 -1.8365283 4288085770
6.278904 -0.091289185 -1.8076612 4288085770
5.4608912 -0.080906764 -1.8140174 4288085770
19.616032 -0.3293747 -1.8760898 4288085770
13.066983 -0.22423451 -1.8329581 4288085770
6.1419106 -0.10539503 -1.8115383 4288085770
5.3528962 -0.092990927 -1.8179196 4288085770
18.19305 -0.34342831 -1.8639418 4288085770
12.435999 -0.24070422 -1.8304396 4288085770
5.996922 -0.11950234 -1.8104089 4288085770
16.994066 -0.35831892 -1.8569719 4288085770
5.2289081 -0.10608072 -1.8148079 4288085770
11.862011 -0.25613132 -1.8279673 4288085770
15.947081 -0.3730959 -1.8501228 4288085770
5.8549323 -0.13360739 -1.8092819 4288085770
11.367021 -0.27250385 -1.8305571 4288085770
5.1269145 -0.11815948 -1.8177147 4288085770
15.062092 -0.38875723 -1.8494023 4288085770
10.878035 -0.28786564 -1.8261527 4288085770
5.7229438 -0.14770497 -1.8081629 4288085770
14.216109 -0.40338218 -1.8407136 4288085770
18.95717 -0.54588932 -1.899371 4288085770
10.451047 -0.30418465 -1.8257967 4288085770
18.687195 -0.55207109 -1.8771501 4288085770
5.6049523 -0.16279569 -1.811054 4288085770
13.509123 -0.41890961 -1.8391352 4288085770
17.655188 -0.55385053 -1.8853246 4288085770
10.055058 -0.31948048 -1.8254662 4288085770
17.507227 -0.58294213 -1.8641804 4288085770
5.4939623 -0.17687935 -1.8119518 4288085770
16.5252 -0.55968851 -1.8774172 4288085770
12.868134 -0.43438759 -1.8376092 4288085770
9.7140665 -0.33573884 -1.8291787 4288085770
15.535206 -0.56342286 -1.8706232 4288085770
5.3899684 -0.19096047 -1.8158548 4288085770
12.268148 -0.44883227 -1.8331167 4288085770
16.549252 -0.61465621 -1.8613871 4288085770
9.3620787 -0.35099903 -1.8258834 4288085770
14.673208 -0.56606513 -1.8679324 4288085770
11.753159 -0.46421704 -1.8326912 4288085770
5.2719812 -0.20504573 -1.8127466 4288085770
13.878213 -0.56565368 -1.8612976 4288085770
15.694275 -0.64429247 -1.8576777 4288085770
9.0640907 -0.36822426 -1.828629 4288085770
11.281172 -0.48057055 -1.8332989 4288085770
13.162214 -0.56318414 -1.8557277 4288085770
5.1739893 -0.21912056 -1.8146547 4288085770
8.771101 -0.38344312 -1.8283807 4288085770
12.516215 -0.56066495 -1.8532135 4288085770
14.922297 -0.67286646 -1.8540353 4288085770
10.876178 -0.49787849 -1.8389596 4288085770
11.916213 -0.5561105 -1.8497381 4288085770
18.632416 -0.87513179 -1.8978181 4288085770
8.4861145 -0.3986541 -1.8261386 4288085770
11.39221 -0.55250192 -1.8493224 4288085770
17.355402 -0.84707677 -1.8868231 4288085770
14.22532 -0.70038456 -1.8504534 4288085770
10.455193 -0.51318932 -1.8346088 4288085770
10.899208 -0.5458684 -1.8469342 4288085770
16.216393 -0.8209188 -1.8759364 4288085770
8.2321253 -0.41484371 -1.8259202 4288085770
10.433206 -0.53921378 -1.8435674 4288085770
15.255376 -0.79763407 -1.8721893 4288085770
10.063205 -0.52747935 -1.8312821 4288085770
5.1760197 -0.26812395 -1.8206089 4288085770
10.045197 -0.53350729 -1.8472621 4288085770
13.576343 -0.72686583 -1.8459108 4288085770
14.385364 -0.77527869 -1.8655139 4288085770
7.9751391 -0.42903197 -1.8217013 4288085770
5.2870297 -0.28204006 -1.8196845 4288085770
9.6591911 -0.52579558 -1.8469603 4288085770
13.60335 -0.75185829 -1.8599098 4288085770
5.416039 -0.29694629 -1.8227738 4288085770
9.2901859 -0.5170694 -1.8446729 4288085770
9.7192173 -0.54373634 -1.830992 4288085770
12.919338 -0.73236746 -1.8573804 4288085770
5.5200524 -0.30986312 -1.8168449 4288085770
8.9471817 -0.50832379 -1.8424064 4288085770
7.7651477 -0.44519231 -1.8255179 4288085770
13.038363 -0.75426865 -1.8464559 4288085770
12.279324 -0.71084285 -1.853888 4288085770
8.6041784 -0.49757555 -1.8371416 4288085770
19.529619 -1.1444585 -1.8942947 4288085770
5.6570625 -0.32476252 -1.8189406 4288085770
11.706311 -0.69126904 -1.8514473 4288085770
5.1680403 -0.30013227 -1.8235716 4288085770
8.3111706 -0.48879436 -1.836915 4288085770
5.7970738 -0.33965787 -1.8190389 4288085770
9.3902292 -0.55998099 -1.8297136 4288085770
5.2900481 -0.312042 -1.8246582 4288085770
8.0311661 -0.47900167 -1.8346996 4288085770
11.196298 -0.67264998 -1.8510563 4288085770
5.9420838 -0.35455039 -1.8201412 4288085770
7.7701578 -0.46819571 -1.8335005 4288085770
5.4150572 -0.32394856 -1.8247472 4288085770
10.737281 -0.65499556 -1.853705 4288085770
6.0940943 -0.36943683 -1.820249 4288085770
7.5061536 -0.45738834 -1.828299 4288085770
5.5460653 -0.33585066 -1.8248409 4288085770
7.5451608 -0.46135473 -1.8233265 4288085770
5.6740746 -0.34575233 -1.8219342 4288085770
7.2821445 -0.44655657 -1.8291296 4288085770
10.293268 -0.63632548 -1.8513666 4288085770
12.518382 -0.77965522 -1.844017 4288085770
6.2461066 -0.38432145 -1.818357 4288085770
7.0651374 -0.43671864 -1.8289647 4288085770
5.8270822 -0.35864073 -1.8250449 4288085770
6.8671288 -0.42586744 -1.829816 4288085770
18.351633 -1.1563296 -1.883343 4288085770
5.9710922 -0.36953133 -1.8231503 4288085770
9.8642597 -0.6176405 -1.8450402 4288085770
6.1380978 -0.38140926 -1.826273 4288085770
6.6641221 -0.41501728 -1.8276633 4288085770
6.3051062 -0.39228457 -1.8263967 4288085770
6.4131179 -0.39919665 -1.8184769 4288085770
6.4661164 -0.40316156 -1.8235157 4288085770
9.4872484 -0.59992123 -1.8437546 4288085770
9.0922413 -0.57620358 -1.82946 4288085770
