# .PCD v0.7 - Point Cloud Data file format
VERSION 0.7
FIELDS x y z rgb
SIZE 4 4 4 4
TYPE F F F U
COUNT 1 1 1 1
WIDTH 1131
HEIGHT 1
VIEWPOINT 0 0 0 1 0 0 0
POINTS 1131
DATA ascii
3.9322531 -2.938005 -1.7136751 4293729569
3.2765701 -2.5333943 -1.6506906 4293729569
3.3088987 -2.5596745 -1.6408485 4293729569
3.8152835 -2.8758883 -1.7011598 4293729569
4.3328466 -3.2059305 -1.7375337 4293729569
3.6543224 -2.7837272 -1.6704391 4293729569
3.234947 -2.5275433 -1.6405348 4293729569
3.4943655 -2.6916387 -1.6377223 4293729569
3.4036324 -2.6413381 -1.6283188 4293729569
3.2352984 -2.5375924 -1.6355529 4293729569
3.1658466 -2.4977489 -1.640242 4293729569
3.3561018 -2.6180246 -1.6351128 4293729569
3.2674291 -2.566864 -1.6257151 4293729569
4.3353739 -3.2431729 -1.7356061 4293729569
3.2047784 -2.530504 -1.6234338 4293729569
3.1603763 -2.5054052 -1.6282357 4293729569
3.1150587 -2.4782171 -1.6480308 4293729569
3.1207559 -2.4836392 -1.6340599 4293729569
3.100445 -2.4722052 -1.6469694 4293729569
3.0729711 -2.4632885 -1.6568581 4293729569
3.2141373 -2.5551832 -1.6275085 4293729569
4.3522348 -3.2904091 -1.7387456 4293729569
3.1844885 -2.565186 -1.6144216 4293729569
4.3519115 -3.325455 -1.7348044 4293729569
3.1683066 -2.5831177 -1.6073952 4293729569
4.3555079 -3.3617728 -1.7308789 4293729569
3.1358044 -2.5909228 -1.5932945 4293729569
4.3638811 -3.4014206 -1.7289761 4293729569
4.3885851 -3.451201 -1.7311476 4293729569
3.1149867 -2.603533 -1.5822428 4293729569
4.4114323 -3.4988523 -1.7323092 4293729569
3.0960248 -2.6182733 -1.5722015 4293729569
4.4362745 -3.5466421 -1.7324779 4293729569
3.0953772 -2.6432774 -1.5692419 4293729569
4.4648981 -3.5976939 -1.7346655 4293729569
3.1453602 -2.7037914 -1.5845201 4293729569
4.4926672 -3.6466889 -1.7338464 4293729569
3.1658151 -2.7422566 -1.5886574 4293729569
4.5329132 -3.703547 -1.7370847 4293729569
3.1412861 -2.7506096 -1.5745857 4293729569
4.5654612 -3.7558742 -1.7372885 4293729569
3.0835197 -2.7326574 -1.5463526 4293729569
4.6105566 -3.8150694 -1.7405478 4288085770
3.0744565 -2.7490804 -1.5363489 4293729569
4.6547241 -3.8732011 -1.742802 4288085770
4.6989651 -3.9303396 -1.7430549 4288085770
3.0483434 -2.7513187 -1.5192612 4293729569
4.7509012 -3.9920089 -1.7463424 4288085770
3.0279372 -2.7579534 -1.5042011 4293729569
4.801918 -4.0526185 -1.7466248 4288085770
3.0314829 -2.7802455 -1.4982517 4293729569
4.842514 -4.1045012 -1.7438561 4288085770
2.9779069 -2.7595778 -1.4690287 4293729569
4.8955936 -4.1642523 -1.7431443 4288085770
4.9543819 -4.2284012 -1.7434602 4288085770
2.8519433 -2.6848886 -1.4124597 4293729569
5.0257168 -4.2994189 -1.7468317 4288085770
2.7966416 -2.6600947 -1.3832235 4293729569
5.1018381 -4.3737721 -1.7492256 4288085770
2.7728579 -2.657486 -1.3651357 4293729569
2.7567737 -2.6594105 -1.3490825 4293729569
2.8975084 -2.7717271 -1.0527653 4293729569
2.7426827 -2.6614721 -1.3330367 4293729569
2.8352396 -2.7314324 -1.0204781 4293729569
2.8856924 -2.7730412 -0.97372568 4293729569
2.8340299 -2.7353797 -1.0054806 4293729569
2.8233278 -2.7316651 -0.98843658 4293729569
2.8722451 -2.769248 -0.8856715 4293729569
2.824177 -2.7347522 -0.97344482 4293729569
2.7257378 -2.6613357 -1.315977 4293729569
2.9043801 -2.796463 -0.91083074 4293729569
2.8270004 -2.7400293 -0.92546344 4293729569
2.8297398 -2.7421687 -0.95947695 4293729569
2.8356187 -2.7466545 -0.91150486 4293729569
2.8144052 -2.7310722 -0.97540438 4293729569
2.8240225 -2.7387984 -0.94145095 4293729569
2.7136357 -2.6635327 -1.3009384 4293729569
2.7879927 -2.7212236 -0.98729515 4293729569
2.7130854 -2.6725309 -1.2879517 4293729569
2.771136 -2.7180381 -1.0022309 4293729569
2.7039721 -2.6749332 -1.2729239 4293729569
2.7523568 -2.7137203 -1.016158 4293729569
2.6968524 -2.6774726 -1.2579032 4293729569
2.7413461 -2.7129405 -1.0311182 4293729569
2.6935809 -2.6822786 -1.2438998 4293729569
2.7256882 -2.7068334 -1.0450529 4293729569
2.795716 -2.7603958 -0.61838686 4293729569
2.7214458 -2.7095211 -1.062043 4293729569
2.6894495 -2.6850231 -1.2288901 4293729569
2.7115643 -2.7068148 -1.0770038 4293729569
2.6853874 -2.6867726 -1.2128789 4293729569
2.7045352 -2.7063069 -1.0929784 4293729569
2.6927373 -2.6973143 -1.2009225 4293729569
2.6888735 -2.6960719 -1.1849068 4293729569
2.6986387 -2.7038748 -1.1079538 4293729569
2.7670143 -2.7564459 -0.6012795 4293729569
2.695595 -2.7036407 -1.1239427 4293729569
2.6877968 -2.6980245 -1.1699063 4293729569
2.6906393 -2.7012484 -1.1549217 4293729569
2.688771 -2.700145 -1.1379131 4293729569
2.8636467 -2.8355649 -0.37775171 4293729569
2.7413638 -2.7517025 -0.58518153 4293729569
2.7618864 -2.7715027 -0.3552857 4293729569
2.7214239 -2.7513576 -0.57011116 4293729569
2.7315199 -2.762428 -0.33916387 4293729569
2.7034142 -2.7521479 -0.55404949 4293729569
2.7504451 -2.7890689 -0.14927444 4293729569
2.7154992 -2.7633538 -0.32410932 4293729569
2.6903126 -2.7542748 -0.54000717 4293729569
2.725755 -2.7833433 -0.1631784 4293729569
2.698611 -2.7622149 -0.31004822 4293729569
2.6817958 -2.7600827 -0.29398566 4293729569
2.7049839 -2.7788887 -0.17709824 4293729569
2.6828582 -2.7617989 -0.52599394 4293729569
2.6763961 -2.7667449 -0.28097817 4293729569
2.6773956 -2.76946 -0.51198792 4293729569
2.6851428 -2.7755003 -0.19102316 4293729569
2.6644928 -2.76595 -0.26593512 4293729569
2.6672866 -2.7717938 -0.49695659 4293729569
2.6749303 -2.7777803 -0.20599149 4293729569
2.6839406 -2.7877052 -0.020038743 4293729569
2.664942 -2.7750189 -0.25195217 4293729569
2.6724265 -2.7845993 -0.21999457 4293729569
2.6600969 -2.7753291 -0.48293743 4293729569
2.6786468 -2.7913268 -0.034026578 4293729569
2.6588147 -2.7776251 -0.23793516 4293729569
2.6601336 -2.7830203 -0.047947682 4293729569
2.6622803 -2.7858829 -0.23496144 4293729569
2.6586196 -2.7832639 -0.46894583 4293729569
2.656543 -2.7825015 -0.2229355 4293729569
2.6511819 -2.7813802 -0.062913686 4293729569
2.6505477 -2.783113 -0.20891549 4293729569
2.6551263 -2.7873731 -0.2489391 4293729569
2.6544216 -2.7870061 -0.4539375 4293729569
2.6498725 -2.7852757 -0.076915905 4293729569
2.6474783 -2.7849293 -0.19390778 4293729569
2.6476963 -2.7871065 -0.091911569 4293729569
2.6416152 -2.7835467 -0.17988482 4293729569
2.6482942 -2.7896125 -0.43992043 4293729569
2.6488988 -2.7899272 -0.26392186 4293729569
2.6446564 -2.7868741 -0.10690066 4293729569
2.6415341 -2.7855675 -0.16488792 4293729569
2.6453545 -2.7898827 -0.13590847 4293729569
2.6454055 -2.7899098 -0.12090859 4293729569
2.6433771 -2.7887213 -0.15089968 4293729569
2.6432984 -2.7902942 -0.42490408 4293729569
2.6485169 -2.7948868 -0.27892914 4293729569
2.6363771 -2.7898419 -0.409879 4293729569
2.6472046 -2.7987807 -0.29393142 4293729569
2.6393192 -2.7962134 -0.3078995 4293729569
2.6390169 -2.796056 -0.39589882 4293729569
2.6370757 -2.7959464 -0.38089177 4293729569
2.6353524 -2.7949173 -0.32188353 4293729569
2.6380875 -2.7980857 -0.33789864 4293729569
2.6379216 -2.7990313 -0.36689991 4293729569
2.6351168 -2.7968583 -0.35188627 4293729569
7.333127 4.8696728 -1.7374314 4288085770
7.4738045 4.9527469 -1.7337025 4288085770
7.2036839 4.7898817 -1.742188 4288085770
7.0940981 4.7228394 -1.7499809 4288085770
7.6205387 5.0364308 -1.7289902 4288085770
6.9811363 4.6500015 -1.755774 4288085770
7.7828178 5.1281314 -1.7263101 4288085770
6.8733025 4.5788336 -1.7595792 4288085770
7.9439125 5.2169008 -1.7216314 4288085770
6.7778873 4.5138817 -1.7664102 4288085770
8.1267319 5.3162918 -1.7189983 4288085770
6.6792269 4.4451289 -1.7712383 4288085770
8.3375206 5.429914 -1.7204233 4288085770
6.590868 4.3807225 -1.7770892 4288085770
8.6054354 5.5749202 -1.7289623 4288085770
6.504509 4.316186 -1.7819463 4288085770
8.9855957 5.7828345 -1.7557238 4288085770
6.4139709 4.2489114 -1.7847958 4288085770
9.2728624 5.9326029 -1.7633117 4282675967
10.369789 6.5739551 -1.708436 4288085770
10.125916 6.4294276 -1.714967 4288085770
10.660428 6.7445235 -1.7069976 4288085770
9.9391737 6.3162837 -1.7276123 4288085770
6.3273659 4.1803789 -1.7866589 4288085770
11.003892 6.9417415 -1.7086692 4288085770
9.7741604 6.2137609 -1.7413031 4288085770
11.37739 7.1540504 -1.7114033 4288085770
9.523488 6.0576735 -1.7608345 4282675967
9.603713 6.1045737 -1.7529898 4288085770
9.4259014 5.9898481 -1.761664 4282675967
6.2272158 4.1037011 -1.7854961 4288085770
9.1896591 5.8388033 -1.7582287 4288085770
9.7321577 6.1533833 -1.749284 4288085770
8.8835011 5.644165 -1.7396626 4288085770
6.1280708 4.0269556 -1.7823365 4288085770
9.951128 6.2534366 -1.7377566 4288085770
8.5898352 5.4567342 -1.721121 4288085770
6.0392265 3.9545555 -1.7801995 4288085770
8.4084215 5.3322067 -1.7188016 4288085770
10.204124 6.368329 -1.7283038 4288085770
8.2602825 5.2265782 -1.7225477 4288085770
5.93472 3.8721404 -1.7730339 4288085770
10.438136 6.4684129 -1.7148207 4288085770
8.1286249 5.127903 -1.7273301 4288085770
5.8593006 3.8058882 -1.7719259 4288085770
7.9886713 5.0247493 -1.7290958 4288085770
10.75512 6.6122432 -1.7105067 4288085770
5.7921848 3.744113 -1.7728348 4288085770
7.876687 4.9358239 -1.7339195 4288085770
11.121863 6.7819204 -1.7112949 4288085770
7.7625151 4.8440347 -1.7387416 4288085770
5.7238836 3.6794062 -1.7717448 4288085770
11.560966 6.9860053 -1.7172366 4288085770
7.6483555 4.7522373 -1.7395637 4288085770
5.6670685 3.6219771 -1.7736766 4288085770
7.5662775 4.6764145 -1.7474527 4288085770
5.62673 3.5715044 -1.7786447 4288085770
7.4893198 4.6022625 -1.754354 4288085770
5.5842705 3.5191627 -1.7826097 4288085770
7.4081841 4.5253725 -1.7592475 4288085770
5.5449381 3.4686217 -1.7855809 4288085770
7.3394079 4.4536996 -1.7661685 4288085770
7.2737579 4.3838258 -1.7720956 4288085770
5.4909391 3.4080033 -1.784526 4288085770
7.2120991 4.3136973 -1.779035 4288085770
5.4660244 3.3635495 -1.790529 4288085770
7.1338406 4.234612 -1.779941 4288085770
5.4285612 3.310884 -1.7925096 4288085770
7.045167 4.1491847 -1.7778263 4288085770
5.4139471 3.2707772 -1.7995347 4288085770
3.7059634 2.3522565 -1.8280861 4288085770
3.6654828 2.3308332 -1.8320037 4288085770
3.6114671 2.3012583 -1.8298955 4288085770
3.7712095 2.3851194 -1.8332217 4288085770
3.8198698 2.4090204 -1.8293236 4288085770
3.5677459 2.2760334 -1.8308102 4288085770
6.9750919 4.0725808 -1.7797511 4288085770
3.525027 2.250742 -1.8307277 4288085770
3.8746397 2.4345367 -1.828441 4288085770
3.9231732 2.4564433 -1.824546 4288085770
3.4811866 2.2235186 -1.8296453 4288085770
5.3867912 3.2224579 -1.8025371 4288085770
3.9944198 2.4889152 -1.8266997 4288085770
3.4445841 2.1998382 -1.8305783 4288085770
4.0624828 2.5185866 -1.8278489 4288085770
3.4141581 2.1787679 -1.8335248 4288085770
6.903965 3.9950385 -1.7786746 4288085770
4.1387272 2.5507355 -1.8290178 4288085770
3.3794944 2.1539602 -1.8334651 4288085770
4.2056084 2.5774736 -1.8271685 4288085770
3.3406518 2.1264138 -1.8313977 4288085770
5.3626957 3.1749439 -1.8055472 4288085770
4.2838488 2.6094942 -1.8283434 4288085770
3.313163 2.1041515 -1.8333549 4288085770
6.8297825 3.9166892 -1.7765902 4288085770
4.3712597 2.6439323 -1.8315413 4288085770
3.2866137 2.0808268 -1.8343164 4288085770
4.4669094 2.6818473 -1.8357575 4288085770
5.3458385 3.1309726 -1.8105724 4288085770
3.2600644 2.0575013 -1.835278 4288085770
4.5634365 2.7177002 -1.8379796 4288085770
6.7420607 3.8301923 -1.7704799 4288085770
3.2231066 2.0278249 -1.8292198 4288085770
4.6568432 2.7517495 -1.8391955 4288085770
4.6774006 2.7594318 -1.8342428 4288085770
4.6130676 2.7255218 -1.8371117 4288085770
4.7446613 2.7921536 -1.8323843 4288085770
4.5445604 2.6888714 -1.8369728 4288085770
4.8088102 2.8230679 -1.8275201 4288085770
5.3341017 3.0886755 -1.8156098 4288085770
3.2140248 2.0113969 -1.8362207 4288085770
4.883255 2.8583305 -1.8246785 4288085770
4.4718771 2.6494803 -1.8338267 4288085770
4.9648104 2.8951414 -1.8238553 4288085770
4.3970089 2.607224 -1.8296788 4288085770
4.741828 2.7793241 -1.836398 4288085770
4.3356209 2.5721166 -1.8285582 4288085770
5.0514889 2.9336236 -1.822044 4288085770
6.6781845 3.7561879 -1.7684183 4288085770
5.1495228 2.9773891 -1.8232572 4288085770
4.2751722 2.5359461 -1.8264422 4288085770
3.1862977 1.9851388 -1.8341837 4288085770
4.2219009 2.5023196 -1.8253429 4288085770
5.2370138 3.0128121 -1.8194537 4288085770
4.8195171 2.8023546 -1.8295865 4288085770
5.3162098 3.0437553 -1.8116335 4288085770
4.1643877 2.4649572 -1.8222377 4288085770
5.3150635 3.0418372 -1.8186333 4288085770
3.1657498 1.9614245 -1.8331635 4288085770
5.4119415 3.082655 -1.8088481 4288085770
4.9188557 2.8350172 -1.8288224 4288085770
4.1172934 2.4339409 -1.8231521 4288085770
6.6442642 3.6962891 -1.7724205 4288085770
5.4971313 3.1132112 -1.800046 4288085770
4.0865488 2.4078863 -1.8271061 4288085770
3.1513751 1.9403225 -1.8351569 4288085770
5.0253105 2.8692253 -1.8280764 4288085770
5.6112089 3.1569426 -1.7993064 4288085770
4.0320997 2.3713264 -1.8230082 4288085770
5.3074493 3.0012782 -1.8236797 4288085770
5.7293463 3.2014127 -1.7975774 4288085770
6.5792665 3.620352 -1.7693589 4288085770
3.1390584 1.9200906 -1.8381548 4288085770
4.0012951 2.3442726 -1.8259637 4288085770
5.1409349 2.9058506 -1.8293533 4288085770
5.8462992 3.2429512 -1.7938498 4288085770
3.9704301 2.3162196 -1.8279206 4288085770
5.2462044 2.9371276 -1.8266089 4288085770
3.1039212 1.8872885 -1.8291069 4288085770
5.9694338 3.2870963 -1.7901361 4288085770
5.2904129 2.9543099 -1.8257092 4288085770
3.9313323 2.2846859 -1.8268592 4288085770
6.5484743 3.5622542 -1.7723674 4288085770
6.1027355 3.3335948 -1.7884481 4288085770
5.3461084 2.9627361 -1.8208581 4288085770
3.1048934 1.8712156 -1.8361367 4288085770
3.8962333 2.2528937 -1.82481 4288085770
6.2369785 3.3790286 -1.7847646 4288085770
5.2909126 2.9152329 -1.8317769 4288085770
5.4666653 2.9980392 -1.8201518 4288085770
6.5186176 3.5030935 -1.7753801 4288085770
3.8704898 2.2265141 -1.8267791 4288085770
3.0831692 1.8445685 -1.8321178 4288085770
6.372097 3.4223993 -1.7790873 4288085770
3.8487389 2.1998794 -1.8297603 4288085770
5.5684452 3.0215197 -1.8114103 4288085770
6.504034 3.4629679 -1.7714055 4288085770
3.0747898 1.8230813 -1.8341292 4288085770
5.2738819 2.8682637 -1.8328065 4288085770
6.5186529 3.4570415 -1.7844585 4288085770
3.8156416 2.1679568 -1.8267169 4288085770
6.6750994 3.520056 -1.7708104 4288085770
5.6876965 3.0518939 -1.8067085 4288085770
3.0705321 1.8033314 -1.8361496 4288085770
3.7866027 2.1367748 -1.8236843 4288085770
6.8366766 3.5697398 -1.7672001 4288085770
5.8181801 3.0855522 -1.8030339 4288085770
5.2557306 2.8193603 -1.8318359 4288085770
6.4876776 3.3959475 -1.7854711 4288085770
3.7657945 2.1090753 -1.82467 4288085770
3.0672104 1.7825203 -1.8381748 4288085770
7.0260897 3.6316583 -1.7676507 4288085770
5.9640083 3.1242387 -1.803396 4288085770
7.2339115 3.6994057 -1.7701453 4288085770
3.740876 2.0796328 -1.8226464 4288085770
6.4701223 3.3410029 -1.7885128 4288085770
5.2468758 2.7748711 -1.833885 4288085770
3.0556591 1.7582263 -1.8361816 4288085770
6.102541 3.158381 -1.7997442 4288085770
7.4580202 3.7711141 -1.7736813 4288085770
3.7303021 2.0552838 -1.8256563 4288085770
3.0482266 1.7356724 -1.8351976 4288085770
6.252306 3.1958079 -1.79712 4288085770
6.4525042 3.2850623 -1.7915559 4288085770
5.2369633 2.7294469 -1.8349327 4288085770
7.6757679 3.8372166 -1.7732078 4288085770
3.7073209 2.0247135 -1.8226403 4288085770
6.4091177 3.2337844 -1.7955155 4288085770
3.1056421 1.7410395 -1.8643563 4288085770
7.9253407 3.9152977 -1.7768077 4288085770
3.6905162 1.9967538 -1.8216381 4288085770
6.4421949 3.2336581 -1.7946128 4288085770
5.2249336 2.682153 -1.8339772 4288085770
8.1819038 3.9929276 -1.7794287 4288085770
6.5678082 3.2696323 -1.7909201 4288085770
3.0857389 1.7112672 -1.8573477 4288085770
3.6870582 1.9739519 -1.8256662 4288085770
6.4472313 3.1872816 -1.801706 4288085770
8.4578791 4.0763183 -1.7820969 4288085770
5.2211399 2.6383388 -1.8350399 4288085770
6.7541981 3.3157251 -1.7923887 4288085770
3.0379717 1.6682423 -1.8352798 4288085770
3.6711929 1.944929 -1.8236684 4288085770
8.7274876 4.1541047 -1.7817562 4288085770
6.9188137 3.3501892 -1.7868129 4288085770
6.4439716 3.1364274 -1.8057823 4288085770
3.6615036 1.9185164 -1.8236841 4288085770
5.2008152 2.5865676 -1.8310676 4288085770
9.0050201 4.2303796 -1.7804412 4288085770
7.0894184 3.3842678 -1.7812555 4288085770
3.6548741 1.8929079 -1.8237076 4288085770
6.4654226 3.0960088 -1.8149135 4288085770
9.3143206 4.3176312 -1.7812006 4288085770
5.1970272 2.5427508 -1.83113 4288085770
7.2866659 3.4276547 -1.7797605 4288085770
3.6522996 1.8680421 -1.8247415 4288085770
9.6068974 4.3939323 -1.7759298 4288085770
6.4693413 3.047699 -1.8200066 4288085770
7.5063772 3.4776125 -1.7813203 4288085770
5.1880627 2.4962609 -1.8291821 4288085770
9.8930445 4.4636331 -1.7676513 4288085770
3.6456101 1.8414352 -1.8237664 4288085770
7.7197237 3.5219648 -1.7788709 4288085770
6.5164375 3.016654 -1.8341972 4288085770
10.216009 4.5449896 -1.7624613 4288085770
3.6480901 1.8172477 -1.825814 4288085770
5.191452 2.4549894 -1.8302613 4288085770
7.9626455 3.5744343 -1.7804946 4288085770
10.554013 4.6263776 -1.7563149 4288085770
6.489418 2.9542966 -1.829223 4288085770
3.6505706 1.7930598 -1.8278615 4288085770
5.1856108 2.4103014 -1.8283194 4288085770
8.1858501 3.6161466 -1.7760787 4288085770
10.911367 4.7125287 -1.7492179 4288085770
3.6489394 1.7671291 -1.8269 4288085770
6.5076323 2.9100749 -1.8343512 4288085770
8.4314537 3.6634307 -1.773719 4288085770
11.313648 4.8118181 -1.74623 4288085770
5.1888781 2.367034 -1.8284014 4288085770
3.6503642 1.7420048 -1.826946 4288085770
6.5083799 2.8589597 -1.8354394 4288085770
11.738145 4.913681 -1.7423031 4288085770
8.7169876 3.7241797 -1.7784538 4288085770
5.1880941 2.3230221 -1.826473 4288085770
3.6640766 1.7211039 -1.8310208 4288085770
12.226049 5.0355058 -1.7425286 4288085770
9.0525665 3.7997425 -1.7883104 4288085770
6.5214195 2.8120637 -1.8385566 4288085770
5.1904335 2.280813 -1.8245507 4288085770
3.6664441 1.6949143 -1.8290714 4288085770
12.800878 5.1848001 -1.7519627 4288085770
9.3888912 3.8712478 -1.796176 4288085770
3.2042844 1.5084441 -1.8890311 4288085770
3.1607883 1.4841286 -1.8409441 4288085770
6.5313406 2.7633643 -1.8406676 4288085770
3.6842115 1.6747561 -1.8341569 4288085770
3.222904 1.4991599 -1.8411007 4288085770
13.646301 5.4288826 -1.7880305 4288085770
5.1927099 2.2376065 -1.8226298 4288085770
9.7474928 3.9463282 -1.804101 4288085770
3.2911928 1.5168017 -1.8432708 4288085770
3.1932337 1.4740409 -1.8460556 4288085770
3.1408656 1.4543729 -1.8429352 4288085770
3.2394364 1.4910932 -1.8441622 4288085770
3.2825201 1.5063419 -1.8412629 4288085770
3.1335104 1.4498668 -1.8599213 4288085770
3.3409464 1.52662 -1.8433998 4288085770
3.3604205 1.53338 -1.8444457 4288085770
3.3921421 1.5433514 -1.8415216 4288085770
6.5381489 2.7128575 -1.8397726 4288085770
3.4402854 1.5592746 -1.8376359 4288085770
14.408908 5.6312017 -1.8079259 4288085770
3.4944804 1.5758116 -1.8347669 4288085770
3.6864545 1.6465725 -1.8322103 4288085770
3.1627109 1.4520028 -1.865003 4288085770
3.4275935 1.549086 -1.8436157 4288085770
3.5609624 1.5965716 -1.8359267 4288085770
10.095546 4.0130682 -1.8080091 4288085770
3.6171572 1.6129783 -1.8320636 4288085770
5.2062168 2.1976864 -1.8227363 4288085770
3.4936445 1.56286 -1.8417859 4288085770
3.6866333 1.6335458 -1.8332323 4288085770
3.747822 1.6496315 -1.8293846 4288085770
14.979117 5.7547264 -1.7983903 4288085770
3.5647485 1.577312 -1.8409697 4288085770
3.8233554 1.6708094 -1.8295701 4288085770
6.5572443 2.6665747 -1.8429064 4288085770
3.6918185 1.6201911 -1.8302698 4288085770
3.1395376 1.4174194 -1.8479924 4288085770
10.415581 4.0645757 -1.8048608 4288085770
3.9008868 1.6918584 -1.8297616 4288085770
3.6317408 1.5900208 -1.8371443 4288085770
3.9752386 1.7101052 -1.8279488 4288085770
5.2228441 2.1595702 -1.8238486 4288085770
4.0639353 1.733444 -1.8301692 4288085770
15.592881 5.8854642 -1.7899702 4288085770
3.7119544 1.6058913 -1.8373524 4288085770
3.6961849 1.593874 -1.8283261 4288085770
4.1484585 1.7540417 -1.8293821 4288085770
10.746594 4.1153755 -1.8007461 4288085770
3.1501544 1.3947062 -1.846061 4288085770
6.5681095 2.6168087 -1.8420218 4288085770
17.514275 6.5269098 -1.7875228 4288085770
3.7788885 1.6175992 -1.8315285 4288085770
4.2360382 1.7754449 -1.8286027 4288085770
16.222555 6.0141721 -1.7786005 4288085770
5.2342949 2.1187794 -1.8229505 4288085770
3.8733227 1.6365653 -1.8347731 4288085770
4.3306684 1.797397 -1.8288429 4288085770
3.7056077 1.5682331 -1.8263962 4288085770
11.105 4.1714239 -1.7977027 4288085770
4.4221821 1.817544 -1.8270768 4288085770
3.1679385 1.3745424 -1.8481463 4288085770
3.9595282 1.6520489 -1.8339993 4288085770
6.5708065 2.5645614 -1.8391174 4288085770
17.114956 6.2551842 -1.7848115 4288085770
4.5095863 1.8359462 -1.8213019 4288085770
16.962246 6.1708584 -1.772506 4288085770
4.0446739 1.6665977 -1.832224 4288085770
5.2590332 2.0821466 -1.8250841 4288085770
4.6122055 1.8573834 -1.8205663 4288085770
11.487609 4.2299252 -1.7967263 4288085770
3.7191451 1.5443333 -1.8264754 4288085770
4.1410456 1.6844345 -1.8334762 4288085770
4.7209377 1.8804314 -1.8208461 4288085770
3.18766 1.3532513 -1.8492391 4288085770
16.839102 6.0336113 -1.7913775 4288085770
6.590847 2.5172122 -1.8392556 4288085770
17.788425 6.3480234 -1.769631 4288085770
4.8459549 1.9074425 -1.8231667 4288085770
4.2341785 1.6984698 -1.8317254 4288085770
11.845382 4.2759943 -1.789698 4288085770
5.284833 2.0464466 -1.8272191 4288085770
3.7326219 1.5194353 -1.825556 4288085770
4.9576893 1.9302925 -1.8204557 4288085770
4.3334274 1.7141144 -1.8299894 4288085770
3.2043293 1.3311521 -1.8483241 4288085770
18.839323 6.5918665 -1.7813028 4293729569
16.688318 5.8560815 -1.8082359 4288085770
6.6067734 2.4681211 -1.8373846 4288085770
5.0886946 1.9569181 -1.8227946 4288085770
4.4510708 1.7355949 -1.8342979 4288085770
12.232417 4.3251891 -1.7827502 4288085770
3.7542675 1.4970204 -1.8276565 4288085770
5.2073536 1.9783219 -1.8201061 4288085770
5.2941704 2.0037851 -1.8233178 4288085770
4.543025 1.7466953 -1.8285483 4288085770
3.2209985 1.3090528 -1.8474092 4288085770
5.3422966 2.0036883 -1.8194587 4288085770
16.582731 5.6956749 -1.827198 4288085770
6.6175842 2.4173551 -1.8345013 4288085770
12.693825 4.3936458 -1.7839882 4288085770
4.6471405 1.7600226 -1.8258307 4288085770
5.5068035 2.037178 -1.8258846 4288085770
3.7737973 1.4727359 -1.8277539 4288085770
5.3290777 1.9695059 -1.8274771 4288085770
3.242718 1.2876334 -1.848508 4288085770
4.7604265 1.7757659 -1.8241359 4288085770
5.6599617 2.0653813 -1.8272859 4288085770
16.441395 5.5245433 -1.8410729 4288085770
6.6693163 2.3799939 -1.8407154 4288085770
13.134385 4.4494162 -1.7801868 4288085770
3.7984383 1.4501288 -1.8298633 4288085770
5.8068848 2.0899761 -1.8256748 4288085770
4.8715906 1.7896411 -1.8214381 4288085770
5.3507071 1.9310642 -1.8256047 4288085770
3.2756603 1.2695045 -1.8536342 4288085770
5.9731464 2.1193392 -1.8271126 4288085770
5.009263 1.8108336 -1.8248057 4288085770
16.199915 5.3227844 -1.8427057 4288085770
13.660364 4.5247359 -1.7826027 4288085770
6.6984711 2.3340611 -1.8408778 4288085770
3.8169086 1.4249096 -1.8289589 4288085770
6.1495132 2.1500573 -1.8295777 4288085770
5.1447525 1.8291607 -1.8271717 4288085770
5.3753281 1.8924319 -1.824741 4288085770
3.2973816 1.2480836 -1.8537329 4288085770
6.3175898 2.1762936 -1.827026 4288085770
14.18384 4.5922008 -1.7820245 4288085770
15.839145 5.0886197 -1.8290429 4288085770
5.2750092 1.8438112 -1.8245285 4288085770
6.697999 2.2790072 -1.8329685 4288085770
3.84355 1.4021726 -1.8300745 4288085770
6.500824 2.2045622 -1.8265156 4288085770
5.4184866 1.8616208 -1.8249187 4288085770
5.4050026 1.8544776 -1.8248912 4288085770
3.3190444 1.2256638 -1.8528333 4288085770
14.759973 4.6683011 -1.7845864 4288085770
6.7146225 2.2408886 -1.832081 4288085770
15.33364 4.8156691 -1.7960206 4288085770
3.8671358 1.3786288 -1.8301824 4288085770
6.7444992 2.2379708 -1.8351734 4288085770
5.5873489 1.8848175 -1.8313745 4288085770
6.9292355 2.2741535 -1.8346541 4288085770
15.405049 4.7569952 -1.7913293 4288085770
3.3447602 1.2039864 -1.852944 4288085770
5.4439096 1.8199384 -1.8270627 4288085770
5.7346334 1.899376 -1.8297814 4288085770
7.1784086 2.3152173 -1.8423152 4288085770
15.181815 4.6522069 -1.7998514 4288085770
3.9008267 1.3564415 -1.8323176 4288085770
6.7848272 2.1943231 -1.8343644 4288085770
5.9053698 1.9204445 -1.8332462 4288085770
7.4070625 2.3485773 -1.8429292 4288085770
16.20673 4.8817 -1.8104711 4288085770
3.3735936 1.1841124 -1.8540609 4288085770
5.4827557 1.7844003 -1.8282355 4288085770
3.9304626 1.3335118 -1.8334421 4288085770
15.029195 4.4917984 -1.8016742 4288085770
6.0575218 1.9326836 -1.8296713 4288085770
6.8638868 2.1612177 -1.8436514 4288085770
7.6743259 2.3904803 -1.8506424 4288085770
16.946566 4.9793239 -1.8194771 4288085770
3.4033 1.1621802 -1.8551838 4288085770
7.9424076 2.4293203 -1.8543628 4288085770
6.2371798 1.952176 -1.8321648 4288085770
5.5287104 1.7504109 -1.8314266 4288085770
3.9681442 1.3110698 -1.8365893 4288085770
14.937919 4.3504834 -1.8086448 4288085770
6.8775826 2.1082571 -1.83578 4288085770
8.1847887 2.4577854 -1.8510253 4288085770
6.4176531 1.9686068 -1.831666 4288085770
17.79365 5.0930886 -1.8337704 4288085770
3.4268992 1.1386334 -1.8532915 4288085770
5.5705547 1.7146786 -1.8316087 4288085770
3.9997795 1.2880101 -1.83672 4288085770
8.4514999 2.4906974 -1.8497518 4288085770
14.884522 4.2217574 -1.8187052 4288085770
6.6051083 1.9845902 -1.8321882 4288085770
6.9239655 2.0652215 -1.8349876 4288085770
18.677723 5.2054758 -1.8481748 4288085770
8.7454739 2.526866 -1.8505528 4288085770
3.4658363 1.120116 -1.8564355 4288085770
6.7873907 1.9978975 -1.8297 4288085770
4.0445709 1.2671151 -1.8408854 4288085770
5.6174498 1.679625 -1.8328042 4288085770
14.869819 4.1025629 -1.8308631 4288085770
6.975338 2.0218654 -1.8342105 4288085770
9.0677691 2.5672243 -1.8534298 4288085770
19.512186 5.2939997 -1.8514739 4288085770
7.0295486 2.0233927 -1.8383669 4288085770
3.4934289 1.0963125 -1.8545554 4288085770
4.0781431 1.2429284 -1.8400234 4288085770
9.3766556 2.6014278 -1.8512779 4288085770
5.6521254 1.6413454 -1.8299692 4288085770
14.822555 3.9754419 -1.8379384 4288085770
7.2543049 2.04299 -1.8419925 4288085770
7.041995 1.9825364 -1.8354714 4288085770
9.6923418 2.6321869 -1.8471515 4288085770
3.5251377 1.0742488 -1.8536843 4288085770
4.1269283 1.2217766 -1.844201 4288085770
7.4594793 2.0538225 -1.8385754 4288085770
5.7020149 1.6060991 -1.8311739 4288085770
14.817033 3.8586576 -1.8481188 4288085770
9.9987354 2.6585302 -1.8390056 4288085770
7.1147032 1.9438215 -1.8377489 4288085770
7.6808081 2.066623 -1.8372025 4288085770
3.5578434 1.0521207 -1.8528162 4288085770
4.1654892 1.1972709 -1.8443542 4288085770
10.318105 2.6840377 -1.829899 4288085770
5.7650661 1.5730137 -1.8344134 4288085770
14.80453 3.7423224 -1.8572778 4288085770
7.9578972 2.0898707 -1.8449756 4288085770
7.1771193 1.9007571 -1.8370036 4288085770
10.687004 2.7163813 -1.8259262 4288085770
3.5956604 1.0316697 -1.8539604 4288085770
4.2071686 1.1745671 -1.8445135 4288085770
8.2225761 2.106899 -1.8477228 4288085770
5.8149614 1.537764 -1.833618 4288085770
14.788854 3.6231821 -1.8634322 4288085770
7.290431 1.8704563 -1.846386 4288085770
11.085224 2.7528486 -1.8230325 4288085770
3.627249 1.0076081 -1.8510923 4288085770
4.2537756 1.150547 -1.8456894 4288085770
8.5053406 2.1247704 -1.8525215 4288085770
11.505401 2.787904 -1.8202057 4288085770
5.8718414 1.502067 -1.8338438 4288085770
14.767131 3.503427 -1.8675697 4288085770
7.3660116 1.8295512 -1.8466756 4288085770
8.7797489 2.1371651 -1.853305 4288085770
3.67012 0.98783356 -1.8522499 4288085770
4.3116035 1.1298169 -1.8508927 4288085770
11.967001 2.8283093 -1.8194913 4288085770
5.9327774 1.4671105 -1.8340802 4288085770
9.1108551 2.1589415 -1.861239 4288085770
14.751655 3.3872733 -1.8707194 4288085770
7.4150896 1.7813257 -1.8388996 4288085770
12.473953 2.8728108 -1.8209029 4288085770
4.3562174 1.1059219 -1.8500626 4288085770
3.7159202 0.9668712 -1.8544184 4288085770
3.1285131 0.83942145 -1.8479095 4288085770
3.2095015 0.85224551 -1.8531255 4288085770
3.1272128 0.83449429 -1.8449138 4288085770
3.164645 0.84217393 -1.8910109 4282675967
3.1992762 0.84889311 -1.850101 4288085770
3.2652366 0.8616755 -1.8512727 4288085770
3.3230979 0.8729679 -1.8474236 4288085770
3.3971636 0.88723481 -1.8506168 4288085770
3.2762201 0.8609696 -1.8513061 4288085770
9.4589262 2.1796288 -1.8702246 4288085770
3.4650662 0.89888644 -1.848796 4288085770
3.5340273 0.91147256 -1.8479773 4288085770
3.3540971 0.87198633 -1.8535157 4288085770
6.0058718 1.4343808 -1.8373486 4288085770
3.6019361 0.92312044 -1.8441565 4288085770
13.032308 2.9220202 -1.8244578 4288085770
3.6900399 0.9374879 -1.8483908 4288085770
14.56544 3.2330029 -1.8524321 4288085770
7.5078249 1.7423228 -1.8402362 4288085770
3.4339111 0.88187575 -1.8547329 4288085770
3.7690508 0.95042771 -1.8466007 4288085770
4.4129248 1.0832583 -1.853266 4288085770
3.7475121 0.94280618 -1.84955 4288085770
3.8489964 0.96230608 -1.8448149 4288085770
3.5086811 0.89108187 -1.8519365 4288085770
3.9339969 0.97486097 -1.8430429 4288085770
9.7914667 2.1922934 -1.8731781 4288085770
3.5854461 0.90016127 -1.8501461 4288085770
4.0372601 0.99125904 -1.8483181 4288085770
13.56883 2.9586017 -1.8199698 4288085770
3.6732461 0.90953761 -1.8513875 4288085770
4.1414061 1.0055932 -1.8505992 4288085770
6.0717983 1.3991036 -1.8376001 4288085770
4.2476101 1.0207963 -1.852885 4288085770
7.609664 1.7047408 -1.8435972 4288085770
14.469944 3.102952 -1.8433702 4288085770
3.7590539 0.9190383 -1.8506228 4288085770
4.4676409 1.0607193 -1.8544631 4288085770
4.3547535 1.0349361 -1.8541751 4288085770
3.8003566 0.92239553 -1.8537382 4288085770
10.104549 2.1981895 -1.870086 4288085770
3.8477948 0.92734939 -1.8498687 4288085770
14.222816 3.0146832 -1.8267934 4288085770
4.4628992 1.0490079 -1.8534684 4288085770
3.9415896 0.93633682 -1.8491284 4288085770
4.5648718 1.06047 -1.8507481 4288085770
6.1417789 1.3645672 -1.8378623 4288085770
4.6810036 1.0740287 -1.8500655 4288085770
4.0485382 0.94748873 -1.8524231 4288085770
10.436586 2.2028692 -1.8690515 4288085770
7.7246037 1.6683186 -1.8469945 4288085770
4.5222998 1.0371798 -1.8536619 4288085770
14.432286 2.9842091 -1.838459 4288085770
15.000005 3.0858843 -1.8419533 4288085770
3.8379977 0.8989445 -1.8498867 4288085770
4.7869148 1.0842314 -1.8443588 4288085770
4.1544313 0.95770389 -1.853716 4288085770
4.9283028 1.1011804 -1.8487448 4288085770
4.2653131 0.96760005 -1.8560243 4288085770
5.0543556 1.1130984 -1.8470939 4288085770
10.772491 2.2052951 -1.8660319 4288085770
6.2076464 1.3282893 -1.8361151 4288085770
15.811135 3.1548977 -1.8542163 4288085770
4.3892899 0.9786616 -1.8613689 4288085770
4.5829391 1.0132607 -1.8558786 4288085770
7.8263264 1.6287353 -1.8463584 4288085770
5.1905775 1.1273679 -1.8464693 4288085770
14.437365 2.8757422 -1.8386556 4288085770
3.892843 0.87840188 -1.8520808 4288085770
4.4970627 0.98674697 -1.8586709 4288085770
5.3256197 1.1387045 -1.8428459 4288085770
11.171891 2.2136617 -1.870189 4288085770
4.6219177 0.99574476 -1.8610216 4288085770
5.4525576 1.1485547 -1.8362013 4288085770
16.804094 3.2472847 -1.8799741 4288085770
6.2968302 1.2965274 -1.8394294 4288085770
4.6425781 0.9894014 -1.8560929 4288085770
7.9634638 1.5948948 -1.8528169 4288085770
5.6239491 1.1645732 -1.839677 4288085770
4.7416601 1.0030611 -1.8593603 4288085770
3.9375212 0.85550165 -1.8502493 4288085770
14.575059 2.7888052 -1.8522054 4288085770
5.7831297 1.1773638 -1.8381219 4288085770
11.58613 2.2190659 -1.8733946 4288085770
4.8582935 1.0085717 -1.8556927 4288085770
17.782221 3.3265855 -1.8957098 4288085770
5.9655094 1.192674 -1.8406307 4288085770
4.7072773 0.96621734 -1.8563204 4288085770
4.9860277 1.0153744 -1.8540554 4288085770
6.3888912 1.2625744 -1.841755 4288085770
8.0974293 1.5582488 -1.8572704 4288085770
3.9973543 0.83463818 -1.8534586 4288085770
6.1295624 1.2031441 -1.8360939 4288085770
14.665236 2.6948965 -1.8586267 4288085770
12.068049 2.2331464 -1.8837839 4288085770
5.1208076 1.0227269 -1.8534377 4288085770
19.008625 3.4340019 -1.9271264 4288085770
6.3269749 1.2184889 -1.8386467 4288085770
5.2655668 1.029439 -1.8538505 4288085770
4.7749043 0.941845 -1.8575583 4288085770
6.4769611 1.2288764 -1.843069 4288085770
6.5354319 1.2341247 -1.8412315 4288085770
8.2262201 1.5189276 -1.858713 4288085770
4.0419807 0.81073636 -1.8496282 4288085770
12.582897 2.2451115 -1.8962731 4288085770
5.4082737 1.0352772 -1.8512588 4288085770
14.751105 2.5962553 -1.8630433 4288085770
6.7589188 1.249797 -1.8448602 4288085770
5.5559053 1.0397987 -1.8496836 4288085770
4.8607397 0.92031366 -1.8628448 4288085770
6.9782352 1.2627271 -1.8444811 4288085770
6.5790644 1.1952788 -1.8454233 4288085770
13.131741 2.2558904 -1.9078642 4288085770
4.0986996 0.78806579 -1.8498312 4288085770
8.3640604 1.480024 -1.8591814 4288085770
5.7156363 1.0455467 -1.8491418 4288085770
7.2258015 1.2788529 -1.8481796 4288085770
14.880584 2.505831 -1.871574 4288085770
5.8843489 1.0507184 -1.8496274 4288085770
4.9384699 0.89729607 -1.8651102 4288085770
7.4560366 1.290076 -1.8458356 4288085770
13.696358 2.2626507 -1.9195082 4288085770
6.6760569 1.160004 -1.8457657 4288085770
4.1685753 0.76755786 -1.8530693 4288085770
8.5099401 1.4416077 -1.8616724 4288085770
6.0448351 1.0524058 -1.8450946 4288085770
7.7548742 1.3089194 -1.8536799 4288085770
15.042314 2.4183409 -1.8811944 4288085770
6.2315741 1.0574194 -1.8456333 4288085770
5.0120897 0.87253517 -1.8643664 4288085770
14.240328 2.2597144 -1.9251078 4288085770
8.0545845 1.3257017 -1.8605303 4288085770
4.2292862 0.74463058 -1.8532844 4288085770
6.793251 1.1274419 -1.8501629 4288085770
8.6557016 1.4011916 -1.8611665 4288085770
6.4333391 1.0624727 -1.8492159 4288085770
8.3319178 1.3368998 -1.8583243 4288085770
15.192882 2.3285613 -1.8887855 4288085770
5.093751 0.84826201 -1.8656453 4288085770
14.730151 2.2402177 -1.9205763 4288085770
6.6440897 1.0669467 -1.8518257 4288085770
8.6484127 1.3495923 -1.8612306 4288085770
4.2971048 0.72325027 -1.8545177 4288085770
6.923543 1.0960416 -1.8555964 4288085770
8.8277187 1.3641001 -1.864732 4288085770
6.8718672 1.0713286 -1.8554857 4288085770
8.9729004 1.3617661 -1.8611614 4288085770
5.173358 0.82311612 -1.8649194 4288085770
15.401832 2.2430441 -1.9005408 4288085770
15.188287 2.2107317 -1.9089687 4288085770
4.3759613 0.70216477 -1.8577831 4288085770
7.1267672 1.0769778 -1.8642232 4288085770
9.3254547 1.3741405 -1.863174 4288085770
7.0445442 1.0602274 -1.8580099 4288085770
9.0045395 1.3236922 -1.8663172 4288085770
7.3451948 1.0759434 -1.8618648 4288085770
5.2610083 0.79845595 -1.8652167 4288085770
9.7081327 1.3875848 -1.8672732 4288085770
15.659076 2.1754253 -1.8974078 4288085770
15.594506 2.1535623 -1.9092548 4288085770
4.4447136 0.67972308 -1.8590209 4288085770
7.1938562 1.0286083 -1.8654995 4288085770
9.213666 1.2872212 -1.8719904 4288085770
7.6069002 1.0781443 -1.8666279 4288085770
10.094623 1.3977731 -1.867389 4288085770
5.3456039 0.77298933 -1.8645062 4288085770
16.17296 2.1403544 -1.8879726 4288085770
7.914875 1.0833892 -1.8785216 4288085770
10.516163 1.4077135 -1.8696079 4288085770
15.778953 2.0605989 -1.9139504 4288085770
4.5083637 0.6555993 -1.8552465 4288085770
7.3531456 0.99634761 -1.8730193 4288085770
9.427722 1.2494299 -1.8766801 4288085770
10.967774 1.4177203 -1.8709151 4288085770
8.1590052 1.0766913 -1.8732481 4288085770
5.4442921 0.74862212 -1.8658351 4288085770
16.762062 2.106463 -1.8847562 4288085770
4.592207 0.63419276 -1.8585269 4288085770
15.970317 1.9661888 -1.9186686 4288085770
11.433231 1.4248323 -1.8712674 4288085770
8.4131765 1.0703491 -1.8680032 4288085770
9.641654 1.2096413 -1.8793731 4288085770
7.5022135 0.96073264 -1.8765148 4288085770
5.5338821 0.72283119 -1.8631397 4288085770
17.458693 2.0776834 -1.8888465 4288085770
11.956882 1.4332134 -1.8747885 4288085770
4.6719389 0.61104339 -1.8587983 4288085770
8.7104378 1.064249 -1.8688844 4288085770
16.163559 1.8696506 -1.9203957 4288085770
7.682519 0.92812461 -1.8860971 4288085770
9.8725519 1.1687611 -1.8821175 4288085770
5.6314497 0.69653028 -1.8624686 4288085770
12.623486 1.4524473 -1.8917106 4288085770
9.0468616 1.0596416 -1.873878 4288085770
18.236395 2.047704 -1.8991766 4288085770
4.7476234 0.58714831 -1.856059 4288085770
13.575107 1.4954587 -1.9424292 4288085770
10.106383 1.126688 -1.8828725 4288085770
9.4092913 1.0543666 -1.880949 4288085770
7.8666935 0.89326203 -1.8936942 4288085770
16.37882 1.7726973 -1.922188 4288085770
5.7310181 0.67009741 -1.8598036 4288085770
19.170715 2.022686 -1.9189577 4288085770
4.8403864 0.56416541 -1.858368 4288085770
14.391969 1.5140467 -1.963793 4288085770
9.7543287 1.0431895 -1.8809785 4288085770
5.8335171 0.64247483 -1.8571491 4288085770
10.359113 1.0823981 -1.8836864 4288085770
8.0024271 0.85248226 -1.888159 4288085770
16.584854 1.6723278 -1.920959 4288085770
15.089463 1.5142434 -1.9638375 4288085770
4.9361429 0.54099005 -1.8606863 4288085770
10.112212 1.0291821 -1.8800508 4288085770
5.9551592 0.61662966 -1.8575478 4288085770
10.612844 1.03804 -1.8825033 4288085770
8.1723299 0.81351972 -1.8887211 4288085770
15.672587 1.495728 -1.9425777 4288085770
10.481949 1.0124077 -1.878162 4288085770
16.814968 1.5724123 -1.9197997 4288085770
5.0238008 0.5163247 -1.8579834 4288085770
16.282526 1.4734839 -1.9204028 4288085770
6.0807924 0.59052777 -1.8579586 4288085770
10.899769 0.99554938 -1.8794147 4288085770
10.909673 0.99391919 -1.8844464 4288085770
8.365303 0.77508092 -1.89235 4288085770
5.135581 0.49312305 -1.8623486 4288085770
17.170818 1.480449 -1.9299955 4288085770
17.186045 1.4674407 -1.9220617 4288085770
6.2043705 0.56355357 -1.8563648 4288085770
11.329373 0.97492939 -1.880708 4288085770
11.223463 0.94870752 -1.886441 4288085770
8.5501156 0.73415488 -1.890959 4288085770
5.2332754 0.46881664 -1.8616744 4288085770
18.221853 1.4619105 -1.9301078 4288085770
11.814047 0.95377618 -1.8851637 4288085770
17.489063 1.3798783 -1.9330955 4288085770
6.3630486 0.53733718 -1.8618727 4288085770
11.583407 0.90453726 -1.891569 4288085770
8.763051 0.69443053 -1.8936485 4288085770
5.3329067 0.44338125 -1.8590078 4288085770
19.28829 1.4493942 -1.9322554 4288085770
12.315497 0.92853862 -1.8886755 4288085770
6.5207367 0.51117945 -1.8643776 4288085770
17.8766 1.2818663 -1.9403944 4288085770
5.4415808 0.41836712 -1.857367 4288085770
11.984324 0.85873616 -1.89882 4288085770
8.9868984 0.6530028 -1.8963728 4288085770
12.967486 0.90766412 -1.9096215 4288085770
6.7034225 0.48442304 -1.8719568 4288085770
5.5452051 0.39267319 -1.8537127 4288085770
18.214493 1.1750188 -1.9395622 4288085770
12.408258 0.81245619 -1.9061393 4288085770
9.2177954 0.6121214 -1.8981169 4288085770
13.715583 0.88562453 -1.9368511 4288085770
6.8659792 0.45594466 -1.8714799 4288085770
5.6598034 0.3662748 -1.8510913 4288085770
14.414851 0.85168475 -1.9509574 4288085770
12.915326 0.76584381 -1.9187028 4288085770
9.5087433 0.57039285 -1.9070386 4288085770
18.649683 1.0699328 -1.9440123 4288085770
7.0284739 0.42646736 -1.8700045 4288085770
5.8005228 0.34121016 -1.8545446 4288085770
15.046269 0.80606651 -1.951884 4288085770
13.539762 0.72171336 -1.9426066 4288085770
7.2371731 0.39903599 -1.8756613 4288085770
9.7844858 0.52562594 -1.9089204 4288085770
19.042469 0.95955139 -1.941347 4288085770
5.9371338 0.31440067 -1.8539889 4288085770
15.661046 0.75049019 -1.9437784 4288085770
7.4668198 0.37026188 -1.8843813 4288085770
14.198876 0.67134207 -1.9636223 4288085770
10.079246 0.48064017 -1.9128586 4288085770
6.0777349 0.28733444 -1.8534451 4288085770
16.253304 0.68734056 -1.9296194 4288085770
7.6903009 0.33887273 -1.8880879 4288085770
14.782357 0.61279255 -1.9684299 4288085770
10.366715 0.43110722 -1.9107828 4288085770
6.2504444 0.26121661 -1.858994 4288085770
7.8997622 0.30737403 -1.8857535 4288085770
17.011696 0.62153631 -1.9289519 4288085770
15.359551 0.5496276 -1.9652267 4288085770
10.678262 0.38202968 -1.909777 4288085770
6.4210978 0.23422635 -1.8625385 4288085770
8.1612844 0.27554366 -1.8915725 4288085770
17.856026 0.55221587 -1.9335423 4288085770
15.933385 0.48066187 -1.9560231 4288085770
4.1875563 0.14054805 -1.8421429 4288085770
11.061827 0.3313368 -1.916985 4288085770
6.5976801 0.20585024 -1.8641022 4288085770
5.5892696 0.1685473 -1.8442067 4288085770
5.956625 0.17796841 -1.8482684 4288085770
5.7689257 0.17301512 -1.8457263 4288085770
8.4297323 0.24226478 -1.896414 4288085770
6.1533089 0.18234241 -1.8498379 4288085770
5.4205313 0.1623762 -1.8427221 4288085770
6.3659563 0.18569279 -1.8534558 4288085770
5.2537956 0.15607306 -1.8392435 4288085770
6.5705719 0.18855068 -1.852051 4288085770
5.1081352 0.15042189 -1.8388257 4288085770
6.8283091 0.19201148 -1.8598009 4288085770
4.9634132 0.14370757 -1.8374122 4288085770
4.7174215 0.13651153 -1.8447028 4288085770
4.5859251 0.13295156 -1.8433231 4288085770
4.8468676 0.13919735 -1.843078 4288085770
7.0659189 0.19375008 -1.8594948 4288085770
4.4604149 0.12900835 -1.8429615 4288085770
4.9813042 0.14156216 -1.8414683 4288085770
4.8237448 0.13766953 -1.8360127 4288085770
4.3418913 0.12461571 -1.8426213 4288085770
5.1357546 0.14364746 -1.8439177 4288085770
18.806868 0.47204375 -1.941463 4288085770
7.3556528 0.19615594 -1.8683404 4288085770
4.2253666 0.12009298 -1.841287 4288085770
5.2831621 0.14517966 -1.8433473 4288085770
4.7070808 0.13116127 -1.8396813 4288085770
4.2684717 0.12032465 -1.8414129 4288085770
16.573147 0.40845677 -1.9470181 4288085770
6.7943392 0.17819026 -1.868724 4288085770
5.4525824 0.14630228 -1.8458421 4288085770
7.6402864 0.19687772 -1.8711736 4288085770
4.5833788 0.12409789 -1.83933 4288085770
5.6380281 0.14739874 -1.8503841 4288085770
11.509441 0.27953461 -1.9283829 4288085770
7.9358416 0.19589242 -1.8720418 4288085770
5.8123865 0.14719602 -1.8488957 4288085770
4.4646692 0.11671371 -1.8389939 4288085770
8.6880903 0.20762119 -1.8942282 4288085770
6.0027056 0.1459718 -1.8504555 4288085770
8.3045321 0.19522917 -1.885124 4288085770
4.3459644 0.10932583 -1.8366579 4288085770
6.2100477 0.14465708 -1.8540655 4288085770
8.6461182 0.19328761 -1.8871287 4288085770
4.2332468 0.10155477 -1.8353399 4288085770
6.4153423 0.1424664 -1.853671 4288085770
4.3683968 0.099887885 -1.8457389 4288085770
9.0276155 0.18878406 -1.8922546 4288085770
6.9728003 0.14768419 -1.866297 4288085770
6.6445799 0.13874063 -1.8563492 4288085770
17.448332 0.33615589 -1.955704 4288085770
9.4522104 0.18451563 -1.8995067 4288085770
12.018978 0.22475743 -1.9439671 4288085770
8.9994469 0.17158246 -1.8992004 4288085770
6.8897858 0.1339879 -1.8590759 4288085770
9.9147224 0.17781162 -1.9088739 4288085770
7.1499615 0.12827229 -1.8618481 4288085770
10.345076 0.16915318 -1.9071499 4288085770
4.4623432 0.07982906 -1.8460468 4288085770
7.4421854 0.12250618 -1.8697144 4288085770
7.1883602 0.11780377 -1.8689778 4288085770
10.815349 0.15792739 -1.9055474 4288085770
18.39625 0.25717014 -1.961614 4288085770
9.3438559 0.13542363 -1.9062696 4288085770
7.7342329 0.11373935 -1.8725852 4288085770
12.570363 0.16628882 -1.9606802 4288085770
11.373673 0.14505613 -1.9122057 4288085770
8.0492868 0.10449896 -1.8785241 4288085770
4.5492516 0.059215255 -1.842335 4288085770
7.4138317 0.086286165 -1.8726906 4288085770
12.107229 0.13095462 -1.9363801 4288085770
8.3962765 0.093206204 -1.8855599 4288085770
9.7332258 0.097379036 -1.9164737 4288085770
8.7321196 0.079613648 -1.8845671 4288085770
12.885639 0.11296245 -1.9576924 4288085770
13.258751 0.10403255 -1.9888012 4288085770
4.6551695 0.038388021 -1.8436792 4288085770
7.6853848 0.054818101 -1.8825383 4288085770
9.1198997 0.063693203 -1.8907303 4288085770
13.821142 0.091890924 -1.9894707 4288085770
10.085385 0.056703411 -1.9155731 4288085770
9.5727186 0.046602964 -1.9030863 4288085770
14.681163 0.064625077 -1.9990375 4288085770
4.7460079 0.016518451 -1.8389808 4288085770
13.96592 0.037555873 -2.0119848 4282675967
7.9558201 0.021412894 -1.888386 4288085770
10.00928 0.02553761 -1.9064009 4288085770
15.425715 0.032733455 -1.9852735 4288085770
10.47253 0.014780477 -1.9157772 4288085770
10.445668 0.0014697984 -1.9037203 4288085770
16.220057 -0.0043712929 -1.966664 4288085770
4.8569155 -0.0046314523 -1.8393402 4288085770
8.2552528 -0.012852956 -1.89632 4288085770
10.934996 -0.024993692 -1.9061986 4288085770
14.61761 -0.035390921 -2.0190158 4282675967
10.889613 -0.029068016 -1.9160721 4288085770
17.29047 -0.048184514 -1.9698753 4288085770
11.510261 -0.054973871 -1.9139349 4288085770
4.9797926 -0.026548084 -1.8417363 4288085770
4.2615032 -0.023399495 -1.8436245 4288085770
18.416664 -0.097600937 -1.9652596 4288085770
8.5145435 -0.048559863 -1.8931389 4288085770
11.378599 -0.076533623 -1.9205842 4288085770
12.200384 -0.090321511 -1.933017 4288085770
15.203959 -0.11217005 -2.0108619 4288085770
4.3695354 -0.042357102 -1.8469719 4288085770
5.1086569 -0.048849784 -1.8441502 4288085770
8.834816 -0.086175248 -1.8971395 4288085770
13.010303 -0.13236004 -1.9604614 4288085770
11.971662 -0.12567079 -1.9354043 4288085770
15.814082 -0.19348839 -1.9987853 4288085770
5.2455044 -0.071665064 -1.8465885 4288085770
4.4704676 -0.062867008 -1.8463008 4288085770
13.939027 -0.18103252 -1.9922655 4288085770
9.2261066 -0.12534194 -1.9093513 4288085770
12.646484 -0.18106487 -1.9524745 4288085770
14.799373 -0.23434877 -2.0048764 4288085770
5.391326 -0.09505441 -1.8510541 4288085770
4.5724611 -0.082445636 -1.8446318 4288085770
9.6052494 -0.16674072 -1.9155312 4288085770
16.581108 -0.28087926 -1.9961784 4288085770
13.48836 -0.24016911 -1.9860408 4288085770
15.519189 -0.29268828 -1.9900835 4288085770
5.5231342 -0.11855656 -1.8474787 4288085770
4.689415 -0.10298167 -1.8460079 4288085770
10.026363 -0.20983627 -1.9228368 4288085770
14.37491 -0.30616471 -2.0117497 4282675967
17.527802 -0.37881023 -2.0031164 4288085770
16.307734 -0.35745093 -1.9755026 4288085770
5.6779423 -0.14252886 -1.8489718 4288085770
4.8113565 -0.12383863 -1.8473994 4288085770
10.494311 -0.25694236 -1.9322866 4288085770
15.095189 -0.3725301 -2.0059714 4288085770
17.416931 -0.43679133 -1.9858866 4288085770
18.539236 -0.48291314 -2.0072544 4288085770
5.8516998 -0.16771361 -1.8545225 4288085770
4.919343 -0.14380774 -1.8427484 4288085770
10.83627 -0.30099148 -1.9163617 4288085770
15.811376 -0.44065091 -1.9901838 4288085770
18.571611 -0.52607918 -1.9884202 4288085770
6.0273981 -0.19402935 -1.8570806 4288085770
5.0712051 -0.16657963 -1.8502307 4288085770
11.320141 -0.35013589 -1.9178615 4288085770
16.74744 -0.51688063 -1.9910548 4288085770
6.2001724 -0.21916065 -1.8566282 4288085770
5.2091141 -0.18846539 -1.8506707 4288085770
11.851851 -0.40336019 -1.9185084 4288085770
17.944128 -0.60685205 -2.0037127 4288085770
6.3818655 -0.24586678 -1.8562046 4288085770
5.3450317 -0.21022633 -1.8491046 4288085770
12.517439 -0.4621726 -1.9315572 4288085770
19.181568 -0.70246297 -2.0074997 4288085770
6.5924845 -0.27442715 -1.8598688 4288085770
5.5098743 -0.23383975 -1.8526267 4288085770
13.328761 -0.52934134 -1.9550474 4288085770
5.6597614 -0.25649926 -1.8511031 4288085770
6.8311005 -0.30378228 -1.8666167 4288085770
14.181881 -0.60120904 -1.9736679 4288085770
14.200653 -0.63748258 -1.9607824 4288085770
13.277333 -0.59815073 -1.9400092 4288085770
5.8396339 -0.28007835 -1.8546691 4288085770
15.098948 -0.67723447 -1.9644828 4288085770
15.054862 -0.67637444 -1.9813521 4288085770
12.425804 -0.56443918 -1.9184561 4288085770
7.067667 -0.33401337 -1.86936 4288085770
16.029148 -0.72005707 -1.9572817 4288085770
11.744142 -0.53762746 -1.9104124 4288085770
17.240898 -0.77795476 -1.9699314 4288085770
11.159266 -0.51703286 -1.9076629 4288085770
18.643389 -0.8461194 -1.9821575 4288085770
10.650289 -0.50031215 -1.9091423 4288085770
10.449073 -0.49738646 -1.9065473 4288085770
9.9444904 -0.47495341 -1.9000303 4288085770
10.135283 -0.48421785 -1.9026052 4288085770
9.4788275 -0.45502362 -1.8936315 4288085770
10.980548 -0.52255511 -1.9101475 4288085770
9.021102 -0.43661517 -1.8812585 4288085770
11.533923 -0.55014008 -1.9098161 4288085770
8.6213083 -0.42092359 -1.8740599 4288085770
15.890769 -0.75218326 -1.9739288 4288085770
12.165067 -0.58372355 -1.9127227 4288085770
6.0304165 -0.3053588 -1.8592699 4288085770
9.6572018 -0.47049826 -1.89618 4288085770
7.3312244 -0.36497134 -1.8771837 4288085770
8.2563715 -0.40847197 -1.8689688 4288085770
12.978909 -0.6270268 -1.9341812 4288085770
7.9443102 -0.39941162 -1.8700384 4288085770
