# .PCD v0.7 - Point Cloud Data file format
VERSION 0.7
FIELDS x y z rgb
SIZE 4 4 4 4
TYPE F F F U
COUNT 1 1 1 1
WIDTH 1131
HEIGHT 1
VIEWPOINT 0 0 0 1 0 0 0
POINTS 1131
DATA ascii
6.6592636 3.5567007 -1.741878 4288085770
4.6313248 2.7560482 -1.7363111 4288085770
3.8019104 2.4245543 -1.7525887 4288085770
6.4216232 3.4536653 -1.7347019 4288085770
2.8757935 2.0486498 -1.7724297 4288085770
4.8234711 2.7938404 -1.7363372 4288085770
6.7026062 3.5218344 -1.733319 4288085770
9.6087723 4.635107 -1.6959237 4288085770
6.664978 3.4866824 -1.7409744 4288085770
3.8575134 2.3987675 -1.7578247 4288085770
5.013588 2.8296175 -1.7333988 4288085770
6.9975815 3.5900583 -1.7307267 4288085770
2.9163742 2.0227919 -1.7748904 4288085770
9.637619 4.5521975 -1.6997077 4288085770
7.3055649 3.660337 -1.7279342 4288085770
6.6736908 3.4186769 -1.7400212 4288085770
5.2387543 2.8755565 -1.7359099 4288085770
3.9020996 2.3679233 -1.7592385 4288085770
2.9418869 1.9908518 -1.770592 4288085770
7.6124878 3.7266006 -1.7211673 4288085770
5.4578934 2.9154582 -1.7345265 4288085770
9.6734543 4.4693136 -1.7023873 4288085770
6.6964111 3.3557353 -1.7408453 4288085770
3.9466629 2.3370771 -1.7596523 4288085770
7.9494247 3.7999945 -1.7159331 4288085770
2.9844513 1.9660023 -1.7730204 4288085770
5.6930618 2.9594355 -1.7358928 4288085770
9.7132645 4.3904486 -1.7049968 4288085770
8.3133621 3.8795075 -1.7122791 4288085770
3.995224 2.3062477 -1.7600064 4288085770
6.7021103 3.2857113 -1.7379422 4288085770
5.9241867 2.9993844 -1.7333298 4288085770
3.028038 1.9391526 -1.7744389 4288085770
8.6872787 3.9570532 -1.7054802 4288085770
6.1773148 3.0444322 -1.732424 4288085770
9.7290344 4.3014655 -1.701992 4288085770
4.0447922 2.2754216 -1.7603452 4288085770
6.7157822 3.2197208 -1.7349092 4288085770
9.1112061 4.0488248 -1.7038964 4288085770
3.0726089 1.9133083 -1.77584 4288085770
6.4414749 3.0885272 -1.7323558 4288085770
9.7608032 4.218555 -1.700732 4288085770
4.096344 2.2456045 -1.7606519 4288085770
9.534111 4.1345787 -1.6973432 4288085770
6.7524719 3.1618381 -1.7355111 4288085770
6.7015839 3.1295948 -1.7283558 4288085770
3.1141663 1.8854454 -1.7752914 4288085770
9.9229584 4.2031684 -1.6833432 4288085770
9.8506012 4.1549096 -1.7065543 4288085770
4.1619492 2.2188535 -1.7637408 4288085770
6.9617233 3.165658 -1.7233682 4288085770
6.7871704 3.1019435 -1.735148 4288085770
10.485886 4.3255439 -1.6875999 4288085770
3.1556931 1.8575809 -1.7737427 4288085770
7.2538452 3.210865 -1.7208782 4288085770
4.209465 2.1860113 -1.7611151 4288085770
9.9453964 4.0912814 -1.7113018 4288085770
6.8448868 3.0501566 -1.7384198 4288085770
11.029762 4.4348202 -1.6851751 4288085770
1.3546524 1.2269114 -1.7833421 4288085770
3.2142715 1.8348004 -1.7769265 4288085770
1.4226913 1.2441999 -1.785279 4288085770
7.5680008 3.2581682 -1.7200534 4288085770
1.4102783 1.236227 -1.8184896 4288085770
1.3706665 1.2229438 -1.7741117 4288085770
1.4346695 1.243225 -1.7781017 4288085770
1.4867172 1.2584579 -1.7832837 4288085770
1.4875793 1.2584379 -1.7742696 4288085770
1.5465088 1.2766851 -1.77334 4288085770
11.585602 4.5421367 -1.6785758 4288085770
1.6134949 1.2959692 -1.7742877 4288085770
4.2780457 2.1592708 -1.7631593 4288085770
1.6774445 1.3142358 -1.773283 4288085770
1.5466843 1.2716926 -1.7783513 4288085770
10.03817 4.0266409 -1.714082 4288085770
1.7474136 1.3345329 -1.774183 4288085770
6.8875732 2.9922957 -1.7379317 4288085770
1.8183975 1.3528264 -1.7730732 4288085770
1.6156998 1.2869722 -1.7762785 4288085770
1.8943863 1.3731469 -1.7738829 4288085770
7.8821411 3.3004627 -1.7162414 4288085770
1.6857147 1.3022557 -1.7741909 4288085770
1.9703369 1.3934593 -1.7716933 4288085770
3.2638168 1.8079718 -1.7762554 4288085770
2.0513458 1.4137993 -1.772428 4288085770
12.191437 4.6566663 -1.6732097 4288085770
1.7677994 1.3195982 -1.7759175 4288085770
2.1363297 1.4351537 -1.7721007 4288085770
4.3476257 2.1315308 -1.7641912 4288085770
2.2263412 1.4575307 -1.7726955 4288085770
1.8548737 1.3389633 -1.7775645 4288085770
10.138939 3.9630356 -1.7177398 4288085770
8.25634 3.3580298 -1.7194917 4288085770
2.3103104 1.4768718 -1.7693882 4288085770
6.9632874 2.9445868 -1.7419237 4288085770
1.9329147 1.3542787 -1.7753565 4288085770
2.4103165 1.5012937 -1.770828 4288085770
12.901253 4.7956486 -1.6722238 4288085770
3.3233871 1.7841926 -1.7784266 4288085770
2.026001 1.37367 -1.7779133 4288085770
2.5123596 1.5247221 -1.7722403 4288085770
2.6183777 1.5491655 -1.7725902 4288085770
2.1080246 1.3889962 -1.7736456 4288085770
4.4251938 2.1068306 -1.7670952 4288085770
8.6234818 3.4085546 -1.7178651 4288085770
10.266701 3.9065466 -1.7219753 4288085770
2.723381 1.5715976 -1.7709601 4288085770
13.583038 4.9184952 -1.6646988 4288085770
7.021965 2.8907962 -1.7421858 4288085770
2.2081528 1.4084184 -1.7770972 4288085770
2.8353958 1.5960622 -1.77022 4288085770
3.3779297 1.7583847 -1.7776783 4288085770
2.300209 1.4247907 -1.7746768 4288085770
2.944397 1.6185085 -1.7675302 4288085770
9.013649 3.4621811 -1.7178862 4288085770
4.4927444 2.0770774 -1.7661624 4288085770
2.4032669 1.4442148 -1.7740839 4288085770
14.311775 5.0455308 -1.6544597 4288085770
3.0694351 1.6440287 -1.7675925 4288085770
10.406479 3.8511105 -1.7270284 4288085770
7.0906372 2.839047 -1.7422932 4288085770
3.2045059 1.6725993 -1.7704973 4288085770
2.5083771 1.4626489 -1.7744632 4288085770
3.4284592 1.7305572 -1.7759953 4288085770
9.4178085 3.5128589 -1.7157052 4288085770
3.3375397 1.698149 -1.7694396 4288085770
2.6174698 1.4810963 -1.7737827 4288085770
15.100487 5.1818218 -1.6442989 4288085770
4.5692902 2.0493655 -1.7660894 4288085770
3.4765549 1.7257247 -1.7682872 4288085770
2.7295685 1.4995594 -1.7740571 4288085770
10.557236 3.7987237 -1.7329092 4288085770
3.6085663 1.7492626 -1.76425 4288085770
7.168335 2.7883401 -1.7442629 4288085770
9.8379745 3.5656109 -1.7152793 4288085770
2.8506699 1.5200598 -1.7741916 4288085770
3.4920197 1.7057921 -1.7771091 4288085770
15.983162 5.3365188 -1.6366839 4288085770
3.7616119 1.7778987 -1.763885 4288085770
2.9707794 1.5385524 -1.7733462 4288085770
4.6738968 2.0287852 -1.7715787 4288085770
3.9206696 1.806559 -1.7634301 4288085770
10.723007 3.7473989 -1.7385628 4288085770
10.319176 3.6276274 -1.7179164 4288085770
3.0928574 1.5570511 -1.7714708 4288085770
16.968849 5.5086603 -1.6324826 4288085770
7.2610321 2.7427001 -1.7469954 4288085770
4.0877228 1.8362529 -1.7628527 4288085770
3.5635834 1.6830639 -1.7790985 4288085770
3.221962 1.5755773 -1.7694904 4288085770
4.2587662 1.8649597 -1.761218 4288085770
4.7644653 2.0031366 -1.7732909 4288085770
10.812363 3.6876917 -1.7193788 4288085770
17.245552 5.4728303 -1.6444354 4288085770
10.880722 3.6930304 -1.7403443 4288085770
3.3701096 1.5981941 -1.7712147 4288085770
4.4398117 1.8957088 -1.7594285 4288085770
7.3436813 2.6930094 -1.7468884 4288085770
3.6250916 1.6572835 -1.7772455 4288085770
4.6509094 1.9325966 -1.7621735 4288085770
3.5192642 1.6188115 -1.7719293 4288085770
11.358551 3.7559862 -1.7230268 4288085770
4.8650284 1.9795328 -1.7758482 4288085770
4.862999 1.9674855 -1.7639087 4288085770
3.6653748 1.6394155 -1.7716891 4288085770
17.152756 5.300395 -1.6472735 4288085770
11.056465 3.6417451 -1.7448483 4288085770
7.4253311 2.6423125 -1.7457988 4288085770
3.6926346 1.6315299 -1.7763023 4288085770
5.0830688 2.0034046 -1.7645217 4288085770
3.8154831 1.6580257 -1.7683941 4288085770
11.879723 3.8101587 -1.7210853 4288085770
4.9685822 1.9559394 -1.7773607 4288085770
5.3171616 2.0403848 -1.7659223 4288085770
3.9595642 1.6736057 -1.7631968 4288085770
17.077927 5.1330357 -1.6498296 4288085770
11.235161 3.5894647 -1.7463102 4288085770
7.5269852 2.595705 -1.7463993 4288085770
5.5642395 2.0794168 -1.7661231 4288085770
3.7661514 1.607805 -1.7762647 4288085770
12.510963 3.8858213 -1.7284415 4288085770
4.1377335 1.6963458 -1.7644714 4288085770
5.0641251 1.9283067 -1.7770033 4288085770
5.8133087 2.1154542 -1.7653017 4288085770
4.3128815 1.7170683 -1.7637963 4288085770
17.066063 4.9849486 -1.6543934 4288085770
11.398857 3.5301127 -1.745015 4288085770
6.1164474 2.1637383 -1.7716398 4288085770
7.6356583 2.5501285 -1.7478924 4288085770
13.122162 3.9463782 -1.7281361 4288085770
3.8336716 1.5800459 -1.7733271 4288085770
4.4920273 1.7368044 -1.762064 4288085770
5.1656418 1.9026965 -1.7755516 4288085770
6.433609 2.2120838 -1.7787681 4288085770
17.04718 4.8368301 -1.6580622 4288085770
4.6821518 1.7575865 -1.7601643 4288085770
11.635582 3.4880891 -1.7505826 4288085770
13.690308 3.9897332 -1.7205191 4288085770
3.9101944 1.5553311 -1.7722468 4288085770
6.7406845 2.2553678 -1.7790596 4288085770
7.73629 2.5015116 -1.7465134 4288085770
5.3002472 1.8822461 -1.7815912 4288085770
4.9003601 1.7824979 -1.7628343 4288085770
7.0307007 2.2915626 -1.7726243 4288085770
14.213409 4.0138736 -1.7046252 4288085770
11.884285 3.4461131 -1.7549704 4288085770
17.039261 4.6897531 -1.6595643 4288085770
5.1285629 1.8084549 -1.7663519 4288085770
3.9967346 1.5316628 -1.7730143 4288085770
7.8619461 2.4570069 -1.7477494 4288085770
7.3357239 2.3278174 -1.7659643 4288085770
5.4167862 1.8567015 -1.7809145 4288085770
5.3607559 1.8314189 -1.7668173 4288085770
7.6457138 2.3610859 -1.756237 4288085770
14.737526 4.0300121 -1.6867368 4288085770
12.123962 3.3980885 -1.7555087 4288085770
17.033287 4.5466785 -1.6590265 4288085770
4.0712051 1.5049319 -1.7689697 4288085770
7.9925919 2.4125209 -1.7479106 4288085770
5.6290283 1.8615524 -1.773725 4288085770
7.9536819 2.3923378 -1.7435454 4288085770
5.5533218 1.8352492 -1.7829278 4288085770
15.360695 4.0625901 -1.6763239 4288085770
5.8671799 1.8815334 -1.7711086 4288085770
8.3026733 2.428772 -1.7342262 4288085770
12.3536 3.3460131 -1.7532077 4288085770
17.087341 4.4158707 -1.6625589 4288085770
4.175766 1.4843483 -1.7724595 4288085770
8.1222 2.3670244 -1.7460897 4288085770
5.6948776 1.8128173 -1.7848687 4288085770
6.1784744 1.9158547 -1.7803617 4288085770
8.6806717 2.468329 -1.7254651 4288085770
15.987846 4.0871739 -1.6618719 4288085770
12.618263 3.2980909 -1.7523718 4288085770
4.2803116 1.4627594 -1.7739522 4288085770
17.17337 4.291194 -1.6655971 4288085770
6.4737244 1.9420923 -1.7838752 4288085770
9.1097031 2.515111 -1.7199216 4288085770
8.2658386 2.3235931 -1.7460539 4288085770
5.8263779 1.7883373 -1.7839649 4288085770
16.699028 4.1211247 -1.6521382 4288085770
6.8009872 1.973472 -1.7898965 4288085770
9.5627441 2.5619926 -1.7140186 4288085770
4.3768005 1.4391295 -1.7725704 4288085770
12.890884 3.2491961 -1.749419 4288085770
6.015007 1.7741249 -1.7931807 4288085770
8.4184799 2.2791996 -1.745886 4288085770
7.0851669 1.9906405 -1.7855985 4288085770
10.101822 2.6222563 -1.7147934 4288085770
4.4782867 1.4145175 -1.7701162 4288085770
13.177513 3.2013636 -1.7472541 4288085770
10.617836 2.6734014 -1.7079365 4288085770
7.3883362 2.0088887 -1.7810133 4288085770
6.1835327 1.7538105 -1.7957122 4288085770
8.5780792 2.2358327 -1.7446105 4288085770
11.256943 2.7420912 -1.7101927 4288085770
7.6574097 2.0179701 -1.7679613 4288085770
4.583786 1.3899252 -1.7686019 4288085770
13.460098 3.1495032 -1.7411597 4288085770
6.3751068 1.7355998 -1.8008938 4288085770
8.7486954 2.1925125 -1.7431707 4288085770
11.938034 2.8119559 -1.7118173 4288085770
7.9625473 2.0302124 -1.7583619 4288085770
4.7103043 1.3694319 -1.7707629 4288085770
13.732643 3.0905876 -1.7302337 4288085770
12.681114 2.8880844 -1.7134978 4288085770
6.5606308 1.7153538 -1.802171 4288085770
8.3127441 2.0476594 -1.7540752 4288085770
8.9513245 2.1543369 -1.7452385 4288085770
13.512222 2.97159 -1.7178419 4288085770
4.8247757 1.3458753 -1.7681117 4288085770
8.655899 2.0590625 -1.744909 4288085770
6.7431183 1.6930908 -1.8014987 4288085770
13.991119 3.0285997 -1.7145255 4288085770
9.1579514 2.1131725 -1.7452542 4288085770
14.155075 3.0112238 -1.6941147 4288085770
9.0320969 2.0726113 -1.7382431 4288085770
4.9673157 1.3254527 -1.7710329 4288085770
6.9496384 1.6719326 -1.8024638 4288085770
14.294632 2.9698114 -1.7021353 4288085770
14.901985 3.0633154 -1.6767982 4288085770
9.4693375 2.0934319 -1.736645 4288085770
9.3986053 2.0771618 -1.7487476 4288085770
2.3925781 0.83252484 -1.7798562 4288085770
5.1068039 1.3040093 -1.7710021 4288085770
2.4834671 0.84789795 -1.7754555 4288085770
2.5944519 0.86637419 -1.7777464 4288085770
2.7053986 0.88384086 -1.7770402 4288085770
2.821373 0.90233403 -1.7782564 4288085770
7.1290512 1.6466447 -1.7968445 4288085770
2.9403152 0.92083395 -1.7774279 4288085770
15.833954 3.1382113 -1.6676537 4288085770
3.0662842 0.93936241 -1.7764945 4288085770
9.9276047 2.1113396 -1.7347398 4288085770
3.1771774 0.95481122 -1.7697937 4288085770
14.685165 2.9244041 -1.6944082 4288085770
2.4478226 0.82774895 -1.7820427 4288085770
3.3262024 0.97544825 -1.7735097 4288085770
2.5558167 0.84220105 -1.7813888 4288085770
3.474205 0.99607348 -1.7742412 4288085770
9.6482239 2.0391827 -1.7501116 4288085770
2.6748734 0.85670489 -1.7835693 4288085770
3.6131516 1.0136492 -1.7711155 4288085770
2.7949066 0.87120855 -1.7837353 4288085770
3.7591019 1.0322517 -1.7668823 4288085770
5.2613144 1.2836347 -1.7727438 4288085770
16.861931 3.2175136 -1.6590607 4288085770
7.3124542 1.6183666 -1.7891734 4288085770
3.9240952 1.0529431 -1.7663589 4288085770
2.9259567 0.88676256 -1.7857337 4288085770
10.401863 2.1273117 -1.7316003 4288085770
3.0499649 0.90027642 -1.7838423 4288085770
4.0880585 1.071622 -1.762856 4288085770
15.177742 2.8914433 -1.6921223 4288085770
4.2740707 1.0934039 -1.7630153 4288085770
3.1729584 0.91277987 -1.779969 4288085770
9.9078445 2.0012465 -1.7513258 4288085770
4.462059 1.1151888 -1.761145 4288085770
3.302948 0.92531252 -1.77599 4288085770
5.4248352 1.2633005 -1.7753506 4288085770
10.996254 2.1568198 -1.7396287 4288085770
4.6640701 1.1370333 -1.7600645 4288085770
3.4620514 0.94198775 -1.7795663 4288085770
7.5188828 1.5931939 -1.7841496 4288085770
4.8811035 1.1609467 -1.7607542 4288085770
3.5980377 0.95353854 -1.7735004 4288085770
15.672279 2.8514762 -1.6848249 4288085770
5.1151505 1.1849297 -1.761189 4288085770
3.7821732 0.97232628 -1.7796962 4288085770
10.213509 1.9665138 -1.755843 4288085770
11.581551 2.1782694 -1.7398133 4288085770
5.3631821 1.2099715 -1.7614117 4288085770
5.579277 1.2409153 -1.7730981 4288085770
3.9351959 0.9839505 -1.7743754 4288085770
7.7502975 1.5711296 -1.7797441 4288085770
5.6312637 1.2361014 -1.7633318 4288085770
4.0901871 0.99557984 -1.768025 4288085770
5.8922729 1.260192 -1.7613626 4288085770
16.26384 2.8219328 -1.6820487 4288085770
4.2732773 1.009342 -1.7672491 4288085770
12.197899 2.1958499 -1.7405436 4288085770
6.1993637 1.288487 -1.7636931 4288085770
5.7667923 1.2216828 -1.7753432 4288085770
10.528152 1.9298128 -1.7582308 4288085770
4.4793854 1.0262088 -1.7691208 4288085770
7.9907074 1.5470995 -1.7742088 4288085770
6.5565186 1.3230107 -1.7722588 4288085770
4.670433 1.038996 -1.7652278 4288085770
6.9086227 1.3534958 -1.7749102 4288085770
12.873245 2.2166834 -1.7423823 4288085770
16.876373 2.7894726 -1.676966 4288085770
4.8725052 1.0518314 -1.7621701 4288085770
5.9422455 1.1983885 -1.7737784 4288085770
8.2541351 1.5251722 -1.7703239 4288085770
7.2486496 1.3799148 -1.7717519 4288085770
10.891808 1.8983289 -1.7638717 4288085770
5.1076279 1.0678177 -1.7636099 4288085770
2.5181427 0.69688088 -1.7783363 4288085770
7.6247101 1.4094919 -1.7710464 4288085770
13.520538 2.2243762 -1.7366743 4288085770
5.3517609 1.0828384 -1.7639172 4288085770
7.9686432 1.4309025 -1.7588421 4288085770
6.1567612 1.1802745 -1.7776165 4288085770
8.5455627 1.5043641 -1.7670169 4288085770
5.615921 1.0979444 -1.7649248 4288085770
11.26445 1.8618735 -1.7663908 4288085770
2.6075974 0.68324095 -1.7820344 4288085770
8.3917007 1.4606727 -1.756433 4288085770
14.045692 2.2075095 -1.7148569 4288085770
5.8890762 1.1130915 -1.7667978 4288085770
8.8327103 1.4895103 -1.7507567 4288085770
6.3501968 1.1570538 -1.7747827 4288085770
8.8750229 1.485724 -1.7661355 4288085770
6.1651917 1.126237 -1.7636309 4288085770
2.6959991 0.66959286 -1.7837477 4288085770
11.628044 1.8213706 -1.7650557 4288085770
9.339798 1.5236393 -1.7500787 4288085770
14.592812 2.1867256 -1.6897204 4288085770
6.4863892 1.1425893 -1.7667818 4288085770
9.9109116 1.5620437 -1.7514315 4288085770
6.5736771 1.1359694 -1.7754941 4288085770
9.2144318 1.4661177 -1.7621071 4288085770
2.7853928 0.65594643 -1.7844465 4288085770
6.8035202 1.1559107 -1.7650008 4288085770
10.576096 1.6068605 -1.7583599 4288085770
12.071709 1.7872214 -1.7695061 4288085770
15.357147 2.1839042 -1.681288 4288085770
7.1627197 1.1724209 -1.7675824 4288085770
2.8747711 0.64129734 -1.784148 4288085770
6.8121262 1.11695 -1.7759757 4288085770
9.620903 1.4528151 -1.7650594 4288085770
11.289253 1.6518724 -1.7625698 4288085770
7.5268936 1.1849403 -1.7660997 4288085770
12.006348 1.6928873 -1.7617307 4288085770
16.188492 2.1813684 -1.6738522 4288085770
12.562393 1.7542776 -1.7762499 4288085770
2.9701309 0.6266734 -1.7837596 4288085770
7.8789978 1.1943965 -1.7598051 4288085770
7.0525665 1.0949327 -1.7744353 4288085770
10.050369 1.4376026 -1.7656724 4288085770
12.854515 1.7434717 -1.7669053 4288085770
8.2721481 1.2040288 -1.7548957 4288085770
17.083878 2.1751018 -1.6664677 4288085770
3.0684891 0.61306399 -1.7833238 4288085770
13.069008 1.718388 -1.7777627 4288085770
13.632462 1.7777059 -1.7521718 4288085770
7.3390579 1.0761248 -1.778198 4288085770
10.526855 1.4255953 -1.7685736 4288085770
8.6682587 1.2106644 -1.7469494 4288085770
14.27417 1.7903078 -1.716531 4288085770
3.1688309 0.59845918 -1.7818608 4288085770
9.1605072 1.2237316 -1.748549 4288085770
11.076355 1.4169054 -1.7743738 4288085770
7.6084595 1.0532241 -1.7742262 4288085770
13.520531 1.67124 -1.770128 4288085770
15.130028 1.8208508 -1.6946399 4288085770
3.2761841 0.58388716 -1.7812929 4288085770
9.6406555 1.2317269 -1.7423418 4288085770
16.197029 1.8633093 -1.681559 4288085770
11.628815 1.4032137 -1.775142 4288085770
7.9038773 1.0314382 -1.7718625 4288085770
13.916916 1.6138303 -1.7513442 4288085770
10.197906 1.2420624 -1.7419752 4288085770
3.3985748 0.57038605 -1.7834973 4288085770
2.6659393 0.49630034 -1.790657 4288085770
12.287308 1.395983 -1.7803068 4288085770
8.2233047 1.0097582 -1.7711389 4288085770
10.828217 1.2547158 -1.7455096 4288085770
3.5209274 0.55688316 -1.7847023 4288085770
14.305229 1.5523711 -1.7266914 4288085770
2.7642822 0.48369473 -1.791219 4288085770
11.553612 1.269783 -1.7536154 4288085770
12.993805 1.3879534 -1.7847555 4288085770
8.5456619 0.98707831 -1.7653741 4288085770
3.635231 0.54133338 -1.7810328 4288085770
2.8706589 0.47112769 -1.7936609 4288085770
14.890732 1.5057884 -1.71805 4288085770
12.301941 1.2789294 -1.7553924 4288085770
13.612061 1.3665023 -1.7705579 4288085770
8.925087 0.96665335 -1.7647495 4288085770
3.7755966 0.5279091 -1.782968 4288085770
2.9699478 0.45751864 -1.7912107 4288085770
13.133301 1.288431 -1.7589262 4288085770
15.563248 1.4595752 -1.7101059 4288085770
14.168114 1.3367522 -1.7423108 4288085770
3.9079056 0.51344061 -1.7810261 4288085770
9.3605576 0.94747388 -1.7672833 4288085770
3.0853043 0.44398683 -1.7925205 4288085770
13.863457 1.2814547 -1.7440157 4288085770
4.0562592 0.4990477 -1.7818444 4288085770
14.969391 1.32008 -1.7303617 4288085770
3.1966019 0.43043113 -1.7908909 4288085770
9.7639008 0.92313397 -1.7603105 4288085770
16.344833 1.414834 -1.7065258 4288085770
14.535454 1.2641978 -1.716001 4288085770
4.2025299 0.48463637 -1.7786932 4288085770
3.3078766 0.41687393 -1.7882612 4288085770
15.933746 1.3101132 -1.7239549 4288085770
10.331459 0.90652835 -1.7688613 4288085770
15.459694 1.256049 -1.7041891 4288085770
17.217422 1.3694741 -1.7015855 4288085770
4.3658447 0.47030461 -1.7782869 4288085770
3.4311752 0.40336931 -1.7864518 4288085770
5.7496338 0.56014669 -1.7753417 4288085770
6.0285797 0.5783233 -1.7741191 4288085770
5.4626312 0.53992283 -1.7716897 4288085770
6.3274918 0.59758055 -1.7715949 4288085770
5.2267303 0.52293378 -1.7752647 4288085770
6.6414032 0.61689746 -1.7678459 4288085770
4.9908295 0.50393474 -1.7758455 4288085770
6.9933853 0.6373831 -1.7675245 4288085770
4.7708893 0.48700398 -1.7761815 4288085770
16.972008 1.2984421 -1.7114458 4288085770
7.3793793 0.65901643 -1.7686912 4288085770
4.5669861 0.47014129 -1.7772775 4288085770
10.862869 0.88574642 -1.7679632 4288085770
7.759285 0.67860258 -1.7619535 4288085770
4.3720703 0.45331651 -1.7782385 4288085770
4.2351532 0.44374478 -1.7813134 4288085770
4.4311142 0.45657086 -1.7803469 4288085770
16.48597 1.2453308 -1.692857 4288085770
4.0532227 0.43097889 -1.7830698 4288085770
4.634079 0.46842551 -1.7792783 4288085770
8.1732025 0.69833243 -1.7557064 4288085770
3.8782654 0.41823703 -1.7827215 4288085770
4.8490448 0.48133069 -1.7780271 4288085770
3.7283859 0.4066149 -1.7879958 4288085770
4.1902084 0.43654758 -1.780005 4288085770
5.0699921 0.49325448 -1.7746887 4288085770
4.5381622 0.45701414 -1.7787435 4288085770
3.5704498 0.39394575 -1.7883925 4288085770
8.6481857 0.72133482 -1.7545373 4288085770
5.3210144 0.50631678 -1.7758977 4288085770
4.0163116 0.4198088 -1.7806513 4288085770
3.4175034 0.38129449 -1.787715 4288085770
5.5739899 0.51837653 -1.7730801 4288085770
3.5644836 0.38991213 -1.7864926 4288085770
9.1100845 0.74025649 -1.7445743 4288085770
3.2796173 0.36871311 -1.7898118 4288085770
5.8670425 0.53161901 -1.77566 4288085770
3.8534317 0.40411934 -1.7821302 4288085770
3.1547546 0.35719129 -1.7937112 4288085770
9.6871109 0.76569217 -1.7448721 4288085770
6.1560516 0.54283029 -1.7733049 4288085770
3.7086105 0.38851157 -1.7863393 4288085770
11.412216 0.86102355 -1.7608062 4288085770
3.0067749 0.34254521 -1.7879639 4288085770
6.4690781 0.55514771 -1.772588 4288085770
10.337189 0.7924428 -1.7480731 4288085770
3.5617676 0.3728902 -1.7885785 4288085770
2.9029694 0.33212134 -1.7955456 4288085770
4.7224808 0.44277364 -1.7790229 4288085770
6.8060837 0.56756252 -1.7705117 4288085770
11.081306 0.82259518 -1.7528585 4288085770
3.7108078 0.37751594 -1.788336 4288085770
3.4128571 0.35724968 -1.7868481 4288085770
2.7740479 0.31856489 -1.7935107 4288085770
7.141098 0.57695907 -1.765473 4288085770
11.738144 0.84432602 -1.7379699 4288085770
3.2740021 0.34065455 -1.7869697 4288085770
7.5080948 0.58749259 -1.7609525 4288085770
12.540085 0.86968505 -1.7289004 4288085770
4.920784 0.42959553 -1.7800903 4288085770
12.038574 0.83763176 -1.7554932 4288085770
7.9080963 0.59816414 -1.7559375 4288085770
3.1401291 0.32507831 -1.7860143 4288085770
3.8621063 0.36513841 -1.7891045 4288085770
13.53923 0.90391034 -1.7328582 4288085770
8.3631821 0.60907835 -1.7550983 4288085770
3.0273438 0.31060538 -1.790741 4288085770
14.523132 0.93202782 -1.7200582 4288085770
8.8242035 0.61800021 -1.7481749 4288085770
5.1160583 0.41539684 -1.7782052 4288085770
2.8954239 0.29502842 -1.7867558 4288085770
4.0013275 0.35169789 -1.7850561 4288085770
12.735947 0.8135398 -1.7501194 4288085770
15.65007 0.96175051 -1.7081132 4288085770
9.3392563 0.62615556 -1.7434447 4288085770
2.7986679 0.28062382 -1.7922425 4288085770
16.898979 0.99297822 -1.6923387 4288085770
9.9213791 0.63660508 -1.7427053 4288085770
5.3443756 0.4023478 -1.7798231 4288085770
4.1686325 0.33838758 -1.785588 4288085770
10.559509 0.64628816 -1.7411299 4288085770
13.552399 0.79196537 -1.7499576 4288085770
5.5616074 0.38823983 -1.7766092 4288085770
11.302711 0.65642619 -1.7439809 4288085770
4.342926 0.32611039 -1.7870123 4288085770
12.110909 0.66482931 -1.7438638 4288085770
14.392723 0.76646984 -1.7414473 4288085770
5.8149185 0.37429568 -1.7778554 4288085770
4.5211716 0.31284201 -1.7853796 4288085770
13.013145 0.6726346 -1.7453409 4288085770
6.0581436 0.36029732 -1.7742522 4288085770
15.375107 0.74158269 -1.73581 4288085770
4.7114182 0.30062789 -1.7845647 4288085770
13.985313 0.67771757 -1.740778 4288085770
6.3574677 0.34755522 -1.7778065 4288085770
14.952324 0.67674768 -1.7243065 4288085770
4.9126511 0.28846005 -1.7835853 4288085770
16.423393 0.71295297 -1.7221955 4288085770
16.084419 0.67447996 -1.710368 4288085770
6.6446762 0.33374473 -1.7745445 4288085770
5.1198807 0.27531478 -1.7815187 4288085770
6.9699554 0.32010421 -1.7747126 4288085770
5.3541336 0.26329118 -1.7820449 4288085770
7.290123 0.30542728 -1.768959 4288085770
5.6003876 0.25031781 -1.7823939 4288085770
7.6673813 0.29200527 -1.7683487 4288085770
5.8726501 0.23845938 -1.7843509 4288085770
8.0575562 0.27862769 -1.7635441 4288085770
6.1318054 0.22652861 -1.7795033 4288085770
8.496788 0.26546636 -1.7620052 4288085770
6.4019394 0.21364179 -1.773494 4288085770
8.9419556 0.25131956 -1.7563797 4288085770
6.7241669 0.2019915 -1.7737026 4288085770
9.435112 0.23837751 -1.7510327 4288085770
7.0643539 0.19041187 -1.771642 4288085770
10.03035 0.22588098 -1.7511574 4288085770
7.4355392 0.17896542 -1.7701168 4288085770
10.648544 0.21247032 -1.7469406 4288085770
7.8367157 0.16764461 -1.7681425 4288085770
11.376785 0.20053694 -1.7470733 4288085770
8.2678909 0.15644993 -1.7657189 4288085770
16.699257 0.26503101 -1.7512484 4288085770
15.422379 0.24066046 -1.7614235 4288085770
14.026527 0.21879807 -1.7753725 4288085770
12.871262 0.20388418 -1.7627001 4288085770
15.133499 0.23145446 -1.7677717 4288085770
11.929169 0.18989587 -1.759836 4288085770
14.263474 0.21677715 -1.7678308 4288085770
16.407509 0.24281648 -1.7606741 4288085770
11.088058 0.17632681 -1.7544589 4288085770
12.21508 0.18807453 -1.7495606 4288085770
8.7330551 0.14540094 -1.7637863 4288085770
10.371048 0.16329525 -1.7542239 4288085770
13.180435 0.19319043 -1.7651013 4288085770
9.7340775 0.14960533 -1.7557931 4288085770
12.18634 0.17096815 -1.7580366 4288085770
9.1671524 0.1372162 -1.7593107 4288085770
13.187416 0.17718741 -1.7550379 4288085770
9.2141418 0.13440585 -1.7566144 4288085770
8.6692734 0.12412262 -1.764797 4288085770
11.349358 0.14941995 -1.7556193 4288085770
14.371902 0.16721934 -1.7693388 4288085770
9.7632675 0.12470709 -1.7524214 4288085770
8.2043762 0.11016133 -1.767792 4288085770
10.579361 0.12915222 -1.7521961 4288085770
7.7784805 0.097365454 -1.7711999 4288085770
10.400436 0.11538719 -1.75091 4288085770
15.527115 0.15507981 -1.7650815 4288085770
9.9264221 0.11038706 -1.7520175 4288085770
7.3756027 0.083665773 -1.7742658 4288085770
11.129662 0.10646611 -1.7530202 4288085770
16.839287 0.14359801 -1.7584732 4288085770
9.3746033 0.091061771 -1.7573276 4288085770
7.004715 0.070095912 -1.7758527 4288085770
11.921852 0.097804159 -1.752187 4288085770
8.8687592 0.073929921 -1.7619436 4288085770
12.869148 0.089817554 -1.7590317 4288085770
6.663826 0.056651697 -1.7769899 4288085770
5.7292633 -2.2665243 -1.8380013 4288085770
5.9395523 -2.3275738 -1.8367696 4288085770
9.1517868 -3.2580881 -1.8093917 4288085770
4.4427567 -1.9103366 -1.8478475 4288085770
14.365639 -4.7963934 -1.8123705 4288085770
4.1745987 -1.8425351 -1.8540123 4288085770
5.480217 -2.2236743 -1.8359537 4288085770
5.2411575 -2.1817799 -1.8337443 4288085770
4.0187683 -1.8222408 -1.8575137 4288085770
5.8712311 -2.3688889 -1.8410802 4288085770
9.0885162 -3.3274012 -1.8087356 4288085770
4.3873672 -1.9446017 -1.8499136 4288085770
14.326698 -4.9125657 -1.819509 4288085770
5.046257 -2.1496592 -1.8378444 4288085770
3.8528061 -1.7970148 -1.8551619 4288085770
4.8442917 -2.1145821 -1.8390489 4288085770
3.689827 -1.7707791 -1.8517563 4288085770
5.764679 -2.3974147 -1.8359699 4288085770
9.0643616 -3.4065189 -1.8124728 4288085770
4.3118591 -1.9719765 -1.8472838 4288085770
4.6563187 -2.0804377 -1.8410251 4288085770
14.260635 -5.0198846 -1.8210599 4288085770
3.5499344 -1.7494199 -1.852989 4288085770
4.4854279 -2.0502043 -1.8457348 4288085770
3.3969345 -1.7231393 -1.8494174 4288085770
5.6822357 -2.4318123 -1.8354855 4288085770
9.0291595 -3.4836984 -1.813385 4288085770
4.3124466 -2.0179963 -1.8464706 4288085770
4.2644882 -2.0072012 -1.8502214 4288085770
3.2468948 -1.6958528 -1.8437922 4288085770
14.234665 -5.13901 -1.8249965 4288085770
4.1585464 -1.9896868 -1.8509064 4288085770
3.1179886 -1.674444 -1.8448422 4288085770
5.6108398 -2.4691529 -1.8368304 4288085770
3.991539 -1.9564556 -1.8505385 4288085770
9.0220718 -3.5687313 -1.8188648 4288085770
4.1879272 -2.0325928 -1.8446009 4288085770
2.9829788 -1.6490817 -1.840976 4288085770
3.8375244 -1.9251658 -1.8499629 4288085770
14.084259 -5.2187619 -1.8138294 4293729569
17.889503 -6.4481544 -1.6418507 4293729569
3.6824951 -1.8928843 -1.8484001 4288085770
5.5263443 -2.5015721 -1.8333716 4288085770
3.5475235 -1.8644961 -1.8505211 4288085770
8.9948425 -3.6468787 -1.8186493 4288085770
4.1345062 -2.0658574 -1.8446305 4288085770
17.045265 -6.3089828 -1.6492758 4293729569
3.4185791 -1.8380818 -1.8525507 4288085770
13.726112 -5.2275467 -1.7798071 4293729569
3.2704468 -1.8027838 -1.8468599 4288085770
5.4589157 -2.5378985 -1.8336465 4288085770
3.1303177 -1.7704502 -1.8410487 4288085770
8.9736328 -3.7279992 -1.8183465 4288085770
4.0800629 -2.0971303 -1.8436689 4288085770
16.369438 -6.2150006 -1.6680989 4293729569
3.0123215 -1.7429891 -1.841892 4288085770
13.377914 -5.2342949 -1.7436116 4293729569
2.8942642 -1.7145399 -1.8397312 4288085770
5.4005356 -2.5771809 -1.8347845 4288085770
15.442688 -6.0262642 -1.6596824 4293729569
8.9684906 -3.8140354 -1.8207986 4288085770
4.0175552 -2.1254511 -1.8398283 4288085770
13.124039 -5.2705774 -1.716977 4293729569
5.3491592 -2.618432 -1.8358145 4288085770
14.721436 -5.8935442 -1.6640944 4293729569
8.9763718 -3.9040136 -1.8230517 4288085770
3.9841919 -2.1626129 -1.8425426 4288085770
12.86911 -5.300868 -1.6893349 4293729569
5.2897186 -2.655726 -1.8349614 4288085770
13.933891 -5.7301602 -1.659476 4293729569
8.9812088 -3.9940133 -1.8233552 4288085770
3.931694 -2.1928844 -1.8395443 4288085770
12.640213 -5.3370423 -1.6612861 4293729569
13.184288 -5.5666142 -1.6522269 4293729569
5.2373123 -2.6949854 -1.8350005 4288085770
8.9920654 -4.0849814 -1.8245635 4288085770
3.888237 -2.2251077 -1.8384049 4288085770
12.474518 -5.3929014 -1.6402727 4293729569
12.377396 -5.3743677 -1.6348062 4293729569
5.213028 -2.7440991 -1.8396151 4288085770
9.0219955 -4.1858563 -1.8274972 4288085770
3.8457947 -2.258327 -1.8372529 4288085770
11.984825 -5.323082 -1.6571112 4293729569
12.367996 -5.4694767 -1.6233662 4293729569
5.1575546 -2.7803836 -1.8366923 4288085770
9.0478821 -4.2837572 -1.8284857 4288085770
3.8033142 -2.2895489 -1.835093 4288085770
11.626343 -5.2806354 -1.6808882 4293729569
12.009506 -5.4463058 -1.5782154 4293729569
5.1091003 -2.8186326 -1.8346617 4288085770
11.308945 -5.2479882 -1.7080253 4293729569
9.0828171 -4.3876138 -1.8303499 4288085770
3.7628555 -2.3217626 -1.8329041 4288085770
11.871803 -5.5050445 -1.5557506 4293729569
5.0857849 -2.8657451 -1.8382521 4288085770
10.969414 -5.2014604 -1.7304708 4293729569
9.1187057 -4.4904737 -1.8301938 4288085770
3.7193375 -2.3519979 -1.8287573 4288085770
11.749107 -5.5677137 -1.5330534 4293729569
5.0604324 -2.9128742 -1.8398764 4288085770
10.646881 -5.157855 -1.7526462 4293729569
11.953636 -5.7318912 -1.2583171 4293729569
9.1857224 -4.6071734 -1.8345804 4288085770
3.6959305 -2.3891187 -1.8303065 4288085770
11.671577 -5.646162 -1.5146747 4293729569
10.376541 -5.1309891 -1.7810276 4293729569
5.0179596 -2.9521003 -1.8367507 4288085770
11.899323 -5.7979026 -1.3225114 4293729569
9.2577438 -4.7268562 -1.8378968 4288085770
3.6544113 -2.4203491 -1.8251312 4288085770
10.165398 -5.1248288 -1.815515 4288085770
11.674286 -5.7562189 -1.503099 4293729569
5.0056686 -3.0041637 -1.8401797 4288085770
11.88813 -5.8786988 -1.3910532 4293729569
11.834541 -5.8736014 0.034287512 4293729569
11.695549 -5.8279934 -0.27887288 4293729569
9.3528519 -4.8564215 -1.8438725 4288085770
9.9200592 -5.0998454 -1.8444896 4288085770
3.6561584 -2.4673333 -1.8323061 4288085770
11.715103 -5.8810925 -1.4939539 4293729569
11.935181 -5.9832034 -1.4667302 4293729569
4.9872894 -3.0512609 -1.8416882 4288085770
11.772919 -5.9537539 -0.0040854812 4293729569
11.624496 -5.8975153 -0.23434502 4293729569
9.5581665 -5.0234675 -1.8541782 4288085770
9.4449463 -4.9870052 -1.8489029 4288085770
11.896927 -6.0521255 -1.5346713 4293729569
3.6357422 -2.5054445 -1.8328102 4288085770
11.800095 -6.0277519 -1.4881692 4293729569
11.803497 -6.0724845 -0.043091834 4293729569
4.9568558 -3.094429 -1.83938 4288085770
11.616547 -5.9917512 -0.18987453 4293729569
9.1569748 -4.923305 -1.8544168 4288085770
11.725143 -6.060708 -1.5885711 4293729569
9.4455948 -5.0790663 -1.8382857 4288085770
3.6203461 -2.544529 -1.8342354 4288085770
8.7567368 -4.8191504 -1.8516228 4288085770
4.9535522 -3.1484509 -1.8426685 4288085770
11.446884 -6.0198264 -1.6290264 4293729569
9.2432556 -5.0801754 -1.7956479 4293729569
3.608963 -2.5855951 -1.8356028 4288085770
8.3533707 -4.7070251 -1.8448458 4288085770
11.121384 -5.952189 -1.6621518 4293729569
4.9431915 -3.1985126 -1.8440568 4288085770
9.0630112 -5.0881739 -1.7556729 4293729569
8.029335 -4.6254997 -1.847883 4288085770
10.720497 -5.8479404 -1.6833715 4293729569
3.5905304 -2.6237016 -1.8350739 4288085770
4.9338074 -3.2485728 -1.8444293 4288085770
10.311485 -5.733747 -1.699683 4293729569
7.6881104 -4.5310802 -1.8441503 4288085770
9.0284195 -5.1604285 -1.7365561 4293729569
3.5791168 -2.6637712 -1.8354378 4288085770
4.9375153 -3.3055634 -1.8476143 4288085770
9.9034042 -5.614562 -1.7129576 4293729569
7.3769531 -4.4455132 -1.8429558 4288085770
9.0410309 -5.2534389 -1.7247448 4293729569
3.5757446 -2.7077975 -1.8376849 4288085770
9.5142746 -5.4972997 -1.723925 4293729569
7.1170425 -4.3796792 -1.8499959 4288085770
4.9451981 -3.362535 -1.850733 4288085770
9.0597839 -5.3453813 -1.7228286 4293729569
9.123909 -5.3791027 -1.7199069 4293729569
6.8419571 -4.3039427 -1.8502448 4288085770
3.5602722 -2.7448936 -1.836103 4288085770
4.9488525 -3.4185328 -1.8519146 4288085770
8.7307739 -5.2468362 -1.7358776 4293729569
6.5758667 -4.2271647 -1.8503397 4288085770
9.2650909 -5.5344648 -1.7242292 4293729569
3.5528641 -2.7869458 -1.8364086 4288085770
8.3996735 -5.1433167 -1.7449396 4293729569
4.9494629 -3.472548 -1.852138 4288085770
6.336853 -4.160253 -1.8530273 4288085770
9.3961487 -5.6838884 -1.7246933 4293729569
8.1428986 -5.0724201 -1.7639078 4293729569
3.5544662 -2.8319526 -1.8375776 4288085770
6.0998154 -4.0923405 -1.8536777 4288085770
4.9641647 -3.5334878 -1.8551576 4288085770
7.9995956 -5.0529461 -1.7982125 4293729569
9.593544 -5.8709788 -1.733218 4293729569
5.8677292 -4.022409 -1.8532372 4288085770
3.5530472 -2.8749728 -1.838788 4288085770
7.8874512 -5.046309 -1.8380556 4288085770
4.9758072 -3.5914493 -1.856215 4288085770
5.6657715 -3.9643226 -1.857347 4288085770
7.6837616 -4.9921613 -1.8592134 4288085770
9.6261215 -5.9769149 -1.7171307 4293729569
3.5566483 -2.9209704 -1.8399279 4288085770
4.9864426 -3.6504188 -1.8562934 4288085770
5.4687653 -3.9052215 -1.85937 4288085770
7.4036179 -4.8954186 -1.8654573 4288085770
9.7049026 -6.1056199 -1.7063739 4293729569
5.2636871 -3.840168 -1.8585014 4288085770
7.0821838 -4.7749104 -1.8602841 4288085770
3.5632706 -2.9679503 -1.8420222 4288085770
5.0010605 -3.7103705 -1.8563099 4288085770
6.7857819 -4.6632843 -1.8557329 4288085770
5.0796814 -3.7830086 -1.8603168 4288085770
9.9343567 -6.3125663 -1.7144513 4293729569
3.574913 -3.0179038 -1.8450458 4288085770
5.0227356 -3.7732825 -1.8582222 4288085770
6.5074081 -4.5565734 -1.8519032 4288085770
4.8976288 -3.7238474 -1.8600907 4288085770
6.2692032 -4.4676585 -1.853483 4288085770
10.10453 -6.491818 -1.7133939 4293729569
5.0494003 -3.838171 -1.86006 4288085770
3.580452 -3.0628996 -1.8441491 4288085770
4.7135315 -3.6617036 -1.8578856 4288085770
6.0379791 -4.3797154 -1.8539507 4288085770
4.5474777 -3.6054659 -1.8584061 4288085770
10.305801 -6.6889219 -1.713897 4293729569
5.8117142 -4.2917585 -1.8523357 4288085770
5.0720291 -3.9020858 -1.8599608 4288085770
3.5900421 -3.1108694 -1.8451984 4288085770
4.3793793 -3.5472498 -1.855952 4288085770
5.6226349 -4.2206059 -1.8571756 4288085770
10.481911 -6.8741617 -1.7087663 4293729569
5.4445496 -4.1524048 -1.861845 4288085770
5.0946121 -3.9640045 -1.8588531 4288085770
4.2253265 -3.4929624 -1.8552816 4288085770
3.6056519 -3.161808 -1.8471603 4288085770
5.2513275 -4.0742941 -1.860723 4288085770
4.0702133 -3.4366875 -1.8526196 4288085770
5.0701218 -4.0001249 -1.8604181 4288085770
5.1242523 -4.0298829 -1.8596458 4288085770
3.6192093 -3.2107635 -1.8471475 4288085770
3.93116 -3.3863273 -1.8527164 4288085770
4.9150467 -3.9378195 -1.8647304 4288085770
3.7991333 -3.3389363 -1.8527093 4288085770
4.7407532 -3.8616309 -1.8613012 4288085770
5.172966 -4.1056638 -1.8631642 4288085770
3.6358032 -3.2606969 -1.8490889 4288085770
4.589592 -3.7983222 -1.8615434 4288085770
3.6751022 -3.2925043 -1.8535733 4288085770
2.3304825 -2.5496516 -1.842736 4288085770
4.4262924 -3.7250876 -1.8569441 4288085770
5.2055511 -4.1725411 -1.8609121 4288085770
3.5520477 -3.2460723 -1.853421 4288085770
4.2931442 -3.6666937 -1.857908 4288085770
2.3667679 -2.5824914 -1.8432748 4288085770
3.6634293 -3.3165765 -1.8518727 4288085770
4.1509094 -3.6013522 -1.8559923 4288085770
2.4020157 -2.6143432 -1.8418264 4288085770
3.4249191 -3.1956744 -1.849319 4288085770
4.0206909 -3.5419569 -1.8539028 4288085770
2.4382401 -2.6451898 -1.8403573 4288085770
5.2481842 -4.2443604 -1.8615143 4288085770
3.8864136 -3.4775863 -1.8498588 4288085770
3.3118668 -3.1511965 -1.8490088 4288085770
2.4855194 -2.680974 -1.8417258 4288085770
3.6880112 -3.3704734 -1.853698 4288085770
3.7722473 -3.4231057 -1.8505235 4288085770
2.5277328 -2.7137928 -1.8401654 4288085770
3.6731262 -3.3755493 -1.8529682 4288085770
3.1946945 -3.1017523 -1.8447447 4288085770
2.5830307 -2.7535367 -1.8424177 4288085770
3.5649185 -3.3220487 -1.8515375 4288085770
5.2948532 -4.3191571 -1.8630626 4288085770
2.6433334 -2.7952585 -1.8445952 4288085770
3.4647217 -3.2715087 -1.8509865 4288085770
2.6955414 -2.831027 -1.8438814 4288085770
3.1047516 -3.0671501 -1.8490934 4288085770
3.3675003 -3.2209578 -1.849386 4288085770
2.7608109 -2.8727245 -1.8459759 4288085770
3.277298 -3.1733718 -1.8486812 4288085770
3.7015152 -3.4184356 -1.8516819 4288085770
2.8260651 -2.9144254 -1.8470707 4288085770
3.185051 -3.1238027 -1.8460019 4288085770
2.8872528 -2.9521527 -1.8462155 4288085770
3.1008377 -3.0771885 -1.8452017 4288085770
2.9584808 -2.9948263 -1.8472149 4288085770
3.0276489 -3.035521 -1.8452396 4288085770
3.0087051 -3.0275908 -1.8495212 4288085770
5.3394394 -4.3909755 -1.8616319 4288085770
2.9196777 -2.9899955 -1.8508413 4288085770
3.7331009 -3.4753003 -1.8534036 4288085770
2.8255615 -2.9484348 -1.8492279 4288085770
2.7374496 -2.9088511 -1.8475254 4288085770
5.3880234 -4.4647794 -1.8601458 4288085770
2.6594391 -2.8752022 -1.8496797 4288085770
3.7596207 -3.5282001 -1.8531954 4288085770
2.5752792 -2.8345995 -1.8469048 4288085770
5.4426422 -4.5425482 -1.8595762 4288085770
2.5072556 -2.8029046 -1.848901 4288085770
2.4371872 -2.7692223 -1.8499224 4288085770
2.3700867 -2.7355294 -1.8498938 4288085770
3.7921982 -3.586061 -1.8549068 4288085770
2.3130722 -2.7077761 -1.853724 4288085770
2.2428589 -2.6691122 -1.8497248 4288085770
5.5213852 -4.6331887 -1.8636613 4288085770
2.1857529 -2.6383696 -1.8505425 4288085770
3.8217163 -3.6399426 -1.8546517 4288085770
5.6373367 -4.7456303 -1.8752227 4288085770
3.8653183 -3.7027497 -1.8572011 4288085770
5.72509 -4.8412304 -1.8791792 4288085770
3.9108963 -3.7645459 -1.8597131 4288085770
5.78862 -4.9209695 -1.8754692 4288085770
5.7776566 -4.9541149 -1.8547947 4288085770
3.959465 -3.8283286 -1.8621836 4288085770
5.7213364 -4.95751 -1.8227446 4293729569
4.0050125 -3.8911338 -1.8627 4288085770
5.6589737 -4.9549365 -1.7897689 4293729569
4.0565491 -3.9549065 -1.864121 4288085770
5.621727 -4.9662337 -1.7604356 4293729569
4.113121 -4.0226521 -1.8664756 4288085770
5.6287766 -5.0042887 -1.7414827 4293729569
4.1615829 -4.0834494 -1.8649342 4288085770
5.6297379 -5.0363817 -1.7196045 4293729569
4.2261581 -4.1541548 -1.8681686 4288085770
5.6467361 -5.0763946 -1.6994936 4293729569
6.2248764 -5.4706764 -1.2275101 4293729569
5.675827 -5.1233406 -1.6822124 4293729569
4.2836151 -4.2189107 -1.8664942 4288085770
6.1608963 -5.459446 -0.86147386 4293729569
6.148468 -5.4549117 -1.2577201 4293729569
5.7108994 -5.1722598 -1.6648394 4293729569
6.1215973 -5.4594932 -0.89613485 4293729569
4.3662643 -4.3005257 -1.8714752 4288085770
6.0961456 -5.4520259 -1.2905853 4293729569
5.7630615 -5.2310896 -1.6502254 4293729569
6.1111298 -5.4754353 -0.67534691 4293729569
6.0883102 -5.4615092 -0.9317044 4293729569
4.4297028 -4.3672552 -1.8697097 4288085770
5.8262253 -5.2948689 -1.6354496 4293729569
6.0569 -5.4570737 -1.3252676 4293729569
6.0580063 -5.4635143 -0.96622407 4293729569
6.0165939 -5.4500179 -0.63980722 4293729569
5.8934021 -5.360631 -1.6206157 4293729569
4.5183334 -4.4508419 -1.8745992 4288085770
6.0318069 -5.4778972 -0.15660417 4293729569
6.0347061 -5.467483 -1.0016356 4293729569
6.0276718 -5.4660716 -1.3608001 4293729569
5.9363937 -5.4075203 -1.6011015 4293729569
6.0244598 -5.4793897 -1.0378643 4293729569
5.9722595 -5.4563637 -0.60657007 4293729569
4.6028824 -4.5304589 -1.876539 4288085770
5.9481506 -5.4335856 -1.5730159 4293729569
5.9684067 -5.4703236 -0.12462407 4293729569
6.0064545 -5.4770288 -1.3972079 4293729569
6.0111618 -5.4853082 -1.0741177 4293729569
5.9629059 -5.4586277 -1.5468758 4293729569
5.9877853 -5.4842844 -1.1075082 4293729569
4.7004929 -4.6160049 -1.8812871 4288085770
5.9348984 -5.4636769 -0.57322073 4293729569
5.9761658 -5.4810348 -1.431736 4293729569
5.9695587 -5.4767222 -1.51684 4293729569
5.9824753 -5.492166 -1.1436368 4293729569
5.9320908 -5.4786258 -0.093261957 4293729569
5.9631042 -5.4828825 -1.4849699 4293729569
5.9771347 -5.4990525 -1.1787614 4293729569
4.8071289 -4.7085099 -1.8859153 4288085770
5.9697037 -5.4959807 -1.4539129 4293729569
5.9758148 -5.5059161 -1.2148192 4293729569
5.9559174 -5.4909911 -1.4671229 4293729569
5.9662018 -5.5011349 -1.4199889 4293729569
5.9844971 -5.5167298 -1.2517271 4293729569
5.9025574 -5.4729643 -0.5407964 4293729569
5.9757614 -5.512218 -1.3888735 4293729569
5.9811096 -5.5186048 -1.2867972 4293729569
5.9696274 -5.5115237 -1.3199625 4293729569
5.9712143 -5.5123763 -1.3549452 4293729569
5.8927536 -5.4839396 -0.061937153 4293729569
4.916748 -4.8010006 -1.8904934 4288085770
5.9315948 -5.4939685 -1.5015469 4293729569
5.8752136 -5.4842281 -0.50829732 4293729569
5.0182571 -4.8865433 -1.8911757 4288085770
5.9123077 -5.4999199 -1.5369003 4293729569
5.8704376 -5.4971766 -0.030363142 4293729569
5.0683365 -4.9353757 -1.8775527 4288085770
5.8869171 -5.498908 -1.5693243 4293729569
5.8659515 -5.5054021 -0.4775407 4293729569
5.0539627 -4.9405656 -1.8478112 4288085770
5.8520966 -5.5124006 0.0022687912 4293729569
5.8454285 -5.4849772 -1.5999601 4293729569
5.0354996 -4.9407806 -1.8161154 4293729569
5.7696686 -5.4452357 -1.6220529 4293729569
5.8495941 -5.5196157 -0.44487113 4293729569
5.0210495 -4.9409733 -1.7853529 4293729569
5.8367691 -5.5266056 0.033955097 4293729569
5.6787872 -5.3935766 -1.6403453 4293729569
5.0468445 -4.966948 -1.7630334 4293729569
5.5828323 -5.3359489 -1.6566956 4293729569
5.1239777 -5.0256457 -1.7520027 4293729569
5.8382568 -5.534802 -0.41312259 4293729569
5.4988937 -5.2842617 -1.6738715 4293729569
5.1819229 -5.0694513 -1.7352259 4293729569
5.4028473 -5.2226439 -1.6872053 4293729569
5.313797 -5.1629953 -1.7004313 4293729569
5.2529144 -5.1211948 -1.7192663 4293729569
5.8194275 -5.5378146 0.064620972 4293729569
5.8258972 -5.5479927 -0.38138214 4293729569
5.8185043 -5.5611644 -0.34855857 4293729569
5.8181763 -5.5792961 -0.31763929 4293729569
5.8117523 -5.5894613 -0.28478637 4293729569
5.8083267 -5.6006145 -0.25188774 4293729569
5.8069 -5.6107531 -0.21995139 4293729569
5.7835693 -5.6049199 0.042723894 4293729569
5.8014221 -5.6159129 -0.18706053 4293729569
5.7841721 -5.6117854 0.0096990466 4293729569
5.7939148 -5.6170821 -0.15418613 4293729569
5.7817383 -5.6136694 -0.022354722 4293729569
5.7893982 -5.619236 -0.12126607 4293729569
5.7903366 -5.622499 -0.055254996 4293729569
5.7908783 -5.6223631 -0.088250279 4293729569
7.6389999 6.8015904 -1.6923511 4288085770
7.3966904 6.6295037 -1.689816 4288085770
7.9052887 6.9867849 -1.6954618 4288085770
7.1823578 6.4755559 -1.6907732 4288085770
6.9679947 6.3205943 -1.6887355 4288085770
8.1765671 7.172997 -1.6974915 4288085770
6.7876129 6.1857963 -1.690089 4288085770
8.4588242 7.3632512 -1.6983353 4288085770
8.7780228 7.5766783 -1.7015121 4288085770
6.6072388 6.048995 -1.6904514 4288085770
6.437851 5.9182405 -1.6906188 4288085770
9.0892258 7.7800546 -1.700855 4288085770
6.2834473 5.7965541 -1.6915174 4288085770
9.4343719 8.0035858 -1.7015898 4288085770
6.1440277 5.6829381 -1.693151 4288085770
6.0096054 5.571342 -1.6946993 4288085770
5.883194 5.4647856 -1.697103 4288085770
5.7617722 5.3592453 -1.6984258 4288085770
5.6653595 5.2698312 -1.7032957 4288085770
9.4894638 7.8807812 -1.698287 4288085770
5.5709305 5.1804209 -1.7071347 4288085770
9.2084885 7.66153 -1.6985514 4288085770
5.490509 5.0990782 -1.7127242 4288085770
8.9494629 7.4553723 -1.6984223 4288085770
8.6834106 7.2441678 -1.6944225 4288085770
5.4080887 5.0157232 -1.7173529 4288085770
8.4523315 7.0551357 -1.6947904 4288085770
5.3286514 4.9333768 -1.7209313 4288085770
8.2192383 6.8630772 -1.6912018 4288085770
5.2592468 4.856081 -1.7263343 4288085770
8.0090866 6.6871238 -1.6881917 4288085770
5.1908264 4.7797856 -1.7307177 4288085770
7.8059464 6.5132027 -1.6860651 4288085770
5.104393 4.6893854 -1.7294383 4288085770
7.6297684 6.357409 -1.6854465 4288085770
7.4855652 6.2227707 -1.688246 4288085770
5.0229416 4.6010027 -1.7270732 4288085770
7.3233643 6.0750356 -1.6873777 4288085770
4.9635162 4.527741 -1.7303054 4288085770
7.1811447 5.9393921 -1.6871508 4288085770
4.8860703 4.4413738 -1.7278702 4288085770
7.0488968 5.8097916 -1.6867446 4288085770
4.8226547 4.3640809 -1.7281811 4288085770
6.9266739 5.6852427 -1.6881628 4288085770
4.7822342 4.2999039 -1.7320821 4288085770
6.8234024 5.5737801 -1.6902332 4288085770
4.7257996 4.2256403 -1.7322726 4288085770
6.7151337 5.4592867 -1.6903936 4288085770
4.6884003 4.1624761 -1.736123 4288085770
6.6228561 5.3538709 -1.6922693 4288085770
4.6740112 4.1134329 -1.7445598 4288085770
6.5466003 5.2565379 -1.6968645 4288085770
4.6065598 4.0300946 -1.7389576 4288085770
6.4633179 5.1551557 -1.6975844 4288085770
4.6112137 3.9911499 -1.7510589 4288085770
6.4040451 5.0678992 -1.7028754 4288085770
4.5467529 3.9098206 -1.7444019 4288085770
6.3417587 4.9786215 -1.7062209 4288085770
4.5443954 3.8638268 -1.7526408 4288085770
6.2984772 4.9004374 -1.7122271 4288085770
6.2472 4.8162065 -1.7153817 4288085770
4.5029602 3.7956176 -1.7505741 4288085770
1.8011475 2.1977181 -1.7729619 4288085770
1.838028 2.2188706 -1.770304 4288085770
1.7652817 2.1765699 -1.7756042 4288085770
1.7163391 2.1473312 -1.7704815 4288085770
1.8869553 2.2460957 -1.7724355 4288085770
1.9328537 2.2702904 -1.7706264 4288085770
1.6754532 2.1211429 -1.7692223 4288085770
1.9707336 2.2894325 -1.7649618 4288085770
6.1968918 4.732975 -1.7175169 4288085770
1.6516342 2.104054 -1.7736626 4288085770
4.465538 3.7294259 -1.7484373 4288085770
2.0277023 2.3186955 -1.7679614 4288085770
1.6207962 2.082921 -1.7752278 4288085770
2.0766144 2.3418975 -1.76511 4288085770
1.6864548 2.1154037 -1.8220859 4288085770
2.1325607 2.3691435 -1.7651339 4288085770
2.1905136 2.3953919 -1.7641312 4288085770
2.2374191 2.4155717 -1.7583237 4288085770
6.1546021 4.6537876 -1.7215116 4288085770
4.4561539 3.6783843 -1.7528048 4288085770
2.2973633 2.4418249 -1.7562903 4288085770
2.3633575 2.4691072 -1.7551599 4288085770
2.4363327 2.5014281 -1.7559007 4288085770
6.0952682 4.5654988 -1.7198064 4288085770
4.4257507 3.6152258 -1.7515471 4288085770
2.509346 2.5307479 -1.756654 4288085770
2.5893631 2.5630989 -1.7572868 4288085770
2.5824051 2.5500345 -1.7504498 4288085770
2.5305786 2.5208168 -1.753372 4288085770
6.0469666 4.4822669 -1.7199104 4288085770
2.6372604 2.5802693 -1.7484769 4288085770
2.4797516 2.4905987 -1.7552832 4288085770
2.7051315 2.6155686 -1.7482824 4288085770
2.6573105 2.5883722 -1.7521346 4288085770
2.427887 2.4603677 -1.7552102 4288085770
2.7619934 2.6448064 -1.745283 4288085770
4.3953247 3.552063 -1.7492892 4288085770
2.3700256 2.425097 -1.7522507 4288085770
2.8238297 2.6760621 -1.7411983 4288085770
2.3352585 2.4009638 -1.7578896 4288085770
2.8907242 2.7083473 -1.739032 4288085770
2.2804031 2.3657007 -1.7538838 4288085770
2.7433243 2.6217475 -1.7526708 4288085770
2.9696045 2.7466927 -1.7386554 4288085770
