# .PCD v0.7 - Point Cloud Data file format
VERSION 0.7
FIELDS x y z rgb
SIZE 4 4 4 4
TYPE F F F U
COUNT 1 1 1 1
WIDTH 1137
HEIGHT 1
VIEWPOINT 0 0 0 1 0 0 0
POINTS 1137
DATA ascii
7.6335411 2.464067 -1.7710063 4288085770
3.0833015 1.3074502 -1.7830001 4288085770
2.4693184 1.1504914 -1.7799523 4288085770
5.9113731 2.004271 -1.8036857 4288085770
12.468842 3.6357074 -1.7799876 4288085770
7.9377823 2.4980354 -1.7670829 4288085770
4.80933 1.7163817 -1.8154304 4288085770
8.4638939 2.611989 -1.7645847 4288085770
6.1765404 2.0462451 -1.801475 4288085770
3.1495857 1.2914494 -1.7864877 4288085770
6.1266098 2.0212507 -1.8021654 4288085770
2.533596 1.1364974 -1.7864219 4288085770
8.2660217 2.5340042 -1.7643248 4288085770
12.659161 3.5757041 -1.7834221 4288085770
4.8916588 1.6883754 -1.8160506 4288085770
6.3318634 2.0332246 -1.7975836 4288085770
6.294857 2.0182395 -1.8033485 4288085770
8.5492401 2.5559826 -1.7642741 4288085770
8.6332397 2.5759778 -1.7648304 4288085770
3.2009163 1.2704374 -1.7838782 4288085770
2.5888824 1.1214951 -1.7888304 4288085770
6.5591202 2.0471992 -1.794153 4288085770
8.999485 2.6139445 -1.7623358 4288085770
12.84449 3.5116987 -1.7858284 4288085770
4.9979515 1.6653777 -1.821831 4288085770
6.4411354 1.9952427 -1.8104104 4288085770
3.2632141 1.2524308 -1.7843412 4288085770
8.6685562 2.5069828 -1.7681906 4288085770
2.641201 1.1034881 -1.7892228 4288085770
6.7953682 2.0621758 -1.7917838 4288085770
9.3877296 2.6529112 -1.7599944 4288085770
13.080791 3.4576979 -1.7915765 4288085770
5.064312 1.6333593 -1.8163463 4288085770
7.0396233 2.07515 -1.7884744 4288085770
3.3305016 1.2354261 -1.7858377 4288085770
6.5714569 1.967234 -1.8113685 4288085770
9.8029861 2.6928744 -1.7568413 4288085770
8.7958679 2.4589829 -1.7721618 4288085770
2.7024956 1.0874857 -1.7916753 4288085770
7.3218575 2.0931334 -1.7904235 4288085770
10.27821 2.7418447 -1.7590944 4288085770
5.1736145 1.6093577 -1.8201498 4288085770
13.302113 3.3976917 -1.7942295 4288085770
3.3908234 1.2154137 -1.7832904 4288085770
6.7247429 1.9432336 -1.8164816 4288085770
2.7567978 1.0704769 -1.7910805 4288085770
8.9271889 2.4099808 -1.7751631 4288085770
7.5831375 2.1031027 -1.785239 4288085770
10.781437 2.7918134 -1.7615427 4288085770
3.4631233 1.1974069 -1.7838237 4288085770
5.2759285 1.5833524 -1.8219078 4288085770
13.54744 3.340682 -1.7960465 4288085770
6.8730507 1.9162265 -1.8185648 4288085770
2.8131104 1.0524691 -1.7905014 4288085770
7.8783798 2.1180811 -1.7852848 4288085770
11.324677 2.8437786 -1.7632691 4288085770
9.0804939 2.3639817 -1.7803141 4288085770
3.5404053 1.1804024 -1.7853909 4288085770
5.384243 1.5573453 -1.8227081 4288085770
11.896908 2.8967423 -1.7651978 4288085770
8.1886292 2.1320591 -1.7854378 4288085770
13.832745 3.2896767 -1.8011347 4288085770
7.0133743 1.8872138 -1.8175957 4288085770
2.8774185 1.0354623 -1.7909768 4288085770
9.2158394 2.3129735 -1.7803472 4288085770
12.537136 2.95471 -1.7705959 4288085770
3.6256752 1.1644009 -1.7890123 4288085770
8.5258675 2.1480403 -1.7877774 4288085770
2.5976944 0.95646393 -1.7831411 4288085770
2.6807289 0.97145426 -1.7816988 4288085770
2.7667618 0.98644507 -1.7802775 4288085770
5.4835815 1.5283314 -1.8204505 4288085770
2.9486923 1.0204619 -1.7944983 4288085770
2.8587914 1.0024372 -1.7798967 4288085770
7.1846695 1.8622087 -1.8208375 4288085770
14.128063 3.2366667 -1.8042971 4288085770
2.9608154 1.0194324 -1.7815843 4288085770
3.059864 1.0354224 -1.7802526 4288085770
3.1678886 1.0534183 -1.7819806 4288085770
2.6358376 0.94647276 -1.7894231 4288085770
9.3791389 2.2669721 -1.784569 4288085770
3.2879066 1.0724171 -1.7857913 4288085770
13.2873 3.029686 -1.7837385 4288085770
8.8551254 2.1590152 -1.7870697 4288085770
2.7289009 0.95946443 -1.7890542 4288085770
3.3939896 1.087402 -1.7825103 4288085770
3.6979866 1.1443888 -1.7865497 4288085770
2.8199844 0.97045434 -1.7876744 4288085770
3.5120468 1.1043926 -1.7823101 4288085770
3.0189781 1.0044566 -1.7960144 4288085770
5.5789337 1.4973148 -1.8161684 4288085770
3.6321182 1.1213809 -1.7811242 4288085770
2.9170532 0.98344362 -1.7863333 4288085770
7.3599739 1.8362004 -1.8231094 4288085770
3.7512016 1.137365 -1.7779331 4288085770
14.427395 3.1796527 -1.8054947 4288085770
3.0161476 0.99443305 -1.7850097 4288085770
14.046513 3.0956526 -1.79196 4288085770
9.2073975 2.1689878 -1.7855253 4288085770
3.8872681 1.1553572 -1.7788577 4288085770
3.1311989 1.0094303 -1.7877918 4288085770
9.5384712 2.2179623 -1.784768 4288085770
4.0393181 1.17635 -1.7808895 4288085770
3.7812767 1.1263815 -1.787161 4288085770
3.2462769 1.0224227 -1.7885772 4288085770
4.187397 1.1943406 -1.7818985 4288085770
3.0862808 0.98644841 -1.795513 4288085770
5.6982422 1.471305 -1.8160467 4288085770
3.3603783 1.0344113 -1.7873573 4288085770
7.5322952 1.808185 -1.8213639 4288085770
14.854752 3.1626081 -1.7965248 4288085770
4.3524628 1.2153331 -1.784022 4288085770
9.5676842 2.1759582 -1.7830424 4288085770
14.757713 3.1276402 -1.8079021 4288085770
3.4964294 1.0504111 -1.7922851 4288085770
4.5275345 1.2363266 -1.7872154 4288085770
3.8735542 1.1093765 -1.788834 4288085770
3.6145592 1.0603949 -1.7890966 4288085770
9.7337761 2.1729622 -1.7902136 4288085770
4.7205849 1.2593263 -1.7935319 4288085770
3.1575775 0.96943963 -1.7950385 4288085770
15.737976 3.2325649 -1.8036119 4288085770
3.742672 1.072383 -1.7879751 4288085770
4.9016876 1.2793111 -1.7927694 4288085770
5.8255463 1.4452969 -1.8169812 4288085770
9.9759407 2.186934 -1.7848905 4288085770
7.7535477 1.788186 -1.8289492 4288085770
3.8767853 1.0843707 -1.7868958 4288085770
5.0967751 1.3003017 -1.7951035 4288085770
15.109043 3.0746222 -1.8084594 4288085770
3.9818115 1.0943769 -1.7936158 4288085770
4.0089149 1.0953537 -1.7838039 4288085770
5.3068695 1.3222917 -1.7975414 4288085770
9.9560509 2.1319652 -1.7978421 4288085770
16.682232 3.3025136 -1.8081286 4288085770
3.2338676 0.95243323 -1.7955989 4288085770
10.374226 2.1919036 -1.7826785 4288085770
4.1759796 1.1113547 -1.7899497 4288085770
5.5239601 1.3442811 -1.8000284 4288085770
5.9618607 1.4182886 -1.8179809 4288085770
7.948864 1.7601711 -1.8283659 4288085770
5.7620506 1.3682722 -1.8036598 4288085770
4.3320999 1.1233426 -1.7900249 4288085770
4.0950546 1.0793794 -1.7994332 4288085770
15.508369 3.0236044 -1.8103509 4288085770
17.733448 3.381465 -1.8173825 4288085770
6.0041542 1.3912603 -1.8063209 4288085770
3.3201218 0.93743241 -1.799226 4288085770
4.5012131 1.1363353 -1.7921896 4288085770
10.826477 2.1998801 -1.7858412 4288085770
10.16338 2.0839553 -1.7993777 4288085770
6.1001663 1.3922783 -1.817993 4288085770
8.1571693 1.734156 -1.8278708 4288085770
6.2582664 1.414246 -1.8080665 4288085770
4.6703377 1.1483229 -1.7923564 4288085770
4.2033157 1.0633742 -1.8012173 4288085770
6.5403633 1.4392365 -1.8130054 4288085770
15.978657 2.9815936 -1.8177269 4288085770
4.8594475 1.1623138 -1.7946601 4288085770
11.276764 2.2028499 -1.7849991 4288085770
3.4053879 0.92142761 -1.8008485 4288085770
10.392689 2.03795 -1.8030648 4288085770
6.820507 1.4622151 -1.8119339 4288085770
5.0485878 1.174301 -1.7949675 4288085770
6.2504616 1.3672675 -1.8180883 4288085770
8.4114304 1.7131523 -1.8336906 4288085770
4.3045959 1.0453647 -1.8009559 4288085770
7.1266251 1.4872006 -1.8150418 4288085770
5.2487259 1.1852895 -1.7963537 4288085770
11.771042 2.2058215 -1.7864664 4288085770
3.4896736 0.90441859 -1.8004655 4288085770
16.443981 2.9335713 -1.8190783 4288085770
7.4787216 1.5161926 -1.822466 4288085770
5.4698448 1.1992813 -1.7998824 4288085770
6.4057541 1.3412594 -1.8192204 4288085770
8.6836853 1.6921471 -1.8396373 4288085770
10.642982 1.9939457 -1.8078964 4288085770
4.4178619 1.0283564 -1.8017771 4288085770
7.813858 1.5401727 -1.8237797 4288085770
5.6999702 1.212273 -1.8034763 4288085770
12.309288 2.2107983 -1.79124 4288085770
3.5909157 0.88941944 -1.8051987 4288085770
17.002277 2.8925529 -1.8250723 4288085770
8.1879959 1.5671533 -1.8263625 4288085770
5.9261322 1.2222565 -1.8030473 4288085770
8.9849358 1.673143 -1.8467847 4288085770
6.558075 1.3132416 -1.8163352 4288085770
4.5351219 1.0113496 -1.8026266 4288085770
10.901287 1.946937 -1.8107897 4288085770
8.5951271 1.5951363 -1.8311758 4288085770
12.87355 2.211772 -1.7952034 4288085770
3.6841927 0.87241066 -1.8048793 4288085770
6.181263 1.2352465 -1.8068171 4288085770
17.596577 2.8515315 -1.8303199 4288085770
9.0162697 1.6221153 -1.8340892 4288085770
4.6683693 0.995345 -1.8055873 4288085770
9.2562294 1.6471263 -1.8467337 4288085770
6.4414062 1.2462353 -1.8096254 4288085770
6.7363625 1.2872323 -1.8176295 4288085770
11.189587 1.900932 -1.8158928 4288085770
13.465809 2.2107449 -1.7993678 4288085770
3.7714767 0.85439789 -1.8025196 4288085770
9.4524307 1.6480886 -1.8351102 4288085770
6.7075768 1.2552172 -1.8094795 4288085770
4.8076134 0.97934115 -1.8085899 4288085770
9.9126244 1.6720554 -1.8333035 4288085770
9.5735092 1.6241113 -1.8490012 4288085770
6.9256516 1.262221 -1.8179996 4288085770
7.0037308 1.266204 -1.8125412 4288085770
3.8767242 0.83839262 -1.8042831 4288085770
14.10107 2.205719 -1.8048419 4288085770
11.475906 1.852918 -1.8169855 4288085770
10.385834 1.6950151 -1.82859 4288085770
7.3029099 1.2741843 -1.8126295 4288085770
4.9428596 0.96233308 -1.8095664 4288085770
9.9037819 1.6010967 -1.8513603 4288085770
7.129921 1.2372123 -1.8204755 4288085770
10.891064 1.7159716 -1.8231052 4288085770
3.9829788 0.82238567 -1.8050539 4288085770
14.77034 2.1976895 -1.8095608 4288085770
7.6170921 1.2811641 -1.812825 4288085770
11.796207 1.8059071 -1.820316 4288085770
5.0910988 0.94632614 -1.8116328 4288085770
11.422295 1.7379254 -1.816802 4288085770
10.230072 1.5750738 -1.8496969 4288085770
7.3252106 1.2111961 -1.8188901 4288085770
7.9572601 1.289147 -1.8152015 4288085770
4.1101875 0.80838835 -1.810969 4288085770
15.482616 2.1856575 -1.8135895 4288085770
12.031509 1.7628814 -1.8140423 4288085770
5.2383461 0.92931592 -1.8116943 4288085770
12.161488 1.7618994 -1.8259581 4288085770
8.3164444 1.295128 -1.8167155 4288085770
10.588367 1.5500497 -1.8482573 4288085770
4.2394104 0.79338694 -1.8148999 4288085770
7.5474892 1.1851839 -1.8194947 4288085770
12.731697 1.7928447 -1.8169143 4288085770
8.7365723 1.306121 -1.8256497 4288085770
5.4025764 0.91330945 -1.8138734 4288085770
16.229893 2.1676269 -1.8188752 4288085770
13.506866 1.8258072 -1.8213089 4288085770
12.544777 1.7148887 -1.8307325 4288085770
4.3646584 0.77637923 -1.8158064 4288085770
10.99762 1.5280317 -1.8511714 4288085770
7.8127289 1.1621796 -1.8253967 4288085770
9.153759 1.3111008 -1.8285736 4288085770
5.5738182 0.8963002 -1.815104 4288085770
14.354053 1.8587643 -1.8252103 4288085770
17.054146 2.1495967 -1.8267031 4288085770
9.5789528 1.314077 -1.8295573 4288085770
4.4938927 0.76037145 -1.8167397 4288085770
11.421902 1.5040056 -1.8501947 4288085770
13.007011 1.6728879 -1.8420542 4288085770
8.0729866 1.1371676 -1.8272674 4288085770
5.7660255 0.88129675 -1.8194788 4288085770
15.289253 1.8927163 -1.8287295 4288085770
10.04715 1.316054 -1.8318456 4288085770
4.62714 0.7433598 -1.8157028 4288085770
11.885181 1.4799775 -1.8494929 4288085770
16.326443 1.9286665 -1.8339633 4288085770
8.3412514 1.1111516 -1.8271966 4288085770
5.9552536 0.86528456 -1.8198344 4288085770
13.446312 1.6228713 -1.8452287 4288085770
10.532364 1.3150259 -1.8322588 4288085770
4.7773552 0.7273556 -1.8187838 4288085770
17.459652 1.9626089 -1.8378763 4288085770
12.451405 1.4609607 -1.8565074 4288085770
6.1614647 0.84927714 -1.8223099 4288085770
8.6465073 1.0851406 -1.830386 4288085770
11.040588 1.3109952 -1.8318394 4288085770
13.963562 1.5778621 -1.8539437 4288085770
4.9235878 0.71134365 -1.8178371 4288085770
6.3746872 0.83226454 -1.8228364 4288085770
13.065636 1.4419397 -1.86286 4288085770
11.596813 1.3059627 -1.8317597 4288085770
8.9497795 1.0571212 -1.8295652 4288085770
5.1017685 0.69634521 -1.8241135 4288085770
14.530815 1.529852 -1.863016 4288085770
6.6158867 0.81725776 -1.8265568 4288085770
12.225006 1.3019389 -1.837185 4288085770
13.757847 1.4249178 -1.8707584 4288085770
9.2720566 1.0290965 -1.8268785 4288085770
5.2530212 0.67832637 -1.8202057 4288085770
6.8581047 0.80024397 -1.8272877 4288085770
4.7891617 0.62633467 -1.8110303 4288085770
4.9741707 0.64132392 -1.8113059 4288085770
5.1721764 0.65731263 -1.8116716 4288085770
4.6011925 0.60933876 -1.8077369 4288085770
4.4311943 0.59434879 -1.8075664 4288085770
5.3801956 0.67230129 -1.812109 4288085770
4.2801895 0.58036184 -1.809528 4288085770
12.927189 1.2969159 -1.8451331 4288085770
5.6012077 0.68928885 -1.8126348 4288085770
15.141068 1.4798387 -1.871395 4288085770
4.1172256 0.56436491 -1.8064085 4288085770
5.8312492 0.70427179 -1.8112272 4288085770
3.9682579 0.54936969 -1.8043858 4288085770
6.0812683 0.72126031 -1.8129567 4288085770
14.483074 1.4058887 -1.8758929 4288085770
3.8512535 0.5373832 -1.8075832 4288085770
3.5882301 0.51540387 -1.8097703 4288085770
3.7242317 0.52639759 -1.8107083 4288085770
4.0002518 0.54837859 -1.8096124 4288085770
3.8292847 0.53437769 -1.8044336 4288085770
3.4762115 0.50541961 -1.8139994 4288085770
4.1532593 0.55937159 -1.8106699 4288085770
6.358284 0.73825169 -1.8168762 4288085770
3.3492355 0.49342299 -1.8121264 4288085770
5.4392166 0.66232169 -1.8235406 4288085770
9.6273193 1.0010756 -1.8264242 4288085770
4.3252563 0.57136989 -1.8148592 4288085770
3.6933289 0.51938164 -1.8025022 4288085770
3.2242775 0.48142219 -1.8082675 4288085770
6.6223488 0.75322926 -1.8137078 4288085770
4.48629 0.58135605 -1.8129748 4288085770
3.1073189 0.46942306 -1.805465 4288085770
4.6603127 0.59234822 -1.8141799 4288085770
3.5753517 0.50539303 -1.8046957 4288085770
6.9293785 0.77121544 -1.8158368 4288085770
7.1382828 0.78523827 -1.8322827 4288085770
4.8373604 0.60233355 -1.812408 4288085770
3.4633827 0.49140382 -1.8069315 4288085770
7.2634125 0.78920257 -1.8191557 4288085770
5.0353851 0.61332667 -1.814782 4288085770
13.646408 1.2848827 -1.8482133 4288085770
3.340435 0.47740495 -1.8040898 4288085770
5.2434196 0.62331712 -1.816228 4288085770
7.6114655 0.80618489 -1.8205749 4288085770
3.2314835 0.46341205 -1.8043464 4288085770
5.634407 0.64731443 -1.8259374 4288085770
15.774338 1.4258181 -1.8769436 4288085770
5.4564781 0.63330305 -1.8157094 4288085770
15.280312 1.3858534 -1.8795366 4288085770
7.9535599 0.82115638 -1.8169553 4288085770
10.009563 0.97305572 -1.8271602 4288085770
3.1275406 0.44941807 -1.8046383 4288085770
5.6935158 0.64329433 -1.8183595 4288085770
7.4174767 0.76922548 -1.8342727 4288085770
8.3646088 0.84013832 -1.8198144 4288085770
5.9285927 0.65227735 -1.8169973 4288085770
8.7806931 0.85711133 -1.8187122 4288085770
14.455597 1.2738544 -1.8559257 4288085770
6.1976318 0.66226947 -1.8208725 4288085770
5.849575 0.63231301 -1.831475 4288085770
9.2557526 0.87609065 -1.8220218 4288085770
6.4726982 0.67125499 -1.8217918 4288085770
16.212505 1.3698217 -1.8881233 4288085770
7.7256622 0.75421453 -1.8374654 4288085770
10.472775 0.9470433 -1.8334628 4288085770
9.7238693 0.89205539 -1.8182875 4288085770
16.479614 1.3687934 -1.8820045 4288085770
6.7517853 0.67823625 -1.8207428 4288085770
10.310917 0.91303647 -1.8253818 4288085770
15.328808 1.2568203 -1.8620993 4288085770
7.0658569 0.68622255 -1.8229383 4288085770
6.0637817 0.61530089 -1.8320093 4288085770
10.903019 0.93100226 -1.8255168 4288085770
7.4079208 0.69520938 -1.826329 4288085770
8.0278778 0.73619342 -1.835621 4288085770
17.333652 1.3577965 -1.9050338 4288085770
10.972973 0.9210304 -1.8400263 4288085770
11.495167 0.9469558 -1.8196555 4288085770
7.7580147 0.70119023 -1.8267815 4288085770
17.290859 1.3127714 -1.8908103 4288085770
6.2979546 0.59929478 -1.8356827 4288085770
16.264042 1.2327775 -1.8657221 4288085770
8.1351166 0.70716977 -1.827424 4288085770
12.228268 0.9669193 -1.8217795 4288085770
8.369072 0.72017491 -1.836048 4288085770
8.4692955 0.70812821 -1.8167729 4288085770
11.494194 0.89301002 -1.8437414 4288085770
13.07933 0.98989022 -1.8307289 4288085770
6.5391388 0.58328211 -1.8364056 4288085770
8.7332573 0.70415545 -1.8366371 4288085770
8.8644447 0.71009409 -1.8115493 4288085770
14.051373 1.0148624 -1.8435265 4288085770
17.374222 1.2087466 -1.878577 4288085770
9.3275604 0.71306801 -1.8118026 4288085770
6.7943153 0.56727123 -1.8382273 4288085770
15.109459 1.0388199 -1.8509314 4288085770
11.999477 0.85896957 -1.8373549 4288085770
9.0914841 0.68512368 -1.8311895 4288085770
9.8436623 0.71604717 -1.815429 4288085770
16.322536 1.0637754 -1.8614258 4288085770
7.0874634 0.55126524 -1.8433164 4288085770
10.407772 0.71802211 -1.8183951 4288085770
9.5256577 0.67010212 -1.83227 4288085770
12.701626 0.83296001 -1.8503411 4288085770
17.847523 1.0977439 -1.8861008 4288085770
11.020885 0.71799505 -1.8217096 4288085770
7.3876266 0.53525305 -1.8454551 4288085770
10.021801 0.65508711 -1.8377868 4288085770
13.344879 0.79892123 -1.8479266 4288085770
11.728958 0.71897781 -1.8316913 4288085770
7.7117805 0.51924181 -1.8487629 4288085770
10.55196 0.63906419 -1.8405451 4288085770
12.539021 0.71896112 -1.8443925 4288085770
14.128059 0.76789451 -1.8544928 4288085770
8.0129929 0.50021267 -1.8429142 4288085770
11.1301 0.62404227 -1.8446397 4288085770
13.425083 0.71594441 -1.8586347 4288085770
8.348175 0.48318684 -1.8393017 4288085770
11.772236 0.6100179 -1.8491836 4288085770
14.995247 0.733863 -1.8606557 4288085770
14.167347 0.70087266 -1.8438848 4288085770
8.7113571 0.46515989 -1.835888 4288085770
12.507359 0.59499192 -1.8553838 4288085770
15.149498 0.68882728 -1.8468192 4288085770
16.038391 0.70083618 -1.8730563 4288085770
9.1245232 0.44713521 -1.8348267 4288085770
13.319473 0.58096313 -1.8621248 4288085770
16.297607 0.67478704 -1.8559258 4293729569
9.5906525 0.43111742 -1.838135 4288085770
17.117573 0.66279125 -1.8777196 4288085770
14.241573 0.56693339 -1.8706402 4288085770
17.500801 0.65272367 -1.8554345 4293729569
10.122761 0.41510177 -1.843908 4288085770
15.299656 0.55290103 -1.8811135 4288085770
6.1345367 -3.5026307 -1.944293 4288085770
8.1004181 -4.4305186 -1.9853129 4288085770
3.3001213 -2.2378221 -1.8823471 4288085770
4.3089828 -2.7017529 -1.9050736 4288085770
5.9208031 -3.4486551 -1.9392393 4288085770
7.7094841 -4.2814708 -1.9913087 4288085770
10.288368 -5.4751072 -1.8967593 4293729569
7.806633 -4.344521 -1.9834316 4288085770
5.737011 -3.4046474 -1.940485 4288085770
4.3042717 -2.7447529 -1.9072461 4288085770
3.2854424 -2.2708335 -1.8823867 4288085770
7.5158615 -4.2555332 -1.9795611 4288085770
7.7488022 -4.3734798 -1.9920917 4288085770
10.330734 -5.5891466 -1.8916769 4293729569
5.5382576 -3.3516665 -1.9365613 4288085770
7.2251091 -4.1625676 -1.9716704 4288085770
4.2836075 -2.7797847 -1.9032454 4288085770
3.2827263 -2.3078287 -1.885546 4288085770
5.3355331 -3.2937064 -1.9285793 4288085770
7.812088 -4.4784675 -1.9971392 4288085770
10.423054 -5.7271595 -1.8921301 4293729569
6.9812889 -4.0885587 -1.9722662 4288085770
4.2928543 -2.828763 -1.9095643 4288085770
5.1677437 -3.2507091 -1.9279637 4288085770
3.2720451 -2.3418398 -1.8856237 4288085770
6.7165337 -4.002593 -1.9646275 4288085770
7.8693848 -4.5814657 -2.0001266 4288085770
10.246693 -5.7353749 -1.8516943 4293729569
4.9979706 -3.2037225 -1.9253116 4288085770
6.458786 -3.915638 -1.9550424 4288085770
4.2901535 -2.8717728 -1.9097533 4288085770
3.2593536 -2.3728559 -1.8846695 4288085770
6.2379799 -3.8436446 -1.9528401 4288085770
4.82621 -3.1527514 -1.9196229 4288085770
7.9516525 -4.6964478 -2.006382 4288085770
10.218166 -5.8144894 -1.8318452 4293729569
6.0341492 -3.7776413 -1.9528093 4288085770
4.2904396 -2.9167776 -1.9109771 4288085770
4.6764069 -3.110754 -1.9191623 4288085770
3.2546501 -2.4088614 -1.8858073 4288085770
5.8173676 -3.7016749 -1.945621 4288085770
8.0988159 -4.8443646 -2.0253429 4288085770
10.152679 -5.87363 -1.8065878 4293729569
4.5256271 -3.0667722 -1.9156837 4288085770
4.2897339 -2.9607878 -1.9111876 4288085770
5.6205673 -3.6346979 -1.940644 4288085770
9.0520248 -5.3648882 -0.43180734 4293729569
9.1077118 -5.3956795 -0.47142684 4293729569
3.2429771 -2.4418831 -1.8838716 4288085770
4.393795 -3.0297639 -1.9173982 4288085770
9.0932121 -5.4136896 -1.034421 4293729569
5.4387321 -3.5707045 -1.938807 4288085770
8.1790886 -4.9603577 -2.0295861 4288085770
9.2721748 -5.5173888 -1.6574588 4293729569
4.3019905 -3.0097811 -1.914531 4288085770
4.2500191 -2.9857874 -1.9129779 4288085770
8.943634 -5.383111 -0.38998824 4293729569
9.036644 -5.4314675 -0.51201051 4293729569
5.2619095 -3.5077214 -1.9350169 4288085770
3.2452431 -2.4798775 -1.8870771 4288085770
9.0011711 -5.4414935 -1.0717897 4293729569
4.1201973 -2.9457946 -1.9116943 4288085770
5.0930748 -3.4467382 -1.9313033 4288085770
8.0856476 -4.9885311 -1.9979415 4288085770
8.9420013 -5.4307342 -1.5912662 4293729569
4.3082695 -3.0557904 -1.9148097 4288085770
8.9925499 -5.4782429 -0.55487394 4293729569
8.8892365 -5.4273334 -0.34874886 4293729569
4.9342308 -3.3897443 -1.929693 4288085770
3.9874001 -2.9018178 -1.9073658 4288085770
3.245533 -2.5178828 -1.8882661 4288085770
8.9601021 -5.4932766 -1.1137029 4293729569
4.7714119 -3.3277774 -1.9230249 4288085770
7.9552727 -4.9947481 -1.9578793 4288085770
8.8845139 -5.4808793 -1.5650307 4293729569
3.8645821 -2.8628297 -1.9051456 4288085770
8.9764442 -5.5400128 -0.59904552 4293729569
4.3205261 -3.104789 -1.9171529 4288085770
8.8548241 -5.4805498 -0.30872107 4293729569
4.6345367 -3.2777719 -1.9236329 4288085770
3.2597771 -2.5618663 -1.8936012 4288085770
8.9389992 -5.5550432 -1.1588326 4293729569
3.7507477 -2.8258364 -1.9040103 4288085770
4.4817123 -3.2168093 -1.9160533 4288085770
8.9893227 -5.6157794 -0.64452839 4293729569
8.8400002 -5.5360146 -1.5409285 4293729569
7.8708191 -5.0229216 -1.9263093 4293729569
8.8694 -5.556766 -0.2692163 4293729569
4.3307915 -3.1517982 -1.9174697 4288085770
4.3598251 -3.170804 -1.9168065 4288085770
3.6339264 -2.7858539 -1.9008353 4288085770
3.2590561 -2.5978765 -1.8937719 4288085770
8.9298782 -5.6217995 -1.206087 4293729569
4.2359428 -3.121814 -1.9145279 4288085770
3.5340691 -2.7538495 -1.9018414 4288085770
8.9921913 -5.6845388 -0.69089299 4293729569
4.1090698 -3.0698295 -1.9112098 4288085770
8.9099731 -5.6469808 -0.22999798 4293729569
7.8602524 -5.0880251 -1.9085402 4293729569
8.831459 -5.6101322 -1.5202208 4293729569
4.3370628 -3.1968122 -1.9167433 4288085770
3.4222565 -2.713877 -1.8967085 4288085770
3.9991722 -3.0258291 -1.9110732 4288085770
9.0056686 -5.7325068 -1.2632688 4293729569
3.2583351 -2.6328912 -1.8929372 4288085770
3.8882828 -2.9798441 -1.9079182 4288085770
3.322403 -2.6778882 -1.894695 4288085770
3.7843857 -2.9358532 -1.9058318 4288085770
4.3662872 -3.2527995 -1.921263 4288085770
8.8588753 -5.7022285 -1.5039024 4293729569
7.8736458 -5.1671023 -1.8960407 4293729569
3.6774864 -2.8878729 -1.9017005 4288085770
3.2245483 -2.6418991 -1.8926983 4288085770
3.2695885 -2.674885 -1.8962376 4288085770
3.5945396 -2.8528605 -1.9038339 4288085770
3.4936409 -2.8058848 -1.8987577 4288085770
3.1267204 -2.6049261 -1.8876967 4288085770
3.4067078 -2.765893 -1.8968329 4288085770
4.3845329 -3.3038025 -1.9226663 4288085770
3.3197784 -2.7249062 -1.893903 4288085770
7.8980446 -5.2511845 -1.8826578 4293729569
3.0528069 -2.5789099 -1.8909497 4288085770
3.2378426 -2.6849191 -1.8910203 4288085770
3.1638756 -2.6489158 -1.8912239 4288085770
3.2768517 -2.7148893 -1.8974946 4288085770
3.0809517 -2.6069446 -1.8853228 4288085770
2.9709206 -2.5479145 -1.8901114 4288085770
3.0139694 -2.5719461 -1.8845899 4288085770
2.7739944 -2.4389541 -1.8809264 4288085770
2.829998 -2.4709537 -1.8815527 4288085770
2.9569702 -2.5419366 -1.8859651 4288085770
2.8909988 -2.5059481 -1.8832355 4288085770
4.3997803 -3.3508158 -1.9220245 4288085770
2.8820648 -2.5119355 -1.8861902 4288085770
7.9643593 -5.3572226 -1.8777339 4293729569
2.8141403 -2.485924 -1.8884933 4288085770
3.2861061 -2.7538984 -1.897763 4288085770
2.7362556 -2.453939 -1.8856835 4288085770
4.4299965 -3.4078078 -1.9255574 4288085770
8.0227089 -5.4602823 -1.8687285 4293729569
3.2993393 -2.7948966 -1.9000747 4288085770
4.4582291 -3.4618154 -1.9260588 4288085770
8.0860329 -5.565331 -1.8617744 4293729569
3.3215523 -2.8408837 -1.9044864 4288085770
4.4954224 -3.5208011 -1.9306598 4288085770
8.1743355 -5.6843681 -1.8570985 4293729569
3.341774 -2.8858762 -1.9078765 4288085770
4.5406036 -3.583787 -1.9353473 4288085770
8.2856102 -5.8163948 -1.8546788 4293729569
4.5678368 -3.6368046 -1.9338353 4288085770
3.3550186 -2.9258895 -1.9071832 4288085770
4.6180115 -3.7017894 -1.9385746 4288085770
3.3702431 -2.9658976 -1.9075067 4288085770
8.3918991 -5.9474263 -1.8512121 4293729569
9.9647293 -6.8933272 -1.8840344 4293729569
4.6581955 -3.7597899 -1.9401956 4288085770
3.3914604 -3.0098996 -1.9088998 4288085770
9.5390015 -6.7013698 -1.8735247 4293729569
8.5341415 -6.0994363 -1.8521498 4293729569
4.6964035 -3.8168068 -1.9387951 4288085770
3.4176598 -3.0559013 -1.9103446 4288085770
9.1362762 -6.519412 -1.8632568 4293729569
8.6623993 -6.2424617 -1.8499264 4293729569
4.7575417 -3.8857856 -1.9446456 4288085770
3.4398613 -3.097908 -1.9107363 4288085770
8.7535515 -6.3434649 -1.8511857 4293729569
8.9134979 -6.46139 -1.8671052 4293729569
4.8107109 -3.9507847 -1.9464099 4288085770
8.3748398 -6.163528 -1.8371284 4293729569
3.4630585 -3.1409149 -1.9111412 4288085770
4.8688698 -4.0167847 -1.9482207 4288085770
9.1356468 -6.6643548 -1.8769631 4293729569
8.0999985 -6.0425158 -1.8382314 4293729569
3.5022163 -3.1928997 -1.915724 4288085770
4.9310188 -4.085784 -1.9500797 4288085770
9.3478279 -6.8633366 -1.8837175 4293729569
7.8670998 -5.9444709 -1.8457987 4293729569
4.9991455 -4.155777 -1.9529941 4288085770
3.5433578 -3.244884 -1.9203236 4288085770
7.6581879 -5.8574204 -1.8546211 4293729569
5.0692787 -4.2287703 -1.9559395 4288085770
3.5655594 -3.2849059 -1.9177053 4288085770
5.1483917 -4.3047628 -1.9589751 4288085770
7.4772377 -5.784349 -1.8677464 4293729569
3.6077118 -3.3369002 -1.9203131 4288085770
5.2215118 -4.3757658 -1.9599359 4288085770
7.2493744 -5.6783409 -1.8683164 4293729569
3.6488457 -3.3868947 -1.9229028 4288085770
5.3116035 -4.4567523 -1.9640882 4288085770
7.0215263 -5.5683436 -1.8668668 4293729569
5.4156647 -4.5467224 -1.9714017 4288085770
3.6909943 -3.4368992 -1.9235008 4288085770
8.9207878 -6.819489 -1.855921 4293729569
6.7906914 -5.453362 -1.8623676 4293729569
5.5267181 -4.6396976 -1.9777884 4288085770
8.6128845 -6.6484861 -1.8545014 4293729569
3.7450981 -3.4938822 -1.9282336 4288085770
5.6527405 -4.7406559 -1.98734 4288085770
6.6057892 -5.3643427 -1.8653811 4293729569
8.3030205 -6.4725142 -1.8470405 4293729569
5.7837601 -4.8436198 -1.9959435 4288085770
3.7892303 -3.5438857 -1.9288485 4288085770
7.9602165 -6.2715864 -1.831181 4293729569
6.4109077 -5.2663383 -1.8652668 4293729569
5.8509064 -4.9036684 -1.9878001 4288085770
7.7532234 -6.1555433 -1.8378772 4293729569
3.8353615 -3.5938945 -1.9284799 4288085770
5.8462067 -4.9158235 -1.9588187 4288085770
7.5592194 -6.045496 -1.8457115 4293729569
6.2320061 -5.1753292 -1.8663206 4293729569
5.8325233 -4.9199891 -1.9277229 4288085770
7.3812065 -5.9424534 -1.8527144 4293729569
3.895443 -3.6518764 -1.9332678 4288085770
5.8338051 -4.9311438 -1.8987868 4293729569
7.1802406 -5.8224421 -1.8534412 4293729569
6.0631104 -5.0893254 -1.866483 4293729569
5.923912 -4.9991903 -1.8908753 4293729569
6.9872742 -5.7044358 -1.853245 4293729569
5.9870758 -5.048275 -1.8756446 4293729569
6.8242531 -5.6044025 -1.8583882 4293729569
6.0711899 -5.1093373 -1.8646485 4293729569
3.9555359 -3.7088737 -1.9350505 4288085770
6.6542625 -5.4963908 -1.8594335 4293729569
6.1533241 -5.1674156 -1.850621 4293729569
6.4852791 -5.3883886 -1.8584874 4293729569
6.2823639 -5.2544403 -1.8471291 4293729569
5.9570961 -5.0412512 -1.8803589 4293729569
4.0166206 -3.7648706 -1.936837 4288085770
5.8400917 -4.9831924 -1.8910937 4293729569
4.0767059 -3.8198729 -1.9376099 4288085770
5.7221069 -4.9221501 -1.8988054 4293729569
4.1407776 -3.875874 -1.9384215 4288085770
5.6839485 -4.9129992 -1.9274418 4288085770
4.2208214 -3.9418592 -1.942416 4288085770
5.6647644 -4.9148393 -1.9582913 4288085770
4.2978592 -4.004849 -1.9453704 4288085770
5.6285973 -4.9016991 -1.9849248 4288085770
4.3798904 -4.0688391 -1.9483719 4288085770
5.5405579 -4.8536391 -1.9959514 4288085770
4.4609261 -4.1308389 -1.9493549 4288085770
5.4036179 -4.7686529 -1.9923866 4288085770
4.5479546 -4.195838 -1.9504032 4288085770
5.2447319 -4.6677041 -1.9815593 4288085770
4.6459465 -4.2658215 -1.9545679 4288085770
5.0938339 -4.5697551 -1.9708133 4288085770
4.7409515 -4.3328204 -1.9556928 4288085770
4.9708862 -4.4887791 -1.9653854 4288085770
4.8449478 -4.4048133 -1.9579177 4288085770
9.7251587 8.0374775 -1.7207325 4288085770
9.4022713 7.8053617 -1.7153631 4288085770
9.0854073 7.573245 -1.7090344 4288085770
8.8674507 7.4091997 -1.7151358 4288085770
8.6205482 7.2221203 -1.7141221 4288085770
8.3596954 7.024024 -1.7090522 4288085770
8.1258316 6.8429394 -1.7051051 4288085770
7.9139671 6.6748643 -1.7022611 4288085770
7.715107 6.5147963 -1.7004768 4288085770
7.518261 6.3537259 -1.6977094 4288085770
7.3424072 6.206666 -1.6960349 4288085770
7.1815529 6.0696135 -1.6954265 4288085770
7.0327034 5.9375682 -1.6958815 4288085770
6.9058418 5.8215365 -1.698429 4288085770
6.7730141 5.699491 -1.697957 4288085770
6.6701431 5.5964761 -1.7036209 4288085770
6.5553246 5.4844418 -1.7042352 4288085770
10.172577 7.8765945 -1.722284 4288085770
6.4504967 5.3784122 -1.7058961 4288085770
9.8688545 7.6274691 -1.7131013 4288085770
6.3307076 5.263361 -1.7024875 4288085770
9.6630287 7.4414225 -1.7183586 4288085770
6.2329102 5.1603308 -1.7031848 4288085770
9.4812088 7.2723789 -1.7227188 4288085770
3.2883873 3.2225294 -1.730091 4288085770
3.2244148 3.1805024 -1.7278062 4288085770
3.3473969 3.259542 -1.7283597 4288085770
3.1544724 3.1334662 -1.7234985 4288085770
3.414402 3.300559 -1.7276682 4288085770
3.1084824 3.1004615 -1.7263035 4288085770
3.4864044 3.3445849 -1.7289999 4288085770
3.0694885 3.071465 -1.7311417 4288085770
6.1451073 5.0633059 -1.7049288 4288085770
3.5534477 3.3825946 -1.7263191 4288085770
3.0145454 3.0314407 -1.7289107 4288085770
9.2404671 7.0642815 -1.7168176 4288085770
3.6374626 3.4306278 -1.7287176 4288085770
2.9596329 2.9894114 -1.7256867 4288085770
3.7214928 3.4776568 -1.7301197 4288085770
2.9246635 2.960413 -1.7295519 4288085770
3.8005486 3.5196738 -1.7285056 4288085770
2.8877258 2.9284062 -1.7314142 4288085770
6.061306 4.9692826 -1.706689 4288085770
9.0357094 6.8792114 -1.7150786 4288085770
3.8796158 3.5606866 -1.725895 4288085770
2.8498077 2.8943963 -1.7322767 4288085770
3.983654 3.6157289 -1.7294039 4288085770
2.804924 2.85537 -1.7291096 4288085770
8.8369637 6.6981392 -1.7123661 4288085770
5.9775276 4.8742518 -1.7064528 4288085770
4.0886993 3.6697707 -1.7329227 4288085770
2.7760124 2.8253651 -1.7310191 4288085770
4.2306938 3.7448511 -1.7446173 4288085770
2.7401237 2.7913485 -1.7298952 4288085770
8.6662102 6.5340815 -1.7117829 4288085770
4.3148232 3.7818518 -1.7380542 4288085770
5.9017487 4.7842278 -1.7072531 4288085770
4.4948044 3.8929095 -1.7388797 4288085770
4.3988457 3.831871 -1.7364457 4288085770
4.625721 3.9749813 -1.748476 4288085770
4.3118668 3.774847 -1.7370583 4288085770
4.6937866 4.0149722 -1.7397949 4288085770
4.212944 3.7087979 -1.7316215 4288085770
4.7728539 4.060966 -1.7311668 4288085770
2.7152252 2.7623477 -1.7328279 4288085770
4.1300049 3.6517639 -1.729261 4288085770
4.8608971 4.1119728 -1.7255818 4288085770
4.4199333 3.830873 -1.7355903 4288085770
4.0530663 3.5977354 -1.7279305 4288085770
4.9599571 4.1669865 -1.7210568 4288085770
3.9821358 3.545712 -1.7276335 4288085770
5.0829887 4.2350211 -1.7206482 4288085770
2.687355 2.7303357 -1.732751 4288085770
8.4824905 6.3620071 -1.7071398 4288085770
4.5979004 3.923985 -1.7534642 4288085770
5.8439522 4.7032223 -1.7121429 4288085770
3.9221916 3.4996982 -1.7293894 4288085770
5.1910553 4.2930374 -1.7161734 4288085770
5.313118 4.3580618 -1.7127682 4288085770
3.8562775 3.4486723 -1.7281226 4288085770
2.6604958 2.6983242 -1.732681 4288085770
4.6930618 3.9619861 -1.7459713 4288085770
3.7973595 3.4016523 -1.7278887 4288085770
5.4342041 4.4190822 -1.7083702 4288085770
8.3307457 6.2109518 -1.7056392 4288085770
5.7672157 4.6111875 -1.7099432 4288085770
5.5752716 4.4921155 -1.7060648 4288085770
3.7364655 3.3516273 -1.726652 4288085770
2.6436157 2.6723256 -1.7356571 4288085770
4.8381462 4.0300393 -1.7497102 4288085770
3.6805763 3.3046036 -1.7254386 4288085770
5.7263374 4.5681581 -1.7058164 4288085770
2.6287422 2.6463308 -1.7396467 4288085770
4.9323463 4.0630298 -1.7392275 4288085770
8.2079735 6.0769219 -1.7092743 4288085770
5.8964005 4.654211 -1.7066605 4288085770
3.6396675 3.2645988 -1.7283015 4288085770
5.7224197 4.539185 -1.714889 4288085770
6.0774689 4.744267 -1.7075647 4288085770
3.5987701 3.2245903 -1.7301646 4288085770
5.0864449 4.1320829 -1.7420231 4288085770
2.6119003 2.6183257 -1.74063 4288085770
6.2665329 4.8383288 -1.7095085 4288085770
8.0782318 5.939878 -1.7088727 4288085770
3.5579071 3.1825747 -1.7300347 4288085770
5.6766396 4.4661837 -1.7198313 4288085770
5.1666985 4.1540475 -1.7254846 4288085770
2.5920753 2.5873156 -1.7406034 4288085770
6.426693 4.9093471 -1.7013376 4288085770
3.5180359 3.1415625 -1.7309079 4288085770
5.334816 4.2261076 -1.7293634 4288085770
7.9535027 5.8048339 -1.7084978 4288085770
6.6297836 5.0054064 -1.7013682 4288085770
2.5842209 2.5633254 -1.7456331 4288085770
3.4771805 3.0995431 -1.7297779 4288085770
5.6079178 4.3771501 -1.7176749 4288085770
6.8558769 5.1114807 -1.7035186 4288085770
5.4789772 4.2831378 -1.726133 4288085770
3.4433289 3.0595322 -1.7306879 4288085770
2.569397 2.5343199 -1.7466333 4288085770
7.8527603 5.684804 -1.7102319 4288085770
7.0899658 5.2205524 -1.7047122 4288085770
5.5741539 4.3101482 -1.7216769 4288085770
5.6131897 4.3301463 -1.7178698 4288085770
3.4114838 3.0205226 -1.7316082 4288085770
2.555584 2.5063114 -1.7466366 4288085770
7.3540459 5.343646 -1.7090583 4288085770
7.757019 5.5677772 -1.7119892 4288085770
3.3766632 2.9795008 -1.7295151 4288085770
5.799324 4.406209 -1.7208549 4288085770
5.5603447 4.2551732 -1.7317717 4288085770
7.6161537 5.4617267 -1.710408 4288085770
2.5517693 2.4813185 -1.7506968 4288085770
3.3538322 2.9434967 -1.7314851 4288085770
5.9585228 4.4632368 -1.7157247 4288085770
7.6622849 5.4517493 -1.7137496 4288085770
7.8782845 5.576798 -1.7087678 4288085770
2.5409775 2.453311 -1.7507201 4288085770
5.5495644 4.1991949 -1.7408898 4288085770
3.3330002 2.9084926 -1.7334651 4288085770
6.146698 4.5342875 -1.7147402 4288085770
8.1664085 5.7028847 -1.7092637 4288085770
7.5795479 5.3427253 -1.7155663 4288085770
2.5282173 2.4222941 -1.7487408 4288085770
3.3121872 2.8734851 -1.7344451 4288085770
8.4595528 5.8279657 -1.7077965 4288085770
6.3229103 4.5953197 -1.7097093 4288085770
5.4988594 4.1211662 -1.7388155 4288085770
3.295372 2.8394828 -1.7364484 4288085770
7.4828606 5.2246838 -1.71332 4288085770
2.526413 2.3982992 -1.7518106 4288085770
8.7946777 5.9720716 -1.7095445 4288085770
6.5310898 4.67238 -1.7098374 4288085770
5.5070496 4.0762086 -1.7520227 4288085770
3.2745819 2.8024678 -1.7354354 4288085770
9.1548004 6.1261854 -1.7114255 4288085770
2.5226479 2.3712959 -1.7528775 4288085770
6.7382851 4.7454329 -1.7079724 4288085770
7.4041595 5.1176538 -1.7131562 4288085770
9.5299263 6.2843027 -1.7133926 4288085770
3.2607956 2.7684622 -1.7364589 4288085770
5.4743385 4.0071959 -1.7530376 4288085770
6.9834442 4.8365149 -1.7112998 4288085770
2.5298462 2.3503127 -1.7589973 4288085770
7.3074799 5.0016079 -1.7099028 4288085770
9.9480324 6.4604468 -1.7185853 4288085770
3.2539864 2.7384682 -1.7405152 4288085770
5.4406281 3.9371829 -1.7540492 4288085770
7.2236404 4.9215822 -1.7106136 4288085770
2.5260887 2.3233061 -1.7590641 4288085770
10.392151 6.6465931 -1.7229172 4288085770
7.2507629 4.9075918 -1.7118415 4288085770
3.239212 2.7034554 -1.7395353 4288085770
7.4748306 5.009656 -1.7109907 4288085770
5.4059372 3.8681626 -1.7530507 4288085770
2.5263367 2.2973037 -1.7601541 4288085770
10.883251 6.8517628 -1.7294978 4288085770
3.23843 2.6744637 -1.7436285 4288085770
7.1950645 4.8135719 -1.7127867 4288085770
7.7679977 5.115756 -1.7155864 4288085770
11.413345 7.0719461 -1.7362872 4288085770
2.5265846 2.2713013 -1.7612442 4288085770
5.3912163 3.8081656 -1.7571548 4288085770
3.2356377 2.6454682 -1.7467082 4288085770
8.0461998 5.2088399 -1.7161257 4288085770
7.1533394 4.7285676 -1.7167944 4288085770
11.953476 7.2891216 -1.7401532 4288085770
2.5318451 2.2463031 -1.7633642 4288085770
3.2239037 2.6094518 -1.7447516 4288085770
5.3844872 3.7521749 -1.7622986 4288085770
8.3623772 5.3189449 -1.7198606 4288085770
12.442684 7.4732447 -1.7327904 4288085770
7.1266251 4.6495705 -1.7218816 4288085770
2.5410843 2.2243104 -1.7665005 4288085770
3.2231445 2.5794525 -1.746848 4288085770
8.6785736 5.4240451 -1.7216119 4288085770
13.204681 7.7915468 -1.753793 4288085770
5.3518257 3.6831479 -1.7593129 4288085770
7.0979118 4.5695701 -1.7259587 4288085770
3.2303619 2.5534658 -1.7519839 4288085770
2.5483551 2.1993127 -1.7686336 4288085770
8.9977989 5.5251336 -1.7203964 4288085770
5.3231544 3.6161256 -1.7573467 4288085770
7.0821877 4.4975796 -1.732095 4288085770
3.226635 2.5204563 -1.7510703 4288085770
2.5576248 2.1753159 -1.7707766 4288085770
9.3510017 5.6402454 -1.7223597 4288085770
5.2975006 3.5491037 -1.7554007 4288085770
3.2318916 2.4914579 -1.7532032 4288085770
7.0644875 4.4225831 -1.7362281 4288085770
2.5589256 2.1473026 -1.7688798 4288085770
9.7122231 5.7523522 -1.7223856 4288085770
5.2977943 3.4971123 -1.7595767 4288085770
3.2341537 2.4614558 -1.7543191 4288085770
10.099442 5.8734713 -1.723554 4288085770
2.5712013 2.1243062 -1.7710392 4288085770
7.0228195 4.3365607 -1.7352382 4288085770
3.2404251 2.4324555 -1.7554584 4288085770
5.2551842 3.4220648 -1.7515439 4288085770
10.517651 6.0036049 -1.7258979 4288085770
2.5864716 2.1023145 -1.7742151 4288085770
6.9841652 4.2525353 -1.7332613 4288085770
3.2457085 2.402451 -1.7555941 4288085770
10.951878 6.1337366 -1.7263473 4288085770
5.2115746 3.3480172 -1.7435012 4288085770
2.598774 2.0783148 -1.7753778 4288085770
6.9774742 4.1825414 -1.7374498 4288085770
3.2589836 2.3754587 -1.7587731 4288085770
11.456051 6.2929144 -1.7341644 4288085770
5.2019196 3.2900043 -1.7426304 4288085770
2.6130638 2.0543189 -1.7775537 4288085770
6.9528198 4.105525 -1.7365421 4288085770
3.2722626 2.3484602 -1.7599516 4288085770
11.960247 6.4440832 -1.7390076 4288085770
15.3237 7.9882345 -1.7712009 4288085770
5.2012444 3.2370005 -1.7438023 4288085770
2.6253738 2.0293159 -1.7777194 4288085770
6.9551201 4.0415368 -1.7417697 4288085770
12.525425 6.6162834 -1.747185 4288085770
3.2885437 2.3214684 -1.7631502 4288085770
14.907146 7.6700802 -1.7644901 4288085770
5.1935921 3.1809888 -1.7429376 4288085770
2.6506577 2.0093331 -1.7829548 4288085770
6.9464569 3.9715281 -1.7419441 4288085770
13.11261 6.7914834 -1.7534975 4288085770
3.3028336 2.2944698 -1.7643354 4288085770
14.480614 7.35291 -1.7547092 4288085770
2.6649857 1.9843272 -1.7821335 4288085770
5.1949387 3.1279821 -1.7431223 4288085770
13.810738 7.0047464 -1.7684194 4288085770
6.9507751 3.9075341 -1.7451847 4288085770
3.3161469 2.2644677 -1.7645239 4288085770
14.266926 7.1358747 -1.7650083 4288085770
2.6783142 1.9583205 -1.7813089 4288085770
5.2052727 3.0789828 -1.7443532 4288085770
14.430973 7.1749411 -1.769966 4288085770
6.9640961 3.8475456 -1.7494711 4288085770
3.3384323 2.2394781 -1.767755 4288085770
2.09161 1.6831037 -1.7723302 4288085770
2.1536827 1.7021288 -1.7746791 4288085770
13.940361 6.8727484 -1.7587106 4288085770
2.6956444 1.9333187 -1.7815075 4288085770
2.2217331 1.724162 -1.7790577 4288085770
15.030258 7.3271065 -1.7644323 4288085770
5.2036324 3.024972 -1.7435211 4288085770
2.1518669 1.6871139 -1.7717173 4288085770
3.3717041 2.218502 -1.7740458 4288085770
2.0999069 1.6640831 -1.7674488 4288085770
2.1998672 1.7071294 -1.7719693 4288085770
2.0509338 1.6420602 -1.7651969 4288085770
6.9684334 3.7825451 -1.7507142 4288085770
2.2708626 1.7371558 -1.7733405 4288085770
2.252861 1.7291533 -1.7742478 4288085770
2.0767326 1.6521791 -1.7983356 4288085770
2.3008881 1.7481617 -1.7725034 4288085770
2.3688698 1.7752038 -1.7788645 4288085770
2.4179115 1.7932087 -1.7761302 4288085770
2.3499146 1.7622002 -1.7797822 4288085770
2.4779396 1.8152307 -1.7774554 4288085770
13.657772 6.6336455 -1.7556248 4288085770
2.5369835 1.8362464 -1.7767773 4288085770
2.7239304 1.9143339 -1.7857586 4288085770
15.830418 7.5543919 -1.7759812 4288085770
2.4220009 1.7832273 -1.7821908 4288085770
2.5960388 1.857258 -1.7750994 4288085770
5.2139778 2.9759684 -1.7437515 4288085770
2.6561089 1.877266 -1.7724315 4288085770
3.3920097 2.1915054 -1.7752702 4288085770
2.4841194 1.7992383 -1.7805499 4288085770
6.9827614 3.7225537 -1.7540065 4288085770
2.7251625 1.9002873 -1.7728131 4288085770
2.8012047 1.9263176 -1.7752312 4288085770
2.5612183 1.8212646 -1.7819881 4288085770
2.8633041 1.9453193 -1.7705799 4288085770
13.386192 6.4015431 -1.7515882 4288085770
16.757519 7.8237438 -1.7952311 4288085770
2.7482529 1.8913409 -1.7879965 4288085770
2.9443626 1.9713479 -1.7720314 4288085770
2.6333466 1.8392822 -1.781407 4288085770
5.2203331 2.9249606 -1.7429618 4288085770
3.4193192 2.1665139 -1.7775341 4288085770
3.0244522 1.9953691 -1.7714827 4288085770
7.0000954 3.6625609 -1.7563188 4288085770
2.7174416 1.862317 -1.7848885 4288085770
3.1075401 2.0203905 -1.7709509 4288085770
17.655678 8.0680599 -1.8063707 4288085770
13.115635 6.1744308 -1.7445418 4288085770
2.7945709 1.8813354 -1.7843369 4288085770
3.203598 2.0504308 -1.7744884 4288085770
2.7745743 1.8693484 -1.7902443 4288085770
3.448616 2.1425266 -1.7808077 4288085770
3.2847214 2.0724411 -1.7709532 4288085770
5.2396851 2.8779631 -1.7442447 4288085770
2.8747139 1.9003528 -1.7828053 4288085770
7.0264359 3.6055698 -1.7586801 4288085770
3.3788109 2.0994706 -1.7714874 4288085770
2.9498825 1.9163574 -1.7782505 4288085770
12.924 5.9853711 -1.7458923 4288085770
3.4709244 2.1244917 -1.770015 4288085770
2.811882 1.8503693 -1.7955546 4288085770
3.4729385 2.1155276 -1.7810583 4288085770
3.0380135 1.9373831 -1.7787652 4288085770
3.5610657 2.1475019 -1.7655361 4288085770
5.2700081 2.8369799 -1.7485803 4288085770
7.062767 3.5525894 -1.7630941 4288085770
3.6741676 2.1785402 -1.7671828 4288085770
3.124176 1.9563979 -1.776273 4288085770
12.739391 5.8003073 -1.7452756 4288085770
3.7653351 2.199544 -1.760717 4288085770
2.8372116 1.8273736 -1.7967987 4288085770
3.2223129 1.9784304 -1.7778506 4288085770
3.5052528 2.0905404 -1.7843548 4288085770
5.2973518 2.7929888 -1.7509056 4288085770
3.8994141 2.2366028 -1.7664829 4288085770
7.0721283 3.4885836 -1.7623655 4288085770
3.3224678 2.0004597 -1.7784413 4288085770
3.9935951 2.2566037 -1.7590405 4288085770
12.579781 5.6262546 -1.7457877 4288085770
2.8625412 1.8043746 -1.7970426 4288085770
3.4306107 2.0244951 -1.7800779 4288085770
3.5295944 2.0625343 -1.782608 4288085770
4.1167412 2.2866349 -1.7577565 4288085770
5.324707 2.7489944 -1.7522308 4288085770
7.0755234 3.4215622 -1.7576066 4288085770
3.5317879 2.0445185 -1.778682 4288085770
4.2458687 2.3176746 -1.7585089 4288085770
12.439148 5.4642115 -1.7473859 4288085770
2.8928833 1.7813796 -1.7983193 4288085770
3.6259842 2.0615258 -1.7732493 4288085770
3.5738907 2.0415583 -1.7879705 4288085770
4.3780212 2.3487086 -1.7572813 4288085770
5.3580513 2.7070055 -1.7545887 4288085770
7.1018867 3.3635645 -1.75797 4288085770
4.5361328 2.3877716 -1.7621993 4288085770
3.7431488 2.0845609 -1.7739487 4288085770
12.312523 5.3081727 -1.7490562 4288085770
4.6772919 2.419805 -1.7600275 4288085770
3.6042175 2.0155616 -1.7882565 4288085770
2.9192314 1.757377 -1.7975727 4288085770
3.8693085 2.1096087 -1.7777011 4288085770
5.3983841 2.6670251 -1.7589859 4288085770
4.8234634 2.4508405 -1.7578923 4288085770
7.1312561 3.3065653 -1.7573494 4288085770
3.9875069 2.1306334 -1.7754139 4288085770
12.218884 5.166151 -1.7528985 4288085770
4.9826279 2.4858832 -1.7568296 4288085770
3.6355553 1.9885641 -1.7885523 4288085770
2.9426003 1.7313665 -1.7948129 4288085770
4.1146812 2.1546688 -1.7751759 4288085770
5.1428032 2.5189233 -1.7547801 4288085770
5.4287491 2.6230283 -1.7593299 4288085770
7.175602 3.25458 -1.7598113 4288085770
4.2388878 2.174696 -1.7729313 4288085770
12.071301 5.0060849 -1.7484424 4288085770
3.6708908 1.9625691 -1.788871 4288085770
5.3049889 2.5509605 -1.7517469 4288085770
2.9729385 1.7083691 -1.7950891 4288085770
4.3860397 2.2027516 -1.7768122 4288085770
5.4931564 2.5910163 -1.7518592 4288085770
5.483078 2.5870562 -1.7648058 4288085770
7.2169762 3.2005844 -1.7592595 4288085770
11.973682 4.8660517 -1.7492508 4288085770
3.7162018 1.9405869 -1.7922424 4288085770
4.5202522 2.2237825 -1.7746301 4288085770
3.0112724 1.6873802 -1.7974116 4288085770
5.6743507 2.6250634 -1.7499447 4288085770
4.6794319 2.2518373 -1.7775899 4288085770
5.5404015 2.551085 -1.7703013 4288085770
5.8645515 2.6611099 -1.7470831 4288085770
7.2623329 3.1485939 -1.7597271 4288085770
3.7605286 1.9175977 -1.7936103 4288085770
11.877079 4.7280121 -1.7480588 4288085770
3.0416298 1.663376 -1.7956905 4288085770
4.8286438 2.2738762 -1.7765033 4288085770
6.0857086 2.7061839 -1.7493963 4288085770
5.5747795 2.5070868 -1.7696707 4288085770
7.3067055 3.0945992 -1.7591943 4288085770
6.2909279 2.7422318 -1.7456334 4288085770
4.9858513 2.2979183 -1.775463 4288085770
3.809845 1.8946167 -1.797011 4288085770
11.808449 4.6029887 -1.749009 4288085770
3.0749779 1.6403757 -1.794986 4288085770
6.5081253 2.7812877 -1.7429396 4288085770
5.1450806 2.3199573 -1.773442 4288085770
5.6241302 2.4680996 -1.7711227 4288085770
7.3710556 3.0476184 -1.7607702 4288085770
3.8631706 1.8726369 -1.8004345 4288085770
6.7463341 2.8233538 -1.7413745 4288085770
11.76482 4.4859781 -1.7510973 4288085770
3.1023521 1.614364 -1.7912517 4288085770
5.3103065 2.3419981 -1.7714605 4288085770
7.028492 2.8774581 -1.7470601 4288085770
5.6854668 2.4321265 -1.7756433 4288085770
5.4855232 2.366046 -1.7705382 4288085770
7.4354134 2.9996376 -1.7623491 4288085770
3.9045105 1.8466405 -1.7997917 4288085770
11.723183 4.3709674 -1.7531921 4288085770
3.1417046 1.5923659 -1.7905831 4288085770
7.290699 2.922533 -1.745643 4288085770
5.6607666 2.3870869 -1.7676256 4288085770
5.7428169 2.394145 -1.778144 4288085770
7.5127602 2.9556608 -1.7640002 4288085770
3.968811 1.8276714 -1.8052775 4288085770
7.591877 2.9766374 -1.7494537 4288085770
11.696548 4.2609644 -1.7563691 4288085770
3.1750679 1.5673622 -1.7888845 4288085770
5.8460007 2.4091349 -1.7657754 4288085770
7.8930855 3.0267282 -1.7492768 4288085770
6.0452461 2.433188 -1.764011 4288085770
5.8041649 2.3571663 -1.7806674 4288085770
4.0171585 1.8026766 -1.8046771 4288085770
7.5791321 2.9066734 -1.7635945 4288085770
11.668922 4.1519551 -1.7575357 4288085770
3.221405 1.5463737 -1.7902583 4288085770
8.1903191 3.0718083 -1.7460896 4288085770
6.2554741 2.4582505 -1.7643154 4288085770
4.0695 1.7776872 -1.8051029 4288085770
5.8495445 2.3151646 -1.7781013 4288085770
8.5305405 3.1259127 -1.7461565 4288085770
7.6704712 2.8647094 -1.7673306 4288085770
3.2647552 1.5243772 -1.7896155 4288085770
11.673279 4.0529623 -1.7608804 4288085770
6.4697113 2.4823117 -1.7636491 4288085770
8.893734 3.1850319 -1.7483581 4288085770
4.1328125 1.7567078 -1.8075879 4288085770
7.7728043 2.8267479 -1.7711257 4288085770
5.9288673 2.2822008 -1.7837297 4288085770
6.688961 2.5043712 -1.7620219 4288085770
3.3160934 1.5043901 -1.7910185 4288085770
11.686634 3.9549761 -1.7652805 4288085770
9.2879333 3.2471647 -1.7517542 4288085770
6.9222145 2.5284357 -1.7604803 4288085770
4.184166 1.7307111 -1.8060098 4288085770
9.7001305 3.311305 -1.7552615 4288085770
7.8561745 2.7797666 -1.7708242 4288085770
6.0102005 2.2482352 -1.7883739 4288085770
3.3634377 1.4823984 -1.7914015 4288085770
11.716988 3.8629956 -1.7697726 4288085770
7.1794395 2.5565219 -1.7630835 4288085770
10.127354 3.3734398 -1.755874 4288085770
4.2524796 1.7097343 -1.8085272 4288085770
7.9675179 2.7408056 -1.773681 4288085770
6.1224937 2.2222996 -1.7991961 4288085770
3.4097939 1.4593998 -1.7897809 4288085770
7.4366913 2.5795984 -1.7627025 4288085770
11.765335 3.7750249 -1.7753699 4288085770
10.602562 3.4426003 -1.7597793 4288085770
4.3198166 1.6867532 -1.8100442 4288085770
7.7089386 2.6056828 -1.76341 4288085770
8.0728722 2.6988358 -1.7745075 4288085770
6.2068367 2.1883283 -1.8018596 4288085770
