# .PCD v0.7 - Point Cloud Data file format
VERSION 0.7
FIELDS x y z rgb
SIZE 4 4 4 4
TYPE F F F U
COUNT 1 1 1 1
WIDTH 1126
HEIGHT 1
VIEWPOINT 0 0 0 1 0 0 0
POINTS 1126
DATA ascii
4.5237122 1.1324425 -1.7836081 4288085770
7.3757935 1.4684057 -1.7822175 4288085770
4.2928162 1.1504412 -1.7829802 4288085770
7.0128784 1.4844036 -1.784798 4288085770
4.1229553 1.1734352 -1.7922578 4288085770
6.6560059 1.499404 -1.7843689 4288085770
3.9240417 1.1934309 -1.7935799 4288085770
6.2420654 1.5034103 -1.7700255 4288085770
3.7281494 1.2104301 -1.7928966 4288085770
5.8441162 1.5064173 -1.7536569 4288085770
3.5562439 1.2304268 -1.7961761 4288085770
5.524231 1.5164185 -1.7471671 4288085770
3.3913879 1.2494211 -1.7974443 4288085770
5.3003235 1.5364161 -1.752529 4288085770
3.234436 1.2694187 -1.7987002 4288085770
5.0674438 1.5544119 -1.7549049 4288085770
3.0585327 1.2844181 -1.7939844 4288085770
4.8175354 1.5684137 -1.752306 4288085770
2.897644 1.3004179 -1.7902452 4288085770
4.6246643 1.5874071 -1.7556186 4288085770
2.7697754 1.3204126 -1.7924553 4288085770
4.4527283 1.6094036 -1.7618992 4288085770
2.6368408 1.3404093 -1.7926733 4288085770
4.3078613 1.635397 -1.7721386 4288085770
2.4989319 1.3574066 -1.7898984 4288085770
4.2029724 1.6663866 -1.7883165 4288085770
2.3960266 1.3784027 -1.7940693 4288085770
4.0501099 1.6893806 -1.7935677 4288085770
2.2741394 1.3964005 -1.7922692 4288085770
3.8811951 1.7073803 -1.7928423 4288085770
2.1672668 1.4163971 -1.7924464 4288085770
3.7573242 1.7323723 -1.7990479 4288085770
2.0493774 1.432395 -1.7886392 4288085770
3.5914001 1.7483721 -1.7953172 4288085770
1.9624634 1.4543905 -1.7917854 4288085770
3.4845276 1.773366 -1.8024961 4288085770
1.8895569 1.478384 -1.7979101 4288085770
3.3496094 1.7933626 -1.8017176 4288085770
1.7916565 1.4973822 -1.7950726 4288085770
3.2237244 1.8143597 -1.8019253 4288085770
1.7097473 1.5183783 -1.7962105 4288085770
3.093811 1.8323584 -1.8001382 4288085770
1.6038513 1.5333767 -1.789384 4288085770
2.9899292 1.8563528 -1.8013122 4288085770
1.5149536 1.5513754 -1.7865319 4288085770
2.8610229 1.8733521 -1.7975233 4288085770
1.4420166 1.573369 -1.7866559 4288085770
2.7441406 1.8913488 -1.7937156 4288085770
1.3841248 1.5973654 -1.7907572 4288085770
2.6452332 1.9123487 -1.7918807 4288085770
1.3132629 1.617362 -1.7898774 4288085770
2.5422974 1.9323444 -1.7890515 4288085770
1.2523499 1.6403551 -1.7909828 4288085770
2.4554138 1.9543409 -1.789198 4288085770
1.188446 1.6613541 -1.7900925 4288085770
2.3845215 1.9813356 -1.7923212 4288085770
1.1465454 1.6883478 -1.7951695 4288085770
2.2936096 2.0013332 -1.788473 4288085770
1.0736694 1.7053452 -1.7892919 4288085770
2.2086792 2.0223312 -1.7856159 4288085770
1.0287476 1.7313395 -1.7923733 4288085770
2.1418152 2.0483265 -1.7857325 4288085770
2.072876 2.0713243 -1.7848508 4288085770
2.0130005 2.09832 -1.7859565 4288085770
1.9520874 2.1233158 -1.7840631 4288085770
1.8832092 2.1463127 -1.7811816 4288085770
1.8233032 2.1723108 -1.7782871 4288085770
1.7754211 2.200305 -1.7783744 4288085770
1.7354736 2.2313013 -1.78045 4288085770
1.6856079 2.2572975 -1.7785397 4288085770
1.6456909 2.2872934 -1.777615 4288085770
1.6088257 2.3172894 -1.7776856 4288085770
1.5598755 2.3432884 -1.7727737 4288085770
1.5240173 2.3732843 -1.770843 4288085770
1.5031128 2.409277 -1.7738906 4288085770
1.4642029 2.4362764 -1.7689632 4288085770
1.4532776 2.4762697 -1.7729967 4288085770
1.4334106 2.5112638 -1.7730426 4288085770
1.4075012 2.5432625 -1.7700967 4288085770
1.4046021 2.5852556 -1.7731183 4288085770
1.3696899 2.6132555 -1.7661852 4288085770
1.3778076 2.6602478 -1.7711915 4288085770
1.3669128 2.6972427 -1.7692239 4288085770
1.3659973 2.7392387 -1.7702423 4288085770
1.3601074 2.7792349 -1.7682681 4288085770
1.348175 2.8152313 -1.7643017 4288085770
1.353302 2.8602276 -1.7643121 4288085770
1.365387 2.9072218 -1.7653121 4288085770
1.3735352 2.9532175 -1.7643182 4288085770
1.3945923 3.0052109 -1.7663059 4288085770
1.4136963 3.0562077 -1.7662967 4288085770
1.448822 3.1152 -1.7712651 4288085770
1.4959106 3.1811914 -1.7772173 4288085770
1.5340271 3.2421846 -1.7801819 4288085770
1.5681152 3.3011799 -1.7811521 4288085770
1.5952148 3.3561749 -1.7791318 4288085770
1.6313171 3.4161711 -1.7780992 4288085770
1.6684265 3.4761677 -1.7760651 4288085770
1.72052 3.5441613 -1.7770101 4288085770
1.7756042 3.6141543 -1.7789515 4288085770
1.837738 3.688149 -1.7798834 4288085770
1.9028625 3.7631426 -1.7818109 4288085770
1.973938 3.8431373 -1.7827311 4288085770
2.0610657 3.9311304 -1.7866288 4288085770
2.1541748 4.0231214 -1.791519 4288085770
2.229248 4.1041188 -1.7884331 4288085770
1.0292969 3.4741225 -1.7990825 4288085770
2.3283997 4.1991115 -1.791315 4288085770
1.0654297 3.5231223 -1.7910454 4288085770
2.4144592 4.2861071 -1.789214 4288085770
1.1274719 3.5891175 -1.7879738 4288085770
2.5375977 4.3950987 -1.7950634 4288085770
1.2426147 3.6881051 -1.8028319 4288085770
2.6546326 4.5000916 -1.7959206 4288085770
1.2867126 3.7411046 -1.7917836 4288085770
2.8058167 4.6270828 -1.804733 4288085770
1.3798218 3.8240981 -1.7946697 4288085770
2.9458618 4.7470746 -1.8075598 4288085770
1.4399109 3.8850965 -1.7865996 4288085770
3.0940247 4.871068 -1.8103758 4288085770
1.5520325 3.9800882 -1.7924606 4288085770
3.263092 5.00806 -1.8151636 4288085770
1.6420898 4.0600839 -1.7893503 4288085770
3.4342346 5.1460519 -1.8189486 4288085770
1.7402039 4.1430783 -1.7872283 4288085770
3.6043091 5.2830458 -1.8177348 4288085770
1.8743286 4.2500701 -1.7940594 4288085770
3.7914124 5.429038 -1.8194976 4288085770
2.0114441 4.3580623 -1.7988861 4288085770
3.9885559 5.5810318 -1.8202472 4288085770
2.1465454 4.4630551 -1.8017144 4288085770
4.1696167 5.7220273 -1.8140173 4288085770
2.2786255 4.5650487 -1.8005463 4288085770
4.4047241 5.8970203 -1.8177159 4288085770
2.4517822 4.6940398 -1.8083245 4288085770
4.6598206 6.0840111 -1.8203875 4288085770
2.6018677 4.8050332 -1.8081312 4288085770
4.914917 6.2690048 -1.8190579 4288085770
2.7799377 4.9340248 -1.8119011 4288085770
5.2220154 6.4869947 -1.8246597 4288085770
2.9760742 5.0730171 -1.8176466 4288085770
5.5441589 6.7139869 -1.8292412 4288085770
3.1721497 5.2110095 -1.8203914 4288085770
5.8692627 6.9409776 -1.8298179 4288085770
3.3843079 5.3570013 -1.824114 4288085770
6.227356 7.1869698 -1.8303497 4288085770
3.5873718 5.4949942 -1.8228477 4288085770
6.5594177 7.4129663 -1.8219146 4288085770
3.7984924 5.6359897 -1.8205698 4288085770
6.9275208 7.6609607 -1.8164312 4288085770
4.0395813 5.794982 -1.8222514 4288085770
7.3456421 7.9389544 -1.8128809 4288085770
4.2947083 5.9609752 -1.8229138 4288085770
4.5808105 6.1449656 -1.826534 4288085770
4.8848877 6.3379574 -1.8301293 4288085770
5.2070312 6.5399485 -1.8326995 4288085770
5.5501099 6.7519407 -1.8352405 4288085770
5.9241943 6.9809303 -1.8397388 4288085770
6.2973328 7.2049232 -1.8382368 4288085770
6.6364441 7.4019213 -1.8277773 4288085770
7.0285339 7.6279154 -1.8202454 4288085770
7.4855957 7.8919077 -1.8196254 4288085770
7.9636841 8.1659002 -1.8179761 4288085770
15.797668 -1.2616081 -1.7815903 4288085770
14.869751 -1.2986107 -1.7850866 4288085770
14.044891 -1.332613 -1.7904165 4288085770
13.267975 -1.361618 -1.7956703 4288085770
12.565063 -1.3886213 -1.8018042 4288085770
11.882202 -1.409626 -1.8059083 4288085770
11.228302 -1.4256277 -1.8079677 4288085770
10.652405 -1.4426336 -1.813899 4288085770
10.063507 -1.4506359 -1.813856 4288085770
9.5826111 -1.4656429 -1.8226331 4288085770
9.0837097 -1.4726477 -1.8254436 4288085770
15.289734 -2.2856636 -1.8029006 4288085770
8.6188354 -1.4776497 -1.8281997 4288085770
14.269867 -2.2466631 -1.8065848 4288085770
8.1689148 -1.4806547 -1.830932 4288085770
13.359955 -2.2106676 -1.8110878 4288085770
7.7520447 -1.4826584 -1.8346112 4288085770
12.547058 -2.1796732 -1.8174299 4288085770
7.3661499 -1.484663 -1.8382397 4288085770
11.788177 -2.1476765 -1.8236843 4288085770
6.9862366 -1.4836693 -1.8408598 4288085770
11.057251 -2.1106787 -1.8248954 4288085770
6.6283264 -1.4816723 -1.8434442 4288085770
10.379364 -2.0756798 -1.8250191 4288085770
6.2864685 -1.4766779 -1.8450043 4288085770
9.7544556 -2.0406837 -1.8260561 4288085770
5.9425659 -1.4696779 -1.8435687 4288085770
9.1895447 -2.0106859 -1.8289927 4288085770
5.6376343 -1.4646845 -1.846068 4288085770
8.7006836 -1.9866924 -1.8378022 4288085770
5.350769 -1.4586887 -1.8485388 4288085770
8.20578 -1.9576979 -1.840624 4288085770
5.0738831 -1.4516945 -1.8509935 4288085770
7.7398987 -1.9267025 -1.8423995 4288085770
4.8129578 -1.4457006 -1.8544217 4288085770
7.3240051 -1.9017076 -1.8480901 4288085770
4.5450745 -1.4337034 -1.8538644 4288085770
6.9661255 -1.8817158 -1.8576834 4288085770
4.3031616 -1.4257069 -1.8552629 4288085770
6.5542297 -1.8497171 -1.8553716 4288085770
4.0752563 -1.4167128 -1.8586386 4288085770
6.2033386 -1.8237238 -1.8589565 4288085770
3.8363647 -1.4037142 -1.8570344 4288085770
5.8534241 -1.7957258 -1.8605411 4288085770
3.6204834 -1.3917208 -1.8573921 4288085770
5.5335083 -1.7697334 -1.8630755 4288085770
3.4065552 -1.3787231 -1.8567469 4288085770
5.2226257 -1.7427359 -1.8645959 4288085770
3.2006836 -1.3657265 -1.856089 4288085770
4.9177246 -1.7137403 -1.8631074 4288085770
2.9987793 -1.3507309 -1.8554254 4288085770
4.6338196 -1.6857433 -1.8645841 4288085770
2.8178406 -1.3387365 -1.8567258 4288085770
4.3619385 -1.6587477 -1.8630408 4288085770
2.6359558 -1.3247385 -1.8550291 4288085770
4.0990295 -1.6297503 -1.8624837 4288085770
2.4590759 -1.3087416 -1.8543254 4288085770
3.8581543 -1.603754 -1.8618894 4288085770
2.2931519 -1.2947483 -1.8536023 4288085770
3.6132202 -1.5747576 -1.8583028 4288085770
2.1412659 -1.2807512 -1.8548566 4288085770
3.4053345 -1.5517626 -1.8606532 4288085770
1.991333 -1.2677565 -1.8561069 4288085770
3.1834412 -1.5237646 -1.8580287 4288085770
1.8534851 -1.2547626 -1.8583378 4288085770
2.9795227 -1.4977674 -1.8563738 4288085770
1.6955872 -1.2357635 -1.8536044 4288085770
2.7976379 -1.4757738 -1.8586811 4288085770
1.5567017 -1.2197666 -1.8528385 4288085770
2.6117249 -1.4497766 -1.8579967 4288085770
1.4337769 -1.2067738 -1.855045 4288085770
2.4428406 -1.4277811 -1.8592829 4288085770
1.3078918 -1.1917772 -1.8552573 4288085770
2.2649231 -1.4007826 -1.8555861 4288085770
1.190979 -1.1777811 -1.8564544 4288085770
2.1060181 -1.3777876 -1.8558562 4288085770
1.0690613 -1.1607857 -1.855661 4288085770
1.9561157 -1.3547926 -1.8571118 4288085770
1.8152161 -1.3327971 -1.857352 4288085770
1.6693115 -1.3087997 -1.8566015 4288085770
1.5214233 -1.2828016 -1.8518553 4288085770
1.3875122 -1.2598066 -1.8510848 4288085770
1.2626038 -1.2378101 -1.850299 4288085770
1.1477051 -1.216815 -1.8514965 4288085770
1.0358276 -1.1958218 -1.8526888 4288085770
1.0205994 0.7096405 -1.8025523 4288085770
1.1377258 0.72263432 -1.8023648 4288085770
1.2608032 0.73663139 -1.8021679 4288085770
1.3869019 0.74962521 -1.8019655 4288085770
1.5159912 0.76262188 -1.8007581 4288085770
1.6481018 0.77561855 -1.7975457 4288085770
1.8102112 0.79061031 -1.8032848 4288085770
1.9592896 0.80360603 -1.8020443 4288085770
1.0773315 0.7456007 -1.8084714 4288085770
2.1164246 0.81760406 -1.8007911 4288085770
1.1954651 0.75459766 -1.8062801 4288085770
2.2615051 0.82860184 -1.793556 4288085770
1.325592 0.76459217 -1.8070694 4288085770
2.4385986 0.84259701 -1.7932696 4288085770
1.456665 0.77358818 -1.8048567 4288085770
2.6246643 0.85559273 -1.7929677 4288085770
1.5927734 0.78258514 -1.8036354 4288085770
2.8208008 0.86958885 -1.7926499 4288085770
1.7238464 0.7905817 -1.7994219 4288085770
3.0259094 0.88358593 -1.7923131 4288085770
1.8789673 0.79957771 -1.8001659 4288085770
3.2550049 0.89857864 -1.7949424 4288085770
2.0500488 0.80957222 -1.8028885 4288085770
3.4810791 0.9115715 -1.7935758 4288085770
2.210144 0.81756592 -1.8006281 4288085770
3.7161865 0.92457104 -1.7901942 4288085770
2.3792419 0.82556343 -1.7983531 4288085770
3.998291 0.94056416 -1.7937367 4288085770
2.5673523 0.83355904 -1.7990466 4288085770
4.2484131 0.95256233 -1.7873299 4288085770
2.7634583 0.84155369 -1.7977268 4288085770
4.5285034 0.96555996 -1.783874 4288085770
2.9615173 0.8485508 -1.7964031 4288085770
4.8295593 0.97855663 -1.7813835 4288085770
3.1746521 0.855546 -1.796055 4288085770
5.1416626 0.99155426 -1.776875 4288085770
3.4147644 0.8635397 -1.7986627 4288085770
5.4677429 1.0035524 -1.7693425 4288085770
3.6548462 0.8705349 -1.7972698 4288085770
5.8748779 1.0195465 -1.772679 4288085770
3.9139709 0.87753105 -1.7988455 4288085770
6.2889709 1.034543 -1.7720028 4288085770
4.1560364 0.8805294 -1.7914474 4288085770
6.782074 1.052536 -1.7771977 4288085770
4.427124 0.88552761 -1.7880024 4288085770
7.2441711 1.066534 -1.7714423 4288085770
4.7022095 0.8875246 -1.7815492 4288085770
7.8112793 1.084528 -1.7765151 4288085770
5.0453491 0.8935194 -1.7849859 4288085770
8.4163513 1.1025219 -1.7775253 4288085770
5.3634338 0.8955183 -1.7784617 4288085770
9.0414734 1.1185198 -1.7755016 4288085770
5.72052 0.8975153 -1.7758732 4288085770
9.7975769 1.1385126 -1.7802635 4288085770
6.0996094 0.89951324 -1.7732482 4288085770
10.58371 1.155509 -1.7799745 4288085770
6.5617371 0.90350533 -1.7784873 4288085770
11.372772 1.1695099 -1.7706791 4288085770
7.0008545 0.90250111 -1.7757621 4288085770
12.340881 1.1875067 -1.77009 4288085770
7.4799194 0.90149784 -1.7719704 4288085770
13.342957 1.2025061 -1.7604433 4288085770
8.0200195 0.90049648 -1.7720783 4288085770
14.463043 1.2155113 -1.748601 4288085770
8.6161194 0.898489 -1.7730931 4288085770
15.751129 1.231513 -1.7384827 4288085770
9.2712402 0.89448643 -1.7730095 4288085770
9.9563293 0.88748264 -1.7698749 4288085770
10.679413 0.87748241 -1.7636758 4288085770
11.565521 0.86747742 -1.7652078 4288085770
12.486603 0.85347652 -1.7616799 4288085770
13.4487 0.83347797 -1.7500813 4288085770
14.561798 0.81048203 -1.7412318 4288085770
15.9729 0.78647518 -1.7438896 4288085770
2.6940918 -4.4473143 -0.20986259 4293729569
2.4822388 -4.2853403 -0.2433019 4293729569
2.3623962 -4.1853647 -0.27655473 4293729569
2.3975525 -4.1893892 -0.31349364 4293729569
2.4447021 -4.1994162 -0.35240924 4293729569
2.4998779 -4.2134428 -0.39030954 4293729569
2.546051 -4.2184677 -0.4292298 4293729569
3.54953 -4.8372631 -0.073225997 4293729569
2.5932007 -4.2224941 -0.4671489 4293729569
3.5186768 -4.7822876 -0.11330699 4293729569
2.6463928 -4.2285194 -0.50605726 4293729569
3.5028687 -4.7353153 -0.15335867 4293729569
2.7035522 -4.2355471 -0.54495811 4293729569
3.5230408 -4.7113419 -0.19233829 4293729569
2.751709 -4.2355719 -0.58287793 4293729569
3.5522156 -4.6903687 -0.23130146 4293729569
2.8118591 -4.2395992 -0.62177581 4293729569
2.8503113 -4.2033854 -0.24873257 4293729569
2.86203 -4.2366238 -0.65869409 4293729569
9.3273621 -7.8131847 -1.6280122 4293729569
8.977478 -7.5191936 -1.6367544 4293729569
8.6645508 -7.2502079 -1.6464217 4293729569
8.4096985 -7.016222 -1.6599737 4293729569
8.1808167 -6.7992344 -1.6734732 4293729569
7.8619385 -6.5332413 -1.671149 4293729569
7.5940247 -6.2992458 -1.6717225 4293729569
7.3630981 -6.0902538 -1.6742209 4293729569
7.1662292 -5.9002609 -1.6786528 4293729569
6.9783325 -5.717268 -1.682066 4293729569
6.839447 -5.5622787 -1.6903826 4293729569
6.6915588 -5.4052868 -1.695715 4293729569
6.581665 -5.2672977 -1.7029742 4293729569
11.622589 -7.6622219 -1.6163141 4293729569
6.4577942 -5.1233063 -1.7072601 4293729569
11.381714 -7.4242344 -1.6258459 4293729569
6.3558655 -4.9923134 -1.7135022 4293729569
11.16684 -7.2022457 -1.6353261 4293729569
6.2489929 -4.8593197 -1.7157539 4293729569
10.963959 -6.9882565 -1.643782 4293729569
6.1571045 -4.7343254 -1.7199714 4293729569
10.786041 -6.7882671 -1.6521854 4293729569
6.0831604 -4.619338 -1.7251604 4293729569
10.58316 -6.5792732 -1.654641 4293729569
6.0202942 -4.5103436 -1.7303278 4293729569
10.404236 -6.3832836 -1.6580499 4293729569
5.9133911 -4.3803492 -1.7265797 4293729569
10.178345 -6.1692867 -1.6525465 4293729569
5.8704834 -4.2823563 -1.7317079 4293729569
10.000427 -5.9812908 -1.651949 4293729569
5.8215942 -4.1813631 -1.7348478 4293729569
9.8745422 -5.817297 -1.6532522 4293729569
5.7626953 -4.0783691 -1.7350051 4293729569
9.7706604 -5.6643066 -1.6565131 4293729569
5.7918396 -4.0123825 -1.7489969 4293729569
9.4747009 -5.4332981 -1.6341339 4293729569
5.8749695 -3.9694004 -1.7708867 4293729569
8.7466736 -5.0302658 -1.5595632 4293729569
6.0621033 -3.9674282 -1.809582 4293729569
8.7347717 -4.9262753 -1.5676447 4293729569
6.3112793 -3.9864588 -1.8571638 4288085770
8.7929077 -4.849287 -1.5815958 4293729569
6.5384827 -3.9944887 -1.9007883 4288085770
9.3361206 -4.9593334 -1.6516435 4293729569
6.6335754 -3.9465055 -1.9196616 4282675967
9.3342285 -4.8543396 -1.6557093 4293729569
6.6116943 -3.8535099 -1.9177529 4282675967
9.4503479 -4.793354 -1.6725564 4293729569
6.5747681 -3.7555103 -1.9118718 4288085770
9.59552 -4.7413692 -1.6913507 4293729569
6.5438538 -3.660512 -1.9059789 4288085770
9.6726074 -4.6633797 -1.6992717 4293729569
6.5519714 -3.5795174 -1.9050144 4288085770
9.7276917 -4.5763884 -1.7052339 4293729569
6.56604 -3.501524 -1.9040378 4288085770
9.7848206 -4.4903946 -1.7081925 4293729569
6.5751648 -3.421524 -1.9010711 4288085770
9.816925 -4.3954 -1.7081974 4293729569
6.5972595 -3.34653 -1.89908 4288085770
9.8450012 -4.2984028 -1.7042098 4293729569
6.6213379 -3.2695312 -1.8960869 4288085770
9.953125 -4.2254114 -1.7090774 4293729569
6.6774597 -3.2045383 -1.8980346 4288085770
10.09024 -4.1604214 -1.715893 4293729569
6.6975708 -3.1265421 -1.8920488 4288085770
10.339355 -4.1284351 -1.7345062 4293729569
6.7436218 -3.0585461 -1.8900144 4288085770
10.706512 -4.1274567 -1.7649083 4293729569
6.8057556 -2.9925499 -1.8889531 4288085770
11.168701 -4.1494827 -1.8031417 4288085770
6.869873 -2.9285545 -1.8868871 4288085770
11.643829 -4.1675091 -1.8403562 4288085770
6.9419556 -2.8645573 -1.8848081 4288085770
12.007965 -4.1485271 -1.8637744 4288085770
7.0060425 -2.7995586 -1.8807429 4288085770
12.240082 -4.0915346 -1.8694308 4288085770
7.0901184 -2.7375641 -1.8776433 4288085770
12.435181 -4.0215387 -1.8691554 4288085770
7.1882019 -2.6795673 -1.8765185 4288085770
12.577271 -3.9375381 -1.860975 4288085770
7.267334 -2.6155682 -1.8704284 4288085770
12.807373 -3.8705425 -1.8596407 4288085770
7.3724365 -2.5575724 -1.8682923 4288085770
13.020477 -3.8005457 -1.8543363 4288085770
7.4864807 -2.4995747 -1.8651415 4288085770
13.316528 -3.7445507 -1.8568881 4288085770
7.614624 -2.4445782 -1.8629664 4288085770
13.587646 -3.679553 -1.8524861 4288085770
7.7667236 -2.3925838 -1.8617502 4288085770
13.894745 -3.6195564 -1.8500226 4288085770
7.9248047 -2.3405876 -1.8615243 4288085770
14.198822 -3.5555553 -1.8435667 4288085770
8.0768738 -2.2855902 -1.8573102 4288085770
14.555939 -3.498558 -1.84102 4288085770
8.2359619 -2.2315931 -1.854084 4288085770
14.950043 -3.444561 -1.8384115 4288085770
8.4210815 -2.1785975 -1.851815 4288085770
15.387115 -3.3935642 -1.8367311 4288085770
8.6081848 -2.1265974 -1.8485421 4288085770
15.888214 -3.3505678 -1.8359418 4288085770
8.8182678 -2.0756006 -1.8452313 4288085770
8.9983521 -2.0166006 -1.8359741 4288085770
9.2174377 -1.9626026 -1.8306504 4288085770
9.4955444 -1.9166059 -1.8312262 4288085770
9.8156738 -1.872613 -1.8347323 4288085770
10.092743 -1.8176136 -1.8283151 4288085770
10.414856 -1.7676172 -1.8258218 4288085770
10.76593 -1.7176208 -1.8242812 4288085770
11.123016 -1.6646223 -1.8197329 4288085770
11.543152 -1.6146259 -1.8180803 4288085770
11.955231 -1.5596256 -1.8134439 4288085770
12.409302 -1.5026283 -1.8077404 4288085770
12.894409 -1.4456272 -1.8009869 4288085770
13.4505 -1.3896303 -1.798117 4288085770
14.060577 -1.3316317 -1.7941606 4288085770
14.71167 -1.2706337 -1.7891397 4288085770
15.469757 -1.2106342 -1.7869439 4288085770
15.424225 1.2258272 -1.7415552 4288085770
14.536316 1.2818308 -1.7479898 4288085770
13.722443 1.3328323 -1.7533047 4288085770
13.060547 1.3878298 -1.7653832 4288085770
12.375641 1.4328318 -1.7674911 4288085770
11.780762 1.4808311 -1.7744594 4288085770
11.229889 1.5248308 -1.7783556 4288085770
10.714996 1.567832 -1.7821946 4288085770
10.221069 1.607831 -1.7829983 4288085770
9.8241882 1.6518269 -1.7906524 4288085770
9.3822937 1.6858292 -1.7883703 4288085770
8.9653625 1.7198296 -1.785049 4288085770
15.141296 2.4847908 -1.6818538 4288085770
8.6105042 1.7558317 -1.7856314 4288085770
14.38739 2.5087967 -1.6840557 4288085770
8.2245789 1.7858343 -1.7792583 4288085770
13.713501 2.5337992 -1.6871322 4288085770
7.9186707 1.822835 -1.7807643 4288085770
13.105621 2.561801 -1.6911074 4288085770
7.6277466 1.8568306 -1.7812446 4288085770
12.592712 2.5947962 -1.6979362 4288085770
7.3538818 1.8918314 -1.7806989 4288085770
12.098816 2.6277943 -1.7047349 4288085770
7.0829468 1.9248304 -1.7791469 4288085770
11.642944 2.6587944 -1.7084728 4288085770
6.8380737 1.9578304 -1.7785542 4288085770
11.256042 2.6977892 -1.7161075 4288085770
6.584198 1.9868326 -1.7729731 4288085770
10.880157 2.7327862 -1.7217222 4288085770
6.2942505 2.0068388 -1.7604423 4288085770
10.528259 2.769784 -1.7263006 4288085770
6.0023193 2.0238485 -1.7439128 4288085770
10.211395 2.8077793 -1.7318245 4288085770
5.7663879 2.0468521 -1.7352991 4288085770
9.9324646 2.8497734 -1.7392912 4288085770
5.6435242 2.0908432 -1.7435217 4288085770
9.6746216 2.8937674 -1.7467263 4288085770
5.5486755 2.1388311 -1.7557032 4288085770
9.3916931 2.9297657 -1.7481953 4288085770
5.4257202 2.1798239 -1.7609239 4288085770
9.1678467 2.9747581 -1.7545778 4288085770
5.2928772 2.2178211 -1.7631584 4288085770
8.9378967 3.0157557 -1.7579668 4288085770
5.1569519 2.2528181 -1.7623954 4288085770
8.7260437 3.0577497 -1.7623281 4288085770
5.0360413 2.2908144 -1.764611 4288085770
8.5211182 3.0997458 -1.7636787 4288085770
4.9151306 2.3278103 -1.7638259 4288085770
8.3362427 3.1437407 -1.7679988 4288085770
4.66922 2.3308249 -1.7382145 4288085770
8.1673584 3.1897364 -1.7702954 4288085770
4.5193176 2.3578281 -1.7304682 4288085770
7.9864502 3.2317324 -1.771608 4288085770
4.4404297 2.3998222 -1.7336204 4288085770
7.8425293 3.2807274 -1.7748671 4288085770
4.3945007 2.4508095 -1.7437265 4288085770
7.7166443 3.3327227 -1.7790998 4288085770
4.2876282 2.4838085 -1.7389166 4288085770
7.6007385 3.3867149 -1.7843183 4288085770
4.2517395 2.5367985 -1.7480085 4288085770
7.4808655 3.4387112 -1.7855418 4288085770
4.2038574 2.5857906 -1.7541168 4288085770
7.3549805 3.4887075 -1.7857733 4288085770
4.1469421 2.6307821 -1.7572364 4288085770
7.2590942 3.5447001 -1.7899618 4288085770
4.124054 2.6867733 -1.76631 4288085770
7.1361694 3.5906987 -1.7861857 4288085770
4.0871887 2.7377653 -1.7714022 4288085770
7.0212402 3.6396966 -1.7843993 4288085770
4.0452576 2.7877569 -1.7755014 4288085770
6.9473877 3.6996908 -1.786556 4288085770
4.0303955 2.8457479 -1.7825639 4288085770
6.8815002 3.7606854 -1.7887006 4288085770
3.9775085 2.8907433 -1.7816771 4288085770
6.8015747 3.8176818 -1.7868645 4288085770
3.9845886 2.9557295 -1.7927096 4288085770
6.7356873 3.876677 -1.7870078 4288085770
3.9247131 2.9977283 -1.7888319 4288085770
6.6797791 3.9406714 -1.7871386 4288085770
3.9278259 3.0627174 -1.7968705 4288085770
6.5968933 3.992672 -1.781304 4288085770
3.9069214 3.1177111 -1.7989404 4288085770
6.5639648 4.0636649 -1.7824033 4288085770
3.8920288 3.175705 -1.8010027 4288085770
6.5151062 4.1276631 -1.7795234 4288085770
3.8611145 3.2267008 -1.7990856 4288085770
6.5101624 4.2076545 -1.7825848 4288085770
3.853241 3.2866955 -1.8011382 4288085770
6.4902954 4.282649 -1.7826667 4288085770
3.8713379 3.3576846 -1.8081573 4288085770
6.5124207 4.373641 -1.7876933 4288085770
3.8614502 3.4166794 -1.8072126 4288085770
6.5134888 4.4566331 -1.7887473 4288085770
3.8685303 3.4836726 -1.8092464 4288085770
6.5316162 4.546627 -1.7897795 4288085770
3.8666687 3.5466681 -1.8092918 4288085770
6.5527039 4.6386194 -1.7908083 4288085770
3.8707581 3.6116624 -1.809329 4288085770
6.5877991 4.7366118 -1.7938192 4288085770
3.8848572 3.6816559 -1.8093539 4288085770
6.5999146 4.8256078 -1.78986 4288085770
3.9149475 3.7586474 -1.8123585 4288085770
6.644989 4.9295998 -1.7908596 4288085770
3.9230652 3.8256435 -1.8103907 4288085770
6.7201233 5.0465899 -1.7948203 4288085770
3.9351501 3.8956394 -1.8074188 4288085770
6.781189 5.1595821 -1.7958004 4288085770
3.972229 3.9766307 -1.8094151 4288085770
6.8323059 5.2665763 -1.7937924 4288085770
4.0023804 4.054626 -1.8074204 4288085770
6.8984375 5.3825707 -1.791767 4288085770
4.0444641 4.1386194 -1.8084109 4288085770
6.9895325 5.5105624 -1.7927103 4288085770
4.0985718 4.2296119 -1.8093873 4288085770
7.0636292 5.6325579 -1.7886763 4288085770
4.1426697 4.3156071 -1.8073759 4288085770
7.1507263 5.7605519 -1.7856259 4288085770
4.2147827 4.4155974 -1.8103302 4288085770
7.2938538 5.9205403 -1.788509 4288085770
4.2818604 4.5155911 -1.810292 4288085770
7.427948 6.0755334 -1.7874031 4288085770
4.3649902 4.6245823 -1.812235 4288085770
7.6030273 6.25352 -1.7912482 4288085770
4.460083 4.7385726 -1.8151627 4288085770
7.7861328 6.4385076 -1.7940855 4288085770
4.5531921 4.8535647 -1.816094 4288085770
7.9932556 6.637495 -1.7968946 4288085770
4.655304 4.9745555 -1.8170154 4288085770
8.2523804 6.8684783 -1.8056436 4288085770
4.7874146 5.113544 -1.8219019 4288085770
8.4794922 7.0824685 -1.8054318 4288085770
4.8865051 5.2335386 -1.8188273 4288085770
8.7445984 7.3214526 -1.8081769 4288085770
5.0216064 5.3765278 -1.8207117 4288085770
8.9807129 7.545444 -1.8049577 4288085770
5.1347046 5.5065222 -1.8166221 4288085770
9.2548218 7.7954335 -1.8016964 4288085770
5.2598267 5.6435175 -1.8115187 4288085770
9.5999146 8.0874166 -1.8053521 4288085770
5.4139099 5.7985091 -1.8103815 4288085770
5.5890198 5.9674983 -1.8112208 4288085770
5.7641296 6.1374903 -1.8090611 4288085770
5.9872437 6.3364768 -1.8118455 4288085770
6.2593384 6.5684581 -1.8215754 4288085770
6.490448 6.7764473 -1.8193536 4288085770
6.7555237 7.005435 -1.8210926 4288085770
7.0156555 7.234426 -1.8168397 4288085770
7.2967529 7.4774151 -1.8125633 4288085770
7.6088562 7.741405 -1.8082527 4288085770
7.9369507 8.0153942 -1.8039237 4288085770
15.957367 -0.5645752 -1.7641485 4288085770
14.729431 -0.59354687 -1.7660184 4288085770
13.644531 -0.61852264 -1.770671 4288085770
12.702667 -0.64150524 -1.777105 4288085770
11.839783 -0.65949059 -1.7834204 4288085770
11.050903 -0.67547798 -1.7886236 4288085770
10.302979 -0.68646145 -1.7907668 4288085770
9.6670837 -0.6974535 -1.7977378 4288085770
9.0561829 -0.70444298 -1.8006729 4288085770
15.115204 -1.1266012 -1.7710724 4288085770
8.4973145 -0.71143627 -1.804528 4288085770
13.96933 -1.1085806 -1.7808471 4288085770
7.9994202 -0.71642971 -1.8112906 4288085770
12.911438 -1.0885582 -1.7854877 4288085770
7.5014954 -0.71842003 -1.812055 4288085770
12.009521 -1.0715427 -1.7938864 4288085770
7.0606079 -0.72041416 -1.814732 4288085770
11.157623 -1.0535269 -1.7982087 4288085770
6.6457214 -0.72040844 -1.81837 4288085770
10.367737 -1.0325108 -1.7994378 4288085770
6.2378235 -0.71940231 -1.8179982 4288085770
9.671875 -1.0144968 -1.8035201 4288085770
5.8859253 -0.71840286 -1.8235399 4288085770
9.0449524 -0.99748611 -1.8074958 4288085770
5.5400085 -0.71539879 -1.8250738 4288085770
8.4760742 -0.98147869 -1.8133813 4288085770
5.2271118 -0.71339798 -1.8295565 4288085770
7.9221497 -0.96346855 -1.8152452 4288085770
4.9532471 -0.71339893 -1.8379776 4288085770
7.4302673 -0.94646168 -1.818013 4288085770
4.642334 -0.70639515 -1.8354603 4288085770
6.9813843 -0.93145847 -1.8227134 4288085770
4.365448 -0.70039177 -1.8368902 4288085770
6.5334778 -0.91244888 -1.8224149 4288085770
4.1145325 -0.69639111 -1.8402785 4288085770
6.1395569 -0.89644527 -1.8250314 4288085770
3.8646545 -0.68939114 -1.8416674 4288085770
5.7897034 -0.88244247 -1.8315786 4288085770
3.5997314 -0.67938423 -1.8360814 4288085770
5.4498291 -0.86743927 -1.8361113 4288085770
3.3898621 -0.67338562 -1.839408 4288085770
5.1118774 -0.85043716 -1.8356422 4288085770
3.157959 -0.66338253 -1.8357713 4288085770
4.8179932 -0.83543587 -1.8401041 4288085770
2.9730225 -0.65638542 -1.8400601 4288085770
4.5030823 -0.81642914 -1.8366009 4288085770
2.7691345 -0.64738274 -1.8383797 4288085770
4.2251892 -0.80042744 -1.837039 4288085770
2.5802307 -0.63838005 -1.8376758 4288085770
3.9602966 -0.78342533 -1.8374574 4288085770
2.4033203 -0.62838173 -1.8379545 4288085770
3.7124023 -0.76742268 -1.8368492 4288085770
2.2374573 -0.61938095 -1.8382155 4288085770
3.477478 -0.75041962 -1.8362217 4288085770
2.0905762 -0.61138439 -1.8424468 4288085770
3.2536011 -0.73441792 -1.8365766 4288085770
1.9206238 -0.60038376 -1.838715 4288085770
3.0366821 -0.7174139 -1.8339214 4288085770
1.7637634 -0.58838177 -1.8359642 4288085770
2.8527832 -0.70341778 -1.8382136 4288085770
1.6268616 -0.5793829 -1.8371806 4288085770
2.6648865 -0.68841553 -1.8385122 4288085770
1.4959412 -0.56938553 -1.8383884 4288085770
2.480011 -0.67141533 -1.8378078 4288085770
1.3680725 -0.55938721 -1.8395916 4288085770
2.3091125 -0.65641594 -1.8380805 4288085770
1.2471619 -0.54938984 -1.8407842 4288085770
2.1442261 -0.64141464 -1.8373441 4288085770
1.1242371 -0.53838921 -1.8399802 4288085770
1.9922791 -0.62641811 -1.8385874 4288085770
1.8354187 -0.60941505 -1.8358399 4288085770
1.6854858 -0.59341431 -1.8330811 4288085770
1.5435791 -0.57741356 -1.8313097 4288085770
1.4287109 -0.56441784 -1.8354951 4288085770
1.3017883 -0.54941845 -1.8347001 4288085770
1.1788635 -0.53342056 -1.8328996 4288085770
1.0690308 1.3240089 -1.7872992 4288085770
1.2061462 1.3469934 -1.7941036 4288085770
1.3162537 1.3629894 -1.7899445 4288085770
1.4353333 1.3789806 -1.7877716 4288085770
1.5704346 1.3989716 -1.7895769 4288085770
1.6955261 1.4149656 -1.7853947 4288085770
1.850647 1.435955 -1.7891695 4288085770
1.0137024 1.2899733 -1.7943579 4288085770
1.9937744 1.4539452 -1.7879609 4288085770
1.1228333 1.3009653 -1.7911968 4288085770
2.1558533 1.4749365 -1.788725 4288085770
1.2428589 1.3139572 -1.79202 4288085770
2.3009338 1.4899282 -1.784511 4288085770
1.382019 1.3299437 -1.7968162 4288085770
2.4830627 1.5119171 -1.7872448 4288085770
1.4910889 1.3379421 -1.7896528 4288085770
2.6811218 1.535903 -1.7919554 4288085770
1.6341858 1.3519306 -1.792441 4288085770
2.8922424 1.5598869 -1.7986456 4288085770
1.7693176 1.3629236 -1.7912399 4288085770
3.1123962 1.5848722 -1.8033229 4288085770
1.9194031 1.3759108 -1.7930166 4288085770
3.3124695 1.6028624 -1.8020259 4288085770
2.0525208 1.3839073 -1.7878159 4288085770
3.5385742 1.6248474 -1.8026917 4288085770
2.2246094 1.397893 -1.7915595 4288085770
3.7566833 1.6438417 -1.7993673 4288085770
2.3786926 1.4078865 -1.7883277 4288085770
3.9657288 1.6588354 -1.7920542 4288085770
2.5608215 1.4208727 -1.792055 4288085770
4.2128906 1.6788235 -1.7906858 4288085770
2.7359009 1.4308653 -1.7907908 4288085770
4.3979187 1.6848259 -1.7734032 4288085770
2.9520264 1.4458485 -1.7974669 4288085770
4.5669861 1.6868334 -1.7501423 4288085770
3.1781311 1.461832 -1.8041279 4288085770
4.9731445 1.7278013 -1.771543 4288085770
3.4082336 1.4758158 -1.8097814 4288085770
5.3162537 1.7537832 -1.7760302 4288085770
3.6313477 1.4868021 -1.8114437 4288085770
5.5503235 1.7607851 -1.7576724 4288085770
3.8384399 1.492795 -1.8071268 4288085770
5.8693848 1.7767763 -1.7501894 4288085770
4.0444946 1.4957914 -1.7998093 4288085770
6.4025574 1.8247347 -1.7763983 4288085770
4.2386169 1.4957867 -1.7885082 4288085770
6.8556519 1.8547134 -1.7827179 4288085770
4.4467163 1.4947853 -1.7781847 4288085770
7.2997742 1.8796949 -1.7830479 4288085770
4.6387939 1.4897852 -1.7618829 4288085770
7.7698669 1.9046783 -1.7823374 4288085770
4.9238892 1.4967709 -1.7624459 4288085770
8.2449951 1.925662 -1.7776161 4288085770
5.2129822 1.500761 -1.7600005 4288085770
8.7930603 1.9526396 -1.7777861 4288085770
5.4990845 1.5017509 -1.7555574 4288085770
9.3361511 1.9726248 -1.7709585 4288085770
5.8621826 1.5097313 -1.7600001 4288085770
9.9362488 1.9946079 -1.7650443 4288085770
6.3612976 1.5316935 -1.7842423 4288085770
10.573334 2.0165901 -1.7580724 4288085770
6.7864075 1.5396709 -1.7915887 4288085770
11.286469 2.0395689 -1.7529836 4288085770
7.1895447 1.540658 -1.7909642 4288085770
12.006531 2.0575514 -1.7408801 4288085770
7.6216125 1.5406389 -1.7912939 4288085770
12.782593 2.0745335 -1.728689 4288085770
8.0847473 1.5386209 -1.7905741 4288085770
13.687683 2.0965099 -1.7183013 4288085770
8.6298523 1.5415955 -1.7977307 4288085770
14.719788 2.1224804 -1.7117199 4288085770
9.1369324 1.5335779 -1.7939379 4288085770
15.835876 2.1474495 -1.7020072 4288085770
9.6890564 1.5265579 -1.7930762 4288085770
10.288147 1.5165348 -1.7921391 4288085770
10.895203 1.5015182 -1.787186 4288085770
11.556335 1.484499 -1.7821475 4288085770
12.262421 1.4644775 -1.7770373 4288085770
12.978516 1.4364586 -1.766905 4288085770
13.807587 1.4074345 -1.7595969 4288085770
14.676666 1.3734121 -1.7512227 4288085770
15.647766 1.334383 -1.7436868 4288085770
2.8390503 -4.2337723 -0.40820944 4293729569
3.5744934 -4.736517 -0.042673633 4293729569
2.7852173 -4.2317991 -0.44229287 4293729569
3.5366821 -4.7455521 -0.082723431 4293729569
2.7383728 -4.232831 -0.47736299 4293729569
3.5158691 -4.7625847 -0.12374057 4293729569
2.6855164 -4.2278605 -0.51144725 4293729569
3.4879761 -4.7736225 -0.16577305 4293729569
2.6476746 -4.2308922 -0.54650176 4293729569
3.4671631 -4.7866554 -0.20679316 4293729569
2.606842 -4.2309217 -0.58156359 4293729569
2.5619812 -4.2249517 -0.61663586 4293729569
2.5284729 -4.2036819 -0.26370308 4293729569
2.5231323 -4.2219839 -0.65269673 4293729569
2.4876404 -4.1947145 -0.29977167 4293729569
2.4932861 -4.2240152 -0.68873966 4293729569
2.4587708 -4.1937466 -0.3368153 4293729569
2.4674683 -4.225049 -0.72577715 4293729569
2.4469604 -4.200779 -0.37382644 4293729569
2.4416199 -4.2260809 -0.76181459 4293729569
2.4341125 -4.2058134 -0.4118405 4293729569
2.4147644 -4.223114 -0.79785687 4293729569
2.4182434 -4.2068453 -0.44986224 4293729569
2.4029236 -4.2301455 -0.83586782 4293729569
2.3994446 -4.2048779 -0.48589134 4293729569
2.375061 -4.2241802 -0.87191379 4293729569
2.3935852 -4.2099142 -0.52489448 4293729569
2.3642273 -4.2272139 -0.9099263 4293729569
2.3847351 -4.2099485 -0.56290615 4293729569
2.3523865 -4.2282486 -0.94894195 4293729569
2.3789368 -4.2109833 -0.60091251 4293729569
2.3465576 -4.2312822 -0.98794669 4293729569
2.3760986 -4.2120161 -0.63991416 4293729569
2.3397217 -4.2323189 -1.0269545 4293729569
2.3762207 -4.2130527 -0.67791086 4293729569
2.335907 -4.2333536 -1.0649577 4293729569
2.3843689 -4.2180882 -0.71689218 4293729569
2.3350525 -4.2343874 -1.1039561 4293729569
2.3905334 -4.2201204 -0.75487906 4293729569
2.3432007 -4.2404251 -1.1439366 4293729569
2.4046936 -4.2251577 -0.79485095 4293729569
2.3443909 -4.2394609 -1.1839336 4293729569
2.4198914 -4.2291927 -0.83382213 4293729569
2.3505249 -4.2394972 -1.2229217 4293729569
2.4320374 -4.229228 -0.87280101 4293729569
2.3666992 -4.2445345 -1.2648907 4293729569
2.4481812 -4.2302656 -0.91177303 4293729569
2.3788452 -4.2455711 -1.3048687 4293729569
2.4733887 -4.2363043 -0.95172709 4293729569
2.4030151 -4.2526112 -1.3478234 4293729569
2.496521 -4.2383413 -0.99168706 4293729569
2.4222107 -4.2536488 -1.3887906 4293729569
2.5237122 -4.2413769 -1.0326403 4293729569
2.4423218 -4.2536869 -1.4297571 4293729569
2.5558777 -4.2454138 -1.0725847 4293729569
2.4755249 -4.2617273 -1.4736971 4293729569
2.5970154 -4.2534542 -1.1145123 4293729569
2.5056763 -4.2647657 -1.5156455 4293729569
2.6301575 -4.2554893 -1.1534566 4293729569
2.5448608 -4.2728081 -1.560576 4293729569
2.6663513 -4.2565298 -1.1943973 4293729569
2.5780029 -4.2738466 -1.6025212 4293729569
2.707489 -4.2585669 -1.2343293 4293729569
2.610199 -4.271884 -1.6434705 4293729569
2.7556763 -4.2646065 -1.2762473 4293729569
2.6473389 -4.271925 -1.6864102 4293729569
2.8088379 -4.2716446 -1.3171567 4293729569
2.6144714 -4.2229471 -1.7104977 4293729569
2.8429871 -4.262682 -1.3551081 4293729569
2.6296387 -4.2049837 -1.7464859 4293729569
4.449585 -5.2710094 -1.6988087 4293729569
2.5367737 -4.1129894 -1.7527009 4293729569
4.2727051 -5.1160107 -1.7002037 4293729569
2.4138489 -4.000989 -1.7499784 4293729569
4.1248169 -4.9800148 -1.7055384 4293729569
2.3249512 -3.9109945 -1.7541857 4293729569
3.9539185 -4.8290119 -1.7019211 4293729569
2.2861023 -3.8530111 -1.7692897 4293729569
3.8070068 -4.6930103 -1.7022547 4293729569
2.3172913 -3.8380442 -1.8032509 4293729569
3.6901245 -4.5760174 -1.7065268 4293729569
2.4074402 -3.8600893 -1.8530909 4288085770
3.6042175 -4.4780264 -1.7157352 4293729569
2.4985962 -3.8781366 -1.9029323 4288085770
3.5093384 -4.3750343 -1.721962 4293729569
2.5227356 -3.8541679 -1.9329113 4288085770
3.4094543 -4.2680378 -1.7241999 4293729569
2.4438477 -3.7651682 -1.9311026 4288085770
3.3565674 -4.1890488 -1.7353424 4293729569
2.3719482 -3.6791725 -1.9312804 4288085770
3.2836914 -4.0990562 -1.7405246 4293729569
2.2970276 -3.5921717 -1.9274638 4288085770
3.2077942 -4.0060635 -1.7437141 4293729569
2.2271729 -3.5071716 -1.924638 4288085770
3.158905 -3.928071 -1.7508497 4293729569
2.1602478 -3.4241753 -1.9208059 4288085770
3.1610413 -3.8790922 -1.7698828 4293729569
2.1203308 -3.3571815 -1.923919 4288085770
3.24823 -3.87813 -1.8077453 4293729569
2.0484314 -3.2721767 -1.9160964 4288085770
3.3693848 -3.8941736 -1.8525413 4288085770
1.9995728 -3.2001791 -1.9132278 4288085770
3.4875183 -3.9052191 -1.8963459 4288085770
1.9576721 -3.1321812 -1.9123452 4288085770
3.5296936 -3.8732443 -1.9203031 4288085770
1.9237671 -3.0681858 -1.9114468 4288085770
3.4897766 -3.7962523 -1.9234239 4288085770
1.8908691 -3.005188 -1.9105459 4288085770
3.4519043 -3.7202568 -1.924541 4288085770
1.8629456 -2.9451933 -1.9106351 4288085770
3.4200134 -3.648263 -1.9266455 4288085770
1.8190613 -2.8761902 -1.9037566 4288085770
3.3601074 -3.5612612 -1.9198059 4288085770
1.8041382 -2.8231974 -1.9048202 4288085770
3.341217 -3.4962692 -1.9238845 4288085770
1.7832642 -2.7672005 -1.9028952 4288085770
3.2992859 -3.42027 -1.9190081 4288085770
1.7563171 -2.7082024 -1.8989823 4288085770
3.2803955 -3.3542747 -1.9190878 4288085770
1.7414551 -2.6542053 -1.8970468 4288085770
3.2485352 -3.2822723 -1.9151928 4288085770
1.7265625 -2.6012087 -1.8941103 4288085770
3.2315979 -3.2172775 -1.9142686 4288085770
1.725647 -2.5542135 -1.8951474 4288085770
3.2177124 -3.1552811 -1.9123377 4288085770
1.7217407 -2.506218 -1.8941897 4288085770
3.2047729 -3.0922861 -1.9104056 4288085770
1.724823 -2.4612255 -1.895219 4288085770
3.1939087 -3.0312872 -1.906469 4288085770
1.7069702 -2.4062233 -1.8872893 4288085770
3.1879883 -2.9732924 -1.9045223 4288085770
1.7190552 -2.3652306 -1.8893012 4288085770
3.197113 -2.9192963 -1.9035492 4288085770
1.7261353 -2.3222361 -1.8883226 4288085770
3.203186 -2.8663025 -1.9025798 4288085770
1.722229 -2.2732382 -1.8823661 4288085770
3.2113037 -2.8123055 -1.9006082 4288085770
1.7483521 -2.2382469 -1.8863515 4288085770
3.2283936 -2.7643127 -1.8996178 4288085770
1.7624512 -2.1972513 -1.8853606 4288085770
3.2365112 -2.7113123 -1.8956454 4288085770
1.7695618 -2.1532526 -1.8813829 4288085770
3.2555847 -2.6623173 -1.8926526 4288085770
1.7976685 -2.1182604 -1.8823655 4288085770
3.284729 -2.6173258 -1.8926413 4288085770
1.8207397 -2.080266 -1.8813579 4288085770
3.3078003 -2.5703268 -1.8886408 4288085770
1.8328552 -2.0382681 -1.876371 4288085770
3.3508911 -2.5303354 -1.8906032 4288085770
1.8559265 -2.0012712 -1.8743628 4288085770
3.3880005 -2.48734 -1.8885777 4288085770
1.8930359 -1.9672804 -1.8753303 4288085770
3.4261169 -2.4433451 -1.8855516 4288085770
1.9251404 -1.9322863 -1.8733066 4288085770
3.4671936 -2.401351 -1.8835191 4288085770
1.9592285 -1.8972893 -1.8712797 4288085770
3.5273132 -2.3653593 -1.884452 4288085770
1.9993591 -1.864296 -1.871242 4288085770
3.5704041 -2.3223619 -1.8794169 4288085770
2.0364075 -1.8293018 -1.8682102 4288085770
3.6414795 -2.288372 -1.8813312 4288085770
2.0985413 -1.8033133 -1.8731325 4288085770
3.7046204 -2.2523775 -1.8802593 4288085770
2.1446228 -1.7713175 -1.8710845 4288085770
3.7737122 -2.2173853 -1.8791776 4288085770
2.1867065 -1.7373219 -1.8680444 4288085770
3.8457947 -2.1813927 -1.8770916 4288085770
2.2418518 -1.7073288 -1.8669807 4288085770
3.9179077 -2.1463985 -1.8740053 4288085770
2.302948 -1.6793375 -1.866906 4288085770
4.0039978 -2.1144066 -1.8738943 4288085770
2.3600159 -1.6483431 -1.86484 4288085770
4.1100769 -2.0864172 -1.8757488 4288085770
2.4201355 -1.6183481 -1.8627687 4288085770
4.2012024 -2.0534248 -1.873631 4288085770
2.4932251 -1.5903587 -1.8636751 4288085770
4.2952881 -2.0214319 -1.8715075 4288085770
2.5743408 -1.5653667 -1.8645668 4288085770
4.418396 -1.9944439 -1.8733348 4288085770
2.6464233 -1.5363722 -1.8624756 4288085770
4.5255127 -1.9634495 -1.8701903 4288085770
2.7355652 -1.5113821 -1.864355 4288085770
4.6455994 -1.9344587 -1.8690237 4288085770
2.8066406 -1.4813871 -1.8602662 4288085770
4.7516785 -1.9004641 -1.863883 4288085770
2.8927307 -1.4543943 -1.8581518 4288085770
4.8908081 -1.8734722 -1.8626853 4288085770
2.9898376 -1.4294033 -1.8590183 4288085770
5.0408936 -1.8474836 -1.8624696 4288085770
3.0959473 -1.4044151 -1.8598709 4288085770
5.1829834 -1.8194942 -1.8592676 4288085770
3.2010498 -1.3794231 -1.858725 4288085770
5.3500671 -1.7945051 -1.8590242 4288085770
3.3111572 -1.3544321 -1.8585713 4288085770
5.5342102 -1.7715168 -1.8607525 4288085770
3.4252625 -1.3294401 -1.8574111 4288085770
5.7333069 -1.7505322 -1.8624555 4288085770
3.5443726 -1.304451 -1.8562433 4288085770
5.8893738 -1.7185392 -1.8542352 4288085770
3.6724548 -1.279459 -1.8550613 4288085770
6.0864868 -1.6935482 -1.8519446 4288085770
3.8155518 -1.257472 -1.8568535 4288085770
6.3065491 -1.6705618 -1.8506165 4288085770
3.9386597 -1.2304764 -1.8516809 4288085770
6.5346985 -1.6475744 -1.8492759 4288085770
4.113739 -1.210495 -1.8574213 4288085770
6.7687988 -1.6225843 -1.8449275 4288085770
4.2658691 -1.1865053 -1.8552008 4288085770
7.0278931 -1.6005983 -1.8435374 4288085770
4.4269409 -1.1615133 -1.852967 4288085770
7.2989807 -1.5776119 -1.8401291 4288085770
4.5940552 -1.1365213 -1.8497241 4288085770
7.6040649 -1.5566301 -1.8386661 4288085770
4.7741394 -1.1115332 -1.8474604 4288085770
7.9191589 -1.5356426 -1.8361872 4288085770
4.9772339 -1.0895452 -1.8481584 4288085770
8.2622681 -1.5146608 -1.8336647 4288085770
5.182373 -1.0655584 -1.8468548 4288085770
8.6153564 -1.4916744 -1.8291278 4288085770
5.3744202 -1.0375652 -1.8395748 4288085770
9.0044556 -1.4706936 -1.8255328 4288085770
5.6065369 -1.0135794 -1.8372287 4288085770
9.4425659 -1.452714 -1.8238585 4288085770
5.8336487 -0.98758698 -1.8328923 4288085770
9.8876648 -1.4317341 -1.8191757 4288085770
6.0967102 -0.96360397 -1.8314978 4288085770
10.380737 -1.4117527 -1.8144166 4288085770
6.3768311 -0.93861675 -1.8290772 4288085770
10.925842 -1.3927774 -1.8115751 4288085770
6.697937 -0.91563511 -1.8305907 4288085770
11.506927 -1.3727999 -1.8056778 4288085770
6.9880066 -0.88864803 -1.8231562 4288085770
12.175049 -1.3558292 -1.8026417 4288085770
7.3471375 -0.86366749 -1.8236117 4288085770
12.913116 -1.3398609 -1.7984948 4288085770
7.7122192 -0.83768368 -1.8200586 4288085770
13.707214 -1.3218927 -1.7922616 4288085770
8.1153259 -0.81170177 -1.8174458 4288085770
14.589325 -1.3049269 -1.7868893 4288085770
8.5383911 -0.78372097 -1.8138032 4288085770
15.615417 -1.2919683 -1.783288 4288085770
8.9974976 -0.75674248 -1.8101032 4288085770
9.5085754 -0.72776318 -1.8063231 4288085770
10.053711 -0.69878769 -1.8024896 4288085770
10.651794 -0.66781139 -1.7965748 4288085770
11.349884 -0.63784122 -1.7955018 4288085770
12.076019 -0.60387039 -1.7893884 4288085770
12.896088 -0.56990528 -1.7841272 4288085770
13.846191 -0.53294468 -1.7806644 4288085770
14.886261 -0.49498653 -1.7760608 4288085770
15.659363 2.5827913 -1.7013632 4288085770
15.221466 2.6628056 -1.698125 4288085770
14.925568 2.7578049 -1.7056763 4288085770
14.542664 2.8368168 -1.7023509 4288085770
14.226776 2.9198256 -1.7019231 4288085770
13.995911 3.0128231 -1.7063707 4288085770
13.776031 3.1048231 -1.7107998 4288085770
13.552094 3.1948261 -1.7122334 4288085770
13.359222 3.2868242 -1.7146204 4288085770
13.159332 3.3758273 -1.7150156 4288085770
13.003418 3.4708257 -1.7173468 4288085770
12.860504 3.5648251 -1.7186568 4288085770
12.745636 3.6638217 -1.7219269 4288085770
12.635742 3.7628202 -1.7221895 4288085770
12.524872 3.8618202 -1.7224538 4288085770
12.444946 3.9638171 -1.7236718 4288085770
12.364044 4.065815 -1.7228913 4288085770
12.323181 4.1778092 -1.7250569 4288085770
12.305267 4.2948046 -1.727191 4288085770
12.309387 4.4177952 -1.7312957 4288085770
12.320526 4.5437884 -1.7333921 4288085770
12.380585 4.6817751 -1.7394221 4288085770
12.364716 4.802774 -1.7365568 4288085770
12.540497 5.104043 -1.7420319 4288085770
13.069336 5.2616315 -0.92735434 4293729569
12.541595 5.2300415 -1.7361207 4288085770
12.770386 5.297636 -0.9028272 4293729569
12.596649 5.3740406 -1.7331421 4288085770
12.378418 5.3016419 -0.87241614 4293729569
12.698761 5.5320406 -1.7321031 4288085770
12.111481 5.3396482 -0.84684265 4293729569
12.826874 5.7020383 -1.7330344 4288085770
11.795563 5.3566566 -0.8173275 4293729569
12.188843 5.6160712 -1.6549264 4293729569
11.577637 5.4036641 -0.79168737 4293729569
11.276794 5.426116 -1.5511537 4293729569
10.936646 5.3016748 -0.74557245 4293729569
10.844818 5.3911409 -1.4917746 4293729569
10.898743 5.4016833 -0.72570157 4293729569
10.535828 5.3941607 -1.4452389 4293729569
10.856781 5.4976931 -0.7038337 4293729569
10.264893 5.4061794 -1.400653 4293729569
10.740845 5.5687041 -0.67805856 4293729569
10.055939 5.4351983 -1.3609869 4293729569
11.153931 5.8347149 -0.67263323 4293729569
9.8189697 5.4522161 -1.3193538 4293729569
10.844971 5.831728 -0.63609326 4293729569
9.7850037 5.544229 -1.2934715 4293729569
10.920044 5.9707427 -0.61308193 4293729569
9.7110901 5.6192446 -1.2636366 4293729569
9.630127 5.6902609 -1.2308095 4293729569
9.6091614 5.7842755 -1.2019091 4293729569
12.240234 6.8517995 -0.5667451 4293729569
9.5902405 5.879292 -1.1730068 4293729569
11.810303 6.7938161 -0.51834691 4293729569
9.5892944 5.9813094 -1.1420825 4293729569
11.362305 6.7208347 -0.46896493 4293729569
9.5733337 6.0753284 -1.110175 4293729569
11.277344 6.7978568 -0.42914832 4293729569
9.5693665 6.1753459 -1.0762537 4293729569
9.5704041 6.2753673 -1.0413252 4293729569
9.6434326 6.4073868 -1.0103122 4293729569
9.7235413 6.5444074 -0.97829241 4293729569
9.8405762 6.7004299 -0.94623113 4293729569
10.004608 6.8794522 -0.91411608 4293729569
16.17746 -0.1518383 -1.7550346 4288085770
14.766541 -0.16688442 -1.7611184 4288085770
13.520691 -0.1779232 -1.7649603 4288085770
12.439789 -0.18695831 -1.7705585 4288085770
11.486908 -0.19499207 -1.7769675 4288085770
10.609985 -0.19801998 -1.7782674 4288085770
9.841095 -0.20204544 -1.7824059 4288085770
9.1471863 -0.20307255 -1.7884355 4288085770
15.296234 -0.37290382 -1.7581892 4288085770
8.5192871 -0.20409584 -1.7913672 4288085770
13.942322 -0.35894489 -1.7622092 4288085770
7.9504089 -0.20311832 -1.7952126 4288085770
12.779449 -0.34498024 -1.7659458 4288085770
7.4224854 -0.20213699 -1.7979972 4288085770
11.768524 -0.33101463 -1.7714568 4288085770
6.9245911 -0.1981554 -1.7987397 4288085770
10.851654 -0.31804562 -1.7748275 4288085770
6.4847107 -0.19517517 -1.8033952 4288085770
10.054749 -0.30507374 -1.7800201 4288085770
6.0718079 -0.19219017 -1.8050104 4288085770
9.3408508 -0.2930975 -1.7850889 4288085770
5.7029114 -0.18820763 -1.8105613 4288085770
8.6969604 -0.28112316 -1.7900536 4288085770
5.3410034 -0.18222332 -1.8121032 4288085770
8.1070557 -0.26814747 -1.794939 4288085770
5.025116 -0.17823982 -1.8165754 4288085770
7.5571594 -0.25516605 -1.795765 4288085770
4.7122498 -0.17225456 -1.8190445 4288085770
7.0502625 -0.24318409 -1.7975265 4288085770
4.4132996 -0.16526699 -1.8184935 4288085770
6.5993652 -0.23120117 -1.8012048 4288085770
4.1304321 -0.15827656 -1.8179191 4288085770
6.1794739 -0.2182188 -1.8028381 4288085770
3.8605347 -0.15128613 -1.817325 4288085770
5.8055725 -0.20723724 -1.8084013 4288085770
3.6076355 -0.14329529 -1.8157067 4288085770
5.4496765 -0.19525242 -1.8119386 4288085770
3.3927002 -0.13631153 -1.8200309 4288085770
5.1098022 -0.18226528 -1.8134532 4288085770
3.1688538 -0.12831974 -1.8203697 4288085770
4.7878723 -0.17028141 -1.81494 4288085770
2.9589539 -0.12032986 -1.8206872 4288085770
4.4809875 -0.15729237 -1.8134053 4288085770
2.7480164 -0.1103363 -1.8160081 4288085770
4.2120667 -0.14530563 -1.8158135 4288085770
