# .PCD v0.7 - Point Cloud Data file format
VERSION 0.7
FIELDS x y z rgb
SIZE 4 4 4 4
TYPE F F F U
COUNT 1 1 1 1
WIDTH 1130
HEIGHT 1
VIEWPOINT 0 0 0 1 0 0 0
POINTS 1130
DATA ascii
7.8300591 4.1032853 -1.7342211 4288085770
9.2164011 4.8338056 -0.70346195 4293729569
4.19449 2.1822488 -1.8033283 4288085770
10.161511 5.3129845 -0.25495011 4293729569
7.1751347 3.7380679 -1.7601191 4288085770
6.7651811 3.5149348 -1.7754409 4288085770
8.0020504 4.1583428 -1.7254241 4288085770
9.0899134 4.7176042 -1.7271544 4288085770
4.1894937 2.1602402 -1.8052793 4288085770
9.2473965 4.7867436 -0.73337787 4293729569
8.2180328 4.2343955 -1.7236936 4288085770
10.100521 5.2098999 -0.28470117 4293729569
6.9471641 3.573966 -1.7796572 4288085770
7.1861405 3.6900465 -1.7690228 4288085770
4.1785002 2.1332364 -1.8042167 4288085770
9.0209398 4.6145883 -1.7239016 4288085770
8.4370155 4.3084531 -1.7199603 4288085770
9.3493834 4.7736907 -0.76740158 4293729569
7.1051545 3.6190093 -1.7758321 4288085770
10.069527 5.1218228 -0.31449917 4293729569
4.1735044 2.1082299 -1.8051614 4288085770
7.1951494 3.6400287 -1.7759217 4288085770
8.7009916 4.4025092 -1.7222921 4288085770
7.2511492 3.6540573 -1.7679796 4288085770
8.9629641 4.5175729 -1.7216672 4288085770
9.4443693 4.7546334 -0.80240893 4293729569
4.1805053 2.0892155 -1.811125 4288085770
8.9279776 4.474575 -1.7155586 4288085770
10.037534 5.0317469 -0.34329247 4293729569
7.4381361 3.709101 -1.7671901 4288085770
7.2001572 3.5870113 -1.7818122 4288085770
4.1775107 2.0652113 -1.8110729 4288085770
8.9289827 4.4325571 -1.7224703 4288085770
9.215951 4.5746365 -1.7179153 4288085770
9.5493565 4.7385807 -0.83642787 4293729569
7.618125 3.7581463 -1.7643845 4288085770
10.028539 4.9536791 -0.3711229 4293729569
9.567915 4.700696 -1.7283589 4288085770
7.1921701 3.5269995 -1.7836814 4288085770
4.1725163 2.0382087 -1.8100135 4288085770
8.9329939 4.3675346 -1.730335 4288085770
9.6843376 4.7365289 -0.87349159 4293729569
7.8021145 3.8051951 -1.7605766 4288085770
10.023542 4.8776121 -0.39895961 4293729569
9.8938856 4.8117657 -1.7307577 4288085770
4.1815181 2.0191987 -1.8139782 4288085770
7.2031789 3.4769845 -1.7895814 4288085770
7.9741096 3.8442535 -1.7507459 4288085770
9.8193197 4.7304769 -0.91054684 4293729569
8.9000139 4.2825217 -1.7301387 4288085770
10.233858 4.9238391 -1.7331659 4288085770
4.1805234 1.9941947 -1.8139251 4288085770
10.795442 5.1746697 -0.45697647 4293729569
8.1611032 3.888309 -1.7439333 4288085770
10.576832 5.0329218 -1.7315694 4288085770
7.2111878 3.42397 -1.7944736 4288085770
9.9553022 4.7234259 -0.94760066 4293729569
8.8730326 4.2005062 -1.7309518 4288085770
4.1825285 1.970191 -1.8138756 4288085770
10.831443 5.1116085 -0.4868615 4293729569
8.3620939 3.9363656 -1.7381364 4288085770
10.70785 5.0370278 -1.693644 4288085770
7.200202 3.3629637 -1.7933395 4288085770
4.185533 1.9461882 -1.8138267 4288085770
10.096285 4.715374 -0.98465496 4293729569
8.8850441 4.1384912 -1.7368271 4288085770
8.5790815 3.9884214 -1.7343558 4288085770
10.344962 4.8091764 -1.5799795 4293729569
10.839446 5.0345445 -0.51470292 4293729569
4.1915369 1.9221833 -1.8147793 4288085770
7.1972146 3.3049552 -1.7942157 4288085770
10.247267 4.7103238 -1.0227207 4293729569
10.261018 4.7132926 -1.5127348 4293729569
8.840064 4.0564775 -1.7356315 4288085770
8.884058 4.0684762 -1.7406789 4288085770
11.074421 5.0605154 -0.55187649 4293729569
4.2005415 1.9001813 -1.8147377 4288085770
10.448027 4.7403955 -1.4828864 4293729569
9.1050472 4.1235356 -1.7359068 4288085770
7.212224 3.2549448 -1.7981179 4288085770
10.417246 4.7102757 -1.0618064 4293729569
8.8860722 4.0004644 -1.7435366 4288085770
10.706476 4.8104043 -0.55916303 4293729569
4.2125449 1.8781756 -1.8166977 4288085770
10.634035 4.7634988 -1.4530294 4293729569
9.3520365 4.1786017 -1.7301481 4288085770
3.6876125 1.6290816 -1.7999068 4288085770
10.582228 4.706224 -1.1018816 4293729569
7.2192349 3.2009382 -1.7990078 4288085770
8.8830881 3.9304533 -1.7453877 4288085770
3.7695992 1.6580746 -1.8120097 4288085770
10.721063 4.7406073 -1.409025 4293729569
4.2145514 1.8521782 -1.8136442 4288085770
10.815469 4.7773595 -0.5891487 4293729569
9.609025 4.2346697 -1.7253965 4288085770
3.8275948 1.6760893 -1.8110772 4288085770
3.8895898 1.6951026 -1.8111488 4288085770
3.8305969 1.6650878 -1.8110557 4288085770
3.778604 1.6420817 -1.8079809 4288085770
3.7336085 1.6220688 -1.8089159 4288085770
3.8775926 1.685101 -1.8101215 4288085770
3.7116058 1.6120424 -1.8188837 4288085770
10.757207 4.703177 -1.1409639 4293729569
3.9365854 1.7091085 -1.8132021 4288085770
10.819089 4.720716 -1.3660327 4293729569
7.2102513 3.1399367 -1.7958751 4288085770
3.9855816 1.728124 -1.8112671 4288085770
3.9675808 1.7201068 -1.817241 4288085770
4.0625696 1.759123 -1.8203714 4288085770
4.2275548 1.8301748 -1.8146045 4288085770
8.9010992 3.868443 -1.7492664 4288085770
4.1105671 1.7771426 -1.8164338 4288085770
9.851018 4.2807441 -1.715616 4288085770
10.984454 4.7693248 -0.62121749 4293729569
4.0445714 1.7441132 -1.8223306 4288085770
4.1715617 1.7991562 -1.816511 4288085770
4.2365561 1.823171 -1.8165946 4288085770
4.2945518 1.8421904 -1.8136642 4288085770
4.1105685 1.7621316 -1.8204023 4288085770
10.95711 4.714828 -1.3260903 4293729569
4.3545494 1.8622122 -1.8097366 4288085770
10.937189 4.7001309 -1.1800489 4293729569
4.2475567 1.8111669 -1.8185751 4288085770
4.4215446 1.8852315 -1.8078192 4288085770
4.1845622 1.7831454 -1.8214842 4288085770
10.204993 4.3698125 -1.7209833 4288085770
7.2042661 3.0799356 -1.7927458 4288085770
3.6636255 1.5580587 -1.8027461 4288085770
8.9061146 3.801434 -1.7511278 4288085770
4.5095344 1.9152406 -1.8129271 4288085770
11.08745 4.7292814 -0.65018553 4293729569
4.2605557 1.8041595 -1.822567 4288085770
4.5835295 1.9382594 -1.8120133 4288085770
11.085134 4.703938 -1.2861322 4293729569
4.6655226 1.9642775 -1.8121097 4288085770
4.3355517 1.8231796 -1.8206452 4288085770
4.2655602 1.7901646 -1.8195403 4288085770
11.130168 4.6980834 -1.2211426 4293729569
10.526976 4.440886 -1.7202964 4288085770
3.7016206 1.54804 -1.8137444 4288085770
4.7465172 1.9892998 -1.8102034 4288085770
7.203279 3.0239336 -1.7906276 4288085770
4.4075484 1.8402011 -1.8177177 4288085770
8.9311256 3.7424271 -1.7540166 4288085770
4.8215141 2.0103266 -1.8052859 4288085770
11.252437 4.7132478 -0.68123567 4293729569
11.238153 4.7000508 -1.2472018 4293729569
4.4785471 1.8562264 -1.8127877 4288085770
4.9145064 2.0383453 -1.8063922 4288085770
10.908952 4.5329609 -1.725684 4288085770
4.2805648 1.7671635 -1.8194999 4288085770
11.354142 4.7070351 -1.2662754 4293729569
5.0035009 2.0633688 -1.8044901 4288085770
3.7146254 1.5270426 -1.8117073 4288085770
4.562542 1.8772466 -1.8118747 4288085770
7.2102919 2.9699316 -1.789518 4288085770
11.372176 4.6871614 -1.2072426 4293729569
5.0824995 2.0834026 -1.7965724 4288085770
8.9791317 3.6924131 -1.762936 4288085770
11.412426 4.6932154 -0.71127498 4293729569
4.6545353 1.899264 -1.8129679 4288085770
11.329921 4.6360393 -1.7341148 4288085770
5.1844926 2.1124253 -1.7966855 4288085770
4.2975683 1.7451609 -1.8204625 4288085770
3.7356279 1.5090407 -1.8126806 4288085770
11.549123 4.6989899 -1.3063579 4293729569
4.7395315 1.9182882 -1.8100512 4288085770
5.2924848 2.141449 -1.7968014 4288085770
11.530196 4.6812758 -1.1683106 4293729569
7.2213044 2.9169304 -1.7884123 4288085770
9.014143 3.6364071 -1.7668363 4288085770
5.4054766 2.1734722 -1.7979263 4288085770
11.62641 4.6921873 -0.74538183 4293729569
4.8345256 1.9403083 -1.8101459 4288085770
11.767891 4.73912 -1.7425544 4288085770
4.3155727 1.7231605 -1.8204257 4288085770
5.5284672 2.2064948 -1.8000585 4288085770
3.7496331 1.4880435 -1.8106439 4288085770
4.9175243 1.9563384 -1.8042221 4288085770
11.665222 4.6623902 -1.1263397 4293729569
11.730106 4.6839466 -1.3444183 4293729569
5.6304641 2.2305317 -1.793161 4288085770
7.2453136 2.8689277 -1.7893239 4288085770
11.874921 4.7052283 -1.7005377 4288085770
9.0661507 3.5863981 -1.7737579 4288085770
5.0245175 1.9803588 -1.8053272 4288085770
11.820395 4.6801586 -0.77745545 4293729569
4.3425736 1.7041559 -1.8234 4288085770
5.7484579 2.2595618 -1.7912822 4288085770
11.915233 4.6885118 -1.0945218 4293729569
3.7726352 1.4690418 -1.8116161 4288085770
5.1275129 2.0013852 -1.8034239 4288085770
12.021073 4.7089009 -1.3956193 4293729569
5.861454 2.2845991 -1.7853924 4288085770
12.005945 4.6783357 -1.6615478 4293729569
7.267324 2.8199248 -1.7902325 4288085770
5.2335067 2.0234096 -1.8025244 4288085770
12.011383 4.6631312 -0.80851716 4293729569
9.1301565 3.5393903 -1.781692 4288085770
4.3605785 1.6811576 -1.822361 4288085770
6.0024443 2.3196278 -1.7865379 4288085770
12.227235 4.7336359 -1.0677756 4293729569
3.7966383 1.4510407 -1.8125908 4288085770
6.1474361 2.3546598 -1.7866855 4288085770
5.3495011 2.0464342 -1.8026321 4288085770
12.264051 4.7098589 -1.4397452 4293729569
12.194963 4.6724391 -1.630632 4293729569
7.2973332 2.7739236 -1.7911516 4288085770
4.3805833 1.6591597 -1.8213255 4288085770
6.2974267 2.3906927 -1.7868376 4288085770
12.320267 4.6917486 -1.0217352 4293729569
9.1921625 3.4923835 -1.7886251 4288085770
12.247367 4.6591101 -0.84162921 4293729569
5.4544983 2.0654669 -1.7977257 4288085770
3.8196411 1.432041 -1.8125632 4288085770
6.4484186 2.4247298 -1.7849864 4288085770
13.527805 5.0935144 -1.7441953 4288085770
14.563722 5.4828019 -1.7255402 4288085770
5.5754924 2.0884945 -1.7968358 4288085770
12.411302 4.6468635 -0.97468746 4293729569
4.4055877 1.6371607 -1.8212926 4288085770
6.60741 2.4597669 -1.7841409 4288085770
7.3243432 2.7259221 -1.7920651 4288085770
12.621334 4.7061028 -0.88391882 4293729569
9.2471724 3.4393814 -1.7925423 4288085770
5.7124844 2.1155198 -1.7989626 4288085770
3.8406451 1.4120432 -1.8115324 4288085770
14.016782 5.1866255 -1.7436402 4288085770
6.7933969 2.5037997 -1.7883285 4288085770
14.506747 5.3497596 -1.7352324 4288085770
5.8344812 2.136554 -1.7950692 4288085770
4.4325905 1.61616 -1.8222628 4288085770
6.9723878 2.542841 -1.7875018 4288085770
7.3643503 2.6829214 -1.7939957 4288085770
9.3041821 3.3883798 -1.7964649 4288085770
14.521761 5.274745 -1.7410829 4288085770
5.9664755 2.158586 -1.7931831 4288085770
3.8716466 1.3950412 -1.8135129 4288085770
7.1513796 2.5798864 -1.7846711 4288085770
14.498766 5.2367172 -1.7509915 4288085770
4.4595947 1.5951637 -1.8212328 4288085770
6.1114688 2.184617 -1.7933118 4288085770
7.342371 2.6189327 -1.7828507 4288085770
7.4063592 2.6389203 -1.7959253 4288085770
9.3481932 3.3313823 -1.7973683 4288085770
15.057739 5.3678699 -1.7395519 4288085770
3.8986497 1.3760426 -1.8134873 4288085770
6.258462 2.2096508 -1.7924397 4288085770
14.466789 5.1136808 -1.7607175 4288085770
7.5563579 2.663976 -1.7850546 4288085770
4.4825993 1.5721663 -1.8201969 4288085770
15.60672 5.4579992 -1.7370214 4288085770
6.4094572 2.232687 -1.7905653 4288085770
7.4363699 2.5919235 -1.7948427 4288085770
7.7953429 2.7160189 -1.7902859 4288085770
9.3872089 3.2723889 -1.795265 4288085770
3.9256527 1.358044 -1.8134639 4288085770
14.410816 4.9836445 -1.7674171 4288085770
4.5196013 1.5531659 -1.8221763 4288085770
6.5724497 2.2597198 -1.7917055 4288085770
8.0083342 2.7550743 -1.7864769 4288085770
16.1917 5.5521383 -1.733518 4288085770
7.4733796 2.5459256 -1.7947657 4288085770
9.4402199 3.2173946 -1.7951773 4288085770
3.9586546 1.3400425 -1.8154436 4288085770
8.2513227 2.8031256 -1.7877021 4288085770
6.7324443 2.2837603 -1.7888379 4288085770
4.5586033 1.5351638 -1.8251591 4288085770
14.360844 4.8566151 -1.7721258 4288085770
8.4883137 2.8461845 -1.7849137 4288085770
16.797678 5.6442823 -1.7300211 4288085770
6.9154358 2.3127954 -1.7909927 4288085770
3.9986546 1.3250384 -1.8194331 4288085770
7.530386 2.506927 -1.7977135 4288085770
9.4952326 3.1634011 -1.7950928 4288085770
4.5956054 1.5151652 -1.8261367 4288085770
8.763299 2.8992434 -1.7861657 4288085770
7.1014276 2.3408337 -1.7921467 4288085770
14.269877 4.716588 -1.7707868 4288085770
17.467655 5.7494354 -1.7295846 4288085770
9.0642824 2.9572997 -1.7914416 4288085770
4.0356555 1.3080379 -1.821417 4288085770
9.5732403 3.1154063 -1.7980329 4288085770
7.5643978 2.4589348 -1.7946312 4288085770
7.2764235 2.3628795 -1.7882829 4288085770
4.6336083 1.4961673 -1.8271167 4288085770
14.03593 4.532567 -1.7502824 4288085770
9.368268 3.0133653 -1.7927147 4288085770
18.191628 5.8615961 -1.7311901 4288085770
7.4954119 2.3969164 -1.7934666 4288085770
4.066659 1.2890402 -1.8213937 4288085770
7.6124067 2.41694 -1.7945685 4288085770
9.6552496 3.0684152 -1.7999772 4288085770
4.6676121 1.4751723 -1.8260908 4288085770
9.6862526 3.0704341 -1.7939974 4288085770
7.6834083 2.4189649 -1.7896093 4288085770
13.829978 4.360549 -1.7318177 4288085770
18.9396 5.9727659 -1.7308064 4288085770
10.016238 3.1265051 -1.795284 4288085770
4.112659 1.2740353 -1.8263865 4288085770
4.6996179 1.4521811 -1.8230597 4288085770
9.7322598 3.0194244 -1.8009149 4288085770
7.6804123 2.3789432 -1.7975246 4288085770
7.8994007 2.4470119 -1.7897789 4288085770
19.74757 6.0929427 -1.7344723 4288085770
10.421213 3.2035754 -1.8056531 4288085770
13.773008 4.2365303 -1.7305299 4288085770
8.1223927 2.4740617 -1.7889503 4288085770
4.1506615 1.2560391 -1.8263688 4288085770
4.7356229 1.4301864 -1.8220327 4288085770
9.8152704 2.9694374 -1.8008535 4288085770
7.7414203 2.3389473 -1.7994729 4288085770
10.7782 3.2596612 -1.8029538 4288085770
8.3613844 2.5041118 -1.790136 4288085770
13.831023 4.1485128 -1.7413765 4288085770
11.148188 3.315752 -1.7992611 4288085770
4.2006607 1.2410352 -1.8313637 4288085770
4.7806253 1.4111899 -1.8230166 4288085770
9.8962812 2.9204497 -1.8007934 4288085770
7.7734332 2.2899632 -1.7923875 4288085770
8.5943785 2.5281682 -1.7873063 4288085770
11.52218 3.3678496 -1.7925625 4288085770
13.855042 4.0504975 -1.747185 4288085770
4.2316656 1.2210437 -1.8283385 4288085770
4.8186307 1.3892 -1.8199909 4288085770
8.8513718 2.5562236 -1.7874973 4288085770
9.9712944 2.8674688 -1.7967221 4288085770
7.8534389 2.253967 -1.7963543 4288085770
11.91817 3.4229522 -1.7858812 4288085770
13.880062 3.9524856 -1.751994 4288085770
9.1093674 2.581284 -1.7856826 4288085770
4.2796664 1.2040435 -1.8313282 4288085770
4.8676333 1.3702043 -1.820977 4288085770
12.359156 3.4860592 -1.7822398 4288085770
10.078302 2.8244848 -1.797688 4288085770
7.9134483 2.2129793 -1.7943003 4288085770
9.4073553 2.6153424 -1.7889071 4288085770
13.945077 3.8664765 -1.7598488 4288085770
12.813144 3.5461709 -1.777599 4288085770
4.3196702 1.1850498 -1.8303097 4288085770
4.9096384 1.3482153 -1.8179533 4288085770
3.6787505 1.0020516 -1.7565987 4288085770
3.853714 1.0459847 -1.8077805 4288085770
10.179313 2.776504 -1.7966408 4288085770
3.8167236 1.0340049 -1.7937366 4288085770
3.7697239 1.0209816 -1.7996854 4288085770
9.6873493 2.6404076 -1.787104 4288085770
3.8997135 1.0560035 -1.8038251 4288085770
8.0084534 2.1789846 -1.7992787 4288085770
3.9627097 1.072018 -1.8038908 4288085770
4.0477009 1.094021 -1.8119804 4288085770
3.921711 1.0590018 -1.8068427 4288085770
4.1306925 1.1140274 -1.818065 4288085770
13.340125 3.6212912 -1.7770272 4288085770
4.214685 1.1350362 -1.8231521 4288085770
4.0097036 1.0770086 -1.8129256 4288085770
4.289681 1.1520531 -1.8232261 4288085770
14.052088 3.7894685 -1.771744 4288085770
4.364677 1.1690744 -1.8213003 4288085770
4.1036935 1.097011 -1.8220159 4288085770
4.9636402 1.3292186 -1.819942 4288085770
4.3636742 1.167057 -1.8292955 4288085770
4.4416738 1.1860961 -1.8193753 4288085770
4.5256701 1.2041149 -1.8194562 4288085770
4.1876888 1.1130251 -1.8240924 4288085770
10.01234 2.6734724 -1.7903407 4288085770
4.6186633 1.2251318 -1.8215477 4288085770
13.930102 3.7074153 -1.7815108 4288085770
4.2766829 1.1300386 -1.8271738 4288085770
10.30232 2.7345219 -1.7986172 4288085770
4.7016611 1.2411566 -1.8186241 4288085770
8.0754614 2.1370003 -1.7962265 4288085770
4.8016558 1.262177 -1.8197194 4288085770
4.3456826 1.1400659 -1.8212303 4288085770
4.8886533 1.2782047 -1.8157978 4288085770
5.0206428 1.3112247 -1.8209345 4288085770
4.4436765 1.158079 -1.8253186 4288085770
14.22809 3.7294624 -1.7907104 4288085770
4.3986793 1.1450684 -1.8252683 4288085770
10.35333 2.7065387 -1.7945855 4288085770
5.0086436 1.302219 -1.8219095 4288085770
14.511085 3.7835522 -1.7789689 4288085770
4.5346723 1.1730989 -1.8253968 4288085770
5.0996437 1.3182516 -1.8159901 4288085770
10.437329 2.6935449 -1.7996022 4288085770
5.211638 1.3392767 -1.8160917 4288085770
4.6296682 1.1881196 -1.8254772 4288085770
8.1594696 2.0990138 -1.7961913 4288085770
5.3176355 1.3573084 -1.812184 4288085770
4.7236652 1.203142 -1.8245569 4288085770
10.722317 2.7436092 -1.7998532 4288085770
5.0716476 1.2892354 -1.8189156 4288085770
4.4526806 1.1290717 -1.8272635 4288085770
15.140066 3.8646953 -1.7784624 4288085770
5.4506269 1.3813297 -1.8163027 4288085770
14.379098 3.6604581 -1.8056455 4288085770
4.8236609 1.218166 -1.8236401 4288085770
5.5876188 1.4053518 -1.8204232 4288085770
4.9276571 1.2331885 -1.8237252 4288085770
10.585337 2.6545682 -1.8015981 4288085770
5.7316113 1.4303775 -1.8235497 4288085770
11.083309 2.7726841 -1.8021005 4288085770
8.2614756 2.0640247 -1.7991718 4288085770
15.779049 3.9408512 -1.7729508 4288085770
5.0336542 1.2482156 -1.8218111 4288085770
5.1266508 1.2702454 -1.8179051 4288085770
5.8626065 1.4514107 -1.8216612 4288085770
4.4956846 1.1090809 -1.8252445 4288085770
14.543107 3.5924592 -1.8195894 4288085770
5.1406517 1.2622429 -1.8198957 4288085770
6.0145998 1.4754401 -1.8237898 4288085770
11.432302 2.7947659 -1.7993269 4288085770
16.426039 4.0120173 -1.763433 4288085770
5.2596474 1.2772685 -1.8199886 4288085770
6.1495976 1.4944825 -1.8178991 4288085770
10.750341 2.6185915 -1.805609 4288085770
8.3384848 2.0230427 -1.7961271 4288085770
5.1896539 1.251253 -1.8188986 4288085770
6.3025923 1.5175184 -1.8170263 4288085770
4.5546861 1.0930853 -1.8272424 4288085770
5.3876419 1.2942921 -1.8220903 4288085770
14.736112 3.5314608 -1.836563 4288085770
6.4695854 1.5415554 -1.8171626 4288085770
5.5036397 1.3083235 -1.8191795 4288085770
11.814298 2.8198519 -1.7985767 4288085770
17.211016 4.1061959 -1.7630342 4288085770
6.6305819 1.5635971 -1.8142917 4288085770
10.90035 2.5766199 -1.8055999 4288085770
5.6516323 1.3273451 -1.8242956 4288085770
8.4444914 1.9880571 -1.7981097 4288085770
5.2576561 1.2332616 -1.8198969 4288085770
4.6126876 1.0760897 -1.8292375 4288085770
6.7925787 1.5846434 -1.8094192 4288085770
5.8026247 1.3463718 -1.8274133 4288085770
12.203292 2.840941 -1.7968218 4288085770
17.999996 4.1923857 -1.7576212 4288085770
14.960114 3.4734676 -1.8545589 4288085770
6.9715748 1.6066887 -1.8065577 4288085770
5.9496198 1.3634018 -1.8285248 4288085770
11.069358 2.5376523 -1.8056068 4288085770
5.3036633 1.2102799 -1.8138734 4288085770
8.5664968 1.9550729 -1.8011049 4288085770
7.1725674 1.6337311 -1.8077179 4288085770
4.6636915 1.0581009 -1.8272271 4288085770
12.629286 2.8660362 -1.7960945 4288085770
18.748989 4.2585888 -1.7411461 4288085770
6.0866184 1.3754395 -1.8246211 4288085770
7.3695636 1.6567829 -1.8038678 4288085770
15.154122 3.4064777 -1.8675209 4288085770
6.2536111 1.3944676 -1.828747 4288085770
5.385663 1.1942858 -1.8178831 4288085770
7.5875559 1.6838312 -1.8040367 4288085770
11.248365 2.4976869 -1.8056171 4288085770
4.7126966 1.0381156 -1.8232116 4288085770
8.6974993 1.9220886 -1.8051047 4288085770
13.180267 2.9131291 -1.8104776 4288085770
6.4166074 1.4095048 -1.8278627 4288085770
7.8125505 1.7098851 -1.8022074 4288085770
15.314135 3.3314905 -1.8754488 4288085770
6.5706062 1.4225464 -1.8239696 4288085770
5.4566665 1.1752993 -1.8168812 4288085770
8.0525446 1.7369403 -1.8013878 4288085770
11.451371 2.4627211 -1.8086504 4288085770
13.808241 2.9692252 -1.8319193 4288085770
4.7696996 1.0191258 -1.8222022 4288085770
8.8335047 1.8901076 -1.8081095 4288085770
6.7486014 1.438585 -1.8240952 4288085770
8.3255329 1.7689925 -1.8055959 4288085770
6.9036026 1.4476347 -1.8161945 4288085770
5.5386682 1.1583071 -1.8198889 4288085770
15.47515 3.2515092 -1.8803673 4288085770
8.6145239 1.8030485 -1.8098162 4288085770
14.588204 3.0483267 -1.8674875 4288085770
4.8307028 1.0011371 -1.821197 4288085770
11.650379 2.4247632 -1.8076754 4288085770
8.9765081 1.8581264 -1.8121178 4288085770
7.0796013 1.4596812 -1.8123109 4288085770
8.9065151 1.8331109 -1.8110299 4288085770
5.6176715 1.1393203 -1.819891 4288085770
7.292594 1.4777212 -1.8154588 4288085770
15.240186 3.0914445 -1.8809149 4288085770
9.2574987 1.8741705 -1.820297 4288085770
15.607169 3.1635315 -1.8802541 4288085770
4.8897076 0.9821521 -1.8181889 4288085770
11.863387 2.3878052 -1.8077098 4288085770
9.1485081 1.8301432 -1.8201498 4288085770
7.4865928 1.4897693 -1.8125846 4288085770
9.5244999 1.8942523 -1.8094771 4288085770
5.7026734 1.121335 -1.8198982 4288085770
15.763184 3.1025698 -1.8762095 4288085770
4.9487128 0.96316719 -1.8151807 4288085770
7.7245855 1.5078151 -1.8157456 4288085770
9.8554926 1.9243298 -1.8077112 4288085770
15.781184 3.0855558 -1.8841838 4288085770
12.099393 2.3528514 -1.8087603 4288085770
9.3075142 1.7981676 -1.8231665 4288085770
7.9695787 1.5258622 -1.8189101 4288085770
10.24748 1.9634089 -1.8119955 4288085770
5.8056736 1.1063436 -1.8249211 4288085770
16.313183 3.1097007 -1.8715098 4288085770
5.0147157 0.94517958 -1.8141781 4288085770
15.923205 2.9975851 -1.8820761 4288085770
8.2315712 1.5439112 -1.8230836 4288085770
10.64247 1.9984927 -1.8142731 4288085770
12.3524 2.3179009 -1.8098198 4288085770
9.4755182 1.766194 -1.8261881 4288085770
5.8886776 1.0863621 -1.8229234 4288085770
16.784195 3.0948381 -1.8547239 4288085770
11.06546 2.0355852 -1.8155696 4288085770
8.4975662 1.5599629 -1.8262553 4288085770
5.0897179 0.92819023 -1.8151824 4288085770
16.080225 2.9116192 -1.8789808 4288085770
12.625407 2.2829576 -1.8098899 4288085770
11.479454 2.066685 -1.8118489 4288085770
8.8075562 1.5810143 -1.8344597 4288085770
9.6425257 1.7312262 -1.8262031 4288085770
5.9746814 1.0673814 -1.8209294 4288085770
17.225214 3.0679789 -1.8328978 4288085770
5.1707201 0.91220212 -1.8161919 4288085770
11.926449 2.0997927 -1.8081495 4288085770
9.0955515 1.5950751 -1.8356386 4288085770
12.917413 2.250016 -1.810974 4288085770
16.248245 2.8276565 -1.8758951 4288085770
6.0906806 1.0523931 -1.8259592 4288085770
9.8285294 1.6992546 -1.8302343 4288085770
12.405441 2.1329079 -1.8044668 4288085770
17.767221 3.0531237 -1.8201491 4288085770
9.365551 1.6031462 -1.8297956 4288085770
5.2447233 0.89421868 -1.8141938 4288085770
12.946432 2.1710303 -1.8038268 4288085770
13.251416 2.2210801 -1.8140883 4288085770
6.1966834 1.0344105 -1.8269776 4288085770
9.6865463 1.6172143 -1.8309919 4288085770
16.40727 2.7386999 -1.8687949 4288085770
10.006537 1.6632937 -1.8282531 4288085770
5.3367243 0.87822902 -1.8172091 4288085770
18.460218 3.0562761 -1.8205161 4288085770
13.565418 2.2181587 -1.8092458 4288085770
9.9935465 1.6242894 -1.8271663 4288085770
6.3086858 1.0164295 -1.8279992 4288085770
13.605419 2.1921489 -1.8172133 4288085770
10.235539 1.6343278 -1.834313 4288085770
16.59429 2.6527455 -1.8637155 4288085770
5.4237261 0.86124432 -1.8172199 4288085770
14.323395 2.2802956 -1.8257681 4288085770
19.244215 3.0644412 -1.8249407 4288085770
10.36254 1.639364 -1.8303894 4288085770
6.4206891 0.99845278 -1.8270208 4288085770
15.248361 2.360446 -1.8544145 4288085770
14.02342 2.1672232 -1.8243797 4288085770
10.739535 1.6504425 -1.8326087 4288085770
5.492734 0.84027016 -1.810213 4288085770
10.457544 1.6013664 -1.8373611 4288085770
16.768314 2.5617959 -1.8546194 4288085770
6.5396924 0.98047769 -1.8260462 4288085770
16.066345 2.4156148 -1.8619537 4288085770
11.123532 1.6595289 -1.8318273 4288085770
14.58541 2.1613023 -1.8456603 4288085770
5.5877366 0.82328749 -1.8102279 4288085770
10.694549 1.5694088 -1.8404189 4288085770
16.762346 2.4448011 -1.8473761 4288085770
16.989334 2.4778512 -1.848562 4288085770
6.653697 0.96150553 -1.8230668 4288085770
11.540529 1.6686181 -1.8330634 4288085770
5.6997366 0.80830038 -1.8142557 4288085770
15.165402 2.1513915 -1.8639423 4288085770
17.478348 2.4679983 -1.8297966 4288085770
10.949553 1.537455 -1.8434865 4288085770
11.94653 1.6707171 -1.8282791 4288085770
6.7697029 0.94153595 -1.8190866 4288085770
17.250355 2.3969138 -1.843532 4288085770
5.8027391 0.79131961 -1.8142748 4288085770
18.349344 2.5042155 -1.8193245 4288085770
15.730398 2.1344917 -1.8752019 4288085770
12.425526 1.6778184 -1.8305435 4288085770
11.215558 1.504506 -1.8455578 4288085770
6.8917084 0.92156994 -1.8141094 4288085770
5.2587643 0.69320548 -1.8067905 4288085770
5.1467671 0.67817771 -1.8077012 4288085770
5.3777614 0.70823479 -1.8058833 4288085770
5.5077572 0.72526264 -1.806986 4288085770
5.0327721 0.66215336 -1.806609 4288085770
4.9227757 0.64612997 -1.805519 4288085770
5.6407533 0.74129295 -1.8070881 4288085770
17.505377 2.3099825 -1.8344866 4288085770
5.9197402 0.77633798 -1.8163054 4288085770
5.7837486 0.75832343 -1.8081975 4288085770
4.8167801 0.6301074 -1.8044308 4288085770
19.442327 2.5614572 -1.8220115 4288085770
4.7987771 0.62708855 -1.8114152 4288085770
5.9367433 0.77635407 -1.8103143 4288085770
4.8967757 0.63811696 -1.808489 4288085770
6.0937376 0.79438579 -1.812433 4288085770
5.0097723 0.65014052 -1.8095727 4288085770
6.2357378 0.80942833 -1.8075379 4288085770
5.1317677 0.66416407 -1.8116648 4288085770
12.945521 1.6849245 -1.8348291 4288085770
6.4457259 0.83145297 -1.8186926 4288085770
16.239407 2.1036036 -1.874404 4288085770
5.2507648 0.67519057 -1.8117496 4288085770
7.0517092 0.90659595 -1.8171623 4288085770
5.367764 0.68722332 -1.8088351 4288085770
6.609724 0.8474983 -1.814811 4288085770
11.499562 1.471561 -1.8476385 4288085770
6.7927194 0.86553967 -1.8149433 4288085770
5.5107589 0.70024705 -1.8129365 4288085770
6.9647198 0.88059282 -1.808064 4288085770
5.6397572 0.71128213 -1.8100264 4288085770
6.0507393 0.76135135 -1.8223432 4288085770
5.7777548 0.72331715 -1.8081229 4288085770
7.1747146 0.89864004 -1.8082104 4288085770
13.514515 1.6930376 -1.8411424 4288085770
17.794401 2.2270558 -1.8274674 4288085770
5.9337506 0.73634577 -1.8112311 4288085770
7.3847108 0.9166894 -1.8073568 4288085770
7.1987128 0.88862741 -1.8162025 4288085770
6.0927463 0.74837923 -1.8123387 4288085770
16.742416 2.0667267 -1.8675905 4288085770
7.599709 0.93374598 -1.8035039 4288085770
11.774571 1.4356221 -1.8457085 4288085770
6.27774 0.76240802 -1.8184639 4288085770
7.8796983 0.95679021 -1.8126972 4288085770
6.1517448 0.74238253 -1.8163573 4288085770
6.4387388 0.77345216 -1.8145705 4288085770
8.1596909 0.97884464 -1.8168885 4288085770
14.196504 1.7071596 -1.8555269 4288085770
6.6247349 0.78548932 -1.8166922 4288085770
7.3567166 0.87066126 -1.8152483 4288085770
8.4366865 0.99890685 -1.8170739 4288085770
18.28241 2.1641405 -1.8365929 4288085770
6.8017335 0.79553485 -1.8138052 4288085770
17.24943 2.0258589 -1.8567715 4288085770
8.7606764 1.0229673 -1.8232923 4288085770
6.2857456 0.7274009 -1.8203967 4288085770
12.093577 1.400687 -1.8468033 4288085770
6.9977312 0.80658042 -1.8129301 4288085770
15.017484 1.7302861 -1.8830028 4288085770
9.0746717 1.0430375 -1.8234969 4288085770
7.5337181 0.85469544 -1.8163081 4288085770
7.1947303 0.81563008 -1.8100514 4288085770
9.4336615 1.0671079 -1.8287336 4288085770
7.4047294 0.82568288 -1.8071816 4288085770
18.760422 2.0942316 -1.8416992 4288085770
17.832443 1.9890041 -1.848 4288085770
9.8176556 1.0911876 -1.8319833 4288085770
6.395752 0.70843446 -1.8144156 4288085770
15.764475 1.7354287 -1.8944027 4288085770
12.436584 1.3667575 -1.847913 4288085770
7.664722 0.83872604 -1.8143439 4288085770
10.206649 1.113273 -1.8332314 4288085770
7.7217193 0.83872998 -1.8183738 4288085770
7.9067192 0.8487817 -1.8134909 4288085770
10.659639 1.139362 -1.8395211 4288085770
6.5237565 0.69046569 -1.8114457 4288085770
18.595446 1.9641697 -1.8493472 4288085770
8.1947126 0.86183321 -1.8196679 4288085770
16.418482 1.7215853 -1.8887157 4288085770
19.282436 2.0223346 -1.8458244 4288085770
11.141631 1.1654596 -1.844826 4288085770
7.9127221 0.8217696 -1.8184389 4288085770
12.835587 1.3348323 -1.853056 4288085770
8.4427128 0.86890054 -1.8138119 4288085770
11.623625 1.1885698 -1.8441248 4288085770
6.6577611 0.67249858 -1.8084792 4288085770
8.7607069 0.8809607 -1.8190025 4288085770
12.116622 1.2096906 -1.8394252 4288085770
19.44945 1.9413497 -1.8537462 4288085770
17.014494 1.6947528 -1.8709719 4288085770
8.1427221 0.80780768 -1.8235306 4288085770
9.0597067 0.88803291 -1.8161731 4288085770
13.356583 1.309908 -1.871277 4288085770
19.825451 1.9464462 -1.8479527 4288085770
12.73861 1.2388155 -1.8468093 4288085770
6.815762 0.65752661 -1.8105315 4288085770
9.4216995 0.89910293 -1.8213847 4288085770
8.3387289 0.78885865 -1.8185943 4288085770
13.485592 1.2759504 -1.8632751 4288085770
17.726503 1.671928 -1.8622966 4288085770
9.806694 0.91017389 -1.8286083 4288085770
13.872581 1.2809969 -1.8824874 4288085770
6.9977617 0.64255393 -1.8155961 4288085770
14.335571 1.3170961 -1.8858027 4288085770
8.574729 0.7729044 -1.8206853 4288085770
10.192692 0.91725743 -1.8298243 4288085770
15.308546 1.3632613 -1.9124049 4288085770
18.642504 1.6561203 -1.8677425 4288085770
7.1767626 0.62658465 -1.818657 4288085770
10.639684 0.92734218 -1.8370782 4288085770
14.516572 1.2590902 -1.905779 4288085770
16.15554 1.3904535 -1.9119024 4288085770
8.8597269 0.75895095 -1.8278056 4288085770
11.111679 0.93543458 -1.8433412 4288085770
19.584505 1.6333266 -1.8691877 4288085770
7.3707633 0.61061883 -1.821726 4288085770
16.912546 1.4046664 -1.8913267 4288085770
9.1167316 0.74200964 -1.8259054 4288085770
11.536681 0.93554306 -1.8365635 4288085770
15.15857 1.2291995 -1.9210533 4282675967
17.767553 1.4208952 -1.873806 4288085770
4.9648185 0.39308545 -1.8110266 4288085770
7.5467687 0.59366357 -1.8177836 4288085770
12.067677 0.94065058 -1.8418511 4288085770
9.4347296 0.72806382 -1.8330431 4288085770
18.915545 1.4521552 -1.8734691 4288085770
5.063818 0.38009638 -1.8150519 4288085770
15.800572 1.1943231 -1.9293172 4282675967
12.604677 0.94177377 -1.8401339 4288085770
7.7567706 0.5777036 -1.8198608 4288085770
9.7917271 0.71612275 -1.8422055 4288085770
5.1588202 0.36611477 -1.8150734 4288085770
13.26967 0.94790125 -1.8504938 4288085770
7.9727726 0.56074905 -1.8199394 4288085770
16.395582 1.1504587 -1.9265388 4282675967
10.117729 0.6981951 -1.8413393 4288085770
14.051657 0.95503843 -1.8689167 4288085770
5.2568221 0.35213378 -1.8150963 4288085770
8.2137747 0.5447942 -1.8230326 4288085770
10.534727 0.68626547 -1.8515328 4288085770
16.927605 1.0966129 -1.9077069 4288085770
14.936643 0.96219051 -1.8913934 4288085770
5.3498259 0.33715799 -1.8121145 4288085770
8.4547768 0.52784753 -1.8221242 4288085770
10.934727 0.67034864 -1.8537097 4288085770
15.87963 0.9663595 -1.9118946 4288085770
5.4528289 0.32318041 -1.8111402 4288085770
17.513624 1.0427775 -1.8899033 4288085770
8.7227793 0.5119009 -1.824232 4288085770
11.385728 0.65643525 -1.8599168 4288085770
16.614641 0.94955564 -1.896244 4288085770
5.561832 0.30820617 -1.8091669 4288085770
9.0267782 0.49695644 -1.8293606 4288085770
18.367634 0.99796355 -1.8912582 4288085770
11.924722 0.64552927 -1.8721764 4288085770
17.397657 0.92876434 -1.8796108 4288085770
4.9838376 0.25805527 -1.8167633 4288085770
5.6818337 0.29422837 -1.8102013 4288085770
9.337779 0.48101756 -1.8324907 4288085770
12.286737 0.62165141 -1.8513168 4288085770
18.397661 0.9099952 -1.8760951 4288085770
19.400639 0.95517325 -1.9007108 4288085770
5.0878401 0.24507397 -1.8177913 4288085770
5.8108354 0.28025267 -1.8112404 4288085770
9.6207886 0.46109709 -1.8235981 4288085770
12.833741 0.60577238 -1.8515704 4288085770
19.635658 0.89225686 -1.8837056 4288085770
5.1918416 0.2330949 -1.8178214 4288085770
5.9318385 0.26528132 -1.8092735 4288085770
10.002787 0.44616607 -1.8307675 4288085770
13.459741 0.58990669 -1.8538651 4288085770
9.8017969 0.42414406 -1.8186178 4288085770
9.4108038 0.40706357 -1.8143787 4288085770
10.330781 0.44621643 -1.841939 4288085770
9.0958052 0.39197949 -1.8201836 4288085770
10.712783 0.4603236 -1.8321671 4288085770
8.7578106 0.37490875 -1.8169724 4288085770
11.227775 0.47942778 -1.8384748 4288085770
8.4458132 0.35884172 -1.8147768 4288085770
11.761768 0.49754444 -1.8407907 4288085770
8.1578188 0.34277803 -1.8135937 4288085770
5.3028436 0.22011521 -1.8188534 4288085770
12.324766 0.51467574 -1.8391196 4288085770
6.0658417 0.25131106 -1.8083152 4288085770
7.8628268 0.32572713 -1.8054051 4288085770
10.395789 0.43024591 -1.8339405 4288085770
7.9918251 0.32774982 -1.8084766 4288085770
12.923764 0.53181946 -1.8354673 4288085770
7.7338266 0.31669122 -1.8083193 4288085770
7.497829 0.30663556 -1.8091756 4288085770
8.292819 0.3388055 -1.8146564 4288085770
7.2528334 0.29558602 -1.8060251 4288085770
7.6338272 0.31066623 -1.8092549 4288085770
14.202738 0.57805121 -1.8642294 4288085770
7.0398355 0.2845374 -1.8058916 4288085770
8.5898161 0.34787259 -1.8148297 4288085770
13.633758 0.55097151 -1.8398771 4288085770
6.8418365 0.27448806 -1.8077676 4288085770
8.9688072 0.35993129 -1.8280523 4288085770
7.396832 0.29561594 -1.8071005 4288085770
6.6358409 0.26244709 -1.8046358 4288085770
9.2548094 0.36701649 -1.8182162 4288085770
14.497745 0.5741396 -1.8533754 4288085770
7.1598372 0.27956969 -1.8029442 4288085770
9.5848103 0.37510327 -1.8124049 4288085770
6.4578424 0.25140411 -1.8055203 4288085770
15.543727 0.6013304 -1.8759772 4288085770
6.2098441 0.23734105 -1.8083622 4288085770
6.2878442 0.24036083 -1.807409 4288085770
9.9798079 0.38319007 -1.8136277 4288085770
5.4138465 0.20614177 -1.8168831 4288085770
6.9458418 0.26452437 -1.8008019 4288085770
10.807791 0.41333425 -1.8351215 4288085770
10.423805 0.39228177 -1.8178781 4288085770
6.1068492 0.22833148 -1.8012903 4288085770
15.116729 0.56920958 -1.8866889 4288085770
16.493723 0.62055087 -1.8735124 4288085770
6.7608438 0.2494773 -1.8026747 4288085770
5.9698482 0.21828523 -1.8081983 4288085770
10.922798 0.40037948 -1.8251553 4288085770
17.509724 0.63779855 -1.8650782 4288085770
6.5808463 0.23543343 -1.8035523 4288085770
5.8088527 0.20625612 -1.8040899 4288085770
11.480791 0.40948638 -1.8344654 4288085770
5.5328479 0.19416416 -1.8179212 4288085770
11.312787 0.39842504 -1.8453552 4288085770
6.3568463 0.22237161 -1.8084087 4288085770
18.820715 0.66207981 -1.8728124 4288085770
6.4018507 0.22039583 -1.8014283 4288085770
16.028727 0.55639648 -1.8951393 4288085770
5.6678548 0.19422311 -1.8039918 4288085770
12.034788 0.41560665 -1.8367672 4288085770
6.2378531 0.20635751 -1.8013142 4288085770
5.554853 0.18317986 -1.8119104 4288085770
12.618789 0.41974398 -1.8340807 4288085770
5.6488519 0.18119624 -1.8139557 4288085770
11.79979 0.38153043 -1.8465753 4288085770
6.5278468 0.20840156 -1.81147 4288085770
5.4258566 0.17215168 -1.8108207 4288085770
13.301784 0.42488912 -1.8384479 4288085770
16.903734 0.53860593 -1.8885604 4288085770
6.0838566 0.19132125 -1.8012034 4288085770
5.3108563 0.16011605 -1.8147362 4288085770
14.043782 0.4280515 -1.840842 4288085770
5.9448571 0.1772801 -1.8051023 4288085770
12.291798 0.36264941 -1.8417941 4288085770
5.7718554 0.16822585 -1.8119936 4288085770
6.6968493 0.19443524 -1.81253 4288085770
17.946737 0.52284527 -1.8860734 4288085770
5.1918588 0.14909001 -1.8136519 4288085770
15.063766 0.43522707 -1.8673894 4288085770
5.7928624 0.16325259 -1.8009946 4288085770
5.0718622 0.13706559 -1.8115648 4288085770
15.981764 0.43443099 -1.8688676 4288085770
12.877798 0.34577522 -1.844066 4288085770
5.6598644 0.14921889 -1.8018967 4288085770
5.9068584 0.15525612 -1.8110381 4288085770
19.256735 0.51011801 -1.8967319 4288085770
6.88585 0.18046942 -1.8156005 4288085770
16.944769 0.43066141 -1.8623629 4288085770
5.5418649 0.13518435 -1.8048067 4288085770
13.546799 0.32891566 -1.8483815 4288085770
6.049859 0.1422841 -1.8120866 4288085770
7.0538554 0.16551542 -1.8106582 4288085770
18.143768 0.4259223 -1.8669796 4288085770
5.427866 0.12115061 -1.8077189 4288085770
14.314799 0.31207439 -1.8547486 4288085770
19.469767 0.4182137 -1.8706568 4288085770
6.2068615 0.13031542 -1.8131444 4288085770
7.2798533 0.15154766 -1.8187481 4288085770
5.3048692 0.10712311 -1.8066263 4288085770
15.192796 0.29624563 -1.8671752 4288085770
6.3658633 0.11734921 -1.8132014 4288085770
7.4818573 0.13759744 -1.8158255 4288085770
5.2018709 0.093091711 -1.8095442 4288085770
16.148796 0.27844691 -1.8736387 4288085770
6.5358648 0.10538362 -1.8142661 4288085770
5.0918732 0.080065086 -1.8094604 4288085770
7.7288575 0.12263864 -1.8219243 4288085770
17.151798 0.25967121 -1.8741246 4288085770
6.7178669 0.092420653 -1.8153349 4288085770
7.9658594 0.10869022 -1.8220199 4288085770
18.369801 0.23993164 -1.8807209 4288085770
6.920867 0.080456406 -1.819417 4288085770
8.2208624 0.093745813 -1.8221229 4288085770
19.805798 0.22123104 -1.892433 4288085770
7.1128697 0.068500116 -1.8184931 4288085770
8.4968643 0.079804257 -1.8232392 4288085770
7.3348703 0.055542246 -1.821583 4288085770
8.7978659 0.064864174 -1.8263661 4288085770
7.5608721 0.043589607 -1.822677 4288085770
9.1078691 0.049934506 -1.825498 4288085770
7.7918744 0.03164231 -1.8217735 4288085770
9.45187 0.035004266 -1.8286475 4288085770
8.0548754 0.019696072 -1.8238869 4288085770
9.7988749 0.020087212 -1.8257986 4288085770
8.3318777 0.007755138 -1.8250074 4288085770
10.211876 0.0051706433 -1.8299843 4288085770
12.613843 -0.47432679 -1.8289088 4288085770
6.4856868 -0.24880473 -1.8081304 4288085770
19.753044 -0.77918136 -1.8780262 4288085770
7.6407218 -0.29896265 -1.8126323 4288085770
19.219038 -0.78261292 -1.8907187 4288085770
17.361006 -0.71188772 -1.8548828 4288085770
12.075859 -0.49471971 -1.8265511 4288085770
6.3436942 -0.26292437 -1.8130114 4288085770
7.4387321 -0.31411541 -1.8134769 4288085770
18.610081 -0.82200527 -1.8692672 4288085770
18.000055 -0.79649246 -1.8819994 4288085770
16.344021 -0.72462058 -1.8472795 4288085770
11.573874 -0.51408601 -1.8242162 4288085770
6.188705 -0.276034 -1.8108879 4288085770
7.2207446 -0.32726321 -1.8083183 4288085770
16.868067 -0.80529916 -1.870343 4288085770
15.476031 -0.7402575 -1.8447511 4288085770
11.14889 -0.53541231 -1.8279188 4288085770
6.0387168 -0.29014277 -1.8097645 4288085770
17.634113 -0.86271405 -1.8636074 4288085770
7.0277567 -0.34240374 -1.8071678 4288085770
15.945075 -0.81497955 -1.868801 4288085770
14.700045 -0.756832 -1.8442714 4288085770
10.734903 -0.55471635 -1.8266332 4288085770
5.9097247 -0.30324435 -1.8116558 4288085770
6.8607664 -0.35753354 -1.8090321 4288085770
16.708145 -0.89837182 -1.8529899 4288085770
15.077082 -0.8206079 -1.8633009 4288085770
13.984058 -0.77134812 -1.8388309 4288085770
5.7707367 -0.3163422 -1.8095413 4288085770
10.365917 -0.57499564 -1.8283702 4288085770
6.7047758 -0.37266079 -1.8129025 4288085770
14.286086 -0.82317924 -1.8578525 4288085770
15.976173 -0.93791711 -1.8534695 4288085770
13.366072 -0.78880596 -1.838437 4288085770
5.6517467 -0.33043367 -1.8104353 4288085770
10.016932 -0.59425449 -1.8281212 4288085770
6.5277896 -0.38677835 -1.8077641 4288085770
13.574088 -0.82369483 -1.8534541 4288085770
12.801084 -0.80522442 -1.8380755 4288085770
5.5467544 -0.34552607 -1.8153343 4288085770
9.7019453 -0.61449659 -1.8308885 4288085770
15.296202 -0.97441542 -1.850987 4288085770
12.92709 -0.82316804 -1.8510951 4288085770
6.3748016 -0.40188938 -1.8066362 4288085770
19.724411 -1.2982973 -1.9065379 4288085770
12.319091 -0.82060671 -1.8467634 4288085770
5.4287653 -0.35861123 -1.8142316 4288085770
12.260098 -0.82061386 -1.8337303 4288085770
6.2328119 -0.41699791 -1.8075144 4288085770
9.3879595 -0.63272393 -1.828662 4288085770
18.288391 -1.2573086 -1.8878534 4288085770
14.668229 -1.0098783 -1.8495365 4288085770
11.768087 -0.81700885 -1.8444664 4288085770
5.3287754 -0.37369433 -1.8171334 4288085770
11.808108 -0.83895445 -1.8354268 4288085770
6.1048222 -0.43109891 -1.8094033 4288085770
17.096375 -1.2231591 -1.8762856 4288085770
9.0939751 -0.65093648 -1.8264468 4288085770
11.270087 -0.8133719 -1.8421993 4288085770
14.103256 -1.0442915 -1.8471241 4288085770
16.087353 -1.1938938 -1.8718061 4288085770
10.835083 -0.80970514 -1.8459673 4288085770
5.2127857 -0.38576961 -1.8130351 4288085770
11.370124 -0.85527635 -1.8341364 4288085770
5.9768329 -0.44619426 -1.8092896 4288085770
8.8239899 -0.67013419 -1.8252419 4288085770
15.181334 -1.1665524 -1.8673787 4288085770
10.439077 -0.80601215 -1.8507571 4288085770
19.045557 -1.4877839 -1.8986222 4288085770
14.354317 -1.1381527 -1.8629981 4288085770
13.593282 -1.0796697 -1.8467396 4288085770
5.8438449 -0.46028492 -1.8061758 4288085770
11.013135 -0.87756085 -1.8408744 4288085770
10.019074 -0.79830897 -1.8455449 4288085770
8.5710049 -0.68831933 -1.8240496 4288085770
13.6183 -1.1126857 -1.8586602 4288085770
9.6400681 -0.79058659 -1.8443558 4288085770
18.093575 -1.5074805 -1.8950357 4288085770
5.730855 -0.47537488 -1.8080704 4288085770
12.934282 -1.0861773 -1.8533542 4288085770
10.627149 -0.89283597 -1.8366163 4288085770
9.2680645 -0.779845 -1.8381791 4288085770
13.123307 -1.1120129 -1.8443862 4288085770
8.3420191 -0.70748949 -1.823868 4288085770
19.858717 -1.7122091 -1.9064392 4288085770
12.319267 -1.0616238 -1.8500811 4288085770
8.9350576 -0.7710886 -1.8370185 4288085770
5.6228657 -0.49046114 -1.8099679 4288085770
17.172585 -1.5181426 -1.8874922 4288085770
11.767252 -1.0390291 -1.8488375 4288085770
8.6250534 -0.76231515 -1.8358705 4288085770
10.288163 -0.91108751 -1.836376 4288085770
8.1140318 -0.72465336 -1.8216925 4288085770
12.688331 -1.1443329 -1.8430524 4288085770
11.267235 -1.0174016 -1.8496203 4288085770
8.3270464 -0.75153005 -1.8337352 4288085770
18.789732 -1.7219584 -1.890816 4288085770
19.059776 -1.7637032 -1.8708479 4288085770
10.809218 -0.99674308 -1.8504236 4288085770
8.0550394 -0.74172854 -1.8326116 4288085770
5.5158772 -0.50553823 -1.8088658 4288085770
16.345592 -1.5267408 -1.882007 4288085770
9.9531765 -0.92632759 -1.8331462 4288085770
10.374202 -0.97506475 -1.8502427 4288085770
7.7860327 -0.72991621 -1.8284953 4288085770
7.9230456 -0.74480391 -1.8245293 4288085770
12.268356 -1.1746361 -1.8397328 4288085770
9.9481888 -0.95236564 -1.8450698 4288085770
7.5540247 -0.72109628 -1.8313911 4288085770
17.83275 -1.7326276 -1.8762523 4288085770
5.4248872 -0.52161765 -1.81277 4288085770
7.3210173 -0.70926023 -1.8282949 4288085770
9.574173 -0.93163931 -1.8439202 4288085770
9.6651897 -0.94554412 -1.8339316 4288085770
15.546599 -1.5293097 -1.8735546 4288085770
17.68281 -1.7494919 -1.7881206 4293729569
7.0910101 -0.69742191 -1.8252003 4288085770
9.1931591 -0.90790129 -1.8367753 4288085770
7.7030611 -0.76095057 -1.8183614 4288085770
6.8890023 -0.6865741 -1.8261185 4288085770
8.8811455 -0.89013755 -1.838652 4288085770
11.908381 -1.2069033 -1.8394411 4288085770
6.6929941 -0.67471635 -1.8250431 4288085770
5.3298979 -0.53669143 -1.8136748 4288085770
8.5521336 -0.86836386 -1.8325304 4288085770
17.004763 -1.74621 -1.8647524 4288085770
6.5099864 -0.66384876 -1.8239721 4288085770
9.3712044 -0.9617511 -1.8297222 4288085770
14.886604 -1.5358014 -1.8741685 4288085770
8.2701197 -0.8495723 -1.8324264 4288085770
6.3389778 -0.65297794 -1.8249077 4288085770
7.5450735 -0.78208518 -1.8242137 4288085770
7.9891052 -0.82876873 -1.828329 4288085770
6.1669698 -0.64110243 -1.8238455 4288085770
7.7400928 -0.81095278 -1.8282408 4288085770
16.77585 -1.769043 -1.7445599 4293729569
6.0039611 -0.62821722 -1.8217913 4288085770
7.5020795 -0.79212582 -1.8271616 4288085770
5.852953 -0.61733162 -1.8227382 4288085770
5.2339101 -0.55176044 -1.812579 4288085770
7.2790661 -0.77429068 -1.827088 4288085770
5.7049446 -0.60543823 -1.8216894 4288085770
11.537404 -1.235162 -1.8331544 4288085770
5.5759349 -0.59454191 -1.8246485 4288085770
9.1252165 -0.97993946 -1.8315338 4288085770
7.050055 -0.75544572 -1.8220139 4288085770
14.250607 -1.5382667 -1.8718075 4288085770
5.4459257 -0.58264089 -1.8256098 4288085770
16.251783 -1.7617368 -1.8532891 4288085770
5.3139167 -0.56973267 -1.8235728 4288085770
6.8600411 -0.73859453 -1.8249557 4288085770
5.1959081 -0.55882263 -1.8245381 4288085770
5.2139111 -0.56080377 -1.8225425 4288085770
6.6640296 -0.72073364 -1.8228972 4288085770
7.3610883 -0.79921377 -1.821063 4288085770
5.317924 -0.57471585 -1.818561 4288085770
6.4820175 -0.70386529 -1.8218436 4288085770
5.4409347 -0.58962512 -1.8185873 4288085770
6.3050056 -0.68599033 -1.8197956 4288085770
6.141993 -0.66910779 -1.8187526 4288085770
5.5659471 -0.60553002 -1.8176119 4288085770
5.690959 -0.62043238 -1.8156393 4288085770
5.8409696 -0.63733006 -1.818675 4288085770
5.991981 -0.65422142 -1.8197113 4288085770
16.191893 -1.8144315 -1.728106 4293729569
13.625608 -1.5357182 -1.8674668 4288085770
8.8882303 -0.99911571 -1.8313477 4288085770
11.229427 -1.2673967 -1.8348919 4288085770
15.566801 -1.7782161 -1.8428611 4288085770
7.1881032 -0.81633413 -1.8179187 4288085770
13.094606 -1.5361171 -1.86917 4288085770
8.6402435 -1.014286 -1.826167 4288085770
15.730935 -1.8667514 -1.7197013 4293729569
17.02211 -2.0255153 -1.6189703 4293729569
10.928452 -1.2986149 -1.8326362 4288085770
7.0451159 -0.83644927 -1.8207824 4288085770
14.885817 -1.7876759 -1.8264551 4288085770
12.558604 -1.5305026 -1.8648876 4288085770
8.4302568 -1.0324451 -1.8269989 4288085770
16.555094 -2.0439963 -1.6666582 4293729569
6.9031301 -0.85555804 -1.8216497 4288085770
10.643475 -1.327821 -1.8303951 4288085770
15.315977 -1.9200431 -1.7133193 4293729569
14.208831 -1.789107 -1.801074 4288085770
12.068603 -1.5248599 -1.8626308 4288085770
15.970077 -2.0425191 -1.6983368 4293729569
8.2372713 -1.0525943 -1.8288349 4288085770
6.7641435 -0.87466455 -1.8225186 4288085770
17.108725 -2.2391357 -0.79141074 4293729569
11.594598 -1.5162026 -1.8593918 4288085770
10.402497 -1.3600062 -1.8321702 4288085770
13.621847 -1.7964914 -1.7827265 4288085770
14.98402 -1.9782903 -1.7129698 4293729569
15.339053 -2.0280483 -1.7200266 4293729569
17.070187 -2.2659342 0.0036896802 4293729569
8.047287 -1.0717329 -1.8276753 4288085770
16.943552 -2.2883222 -1.1701809 4293729569
11.201593 -1.5125049 -1.8631836 4288085770
6.6181593 -0.89176226 -1.8183894 4288085770
14.633027 -1.9975871 -1.7257199 4293729569
10.173519 -1.3911794 -1.8329549 4288085770
16.916582 -2.3193011 -1.1550783 4293729569
16.958031 -2.3250258 -0.35508206 4293729569
16.93681 -2.3362064 -0.77004027 4293729569
13.068862 -1.802845 -1.7624009 4293729569
14.633063 -2.0315349 -1.7066239 4293729569
16.947046 -2.3540683 -0.36699381 4293729569
7.8643003 -1.0888664 -1.8265253 4288085770
10.782586 -1.5028068 -1.8599781 4288085770
13.961999 -1.9630946 -1.7294443 4293729569
6.495172 -0.91085696 -1.8192673 4288085770
16.926611 -2.4004414 -1.2068543 4293729569
9.9745426 -1.425339 -1.8367476 4288085770
10.401581 -1.493086 -1.8587937 4288085770
16.909643 -2.433435 -1.1997516 4293729569
12.511877 -1.8021848 -1.7360929 4293729569
16.913115 -2.4420705 -0.35772592 4293729569
7.694314 -1.107993 -1.8263769 4288085770
13.318973 -1.9275728 -1.7301871 4293729569
16.942907 -2.4571624 -0.75470138 4293729569
16.933102 -2.4642024 -0.40967464 4293729569
14.42311 -2.1017168 -1.7153088 4293729569
6.3791857 -0.92994654 -1.8201489 4288085770
10.024574 -1.480354 -1.8546202 4288085770
17.009686 -2.5295033 -1.2495357 4293729569
12.760949 -1.8979969 -1.7339606 4293729569
9.7885666 -1.4604918 -1.8415451 4288085770
7.5413284 -1.1281102 -1.8272352 4288085770
12.073894 -1.8144704 -1.7218146 4293729569
17.023708 -2.5655081 -1.2544416 4293729569
9.6615648 -1.4646087 -1.849463 4288085770
6.2672 -0.95003319 -1.8210305 4288085770
14.190156 -2.1658993 -1.7179978 4293729569
12.184923 -1.8604145 -1.7307465 4293729569
9.6055899 -1.494634 -1.8433472 4288085770
9.3505583 -1.4548389 -1.8493178 4288085770
7.3903427 -1.1482227 -1.8270948 4288085770
11.7259 -1.8347737 -1.7375638 4293729569
11.785915 -1.8446928 -1.7245692 4293729569
6.1532145 -0.96811557 -1.8199164 4288085770
13.947201 -2.2250779 -1.7166954 4293729569
9.0475492 -1.4420633 -1.8491857 4288085770
11.258876 -1.8051275 -1.7403883 4293729569
7.2433577 -1.1663296 -1.8259623 4288085770
9.4256134 -1.5267742 -1.8451564 4288085770
11.407931 -1.8589399 -1.7123189 4293729569
8.7505398 -1.4282776 -1.8470597 4288085770
10.901856 -1.788431 -1.7542371 4293729569
6.0552287 -0.9881947 -1.8218056 4288085770
13.679243 -2.2792606 -1.7103932 4293729569
8.4765291 -1.4144777 -1.8459466 4288085770
7.1033721 -1.1854283 -1.8238308 4288085770
10.612838 -1.778704 -1.7751042 4288085770
