# .PCD v0.7 - Point Cloud Data file format
VERSION 0.7
FIELDS x y z rgb
SIZE 4 4 4 4
TYPE F F F U
COUNT 1 1 1 1
WIDTH 1124
HEIGHT 1
VIEWPOINT 0 0 0 1 0 0 0
POINTS 1124
DATA ascii
8.0434027 -1.8426545 -1.7489318 4293729569
6.8421459 -1.5753826 -1.8548697 4288085770
10.451596 -2.411509 -0.46010017 4293729569
10.387046 -2.4094608 -1.3570592 4293729569
10.42536 -2.4190459 -0.85509396 4293729569
10.453657 -2.4266088 -0.3771199 4293729569
8.7995586 -2.0411463 -1.7236373 4293729569
5.7079802 -1.3232232 -1.8298668 4288085770
7.6342831 -1.7718135 -1.8585947 4288085770
10.286924 -2.3923128 -1.5369771 4293729569
7.8553805 -1.8267727 -1.7627971 4293729569
6.6461315 -1.554529 -1.8507237 4288085770
10.42825 -2.4547787 -1.0731398 4293729569
7.7243619 -1.8218392 -1.7857107 4288085770
6.4791183 -1.5376496 -1.8506004 4288085770
10.471638 -2.4914699 -0.48221076 4293729569
10.449375 -2.4869719 -0.9031921 4293729569
10.38706 -2.4734051 -1.4041377 4293729569
5.6379914 -1.3442745 -1.8308483 4288085770
8.6655779 -2.0702465 -1.7215906 4293729569
10.500729 -2.5126019 -0.35725439 4293729569
7.6153421 -1.8208841 -1.8136425 4288085770
7.5573034 -1.8078659 -1.862591 4288085770
10.215961 -2.4503629 -1.539005 4293729569
6.3021049 -1.5177823 -1.846467 4288085770
7.5233235 -1.8229132 -1.8445885 4288085770
10.530308 -2.5566821 -1.0943274 4293729569
10.479393 -2.5568907 -0.95329654 4293729569
10.392073 -2.5373416 -1.4542196 4293729569
6.1490898 -1.5008905 -1.8483523 4288085770
7.3883038 -1.8129889 -1.8624932 4288085770
5.5660033 -1.3643301 -1.8298277 4288085770
8.5155954 -2.0953622 -1.7165293 4293729569
7.37432 -1.817026 -1.8404895 4288085770
10.251009 -2.5363202 -1.5551323 4293729569
5.9910769 -1.4820085 -1.8452318 4288085770
7.1852822 -1.7841351 -1.8623332 4288085770
10.468093 -2.6202157 -1.5143681 4293729569
5.8530631 -1.4661059 -1.8471272 4288085770
6.985261 -1.7552803 -1.8611751 4288085770
5.497015 -1.3843831 -1.8288087 4288085770
8.415616 -2.1314318 -1.7195121 4293729569
7.1633358 -1.8172172 -1.8093597 4288085770
5.6970496 -1.4442261 -1.8410041 4288085770
6.7902403 -1.7254245 -1.8580186 4288085770
10.392067 -2.6481817 -1.587356 4293729569
10.798135 -2.7678587 -1.6147518 4293729569
5.5520363 -1.424336 -1.8368903 4288085770
6.6042194 -1.696561 -1.8558689 4288085770
5.4350262 -1.405429 -1.8297951 4288085770
6.4322009 -1.6696876 -1.8537302 4288085770
5.4420228 -1.4124085 -1.8428079 4288085770
8.3206358 -2.1674984 -1.7224977 4293729569
6.9673519 -1.8183967 -1.7792403 4288085770
10.667139 -2.7979248 -1.6387087 4293729569
10.598126 -2.7799752 -1.6376444 4293729569
6.26018 -1.6408151 -1.8505889 4288085770
5.3130093 -1.3945045 -1.8407061 4288085770
6.0971613 -1.6129365 -1.8474544 4288085770
5.377037 -1.4264719 -1.8307841 4288085770
5.1969967 -1.3785874 -1.841615 4288085770
5.9501429 -1.5880438 -1.8463333 4288085770
8.2536602 -2.2095413 -1.7285078 4293729569
10.277105 -2.7562027 -1.640419 4293729569
6.8023677 -1.8245453 -1.7561457 4293729569
5.8041248 -1.5621518 -1.8442117 4288085770
5.3290501 -1.4515055 -1.8337839 4288085770
10.003086 -2.7403905 -1.6482317 4293729569
8.1556807 -2.2426138 -1.728488 4293729569
6.6813846 -1.8416519 -1.7420915 4293729569
7.0659614 -0.44620597 -1.8209623 4288085770
18.240086 -1.175925 -1.8801987 4288085770
11.738017 -0.76925361 -1.8387327 4288085770
8.41998 -0.54993105 -1.8254746 4288085770
16.659077 -1.1022489 -1.8655986 4288085770
16.306068 -1.0893207 -1.8824644 4288085770
6.8909631 -0.46124479 -1.8208938 4288085770
8.1829815 -0.56498241 -1.8253827 4288085770
17.431097 -1.2210932 -1.8728896 4288085770
11.318023 -0.79234242 -1.8375713 4288085770
15.870078 -1.1204123 -1.8652973 4288085770
15.473068 -1.096493 -1.8781468 4288085770
6.7189651 -0.47628331 -1.8198262 4288085770
7.9409847 -0.58003521 -1.8212888 4288085770
14.71707 -1.10165 -1.8748579 4288085770
10.964025 -0.81741786 -1.8404347 4288085770
15.14908 -1.1385623 -1.8650217 4288085770
16.687107 -1.2642484 -1.8646047 4288085770
6.5569673 -0.49131989 -1.8177626 4288085770
7.7349863 -0.59608042 -1.8222083 4288085770
14.00107 -1.1027988 -1.8705844 4288085770
10.617028 -0.84149206 -1.8413005 4288085770
14.459084 -1.1537063 -1.8597577 4288085770
6.4119687 -0.50735295 -1.8197052 4288085770
16.102114 -1.3133713 -1.86638 4288085770
7.5389876 -0.61112392 -1.8221318 4288085770
13.35807 -1.1029328 -1.8673387 4288085770
10.302031 -0.86655986 -1.8441786 4288085770
13.873088 -1.172829 -1.8585329 4288085770
6.2699704 -0.52238548 -1.819649 4288085770
7.3499904 -0.62716591 -1.8210578 4288085770
12.77407 -1.1020547 -1.8661151 4288085770
15.562119 -1.3594849 -1.8681724 4288085770
19.509172 -1.7266753 -1.9286691 4282675967
6.1309724 -0.53741777 -1.8175937 4288085770
13.336089 -1.1909422 -1.8573269 4288085770
9.9840345 -0.88862872 -1.841055 4288085770
12.20107 -1.0971746 -1.8598959 4288085770
7.1659927 -0.6412071 -1.8189856 4288085770
18.218168 -1.676942 -1.9131776 4288085770
15.058127 -1.4055916 -1.8679781 4288085770
6.0159726 -0.55344486 -1.8215476 4288085770
11.696069 -1.0932806 -1.8577025 4288085770
12.836092 -1.2090477 -1.8551345 4288085770
9.7050371 -0.91068935 -1.8419466 4288085770
7.0039945 -0.65824413 -1.8199215 4288085770
17.123159 -1.6361684 -1.9047604 4288085770
11.241068 -1.0893762 -1.8585279 4288085770
5.8849754 -0.56747568 -1.8184955 4288085770
16.124157 -1.5953753 -1.8953797 4288085770
14.561136 -1.4466971 -1.8637863 4288085770
12.353096 -1.2261502 -1.8499485 4288085770
9.4300413 -0.93374968 -1.8398396 4288085770
6.8599944 -0.67527699 -1.8238643 4288085770
10.819064 -1.0844651 -1.8603659 4288085770
15.21015 -1.555565 -1.8850311 4288085770
5.7699771 -0.5825032 -1.8184491 4288085770
10.42306 -1.0795486 -1.8622137 4288085770
6.7009974 -0.69031358 -1.8208015 4288085770
11.9261 -1.2442414 -1.8477837 4288085770
9.1850433 -0.95680392 -1.8397436 4288085770
14.135144 -1.4907882 -1.8646215 4288085770
14.422144 -1.5217289 -1.8807303 4288085770
10.034059 -1.0706307 -1.8590645 4288085770
5.6589789 -0.59853017 -1.8194041 4288085770
19.980324 -2.1545949 -1.7408382 4293729569
13.685139 -1.4868823 -1.872449 4288085770
6.553 -0.7053479 -1.8197424 4288085770
11.545103 -1.264323 -1.8466363 4288085770
8.9600468 -0.97985399 -1.8416553 4288085770
9.6750574 -1.0627068 -1.8589263 4288085770
13.73915 -1.5328733 -1.864468 4288085770
13.078132 -1.4610088 -1.875217 4288085770
5.5629787 -0.61455369 -1.823365 4288085770
9.3020563 -1.0487859 -1.8507831 4288085770
6.4190016 -0.72237957 -1.8196889 4288085770
12.431127 -1.4251438 -1.8659698 4288085770
11.197104 -1.2853981 -1.8475013 4288085770
8.732049 -1.001905 -1.8405657 4288085770
9.0050535 -1.0418491 -1.8536687 4288085770
5.4649796 -0.63057816 -1.824325 4288085770
11.870122 -1.3942612 -1.8597552 4288085770
13.406156 -1.5799457 -1.868338 4288085770
17.235382 -2.0421722 -1.5227909 4293729569
6.2890029 -0.73841035 -1.8196367 4288085770
8.6930494 -1.0309155 -1.8505486 4288085770
16.983351 -2.0392215 -1.6046944 4293729569
10.835109 -1.3014766 -1.8413608 4288085770
11.355115 -1.3653692 -1.8565581 4288085770
8.5190535 -1.022953 -1.8374817 4288085770
8.4090481 -1.019976 -1.8494394 4288085770
5.3659811 -0.64660299 -1.8242843 4288085770
10.878111 -1.3374695 -1.8523755 4288085770
6.161005 -0.75344086 -1.8175852 4288085770
13.071163 -1.6210183 -1.8682075 4288085770
16.977379 -2.118227 -1.5636895 4293729569
17.397509 -2.1711526 -1.242849 4293729569
8.1310463 -1.0070355 -1.8463323 4288085770
10.459105 -1.3125575 -1.8532151 4288085770
16.566349 -2.0903099 -1.6225328 4293729569
10.527113 -1.3225441 -1.8402408 4288085770
8.3310556 -1.046996 -1.8394073 4288085770
7.8570447 -0.99309409 -1.8402268 4288085770
5.267983 -0.66162753 -1.822244 4288085770
10.0751 -1.2896382 -1.8540678 4288085770
6.0520062 -0.77046752 -1.8205409 4288085770
7.6240416 -0.982144 -1.8411369 4288085770
12.735171 -1.6590918 -1.8640763 4288085770
16.615377 -2.1743033 -1.5945487 4293729569
9.7190943 -1.2677133 -1.8549314 4288085770
10.258115 -1.3456033 -1.8421355 4288085770
16.99353 -2.2402401 -1.2246916 4293729569
8.1400595 -1.0690398 -1.8373312 4288085770
7.3950391 -0.97019315 -1.8390485 4288085770
17.077675 -2.2632377 -0.83872324 4293729569
17.09169 -2.2652361 -0.80272847 4293729569
16.392351 -2.1733477 -1.6614633 4293729569
5.1889834 -0.67764807 -1.826211 4288085770
9.3520899 -1.2407906 -1.8507906 4288085770
5.9460073 -0.78749359 -1.8214976 4288085770
17.041998 -2.2952776 -0.0077082459 4293729569
7.1800361 -0.95823932 -1.8389657 4288085770
9.0310841 -1.2178584 -1.8506676 4288085770
17.011837 -2.3132682 -0.43869615 4293729569
16.959833 -2.3212788 -0.45167589 4293729569
16.462374 -2.2553363 -1.6454872 4293729569
6.9710331 -0.94528425 -1.8368849 4288085770
12.474177 -1.7061496 -1.8689735 4288085770
9.985117 -1.3656635 -1.8410286 4288085770
8.7160788 -1.1939251 -1.8485467 4288085770
7.9640627 -1.0910808 -1.8372611 4288085770
16.96067 -2.3502626 -0.89767534 4293729569
16.948999 -2.3502982 -0.019670662 4293729569
16.133354 -2.2414036 -1.6883612 4293729569
16.915546 -2.3512595 -1.2276579 4293729569
6.7950282 -0.93532217 -1.841817 4288085770
16.940702 -2.36427 -0.82066721 4293729569
5.8360095 -0.8035208 -1.8204526 4288085770
8.4200745 -1.1699877 -1.845433 4288085770
6.5890269 -0.92036641 -1.8357375 4288085770
16.937004 -2.3993011 -0.031664375 4293729569
8.1570692 -1.1500435 -1.8473322 4288085770
16.202372 -2.3173919 -1.6843851 4293729569
16.939854 -2.4242859 -0.44366467 4293729569
6.4050245 -0.90640604 -1.8336664 4288085770
9.7601204 -1.390714 -1.8449399 4288085770
12.187182 -1.7452132 -1.8668609 4288085770
16.925867 -2.4322901 -0.41965902 4293729569
7.8070645 -1.1141175 -1.8381981 4288085770
7.8930655 -1.1270996 -1.8442308 4288085770
16.946667 -2.4502659 -0.96366656 4293729569
5.7340107 -0.81954634 -1.8204108 4288085770
6.2550201 -0.89643836 -1.8386085 4288085770
15.842357 -2.3044662 -1.7092469 4293729569
16.912027 -2.4653091 -0.0076524839 4293729569
7.6530609 -1.1061505 -1.8441387 4288085770
16.92157 -2.4722614 -1.2356561 4293729569
16.939714 -2.4822724 -0.84866267 4293729569
6.0890179 -0.88347423 -1.8365444 4288085770
7.4130569 -1.0832014 -1.8410466 4288085770
5.924016 -0.86850977 -1.8324808 4288085770
16.959017 -2.5192988 -0.059668683 4293729569
9.5171242 -1.4107686 -1.8418442 4288085770
7.1920524 -1.0622485 -1.8389616 4288085770
15.755367 -2.3484864 -1.7042117 4293729569
7.6440687 -1.1361558 -1.8361328 4288085770
5.7680125 -0.85454345 -1.8304206 4288085770
11.863193 -1.7762849 -1.8557339 4288085770
5.637013 -0.83557093 -1.8193707 4288085770
16.950876 -2.5482867 -0.44866461 4293729569
6.9860482 -1.0412921 -1.8378826 4288085770
16.9279 -2.5482941 -0.38665575 4293729569
17.022659 -2.5632501 -1.0366918 4293729569
5.6380095 -0.84357154 -1.8323703 4288085770
6.7930436 -1.021333 -1.8378086 4288085770
15.51136 -2.3575375 -1.7231174 4293729569
5.5120049 -0.83159852 -1.8353218 4288085770
6.6040401 -1.0013733 -1.835736 4288085770
5.3750033 -0.81762803 -1.8322688 4288085770
6.4210367 -0.98141217 -1.833666 4288085770
9.3091249 -1.4338158 -1.8437617 4288085770
15.305364 -2.3735821 -1.7220373 4293729569
5.2579994 -0.8056531 -1.8352238 4288085770
6.248033 -0.96144891 -1.8305995 4288085770
7.5020714 -1.1591901 -1.8370752 4288085770
5.5520134 -0.85359323 -1.8223352 4288085770
6.0890288 -0.94248259 -1.8305385 4288085770
11.348207 -1.7743971 -1.8115344 4288085770
5.9400244 -0.92451406 -1.8314813 4288085770
5.7860222 -0.90554702 -1.8274224 4288085770
15.119366 -2.3976223 -1.7249647 4293729569
5.6510177 -0.88757527 -1.8283709 4288085770
5.5230136 -0.87060225 -1.8293217 4288085770
5.4000096 -0.85462821 -1.8312746 4288085770
9.1341267 -1.4618562 -1.8496917 4288085770
5.2800059 -0.8376534 -1.8302289 4288085770
14.896359 -2.3986695 -1.7418785 4293729569
5.4580164 -0.86961746 -1.820296 4288085770
7.3660731 -1.1822228 -1.8380201 4288085770
10.869221 -1.7715025 -1.7693486 4293729569
14.777371 -2.4416969 -1.7298309 4293729569
14.311357 -2.3867939 -1.7376528 4293729569
8.9381304 -1.4849015 -1.8496135 4288085770
5.3800168 -0.88763833 -1.8232632 4288085770
7.2200775 -1.2032582 -1.8339609 4288085770
10.490231 -1.7795868 -1.7382007 4293729569
14.385379 -2.4737821 -1.7256778 4293729569
13.685354 -2.3629272 -1.7264117 4293729569
5.2990189 -0.90366006 -1.823229 4288085770
8.7481346 -1.5059456 -1.8475379 4288085770
7.1010799 -1.2272877 -1.8359121 4288085770
10.295237 -1.8166319 -1.7361224 4293729569
13.151353 -2.3460417 -1.7212055 4293729569
5.2210202 -0.92068112 -1.8231957 4288085770
14.062385 -2.5128531 -1.725551 4293729569
8.5741367 -1.5289861 -1.847468 4288085770
7.000083 -1.2543101 -1.8408679 4288085770
10.097245 -1.8506749 -1.7310419 4293729569
12.518351 -2.3051741 -1.6999608 4293729569
8.4211388 -1.5540191 -1.848405 4288085770
13.69239 -2.5409312 -1.7174059 4293729569
6.880085 -1.27534 -1.8388195 4288085770
18.856604 -3.5998638 -1.7323651 4293729569
9.8902512 -1.8817233 -1.7229605 4293729569
8.2771416 -1.5800539 -1.8503476 4288085770
13.379398 -2.575001 -1.7132849 4293729569
6.7710876 -1.2993678 -1.838775 4288085770
10.822351 -2.1135385 -1.5793126 4293729569
17.785583 -3.4930897 -1.7209572 4293729569
9.7042589 -1.9137673 -1.7158871 4293729569
8.1391449 -1.6060876 -1.8522925 4288085770
10.669421 -2.1225793 -1.3962532 4293729569
6.6760898 -1.3233925 -1.8407362 4288085770
10.463346 -2.1016173 -1.581174 4293729569
16.913568 -3.4142742 -1.7206244 4293729569
8.005146 -1.6301199 -1.8532388 4288085770
9.540266 -1.9468067 -1.7108221 4293729569
6.5730929 -1.3464191 -1.8396939 4288085770
10.670424 -2.1985836 -1.4212508 4293729569
10.286341 -2.1226571 -1.6081048 4293729569
16.097549 -3.3354475 -1.719313 4293729569
10.612671 -2.2316217 -0.77022713 4293729569
7.8741503 -1.6551523 -1.8531862 4288085770
9.3912725 -1.982843 -1.7067626 4293729569
10.543517 -2.2336228 -1.1852002 4293729569
10.102333 -2.1396983 -1.6330327 4293729569
6.4820952 -1.370443 -1.8406563 4288085770
10.47143 -2.2306302 -1.4191725 4293729569
10.599869 -2.278646 -0.2652204 4293729569
10.520678 -2.2696447 -0.77419019 4293729569
10.582865 -2.2926505 -0.27921337 4293729569
10.470507 -2.2736399 -1.2311707 4293729569
9.9163237 -2.1537399 -1.6569598 4293729569
7.7411537 -1.6781852 -1.8501328 4288085770
10.489685 -2.2826538 -0.75417769 4293729569
10.58497 -2.308661 -0.0062135682 4293729569
9.2782784 -2.0248716 -1.7077168 4293729569
6.3830991 -1.3924692 -1.8376156 4288085770
10.410435 -2.2916474 -1.4341466 4293729569
10.51588 -2.3376696 -0.25518578 4293729569
10.430495 -2.3196507 -1.2821534 4293729569
10.462676 -2.3286617 -0.80116558 4293729569
9.7193165 -2.1627843 -1.676883 4293729569
10.503865 -2.3466711 -0.30618083 4293729569
7.6361566 -1.7062119 -1.85309 4288085770
10.450701 -2.3506677 -0.74416018 4293729569
10.528979 -2.373678 -0.011189573 4293729569
9.1842842 -2.0708966 -1.7116783 4293729569
6.2931018 -1.4154931 -1.8365781 4288085770
10.378441 -2.3596592 -1.4511318 4293729569
10.403485 -2.3676581 -1.3351413 4293729569
9.4883099 -2.1618357 -1.6907929 4293729569
10.443677 -2.3956692 -0.83115584 4293729569
10.494898 -2.4106801 -0.24517511 4293729569
10.474864 -2.4116814 -0.33616728 4293729569
7.5391583 -1.7352372 -1.8570503 4288085770
10.439718 -2.4246757 -0.73415327 4293729569
10.389473 -2.4176631 -1.389134 4293729569
10.512988 -2.4476869 -0.01818081 4293729569
9.0652895 -2.1089268 -1.7096301 4293729569
6.2191043 -1.4415138 -1.838547 4288085770
9.2353029 -2.1518922 -1.6996949 4293729569
10.361446 -2.4296672 -1.4691228 4293729569
10.452678 -2.4706717 -0.86415678 4293729569
10.485866 -2.484683 -0.36816907 4293729569
10.508916 -2.4916828 -0.23417778 4293729569
7.4411612 -1.7622627 -1.8590101 4288085770
10.386462 -2.4686654 -1.4461311 4293729569
9.0312958 -2.1509378 -1.7146151 4293729569
10.515737 -2.5186653 -0.72817957 4293729569
6.1511064 -1.4675332 -1.841518 4288085770
10.539001 -2.5316868 -0.026188068 4293729569
8.9602976 -2.1499538 -1.7075872 4293729569
10.362451 -2.5046716 -1.4891206 4293729569
10.354449 -2.5136738 -1.5001172 4293729569
8.8032885 -2.1409888 -1.7225263 4293729569
7.3341651 -1.7872902 -1.8569666 4288085770
6.0771084 -1.4915541 -1.8414868 4288085770
10.286437 -2.5466897 -1.5480895 4293729569
8.8573036 -2.1899807 -1.7065452 4293729569
8.5412817 -2.121047 -1.7234244 4293729569
7.2051702 -1.8063228 -1.8489144 4288085770
10.182423 -2.570713 -1.5920483 4293729569
8.3422747 -2.112092 -1.7333467 4293729569
6.0101113 -1.5175735 -1.842458 4288085770
8.7843094 -2.2360017 -1.7085146 4293729569
10.009411 -2.5737517 -1.6229806 4293729569
7.0171766 -1.807368 -1.8238398 4288085770
8.0832701 -2.0861497 -1.7292461 4293729569
5.9411144 -1.5425935 -1.8424286 4288085770
9.8303986 -2.5737913 -1.6529108 4293729569
8.706316 -2.2800233 -1.7084821 4293729569
7.8642631 -2.0671988 -1.7321607 4293729569
11.139472 -2.9395199 -1.657409 4293729569
6.8391838 -1.8094114 -1.799769 4288085770
9.6053867 -2.558841 -1.6728233 4293729569
7.6422567 -2.0452485 -1.7320741 4293729569
5.8801165 -1.5696118 -1.8444022 4288085770
8.6263227 -2.3240457 -1.7084488 4293729569
11.11548 -3.0155299 -1.6703975 4293729569
9.3683758 -2.5378926 -1.6887313 4293729569
6.6661906 -1.8094537 -1.7747002 4288085770
7.4212518 -2.0212984 -1.7299879 4293729569
9.0943642 -2.503953 -1.6946251 4293729569
5.8221192 -1.5956292 -1.8453768 4288085770
8.5653296 -2.370064 -1.7094228 4293729569
7.2012458 -1.9933481 -1.7259021 4293729569
11.088489 -3.0905402 -1.6823848 4293729569
6.5161977 -1.8154912 -1.75464 4293729569
8.840353 -2.4730089 -1.7035266 4293729569
7.0092397 -1.9723916 -1.725827 4293729569
5.7651224 -1.6216468 -1.846352 4288085770
8.6003418 -2.4420619 -1.7104335 4293729569
8.5053368 -2.4180822 -1.710397 4293729569
10.987497 -3.144567 -1.6823441 4293729569
6.8322334 -1.9534318 -1.7277575 4293729569
6.3962026 -1.8275222 -1.7415911 4293729569
8.3623304 -2.4101143 -1.7173412 4293729569
5.7051258 -1.6466649 -1.8453259 4288085770
6.7022262 -1.9454619 -1.7397062 4293729569
8.4633436 -2.4700966 -1.7143782 4293729569
8.19732 -2.3961511 -1.7362765 4293729569
10.927508 -3.2095842 -1.6863189 4293729569
6.3082061 -1.8475462 -1.7355545 4293729569
6.5322199 -1.9245006 -1.7406393 4293729569
7.9963102 -2.3701956 -1.7461982 4293729569
5.6531281 -1.6726815 -1.8463029 4288085770
8.413352 -2.5201123 -1.7153562 4293729569
6.3832135 -1.9075348 -1.7445807 4293729569
7.7883005 -2.339242 -1.7511171 4293729569
10.851517 -3.2696059 -1.6872874 4293729569
6.2422099 -1.8735657 -1.7345262 4293729569
6.216208 -1.884573 -1.7425151 4293729569
7.5672917 -2.3032913 -1.7520311 4293729569
5.6061311 -1.7006968 -1.8472818 4288085770
8.3733597 -2.571126 -1.7173384 4293729569
10.801528 -3.3366213 -1.690266 4293729569
6.0692019 -1.8646071 -1.7444572 4293729569
6.1792135 -1.8995844 -1.7334993 4293729569
7.3012834 -2.2493496 -1.739928 4293729569
7.0692759 -2.2044015 -1.731838 4293729569
5.5571342 -1.7277128 -1.8482598 4288085770
5.9231963 -1.8436404 -1.7443997 4293729569
8.3423672 -2.6261382 -1.7203238 4293729569
6.1032171 -1.9206061 -1.7274672 4293729569
10.730538 -3.3976417 -1.6902367 4293729569
6.8632679 -2.1644473 -1.7277577 4293729569
5.7981901 -1.8276694 -1.7493503 4293729569
6.6672602 -2.1264915 -1.7246814 4293729569
5.5001373 -1.7507306 -1.8452349 4288085770
5.7051821 -1.8206913 -1.7633131 4288085770
8.3023758 -2.6781523 -1.7213057 4293729569
6.0222225 -1.9396288 -1.7194331 4293729569
6.490253 -2.0935311 -1.7236123 4293729569
10.68455 -3.4636564 -1.6922168 4293729569
5.6301737 -1.8187094 -1.7812828 4288085770
6.3122454 -2.056571 -1.7195426 4293729569
5.47014 -1.7827426 -1.8502201 4288085770
5.5521655 -1.814728 -1.7972512 4288085770
8.2803841 -2.7341623 -1.7242947 4293729569
6.1522384 -2.0256069 -1.7194802 4293729569
5.9612265 -1.9646474 -1.7164068 4293729569
10.646562 -3.5336702 -1.6942002 4293729569
5.4941573 -1.8157421 -1.8182276 4288085770
5.99823 -1.9936416 -1.7194197 4293729569
5.4071445 -1.8027616 -1.8431929 4288085770
5.4091501 -1.8077623 -1.8311933 4288085770
5.858223 -1.9656734 -1.7203648 4293729569
8.2373924 -2.7841766 -1.7222756 4293729569
5.9182296 -1.993662 -1.7173873 4293729569
10.605572 -3.6026838 -1.6951822 4293729569
5.3481407 -1.805777 -1.8511688 4282675967
5.7142162 -1.934706 -1.7183086 4293729569
11.543644 -3.95649 -1.6985407 4293729569
5.3061504 -1.8087894 -1.8231512 4288085770
5.2481346 -1.7898002 -1.8561289 4282675967
5.6072083 -1.9157304 -1.7262664 4293729569
5.8442335 -2.011683 -1.7093562 4293729569
8.1764021 -2.8271954 -1.7172496 4293729569
5.5012016 -1.8947544 -1.7322245 4293729569
5.1371293 -1.7698261 -1.8560849 4282675967
10.593585 -3.6806917 -1.6991754 4293729569
11.158631 -3.8945746 -1.6973916 4293729569
5.383194 -1.8687811 -1.7341781 4293729569
5.1931581 -1.8098197 -1.7971047 4288085770
5.2581882 -1.8398095 -1.7311291 4293729569
5.8072376 -2.0426962 -1.710339 4293729569
8.1104107 -2.8672149 -1.7082217 4293729569
5.1751804 -1.8238285 -1.7410961 4293729569
10.800616 -3.8366537 -1.6972528 4293729569
10.566598 -3.7537026 -1.700163 4293729569
5.1061721 -1.8128443 -1.7550685 4288085770
5.085165 -1.8098488 -1.7720603 4288085770
5.0611634 -1.8088548 -1.7760503 4288085770
5.7652416 -2.0707107 -1.7103199 4293729569
10.481603 -3.7887247 -1.7011287 4293729569
8.0244198 -2.8992395 -1.6951861 4293729569
5.0311522 -1.809862 -1.802038 4288085770
10.56361 -3.8347085 -1.7041597 4293729569
4.9971433 -1.8088698 -1.8250239 4288085770
4.9881716 -1.8138757 -1.7500198 4288085770
10.17559 -3.740793 -1.7050097 4293729569
5.7012463 -2.09073 -1.7022926 4293729569
8.0304289 -2.9652436 -1.7001859 4293729569
10.568626 -3.9197125 -1.7071596 4288085770
9.8835764 -3.6938584 -1.708896 4293729569
4.9211764 -1.8268961 -1.7379911 4293729569
5.6432509 -2.111748 -1.6952674 4293729569
8.0204391 -3.0242512 -1.7011796 4293729569
10.56964 -4.002718 -1.7101582 4288085770
9.5915651 -3.6429236 -1.7097822 4293729569
4.8891797 -1.8529086 -1.7369756 4293729569
5.5872555 -2.1327655 -1.6882429 4293729569
8.0194492 -3.0872569 -1.7041768 4293729569
9.3125496 -3.5929861 -1.7116734 4293729569
4.8521833 -1.8759221 -1.7339584 4293729569
5.5542593 -2.1617777 -1.6872275 4293729569
9.0385389 -3.5400474 -1.7115664 4293729569
8.0164585 -3.148263 -1.7041731 4293729569
4.7831888 -1.8859428 -1.7189287 4293729569
8.7615252 -3.48311 -1.7084582 4293729569
5.4362669 -2.1568093 -1.6591792 4293729569
8.023469 -3.214267 -1.7071735 4293729569
8.5205135 -3.4371643 -1.7113639 4293729569
4.7121944 -1.8939641 -1.7018983 4293729569
5.3542719 -2.1628327 -1.642145 4293729569
8.0244799 -3.2782724 -1.7071713 4293729569
8.2905016 -3.3922167 -1.7132736 4293729569
4.6641984 -1.9109803 -1.6928769 4293729569
5.2592778 -2.1638587 -1.6201055 4293729569
8.0524912 -3.3402705 -1.7111803 4293729569
8.0414915 -3.3492742 -1.7111757 4293729569
4.6392021 -1.9359912 -1.6908643 4293729569
7.8484783 -3.3003173 -1.7151 4293729569
5.2492819 -2.1988664 -1.6230989 4293729569
8.0525036 -3.4162772 -1.7121776 4293729569
7.6394677 -3.2553649 -1.715018 4293729569
4.6022062 -1.9560047 -1.6848471 4293729569
5.2022862 -2.2188818 -1.615078 4293729569
7.4284568 -3.2054131 -1.712935 4293729569
8.0625153 -3.4842806 -1.7121792 4293729569
4.5562105 -1.9710205 -1.6748264 4293729569
5.1712914 -2.2438941 -1.6110635 4293729569
7.222445 -3.1554604 -1.7108539 4293729569
8.0975275 -3.5632782 -1.7161907 4288085770
8.9256067 -3.9421051 -1.7205096 4288085770
7.0394344 -3.1135025 -1.7117816 4293729569
4.5112157 -1.9870361 -1.6648061 4293729569
5.1562958 -2.2759023 -1.6110549 4293729569
8.6495886 -3.8621669 -1.718402 4288085770
8.1235409 -3.6382785 -1.7181985 4288085770
6.8424249 -3.0625479 -1.706704 4293729569
5.136301 -2.3049119 -1.6080446 4293729569
8.3745708 -3.7792273 -1.7142947 4288085770
4.4752197 -2.0050492 -1.6567893 4293729569
6.6674142 -3.0185883 -1.7056348 4293729569
8.1455536 -3.7122791 -1.718205 4288085770
8.1495562 -3.7152781 -1.7172066 4288085770
5.1173053 -2.3349214 -1.6060345 4293729569
6.5114045 -2.9816246 -1.706573 4293729569
4.4662237 -2.0350564 -1.6587831 4293729569
7.9285398 -3.6513278 -1.71912 4288085770
8.1855679 -3.7952754 -1.7212185 4288085770
6.3543949 -2.940661 -1.7065107 4293729569
7.7135243 -3.5863757 -1.7200356 4288085770
5.1383104 -2.3819213 -1.6160403 4293729569
4.4182291 -2.0470726 -1.6457616 4293729569
6.1953845 -2.8976982 -1.7044477 4293729569
7.4975095 -3.5184245 -1.7179511 4288085770
8.2125816 -3.8712749 -1.721227 4288085770
5.1303148 -2.4159284 -1.6150346 4293729569
6.0493755 -2.858732 -1.7033899 4293729569
7.2804956 -3.4474733 -1.7128659 4293729569
4.3882341 -2.0660844 -1.6377474 4293729569
7.0834818 -3.3845174 -1.7107885 4293729569
5.8613667 -2.7977757 -1.6893156 4293729569
8.243598 -3.9502735 -1.720237 4288085770
5.0813208 -2.4289446 -1.6020132 4293729569
4.3612375 -2.0860958 -1.631734 4293729569
6.9064689 -3.3275576 -1.7107189 4293729569
5.7393575 -2.7658045 -1.6922668 4293729569
6.7334561 -3.2705967 -1.7106507 4293729569
4.9923267 -2.4209692 -1.5749764 4293729569
5.6293488 -2.7388306 -1.6972228 4293729569
4.346242 -2.111104 -1.6287258 4293729569
6.5614438 -3.2126358 -1.7075831 4293729569
5.1793427 -2.5409327 -1.597047 4293729569
6.3944316 -3.1536734 -1.7045172 4293729569
4.7543349 -2.3380272 -1.5008818 4293729569
4.3162465 -2.1281159 -1.6207114 4293729569
4.7833376 -2.3650227 -1.5068921 4293729569
6.2584205 -3.1097047 -1.7074636 4293729569
6.1054087 -3.0547392 -1.704403 4293729569
4.6353302 -2.3110573 -1.4918333 4293729569
4.7043409 -2.3460431 -1.4848601 4293729569
4.2922506 -2.1481264 -1.6136996 4293729569
5.9703984 -3.0067699 -1.7033498 4293729569
4.511323 -2.2670867 -1.4827839 4293729569
5.7623878 -2.919817 -1.6802682 4293729569
4.5373464 -2.2920847 -1.432793 4293729569
4.4363165 -2.2471051 -1.4877535 4293729569
4.2762556 -2.1701345 -1.6086909 4293729569
4.7163768 -2.3980503 -1.4058615 4293729569
4.409308 -2.2511129 -1.5087416 4293729569
4.48737 -2.2941022 -1.3657717 4293729569
4.4483523 -2.2771096 -1.4037563 4293729569
4.4553614 -2.2901103 -1.3837583 4293729569
4.3763008 -2.251122 -1.5267276 4293729569
4.2592597 -2.1921437 -1.6036818 4293729569
4.4313536 -2.2891164 -1.402748 4293729569
4.346293 -2.2511299 -1.5447147 4293729569
4.4243574 -2.2941198 -1.3937447 4293729569
4.4093451 -2.2891221 -1.4227387 4293729569
4.5525451 -2.3741133 -0.92479354 4293729569
4.4033375 -2.2961237 -1.4467356 4293729569
4.318285 -2.2521374 -1.5637023 4293729569
4.239265 -2.2121532 -1.5956717 4293729569
4.3913288 -2.3001273 -1.4697301 4293729569
4.2772779 -2.2451479 -1.5776855 4293729569
4.3953629 -2.3081307 -1.3827312 4293729569
4.3683214 -2.297133 -1.4877205 4293729569
4.3413134 -2.2911365 -1.5037079 4293729569
4.5276413 -2.3911309 -0.66878021 4293729569
4.2392707 -2.2391548 -1.5916681 4293729569
4.4885497 -2.3731301 -0.90576488 4293729569
4.2272687 -2.2351577 -1.5916634 4293729569
4.3093057 -2.2821438 -1.5186951 4293729569
4.2852974 -2.2751491 -1.5346854 4293729569
4.1772633 -2.2191701 -1.5956434 4293729569
4.3653665 -2.3211398 -1.3717164 4293729569
4.5246816 -2.4091392 -0.56277817 4293729569
4.26929 -2.2731528 -1.5526789 4293729569
4.2382822 -2.2611601 -1.5656667 4293729569
4.1352558 -2.2081807 -1.6076264 4293729569
4.2142749 -2.2521653 -1.5796571 4293729569
4.4746447 -2.3941481 -0.65275824 4293729569
4.177268 -2.2361734 -1.5886424 4293729569
4.2092733 -2.2541671 -1.5836549 4293729569
4.4425545 -2.381146 -0.88974559 4293729569
4.1372609 -2.2171822 -1.595627 4293729569
4.1112542 -2.2051876 -1.6066165 4293729569
4.0392423 -2.1672025 -1.6185886 4293729569
4.0772481 -2.1881948 -1.6136034 4293729569
4.0852485 -2.1931932 -1.6146063 4293729569
4.3503714 -2.3411481 -1.3637094 4293729569
4.458673 -2.402158 -0.5757513 4293729569
4.4677539 -2.411165 -0.35975462 4293729569
4.0382419 -2.1792049 -1.6225873 4293729569
4.4316487 -2.4031632 -0.63874012 4293729569
4.1862779 -2.2711778 -1.5746446 4293729569
4.4235601 -2.4021561 -0.87873679 4293729569
4.3383765 -2.3611557 -1.3567034 4293729569
4.4266663 -2.4111683 -0.59273767 4293729569
4.424746 -2.4141781 -0.3767367 4293729569
4.4036546 -2.4191754 -0.62572789 4293729569
4.162282 -2.2851882 -1.5636339 4293729569
4.3985667 -2.4201672 -0.8657257 4293729569
4.3243814 -2.3801634 -1.3476968 4293729569
4.4046607 -2.426177 -0.61072797 4293729569
4.4007392 -2.4251869 -0.39472628 4293729569
4.3826599 -2.4371853 -0.61471838 4293729569
4.1502867 -2.3061957 -1.5576277 4293729569
4.3113866 -2.3991714 -1.3386904 4293729569
4.3837342 -2.4401937 -0.41371864 4293729569
4.3916554 -2.4451835 -0.62972176 4293729569
4.3755722 -2.4381783 -0.85371542 4293729569
4.364728 -2.4542015 -0.43271011 4293729569
4.3063908 -2.4211769 -1.3326875 4293729569
4.1572909 -2.3361993 -1.5566293 4293729569
4.3706498 -2.4581916 -0.64871252 4293729569
4.3656659 -2.4571946 -0.60271043 4293729569
4.3655787 -2.4621859 -0.8437103 4293729569
4.3527226 -2.470207 -0.45170444 4293729569
4.3053966 -2.4451818 -1.3266859 4293729569
4.3596449 -2.4781976 -0.66870701 4293729569
4.1582956 -2.363204 -1.5536284 4293729569
4.3486719 -2.4772036 -0.59070247 4293729569
4.3595853 -2.4891925 -0.83370662 4293729569
4.3457174 -2.4892116 -0.47170073 4293729569
4.3024015 -2.4681871 -1.3186837 4293729569
4.3526387 -2.4982023 -0.68970329 4293729569
4.1733003 -2.3972054 -1.5556332 4293729569
4.3496799 -2.5062091 -0.58070171 4293729569
4.3565922 -2.5161986 -0.82370418 4293729569
4.341712 -2.5092156 -0.49269825 4293729569
4.3134074 -2.4971886 -1.3156872 4293729569
4.3476334 -2.5192063 -0.71070033 4293729569
4.173305 -2.42221 -1.5516319 4293729569
4.350688 -2.5362144 -0.57070088 4293729569
4.3437076 -2.5322177 -0.5136981 4293729569
4.3595996 -2.5462031 -0.81570429 4293729569
4.3374133 -2.5351877 -1.3156954 4293729569
4.3506298 -2.5452092 -0.73270047 4293729569
4.1733098 -2.4472144 -1.5466307 4293729569
4.3427024 -2.5522208 -0.53469688 4293729569
4.3506956 -2.5632191 -0.55969971 4293729569
4.5114222 -2.6611533 -1.3597628 4293729569
4.3666248 -2.5782089 -0.75770581 4293729569
4.3756075 -2.5842052 -0.80870938 4293729569
4.194314 -2.4832139 -1.5486379 4293729569
4.3556991 -2.5802207 -0.55770117 4293729569
5.7054486 -3.4038918 -1.7062309 4293729569
4.3876214 -2.6132071 -0.78371316 4293729569
4.3777046 -2.6072185 -0.55270922 4293729569
4.3836951 -2.6162171 -0.58271134 4293729569
4.237319 -2.5322084 -1.5586538 4293729569
5.7574577 -3.4628839 -1.710251 4293729569
4.2823243 -2.5822027 -1.5676706 4293729569
5.8004665 -3.5138783 -1.7102675 4288085770
5.8484759 -3.568871 -1.7112859 4288085770
4.3213291 -2.6281974 -1.574685 4293729569
5.9014874 -3.6258633 -1.7113065 4288085770
4.4513345 -2.7301722 -1.6137354 4293729569
5.9634972 -3.6878529 -1.7143307 4288085770
4.5233407 -2.7961597 -1.6307629 4293729569
6.018508 -3.7448442 -1.714352 4288085770
4.5993471 -2.8651466 -1.6477922 4293729569
6.0745196 -3.8018351 -1.713374 4288085770
6.1545315 -3.8718204 -1.7174052 4288085770
4.6463537 -2.9151394 -1.6548102 4293729569
6.2185431 -3.9318092 -1.7164305 4288085770
4.7583604 -3.0051179 -1.6828537 4293729569
6.2955556 -3.9987955 -1.7174608 4288085770
4.8183684 -3.0631077 -1.690877 4293729569
4.858376 -3.1061015 -1.6928924 4293729569
4.9033833 -3.1520948 -1.6949097 4293729569
4.9483914 -3.1970873 -1.6949271 4293729569
5.0014 -3.2470784 -1.6979479 4293729569
5.0554085 -3.2960687 -1.7009687 4293729569
5.1124167 -3.3460584 -1.7029911 4293729569
5.1574259 -3.3870506 -1.7000089 4293729569
5.2234354 -3.4410379 -1.7030348 4293729569
5.2924457 -3.4950244 -1.705062 4293729569
5.354455 -3.5440128 -1.7050864 4288085770
5.4284654 -3.5999978 -1.7081158 4288085770
6.0395484 -4.0138707 -1.717358 4288085770
5.5024767 -3.6539829 -1.708145 4288085770
5.9455352 -3.95489 -1.7183208 4288085770
5.5804873 -3.7099667 -1.7101759 4288085770
5.8535233 -3.8949096 -1.7172842 4288085770
5.6744986 -3.7759473 -1.7152133 4288085770
5.7635107 -3.8359284 -1.7172484 4288085770
7.5735211 5.2286196 -1.7072196 4288085770
7.477529 5.1616044 -1.716189 4288085770
7.6935086 5.3106389 -1.7012576 4288085770
7.8035002 5.3846564 -1.691293 4288085770
7.3645415 5.0795846 -1.7201538 4288085770
7.9194908 5.4606752 -1.6823304 4288085770
7.259553 5.0025663 -1.7251211 4288085770
8.0664749 5.5546999 -1.6783782 4288085770
7.1665621 4.9315505 -1.7310923 4288085770
8.2294579 5.6577277 -1.6744314 4288085770
7.0655746 4.8525329 -1.7340615 4288085770
8.3884439 5.7547541 -1.6684839 4288085770
6.9685869 4.7755151 -1.7370322 4288085770
8.5664244 5.8627839 -1.6645427 4288085770
6.8805976 4.7014995 -1.7410059 4288085770
8.7404079 5.9658127 -1.6586004 4288085770
6.7606173 4.6064749 -1.7339693 4288085770
8.943388 6.0848475 -1.6556683 4288085770
6.6556339 4.5184546 -1.730938 4288085770
8.1066494 5.4986248 -1.3154031 4293729569
8.070672 5.4736099 -1.2753917 4293729569
8.1126337 5.5016332 -1.3494052 4293729569
8.0456934 5.453598 -1.238384 4293729569
8.0856247 5.4806337 -1.3773968 4293729569
9.1313725 6.1918774 -1.6467316 4288085770
8.0207148 5.4315853 -1.2003769 4293729569
8.0776119 5.4696379 -1.4083952 4293729569
6.5436525 4.4254322 -1.7239045 4288085770
8.0147333 5.4205756 -1.1643758 4293729569
8.7434626 5.9147897 -1.5586094 4293729569
8.0177498 5.413568 -1.1303781 4293729569
9.0823774 6.1348686 -1.6527194 4288085770
6.472662 4.3594184 -1.726884 4288085770
8.0187683 5.4025598 -1.0953802 4293729569
8.9263954 6.0168414 -1.6586714 4288085770
8.0626326 5.4196277 -1.3803961 4293729569
8.0457811 5.407558 -1.0633907 4293729569
8.7724161 5.8978143 -1.6626241 4288085770
6.3856769 4.2814007 -1.7238587 4288085770
8.0587969 5.4015512 -1.028397 4293729569
8.6354332 5.7877903 -1.6675829 4288085770
8.0796499 5.4046216 -1.3454053 4293729569
8.0848112 5.4015479 -0.99640787 4293729569
6.3186851 4.2153869 -1.7258399 4288085770
8.5064468 5.6827669 -1.6735439 4288085770
8.0868311 5.3835387 -0.96041137 4293729569
8.1116648 5.3986182 -1.3114196 4293729569
8.3804626 5.577744 -1.6775064 4288085770
6.260694 4.1543751 -1.728824 4288085770
8.0938501 5.3675313 -0.92541665 4293729569
8.260479 5.4757209 -1.681471 4288085770
8.0926914 5.3566041 -1.2704177 4293729569
6.2157001 4.1003661 -1.7338125 4288085770
8.1178646 5.360527 -0.8914277 4293729569
8.1824856 5.3997092 -1.6924493 4288085770
8.0487213 5.2975841 -1.225408 4293729569
8.1498804 5.357523 -0.8574416 4293729569
6.1727057 4.0473576 -1.7398018 4288085770
8.090497 5.3126922 -1.6994232 4288085770
8.0727386 5.2805786 -1.1904205 4293729569
8.1569004 5.3345151 -0.82044786 4293729569
7.9895115 5.2186728 -1.7033944 4288085770
6.1207137 3.9873462 -1.741788 4288085770
8.1909151 5.3295121 -0.78746295 4293729569
8.059763 5.238565 -1.150421 4293729569
7.9125204 5.1396589 -1.7103736 4288085770
6.0767207 3.9313369 -1.7447773 4288085770
8.2529278 5.3395143 -0.75548762 4293729569
7.8245325 5.0516415 -1.7143493 4288085770
8.0747814 5.2135582 -1.115431 4293729569
6.0447254 3.882329 -1.7497704 4288085770
8.3309374 5.3575191 -0.72451782 4293729569
7.752542 4.973628 -1.7203304 4288085770
8.092802 5.1885514 -1.0794423 4293729569
8.4229441 5.3835268 -0.69455284 4293729569
6.0077314 3.8293211 -1.7537619 4288085770
7.6795526 4.8936138 -1.7253113 4288085770
8.1038218 5.1575432 -1.0434513 4293729569
8.5379496 5.4205394 -0.66659594 4293729569
5.9857345 3.7853155 -1.7597586 4288085770
7.5955667 4.8055954 -1.7262883 4288085770
8.1828318 5.1675482 -1.0154831 4293729569
8.6629534 5.4625521 -0.63764274 4293729569
7.5305767 4.7285829 -1.7302722 4288085770
5.9617381 3.7383094 -1.7657547 4288085770
8.1718588 5.1185346 -0.9754858 4293729569
8.8189545 5.5215716 -0.60970008 4293729569
7.4345942 4.6315622 -1.7272457 4288085770
5.9307446 3.6863015 -1.7687484 4288085770
8.2108727 5.1015315 -0.94250482 4293729569
8.9739561 5.5755901 -0.57975787 4293729569
7.3486094 4.541543 -1.7242223 4288085770
5.9137468 3.6432965 -1.7747469 4288085770
9.1539555 5.6436133 -0.55082428 4293729569
8.2458916 5.0785275 -0.90952295 4293729569
9.9700518 6.1306734 -0.15309821 4293729569
7.2966194 4.4705319 -1.7272104 4288085770
5.9017491 3.6012926 -1.7817472 4288085770
9.2829638 5.6756263 -0.51787448 4293729569
8.3249016 5.081532 -0.87955606 4293729569
9.8730526 6.0186605 -0.19107413 4293729569
4.2349281 2.5679953 -1.7951924 4288085770
4.1879334 2.5389872 -1.7951767 4288085770
4.2929201 2.6030064 -1.7992117 4288085770
4.1469369 2.5119798 -1.7971632 4288085770
4.3419147 2.6310151 -1.7982285 4288085770
4.1029425 2.4829714 -1.7961488 4288085770
4.3949099 2.6610241 -1.7972463 4288085770
7.2026377 4.3735099 -1.7201847 4288085770
4.0559497 2.4509616 -1.7921335 4288085770
4.4499044 2.6910331 -1.7972651 4288085770
4.0249515 2.4279563 -1.7961234 4288085770
4.5178957 2.7270453 -1.8002883 4288085770
9.3389816 5.660625 -0.4809007 4293729569
5.8817539 3.5542862 -1.7847449 4288085770
3.9939549 2.4039505 -1.7981135 4288085770
8.3589201 5.0555272 -0.84557432 4293729569
4.5938854 2.7680595 -1.8053143 4288085770
9.8040514 5.9226527 -0.22805952 4293729569
3.9539611 2.3739417 -1.7951005 4288085770
4.6498818 2.7950678 -1.8013337 4288085770
7.1516476 4.3024983 -1.7221731 4288085770
4.7128763 2.8250773 -1.7993557 4288085770
3.9119685 2.3409319 -1.7900871 4288085770
9.4209976 5.6606283 -0.44493592 4293729569
4.7808709 2.8580885 -1.7983793 4288085770
3.8919692 2.3209283 -1.795081 4288085770
5.8597593 3.5052793 -1.786742 4288085770
8.4009371 5.0325246 -0.81259555 4293729569
9.7510481 5.8366475 -0.26505017 4293729569
4.8498654 2.8890994 -1.7964036 4288085770
3.8659723 2.2969224 -1.7960731 4288085770
7.0946579 4.2274847 -1.7221596 4288085770
4.9208603 2.9201097 -1.7934288 4288085770
9.5020123 5.6566324 -0.40797126 4293729569
3.840976 2.2719164 -1.7960654 4288085770
8.4339561 5.0025191 -0.77861404 4293729569
5.8397651 3.4562724 -1.7897397 4288085770
4.9998531 2.9551222 -1.7924566 4288085770
9.6860466 5.7416396 -0.30103713 4293729569
3.8189785 2.2479112 -1.7970588 4288085770
7.0606651 4.1654758 -1.7261539 4288085770
5.0878444 2.9931366 -1.794488 4288085770
9.5890284 5.6546354 -0.37100899 4293729569
3.7979815 2.224906 -1.7980527 4288085770
5.1218433 3.0031412 -1.7915006 4288085770
5.1958351 3.0461545 -1.7935257 4288085770
5.0588498 2.9651299 -1.7924793 4288085770
5.2618289 3.084166 -1.791548 4288085770
4.9948564 2.925118 -1.7924581 4288085770
5.3338223 3.1241782 -1.7895726 4288085770
5.1778369 3.0321515 -1.7945199 4288085770
8.4719753 4.9725151 -0.74463475 4293729569
4.9258661 2.8811047 -1.7884351 4288085770
9.6170454 5.6446323 -0.33502257 4293729569
5.4088144 3.1651909 -1.7885985 4288085770
5.8267689 3.4112666 -1.79274 4288085770
3.7789838 2.201901 -1.7990471 4288085770
4.8788705 2.8490963 -1.7914196 4288085770
5.5028038 3.2152083 -1.791631 4288085770
4.8318744 2.8160875 -1.7944041 4288085770
5.606791 3.2712274 -1.7966669 4288085770
7.0336709 4.1064692 -1.7321507 4288085770
5.2738276 3.0731668 -1.7955543 4288085770
9.6430483 5.6306338 -0.33303595 4293729569
4.7858787 2.7830791 -1.7963892 4288085770
5.6967835 3.3162425 -1.7956983 4288085770
3.7589867 2.1768949 -1.7990413 4288085770
5.7827768 3.3582561 -1.7917285 4288085770
4.7448831 2.751071 -1.7983762 4288085770
5.3668199 3.1101818 -1.7945879 4288085770
8.5819836 4.9845252 -0.71667993 4293729569
9.5030508 5.5206141 -0.3659929 4293729569
5.877769 3.4042716 -1.7897619 4288085770
4.7038875 2.7190633 -1.8003631 4288085770
5.8167725 3.366262 -1.7967415 4288085770
3.7469883 2.1558907 -1.8010385 4288085770
5.9747615 3.4492874 -1.7867962 4288085770
7.0126758 4.0504627 -1.7371496 4288085770
4.6528955 2.6800523 -1.7963468 4288085770
9.7270641 5.6216369 -0.29507363 4293729569
5.4528155 3.1411936 -1.7896192 4288085770
6.0587587 3.4852993 -1.7778264 4288085770
4.6159005 2.6490443 -1.797335 4288085770
3.7219939 2.1278834 -1.7970309 4288085770
9.4820442 5.4506145 -0.39999473 4293729569
8.6919928 4.9945345 -0.68972552 4293729569
6.1717486 3.5363178 -1.7768667 4288085770
5.5698042 3.1892133 -1.7936615 4288085770
4.5799041 2.6170366 -1.798324 4288085770
5.7987776 3.3182552 -1.79774 4288085770
6.9756851 3.9844522 -1.7381432 4288085770
9.7420893 5.5716276 -0.25608796 4293729569
6.2797418 3.5833347 -1.7729056 4288085770
4.5479083 2.5870295 -1.7993143 4288085770
3.7149937 2.1078801 -1.8010297 4288085770
5.6917911 3.238234 -1.7977057 4288085770
6.3907332 3.6303523 -1.7679458 4288085770
9.425045 5.3596072 -0.43098438 4293729569
8.8110018 5.006546 -0.66177464 4293729569
4.5129132 2.5530212 -1.7993037 4288085770
3.7079945 2.088877 -1.8040283 4288085770
5.7767849 3.2652471 -1.7967373 4288085770
5.7967839 3.2762501 -1.7957443 4288085770
6.4937286 3.6713672 -1.7599832 4288085770
9.7871103 5.5376244 -0.21911278 4293729569
6.9596896 3.9304461 -1.7431438 4288085770
4.4869161 2.5250151 -1.8002961 4288085770
6.6177206 3.7223868 -1.7550284 4288085770
5.9117751 3.3182678 -1.7937866 4288085770
9.3960419 5.2846041 -0.46298361 4293729569
3.6939979 2.0638716 -1.8030249 4288085770
4.4499226 2.4900057 -1.7972847 4288085770
8.9360085 5.0195584 -0.63382638 4293729569
6.7407141 3.7704053 -1.7490735 4288085770
5.7687898 3.2212412 -1.7987394 4288085770
9.9041233 5.5426321 -0.18216266 4293729569
6.9376965 3.8724394 -1.7461425 4288085770
4.4259262 2.4609995 -1.798278 4288085770
6.0167704 3.352283 -1.788826 4288085770
3.6869988 2.0428674 -1.8050238 4288085770
6.8697062 3.8204255 -1.743121 4288085770
9.3300428 5.1875949 -0.49197024 4293729569
9.0780153 5.0405741 -0.6068843 4293729569
10.726129 5.9577398 -0.0084530972 4293729569
4.3999314 2.4299924 -1.7972707 4288085770
6.1357632 3.3923013 -1.7858703 4288085770
7.0176964 3.8794491 -1.7401754 4288085770
9.981143 5.5226345 -0.14519921 4293729569
5.763793 3.177237 -1.801743 4288085770
3.6800005 2.0208635 -1.8060226 4288085770
6.9117041 3.8114314 -1.74814 4288085770
4.3879313 2.4069889 -1.8022679 4288085770
7.1716847 3.9394746 -1.7372321 4288085770
6.2637534 3.436321 -1.7839181 4288085770
9.2950401 5.1075902 -0.52196759 4293729569
9.2430191 5.0715938 -0.58095074 4293729569
10.427152 5.7206898 -0.045361318 4293729569
3.6760018 2.00086 -1.8070226 4288085770
10.160151 5.5576549 -0.10927139 4293729569
4.3599377 2.3729806 -1.79926 4288085770
7.3376727 4.0035014 -1.7342935 4288085770
5.738802 3.1232274 -1.7977391 4288085770
6.8997092 3.7574255 -1.7521423 4288085770
6.3927469 3.4773405 -1.7799666 4288085770
9.2890358 5.042592 -0.55197513 4293729569
4.3409414 2.3449743 -1.7982552 4288085770
3.6610065 1.9728531 -1.8030188 4288085770
7.5036621 4.064528 -1.7303553 4288085770
9.3240347 5.0535965 -0.54998863 4293729569
10.287159 5.573668 -0.080324098 4293729569
10.346159 5.5916758 -0.072346896 4293729569
6.5227389 3.5183599 -1.7760158 4288085770
6.8897138 3.7044201 -1.7551454 4288085770
5.7358065 3.0802226 -1.7997432 4288085770
7.6746521 4.1275544 -1.7244191 4288085770
4.3209462 2.3139677 -1.79725 4288085770
3.6979942 1.9738609 -1.8240331 4288085770
9.1910419 4.9275761 -0.57695067 4293729569
6.6457343 3.5523775 -1.7680631 4288085770
9.40205 5.0315995 -0.51702577 4293729569
10.120169 5.413641 -0.11427714 4293729569
7.8546414 4.1915827 -1.7184869 4288085770
10.522169 5.6176953 -0.034419484 4293729569
4.3119464 2.2899637 -1.8002487 4288085770
3.6869988 1.9478544 -1.8200307 4288085770
6.8887177 3.655417 -1.7611517 4288085770
5.7278118 3.035217 -1.7997453 4288085770
6.7887263 3.5963995 -1.7641175 4288085770
8.053628 4.2636161 -1.7155615 4288085770
9.1910372 4.8655777 -0.60596037 4293729569
4.2929521 2.2589569 -1.7972441 4288085770
9.4510698 4.9915962 -0.48305333 4293729569
10.014174 5.2876234 -0.14625122 4293729569
6.9557142 3.6504266 -1.7651808 4288085770
8.2746124 4.3446522 -1.7146443 4288085770
6.8867221 3.6064134 -1.7651576 4288085770
5.7188172 2.9892106 -1.7987473 4288085770
4.2889528 2.2359533 -1.8002446 4288085770
9.2710228 4.844595 -0.63899833 4293729569
9.5180883 4.960597 -0.45108736 4293729569
9.9351768 5.1766129 -0.17823461 4293729569
8.5125952 4.4316931 -1.7147338 4288085770
7.123703 3.7024536 -1.7642449 4288085770
4.2749567 2.2069473 -1.7982416 4288085770
6.8777275 3.5534079 -1.767161 4288085770
5.7188215 2.9462059 -1.7997524 4288085770
8.7375822 4.5087295 -1.7098193 4288085770
9.3740053 4.8336167 -0.67504489 4293729569
7.2776961 3.7444766 -1.7583047 4288085770
9.5881071 4.9285979 -0.41912293 4293729569
9.9191732 5.097611 -0.20924032 4293729569
4.2749572 2.1839447 -1.8022437 4288085770
8.9985628 4.6017733 -1.7099181 4288085770
6.88273 3.5064058 -1.7721696 4288085770
7.4536858 3.7955043 -1.7553728 4288085770
5.7158265 2.9022009 -1.7997568 4288085770
9.4559908 4.8096337 -0.70908433 4293729569
4.2669606 2.1569395 -1.8012431 4288085770
9.6901217 4.9126048 -0.38816994 4293729569
9.8891726 5.0116081 -0.23924108 4293729569
9.323535 4.7228312 -1.7180405 4288085770
7.6306767 3.8435318 -1.7514416 4288085770
6.8867354 3.4584022 -1.775178 4288085770
4.26896 2.134937 -1.8042457 4288085770
9.5239773 4.776649 -0.74111921 4293729569
9.6495085 4.8398871 -1.7231641 4288085770
5.7138319 2.8581955 -1.7987612 4288085770
10.156096 5.0756798 -0.37034756 4293729569
9.9051676 4.9476128 -0.27025837 4293729569
7.7846732 3.8785536 -1.7405027 4288085770
4.2669621 2.1099331 -1.8052473 4288085770
9.9614878 4.9459405 -1.7222835 4288085770
6.8947382 3.4114001 -1.779188 4288085770
9.6429615 4.7666731 -0.7771728 4293729569
5.7108364 2.8131897 -1.7977656 4288085770
7.9876614 3.9355865 -1.7385819 4288085770
10.484089 5.1637292 -0.34647721 4293729569
10.440109 5.1397133 -0.31446177 4293729569
10.281467 5.0519938 -1.7194067 4288085770
4.2689633 2.0859301 -1.8062505 4288085770
6.8967433 3.3613958 -1.7801957 4288085770
8.2006493 3.9936204 -1.7366654 4288085770
9.7429447 4.7466946 -0.8122198 4293729569
5.7178411 2.772186 -1.7977735 4288085770
10.581454 5.1440434 -1.7105235 4288085770
10.53811 5.1137261 -0.31250924 4293729569
4.2729645 2.0629272 -1.8082541 4288085770
12.495893 6.0640998 -0.40821451 4293729569
8.3986406 4.0416512 -1.729744 4288085770
6.8977494 3.3103917 -1.7822032 4288085770
9.989583 4.8009 -1.5603194 4293729569
9.882925 4.7437234 -0.84928179 4293729569
4.2759666 2.0379238 -1.8082575 4288085770
5.7168474 2.7281802 -1.7957786 4288085770
10.518141 5.0267105 -0.2785148 4293729569
10.476099 5.0027232 -0.37450027 4293729569
8.6406269 4.1076913 -1.729839 4288085770
9.944622 4.7258754 -1.5003119 4293729569
6.9077535 3.2633893 -1.7842141 4288085770
4.2799678 2.0139203 -1.8092613 4288085770
10.015907 4.7337508 -0.88634187 4293729569
5.7078552 2.6791728 -1.7907808 4288085770
10.512166 4.9466968 -0.24552546 4293729569
10.4341 4.9057174 -0.40049779 4293729569
8.8536186 4.156724 -1.7219244 4288085770
10.137626 4.7609 -1.4743912 4293729569
4.2849693 1.9899172 -1.8092656 4288085770
6.9187584 3.2163868 -1.7862253 4288085770
10.156888 4.7267799 -0.92340511 4293729569
10.332629 4.7939262 -1.4474717 4293729569
9.1016073 4.2187643 -1.7190233 4288085770
10.673178 4.9427142 -0.21559727 4293729569
5.729856 2.6451724 -1.7947942 4288085770
10.496093 4.8577294 -0.43053317 4293729569
4.2899709 1.9649137 -1.8092699 4288085770
10.399653 4.7659245 -1.4015059 4293729569
10.304869 4.7208104 -0.96047151 4293729569
6.9287629 3.1683838 -1.7872365 4288085770
9.3645935 4.2848082 -1.717128 4288085770
10.856189 4.9467359 -0.18667765 4293729569
10.650076 4.8497596 -0.46360266 4293729569
5.7368612 2.6041682 -1.7938023 4288085770
4.2969723 1.9409107 -1.8092749 4288085770
3.8010046 1.7108253 -1.8310934 4288085770
10.486674 4.7449274 -1.3585479 4293729569
9.621582 4.3428493 -1.7112321 4288085770
10.463848 4.7168422 -0.99954259 4293729569
3.8100154 1.7068201 -1.8070972 4288085770
6.9277706 3.1153779 -1.7842433 4288085770
3.8730106 1.7268302 -1.8081212 4288085770
11.098193 4.9737682 -0.15878052 4293729569
10.799061 4.8367887 -0.49467093 4293729569
5.7488647 2.5641654 -1.7928123 4288085770
4.3089747 1.9179085 -1.810282 4288085770
10.590694 4.7299337 -1.3185965 4293729569
3.9430041 1.7498422 -1.8111476 4288085770
9.9335642 4.4219017 -1.7133567 4288085770
3.8270161 1.6938193 -1.8061053 4288085770
3.7850189 1.6748122 -1.8080896 4288085770
3.8750124 1.714828 -1.8061229 4288085770
3.7980051 1.6798204 -1.8350946 4288085770
3.926008 1.7368371 -1.8071417 4288085770
3.982003 1.7598474 -1.8091625 4288085770
4.0379972 1.7828574 -1.8101834 4288085770
4.0099978 1.769853 -1.8131731 4288085770
4.1059899 1.8108704 -1.8152087 4288085770
10.628826 4.7118754 -1.0386165 4293729569
6.9327774 3.0643735 -1.7822528 4288085770
4.158987 1.8298786 -1.8122287 4288085770
4.0889907 1.7948663 -1.817203 4288085770
4.2179828 1.8518883 -1.8112508 4288085770
