# .PCD v0.7 - Point Cloud Data file format
VERSION 0.7
FIELDS x y z rgb
SIZE 4 4 4 4
TYPE F F F U
COUNT 1 1 1 1
WIDTH 1121
HEIGHT 1
VIEWPOINT 0 0 0 1 0 0 0
POINTS 1121
DATA ascii
7.3885093 2.7164536 -1.8341875 4288085770
9.5884113 3.4303439 -1.7867367 4288085770
13.766851 4.7548718 -1.7692829 4288085770
4.7085347 1.8315272 -1.8222598 4288085770
5.6272321 2.1254344 -1.8180091 4288085770
3.8418789 1.5484706 -1.8286856 4288085770
5.8023877 2.1574485 -1.8226144 4288085770
4.8209114 1.8435116 -1.8186771 4288085770
3.2534547 1.3442898 -1.8469789 4288085770
9.586071 3.3513181 -1.7889935 4288085770
7.4111791 2.6614938 -1.8394653 4288085770
14.46841 4.8828468 -1.7867072 4288085770
5.97333 2.1867824 -1.8232117 4288085770
3.8526406 1.5195179 -1.8258275 4288085770
4.9620533 1.8642273 -1.8221821 4288085770
19.250187 6.3252573 -1.7983114 4288085770
6.155395 2.2172279 -1.8248503 4288085770
3.2757368 1.3214365 -1.8471472 4288085770
9.5878048 3.272965 -1.7902644 4288085770
15.288452 5.0373936 -1.8135241 4288085770
7.4306293 2.6037793 -1.8427392 4288085770
5.0979023 1.8813497 -1.8226777 4288085770
3.8767481 1.4945145 -1.8270106 4288085770
6.3661499 2.2554052 -1.8325801 4288085770
18.772362 6.0358734 -1.7943404 4288085770
5.2418079 1.8988258 -1.8232049 4288085770
3.3030715 1.2991875 -1.8503343 4288085770
16.091051 5.1742692 -1.8323295 4288085770
6.5631728 2.2846408 -1.8332838 4288085770
9.6418705 3.2094686 -1.7996986 4288085770
7.4501567 2.5470614 -1.8460101 4288085770
3.8967147 1.4678334 -1.8261822 4288085770
5.3927665 1.9167382 -1.8247594 4288085770
6.7859006 2.3218436 -1.838065 4288085770
18.490227 5.8099723 -1.8059524 4288085770
16.802286 5.2723436 -1.8368937 4288085770
5.5456429 1.9334902 -1.8253255 4288085770
3.3273473 1.2761735 -1.8505114 4288085770
7.0052505 2.3542955 -1.839849 4288085770
9.6713848 3.1399169 -1.8050534 4288085770
7.4593291 2.486156 -1.846253 4288085770
3.9248066 1.4425119 -1.8283827 4288085770
5.7035046 1.9498405 -1.8259133 4288085770
18.232227 5.5971627 -1.8166186 4288085770
7.229589 2.3863428 -1.8406544 4288085770
17.398836 5.3284774 -1.8251319 4288085770
3.3506246 1.2532401 -1.8506843 4288085770
3.9539742 1.4181066 -1.8305844 4288085770
9.6946945 3.0678458 -1.8063911 4288085770
5.8623686 1.9661038 -1.8245054 4288085770
7.4705787 2.4260828 -1.8455015 4288085770
7.4917521 2.427387 -1.8465834 4288085770
18.027666 5.400106 -1.8294495 4288085770
18.173267 5.4264655 -1.8289534 4288085770
6.0373325 1.983083 -1.8261608 4288085770
3.377892 1.2299851 -1.8508743 4288085770
7.7392573 2.4605737 -1.8474792 4288085770
3.9779344 1.3911009 -1.8287737 4288085770
9.7087173 2.9925101 -1.8067024 4288085770
7.4839034 2.3668458 -1.8447559 4288085770
6.2172847 1.9996572 -1.8268377 4288085770
7.9988084 2.4937887 -1.847424 4288085770
17.828741 5.2106118 -1.8402781 4288085770
18.884205 5.49545 -1.822614 4288085770
3.4000187 1.2051358 -1.850049 4288085770
4.0131607 1.3672125 -1.8319982 4288085770
8.2572098 2.5250847 -1.8453705 4288085770
6.3981562 2.0151513 -1.8265221 4288085770
9.7350235 2.9201946 -1.8070534 4288085770
7.5177102 2.312988 -1.8480755 4288085770
17.597216 5.0147066 -1.8459958 4288085770
8.5500526 2.5606318 -1.8464429 4288085770
6.6074815 2.0353851 -1.8313065 4288085770
3.4200835 1.1794416 -1.846218 4288085770
4.0421824 1.3408045 -1.8312062 4288085770
9.8003101 2.858793 -1.8135267 4288085770
7.5453095 2.2566137 -1.8483783 4288085770
8.8396721 2.5934238 -1.8455114 4288085770
6.820642 2.0532982 -1.8341142 4288085770
17.171001 4.7672553 -1.8300946 4288085770
3.4493456 1.1560259 -1.846417 4288085770
4.0762639 1.3149942 -1.8314328 4288085770
9.1311417 2.6240497 -1.8405948 4288085770
7.0265937 2.0687749 -1.8339005 4288085770
9.8633709 2.7945561 -1.8180003 4288085770
7.5493588 2.1941013 -1.8436061 4288085770
16.868229 4.5580077 -1.8235674 4288085770
9.4170761 2.648093 -1.8326778 4288085770
3.4867334 1.1339663 -1.8486445 4288085770
7.2537093 2.0855622 -1.8367689 4288085770
4.1164789 1.2907009 -1.8336792 4288085770
9.9346428 2.7326689 -1.8234994 4288085770
9.7273273 2.6751957 -1.8268495 4288085770
7.5718207 2.1361303 -1.8418936 4288085770
7.4878058 2.101784 -1.8386675 4288085770
16.640535 4.3718023 -1.8222682 4288085770
3.5169172 1.1094705 -1.8478508 4288085770
4.1536269 1.2656493 -1.8349158 4288085770
10.059828 2.7045145 -1.8211044 4288085770
7.7370114 2.1187956 -1.8416251 4288085770
9.9976311 2.6674299 -1.8259764 4288085770
7.6054864 2.0802674 -1.8412197 4288085770
16.515541 4.2154431 -1.8292867 4288085770
10.415493 2.734977 -1.8164495 4288085770
4.2049603 1.2424709 -1.8392036 4288085770
3.5511627 1.0856531 -1.8480715 4288085770
8.0124416 2.1377118 -1.847683 4288085770
10.096291 2.6093562 -1.8335744 4288085770
10.815884 2.7728744 -1.8159518 4288085770
7.6402287 2.0253201 -1.8405471 4288085770
16.398693 4.06043 -1.8353341 4288085770
4.2398882 1.2145811 -1.8374407 4288085770
3.5834184 1.061993 -1.8472835 4288085770
8.2785168 2.1523571 -1.849717 4288085770
11.240282 2.8098354 -1.8145549 4288085770
10.213293 2.5548213 -1.8422352 4288085770
7.6870904 1.9714038 -1.8409204 4288085770
8.5606213 2.1667125 -1.8518175 4288085770
16.335268 3.9211767 -1.8455458 4288085770
4.2881589 1.1906412 -1.8397188 4288085770
3.6176682 1.0381722 -1.8465041 4288085770
11.702196 2.8517992 -1.8152939 4288085770
8.8638859 2.1823788 -1.8569996 4288085770
2.8793879 0.85411155 -1.8671207 4288085770
10.306664 2.4931514 -1.8458239 4288085770
7.7411647 1.9199176 -1.842315 4288085770
2.9046345 0.85502726 -1.8482203 4288085770
12.189035 2.8917499 -1.8151411 4293729569
16.291191 3.7853732 -1.8548249 4288085770
4.3312173 1.1641042 -1.8389845 4288085770
3.6641083 1.0163857 -1.8487676 4288085770
2.9685755 0.86390382 -1.8464508 4288085770
2.9315901 0.85495549 -1.8803309 4288085770
2.9102507 0.84954321 -1.8422618 4288085770
2.9694324 0.8618173 -1.8424613 4288085770
3.0265484 0.87324947 -1.8406553 4288085770
3.0958524 0.88671887 -1.8428921 4288085770
3.0324416 0.87178063 -1.8436844 4288085770
3.1783361 0.90214878 -1.8501761 4288085770
9.2127914 2.2044032 -1.8663461 4288085770
3.2445025 0.91385686 -1.8494059 4288085770
3.1034327 0.88109732 -1.8439422 4288085770
3.3116708 0.9254812 -1.8476403 4288085770
3.3869658 0.9384616 -1.847903 4288085770
12.648939 2.9208155 -1.8079154 4293729569
3.4529901 0.94816363 -1.8431391 4288085770
10.428492 2.4362185 -1.8535126 4288085770
3.2007866 0.89433485 -1.8542943 4288085770
7.8063636 1.8695427 -1.8447511 4288085770
3.5292082 0.96006399 -1.8424093 4288085770
4.3824768 1.1399233 -1.8412758 4288085770
16.26462 3.6551816 -1.8651564 4288085770
3.2706389 0.90172589 -1.8505539 4288085770
3.6084204 0.9717198 -1.8406926 4288085770
3.7053342 0.99200517 -1.8490187 4288085770
9.532692 2.2147074 -1.8686141 4288085770
3.6967535 0.98465472 -1.8420086 4288085770
3.3506832 0.91131526 -1.8508476 4288085770
13.236805 2.969677 -1.812144 4293729569
3.7799582 0.99598557 -1.8393093 4288085770
3.4285841 0.91906625 -1.8491387 4288085770
3.8865399 1.0114719 -1.8446912 4288085770
10.54204 2.3759301 -1.857179 4288085770
3.5105515 0.92749208 -1.8474442 4288085770
3.9737368 1.0224781 -1.841009 4288085770
4.4356551 1.1145819 -1.8425785 4288085770
7.8866668 1.8199614 -1.8492461 4288085770
9.8503647 2.222177 -1.8688825 4288085770
16.234074 3.5253007 -1.8724707 4288085770
3.739511 0.96718198 -1.8462425 4288085770
4.0863051 1.0374786 -1.8454169 4288085770
3.6015606 0.93620032 -1.8487856 4288085770
14.003651 3.0492799 -1.8339975 4293729569
4.1916714 1.0500394 -1.8458037 4288085770
3.6905041 0.94406652 -1.8481214 4288085770
4.3113012 1.0654705 -1.8492388 4288085770
3.7773809 0.95109075 -1.8454516 4288085770
10.16044 2.2222195 -1.8631451 4288085770
4.4074001 1.0747499 -1.8435988 4288085770
10.662643 2.3160789 -1.8618727 4288085770
4.4908285 1.0890797 -1.8438903 4288085770
14.845293 3.1358948 -1.8591319 4288085770
7.9253335 1.7636834 -1.8445942 4288085770
3.7838054 0.9435569 -1.8465035 4288085770
16.201456 3.394582 -1.8787796 4288085770
3.8733821 0.95939034 -1.8448148 4288085770
4.5166111 1.0849836 -1.8400091 4288085770
4.6411538 1.0990093 -1.841469 4288085770
3.9814939 0.96872813 -1.8472238 4288085770
10.49168 2.2235718 -1.8604895 4288085770
4.7716002 1.1115564 -1.8429581 4288085770
15.671654 3.2066658 -1.8742576 4288085770
4.0966606 0.97850245 -1.85066 4288085770
4.5571136 1.0646958 -1.8482435 4288085770
10.789238 2.2557392 -1.8645924 4288085770
4.8959212 1.1225801 -1.8404273 4288085770
8.0005836 1.713498 -1.8460709 4288085770
3.8320832 0.91961384 -1.8477818 4288085770
16.160641 3.2615077 -1.8820633 4288085770
4.2198 0.98763698 -1.8551308 4288085770
5.0344286 1.1354736 -1.8399478 4288085770
10.88059 2.2313251 -1.865047 4288085770
16.487265 3.2682543 -1.8823701 4288085770
4.3236289 0.9932912 -1.8515347 4288085770
5.1707921 1.146529 -1.8374659 4288085770
4.6183424 1.0397111 -1.850578 4288085770
10.949425 2.2017293 -1.8724277 4288085770
4.4416385 1.0008219 -1.8519901 4288085770
3.8671861 0.89370698 -1.8430133 4288085770
5.319273 1.1586152 -1.8360299 4288085770
8.0778275 1.6631521 -1.8475561 4288085770
16.079329 3.1236615 -1.880198 4288085770
11.263895 2.2314932 -1.8646075 4288085770
17.357868 3.3274105 -1.889715 4288085770
4.568696 1.008629 -1.8534814 4288085770
5.4564819 1.1675907 -1.8315585 4288085770
4.6845598 1.014321 -1.8519341 4288085770
5.6199965 1.1794678 -1.8301843 4288085770
4.6844096 1.0123218 -1.8499404 4288085770
11.10117 2.1423752 -1.8772466 4288085770
3.9327135 0.87239581 -1.848353 4288085770
11.68969 2.2362683 -1.8683254 4288085770
8.1651211 1.6129984 -1.8490818 4288085770
15.909584 2.9708486 -1.8650234 4288085770
18.370077 3.4012387 -1.9045868 4288085770
5.806736 1.1935005 -1.8348975 4288085770
4.8264966 1.0199224 -1.8524935 4288085770
5.9761596 1.2038922 -1.8315526 4288085770
4.9593873 1.0252442 -1.8510171 4288085770
4.7507753 0.98893112 -1.8532906 4288085770
12.164787 2.2430995 -1.8772371 4288085770
3.9921074 0.84956771 -1.851673 4288085770
11.257982 2.083612 -1.8810843 4288085770
6.1850657 1.2191486 -1.8373519 4288085770
5.0941925 1.0294091 -1.8495522 4288085770
8.2554035 1.5626037 -1.8506205 4288085770
15.73287 2.8185942 -1.8488185 4293729569
6.3856964 1.2310464 -1.8381288 4288085770
5.2572899 1.0363212 -1.8531934 4288085770
4.8270288 0.96374339 -1.857687 4288085770
12.683142 2.2514617 -1.8883198 4288085770
6.5963788 1.2431333 -1.8379462 4288085770
4.0504365 0.82581383 -1.8519917 4288085770
11.444096 2.0275059 -1.8870324 4288085770
5.3796844 1.0354463 -1.8436949 4288085770
8.3548164 1.5134782 -1.8521919 4288085770
15.681364 2.6893673 -1.844046 4293729569
6.8180223 1.2543396 -1.8388112 4288085770
5.5335093 1.0390798 -1.8423094 4288085770
4.9062757 0.93831164 -1.8610966 4288085770
13.192732 2.2504907 -1.8953983 4288085770
7.0568442 1.2671742 -1.8417406 4288085770
4.1127453 0.80174512 -1.8543278 4288085770
11.621843 1.9670515 -1.8899611 4288085770
5.7074189 1.0431086 -1.8440043 4288085770
8.4662666 1.4643909 -1.8558125 4288085770
7.3005834 1.2786012 -1.8416946 4288085770
15.779146 2.5832422 -1.8548034 4293729569
13.757774 2.2530789 -1.9056907 4288085770
4.9784002 0.9114365 -1.860482 4288085770
5.8822503 1.0460567 -1.8447067 4288085770
7.577518 1.2913767 -1.8467795 4288085770
4.1709981 0.77699178 -1.8536495 4288085770
11.841164 1.9122845 -1.8980399 4288085770
6.0447435 1.0449686 -1.8393723 4288085770
8.5715847 1.4137833 -1.8564134 4288085770
7.8918786 1.3081651 -1.8560032 4288085770
15.92664 2.4841444 -1.8677397 4293729569
14.262205 2.2374585 -1.9047978 4288085770
5.0494518 0.88364208 -1.8588661 4288085770
6.2547674 1.0491021 -1.844214 4288085770
4.2333088 0.75291973 -1.8549856 4288085770
8.188755 1.3193262 -1.8591745 4288085770
12.051048 1.8522499 -1.9020982 4288085770
6.4605765 1.0505579 -1.8460475 4288085770
8.6878662 1.3622952 -1.8580617 4288085770
14.7792 2.2158058 -1.9019763 4288085770
8.4864082 1.3274018 -1.8573596 4288085770
15.967592 2.3695364 -1.8682946 4293729569
5.1295428 0.85613054 -1.8602862 4288085770
4.3158593 0.7312386 -1.8603963 4288085770
6.6673055 1.050934 -1.8468884 4288085770
8.8132 1.3361446 -1.8586612 4288085770
12.314463 1.7969383 -1.9113587 4288085770
15.235889 2.1799393 -1.8909574 4288085770
8.8233223 1.3122716 -1.8607833 4288085770
5.2157774 0.83012599 -1.8607262 4288085770
6.9082294 1.0525752 -1.8518645 4288085770
16.057022 2.2590506 -1.872033 4288085770
9.1711979 1.3463904 -1.8630844 4288085770
4.3810883 0.70592248 -1.8597482 4288085770
7.1611094 1.0532587 -1.8588923 4288085770
9.5410862 1.3546686 -1.8655629 4288085770
15.725628 2.1434166 -1.8810754 4293729569
12.630255 1.7444339 -1.9248229 4288085770
5.3028488 0.80204856 -1.8611766 4288085770
8.97089 1.2632829 -1.8655508 4288085770
16.216333 2.1569858 -1.8820276 4288085770
7.4016538 1.0499017 -1.8588837 4288085770
9.9491653 1.3638837 -1.8701938 4288085770
4.4462366 0.67961019 -1.8591034 4288085770
16.341362 2.1148181 -1.8836797 4288085770
13.017752 1.6982038 -1.946558 4288085770
5.3980503 0.77532381 -1.8626555 4288085770
7.6916461 1.0506064 -1.8680627 4288085770
10.36507 1.370454 -1.8718655 4288085770
9.1355648 1.21492 -1.870386 4288085770
4.4992905 0.65224677 -1.8514128 4288085770
16.354322 2.0516148 -1.8879467 4288085770
7.9702125 1.0462005 -1.8722124 4288085770
10.803822 1.3741779 -1.8736398 4288085770
16.984842 2.0819764 -1.8864114 4288085770
5.4870424 0.74608272 -1.8611177 4288085770
13.390749 1.6461086 -1.963254 4288085770
9.2949429 1.1629676 -1.8732115 4288085770
11.261597 1.3773648 -1.8734936 4288085770
8.2152061 1.0354446 -1.8652468 4288085770
4.5896549 0.62792993 -1.8568642 4288085770
16.531668 1.9490891 -1.8950166 4288085770
17.716503 2.0480514 -1.8935058 4288085770
5.5881472 0.71787637 -1.8616258 4288085770
11.776501 1.3799646 -1.8765817 4288085770
8.5084934 1.0268375 -1.8674707 4288085770
13.766426 1.589777 -1.9769751 4288085770
9.4695034 1.1128047 -1.878093 4288085770
4.6649337 0.60280311 -1.8552566 4288085770
16.750269 1.8482593 -1.9052488 4288085770
12.407356 1.3902897 -1.8901161 4288085770
8.8267784 1.0172173 -1.8698 4288085770
18.532358 2.0133684 -1.905946 4288085770
5.6892595 0.68966329 -1.8601339 4288085770
14.113501 1.5267071 -1.9836029 4288085770
4.7632751 0.57784015 -1.8597426 4288085770
9.6539555 1.0608385 -1.882021 4288085770
13.377384 1.4285331 -1.9449375 4288085770
9.1751919 1.0081872 -1.8762499 4288085770
16.961584 1.7439976 -1.9124629 4288085770
5.8094511 0.66193199 -1.8637182 4288085770
14.21521 1.4432636 -1.9722999 4288085770
9.5414639 0.99671417 -1.8827808 4288085770
14.460186 1.4586424 -1.9862455 4288085770
4.8555627 0.5523563 -1.8622056 4288085770
9.8524437 1.008743 -1.8860066 4288085770
5.9214482 0.63183814 -1.8622769 4288085770
14.900892 1.4360924 -1.9731168 4288085770
17.21117 1.6416689 -1.9218266 4288085770
9.8911819 0.97853059 -1.8812671 4288085770
4.9418035 0.52634525 -1.8606458 4288085770
14.78042 1.3856738 -1.9827973 4288085770
10.045635 0.95305794 -1.8879826 4288085770
15.505287 1.4153761 -1.9586482 4288085770
6.0254011 0.6013816 -1.8578041 4288085770
10.25477 0.95822841 -1.8808168 4288085770
17.472486 1.53538 -1.9292516 4288085770
5.0450554 0.4999775 -1.8631566 4288085770
15.128563 1.3104542 -1.9794704 4288085770
16.071722 1.3836501 -1.9330621 4288085770
10.640205 0.93516165 -1.880465 4288085770
10.231781 0.89692611 -1.8859317 4288085770
6.1665993 0.57296181 -1.8624763 4288085770
5.1311436 0.47196719 -1.8596028 4288085770
16.849575 1.3619986 -1.9253032 4288085770
17.779968 1.4293854 -1.9388634 4288085770
11.059608 0.91036081 -1.8812573 4288085770
15.440132 1.2291353 -1.9680152 4288085770
6.3036656 0.54285783 -1.8631374 4288085770
10.485163 0.84141248 -1.8921524 4288085770
3.9395785 0.36245412 -1.8391224 4288085770
4.0455208 0.36995706 -1.8405284 4288085770
3.8294988 0.35327333 -1.8357053 4288085770
4.158442 0.37689742 -1.8419647 4288085770
4.2734361 0.38467318 -1.8434067 4288085770
4.3984747 0.39264464 -1.8458887 4288085770
4.5123339 0.39849165 -1.8423325 4288085770
17.874809 1.3485311 -1.937524 4288085770
4.6563821 0.40594196 -1.8478941 4288085770
5.2272763 0.44415283 -1.8570894 4288085770
4.8084846 0.41374549 -1.853487 4288085770
3.9074693 0.35001835 -1.8440343 4288085770
11.519945 0.8832711 -1.8852242 4288085770
4.9665685 0.42106664 -1.8591062 4288085770
4.0121117 0.35360652 -1.8424484 4288085770
18.056005 1.3188926 -1.9433626 4288085770
5.1175365 0.42694134 -1.8597013 4288085770
4.1267896 0.35739711 -1.8439023 4288085770
5.247283 0.43049234 -1.8522174 4288085770
6.4628053 0.51299119 -1.8678874 4288085770
15.747406 1.14414 -1.9525549 4288085770
4.2474499 0.36070538 -1.8453827 4288085770
5.3951211 0.43459895 -1.8478056 4288085770
4.3701077 0.36384943 -1.8458718 4288085770
10.69109 0.78167701 -1.8891941 4288085770
18.930563 1.3275698 -1.9438945 4288085770
5.5761371 0.44006789 -1.8525243 4288085770
4.5057883 0.36695811 -1.8504139 4288085770
12.026361 0.85548538 -1.8933814 4288085770
5.7499619 0.44309059 -1.851222 4288085770
5.3394251 0.4160586 -1.8576422 4288085770
4.6363459 0.36845952 -1.8499407 4288085770
5.9288487 0.44670761 -1.8499384 4288085770
4.7800097 0.37091836 -1.8525175 4288085770
6.6450229 0.48327491 -1.8747312 4288085770
6.1428456 0.45051661 -1.853797 4288085770
18.376057 1.206858 -1.9490465 4288085770
4.9315691 0.37173787 -1.855132 4288085770
16.13213 1.0619416 -1.9434007 4288085770
6.3678837 0.45444074 -1.8587004 4288085770
5.0931726 0.37275317 -1.8587869 4288085770
12.593569 0.82280266 -1.9038026 4288085770
10.967321 0.72331482 -1.8945179 4288085770
6.6300979 0.45939603 -1.8697517 4288085770
5.4446063 0.38851708 -1.8551646 4288085770
5.2416019 0.37180445 -1.8563948 4288085770
6.888103 0.46167049 -1.8767949 4288085770
5.3940234 0.37053093 -1.8530201 4288085770
6.8080029 0.45108113 -1.8755047 4288085770
7.160151 0.4638091 -1.8818958 4288085770
16.609104 0.97933418 -1.9386235 4288085770
18.683844 1.09179 -1.9506906 4288085770
5.5623827 0.36798114 -1.8527145 4288085770
13.314425 0.79281807 -1.9308405 4288085770
7.4732842 0.46566066 -1.8931649 4288085770
5.5667214 0.35961893 -1.8557608 4288085770
11.277592 0.66421914 -1.9019825 4288085770
5.7438545 0.3663823 -1.853459 4288085770
7.7491059 0.46446875 -1.8922924 4288085770
6.9840121 0.418845 -1.8783315 4288085770
5.929163 0.36246261 -1.8522272 4288085770
8.0599518 0.46247265 -1.8965653 4288085770
14.056892 0.75707394 -1.9559859 4288085770
6.12643 0.35758168 -1.8520474 4288085770
17.212599 0.89858061 -1.9423556 4288085770
5.6908326 0.33055663 -1.8553654 4288085770
19.004272 0.97168845 -1.9514035 4288085770
8.3545628 0.45775107 -1.8927811 4288085770
11.622822 0.60331261 -1.9115957 4288085770
6.3618627 0.35365778 -1.8600197 4288085770
7.1870885 0.38643768 -1.8832693 4288085770
8.7043743 0.45360944 -1.8952198 4288085770
6.6173072 0.34912574 -1.8690758 4288085770
14.707041 0.70766282 -1.9628016 4288085770
9.0791798 0.44845769 -1.898764 4288085770
5.818934 0.30116969 -1.8539876 4288085770
17.93441 0.8173275 -1.9525712 4288085770
6.8473887 0.34059569 -1.869042 4288085770
9.5019798 0.44144988 -1.9055098 4288085770
7.400126 0.35323003 -1.8892503 4288085770
11.957783 0.53920829 -1.9161781 4288085770
7.1317401 0.33373225 -1.8782237 4288085770
15.326361 0.64867759 -1.9605241 4288085770
9.9276276 0.43219507 -1.9082748 4288085770
5.9721708 0.27278185 -1.8587087 4288085770
7.4309649 0.32466674 -1.8874732 4288085770
18.674774 0.72955245 -1.9588845 4288085770
10.330976 0.41970068 -1.9029599 4288085770
7.6281934 0.31981269 -1.8952932 4288085770
7.7159381 0.3127217 -1.8906747 4288085770
12.381981 0.47495362 -1.9301244 4288085770
3.927084 0.17897631 -1.8406999 4288085770
15.884714 0.57953525 -1.9470327 4288085770
10.827551 0.40673429 -1.9070264 4288085770
6.1041846 0.24207032 -1.8553512 4288085770
8.0178566 0.29941007 -1.8939497 4288085770
7.8320451 0.28431612 -1.8942446 4288085770
11.367064 0.39131057 -1.9122759 4288085770
4.0046659 0.15767758 -1.840089 4288085770
8.3345699 0.28289682 -1.8962958 4288085770
12.870193 0.40855941 -1.9493388 4288085770
16.494881 0.50622588 -1.9377667 4288085770
11.986618 0.37345785 -1.9228599 4288085770
6.3004179 0.21223846 -1.8662525 4288085770
8.6683121 0.26600948 -1.8977126 4288085770
8.0829601 0.24805066 -1.89939 4288085770
4.0983315 0.13710509 -1.845541 4288085770
12.718348 0.35359555 -1.9399073 4288085770
9.0398426 0.24508137 -1.9022968 4288085770
6.4734397 0.1802403 -1.8680665 4288085770
17.322405 0.42947406 -1.9453974 4288085770
13.424255 0.33786628 -1.971836 4288085770
13.588314 0.33163983 -1.9675251 4288085770
8.3347244 0.20970187 -1.9015462 4288085770
4.1959867 0.11620782 -1.8500104 4288085770
9.4604321 0.22321996 -1.9120843 4288085770
14.395504 0.30165976 -1.9779142 4288085770
6.6464648 0.14823884 -1.8688805 4288085770
9.8697624 0.19823754 -1.9158363 4288085770
18.181196 0.34216961 -1.9501915 4288085770
14.042181 0.26303443 -1.9976074 4288085770
8.5793705 0.16990672 -1.8986781 4288085770
4.2744207 0.09282282 -1.8454099 4288085770
15.137009 0.26489601 -1.9720588 4288085770
10.28278 0.16893181 -1.9146183 4288085770
6.8444781 0.11523072 -1.8717997 4288085770
15.870937 0.22068807 -1.9551977 4288085770
8.8972149 0.13025776 -1.9071077 4288085770
4.3650374 0.071475282 -1.8448522 4288085770
14.577236 0.17979376 -2.0060697 4288085770
10.72661 0.13614127 -1.9145372 4288085770
16.747931 0.17198567 -1.9469342 4288085770
7.0423417 0.080223382 -1.8727249 4288085770
9.2309361 0.08831951 -1.9136099 4288085770
11.25247 0.10076723 -1.9217992 4288085770
4.4655337 0.048334394 -1.8463407 4288085770
17.913284 0.11712833 -1.9578663 4288085770
15.084927 0.092719048 -2.0064332 4288085770
7.2723193 0.045649182 -1.8787796 4288085770
11.952414 0.060435679 -1.9487872 4288085770
9.5985413 0.043651607 -1.9212592 4288085770
4.5510263 0.025379609 -1.8407675 4288085770
12.632814 0.013627935 -1.9657176 4288085770
7.5111947 0.0093486235 -1.8828763 4288085770
15.564108 -0.0001084432 -1.9967004 4288085770
9.9640083 -0.0028616562 -1.9249061 4288085770
4.6535263 0.0020679273 -1.8392645 4288085770
13.515213 -0.04039121 -2.0014949 4288085770
7.7579732 -0.028598137 -1.8850107 4288085770
10.315306 -0.051261276 -1.9215015 4288085770
4.7750249 -0.021758176 -1.842841 4288085770
4.0638824 -0.019538488 -1.845938 4288085770
16.091125 -0.096790828 -1.9881753 4288085770
14.272825 -0.1004632 -2.0127847 4288085770
8.0637608 -0.068268627 -1.8963916 4288085770
4.9015093 -0.045989461 -1.8454391 4288085770
10.748631 -0.10224451 -1.9254398 4288085770
4.1645327 -0.04068359 -1.8484204 4288085770
15.01082 -0.16801089 -2.0130198 4288085770
16.806276 -0.19857353 -1.9954339 4288085770
8.3574524 -0.10898711 -1.9017265 4288085770
5.021945 -0.070744753 -1.8450142 4288085770
11.210861 -0.15555882 -1.9295038 4288085770
4.2541614 -0.061960589 -1.8448583 4288085770
15.66711 -0.24205892 -1.9949437 4288085770
8.6229496 -0.15146998 -1.8979526 4288085770
5.1564074 -0.095622525 -1.8466469 4288085770
17.670994 -0.31139436 -2.0103395 4288085770
11.778034 -0.2132986 -1.9430102 4288085770
4.3707509 -0.084385082 -1.8494098 4288085770
16.488132 -0.3253454 -1.9895705 4288085770
8.9874668 -0.1968829 -1.9085919 4288085770
5.2937822 -0.12174103 -1.8472959 4288085770
12.438042 -0.27650186 -1.9629134 4288085770
4.4743252 -0.1067808 -1.8479084 4288085770
18.457987 -0.4310371 -2.0069513 4288085770
17.520657 -0.4226388 -1.999106 4288085770
9.346941 -0.24290691 -1.9142127 4288085770
5.4491658 -0.14830014 -1.8510194 4288085770
4.5808926 -0.12942109 -1.84542 4288085770
13.220858 -0.34657708 -1.9913398 4288085770
18.544525 -0.52829194 -1.9976348 4288085770
9.7602272 -0.29326174 -1.9230675 4288085770
5.6074638 -0.17610005 -1.8537591 4288085770
4.7024789 -0.15226084 -1.8459932 4288085770
14.075445 -0.42244667 -2.0180786 4288085770
5.7787986 -0.20394866 -1.8565521 4288085770
10.251383 -0.34786409 -1.9412537 4288085770
4.8160219 -0.17546369 -1.8435349 4288085770
14.856625 -0.50147808 -2.0255284 4288085770
5.9580264 -0.23343676 -1.8593827 4288085770
10.634428 -0.40084228 -1.9339939 4288085770
4.9575291 -0.19990112 -1.8471949 4288085770
15.528612 -0.57979792 -2.0085313 4288085770
6.1193352 -0.26149786 -1.8561354 4288085770
5.1070104 -0.22498162 -1.8508894 4288085770
11.060329 -0.45727354 -1.9279205 4288085770
16.375231 -0.66916323 -2.0022826 4288085770
6.320569 -0.29175803 -1.8590584 4288085770
5.246541 -0.24927491 -1.8495408 4288085770
11.541119 -0.51711994 -1.925082 4288085770
17.544504 -0.77445018 -2.0214026 4288085770
6.5326877 -0.32389882 -1.8620319 4288085770
5.39994 -0.27568322 -1.8502557 4288085770
12.158653 -0.58495039 -1.9348278 4288085770
18.75032 -0.88774341 -2.0256979 4288085770
6.772778 -0.35728073 -1.8691236 4288085770
5.5733404 -0.30269298 -1.8540541 4288085770
12.935774 -0.66360337 -1.9592602 4288085770
7.0308032 -0.39210621 -1.8772933 4288085770
5.7567072 -0.33050656 -1.8578959 4288085770
13.801603 -0.74941087 -1.9840783 4288085770
11.812984 -0.655375 -1.9216608 4288085770
11.223526 -0.62487656 -1.9211571 4288085770
12.566097 -0.69602138 -1.9368658 4288085770
10.673944 -0.59760016 -1.9188267 4288085770
13.480883 -0.74666816 -1.962763 4288085770
10.160254 -0.57322109 -1.9156522 4288085770
14.444462 -0.80227375 -1.9818758 4288085770
9.6635284 -0.55022544 -1.9075513 4288085770
7.2817969 -0.42738539 -1.8794355 4288085770
15.303995 -0.85557705 -1.9765569 4288085770
9.1986198 -0.53079844 -1.8995923 4288085770
5.9450612 -0.35872543 -1.8607593 4288085770
16.310198 -0.91869444 -1.9748684 4288085770
8.7357368 -0.51155895 -1.8836421 4288085770
8.1792183 -0.48375005 -1.8722816 4288085770
8.5657349 -0.50487375 -1.8809272 4288085770
8.9821625 -0.52841252 -1.8887029 4288085770
7.8943839 -0.46977606 -1.8800743 4288085770
9.4465046 -0.55480677 -1.8986834 4288085770
14.644238 -0.83739781 -1.9958092 4288085770
17.642736 -1.0020508 -1.9955779 4288085770
7.5655866 -0.45430112 -1.8746828 4288085770
8.3806057 -0.49895865 -1.8831533 4288085770
9.9426651 -0.58476967 -1.9088056 4288085770
7.2706676 -0.44154927 -1.8724387 4288085770
10.468658 -0.61814737 -1.917061 4288085770
8.0245018 -0.48629791 -1.8766603 4288085770
6.9887156 -0.42984921 -1.868251 4288085770
11.001493 -0.65410042 -1.9193529 4288085770
7.5507302 -0.46411145 -1.8816561 4288085770
6.1403947 -0.38751036 -1.8626529 4288085770
6.7206388 -0.42027089 -1.8641268 4288085770
7.7143054 -0.47631881 -1.8763635 4288085770
11.605085 -0.69575077 -1.9249524 4288085770
6.4705844 -0.41114324 -1.860078 4288085770
12.264503 -0.74190956 -1.9287945 4288085770
15.482697 -0.92809248 -1.9955319 4288085770
7.4060445 -0.4675135 -1.8710786 4288085770
6.2373958 -0.40437838 -1.8561056 4288085770
13.123274 -0.8030827 -1.9534997 4288085770
7.1397033 -0.46106803 -1.8719724 4288085770
7.8475642 -0.5030818 -1.8859977 4288085770
6.0321808 -0.39885485 -1.8562512 4288085770
6.3536611 -0.41773546 -1.8666247 4288085770
14.068693 -0.8722558 -1.9755849 4288085770
6.8533893 -0.45404458 -1.862783 4288085770
5.8219156 -0.39393568 -1.8533785 4288085770
16.424732 -1.0281465 -1.9947084 4288085770
14.970009 -0.94193709 -1.9794918 4288085770
5.6266856 -0.38922939 -1.8495679 4288085770
8.1493874 -0.54246056 -1.888361 4288085770
6.624927 -0.45065397 -1.8638414 4288085770
6.6108356 -0.45047796 -1.8777837 4288085770
15.952831 -1.0212091 -1.9807633 4288085770
5.4323788 -0.38560313 -1.8447645 4288085770
6.375566 -0.44560188 -1.8568091 4288085770
17.203806 -1.1210622 -1.997197 4288085770
17.700846 -1.1520752 -2.0153265 4288085770
8.4910736 -0.58504826 -1.8928975 4288085770
6.8081965 -0.47945368 -1.8706861 4288085770
5.2858763 -0.38580203 -1.8501692 4288085770
18.59202 -1.2360036 -2.0112407 4288085770
6.1450615 -0.4430702 -1.8508623 4288085770
5.119472 -0.38441995 -1.8474871 4288085770
8.8248024 -0.62700933 -1.8923995 4288085770
7.0732837 -0.5138523 -1.876883 4288085770
5.9555516 -0.44181514 -1.8530867 4288085770
4.943121 -0.38225073 -1.8397619 4288085770
5.7679725 -0.44173041 -1.851323 4288085770
7.3563914 -0.54870152 -1.8831545 4288085770
9.2332611 -0.67497623 -1.8992263 4288085770
4.8216152 -0.38345972 -1.8462716 4288085770
5.5745053 -0.44017717 -1.8465303 4288085770
9.6556759 -0.7240718 -1.9051137 4288085770
7.6144595 -0.58356702 -1.8793244 4288085770
4.6571522 -0.38325489 -1.8376015 4288085770
5.4038687 -0.44145575 -1.8458402 4288085770
7.918509 -0.62011445 -1.882687 4288085770
10.124939 -0.77694559 -1.9112046 4288085770
4.5406399 -0.38487256 -1.842133 4288085770
8.2753658 -0.66090554 -1.8912792 4288085770
10.603111 -0.83155584 -1.9123377 4288085770
5.237309 -0.44206637 -1.8431643 4288085770
4.4111156 -0.38646153 -1.8406115 4288085770
8.6132355 -0.70119226 -1.8917922 4288085770
11.166061 -0.89198267 -1.9198357 4288085770
5.0966444 -0.44475031 -1.8456013 4288085770
8.9840755 -0.74313557 -1.892445 4288085770
11.796783 -0.95786899 -1.9296284 4288085770
4.3035016 -0.3898024 -1.8441851 4288085770
9.4206734 -0.79036099 -1.9003838 4288085770
12.486235 -1.0294977 -1.9386796 4288085770
4.9459553 -0.44764343 -1.8429981 4288085770
4.1909122 -0.39274797 -1.8457373 4288085770
9.8792095 -0.83936161 -1.9064178 4288085770
13.270365 -1.1087533 -1.9511423 4288085770
10.373627 -0.89125937 -1.9116076 4288085770
14.168114 -1.1971631 -1.9670987 4288085770
4.7983408 -0.44978479 -1.8394046 4288085770
10.900036 -0.94474351 -1.9139332 4288085770
15.155663 -1.2918214 -1.9804419 4288085770
11.522181 -1.0049249 -1.9236714 4288085770
16.238749 -1.3961995 -1.9912072 4288085770
12.206045 -1.0710865 -1.9336811 4288085770
4.6597719 -0.45164996 -1.8368472 4288085770
17.495251 -1.5145513 -2.0067265 4288085770
12.986578 -1.1450325 -1.9481111 4288085770
13.846943 -1.2244229 -1.9598844 4288085770
14.847826 -1.3151313 -1.9772686 4288085770
18.033331 -1.5860807 -1.9901606 4288085770
15.890694 -1.4082501 -1.9858316 4288085770
17.166832 -1.519146 -2.0064051 4288085770
18.580622 -1.6401559 -2.0225735 4288085770
4.5390544 -0.45594835 -1.837371 4288085770
16.700748 -1.4906688 -1.9754101 4288085770
15.55048 -1.4109541 -1.9644557 4288085770
14.494926 -1.3388932 -1.9489129 4288085770
4.4312835 -0.46128181 -1.8409508 4288085770
13.563044 -1.2758005 -1.9349041 4288085770
12.745699 -1.2229385 -1.9243965 4288085770
4.3116565 -0.46467447 -1.8384758 4288085770
18.493416 -1.7535434 -1.9916052 4288085770
12.027946 -1.1791083 -1.9153252 4288085770
17.105774 -1.6566992 -1.9766258 4288085770
4.1999178 -0.46969986 -1.8380386 4288085770
11.37207 -1.1392626 -1.9075196 4288085770
15.878618 -1.5728008 -1.9613441 4288085770
10.773926 -1.1050755 -1.899968 4288085770
14.846811 -1.504645 -1.9509115 4288085770
10.254597 -1.076236 -1.8947558 4288085770
13.878897 -1.4406545 -1.935753 4288085770
9.7740593 -1.0515248 -1.8907155 4288085770
13.072342 -1.3906561 -1.9292994 4288085770
9.3274155 -1.0295498 -1.8858227 4288085770
12.322624 -1.3452532 -1.9190927 4288085770
8.9415607 -1.0124654 -1.8851939 4288085770
11.673559 -1.3079561 -1.9133234 4288085770
8.5984726 -0.99982363 -1.8877546 4288085770
17.940111 -1.9966238 -2.0161836 4288085770
11.079409 -1.2740908 -1.9057896 4288085770
17.735378 -1.9861858 -1.9963142 4288085770
4.1342826 -0.53859335 -1.8410088 4288085770
8.2405472 -0.98500669 -1.8822474 4288085770
16.602222 -1.8927766 -1.9963828 4288085770
10.539989 -1.2456362 -1.9004968 4288085770
4.2527704 -0.56217468 -1.8455719 4288085770
16.523315 -1.9145463 -1.977136 4288085770
15.453863 -1.8022 -1.9803995 4288085770
7.9264655 -0.9737134 -1.8809307 4288085770
10.064358 -1.2223197 -1.8974817 4288085770
4.3731794 -0.58691967 -1.8481468 4288085770
14.429338 -1.7185997 -1.9659438 4288085770
7.6343112 -0.96418869 -1.8797092 4288085770
15.500521 -1.8591466 -1.9677838 4288085770
4.4778266 -0.60840935 -1.8436463 4288085770
13.54941 -1.645649 -1.9551132 4288085770
9.6136532 -1.20102 -1.8925745 4288085770
12.74938 -1.5771366 -1.9446229 4288085770
4.6002407 -0.63332522 -1.8432299 4288085770
7.3540444 -0.95662826 -1.877543 4288085770
14.575584 -1.8096455 -1.9548501 4288085770
4.7406521 -0.6586749 -1.8478884 4288085770
12.019129 -1.5142548 -1.9334358 4288085770
9.2444935 -1.1882808 -1.8950288 4288085770
11.348919 -1.4532042 -1.9234995 4288085770
4.8879657 -0.68558699 -1.8515801 4288085770
7.0640006 -0.94629484 -1.8683274 4288085770
18.786871 -2.3456573 -2.0278225 4288085770
4.2330432 -0.6087079 -1.8466519 4288085770
10.746401 -1.3986125 -1.9148607 4288085770
8.8715286 -1.1732444 -1.8924599 4288085770
5.0412626 -0.71298462 -1.8542979 4288085770
4.368546 -0.63265604 -1.8522854 4288085770
13.762356 -1.7681417 -1.9453986 4288085770
17.317072 -2.1980841 -2.006336 4288085770
10.231569 -1.3510716 -1.9136031 4288085770
4.4932632 -0.6537441 -1.8528652 4288085770
5.1856799 -0.73867261 -1.8539735 4288085770
16.052422 -2.0690494 -1.9897476 4288085770
6.8226876 -0.94087332 -1.866327 4288085770
9.7398415 -1.3034037 -1.907439 4288085770
4.6129336 -0.67543983 -1.8494265 4288085770
5.3399887 -0.76616412 -1.8526956 4288085770
8.5146027 -1.1585047 -1.887957 4288085770
14.933144 -1.9537474 -1.9727981 4288085770
9.3108044 -1.2617764 -1.9075507 4288085770
4.7634683 -0.6996007 -1.8541219 4288085770
5.5231719 -0.79596329 -1.8585432 4288085770
13.039825 -1.7339467 -1.9383411 4288085770
13.972258 -1.8522165 -1.9585404 4288085770
8.8889275 -1.2187393 -1.9016865 4288085770
4.9130182 -0.72369134 -1.8558129 4288085770
6.6171565 -0.93932194 -1.8704858 4288085770
5.7172394 -0.82764304 -1.8644414 4288085770
8.5227642 -1.18118 -1.9020683 4288085770
5.0586681 -0.74647081 -1.8554838 4288085770
13.115854 -1.7611053 -1.9487437 4288085770
8.1349506 -1.1388936 -1.8933454 4288085770
5.2341189 -0.77264136 -1.8602874 4288085770
5.9113231 -0.8593362 -1.8663399 4288085770
8.1576138 -1.1447746 -1.8794575 4288085770
12.352154 -1.6774735 -1.9383496 4288085770
7.8108163 -1.1027247 -1.8919024 4288085770
5.3986263 -0.79794437 -1.8600434 4288085770
7.4896941 -1.0668138 -1.8854729 4288085770
6.1005177 -0.8896445 -1.8642136 4288085770
5.5731754 -0.82305169 -1.8608396 4288085770
11.659136 -1.6005422 -1.9292662 4288085770
7.1935592 -1.0319095 -1.8811483 4288085770
5.7735467 -0.85123515 -1.8647516 4288085770
6.9262433 -1.000326 -1.8789526 4288085770
6.3234968 -0.92366213 -1.8682374 4288085770
6.6759458 -0.96910942 -1.8778273 4288085770
5.9828877 -0.88014221 -1.8687024 4288085770
11.038792 -1.5304687 -1.9225022 4288085770
6.1933174 -0.9081434 -1.8696545 4288085770
6.4226799 -0.93766856 -1.8716888 4288085770
12.376188 -1.7035013 -1.9305364 4288085770
6.3749537 -0.93284374 -1.8624781 4288085770
6.5634151 -0.95904297 -1.8733348 4288085770
10.486141 -1.4668542 -1.9170353 4288085770
6.7855039 -0.99200732 -1.8703514 4288085770
9.9951935 -1.4092101 -1.9148405 4288085770
7.8743472 -1.136963 -1.8802782 4288085770
7.0700974 -1.0329847 -1.8796498 4288085770
9.5599766 -1.3570571 -1.914891 4288085770
7.3399329 -1.0707904 -1.8808773 4288085770
9.1198769 -1.3035228 -1.909917 4288085770
8.7167397 -1.2519698 -1.9041001 4288085770
7.6693778 -1.1153852 -1.8903706 4288085770
7.9859738 -1.1579621 -1.8928046 4288085770
8.3403492 -1.2045764 -1.8994061 4288085770
6.1744328 -0.93171453 -1.8606586 4288085770
11.796272 -1.6798019 -1.9250953 4288085770
17.964857 -2.5020275 -2.0050111 4288085770
7.6059537 -1.1313536 -1.8811672 4288085770
18.118027 -2.5423934 -2.0267727 4288085770
5.9889345 -0.93078798 -1.8609009 4288085770
18.260223 -2.6090634 -2.0105791 4288085770
11.245434 -1.6564513 -1.9167742 4288085770
16.823683 -2.422051 -1.9910935 4288085770
7.3336759 -1.1244432 -1.8770359 4288085770
16.970711 -2.4639275 -2.0128353 4288085770
5.8103395 -0.9314239 -1.8601767 4288085770
7.0853152 -1.1194586 -1.8740084 4288085770
10.768181 -1.6410285 -1.9127796 4288085770
15.796139 -2.3512418 -1.9766697 4288085770
17.343491 -2.5822716 -2.0017567 4288085770
15.926544 -2.3877666 -1.9983255 4288085770
5.6407948 -0.93178695 -1.8594884 4288085770
6.8221936 -1.1112993 -1.86391 4288085770
14.907059 -2.2925963 -1.9648511 4288085770
10.3239 -1.6272622 -1.9089247 4288085770
14.935621 -2.3108978 -1.9800302 4288085770
5.4722619 -0.93224061 -1.8558046 4288085770
16.462061 -2.5533252 -1.9890708 4288085770
6.6274753 -1.1126281 -1.8671228 4288085770
14.124456 -2.2445345 -1.9565023 4288085770
9.9274616 -1.6173513 -1.906278 4288085770
14.112949 -2.2495744 -1.9724728 4288085770
5.3235679 -0.93528485 -1.8562105 4288085770
6.4141722 -1.1084714 -1.8622409 4288085770
15.651657 -2.5271046 -1.9746833 4288085770
13.361288 -2.1909692 -1.9652138 4288085770
13.433466 -2.2048547 -1.9515548 4288085770
9.5817585 -1.6125195 -1.9088551 4288085770
5.1749625 -0.93733948 -1.8546132 4288085770
6.228519 -1.1095376 -1.8624896 4288085770
12.634964 -2.1294088 -1.9530478 4288085770
12.794321 -2.1693649 -1.9438329 4288085770
14.979446 -2.5160165 -1.9689103 4288085770
9.2391472 -1.6069496 -1.9064423 4288085770
5.0323429 -0.93987983 -1.8520422 4288085770
6.0468593 -1.1109289 -1.8617556 4288085770
11.99427 -2.0757484 -1.9442574 4288085770
4.901598 -0.94437456 -1.851526 4288085770
12.21888 -2.1400099 -1.9383911 4288085770
8.8987026 -1.5995579 -1.9010321 4288085770
14.363295 -2.5064437 -1.9623706 4288085770
5.8901048 -1.1143197 -1.8641299 4288085770
11.432293 -2.0284183 -1.9418091 4288085770
17.745033 -3.1028883 -2.0371721 4288085770
4.7669597 -0.94756144 -1.8479896 4288085770
10.881624 -1.9780074 -1.9333961 4288085770
11.690287 -2.1144328 -1.9331532 4288085770
8.6216984 -1.6012692 -1.9039116 4288085770
5.7234859 -1.1159272 -1.8614579 4288085770
16.487104 -2.9533579 -2.0135422 4288085770
13.827709 -2.505362 -1.9601879 4288085770
10.380699 -1.9325988 -1.9292027 4288085770
4.6551456 -0.95357674 -1.849556 4288085770
11.218424 -2.0944309 -1.929165 4288085770
5.5598617 -1.1177791 -1.8577992 4288085770
15.384338 -2.8203466 -1.9925998 4288085770
8.3241158 -1.5973343 -1.8986876 4288085770
9.9286861 -1.8901293 -1.9262185 4288085770
13.333153 -2.5055873 -1.9571768 4288085770
14.469189 -2.7114606 -1.9825038 4288085770
4.5393553 -0.95927727 -1.849105 4288085770
5.4161601 -1.1212289 -1.8572267 4288085770
10.772564 -2.075526 -1.9242867 4288085770
9.5025959 -1.8497535 -1.9223469 4288085770
8.0554371 -1.5957273 -1.8945894 4288085770
13.657457 -2.6139178 -1.9748675 4288085770
9.1154442 -1.8115062 -1.9216412 4288085770
4.4414139 -0.96741116 -1.8517349 4288085770
12.856794 -2.5042806 -1.9512345 4288085770
5.2674899 -1.1242868 -1.8536329 4288085770
12.905531 -2.5211978 -1.9674909 4288085770
10.382351 -2.0631058 -1.922657 4288085770
7.800714 -1.5952458 -1.8905518 4288085770
8.728548 -1.7702835 -1.9169263 4288085770
12.197638 -2.4300394 -1.9552989 4288085770
4.339653 -0.97323745 -1.8523415 4288085770
8.3635883 -1.730836 -1.9103067 4288085770
5.1505265 -1.1318862 -1.8571838 4288085770
10.057577 -2.0599558 -1.9273252 4288085770
12.425287 -2.506588 -1.9464872 4288085770
11.575041 -2.3507555 -1.9494947 4288085770
7.5718131 -1.5978404 -1.88963 4288085770
8.030508 -1.6939474 -1.9078255 4288085770
18.621809 -3.7083199 -1.9558105 4293729569
4.2368274 -0.97998649 -1.8509469 4288085770
10.983435 -2.2729769 -1.9408218 4288085770
5.0187979 -1.1363072 -1.8546636 4288085770
7.7105584 -1.6561216 -1.9023947 4288085770
9.6914673 -2.0474889 -1.9207935 4288085770
10.466326 -2.2042029 -1.9364825 4288085770
7.3696551 -1.6045883 -1.8918313 4288085770
12.035559 -2.5132647 -1.9429249 4288085770
18.320608 -3.7393317 -1.9036907 4293729569
7.42623 -1.6241615 -1.9021288 4288085770
4.1498532 -0.98900467 -1.8536247 4288085770
17.453945 -3.6002002 -1.9146888 4293729569
9.9998837 -2.1415145 -1.9343706 4288085770
4.9079041 -1.1433996 -1.8562374 4288085770
7.1491323 -1.5897887 -1.8978841 4288085770
18.025919 -3.7497003 -1.8885272 4293729569
9.3680458 -2.0404613 -1.9174544 4288085770
9.5553761 -2.0806015 -1.930354 4288085770
7.1587863 -1.6076405 -1.8889846 4288085770
6.8839927 -1.5563773 -1.8946912 4288085770
11.671663 -2.5230243 -1.9404782 4288085770
9.1417618 -2.0221772 -1.9274715 4288085770
17.597277 -3.7292099 -1.8727132 4293729569
4.7901278 -1.1489427 -1.8547779 4288085770
16.370064 -3.4958546 -1.8709217 4293729569
6.61305 -1.5205044 -1.8874664 4288085770
8.7431946 -1.9639753 -1.9206511 4288085770
9.0675468 -2.035279 -1.9152145 4288085770
16.825546 -3.6219208 -1.8442061 4293729569
6.3876891 -1.4912978 -1.8864499 4288085770
6.9598851 -1.6116607 -1.8851898 4288085770
8.3655605 -1.9074618 -1.9139214 4288085770
6.150712 -1.4571617 -1.879369 4288085770
11.319063 -2.52969 -1.9360672 4288085770
4.6693749 -1.154255 -1.8503056 4288085770
8.0236435 -1.8558316 -1.9083538 4288085770
16.747524 -3.6828721 -1.8240974 4293729569
15.547482 -3.4345858 -1.8473657 4293729569
5.9610572 -1.4328283 -1.8825146 4288085770
8.7800159 -2.0311487 -1.9110314 4288085770
7.6799836 -1.8010616 -1.8997684 4288085770
15.936129 -3.5432169 -1.8243184 4293729569
5.7617745 -1.4037225 -1.8806045 4288085770
6.770947 -1.6164817 -1.8824383 4288085770
7.3906398 -1.7566702 -1.8974395 4288085770
4.5566754 -1.1592141 -1.8458645 4288085770
5.5704651 -1.3752599 -1.878729 4288085770
10.999197 -2.5410011 -1.9318053 4288085770
7.1222196 -1.713964 -1.8962015 4288085770
5.3841476 -1.347206 -1.8748752 4288085770
14.878475 -3.3967059 -1.8335147 4293729569
6.8479981 -1.6687961 -1.8909316 4288085770
8.524292 -2.0305803 -1.9089895 4288085770
16.133236 -3.6765244 -1.7955767 4293729569
5.2206559 -1.3219837 -1.875124 4288085770
6.600863 -1.6238227 -1.8807722 4288085770
15.090971 -3.4630687 -1.8046061 4293729569
6.5907187 -1.6249948 -1.885735 4288085770
5.0453854 -1.293821 -1.8703147 4288085770
4.4755106 -1.1706972 -1.8515747 4288085770
6.3650775 -1.5867411 -1.8846864 4288085770
4.8899512 -1.2682489 -1.8695952 4288085770
6.1395288 -1.5475013 -1.8806347 4288085770
10.692448 -2.5513651 -1.9275936 4288085770
4.7326198 -1.2415332 -1.8648636 4288085770
5.9268532 -1.5102994 -1.8776423 4288085770
8.2785358 -2.0308158 -1.9069914 4288085770
4.5812683 -1.2152996 -1.8601582 4288085770
14.374594 -3.3881507 -1.8324361 4293729569
6.4397483 -1.6318841 -1.8801452 4288085770
5.7360153 -1.4758557 -1.8767482 4288085770
14.526455 -3.4345551 -1.8122126 4293729569
4.4555621 -1.1941215 -1.8625748 4288085770
15.234797 -3.6002307 -1.7326603 4293729569
4.3785858 -1.1789218 -1.8512093 4288085770
5.5442686 -1.4403419 -1.8738468 4288085770
4.3309364 -1.1720309 -1.8639922 4288085770
5.3712916 -1.4083414 -1.8730335 4288085770
4.2044911 -1.1478004 -1.861395 4288085770
5.2013907 -1.3755924 -1.8702304 4288085770
5.0335679 -1.3420111 -1.8664328 4288085770
10.425236 -2.5689189 -1.9265674 4288085770
4.884429 -1.3129361 -1.8657266 4288085770
8.0488091 -2.0313416 -1.9050593 4288085770
4.7354574 -1.2818749 -1.8630145 4288085770
4.583509 -1.2505829 -1.8572891 4288085770
4.4582839 -1.2234336 -1.8576868 4288085770
6.277729 -1.6388787 -1.8765109 4288085770
13.882851 -3.3785779 -1.8284036 4293729569
4.336967 -1.1976022 -1.8581049 4288085770
13.986189 -3.4039922 -1.8179108 4293729569
4.2916241 -1.1879469 -1.8518873 4288085770
4.2176471 -1.1719348 -1.8575317 4288085770
14.806135 -3.6178484 -1.7149773 4293729569
7.8309693 -2.0338314 -1.9021826 4288085770
10.199633 -2.5928252 -1.9297323 4288085770
4.2027569 -1.1958215 -1.8505536 4288085770
6.1325636 -1.6482264 -1.8759531 4288085770
13.532129 -3.3863745 -1.8320043 4293729569
13.431135 -3.3702281 -1.8245381 4293729569
15.292316 -3.8218677 -1.267648 4293729569
15.274708 -3.8416052 -0.57163441 4293729569
14.709398 -3.7102711 -1.7309011 4293729569
15.263285 -3.8452356 -1.0556071 4293729569
7.6112256 -2.035171 -1.8972939 4288085770
15.253239 -3.8748353 -0.28465712 4293729569
9.9693794 -2.6123543 -1.9298635 4288085770
5.9952931 -1.6592135 -1.8754333 4288085770
12.95356 -3.3337007 -1.827471 4293729569
15.179302 -3.8806469 -1.0323868 4293729569
15.171371 -3.888118 -1.3343842 4293729569
12.996544 -3.3612659 -1.8167402 4293729569
15.19932 -3.9018531 -0.1915293 4293729569
15.166527 -3.92924 -0.53949475 4293729569
14.614822 -3.8008692 -1.7448275 4293729569
15.152693 -3.9344904 -1.086464 4293729569
7.4153161 -2.0394294 -1.8945124 4288085770
12.401234 -3.2791381 -1.821038 4293729569
5.8591843 -1.6682919 -1.8739116 4288085770
15.148613 -3.9645627 -0.31853998 4293729569
9.7923679 -2.6431813 -1.9352497 4288085770
15.133326 -3.9710636 -1.407515 4293729569
15.106995 -3.981051 -1.0504375 4293729569
12.651821 -3.3695552 -1.8173671 4293729569
15.10924 -3.9998813 -0.1894993 4293729569
7.2470593 -2.0489144 -1.8958614 4288085770
15.145767 -4.0399637 -0.50978982 4293729569
15.125837 -4.0425143 -1.1237259 4293729569
14.505552 -3.8872824 -1.75568 4293729569
11.88188 -3.2262292 -1.8157449 4293729569
5.7565393 -1.6850647 -1.8785526 4288085770
15.163221 -4.0694962 -1.4879755 4293729569
15.147509 -4.0766654 -0.35692072 4293729569
9.5761604 -2.6628466 -1.9334385 4288085770
12.264915 -3.3664439 -1.8097835 4293729569
15.139719 -4.1099663 -1.0740131 4293729569
15.146955 -4.1302691 -0.19110008 4293729569
7.0749907 -2.0560985 -1.8931869 4288085770
11.38868 -3.172421 -1.8105551 4293729569
18.288412 -4.9702206 -1.8687779 4293729569
5.6372128 -1.6974988 -1.8781108 4288085770
14.408089 -3.9766598 -1.7645906 4293729569
9.3915977 -2.6880662 -1.9337752 4288085770
11.939472 -3.3722892 -1.8064804 4293729569
10.843819 -3.1004419 -1.7940929 4293729569
6.9314847 -2.0695791 -1.8966504 4288085770
16.855942 -4.6973825 -1.8210169 4293729569
5.5091724 -1.7062345 -1.8736207 4288085770
14.331146 -4.0726976 -1.7766075 4293729569
9.2130184 -2.7137687 -1.9341379 4288085770
10.43018 -3.0550439 -1.7932558 4293729569
11.622005 -3.3787806 -1.8022124 4293729569
15.675943 -4.4779611 -1.786466 4293729569
6.7616658 -2.0739453 -1.8909755 4288085770
5.4057903 -1.7199515 -1.8742483 4288085770
14.274145 -4.1703491 -1.7867113 4293729569
9.9640522 -2.989408 -1.7791355 4293729569
9.0660038 -2.7460186 -1.9376515 4288085770
14.906319 -4.3557119 -1.7869176 4293729569
11.33835 -3.3890018 -1.7980946 4293729569
6.6153531 -2.0852091 -1.88942 4288085770
5.2956042 -1.7311233 -1.8718394 4288085770
9.5238361 -2.9258592 -1.7661282 4293729569
14.293362 -4.2681255 -1.7991253 4293729569
14.188578 -4.2616949 -1.7936772 4293729569
8.771162 -2.7343459 -1.911413 4288085770
6.4780917 -2.0962 -1.8879004 4288085770
10.999125 -3.3797295 -1.7836839 4293729569
9.1056271 -2.8630819 -1.7532127 4293729569
5.2040215 -1.7477946 -1.873525 4288085770
13.858265 -4.2259169 -1.8292123 4293729569
8.4579773 -2.7141957 -1.8780708 4288085770
14.063972 -4.3398895 -1.7924393 4293729569
6.355691 -2.1093864 -1.8884487 4288085770
10.628756 -3.358943 -1.762107 4293729569
8.8258724 -2.8364801 -1.7609847 4293729569
13.210169 -4.1144814 -1.8271953 4293729569
5.1184187 -1.7649481 -1.8752367 4288085770
12.622301 -4.0149102 -1.829464 4293729569
8.5796661 -2.8165793 -1.7739161 4293729569
8.124527 -2.6844072 -1.8386133 4293729569
6.2352071 -2.1237299 -1.889009 4288085770
13.877806 -4.3980989 -1.7838826 4293729569
10.330317 -3.3539634 -1.747877 4293729569
5.0270047 -1.7796335 -1.8749164 4288085770
11.950869 -3.8825822 -1.8132803 4293729569
8.3425922 -2.7954128 -1.7858803 4293729569
6.1060934 -2.1333816 -1.8845179 4288085770
7.8531127 -2.6686199 -1.8084559 4293729569
13.914793 -4.5243735 -1.799467 4293729569
9.9009743 -3.3064053 -1.7109686 4293729569
4.9405746 -1.7947209 -1.8746178 4288085770
11.324131 -3.7558641 -1.797298 4293729569
8.0920639 -2.7671564 -1.7937654 4293729569
5.9974918 -2.1496863 -1.8851333 4288085770
7.6591763 -2.6740766 -1.793687 4293729569
7.8290811 -2.7318978 -1.7955761 4293729569
13.896959 -4.6342182 -1.806772 4293729569
9.2677822 -3.1883638 -1.6379892 4293729569
4.8550692 -1.8108886 -1.8733265 4288085770
9.068388 -3.1634021 -1.5890927 4293729569
7.5673394 -2.6937335 -1.7963818 4293729569
5.8910513 -2.1641657 -1.8837512 4288085770
7.5289483 -2.6976771 -1.7892393 4293729569
13.876225 -4.7428331 -1.8120612 4293729569
8.7241364 -3.0915518 -1.5754468 4293729569
4.7766132 -1.8266191 -1.8730626 4288085770
8.719286 -3.1011364 -1.5924605 4293729569
7.3117471 -2.6540661 -1.7952071 4293729569
5.7856097 -2.1787257 -1.8823733 4288085770
8.6128979 -3.1124859 -1.6330681 4293729569
7.4164109 -2.7257068 -1.7868789 4293729569
7.0856385 -2.621778 -1.7981778 4293729569
4.6942616 -1.8410386 -1.8707783 4288085770
8.6626816 -3.1447139 -1.5883805 4293729569
8.8165417 -3.1984 -1.204185 4293729569
8.936079 -3.2466376 -0.049820676 4293729569
8.7818317 -3.203156 -1.027058 4293729569
8.8441353 -3.2276731 -0.55138892 4293729569
8.4655533 -3.1095197 -1.6674598 4293729569
