# .PCD v0.7 - Point Cloud Data file format
VERSION 0.7
FIELDS x y z rgb
SIZE 4 4 4 4
TYPE F F F U
COUNT 1 1 1 1
WIDTH 1124
HEIGHT 1
VIEWPOINT 0 0 0 1 0 0 0
POINTS 1124
DATA ascii
11.297512 -1.2627523 -1.8816323 4288085770
17.632013 -1.9675879 -1.9407432 4288085770
8.6057701 -0.97414279 -1.8580331 4288085770
15.924452 -1.7848778 -1.9160941 4288085770
18.25238 -2.0455658 -1.9723394 4288085770
6.9840813 -0.80711955 -1.8514653 4288085770
10.961357 -1.2880096 -1.8792924 4288085770
8.3806801 -0.99030572 -1.8588057 4288085770
17.384434 -2.0435364 -1.9634781 4288085770
15.332325 -1.8050681 -1.916501 4288085770
17.164587 -2.026763 -1.9422641 4288085770
6.8209987 -0.82278377 -1.8502997 4288085770
8.1715908 -1.0065979 -1.8595942 4288085770
10.656199 -1.3135178 -1.8779833 4288085770
16.523565 -2.0325687 -1.9486263 4288085770
14.764219 -1.8234533 -1.9149326 4288085770
6.6669173 -0.83852065 -1.8491429 4288085770
16.678204 -2.0817857 -1.9387673 4288085770
7.9774938 -1.0240104 -1.8603973 4288085770
10.400002 -1.3444194 -1.8817213 4288085770
15.814596 -2.0328252 -1.9469224 4288085770
6.5338187 -0.85642642 -1.8510067 4288085770
14.258102 -1.8433392 -1.9144253 4288085770
16.261806 -2.1383748 -1.9383399 4288085770
7.7624364 -1.0372547 -1.855181 4288085770
15.099724 -2.0220399 -1.9392158 4288085770
6.3857484 -0.87121195 -1.8478564 4288085770
10.160814 -1.3734597 -1.8854768 4288085770
13.767008 -1.861347 -1.9099334 4288085770
7.5833554 -1.0527897 -1.8549994 4288085770
15.89839 -2.1973908 -1.9399644 4288085770
14.441854 -2.010716 -1.9315658 4288085770
6.2586603 -0.88816655 -1.8487263 4288085770
9.900671 -1.3983318 -1.8822128 4288085770
13.348866 -1.8849427 -1.9115127 4288085770
7.4012809 -1.0682997 -1.8528152 4288085770
13.864946 -2.004046 -1.9299949 4288085770
6.1385717 -0.90517771 -1.8496033 4288085770
15.432129 -2.2385831 -1.9264915 4288085770
9.6745052 -1.425478 -1.8829818 4288085770
12.93376 -1.9045641 -1.9080962 4288085770
7.2501769 -1.0870593 -1.855661 4288085770
13.306074 -1.9925241 -1.9274435 4288085770
6.018487 -0.92218822 -1.8484803 4288085770
16.324812 -2.4585972 -1.5673224 4293729569
14.748203 -2.2410312 -1.8818126 4288085770
9.4643326 -1.4537529 -1.8837667 4288085770
12.676479 -1.944454 -1.923831 4288085770
7.084106 -1.1026981 -1.8514926 4288085770
12.78721 -1.9803268 -1.9239321 4288085770
16.250229 -2.5279617 -1.6462311 4293729569
5.9064026 -0.93926352 -1.8483652 4288085770
14.046373 -2.2323396 -1.8291186 4288085770
9.2262173 -1.4758035 -1.8765252 4288085770
6.9310312 -1.1184423 -1.8493373 4288085770
12.261425 -1.9590775 -1.9134159 4288085770
12.305351 -1.9674293 -1.9214574 4282675967
16.622538 -2.6528449 -1.3895694 4293729569
15.797159 -2.5362933 -1.6867796 4293729569
16.552412 -2.6702659 -1.3904955 4293729569
5.7873378 -0.95428288 -1.8442436 4288085770
11.807547 -1.9484055 -1.9139684 4288085770
6.795939 -1.1363313 -1.8501992 4288085770
9.0270672 -1.5021683 -1.8753215 4288085770
15.477962 -2.5597014 -1.7394575 4293729569
11.938301 -1.9814419 -1.9110901 4288085770
13.483438 -2.2357676 -1.7895596 4293729569
16.241194 -2.7007277 -1.4111794 4293729569
5.6882453 -0.97246259 -1.8451413 4288085770
16.309681 -2.7361112 -0.64223856 4293729569
16.299231 -2.7349215 -0.091228381 4293729569
16.187046 -2.7232716 -1.3981202 4293729569
11.362717 -1.9318098 -1.9115317 4288085770
15.014996 -2.5559587 -1.7729992 4293729569
16.19232 -2.7581863 -0.85511678 4293729569
6.6778359 -1.1553576 -1.8530778 4288085770
8.8389225 -1.5276225 -1.8731289 4288085770
11.679096 -2.013319 -1.9168254 4288085770
13.207134 -2.2824945 -1.7842742 4293729569
16.197374 -2.7961369 -0.5151124 4293729569
16.081568 -2.7823875 -1.4520011 4293729569
5.5861707 -0.98861915 -1.8440366 4288085770
10.990824 -1.922801 -1.9151653 4288085770
16.177031 -2.8199897 -0.69008642 4293729569
14.333391 -2.5094669 -1.776335 4293729569
16.163567 -2.8287575 -0.077070825 4293729569
16.066349 -2.8162363 -1.4239776 4293729569
6.5477552 -1.1722871 -1.8519448 4288085770
16.139561 -2.8646851 -0.83903837 4293729569
8.6547813 -1.5531083 -1.8699403 4288085770
11.394957 -2.0379972 -1.9155378 4288085770
10.570051 -1.8994035 -1.9067543 4288085770
13.731741 -2.4686191 -1.7827486 4293729569
12.893911 -2.3199272 -1.7719547 4293729569
16.081755 -2.8863304 -1.5079759 4293729569
5.4831004 -1.0047669 -1.8409308 4288085770
16.118618 -2.8984334 -0.52900928 4293729569
16.151258 -2.9187255 -0.74303675 4293729569
16.155748 -2.9426157 -0.06103519 4293729569
6.4276743 -1.1892977 -1.8508222 4288085770
16.084463 -2.9323125 -1.4599671 4293729569
10.199234 -1.8814079 -1.9043912 4288085770
13.045273 -2.4060955 -1.7730837 4293729569
8.4956207 -1.5807961 -1.8707762 4288085770
16.215631 -2.9922142 -0.82708257 4293729569
11.113831 -2.0616999 -1.9112537 4288085770
5.3980165 -1.0220608 -1.8418427 4288085770
16.149818 -3.0048151 -1.5720142 4293729569
12.604671 -2.3595526 -1.7596585 4293729569
16.225332 -3.0362594 -0.80308145 4293729569
16.175646 -3.0278137 -0.54903424 4293729569
9.8394222 -1.8625017 -1.9010394 4288085770
6.3155847 -1.2073722 -1.8507069 4288085770
12.445736 -2.3522704 -1.7675028 4293729569
16.179445 -3.0650017 -1.5010289 4293729569
8.3464508 -1.6095638 -1.8706216 4288085770
10.853703 -2.0855725 -1.9079902 4288085770
5.3189244 -1.0404022 -1.8437603 4288085770
16.945734 -3.2611213 -1.7107406 4293729569
9.5145988 -1.8448783 -1.8997219 4288085770
11.837261 -2.2913761 -1.7549148 4293729569
12.405325 -2.4118998 -1.7584482 4293729569
6.209496 -1.2254952 -1.8505979 4288085770
18.917154 -3.7148108 -1.7845836 4293729569
9.1957932 -1.8253045 -1.897411 4288085770
11.325678 -2.2432594 -1.7494197 4293729569
8.2042847 -1.638388 -1.8714741 4288085770
10.57163 -2.1032698 -1.8987067 4288085770
5.2448254 -1.0597836 -1.8466825 4288085770
16.371801 -3.2584734 -1.7171726 4293729569
6.1014171 -1.2426026 -1.8494869 4288085770
12.205996 -2.4622483 -1.7552388 4293729569
8.8680382 -1.7996613 -1.8890927 4288085770
10.895012 -2.2047937 -1.7520026 4293729569
18.463877 -3.7591083 -1.7761236 4293729569
5.1597567 -1.0760767 -1.8435948 4288085770
8.0701237 -1.6662778 -1.8713348 4288085770
10.190773 -2.0961788 -1.8673314 4288085770
15.887787 -3.2655485 -1.7296914 4293729569
10.500317 -2.1696172 -1.7556202 4293729569
8.58922 -1.7814108 -1.8878212 4288085770
5.9993391 -1.2597581 -1.8473822 4288085770
11.998703 -2.5085337 -1.7480226 4293729569
10.15357 -2.1408253 -1.7632838 4293729569
8.3074341 -1.759138 -1.8825479 4288085770
5.093657 -1.095523 -1.847525 4288085770
18.050566 -3.8077266 -1.7687026 4293729569
9.7730083 -2.0787933 -1.8269221 4288085770
7.9549241 -1.6993181 -1.8742131 4288085770
15.374882 -3.2593975 -1.737185 4293729569
5.914227 -1.2810493 -1.8502932 4288085770
9.7769089 -2.1017964 -1.7629205 4293729569
8.0666027 -1.7421948 -1.8833135 4288085770
11.771481 -2.5466623 -1.7357886 4293729569
5.025569 -1.1139532 -1.8484536 4288085770
9.4980888 -2.0815504 -1.7766495 4293729569
7.8227878 -1.7232281 -1.882077 4288085770
14.964851 -3.2680709 -1.7537771 4293729569
9.4541035 -2.0772009 -1.800607 4293729569
17.720167 -3.8670104 -1.7653612 4293729569
7.837749 -1.7293438 -1.8760903 4288085770
5.8231411 -1.2992933 -1.8491989 4288085770
9.2572384 -2.0646105 -1.7934152 4293729569
7.5959697 -1.7043992 -1.8818572 4288085770
11.526302 -2.579648 -1.7205381 4293729569
14.553856 -3.2727392 -1.769369 4293729569
9.0772896 -2.0591583 -1.8192385 4288085770
9.1731586 -2.0809135 -1.7793283 4293729569
7.6936402 -1.7521547 -1.8689426 4288085770
17.430712 -3.9336212 -1.7640587 4293729569
5.7390471 -1.3185935 -1.8501116 4288085770
7.3611798 -1.682507 -1.87763 4288085770
8.9183102 -2.0568745 -1.8480818 4288085770
7.1453786 -1.6617681 -1.8744218 4288085770
11.335045 -2.6220651 -1.710339 4293729569
14.056089 -3.2497199 -1.7718822 4293729569
8.9411469 -2.0920186 -1.7640963 4293729569
5.6519647 -1.3368694 -1.8480214 4288085770
7.5994382 -1.785365 -1.8728417 4288085770
8.7663326 -2.0546477 -1.8779323 4288085770
17.167248 -4.001442 -1.7617817 4293729569
6.9266024 -1.6380063 -1.8692111 4288085770
8.5604782 -2.0379906 -1.8927327 4288085770
13.58532 -3.226918 -1.7744218 4293729569
6.7517457 -1.6235964 -1.8730417 4288085770
5.5788698 -1.3562587 -1.8489448 4288085770
8.7710381 -2.1146202 -1.7589229 4293729569
8.2837925 -2.0017691 -1.8914678 4288085770
7.4992585 -1.8165276 -1.8737357 4288085770
16.974686 -4.0818295 -1.764572 4293729569
6.565938 -1.6031007 -1.870863 4288085770
8.0600185 -1.975971 -1.8972527 4282675967
12.986851 -3.1681015 -1.7578439 4293729569
6.389123 -1.5836771 -1.8696929 4288085770
5.5067692 -1.3766552 -1.8498693 4288085770
7.8173051 -1.9430228 -1.8970207 4282675967
8.6298847 -2.142453 -1.7577771 4293729569
7.4070764 -1.8477554 -1.8756374 4288085770
6.2093258 -1.5622301 -1.8655204 4288085770
7.560638 -1.9049637 -1.8907758 4282675967
12.513205 -3.1302843 -1.7543845 4293729569
6.0485072 -1.5429361 -1.8643661 4288085770
5.430687 -1.3950205 -1.8487902 4288085770
7.2930083 -1.8628172 -1.8785214 4288085770
9.7844791 -2.4875395 -1.5218378 4293729569
8.4837513 -2.1682467 -1.7536268 4293729569
7.3178954 -1.879007 -1.8765422 4288085770
5.9026613 -1.5267618 -1.8662258 4288085770
7.0812831 -1.8311192 -1.8773197 4288085770
9.7414627 -2.5051594 -1.422791 4293729569
9.8542233 -2.5408514 -0.36189422 4293729569
5.7468581 -1.5055095 -1.8630769 4288085770
6.8665781 -1.7973975 -1.8721155 4288085770
5.3536148 -1.412378 -1.8457103 4288085770
9.6462593 -2.5253887 -1.5126925 4293729569
9.7998924 -2.5684202 -0.51783425 4293729569
8.3096924 -2.1858172 -1.7424511 4293729569
5.5950489 -1.4852886 -1.8599319 4288085770
9.7105789 -2.5517931 -0.97974998 4293729569
7.2386928 -1.9133376 -1.8784564 4288085770
6.6658549 -1.7657881 -1.8689246 4288085770
9.8481865 -2.5907085 -0.046876688 4293729569
9.6701584 -2.5465586 -1.4607112 4293729569
9.6684628 -2.5594597 -1.0547066 4293729569
9.749979 -2.5829713 -0.33778158 4293729569
5.4512434 -1.4641335 -1.856795 4288085770
6.4920921 -1.7383953 -1.8697594 4288085770
5.2905149 -1.4328473 -1.8466436 4288085770
5.3134298 -1.4440261 -1.8536636 4288085770
6.3143487 -1.708971 -1.8665909 4288085770
9.6652355 -2.5974009 -1.0216945 4293729569
9.612833 -2.59007 -1.5006448 4293729569
9.698595 -2.6125708 -0.53672409 4293729569
9.5738983 -2.5807624 -1.5116084 4293729569
8.1596031 -2.2065814 -1.7342982 4293729569
7.1575046 -1.9456538 -1.8803689 4288085770
9.7378941 -2.6337879 -0.068757921 4293729569
6.146595 -1.6806269 -1.8644319 4288085770
5.2005615 -1.4301181 -1.8575555 4288085770
9.7205772 -2.645685 -0.31473815 4293729569
9.6120739 -2.6179621 -1.0576376 4293729569
5.9868393 -1.6523478 -1.8622808 4288085770
5.082725 -1.4121723 -1.8574433 4288085770
5.2363992 -1.4553882 -1.8485852 4288085770
9.6398563 -2.6471694 -1.0676583 4293729569
9.5575104 -2.6335983 -1.5415802 4293729569
5.8350668 -1.6261324 -1.8621371 4288085770
9.6681423 -2.6762834 -0.55867952 4293729569
8.0933323 -2.2490137 -1.7422231 4293729569
9.5274906 -2.6413438 -1.5135487 4293729569
9.7034607 -2.6944711 -0.092710078 4293729569
7.1012654 -1.9841686 -1.8863049 4288085770
5.6902928 -1.5999731 -1.8600004 4288085770
9.7041588 -2.7105026 -0.29070717 4293729569
9.5975914 -2.6877968 -1.0646073 4293729569
9.6284504 -2.7000487 -1.1136348 4293729569
5.5445285 -1.5728066 -1.8568628 4288085770
5.1673279 -1.4728104 -1.8455135 4288085770
9.4822426 -2.6699688 -1.5794976 4293729569
5.4077535 -1.5467124 -1.8547339 4288085770
9.6516628 -2.7431085 -0.58364803 4293729569
8.0041275 -2.2832642 -1.7441275 4293729569
5.2789693 -1.5216824 -1.8526126 4288085770
9.5160084 -2.7112033 -1.5205215 4293729569
9.6959705 -2.7623682 -0.11668723 4293729569
7.0250874 -2.0155256 -1.8862227 4288085770
9.6300182 -2.7560318 -1.1636237 4293729569
9.7386265 -2.7897239 -0.26772311 4293729569
5.1551766 -1.497692 -1.8504961 4288085770
9.3541203 -2.6889205 -1.608367 4293729569
9.6050587 -2.7638066 -1.0725973 4293729569
5.1212025 -1.4964159 -1.849463 4288085770
5.0463605 -1.4758227 -1.8523937 4288085770
9.7170029 -2.8325834 -0.6136921 4293729569
7.9119334 -2.3164911 -1.7450292 4293729569
9.6784744 -2.8253877 -1.2186557 4293729569
9.7872639 -2.8580492 -0.14375558 4293729569
9.4995308 -2.7810218 -1.5244894 4293729569
6.8980436 -2.0314775 -1.8720939 4288085770
9.2279892 -2.7088873 -1.6382381 4293729569
5.0611215 -1.5149103 -1.8473997 4288085770
9.6624069 -2.8552117 -1.0836332 4293729569
13.55271 -4.0161309 -1.7612063 4293729569
9.070961 -2.7166109 -1.6620815 4293729569
7.8037944 -2.3435912 -1.7399166 4293729569
6.7151537 -2.0299845 -1.8409142 4288085770
9.5299492 -2.8632147 -1.5365009 4293729569
5.0060325 -1.5344448 -1.8463414 4288085770
12.916664 -3.9020448 -1.7496048 4293729569
8.941885 -2.7295585 -1.6889515 4293729569
7.7096229 -2.3748026 -1.7378169 4293729569
6.5242987 -2.0244288 -1.8077277 4288085770
12.313599 -3.7902243 -1.7370356 4293729569
4.957921 -1.557034 -1.8472892 4288085770
8.7549648 -2.7240465 -1.7057686 4293729569
11.76347 -3.6868267 -1.7265167 4293729569
7.6304307 -2.4081349 -1.7377317 4293729569
6.3534231 -2.0210347 -1.7775604 4293729569
10.45853 -3.3004858 -1.6923177 4293729569
8.5600853 -2.7134728 -1.7185791 4293729569
11.265251 -3.5938435 -1.7190467 4293729569
7.5721879 -2.4476333 -1.7406657 4293729569
8.3263359 -2.687592 -1.7233547 4293729569
6.2354169 -2.033061 -1.7594416 4293729569
10.477903 -3.3895843 -1.6983171 4293729569
10.809977 -3.508204 -1.7126174 4293729569
8.1125584 -2.664871 -1.7291493 4293729569
7.49999 -2.4820216 -1.7395871 4293729569
10.439518 -3.4442401 -1.716267 4293729569
6.1632938 -2.0584536 -1.7543653 4293729569
10.517231 -3.4838433 -1.7083347 4293729569
7.9077706 -2.6432228 -1.7359529 4293729569
10.009258 -3.3568032 -1.7068629 4293729569
7.450726 -2.5245912 -1.7435293 4293729569
7.6920438 -2.6144888 -1.737747 4293729569
6.115109 -2.0910368 -1.755311 4293729569
10.495716 -3.559618 -1.7062968 4293729569
9.5620918 -3.2582347 -1.6884447 4293729569
7.5291915 -2.6001768 -1.74959 4293729569
7.4094529 -2.5682249 -1.7474793 4293729569
9.2755089 -3.2099409 -1.6961735 4293729569
6.0549693 -2.1185257 -1.7512462 4293729569
10.504126 -3.6446302 -1.7082862 4293729569
7.3763223 -2.587944 -1.7624425 4293729569
8.9530697 -3.1443651 -1.6928709 4293729569
7.3621964 -2.6098115 -1.7504239 4293729569
7.181592 -2.5593803 -1.7642576 4293729569
5.9908404 -2.1449821 -1.7451775 4293729569
10.503546 -3.7285707 -1.7082672 4293729569
8.7393456 -3.1126525 -1.7076677 4293729569
7.0347462 -2.5441983 -1.7751166 4293729569
8.5166607 -3.0768695 -1.7184567 4293729569
7.3219256 -2.6534536 -1.752375 4293729569
5.949657 -2.1776223 -1.7451304 4293729569
10.538876 -3.823796 -1.7122811 4293729569
6.8410559 -2.5106452 -1.7729337 4293729569
8.2461433 -3.0207086 -1.7172033 4293729569
7.2597241 -2.6889219 -1.7503064 4293729569
6.6394067 -2.4720302 -1.7677442 4293729569
7.9995828 -2.9697392 -1.7179724 4293729569
5.9005003 -2.2071989 -1.7420759 4293729569
10.556248 -3.9138789 -1.7132787 4293729569
7.7949176 -2.9311025 -1.7257799 4293729569
6.4068732 -2.4201708 -1.7505273 4293729569
7.2503676 -2.7428098 -1.7582856 4293729569
5.8473616 -2.2347441 -1.7370181 4293729569
10.577608 -4.0059924 -1.7132797 4293729569
7.6171937 -2.8996809 -1.7366121 4293729569
6.2441444 -2.3908665 -1.751374 4293729569
7.4484448 -2.87133 -1.7484528 4293729569
7.2140994 -2.7864842 -1.7592411 4293729569
6.0824332 -2.359571 -1.7492222 4293729569
5.8071823 -2.2673924 -1.734972 4293729569
10.63386 -4.111382 -1.7173121 4293729569
7.3156085 -2.853265 -1.7663263 4293729569
5.9087729 -2.3221817 -1.7420601 4293729569
7.2177091 -2.8444755 -1.7702323 4293729569
7.1538725 -2.8229721 -1.7771742 4288085770
5.7630348 -2.294014 -1.7419232 4293729569
5.7889395 -2.307215 -1.7389458 4293729569
6.9672399 -2.780483 -1.7790005 4288085770
5.6222954 -2.265887 -1.7417915 4293729569
7.1684837 -2.8830471 -1.7671759 4293729569
6.7397599 -2.7196717 -1.7687906 4293729569
5.7547517 -2.3409114 -1.7369055 4293729569
5.4765892 -2.2337215 -1.7376555 4293729569
6.5491767 -2.6711531 -1.765614 4293729569
7.1302395 -2.9237077 -1.7651299 4293729569
5.3348832 -2.2015884 -1.7335238 4293729569
6.337687 -2.6114707 -1.7534198 4293729569
5.7275443 -2.3766634 -1.7378715 4293729569
5.2190971 -2.1786611 -1.7364154 4293729569
6.1471314 -2.5599532 -1.7452439 4293729569
7.0929837 -2.9663749 -1.7630848 4293729569
5.9914861 -2.5187137 -1.7441003 4293729569
5.0963531 -2.1506798 -1.7353011 4293729569
5.6883826 -2.407321 -1.7328271 4293729569
5.8258843 -2.4723961 -1.7379481 4293729569
4.9666452 -2.1186435 -1.7291812 4293729569
7.0696902 -3.0131533 -1.7640524 4293729569
5.6592999 -2.4240711 -1.7297952 4293729569
4.8648477 -2.0968292 -1.7320862 4293729569
5.6581936 -2.4410498 -1.7307907 4293729569
5.5196357 -2.3849597 -1.7276667 4293729569
4.7670426 -2.076046 -1.734995 4293729569
5.3789821 -2.344841 -1.7235378 4293729569
6.9915943 -3.0364995 -1.7499712 4293729569
4.6772261 -2.0563278 -1.7389115 4293729569
5.25529 -2.3088574 -1.7224243 4293729569
5.6190395 -2.4707084 -1.7257466 4293729569
4.6093369 -2.0447836 -1.7498475 4293729569
5.1335921 -2.2738893 -1.7203127 4293729569
6.9254694 -3.062942 -1.7399012 4293729569
5.0427957 -2.2501667 -1.727229 4293729569
4.5055814 -2.0179551 -1.746752 4293729569
5.6048007 -2.5105641 -1.7267247 4293729569
4.9290938 -2.2152638 -1.7251253 4293729569
4.4207706 -1.9972776 -1.7496735 4293729569
4.8203845 -2.1814003 -1.7220261 4293729569
6.8842545 -3.1005795 -1.7338533 4293729569
4.7236376 -2.1516321 -1.7229378 4293729569
5.5975423 -2.5524752 -1.7297091 4293729569
4.6109543 -2.1147375 -1.7158355 4293729569
4.5411267 -2.0941834 -1.7227716 4293729569
6.8091812 -3.1209524 -1.718776 4293729569
4.4434066 -2.061408 -1.7176831 4293729569
4.3686056 -2.0378149 -1.7216148 4293729569
5.5783281 -2.589292 -1.7286831 4293729569
6.8118215 -3.1759374 -1.7217675 4293729569
5.5481653 -2.6200235 -1.7226478 4293729569
6.8054953 -3.2268524 -1.7227511 4293729569
5.5478768 -2.6659894 -1.7256383 4293729569
6.8081388 -3.2818379 -1.7237427 4293729569
5.5486007 -2.7099655 -1.7286304 4293729569
6.8058047 -3.3337846 -1.7237301 4293729569
5.5034981 -2.7335789 -1.7175821 4293729569
6.8084469 -3.3887703 -1.7247219 4293729569
5.5131826 -2.7826247 -1.7215821 4293729569
6.8140821 -3.4447796 -1.7247163 4293729569
5.524858 -2.8326862 -1.7265835 4293729569
6.8286824 -3.5048597 -1.7267188 4293729569
5.5365348 -2.8827484 -1.7305852 4293729569
6.8393002 -3.5629094 -1.7277179 4293729569
5.5273046 -2.9216459 -1.7265689 4293729569
6.8379693 -3.6148648 -1.7237064 4293729569
5.5310216 -2.966646 -1.7265639 4293729569
6.8784628 -3.688149 -1.7297314 4293729569
7.5477052 -4.0453668 -1.7323116 4293729569
5.53374 -3.0116384 -1.726558 4293729569
7.3482528 -3.9807858 -1.7331307 4293729569
6.8960624 -3.7482543 -1.729737 4293729569
7.1766944 -3.929424 -1.7369741 4293729569
5.5294914 -3.0525756 -1.7235461 4293729569
6.9266033 -3.8154614 -1.7327538 4293729569
6.9802666 -3.8618689 -1.7337967 4293729569
5.5152998 -3.0864363 -1.716526 4293729569
6.9531641 -3.8806367 -1.732767 4293729569
6.7958107 -3.7974088 -1.7316304 4293729569
6.6352663 -3.7441368 -1.7324852 4293729569
5.5279899 -3.1345086 -1.7165293 4293729569
6.9986405 -3.9559608 -1.7367965 4293729569
6.4608011 -3.6807568 -1.7293283 4293729569
5.5476413 -3.1876345 -1.7185384 4293729569
7.0261931 -4.0221443 -1.7358108 4293729569
6.3002954 -3.6224868 -1.7271842 4293729569
3.8032289 -2.2220254 -1.6030339 4293729569
6.142796 -3.5632422 -1.7230431 4293729569
5.5613303 -3.2357152 -1.7185426 4293729569
3.8061299 -2.2400346 -1.5960332 4293729569
6.0072117 -3.5141695 -1.7249213 4293729569
3.8130126 -2.2600758 -1.5910362 4293729569
5.5869627 -3.2908885 -1.7205571 4293729569
5.8666615 -3.4610586 -1.7227954 4293729569
3.8009887 -2.2689686 -1.5780231 4293729569
6.8352079 -4.0405807 -1.7356226 4293729569
3.794951 -2.2789097 -1.5660155 4293729569
5.7460346 -3.4171047 -1.7246872 4293729569
5.5976677 -3.336946 -1.7185589 4293729569
6.6608572 -3.960212 -1.7314692 4293729569
3.7938881 -2.2918899 -1.5560123 4293729569
5.6085062 -3.3610196 -1.720565 4293729569
6.5024366 -3.888967 -1.7283294 4293729569
3.7888484 -2.3018394 -1.5440056 4293729569
6.3529882 -3.8207936 -1.7271981 4293729569
5.624299 -3.3921282 -1.7195743 4293729569
5.4908934 -3.3150909 -1.7204601 4293729569
3.7887912 -2.3138285 -1.5330034 4293729569
6.1985812 -3.7475817 -1.7220627 4293729569
3.796699 -2.3298802 -1.5240083 4293729569
5.3862381 -3.2742646 -1.7223667 4293729569
6.0750475 -3.6896126 -1.7229543 4293729569
5.6549129 -3.449342 -1.7215934 4293729569
3.8056059 -2.3459399 -1.5150138 4293729569
5.9505291 -3.6296365 -1.7228452 4293729569
5.2696548 -3.2243457 -1.7192636 4293729569
3.8304405 -2.370126 -1.5120335 4293729569
5.8339787 -3.5737226 -1.7227433 4293729569
5.1759639 -3.1876061 -1.72218 4293729569
3.8871245 -2.4125617 -1.5190804 4293729569
5.7224183 -3.5188489 -1.7226458 4293729569
3.9209237 -2.4408181 -1.5171077 4293729569
5.6944847 -3.511626 -1.7256202 4293729569
5.6148481 -3.4650061 -1.7225519 4293729569
5.0355153 -3.1215014 -1.7090569 4293729569
3.9388056 -2.4589503 -1.5091218 4293729569
5.5013256 -3.4051185 -1.7184536 4293729569
4.011425 -2.5085125 -1.5201827 4293729569
5.3997526 -3.3513253 -1.7173656 4293729569
4.0750875 -2.553004 -1.5262361 4293729569
5.2991796 -3.2975388 -1.7142787 4293729569
4.9518037 -3.0868416 -1.7129827 4293729569
4.197464 -2.6319551 -1.5523394 4293729569
5.2135472 -3.2508705 -1.7142047 4293729569
4.2900023 -2.6906743 -1.5664177 4293729569
5.1348948 -3.2062581 -1.7151371 4293729569
5.7221212 -3.5658174 -1.7246369 4293729569
5.0502758 -3.157599 -1.7130646 4293729569
4.6382518 -2.9063931 -1.6677138 4293729569
4.9686537 -3.1089644 -1.7109948 4293729569
4.7785597 -2.9934855 -1.693833 4293729569
4.8810596 -3.0572824 -1.70592 4293729569
4.8263092 -3.0258553 -1.7008731 4293729569
4.5774546 -2.8869052 -1.6436589 4293729569
5.7537408 -3.6220403 -1.7246573 4293729569
4.1614671 -2.6426489 -1.5253029 4293729569
4.0041862 -2.5554166 -1.4941674 4293729569
3.8658152 -2.4793315 -1.4680482 4293729569
5.7883439 -3.6802864 -1.7246799 4293729569
3.7851634 -2.4366999 -1.4619784 4293729569
3.7343631 -2.4123013 -1.4649342 4293729569
3.6955099 -2.393997 -1.4709002 4293729569
3.6626306 -2.3787394 -1.4788713 4293729569
5.8348889 -3.745626 -1.7277128 4293729569
3.6426897 -2.3705838 -1.4918535 4293729569
3.633698 -2.3685143 -1.5078455 4293729569
3.5559893 -2.321923 -1.5837792 4293729569
3.6127715 -2.3583517 -1.5188271 4293729569
3.5748992 -2.3350675 -1.5747951 4293729569
3.6067815 -2.3553076 -1.534822 4293729569
3.5768948 -2.3380787 -1.5587964 4293729569
3.587853 -2.3451614 -1.5458056 4293729569
5.8645296 -3.7988346 -1.7247318 4293729569
3.7861032 -2.5026052 -1.1269679 4293729569
3.7163515 -2.4790459 -1.0999054 4293729569
3.6864018 -2.4797969 -1.0828764 4293729569
3.7383637 -2.5151577 -0.83992028 4293729569
3.7024627 -2.5088649 -0.82188708 4293729569
3.6574512 -2.4805567 -1.0658488 4293729569
3.6755142 -2.5086417 -0.80586147 4293729569
3.6324892 -2.4823482 -1.0498247 4293729569
3.7036285 -2.534801 -0.48888373 4293729569
3.6535535 -2.5094585 -0.7898404 4293729569
3.7455277 -2.5720894 -0.31291738 4293729569
3.6194682 -2.4912333 -1.0368109 4293729569
3.6657071 -2.5274978 -0.50184888 4293729569
3.6455255 -2.5183849 -0.77683121 4293729569
3.6827598 -2.5435967 -0.32586235 4293729569
3.6064544 -2.499119 -1.0227971 4293729569
3.7384853 -2.5890124 -0.26390776 4293729569
3.6417265 -2.5273039 -0.51582599 4293729569
3.6255612 -2.5192184 -0.76181191 4293729569
3.6518226 -2.5373502 -0.33983395 4293729569
3.5934391 -2.5070052 -1.0097834 4293729569
3.6478791 -2.5442972 -0.24382895 4293729569
3.6298542 -2.5341754 -0.35581353 4293729569
3.6155543 -2.5251298 -0.74780148 4293729569
3.6217279 -2.5291417 -0.53180665 4293729569
3.5854115 -2.5159316 -0.99677438 4293729569
3.6108665 -2.5340226 -0.37079549 4293729569
3.6045542 -2.5300348 -0.73379016 4293729569
3.6279039 -2.5471294 -0.22780947 4293729569
3.6126742 -2.5380645 -0.54779655 4293729569
3.6068177 -2.5409877 -0.38679045 4293729569
3.598536 -2.5369782 -0.71978331 4293729569
3.6549091 -2.5762947 -0.0088302633 4293729569
3.5783768 -2.5258651 -0.98376602 4293729569
3.6039639 -2.5449321 -0.21278708 4293729569
3.6016402 -2.543973 -0.56378508 4293729569
3.5915303 -2.5419154 -0.7057758 4293729569
3.5928111 -2.5428743 -0.40177682 4293729569
3.576323 -2.537838 -0.97176206 4293729569
3.5935965 -2.550905 -0.57977629 4293729569
3.5865226 -2.5468688 -0.6917702 4293729569
3.5909677 -2.5498204 -0.19777389 4293729569
3.5818057 -2.5437865 -0.41776618 4293729569
3.5787606 -2.5497601 -0.43376231 4293729569
3.5825076 -2.55283 -0.67776537 4293729569
3.5673151 -2.5437579 -0.95775253 4293729569
3.5805831 -2.5537994 -0.5947634 4293729569
3.5809617 -2.555732 -0.18276338 4293729569
3.5727382 -2.5527112 -0.44875613 4293729569
3.5715384 -2.5527372 -0.66175497 4293729569
5.8280344 -2.8980203 -1.7393196 4293729569
4.2875276 -2.1471276 -1.692559 4293729569
7.9362988 -3.9561772 -1.7362499 4293729569
6.7664394 -3.3835785 -1.7290641 4293729569
5.6752229 -2.8496952 -1.7319577 4293729569
5.1713877 -2.6121211 -1.7154437 4293729569
6.5920019 -3.3249836 -1.727878 4293729569
4.2355499 -2.1536331 -1.6754949 4293729569
5.5396261 -2.8094516 -1.7298111 4293729569
7.9756312 -4.0384998 -1.7372684 4293729569
6.4185724 -3.2653983 -1.7256933 4293729569
5.180068 -2.6541796 -1.7184391 4293729569
5.4090185 -2.7702544 -1.72867 4293729569
6.2591038 -3.2099411 -1.7245238 4293729569
4.1955051 -2.167248 -1.6644422 4293729569
5.2694788 -2.7239761 -1.7215208 4293729569
6.1066175 -3.1565478 -1.722362 4293729569
5.1678467 -2.6860473 -1.7164136 4293729569
5.1478677 -2.6848619 -1.7193903 4293729569
5.9680867 -3.1072826 -1.7232151 4293729569
4.1793656 -2.1900828 -1.6604151 4293729569
5.8514533 -3.069217 -1.7280902 4293729569
5.0212893 -2.6427026 -1.7132549 4293729569
5.1665835 -2.7220151 -1.7153995 4293729569
5.7248855 -3.0240614 -1.7289562 4293729569
4.1731687 -2.2190077 -1.6603973 4293729569
4.9016905 -2.602607 -1.7081271 4293729569
5.5973444 -2.9758978 -1.7278217 4293729569
5.1712847 -2.7620368 -1.7163913 4293729569
4.753263 -2.5442495 -1.6919715 4293729569
5.4797649 -2.9318249 -1.7276978 4293729569
4.1510601 -2.2387881 -1.6533641 4293729569
5.3542423 -2.8816805 -1.7235665 4293729569
4.6446424 -2.5062551 -1.686856 4293729569
5.1789818 -2.8020868 -1.7173866 4293729569
5.2486315 -2.8407176 -1.7244557 4293729569
4.4146609 -2.4021525 -1.6376196 4293729569
5.1211472 -2.7865553 -1.7163234 4293729569
4.1438804 -2.2657049 -1.6513458 4293729569
4.3200049 -2.3672879 -1.6345193 4293729569
5.0125666 -2.7425654 -1.7132101 4293729569
5.1817074 -2.839092 -1.7173771 4293729569
4.9020209 -2.6945586 -1.7070957 4293729569
4.2382908 -2.338541 -1.6344326 4293729569
4.7924829 -2.6455612 -1.7009829 4293729569
4.1138215 -2.2804124 -1.640305 4293729569
4.1476269 -2.3047121 -1.6303368 4293729569
4.6720071 -2.5904644 -1.6888592 4293729569
5.2083082 -2.8893144 -1.7233913 4293729569
4.5057931 -2.5079501 -1.6586908 4293729569
4.0719004 -2.2770202 -1.6302565 4293729569
4.3405809 -2.4254448 -1.6265236 4293729569
4.247004 -2.3805935 -1.6174282 4293729569
4.0728345 -2.2870216 -1.625254 4293729569
4.0011554 -2.2513738 -1.6301814 4293729569
4.1981916 -2.3601511 -1.6243774 4293729569
4.1066198 -2.3143191 -1.6152847 4293729569
5.2130332 -2.9263382 -1.7213843 4293729569
4.0419192 -2.2817323 -1.6132191 4293729569
3.996119 -2.2593191 -1.6181726 4293729569
3.9493179 -2.2349012 -1.6381255 4293729569
3.9552922 -2.2399499 -1.6241308 4293729569
3.9343705 -2.229764 -1.6371098 4293729569
3.9064407 -2.2225096 -1.647079 4293729569
4.0527334 -2.3058212 -1.6172236 4293729569
5.2326722 -2.972497 -1.7243918 4293729569
4.0236983 -2.3175397 -1.6041851 4293729569
5.234417 -3.0074935 -1.7203821 4293729569
4.0085917 -2.3363862 -1.5971606 4293729569
5.2401505 -3.0435269 -1.7163768 4293729569
3.9765749 -2.3460782 -1.5831193 4293729569
5.250854 -3.0826051 -1.7143763 4293729569
5.2784696 -3.1308379 -1.7163928 4293729569
3.9565144 -2.3598802 -1.5720906 4293729569
5.3041039 -3.177053 -1.7174077 4293729569
3.9384351 -2.3757 -1.5620637 4293729569
5.3317361 -3.2232866 -1.7174249 4293729569
3.9392638 -2.4006929 -1.5590563 4293729569
5.3633394 -3.2725563 -1.7194458 4293729569
3.9927826 -2.4581654 -1.5741 4293729569
5.3939619 -3.3198168 -1.7184662 4293729569
4.015491 -2.4953585 -1.5781144 4293729569
5.4375148 -3.3741956 -1.7214997 4293729569
3.991466 -2.5051248 -1.5640825 4293729569
5.4731073 -3.4245019 -1.7215252 4293729569
3.9326696 -2.4905765 -1.5360179 4293729569
5.5216393 -3.4809263 -1.724564 4293729569
3.924572 -2.5074892 -1.5260026 4293729569
5.56918 -3.5363414 -1.7266018 4293729569
5.6167297 -3.5907576 -1.7266401 4293729569
3.8985963 -2.5112405 -1.5089706 4293729569
5.6722379 -3.649246 -1.7296865 4293729569
3.8785825 -2.5190454 -1.4939443 4293729569
5.726758 -3.7067251 -1.7297319 4293729569
3.8834291 -2.5410771 -1.4879427 4293729569
5.7703509 -3.7561057 -1.7267674 4293729569
3.8286519 -2.5235677 -1.458884 4293729569
5.8268766 -3.8126037 -1.7258155 4293729569
5.8893642 -3.8731561 -1.7258695 4293729569
3.6983471 -2.4563727 -1.4027523 4293729569
5.9647908 -3.9398263 -1.7289368 4293729569
3.6416025 -2.4348469 -1.3736924 4293729569
6.0451913 -4.009541 -1.731009 4293729569
3.6176624 -2.433619 -1.3556644 4293729569
3.6016817 -2.4364641 -1.3396444 4293729569
3.7481108 -2.5396976 -1.0427831 4293729569
3.5876989 -2.4393282 -1.323627 4293729569
3.683485 -2.5031054 -1.0107189 4293729569
3.7362027 -2.5415649 -0.96376854 4293729569
3.6824756 -2.5070903 -0.99571651 4293729569
3.6715307 -2.5039854 -0.97870457 4293729569
3.7223415 -2.538414 -0.87575322 4293729569
3.6725254 -2.506989 -0.96370476 4293729569
3.5707345 -2.440165 -1.3066067 4293729569
3.756094 -2.5637224 -0.90078473 4293729569
3.6755414 -2.5120018 -0.91570663 4293729569
3.6784844 -2.5140371 -0.94970948 4293729569
3.6845031 -2.5180786 -0.90171528 4293729569
3.6625571 -2.5038984 -0.96569407 4293729569
3.672534 -2.5109787 -0.93170339 4293729569
3.5587478 -2.4430478 -1.2915915 4293729569
3.6356363 -2.4956546 -0.97766495 4293729569
3.5587006 -2.452039 -1.2785884 4293729569
3.6186571 -2.4935012 -0.99264556 4293729569
3.5497098 -2.4549499 -1.2635769 4293729569
3.5996885 -2.4903295 -1.0066242 4293729569
3.5427165 -2.4578791 -1.2485676 4293729569
3.5886869 -2.4902313 -1.0216112 4293729569
3.5397019 -2.4628446 -1.2345624 4293729569
3.5727282 -2.4850883 -1.035594 4293729569
3.6447778 -2.533623 -0.60866314 4293729569
3.5686936 -2.488054 -1.0525883 4293729569
3.5357041 -2.465802 -1.2195567 4293729569
3.5587053 -2.4859657 -1.0675772 4293729569
3.5317144 -2.4677596 -1.2035515 4293729569
3.5516973 -2.4859047 -1.0835689 4293729569
3.5396476 -2.4778252 -1.1915574 4293729569
3.5356779 -2.4767847 -1.1755532 4293729569
3.5457025 -2.4838541 -1.0985626 4293729569
3.6158514 -2.5313501 -0.59162968 4293729569
3.5426888 -2.4838302 -1.1145589 4293729569
3.5346828 -2.4787703 -1.1605513 4293729569
3.5376744 -2.4817924 -1.1455538 4293729569
3.5357037 -2.4807703 -1.1285518 4293729569
3.7164636 -2.604192 -0.36772445 4293729569
3.5899262 -2.5281062 -0.57560015 4293729569
3.6110315 -2.5462332 -0.34561899 4293729569
3.5699644 -2.5289161 -0.56057632 4293729569
3.5801415 -2.538945 -0.32958499 4293729569
3.5519943 -2.5307434 -0.54455453 4293729569
3.6001549 -2.5640688 -0.13960029 4293729569
3.5641675 -2.540791 -0.31456551 4293729569
3.5390086 -2.533617 -0.53053826 4293729569
3.575202 -2.5598421 -0.15357225 4293729569
3.5472074 -2.5406296 -0.30054554 4293729569
3.5302577 -2.5394683 -0.28452593 4293729569
3.5542369 -2.5566525 -0.16754858 4293729569
3.5319791 -2.5415442 -0.51652735 4293729569
3.5252304 -2.5464149 -0.27151772 4293729569
3.5269465 -2.5494895 -0.50251883 4293729569
3.5342636 -2.554471 -0.18152574 4293729569
3.5132651 -2.5462992 -0.2565037 4293729569
3.5169573 -2.5523911 -0.48750615 4293729569
3.5242405 -2.5573802 -0.19651297 4293729569
3.5333748 -2.5664122 -0.010520737 4293729569
3.5142169 -2.5553002 -0.24250185 4293729569
3.5221786 -2.5643613 -0.2105083 4293729569
3.5099559 -2.5563204 -0.47349662 4293729569
3.5283389 -2.5703671 -0.024513524 4293729569
3.5082211 -2.5582392 -0.22849384 4293729569
3.5093994 -2.5631981 -0.038493536 4293729569
3.5121632 -2.5662713 -0.22549587 4293729569
3.5089178 -2.5643032 -0.4594928 4293729569
3.5062065 -2.5632141 -0.21348986 4293729569
3.500402 -2.562119 -0.053483292 4293729569
3.5002236 -2.5641544 -0.19948249 4293729569
3.5051436 -2.5682087 -0.23948699 4293729569
3.5049129 -2.5682604 -0.4444868 4293729569
3.4993601 -2.5661106 -0.067480765 4293729569
3.497231 -2.5661216 -0.18447831 4293729569
3.4973321 -2.5680952 -0.082477748 4293729569
3.4912629 -2.565063 -0.17047162 4293729569
3.4989166 -2.5711994 -0.43047875 4293729569
3.499115 -2.5711553 -0.25447893 4293729569
3.4943199 -2.5680709 -0.09747421 4293729569
3.4912658 -2.5670578 -0.15547098 4293729569
3.495265 -2.5710857 -0.12647437 4293729569
3.4952812 -2.5710821 -0.11147437 4293729569
3.493258 -2.5700715 -0.14147234 4293729569
3.4939342 -2.5721483 -0.4154726 4293729569
3.499063 -2.5761561 -0.26947725 4293729569
3.4869614 -2.5720797 -0.40046439 4293729569
3.4980206 -2.5801487 -0.28447476 4293729569
3.4900303 -2.578079 -0.298466 4293729569
3.4899316 -2.5781009 -0.38646591 4293729569
3.4879508 -2.5780787 -0.37146363 4293729569
3.4860272 -2.5770454 -0.31246164 4293729569
3.4889841 -2.580076 -0.32846415 4293729569
3.4889445 -2.5810828 -0.35746381 4293729569
3.48598 -2.5790522 -0.34246093 4293729569
7.7246661 5.3499193 -1.7323403 4288085770
7.8601642 5.4411926 -1.7284522 4288085770
7.6001916 5.2625875 -1.7372369 4288085770
7.4947915 5.1891532 -1.7451494 4288085770
8.0016689 5.5334363 -1.7235677 4288085770
7.3863597 5.1097369 -1.7510582 4288085770
8.1582203 5.6345997 -1.7206957 4288085770
7.2829432 5.0322962 -1.7549707 4288085770
8.3137569 5.7327695 -1.715822 4288085770
7.1915617 4.9617896 -1.7618927 4288085770
8.4903584 5.8428273 -1.7129649 4288085770
7.0971627 4.8873014 -1.7668118 4288085770
8.6940441 5.9687409 -1.7141297 4288085770
7.0127902 4.8177605 -1.7727387 4288085770
8.9529133 6.1293569 -1.7223392 4288085770
6.9304204 4.7482095 -1.7776668 4288085770
9.3201466 6.3593898 -1.7486372 4288085770
6.8440356 4.6756811 -1.7805916 4288085770
9.5980492 6.5259085 -1.7558603 4288085770
10.6549 7.2312527 -1.6997298 4288085770
10.420036 7.0725121 -1.7065361 4288085770
10.934914 7.4187508 -1.6979601 4288085770
10.24036 6.9484749 -1.7193871 4288085770
6.7616496 4.6021323 -1.7825184 4288085770
11.266087 7.6359768 -1.6992316 4288085770
10.081747 6.8363266 -1.7332547 4288085770
11.62635 7.8700476 -1.7015263 4288085770
9.8408146 6.6656194 -1.753054 4288085770
9.9180984 6.717207 -1.7451175 4288085770
9.7474213 6.5921273 -1.7539738 4288085770
6.6662178 4.5196557 -1.7814344 4288085770
9.5205383 6.4273515 -1.7507834 4288085770
10.043415 6.773551 -1.741213 4288085770
9.2264118 6.2149425 -1.7325369 4288085770
6.5717883 4.4371734 -1.7783512 4288085770
10.256044 6.8864288 -1.7293798 4288085770
8.9443264 6.0104685 -1.7143003 4288085770
6.4873867 4.3596396 -1.7762756 4288085770
8.7706089 5.875411 -1.712152 4288085770
10.50176 7.0161324 -1.7195723 4288085770
8.6289997 5.7611804 -1.71603 4288085770
6.3879318 4.2711878 -1.7691875 4288085770
10.729397 7.1299357 -1.7057489 4288085770
8.5034351 5.6548662 -1.7209202 4288085770
6.3165698 4.2005835 -1.768122 4288085770
8.3698444 5.5435953 -1.7228041 4288085770
11.037287 7.2923098 -1.7009902 4288085770
6.2532344 4.1349368 -1.7690631 4288085770
8.26334 5.4481797 -1.7277094 4288085770
11.39333 7.4834251 -1.7012703 4288085770
8.1548214 5.3497753 -1.7326127 4288085770
6.1888866 4.0662975 -1.7680024 4288085770
11.819576 7.7131686 -1.7066058 4288085770
8.0463047 5.2513719 -1.733516 4288085770
6.1355801 4.0055985 -1.7699515 4288085770
7.9688849 5.1708026 -1.7414439 4288085770
6.0983162 3.9528141 -1.7749125 4288085770
7.8964744 5.092207 -1.7483757 4288085770
6.0590434 3.8980408 -1.7788718 4288085770
7.8200507 5.0106339 -1.7533039 4288085770
6.0227833 3.845252 -1.7818334 4288085770
7.7556605 4.934998 -1.7602413 4288085770
7.6942821 4.8613448 -1.7661813 4288085770
5.9724698 3.7815411 -1.7807831 4288085770
7.6369042 4.787672 -1.7731239 4288085770
5.9502478 3.7356772 -1.7867554 4288085770
7.5634732 4.7040863 -1.7740536 4288085770
5.915977 3.6808805 -1.7887181 4288085770
7.4800143 4.6135569 -1.7719741 4288085770
5.9037828 3.6399653 -1.7956977 4288085770
4.2533159 2.6217685 -1.8263614 4288085770
4.2141852 2.5979762 -1.8303298 4288085770
4.1620126 2.5652559 -1.8282874 4288085770
4.3165116 2.6584318 -1.8314118 4288085770
4.3636603 2.6851821 -1.8274493 4288085770
4.1198664 2.5374815 -1.8292527 4288085770
7.4146075 4.5329304 -1.7739086 4288085770
4.0787215 2.5097029 -1.8292185 4288085770
4.4168191 2.7139015 -1.8264911 4288085770
4.4639597 2.7386537 -1.8225278 4288085770
4.0365686 2.4799306 -1.8281832 4288085770
5.8795457 3.5901158 -1.7986671 4288085770
4.5331612 2.7752874 -1.8245819 4288085770
4.0014372 2.4541209 -1.8291535 4288085770
4.5993485 2.8089387 -1.8256332 4288085770
3.9723206 2.4312787 -1.8321284 4288085770
7.3481994 4.4513097 -1.7728425 4288085770
4.6735559 2.8455484 -1.8266902 4288085770
3.9391875 2.4044602 -1.8320993 4288085770
4.7387309 2.8762074 -1.8247399 4288085770
3.902041 2.3746636 -1.8300668 4288085770
5.8583164 3.5412517 -1.8016387 4288085770
4.8149381 2.9128067 -1.8257983 4288085770
3.8759251 2.3508077 -1.8320433 4288085770
7.2787852 4.3687053 -1.7707741 4288085770
4.9001608 2.9523597 -1.8288631 4288085770
3.8508072 2.3259482 -1.8330197 4288085770
4.9934053 2.9958701 -1.8329344 4288085770
5.8441067 3.4963491 -1.8066157 4288085770
3.8256893 2.3010883 -1.8339963 4288085770
5.0876422 3.0373774 -1.8350053 4288085770
7.1963305 4.2771721 -1.7646946 4288085770
3.7905412 2.2692845 -1.8279644 4288085770
5.1788692 3.0769012 -1.8360738 4288085770
5.1989236 3.0857975 -1.831089 4288085770
5.1367216 3.0481284 -1.8340389 4288085770
5.264123 3.122452 -1.8291407 4288085770
5.0705061 3.0074821 -1.8339851 4288085770
5.3263144 3.1571231 -1.8241899 4288085770
5.8349099 3.4534216 -1.8115966 4288085770
3.7824655 2.2523346 -1.8349538 4288085770
5.398531 3.1967416 -1.8212469 4288085770
5.000278 2.9638577 -1.8309282 4288085770
5.4777594 3.2383232 -1.8203089 4288085770
4.9280357 2.9172456 -1.826869 4288085770
5.2620635 3.1094697 -1.8331354 4288085770
4.868835 2.8785636 -1.8258202 4288085770
5.5619993 3.2818792 -1.8183743 4288085770
7.1369481 4.1995158 -1.7626337 4288085770
5.6572695 3.3313761 -1.8194486 4288085770
4.8106308 2.8388774 -1.8237718 4288085770
3.7563391 2.2244825 -1.8329287 4288085770
4.7594442 2.8021543 -1.8227285 4288085770
5.7424984 3.3719299 -1.815514 4288085770
5.3382344 3.1370771 -1.8261907 4288085770
5.8197021 3.407527 -1.8075727 4288085770
4.7042394 2.7614543 -1.8196818 4288085770
5.8186889 3.4055316 -1.8145714 4288085770
3.7372303 2.1995938 -1.8319089 4288085770
5.9129519 3.4520378 -1.8046441 4288085770
5.4354606 3.1755722 -1.8252628 4288085770
4.6590681 2.7276995 -1.8206432 4288085770
7.106647 4.1377039 -1.7665956 4288085770
5.99616 3.4876058 -1.7957065 4288085770
4.6299314 2.699861 -1.8246164 4288085770
3.7241364 2.1776733 -1.8338937 4288085770
5.5396986 3.2160311 -1.8243396 4288085770
6.1074424 3.5380239 -1.794791 4288085770
4.5777349 2.6601455 -1.8205714 4288085770
5.8135037 3.3645833 -1.8195552 4288085770
6.2227321 3.5894213 -1.7928783 4288085770
7.0462575 4.058054 -1.7635334 4288085770
3.7130475 2.1567416 -1.8368798 4288085770
4.5485954 2.6313083 -1.8235444 4288085770
5.6529517 3.2594435 -1.8254231 4288085770
6.337009 3.6378262 -1.7889639 4288085770
4.5194526 2.6014717 -1.8255168 4288085770
5.7561755 3.29691 -1.8224984 4288085770
3.6798949 2.1219311 -1.827848 4288085770
6.4573007 3.689199 -1.7850543 4288085770
5.7992864 3.3166845 -1.8215311 4288085770
4.4822898 2.5676777 -1.824483 4288085770
7.0189695 3.9982276 -1.7664979 4288085770
6.5876088 3.74352 -1.7831516 4288085770
5.854372 3.3284056 -1.8165686 4288085770
3.6818352 2.1059313 -1.8348438 4288085770
4.4491324 2.5338645 -1.8224517 4288085770
6.7189131 3.796838 -1.7792493 4288085770
5.8021154 3.2776945 -1.8275204 4288085770
5.9726224 3.3707941 -1.8156549 4288085770
6.9926796 3.9373956 -1.7694625 4288085770
4.4250021 2.5060019 -1.8244278 4288085770
3.6617184 2.0780506 -1.8308222 4288085770
6.8512092 3.8481517 -1.7733471 4288085770
4.4048753 2.4781194 -1.8274064 4288085770
6.0728106 3.4002821 -1.8067257 4288085770
6.9804907 3.8964832 -1.7654421 4288085770
3.6546321 2.0561006 -1.8328104 4288085770
5.7879004 3.2297966 -1.8284963 4288085770
6.9954667 3.8914101 -1.7784498 4288085770
4.3737211 2.4442966 -1.8243762 4288085770
7.1478696 3.9636121 -1.7645665 4288085770
6.1900396 3.43768 -1.8018097 4288085770
3.6515574 2.0361295 -1.8348017 4288085770
4.3465743 2.411454 -1.8213488 4288085770
7.3062091 4.0227928 -1.7606829 4288085770
6.3182898 3.4790204 -1.7979019 4288085770
5.7726774 3.1799052 -1.8274709 4288085770
6.9681692 3.8285859 -1.7794129 4288085770
4.3274469 2.3825681 -1.8223275 4288085770
3.6494799 2.0151544 -1.8367934 4288085770
7.4916196 4.0958285 -1.7608203 4288085770
6.4615698 3.5262821 -1.798005 4288085770
7.695066 4.1757708 -1.762971 4288085770
4.3043122 2.3517036 -1.8203031 4288085770
6.9539084 3.7726922 -1.7823864 4288085770
5.76648 3.1349654 -1.8294525 4288085770
3.6393847 1.9902223 -1.8347788 4288085770
6.5978251 3.5685823 -1.7941022 4288085770
7.9145379 4.2606301 -1.7661333 4288085770
4.295207 2.3267653 -1.8232893 4288085770
3.6332994 1.9672691 -1.8337672 4288085770
6.7451019 3.6148252 -1.7912076 4288085770
6.9396448 3.7157996 -1.7853596 4288085770
5.7592797 3.0890319 -1.8304332 4288085770
8.1279831 4.3395243 -1.7652898 4288085770
4.2740712 2.2948925 -1.8202657 4288085770
6.8993835 3.6620333 -1.7893176 4288085770
3.6903658 1.9759768 -1.8628044 4288085770
8.3724976 4.4322548 -1.76847 4288085770
4.2589512 2.2659876 -1.8192469 4288085770
6.9324074 3.6638689 -1.7883385 4288085770
5.7500725 3.04111 -1.829412 4288085770
8.6240139 4.5249505 -1.7706546 4288085770
7.0556583 3.7072327 -1.7844282 4288085770
3.6722455 1.9450902 -1.8557829 4288085770
4.2568603 2.2430136 -1.8232379 4288085770
6.9402003 3.6178598 -1.7953285 4288085770
8.8945656 4.6245475 -1.772853 4288085770
5.7488852 2.9971459 -1.8303969 4288085770
7.2389913 3.7642896 -1.7855593 4288085770
3.6270595 1.8993499 -1.83374 4288085770
4.2427382 2.2131047 -1.8212192 4288085770
9.15909 4.7181797 -1.7720461 4288085770
7.4012609 3.808461 -1.7796732 4288085770
6.9399705 3.5668945 -1.799312 4288085770
4.2346315 2.1861641 -1.821205 4288085770
5.7316551 2.9442682 -1.826369 4288085770
9.4316101 4.8107724 -1.7702438 4288085770
7.5695319 3.852602 -1.7737908 4288085770
4.2295313 2.160208 -1.8211932 4288085770
6.9638019 3.5278018 -1.8083141 4288085770
9.7351952 4.9162035 -1.7704645 4288085770
5.7304702 2.9003043 -1.8263538 4288085770
7.7638574 3.9076071 -1.7719281 4288085770
4.2284374 2.1352313 -1.8221838 4288085770
10.022722 5.0097227 -1.7646718 4288085770
6.9705892 3.4797997 -1.8133028 4288085770
7.9802232 3.9704971 -1.7730815 4288085770
5.7242723 2.853368 -1.8243346 4288085770
10.304214 5.0962768 -1.7558731 4288085770
4.2233348 2.1082764 -1.8211716 4288085770
8.1905613 4.027422 -1.7702292 4288085770
7.0194769 3.451575 -1.8273236 4288085770
10.621777 5.1966429 -1.7501013 4288085770
4.2272482 2.0842745 -1.8231658 4288085770
5.730104 2.8123684 -1.8253247 4288085770
8.4299488 4.0941949 -1.7713981 4288085770
10.954346 5.2979345 -1.7433387 4288085770
6.9961877 3.3877349 -1.8222885 4288085770
4.2311635 2.0602727 -1.8251599 4288085770
5.7269177 2.7674165 -1.8233078 4288085770
8.6502781 4.1490726 -1.7665515 4288085770
11.305946 5.4051285 -1.7355902 4288085770
4.2310696 2.0342925 -1.8241509 4288085770
7.0170045 3.3446612 -1.8272873 4288085770
8.8926392 4.2108359 -1.7637205 4288085770
11.701628 5.5280938 -1.7318738 4288085770
5.7327437 2.7244182 -1.8232969 4288085770
4.2339811 2.0092971 -1.8241439 4288085770
7.0207825 3.293678 -1.8282729 4288085770
12.119329 5.6549468 -1.7271721 4288085770
9.1740818 4.2883945 -1.7679189 4288085770
5.7345653 2.6804409 -1.8212833 4288085770
4.2489185 1.9892384 -1.828146 4288085770
12.599155 5.8054771 -1.7265165 4288085770
9.5046158 4.3836975 -1.7771533 4288085770
7.0365858 3.247632 -1.8312675 4288085770
5.7393975 2.638448 -1.8192723 4288085770
4.2528291 1.9632388 -1.8261395 4288085770
13.164145 5.9885631 -1.734924 4288085770
9.8361282 4.474998 -1.7843868 4288085770
3.80268 1.7495924 -1.886793 4288085770
3.7605853 1.7228296 -1.8387582 4288085770
7.0493813 3.1996024 -1.8332596 4288085770
4.2717719 1.9441596 -1.8311441 4288085770
3.821701 1.7415161 -1.8388016 4288085770
13.9937 6.2822628 -1.7695301 4288085770
5.744226 2.5954561 -1.8172609 4288085770
10.189667 4.5711875 -1.7916356 4288085770
3.8888297 1.7631705 -1.8408496 4288085770
3.7935839 1.7146735 -1.8437752 4288085770
3.742466 1.6919417 -1.8407364 4288085770
3.8386898 1.7344378 -1.8418093 4288085770
3.8807869 1.7522188 -1.8388411 4288085770
3.7354326 1.6869763 -1.8577304 4288085770
3.9379139 1.7759205 -1.8408836 4288085770
3.9569554 1.7838213 -1.8418981 4288085770
3.9880233 1.7956604 -1.8389208 4288085770
7.0591693 3.14959 -1.832249 4288085770
4.0351291 1.8144164 -1.8349558 4288085770
14.743021 6.5293922 -1.7880719 4288085770
4.0882411 1.8341421 -1.831995 4288085770
4.2756767 1.9161624 -1.8291367 4288085770
3.7644668 1.6908302 -1.8627491 4288085770
4.023077 1.8034825 -1.8409448 4288085770
4.153378 1.8588041 -1.8330429 4288085770
10.533161 4.6584339 -1.7948754 4288085770
4.2084923 1.8785201 -1.829083 4288085770
5.7600751 2.556407 -1.8172574 4288085770
4.088191 1.8211508 -1.8389903 4288085770
4.2766304 1.9031674 -1.8301326 4288085770
4.3367481 1.9228588 -1.826176 4288085770
15.304882 6.6865158 -1.7774693 4288085770
4.1583118 1.8397936 -1.8380392 4288085770
4.4108934 1.948476 -1.8262297 4288085770
7.0809813 3.1045146 -1.8352475 4288085770
4.2825904 1.8901488 -1.8271319 4288085770
3.7433424 1.6549653 -1.8457236 4288085770
10.849573 4.728826 -1.7910931 4288085770
4.487041 1.9740835 -1.8262846 4288085770
4.2244234 1.8564578 -1.8340849 4288085770
4.5601764 1.9967085 -1.8243369 4288085770
5.778935 2.5193412 -1.8182563 4288085770
4.6473393 2.0252593 -1.8263994 4288085770
15.909794 6.8534188 -1.7678964 4288085770
4.3035555 1.8770547 -1.8341399 4288085770
4.2885046 1.8641403 -1.8251263 4288085770
4.7304902 2.0508325 -1.8254588 4288085770
11.176981 4.7991648 -1.7863177 4288085770
3.7552829 1.6329248 -1.8437229 4288085770
7.0947757 3.0554819 -1.8342397 4288085770
17.789782 7.6076303 -1.7622987 4288085770
4.3696632 1.8927202 -1.8281853 4288085770
4.8166461 2.0773909 -1.8245202 4288085770
16.530704 7.0192447 -1.7553333 4288085770
5.7927814 2.4793026 -1.8172512 4288085770
4.4628158 1.9172446 -1.8312502 4288085770
4.9098082 2.1049128 -1.8245862 4288085770
4.2994256 1.8391068 -1.8231241 4288085770
11.531427 4.8763647 -1.7825611 4288085770
4.9999628 2.1304524 -1.8226496 4288085770
3.7742352 1.6138469 -1.8457276 4288085770
4.5479493 1.937812 -1.8303088 4288085770
7.1005559 3.0034919 -1.831226 4288085770
17.407265 7.3127189 -1.7599689 4288085770
5.0861087 2.1540134 -1.8167101 4288085770
17.259792 7.219512 -1.7478479 4288085770
4.6320791 1.9573857 -1.8283665 4288085770
5.8196526 2.4441969 -1.8192556 4288085770
5.1872749 2.1814969 -1.815781 4288085770
11.909893 4.9574432 -1.7808207 4288085770
4.3143554 1.8160514 -1.8231249 4288085770
4.7272267 1.9809011 -1.8294324 4288085770
5.2944503 2.2109487 -1.8158562 4288085770
3.795187 1.5937603 -1.8467329 4288085770
17.145044 7.0751724 -1.7667315 4288085770
7.1233687 2.9574132 -1.8312246 4288085770
18.074007 7.4453416 -1.7434235 4288085770
5.4176517 2.2453182 -1.8179429 4288085770
4.8193593 2.0004349 -1.8274951 4288085770
12.264288 5.0246511 -1.7730609 4288085770
5.847528 2.410085 -1.8212608 4288085770
4.3292823 1.7919974 -1.8221254 4288085770
5.5278282 2.2747564 -1.8150201 4288085770
4.9175014 2.0219383 -1.825562 4288085770
3.8131342 1.5726895 -1.845736 4288085770
19.108631 7.7510257 -1.7531608 4288085770
17.005089 6.8889861 -1.7835858 4288085770
7.1421719 2.9093559 -1.8292201 4288085770
5.6570306 2.3090961 -1.8171104 4288085770
5.0336757 2.0503464 -1.8296424 4288085770
