# .PCD v0.7 - Point Cloud Data file format
VERSION 0.7
FIELDS x y z rgb
SIZE 4 4 4 4
TYPE F F F U
COUNT 1 1 1 1
WIDTH 1123
HEIGHT 1
VIEWPOINT 0 0 0 1 0 0 0
POINTS 1123
DATA ascii
5.098032 -3.4234807 -1.7103211 4293729569
5.131403 -3.4748971 -1.7102813 4293729569
5.1697354 -3.5293767 -1.7112461 4293729569
5.2140121 -3.5879352 -1.7142162 4293729569
5.2553358 -3.6434474 -1.7131863 4293729569
5.3145199 -3.7091951 -1.718176 4293729569
5.3618031 -3.7677839 -1.7181532 4293729569
5.4180322 -3.8304877 -1.720143 4293729569
5.4762473 -3.8942165 -1.7221351 4293729569
5.5275474 -3.9518499 -1.7201246 4293729569
5.5867772 -4.0145888 -1.7211215 4293729569
8.4487972 6.0135865 -1.7019616 4288085770
8.6454639 6.147161 -1.7028856 4288085770
8.2954407 5.9064584 -1.7082329 4288085770
8.957037 6.3572659 -1.7223455 4288085770
8.1430769 5.7983222 -1.7125044 4288085770
9.2867222 6.5761485 -1.741881 4288085770
7.9876738 5.6862335 -1.7137564 4288085770
9.5558901 6.7508144 -1.7481235 4288085770
7.8564415 5.5888343 -1.7191174 4288085770
9.7816839 6.8930449 -1.7431542 4288085770
7.7261887 5.4894271 -1.7234756 4288085770
9.9630938 7.0028462 -1.7299699 4288085770
7.6050005 5.3949089 -1.726873 4288085770
10.135397 7.1027737 -1.7117329 4288085770
7.5069842 5.3150945 -1.7343765 4288085770
10.365107 7.2369704 -1.7017525 4288085770
7.4169922 5.2371812 -1.7419081 4288085770
10.635124 7.3966613 -1.6949565 4288085770
7.3310337 5.1622143 -1.7504591 4288085770
10.944402 7.5778561 -1.6923312 4288085770
11.113808 7.6897745 -1.6901186 4288085770
10.827236 7.4843011 -1.6917427 4288085770
7.2450452 5.0842538 -1.757002 4288085770
11.28791 7.7776256 -1.6908537 4288085770
10.571895 7.2974386 -1.6945063 4288085770
10.398175 7.1625395 -1.7076442 4288085770
7.1620836 5.0082593 -1.7625587 4288085770
10.242577 7.0374188 -1.7208601 4288085770
7.0700197 4.9233851 -1.7650654 4288085770
10.101073 6.9201202 -1.7351377 4288085770
6.9991131 4.8522363 -1.7726698 4288085770
9.941412 6.7890568 -1.7453259 4288085770
9.7374001 6.6275716 -1.744305 4288085770
6.9060206 4.7643833 -1.7721654 4288085770
9.45679 6.415071 -1.7289269 4288085770
6.8240085 4.6833873 -1.7737113 4288085770
9.1358519 6.1740966 -1.703356 4288085770
6.7298975 4.5935535 -1.7711985 4288085770
8.9751368 6.0370693 -1.7055253 4288085770
6.6317577 4.5007768 -1.7656664 4288085770
8.8325567 5.9108186 -1.7077754 4288085770
8.7030735 5.7924023 -1.711084 4288085770
6.5507298 4.417778 -1.7642097 4288085770
8.583662 5.6798615 -1.7144371 4288085770
6.4918618 4.3484936 -1.7668533 4288085770
8.4823666 5.5770893 -1.7208691 4288085770
6.3977275 4.2556734 -1.7593324 4288085770
8.3669615 5.4645052 -1.7222337 4288085770
6.3408651 4.1863699 -1.7599818 4288085770
8.2777529 5.3685865 -1.7277185 4288085770
6.2980909 4.1248822 -1.7646928 4288085770
8.1955853 5.2755842 -1.732231 4288085770
4.2770386 2.8546288 -1.8224772 4288085770
4.3415208 2.8938248 -1.8257676 4288085770
4.2206001 2.8193281 -1.8212203 4288085770
4.18328 2.7947745 -1.8260472 4288085770
4.3898716 2.9212363 -1.8229799 4288085770
4.449306 2.9555087 -1.8212427 4288085770
4.1248102 2.7565041 -1.8227764 4288085770
6.257318 4.0633721 -1.7684091 4288085770
4.5117378 2.9897406 -1.8205137 4288085770
4.0894804 2.7309287 -1.8266062 4288085770
4.0309954 2.6906674 -1.82033 4288085770
4.5771689 3.023936 -1.8197932 4288085770
8.1305285 5.1923585 -1.7408191 4288085770
4.6496458 3.0620415 -1.8201036 4288085770
3.989604 2.6591778 -1.8201264 4288085770
4.7150583 3.0942426 -1.8173774 4288085770
3.9472022 2.6267037 -1.8189172 4288085770
6.222579 4.0047841 -1.7731507 4288085770
4.8096566 3.1430604 -1.82278 4288085770
3.9098253 2.5961676 -1.8177274 4288085770
8.0725098 5.1120491 -1.7484351 4288085770
4.8830934 3.1771626 -1.8200821 4288085770
3.8704262 2.563659 -1.815527 4288085770
4.9605389 3.2122123 -1.8183982 4288085770
3.8471212 2.5399349 -1.819396 4288085770
6.1777782 3.9403327 -1.7738478 4288085770
5.0571089 3.2580142 -1.820798 4288085770
8.0114698 5.0297799 -1.7550374 4288085770
3.8157535 2.5103214 -1.8192263 4288085770
5.1425791 3.2949643 -1.8191421 4288085770
3.7904196 2.4836309 -1.8200815 4288085770
6.1450572 3.882726 -1.7765977 4288085770
5.2532167 3.3465869 -1.8235979 4288085770
5.3771119 3.4170723 -1.8191427 4288085770
7.9423656 4.9416194 -1.7586005 4288085770
5.3075738 3.3749189 -1.82283 4288085770
5.2299867 3.3278763 -1.8224809 4288085770
5.4476151 3.4562159 -1.8144501 4288085770
5.1453485 3.2759323 -1.8180982 4288085770
3.7580333 2.4520357 -1.8179032 4288085770
5.5372519 3.5071101 -1.8148439 4288085770
5.0647073 3.2239356 -1.8147269 4288085770
5.5996928 3.5403647 -1.8061124 4288085770
5.0042024 3.1836791 -1.8154451 4288085770
5.3567791 3.3913083 -1.8240148 4288085770
5.678215 3.5804152 -1.799445 4288085770
4.9487166 3.1453555 -1.8181827 4288085770
5.7647886 3.6253576 -1.795814 4288085770
3.7316809 2.4233632 -1.81675 4288085770
4.8871803 3.1021173 -1.8168896 4288085770
6.1213923 3.8300023 -1.7813867 4288085770
5.8503466 3.6683216 -1.7891746 4288085770
5.4522667 3.4291406 -1.8203899 4288085770
7.8863573 4.8612938 -1.7632222 4288085770
4.8377056 3.0647187 -1.819647 4288085770
5.9499574 3.7161031 -1.7855885 4288085770
3.7063165 2.3936787 -1.8155974 4288085770
4.784204 3.024379 -1.8193849 4288085770
6.0485616 3.7629027 -1.7799968 4288085770
5.53968 3.4600832 -1.812723 4288085770
4.7337008 2.9840019 -1.819131 4288085770
6.166276 3.8194551 -1.7784861 4288085770
6.0987148 3.7762654 -1.7861761 4288085770
3.6900167 2.369874 -1.817486 4288085770
7.8223057 4.7770729 -1.7658103 4288085770
4.6862264 2.9455903 -1.8178914 4288085770
6.277926 3.8700905 -1.7739419 4288085770
5.643189 3.4998133 -1.8101259 4288085770
4.6326928 2.902256 -1.8156208 4288085770
6.3996339 3.9255991 -1.7704396 4288085770
3.6656427 2.33918 -1.8153332 4288085770
5.7476907 3.5385368 -1.8055291 4288085770
6.0699968 3.7186124 -1.7879374 4288085770
4.5912271 2.8647673 -1.8154006 4288085770
6.5343971 3.9859405 -1.7689878 4288085770
7.7602301 4.6908307 -1.7673986 4288085770
3.6553655 2.3172977 -1.8182447 4288085770
5.8511729 3.5752752 -1.799924 4288085770
6.6651206 4.0423408 -1.7645136 4288085770
4.5437207 2.8233614 -1.8121527 4288085770
6.796824 4.0967336 -1.7580369 4288085770
4.507268 2.7868109 -1.8119495 4288085770
3.6299844 2.2856219 -1.8140862 4288085770
6.0583892 3.6707366 -1.793774 4288085770
7.675024 4.5928884 -1.7638892 4288085770
5.9656992 3.6158752 -1.7953607 4288085770
6.9325519 4.1530771 -1.7515768 4288085770
4.4849129 2.7590749 -1.8158103 4288085770
3.6287346 2.2666197 -1.820031 4288085770
6.0781918 3.6535022 -1.7897835 4288085770
7.102459 4.2249813 -1.7512565 4288085770
4.4524722 2.7234743 -1.8156211 4288085770
7.5888004 4.4929667 -1.7573712 4288085770
6.0437493 3.6199014 -1.7985939 4288085770
6.2148194 3.7028208 -1.788307 4288085770
7.2944913 4.3076048 -1.7540283 4288085770
3.616416 2.2407711 -1.8199258 4288085770
4.4290748 2.691757 -1.8174682 4288085770
7.5036039 4.3970098 -1.7588673 4288085770
7.5539112 4.4223781 -1.7630798 4288085770
6.3453822 3.7462213 -1.783797 4288085770
6.029099 3.5680685 -1.8024112 4288085770
3.6000786 2.2129781 -1.8178037 4288085770
4.4086981 2.661999 -1.8203293 4288085770
7.6835089 4.4678025 -1.7545723 4288085770
6.4739108 3.7866504 -1.778273 4288085770
4.3873029 2.6302595 -1.8211821 4288085770
3.595789 2.1900218 -1.8207291 4288085770
7.486814 4.3332119 -1.7596456 4288085770
7.911685 4.5619755 -1.7584785 4288085770
6.0154638 3.5172265 -1.805234 4288085770
6.6175227 3.8338902 -1.7738106 4288085770
4.3638983 2.597548 -1.8210264 4288085770
8.1398449 4.6541572 -1.7593793 4288085770
3.5894923 2.1660962 -1.8216462 4288085770
7.4418654 4.2567611 -1.7603095 4288085770
4.3414946 2.5648241 -1.8208736 4288085770
6.7852426 3.8908186 -1.774443 4288085770
6.0148907 3.4722114 -1.8121098 4288085770
8.3870745 4.7521 -1.7613499 4288085770
3.5821857 2.1411855 -1.8215578 4288085770
4.330133 2.5359573 -1.8227628 4288085770
6.9499326 3.9447913 -1.772059 4288085770
8.6252174 4.8421664 -1.7592731 4288085770
7.390873 4.1763902 -1.7589452 4288085770
6.0032468 3.4203472 -1.8139354 4288085770
3.5788894 2.1172228 -1.8224834 4288085770
4.3127408 2.5041714 -1.8226268 4288085770
8.8643408 4.9302268 -1.7551936 4288085770
7.1166019 3.9967442 -1.7686749 4288085770
7.3459182 4.0989461 -1.757606 4288085770
3.5775924 2.0932353 -1.8234146 4288085770
5.9956326 3.3714278 -1.8177805 4288085770
9.1255713 5.0270104 -1.752201 4288085770
4.2963486 2.4723728 -1.8224936 4288085770
7.2802267 4.0447383 -1.7632713 4288085770
9.3917789 5.121736 -1.7482164 4288085770
4.2829685 2.4415371 -1.8223717 4288085770
7.3522739 4.0488362 -1.7674878 4288085770
3.5752983 2.0692627 -1.8233429 4288085770
7.4619193 4.098505 -1.7599351 4288085770
14.447766 7.7454591 -1.7177573 4288085770
5.9779606 3.3166466 -1.816581 4288085770
9.6810846 5.2241755 -1.7443188 4288085770
4.2635484 2.4067848 -1.8192219 4288085770
7.6576729 4.1570969 -1.7566518 4288085770
3.5749898 2.0442634 -1.8242741 4288085770
7.3264327 3.9811468 -1.7692297 4288085770
14.146546 7.4871664 -1.7181954 4288085770
5.9643068 3.2638102 -1.8173981 4288085770
9.9663486 5.3226733 -1.737399 4288085770
4.2551928 2.3778872 -1.8191193 4288085770
7.8775501 4.2263799 -1.7574662 4288085770
3.5817366 2.0241704 -1.8272387 4288085770
7.3106494 3.9183302 -1.7720134 4288085770
10.279717 5.4298177 -1.7325827 4288085770
13.902699 7.260148 -1.7248821 4288085770
5.9586987 3.2148716 -1.8192489 4288085770
4.2518311 2.3489218 -1.821031 4288085770
8.1003914 4.2926288 -1.7572809 4288085770
3.5844398 2.0001338 -1.8281813 4288085770
10.600091 5.5368819 -1.725786 4288085770
7.3119555 3.8632939 -1.777867 4288085770
4.2555256 2.3248639 -1.8249762 4288085770
13.759486 7.0858583 -1.7419988 4288085770
8.3151608 4.3519912 -1.7520537 4288085770
5.9540691 3.1639237 -1.8200969 4288085770
10.960641 5.658443 -1.7211429 4288085770
3.5992174 1.9829364 -1.8331766 4288085770
4.2471514 2.293972 -1.8228682 4288085770
7.3082399 3.8063228 -1.7827011 4288085770
8.5660849 4.4248896 -1.7529664 4288085770
13.611272 6.9106426 -1.7550987 4288085770
11.331209 5.7808871 -1.7145307 4288085770
5.9434333 3.1120558 -1.8189253 4288085770
3.5968952 1.9559729 -1.8300968 4288085770
4.2397652 2.262068 -1.8207604 4288085770
8.8562155 4.5152903 -1.7590382 4288085770
11.762065 5.927567 -1.7141563 4288085770
7.3095365 3.7502899 -1.787552 4288085770
13.419833 6.7159805 -1.7610228 4288085770
3.6025987 1.9318988 -1.8310475 4288085770
5.9257412 3.0552807 -1.8157202 4288085770
4.2554998 2.2418528 -1.8277501 4288085770
9.1724234 4.6123624 -1.7672025 4288085770
12.234087 6.0877371 -1.7149355 4288085770
7.3188791 3.6981544 -1.7934364 4288085770
13.107746 6.465857 -1.7494521 4288085770
3.6073074 1.9078428 -1.8299958 4288085770
4.2451072 2.2089918 -1.8236313 4288085770
12.79052 6.2818465 -1.7220476 4288085770
5.9342046 3.0121653 -1.8186268 4288085770
9.5076904 4.7141981 -1.7754338 4288085770
7.3493204 3.6547468 -1.8034047 4288085770
12.712242 6.1797981 -1.725546 4288085770
13.559064 6.5692763 -1.7510173 4288085770
3.6120038 1.8827868 -1.8289409 4288085770
9.8228273 4.804297 -1.7785757 4288085770
4.2467537 2.1799731 -1.822557 4288085770
5.9346018 2.9631584 -1.8184942 4288085770
14.217892 6.7951136 -1.7605069 4288085770
7.357657 3.6016297 -1.8072833 4288085770
10.116787 4.8786769 -1.7746145 4288085770
12.529981 5.9980402 -1.7255312 4288085770
4.2544289 2.1538713 -1.824508 4288085770
3.6227193 1.8596506 -1.8299086 4288085770
5.9289804 2.9122312 -1.8163394 4288085770
14.824345 6.9886293 -1.7587588 4288085770
10.467997 4.9743333 -1.7768738 4288085770
4.2631073 2.1277604 -1.8254615 4288085770
7.3981323 3.5610955 -1.8182878 4288085770
12.362824 5.8250904 -1.7275835 4288085770
3.6334381 1.8365177 -1.8298763 4288085770
15.412613 7.1653919 -1.7489133 4288085770
5.9283938 2.8642392 -1.8152066 4288085770
10.801038 5.0552263 -1.7740414 4288085770
4.2727852 2.1016374 -1.8264179 4288085770
7.4124808 3.5089037 -1.8221861 4288085770
3.6562157 1.8192213 -1.8348941 4288085770
12.245975 5.6775088 -1.7338479 4288085770
16.048029 7.3535743 -1.7382329 4288085770
5.9298062 2.8162224 -1.8140798 4288085770
11.115957 5.1253581 -1.7661278 4288085770
4.2844639 2.075489 -1.8273798 4288085770
3.6639142 1.7941313 -1.8328477 4288085770
7.4228096 3.4547677 -1.8240677 4288085770
12.160297 5.5445318 -1.7432407 4288085770
16.758772 7.5688143 -1.7318405 4288085770
11.471014 5.2069845 -1.7613597 4288085770
5.9322219 2.7681961 -1.8119556 4288085770
4.2961416 2.049341 -1.828342 4288085770
3.6836605 1.7738779 -1.8358489 4288085770
7.437139 3.4005818 -1.8259605 4288085770
12.079674 5.4154968 -1.7516588 4288085770
11.838059 5.287466 -1.7556223 4288085770
4.3098221 2.0231709 -1.8283095 4288085770
5.9356494 2.7211573 -1.8098369 4288085770
3.7014003 1.7526551 -1.8368416 4288085770
7.4796219 3.3600311 -1.8339705 4288085770
12.010111 5.2913246 -1.7601216 4288085770
12.235224 5.3775716 -1.7509969 4288085770
4.3275223 1.9989455 -1.830294 4288085770
5.9561367 2.6798935 -1.8127826 4288085770
3.7271566 1.7333248 -1.8408624 4288085770
12.664469 5.474278 -1.7474805 4288085770
7.4818859 3.3000026 -1.8328129 4288085770
11.981742 5.183629 -1.7737464 4288085770
4.3472219 1.974695 -1.8322841 4288085770
18.284996 7.7408934 -1.7486448 4288085770
5.9655766 2.6337802 -1.8106836 4288085770
3.7468839 1.7110773 -1.841858 4288085770
13.088611 5.5620522 -1.7419251 4288085770
11.923267 5.0663228 -1.7812593 4288085770
7.486165 3.2409525 -1.8306637 4288085770
4.3538656 1.9446235 -1.828221 4288085770
18.058054 7.5056682 -1.7543561 4288085770
5.9910998 2.5954542 -1.8136513 4288085770
13.595083 5.6777887 -1.74368 4288085770
3.7686234 1.6898049 -1.8428619 4288085770
11.872834 4.951921 -1.7878029 4288085770
7.488451 3.1819327 -1.8265088 4288085770
4.3705482 1.918419 -1.827197 4288085770
14.112537 5.7913957 -1.7434599 4288085770
17.942688 7.3180442 -1.7675146 4288085770
6.0176139 2.5561187 -1.8156195 4288085770
3.7903624 1.6685327 -1.8438659 4288085770
11.805332 4.8317347 -1.7922822 4288085770
7.5268836 3.1364431 -1.8304937 4288085770
4.3892322 1.89219 -1.8261786 4288085770
14.671083 5.9124899 -1.7443773 4288085770
17.843422 7.1382246 -1.7797401 4288085770
3.8040676 1.6433741 -1.8398364 4288085770
6.0280566 2.5099962 -1.8125231 4288085770
3.3346431 1.4551116 -1.8599883 4288085770
11.748894 4.7164154 -1.7958062 4288085770
4.4139342 1.8678806 -1.8271825 4288085770
7.5271468 3.0754516 -1.8253275 4288085770
3.3336389 1.4482068 -1.8309665 4288085770
3.3848205 1.4615856 -1.8271484 4288085770
15.383249 6.08565 -1.758873 4288085770
3.452055 1.4807462 -1.830392 4288085770
17.759241 6.9652152 -1.793027 4288085770
3.8408389 1.625899 -1.8468933 4288085770
6.0555725 2.4706507 -1.8134937 4288085770
3.3555293 1.4369615 -1.8219981 4288085770
3.5142617 1.4969774 -1.8306131 4288085770
3.4107764 1.4572704 -1.8252106 4288085770
3.292238 1.4117694 -1.8127493 4288085770
3.4610076 1.4756497 -1.8254035 4288085770
3.5202672 1.4969087 -1.8286301 4288085770
3.5775075 1.5161984 -1.8298454 4288085770
4.4285984 1.8397068 -1.8241473 4288085770
3.6518135 1.5422574 -1.8381277 4288085770
11.646256 4.5836864 -1.7921512 4288085770
7.537466 3.0193295 -1.8222033 4288085770
3.5955186 1.5189501 -1.8389041 4288085770
3.7170877 1.5644449 -1.8403739 4288085770
3.774312 1.5817434 -1.8385837 4288085770
16.194729 6.2845664 -1.7787212 4288085770
3.6667585 1.5380667 -1.8401589 4288085770
3.8415766 1.6029092 -1.8398328 4288085770
3.9068341 1.6231056 -1.8390733 4288085770
3.8655806 1.6045926 -1.8469056 4288085770
17.683119 6.7961154 -1.8033473 4288085770
3.7470021 1.5580634 -1.8444417 4288085770
3.9801116 1.645197 -1.8403419 4288085770
6.0840802 2.4302964 -1.8134644 4288085770
4.037313 1.6595101 -1.8335435 4288085770
4.4522915 1.8144131 -1.8241458 4288085770
3.8232269 1.5761154 -1.8467076 4288085770
11.47737 4.4288087 -1.7772474 4288085770
7.5658398 2.9679785 -1.8211434 4288085770
4.1095834 1.6806194 -1.8328066 4288085770
17.079388 6.4985695 -1.8018184 4288085770
4.1928692 1.7035843 -1.835106 4288085770
3.9054766 1.5960931 -1.8489958 4288085770
4.272151 1.7256072 -1.8343914 4288085770
3.8873043 1.5813287 -1.8449039 4288085770
17.566835 6.6135268 -1.8085167 4288085770
3.9806976 1.6131659 -1.8482562 4288085770
4.3443837 1.7427284 -1.8296434 4288085770
6.104569 2.388047 -1.8114071 4288085770
4.4800086 1.7910694 -1.8241608 4288085770
4.4256587 1.7637323 -1.8269317 4288085770
4.0548997 1.628257 -1.8455085 4288085770
11.385821 4.3029456 -1.7726426 4288085770
17.801237 6.6426458 -1.8022614 4288085770
7.5952282 2.9176183 -1.8190889 4288085770
4.5079217 1.7837238 -1.8242201 4288085770
4.1220636 1.6394466 -1.8387297 4288085770
3.9210625 1.561902 -1.847947 4288085770
4.6022153 1.8065609 -1.8235503 4288085770
17.286888 6.374012 -1.7950652 4288085770
4.5107226 1.7676858 -1.8251843 4288085770
4.2133126 1.6593128 -1.8410434 4288085770
6.1390972 2.3496151 -1.8124001 4288085770
4.6935019 1.828441 -1.8208694 4288085770
18.491802 6.7631254 -1.7965509 4288085770
11.329457 4.1926403 -1.7711804 4288085770
7.6587496 2.8798099 -1.8261659 4288085770
12.748748 -0.1273399 -1.8787068 4288085770
17.905188 -0.19808975 -1.9243196 4288085770
13.48656 -0.146459 -1.8841995 4288085770
19.382837 -0.23336452 -1.9393176 4288085770
14.31936 -0.16675641 -1.8918879 4288085770
15.290138 -0.18877149 -1.904861 4288085770
16.345932 -0.21082138 -1.9130121 4288085770
18.370708 -0.24278498 -1.9071674 4288085770
17.589701 -0.23520602 -1.9265511 4288085770
19.003471 -0.26068905 -1.9404434 4288085770
17.068674 -0.23869658 -1.898448 4288085770
15.949628 -0.23686972 -1.891106 4288085770
14.938558 -0.23737572 -1.8839836 4288085770
14.035498 -0.23820615 -1.8740867 4288085770
13.235414 -0.24131347 -1.8663995 4288085770
18.847225 -0.36568329 -1.9118137 4288085770
12.532328 -0.24462681 -1.8619151 4288085770
17.488165 -0.36388528 -1.9009681 4288085770
11.897214 -0.25077629 -1.8565649 4288085770
16.310087 -0.36432409 -1.8914955 4288085770
11.330105 -0.25677097 -1.853358 4288085770
15.278993 -0.36658588 -1.8853261 4288085770
10.826982 -0.26356417 -1.853283 4288085770
14.371893 -0.37037235 -1.8774122 4288085770
10.333858 -0.27146628 -1.8482256 4288085770
13.549788 -0.37520796 -1.8696737 4288085770
9.9287119 -0.28047472 -1.8503498 4288085770
12.840663 -0.38144979 -1.866168 4288085770
9.5355835 -0.28862271 -1.8495014 4288085770
12.194537 -0.38846627 -1.8617923 4288085770
4.8091063 -0.13825494 -1.8320183 4288085770
9.1844234 -0.29929754 -1.8517339 4288085770
18.709818 -0.64102209 -1.9187343 4288085770
4.919939 -0.15262347 -1.8322093 4288085770
18.48271 -0.64527154 -1.9362457 4288085770
11.624403 -0.39642367 -1.8585733 4288085770
8.8412952 -0.30805683 -1.8489888 4288085770
5.0317616 -0.16800135 -1.8313994 4288085770
17.174772 -0.63410115 -1.9245341 4288085770
11.104262 -0.40500104 -1.8564574 4288085770
17.472601 -0.65272844 -1.9081053 4288085770
8.5101576 -0.31796128 -1.8452654 4288085770
16.019875 -0.62081385 -1.9111494 4288085770
5.1425881 -0.18336111 -1.8285875 4288085770
10.636115 -0.41422606 -1.8564487 4288085770
16.375387 -0.66516 -1.8967677 4288085770
15.027967 -0.60855281 -1.9031037 4288085770
5.2634101 -0.19885008 -1.8277962 4288085770
8.2230072 -0.32842031 -1.8456327 4288085770
14.141077 -0.59558517 -1.8942803 4288085770
10.219946 -0.42509848 -1.8585441 4288085770
5.4002142 -0.21554218 -1.8290349 4288085770
4.7964525 -0.19111526 -1.8368385 4288085770
15.433178 -0.6775164 -1.8897554 4288085770
13.33919 -0.58266956 -1.8866349 4288085770
7.9298677 -0.33879083 -1.8409876 4288085770
5.5410299 -0.2312838 -1.830285 4288085770
4.9162927 -0.20460077 -1.8390509 4288085770
9.8147993 -0.43509236 -1.8556652 4288085770
12.628304 -0.56988293 -1.8811804 4288085770
5.6938305 -0.24817628 -1.8325567 4288085770
5.0361381 -0.21807761 -1.8382635 4288085770
11.982427 -0.55689877 -1.8758627 4288085770
7.6807165 -0.3497189 -1.8414333 4288085770
19.342379 -0.91992575 -1.9482603 4288085770
5.8466473 -0.26406312 -1.8328316 4288085770
5.1540012 -0.23052412 -1.8354748 4288085770
14.60793 -0.69332528 -1.8859787 4288085770
9.4396486 -0.4454594 -1.8538482 4288085770
11.387555 -0.54354703 -1.871653 4288085770
5.278861 -0.24305992 -1.8337007 4288085770
17.859869 -0.87358177 -1.9302833 4288085770
6.0024533 -0.28098398 -1.8321095 4288085770
10.87067 -0.53116667 -1.870604 4288085770
5.4157052 -0.25674662 -1.8329481 4288085770
7.4385672 -0.36072761 -1.8398932 4288085770
16.57432 -0.83167481 -1.9147067 4288085770
6.1862464 -0.29826486 -1.8364455 4288085770
10.390797 -0.51824015 -1.8686343 4288085770
5.5755353 -0.27073449 -1.8382432 4288085770
9.0904999 -0.45614153 -1.8500847 4288085770
13.851733 -0.70597464 -1.8783559 4288085770
15.503699 -0.79544127 -1.9065645 4288085770
6.3750415 -0.31560457 -1.8397915 4288085770
9.9329519 -0.50357968 -1.8647158 4288085770
5.7313738 -0.28466144 -1.83953 4288085770
9.5540571 -0.49191707 -1.8689544 4288085770
6.5548606 -0.33181885 -1.8381221 4288085770
14.582042 -0.76305228 -1.9007239 4288085770
5.8942266 -0.29767203 -1.8398342 4288085770
7.2064195 -0.37185684 -1.8373739 4288085770
9.156208 -0.47799423 -1.8641597 4288085770
13.714397 -0.73031843 -1.8909976 4288085770
6.0590706 -0.31170145 -1.8381397 4288085770
6.7566462 -0.35031313 -1.8394922 4288085770
8.7883673 -0.46344468 -1.8604296 4288085770
6.243917 -0.32498935 -1.8404893 4288085770
8.7773428 -0.46727669 -1.8493955 4288085770
8.4605055 -0.45039445 -1.8587794 4288085770
12.962712 -0.70102751 -1.8855048 4288085770
6.9924212 -0.36923862 -1.8449324 4288085770
6.4377499 -0.33938822 -1.8428545 4288085770
8.1556549 -0.43662819 -1.8571793 4288085770
6.6425967 -0.35292011 -1.8442453 4288085770
13.162517 -0.7204538 -1.871868 4288085770
7.8498259 -0.42183822 -1.8515801 4288085770
12.272036 -0.67148679 -1.8791405 4288085770
6.8494473 -0.36647087 -1.8436403 4288085770
7.2132211 -0.38696173 -1.8443446 4288085770
7.5749884 -0.4074395 -1.8490449 4288085770
7.0722938 -0.38022199 -1.8440683 4288085770
7.3181329 -0.39426568 -1.8475438 4288085770
11.670309 -0.6460529 -1.8759512 4288085770
7.4540038 -0.40593737 -1.8457953 4288085770
11.117596 -0.62021798 -1.8708658 4288085770
7.7217808 -0.42524919 -1.8483014 4288085770
6.9902706 -0.38318354 -1.8348876 4288085770
10.635839 -0.59727663 -1.8719209 4288085770
8.0005579 -0.44469672 -1.8508304 4288085770
10.186083 -0.57472736 -1.8720422 4288085770
8.3023195 -0.46543086 -1.8544039 4288085770
9.745348 -0.55127466 -1.8671848 4288085770
8.6290789 -0.48647362 -1.858029 4288085770
8.4722004 -0.47750488 -1.8467256 4288085770
9.3575897 -0.52948487 -1.8654339 4288085770
8.9758377 -0.50776041 -1.8606954 4288085770
12.572283 -0.73616916 -1.8705844 4288085770
18.884953 -1.118224 -1.924731 4288085770
6.795114 -0.39477801 -1.8354445 4288085770
8.187047 -0.48897693 -1.843094 4288085770
19.221172 -1.1824028 -1.9342521 4288085770
18.462564 -1.1450552 -1.9387681 4288085770
12.020065 -0.75134504 -1.866382 4288085770
17.672937 -1.1142319 -1.9111998 4288085770
6.6089597 -0.40648079 -1.8350198 4288085770
7.9218884 -0.50069875 -1.8405037 4288085770
17.311541 -1.1418191 -1.9263625 4288085770
6.4288063 -0.41825464 -1.8336077 4288085770
18.205729 -1.2138442 -1.9230314 4288085770
11.518854 -0.76615047 -1.8622876 4288085770
16.601896 -1.112986 -1.899956 4288085770
7.6827288 -0.51274723 -1.839967 4288085770
16.300514 -1.1393195 -1.9172482 4288085770
6.2586527 -0.43015191 -1.8322163 4288085770
15.702807 -1.115877 -1.8940614 4288085770
11.056629 -0.78243715 -1.8582708 4288085770
7.4505672 -0.52487636 -1.8374447 4288085770
17.311285 -1.2457882 -1.9150633 4288085770
15.395514 -1.1351345 -1.9103615 4288085770
6.0944986 -0.44212332 -1.8308369 4288085770
7.2374029 -0.53724569 -1.8369615 4288085770
14.914664 -1.1231464 -1.8913869 4288085770
10.663386 -0.79959279 -1.8603963 4288085770
16.47888 -1.2754918 -1.9052314 4288085770
14.565528 -1.129878 -1.9046351 4288085770
5.9613037 -0.45649439 -1.8355157 4288085770
7.0402374 -0.5498125 -1.8365115 4288085770
14.20653 -1.1304004 -1.8878802 4288085770
10.304132 -0.81816506 -1.8615888 4288085770
13.815589 -1.1216066 -1.8980854 4288085770
5.8061538 -0.46857107 -1.8321551 4288085770
15.743505 -1.3033929 -1.8956082 4288085770
6.8490705 -0.56245345 -1.8360735 4288085770
13.556406 -1.1373675 -1.883496 4288085770
9.969883 -0.8360489 -1.8638359 4288085770
13.130654 -1.1131406 -1.8926723 4288085770
5.6679983 -0.48086333 -1.8308294 4288085770
6.6609101 -0.57512277 -1.8326418 4288085770
12.52671 -1.10568 -1.8894264 4288085770
15.152005 -1.3401023 -1.8972616 4288085770
12.961253 -1.1470131 -1.8792193 4288085770
9.6416559 -0.85299528 -1.8620982 4288085770
5.5388365 -0.49327239 -1.8315223 4288085770
19.358128 -1.7512071 -1.9639071 4288085770
6.5037222 -0.58919179 -1.8352714 4288085770
11.929831 -1.0932976 -1.8832092 4288085770
12.439091 -1.1575656 -1.8770933 4288085770
9.3284397 -0.86912692 -1.8603944 4288085770
17.88298 -1.677918 -1.9340222 4288085770
14.599547 -1.3742876 -1.8970044 4288085770
5.404685 -0.50560832 -1.8282049 4288085770
11.398916 -1.0837383 -1.8801227 4288085770
6.3515372 -0.6033197 -1.836911 4288085770
16.713606 -1.622447 -1.9197278 4288085770
11.940931 -1.1684085 -1.8730166 4288085770
9.0212326 -0.8853212 -1.8547028 4288085770
10.928005 -1.0739254 -1.8791624 4288085770
5.3014894 -0.52034962 -1.8329453 4288085770
14.057144 -1.4045852 -1.8927791 4288085770
6.1883874 -0.61529756 -1.8335336 4288085770
15.748075 -1.5795219 -1.915825 4288085770
19.436487 -1.9652065 -1.9714575 4288085770
10.507068 -1.0657439 -1.8833025 4288085770
11.498736 -1.181951 -1.8720497 4288085770
8.7679939 -0.90320188 -1.8561198 4288085770
14.874543 -1.5367293 -1.9111148 4288085770
5.1913152 -0.53399312 -1.8336746 4288085770
6.0312276 -0.62834662 -1.8291659 4288085770
10.08818 -1.0545702 -1.8814554 4288085770
13.547769 -1.4332848 -1.8866276 4288085770
14.063003 -1.4956964 -1.9045297 4288085770
18.325584 -1.9544333 -1.9481574 4288085770
19.485247 -2.0953188 -1.8011855 4293729569
9.6773329 -1.0404868 -1.8766336 4288085770
11.070586 -1.1926551 -1.8671203 4288085770
5.0891376 -0.54773825 -1.83542 4288085770
8.5197592 -0.92113858 -1.855547 4288085770
5.9000401 -0.64273357 -1.8308488 4288085770
13.32544 -1.4565793 -1.8990942 4288085770
9.3124628 -1.0279826 -1.8759036 4288085770
18.768301 -2.0894201 -1.7826982 4293729569
13.112357 -1.4649057 -1.8836229 4288085770
12.664863 -1.4194124 -1.8938146 4288085770
17.374603 -1.949663 -1.9351757 4288085770
10.732334 -1.2104952 -1.871359 4288085770
4.9849658 -0.56145287 -1.8351616 4288085770
8.9416552 -1.0113876 -1.8691729 4288085770
18.348385 -2.0812221 -1.7768406 4293729569
8.2765408 -0.93813139 -1.8529873 4288085770
5.7728696 -0.65616447 -1.8305427 4288085770
12.038281 -1.3826624 -1.8876051 4288085770
8.6277781 -0.99951577 -1.8695482 4288085770
11.471685 -1.3476501 -1.8805164 4288085770
4.8848052 -0.57421702 -1.8349142 4288085770
16.546598 -1.9464282 -1.9284474 4288085770
12.706937 -1.4969031 -1.8826802 4288085770
10.402112 -1.2264286 -1.87362 4288085770
17.839109 -2.1068354 -1.7406983 4293729569
8.2969828 -0.98241168 -1.8619028 4288085770
8.0543184 -0.95538622 -1.8514709 4288085770
5.6526842 -0.67068446 -1.8312485 4288085770
17.272594 -2.0628643 -1.7476357 4293729569
10.980018 -1.3175859 -1.8815711 4288085770
8.0071316 -0.96883047 -1.8603333 4288085770
10.537308 -1.2911291 -1.8837178 4288085770
15.792583 -1.9441127 -1.9238719 4288085770
10.049958 -1.2380649 -1.8668473 4288085770
7.7392778 -0.95552385 -1.8598092 4288085770
5.5355 -0.68523848 -1.8309603 4288085770
12.322547 -1.527151 -1.8787867 4288085770
7.8530788 -0.97390306 -1.8509951 4288085770
10.096659 -1.2606802 -1.8798803 4288085770
17.069784 -2.1342504 -1.7080051 4293729569
16.419598 -2.060292 -1.7308531 4293729569
7.4744554 -0.94024563 -1.8562971 4288085770
9.6760101 -1.2304752 -1.8750842 4288085770
7.2306285 -0.92522973 -1.8538284 4288085770
15.105595 -1.9396271 -1.9204433 4288085770
9.7667217 -1.2555784 -1.8692024 4288085770
5.4253283 -0.69887912 -1.8306893 4288085770
9.3043261 -1.2028863 -1.8743832 4288085770
7.6548538 -0.99145693 -1.8505284 4288085770
7.0047846 -0.91144145 -1.8533938 4288085770
11.980123 -1.5599257 -1.8779738 4288085770
8.9466448 -1.1754615 -1.8707112 4288085770
15.865188 -2.0894735 -1.7376059 4293729569
6.7819562 -0.89668459 -1.8509682 4288085770
16.35552 -2.1573422 -1.6744399 4293729569
8.6109619 -1.1483114 -1.8680843 4288085770
5.311161 -0.71246457 -1.8284101 4288085770
14.478597 -1.9358908 -1.9201381 4288085770
6.5841045 -0.88324767 -1.8525914 4288085770
9.4695339 -1.2699019 -1.8655372 4288085770
7.4566483 -1.0079994 -1.8460643 4288085770
8.2842817 -1.1212633 -1.8624763 4288085770
6.3882713 -0.86882699 -1.8512217 4288085770
11.652713 -1.5918828 -1.8761947 4288085770
7.9945812 -1.0956805 -1.8599416 4288085770
6.1844721 -0.85229623 -1.8458412 4288085770
15.410666 -2.1269088 -1.7515448 4293729569
7.7198648 -1.0712857 -1.8584349 4288085770
5.216969 -0.72731113 -1.8311692 4288085770
13.887647 -1.9285961 -1.9189187 4282675967
6.0086374 -0.83812237 -1.8445128 4288085770
16.064558 -2.2327745 -1.680613 4293729569
9.2262936 -1.2879062 -1.8669747 4288085770
7.452168 -1.0459689 -1.8539456 4288085770
5.8427973 -0.82407767 -1.8452047 4288085770
16.816448 -2.3585191 -1.495829 4293729569
7.2923908 -1.0279785 -1.8476619 4288085770
7.2034516 -1.0218922 -1.8514926 4288085770
5.6789737 -0.80905205 -1.843904 4288085770
6.9797044 -1.0001296 -1.8510854 4288085770
11.38425 -1.6275823 -1.8795285 4288085770
5.5111694 -0.79296845 -1.8395977 4288085770
6.760972 -0.97742575 -1.8496913 4288085770
5.1187849 -0.74209988 -1.8309201 4288085770
13.300768 -1.9163401 -1.9137223 4288085770
5.3693271 -0.77921999 -1.8403394 4288085770
14.892352 -2.1495149 -1.7513922 4293729569
8.9491253 -1.3014681 -1.8603536 4288085770
6.5572233 -0.95590991 -1.8493254 4288085770
5.2314854 -0.76552087 -1.8410894 4288085770
16.387035 -2.3813682 -1.5458628 4293729569
15.89144 -2.3206849 -1.6949977 4293729569
6.3604755 -0.93447775 -1.8479738 4288085770
7.1321468 -1.0470042 -1.8482705 4288085770
5.1086226 -0.75301552 -1.8448673 4288085770
6.170732 -0.91312605 -1.8446368 4288085770
4.9738007 -0.73834199 -1.8416264 4288085770
16.539478 -2.4396343 -0.99001223 4293729569
4.8599544 -0.72494209 -1.8434258 4288085770
5.9780192 -0.8897289 -1.8382994 4288085770
5.823225 -0.87182331 -1.8400259 4288085770
12.760882 -1.90467 -1.9106226 4288085770
11.120808 -1.6623348 -1.8798758 4288085770
5.6744432 -0.85299194 -1.8417674 4288085770
5.0335827 -0.75805455 -1.832695 4288085770
16.527128 -2.467495 -0.99390644 4293729569
5.5156832 -0.83302271 -1.8384917 4288085770
5.3729076 -0.81425685 -1.8372457 4288085770
16.165272 -2.430831 -1.6132559 4293729569
5.2321448 -0.79451275 -1.835007 4288085770
8.7139158 -1.3175626 -1.8588135 4288085770
5.1093478 -0.77700204 -1.8367994 4288085770
14.434981 -2.1768792 -1.753354 4293729569
4.8707585 -0.74205858 -1.837399 4288085770
4.9865551 -0.75948572 -1.836592 4288085770
6.9699368 -1.0639939 -1.8448808 4288085770
16.526264 -2.5091641 -0.19578029 4293729569
16.483572 -2.5129476 -0.98968464 4293729569
16.473331 -2.5147214 -0.61165583 4293729569
15.738292 -2.4108422 -1.7094177 4293729569
12.208121 -1.8838202 -1.9005221 4288085770
4.945395 -0.77296942 -1.8334664 4288085770
16.496771 -2.5478253 -0.2036076 4293729569
16.45219 -2.5455356 -0.98052531 4293729569
16.479727 -2.5525918 -0.19555812 4293729569
15.977489 -2.4817219 -1.6837163 4293729569
10.868372 -1.6962262 -1.8812484 4288085770
8.5026913 -1.3349559 -1.8583199 4288085770
16.468723 -2.5768573 -1.0204704 4293729569
14.070493 -2.2134078 -1.7614841 4293729569
6.8207078 -1.0821526 -1.844515 4288085770
11.740249 -1.8710445 -1.8995767 4288085770
16.466921 -2.6194162 -0.18833961 4293729569
16.46908 -2.6288757 -1.024322 4293729569
16.46796 -2.6305907 -0.58731216 4293729569
4.8592219 -0.78690618 -1.8332448 4288085770
15.672994 -2.5111306 -1.7399933 4293729569
15.518312 -2.4881504 -1.7157344 4293729569
16.47234 -2.6586273 -0.23723881 4293729569
16.476704 -2.667829 -0.97522599 4293729569
8.2964678 -1.3524084 -1.8568364 4288085770
10.656878 -1.7346319 -1.8856941 4288085770
16.449316 -2.66821 -0.19116277 4293729569
6.6914353 -1.1035635 -1.8461816 4288085770
13.592293 -2.228483 -1.7524372 4293729569
16.519106 -2.7035782 -1.0522128 4293729569
11.290417 -1.8554858 -1.896677 4288085770
15.064224 -2.4856737 -1.7587888 4293729569
16.499403 -2.7447994 -0.18004823 4293729569
16.546402 -2.758955 -1.0651115 4293729569
15.350253 -2.5721054 -1.7241409 4293729569
8.1082153 -1.3720884 -1.8573844 4288085770
10.929456 -1.8490533 -1.9039377 4282675967
10.425475 -1.7667711 -1.8831159 4288085770
14.404666 -2.4445601 -1.7675225 4293729569
6.5631757 -1.123987 -1.8478532 4288085770
13.172033 -2.248282 -1.7464983 4293729569
10.502704 -1.8277674 -1.897103 4288085770
13.674355 -2.3855286 -1.7611591 4293729569
7.9349604 -1.3919536 -1.8579634 4288085770
15.150293 -2.6486526 -1.7275019 4293729569
10.229995 -1.8043715 -1.8865976 4288085770
6.4439173 -1.1445189 -1.8485435 4288085770
12.790758 -2.2695651 -1.741637 4293729569
10.111933 -1.8079315 -1.8923393 4288085770
12.948141 -2.3195302 -1.748824 4293729569
7.7597351 -1.4097886 -1.856544 4288085770
15.030181 -2.7371998 -1.7359959 4293729569
6.3186884 -1.1629707 -1.8472271 4288085770
10.031561 -1.8389235 -1.8860817 4288085770
9.7591267 -1.7905732 -1.8906485 4288085770
12.359711 -2.2702625 -1.7467303 4293729569
12.414536 -2.2869015 -1.7337974 4293729569
7.5945091 -1.4277468 -1.8551452 4288085770
9.4163351 -1.7723355 -1.8879809 4288085770
11.635701 -2.1902466 -1.7194399 4293729569
6.1864924 -1.1793251 -1.841902 4288085770
14.839252 -2.8118494 -1.7363813 4293729569
9.8211861 -1.8693163 -1.8815525 4288085770
11.996465 -2.2936921 -1.7159002 4293729569
9.0895662 -1.7522954 -1.8853523 4288085770
10.910806 -2.1021996 -1.6851705 4293729569
7.4372854 -1.445801 -1.8527631 4288085770
6.0912142 -1.2011615 -1.845639 4288085770
8.7877665 -1.7345697 -1.8847694 4288085770
9.5161047 -1.8784813 -1.8568854 4288085770
10.402422 -2.050899 -1.6762502 4293729569
14.720182 -2.8974009 -1.7418863 4293729569
11.567486 -2.2933359 -1.6940006 4293729569
7.2930312 -1.4660212 -1.8524016 4288085770
8.4740677 -1.7096759 -1.877182 4288085770
10.075631 -2.0299053 -1.6896243 4293729569
5.981986 -1.219808 -1.8433555 4288085770
9.2120667 -1.8846531 -1.8302289 4288085770
14.483423 -2.9594576 -1.7332113 4293729569
8.2102642 -1.692422 -1.8776776 4288085770
9.8137197 -2.0177357 -1.7111095 4293729569
10.956092 -2.2496395 -1.6418421 4293729569
7.1597619 -1.4873799 -1.8530602 4288085770
5.8917093 -1.2417033 -1.8461025 4288085770
9.5518379 -2.003561 -1.7306005 4293729569
7.9395161 -1.6710702 -1.8741702 4288085770
8.8821468 -1.8824817 -1.7955419 4288085770
14.302567 -3.0292139 -1.7276317 4293729569
10.394651 -2.2095656 -1.5917779 4293729569
7.0354919 -1.5088497 -1.8537372 4288085770
9.3079414 -1.9906081 -1.7501255 4293729569
7.6927233 -1.6530232 -1.8737036 4288085770
5.7984509 -1.2625529 -1.8458464 4288085770
8.9982767 -1.960802 -1.7555606 4293729569
7.4340339 -1.6278089 -1.8662324 4288085770
8.6061296 -1.8869991 -1.768949 4293729569
6.9142237 -1.5303538 -1.8534205 4288085770
10.028738 -2.2049787 -1.5670224 4293729569
14.003071 -3.0714633 -1.7078819 4293729569
8.693655 -1.9280493 -1.7580149 4293729569
7.2052693 -1.6079786 -1.8638088 4288085770
5.703208 -1.282375 -1.844589 4288085770
8.4399042 -1.9049451 -1.7675483 4293729569
6.9994717 -1.5904403 -1.8644269 4288085770
8.4049377 -1.9044729 -1.7534761 4293729569
6.7939796 -1.5498701 -1.8531115 4288085770
9.9041681 -2.249469 -1.5756332 4293729569
10.156075 -2.3106773 -1.2649847 4293729569
8.2479935 -1.8936342 -1.7871778 4293729569
5.6179495 -1.3033235 -1.8443494 4288085770
6.7847323 -1.5687799 -1.8610376 4288085770
10.125388 -2.3413286 -0.93083036 4293729569
10.151641 -2.347199 -0.77486765 4293729569
8.118928 -1.8931313 -1.8179083 4288085770
6.6019163 -1.5525316 -1.8637003 4288085770
6.679728 -1.5704551 -1.8508121 4288085770
8.2805109 -1.9389386 -1.7531157 4293729569
10.211706 -2.3877504 -0.020872874 4293729569
9.8324432 -2.3056328 -1.5913213 4293729569
10.006549 -2.354804 -1.2545439 4293729569
7.9878798 -1.8915977 -1.8466376 4288085770
5.5406742 -1.3253762 -1.8461232 4288085770
10.056842 -2.3752601 -0.50958645 4293729569
6.4061756 -1.5311059 -1.8603504 4288085770
10.00281 -2.3838902 -0.95545089 4293729569
10.094265 -2.4046245 -0.13157849 4293729569
10.10614 -2.4088759 -0.16759145 4293729569
7.8518753 -1.8869973 -1.8733653 4288085770
10.066582 -2.404248 -0.46352342 4293729569
10.015072 -2.3935096 -0.77244794 4293729569
6.5754442 -1.5931716 -1.8515276 4288085770
6.2323899 -1.5129598 -1.8600373 4288085770
8.1521254 -1.9703465 -1.7497556 4293729569
9.7069054 -2.3481026 -1.5969359 4293729569
7.6680593 -1.8687685 -1.8870314 4282675967
9.9477682 -2.4180841 -1.2552389 4293729569
5.4554448 -1.3443191 -1.8438894 4288085770
10.016088 -2.4397075 -0.49131575 4293729569
6.0456648 -1.4906396 -1.8547089 4288085770
9.9590149 -2.4434421 -0.98618823 4293729569
7.4154992 -1.8326349 -1.8816044 4282675967
10.062558 -2.4671519 -0.10233229 4293729569
10.012835 -2.4596801 -0.49525169 4293729569
10.045341 -2.4721572 -0.17728224 4293729569
9.9792118 -2.463079 -0.77517301 4293729569
5.8878727 -1.4726969 -1.8564287 4288085770
6.4881163 -1.6191062 -1.8552694 4288085770
8.020771 -1.9997119 -1.7443953 4293729569
7.1599803 -1.7934589 -1.8741802 4288085770
9.6481705 -2.4054236 -1.6116481 4293729569
5.3791857 -1.3653786 -1.8436682 4288085770
5.7301016 -1.4537429 -1.8541516 4288085770
9.9288702 -2.4908659 -1.2589905 4293729569
9.988308 -2.5063157 -0.47306621 4293729569
6.9423623 -1.7617656 -1.8718139 4288085770
9.9531336 -2.5094771 -1.0219864 4293729569
10.041813 -2.5328147 -0.073100135 4293729569
9.9900064 -2.5215001 -0.52902657 4293729569
5.5793262 -1.4348809 -1.8538889 4288085770
10.034412 -2.5460582 -0.1880473 4293729569
6.3938465 -1.6409434 -1.8550082 4288085770
9.9812584 -2.5401223 -0.77995628 4293729569
6.7267599 -1.7290913 -1.8674544 4288085770
7.8814859 -2.0239701 -1.7360328 4293729569
9.5784769 -2.4596033 -1.6243463 4293729569
5.4305668 -1.4150381 -1.8516332 4288085770
5.3059268 -1.3864751 -1.8434532 4288085770
6.5231566 -1.6965652 -1.86312 4288085770
9.9408741 -2.5710382 -1.2657856 4293729569
10.012362 -2.5865667 -0.45588633 4293729569
9.9741268 -2.5848587 -1.0628145 4293729569
10.018993 -2.5979717 -0.56686825 4293729569
10.070922 -2.6110876 -0.041936532 4293729569
5.2818236 -1.3941894 -1.8473803 4288085770
6.3385081 -1.6672819 -1.861816 4288085770
6.31352 -1.6669618 -1.8577644 4288085770
10.061356 -2.6304321 -0.2008619 4293729569
10.070017 -2.6402516 -0.78985554 4293729569
5.1450629 -1.3744948 -1.8451492 4288085770
7.8298979 -2.0703614 -1.7447912 4293729569
6.1538773 -1.6369928 -1.858515 4288085770
9.4679422 -2.5022526 -1.6279919 4293729569
5.2306843 -1.4065413 -1.8412369 4288085770
5.9832177 -1.6088792 -1.8562371 4288085770
5.0252438 -1.3590209 -1.8469417 4288085770
13.810737 -3.663208 -1.7377832 4293729569
5.8125863 -1.5787601 -1.8519648 4288085770
6.2272363 -1.6898974 -1.8575171 4288085770
4.9054508 -1.3415444 -1.8477402 4288085770
5.6618962 -1.552899 -1.8517225 4288085770
7.7284994 -2.1031022 -1.741484 4293729569
4.8006148 -1.3272585 -1.8505607 4288085770
9.4480991 -2.5680625 -1.6457613 4293729569
5.1664095 -1.4287517 -1.8420378 4288085770
5.5142078 -1.527072 -1.8504862 4288085770
13.799445 -3.7680819 -1.7404592 4293729569
5.3685355 -1.500264 -1.8472569 4288085770
6.1509247 -1.7149624 -1.8592845 4288085770
5.2258778 -1.4724903 -1.8430368 4288085770
7.6101723 -2.1306224 -1.7341563 4293729569
9.3864002 -2.6233294 -1.6544733 4293729569
5.0951781 -1.4478703 -1.8408327 4288085770
5.103138 -1.4509715 -1.8418405 4288085770
4.9754448 -1.4253941 -1.8416455 4288085770
13.765273 -3.8636615 -1.7391138 4293729569
6.071641 -1.7379845 -1.8590515 4288085770
4.8646979 -1.4040321 -1.843474 4288085770
4.7619376 -1.3837687 -1.8453162 4288085770
7.5645752 -2.1780851 -1.7419242 4293729569
14.525856 -4.1431074 -1.7559103 4293729569
9.3645487 -2.6901095 -1.670236 4293729569
5.0518341 -1.4753479 -1.8446623 4288085770
13.79585 -3.9790583 -1.7438475 4293729569
6.0033154 -1.7641481 -1.8608323 4288085770
13.971588 -4.0812578 -1.752924 4288085770
7.5000772 -2.2182963 -1.743673 4293729569
4.9865904 -1.4955374 -1.8424667 4288085770
9.3048658 -2.7443984 -1.6779549 4293729569
13.815472 -4.0913115 -1.7455673 4293729569
5.9379902 -1.7903485 -1.8626195 4288085770
13.434361 -4.0166101 -1.7469813 4293729569
4.9452696 -1.5210429 -1.8473063 4288085770
7.4584832 -2.2658021 -1.7494491 4293729569
9.2421856 -2.7986472 -1.6846676 4293729569
5.8746791 -1.815571 -1.8634139 4288085770
12.903224 -3.9450305 -1.7390714 4293729569
4.8929839 -1.5443984 -1.8471286 4288085770
7.4268723 -2.3144374 -1.757243 4293729569
9.1864948 -2.8539791 -1.6903919 4293729569
5.8083706 -1.8407534 -1.8632017 4288085770
12.381141 -3.8695571 -1.7291913 4293729569
4.8357258 -1.5656894 -1.8459468 4288085770
7.3494372 -2.3504713 -1.7529768 4293729569
9.1238308 -2.9072201 -1.6941077 4293729569
11.893031 -3.7965031 -1.7193756 4293729569
5.7122078 -1.8555379 -1.8529568 4288085770
4.7904387 -1.5891342 -1.8467839 4288085770
7.3247886 -2.4021928 -1.7607764 4293729569
9.0382795 -2.9521656 -1.6937991 4293729569
11.442822 -3.7309284 -1.7136179 4293729569
5.5901904 -1.8599768 -1.8336872 4288085770
4.7501087 -1.6156462 -1.8496225 4288085770
10.992723 -3.6573408 -1.7028836 4293729569
7.2981553 -2.452883 -1.7665749 4293729569
8.938798 -2.9919255 -1.6884761 4293729569
5.451262 -1.8581862 -1.8073997 4288085770
10.635283 -3.6099327 -1.7042687 4293729569
7.2157769 -2.4848478 -1.75931 4293729569
8.8512888 -3.0338378 -1.6851721 4293729569
5.3163443 -1.8554481 -1.7821234 4288085770
10.303787 -3.5668504 -1.707696 4293729569
7.1324253 -2.5147967 -1.7510486 4293729569
8.8444252 -3.1027853 -1.69496 4293729569
5.2033548 -1.8579925 -1.7608782 4293729569
9.9763556 -3.5188129 -1.7091459 4293729569
7.14363 -2.5779727 -1.7628909 4293729569
8.8096733 -3.1633704 -1.6987132 4293729569
5.1112752 -1.8668154 -1.7466588 4293729569
9.6599283 -3.4709051 -1.7086184 4293729569
9.3793774 -3.4324551 -1.7131393 4293729569
5.0560346 -1.8871228 -1.742484 4293729569
8.7799215 -3.2240176 -1.702477 4293729569
7.1249743 -2.6307592 -1.7677002 4288085770
9.0899181 -3.3868859 -1.7146616 4293729569
5.0027947 -1.9074547 -1.7383134 4293729569
8.7491865 -3.2836494 -1.7052417 4293729569
7.100359 -2.6804688 -1.7715058 4288085770
8.7865944 -3.3311307 -1.7111841 4293729569
4.9495578 -1.9277841 -1.7331427 4293729569
8.7194405 -3.3442907 -1.7070054 4293729569
7.0647917 -2.7270291 -1.7702974 4288085770
8.5131931 -3.2817481 -1.7087511 4293729569
4.8883643 -1.9450061 -1.7249641 4293729569
8.2567196 -3.2375863 -1.7103387 4293729569
8.6966667 -3.4070213 -1.7097778 4293729569
6.9834843 -2.7539916 -1.758049 4293729569
8.0202074 -3.1966712 -1.711959 4293729569
4.8271971 -1.9602255 -1.7157916 4293729569
8.6818542 -3.4728498 -1.7125582 4293729569
6.9350128 -2.7933805 -1.7528341 4293729569
7.7787752 -3.1496861 -1.7105861 4293729569
4.7521152 -1.9692584 -1.7016071 4293729569
8.6630697 -3.5366266 -1.7143359 4293729569
6.8925261 -2.8338463 -1.7486285 4293729569
7.5761805 -3.1151986 -1.7152591 4293729569
9.9186735 -4.0621686 -1.7224691 4293729569
4.7029061 -1.9876316 -1.6944506 4293729569
7.3696384 -3.0766561 -1.7179353 4293729569
9.5796642 -3.9799831 -1.7229923 4293729569
8.6671658 -3.6096954 -1.7191352 4293729569
6.8579874 -2.8784132 -1.7454281 4293729569
7.1641264 -3.0361202 -1.7186193 4293729569
4.6477389 -2.0029249 -1.6852902 4293729569
9.2854776 -3.9113691 -1.7295707 4293729569
8.6543608 -3.6755397 -1.7189199 4293729569
6.8105345 -2.9168057 -1.7372181 4293729569
8.962512 -3.8263705 -1.7261354 4293729569
6.9715858 -2.9977479 -1.7203246 4293729569
4.5786572 -2.012032 -1.6711184 4293729569
8.6594801 -3.7466238 -1.7247272 4293729569
6.8049359 -2.9677072 -1.7260603 4293729569
8.6614218 -3.751642 -1.7227168 4293729569
6.7441902 -2.9469535 -1.7249919 4293729569
4.5255175 -2.0253446 -1.6599679 4293729569
8.3714237 -3.6690559 -1.7213438 4293729569
6.6512442 -2.9408319 -1.7338141 4293729569
8.6615505 -3.8226526 -1.7245139 4293729569
6.6937757 -2.9823067 -1.7157845 4293729569
8.1042891 -3.5977552 -1.7209866 4293729569
6.4538417 -2.8923786 -1.7285378 4293729569
4.5101371 -2.0561647 -1.6628468 4293729569
7.8630733 -3.532778 -1.7216656 4293729569
8.6745996 -3.8998258 -1.7273202 4293729569
6.2922592 -2.8573916 -1.7312982 4293729569
6.68613 -3.0352147 -1.7156166 4293729569
7.6318302 -3.4699268 -1.7233596 4293729569
4.4927974 -2.083955 -1.6637303 4293729569
6.1386657 -2.8234997 -1.7330722 4293729569
8.6806927 -3.9739075 -1.728121 4293729569
7.3986335 -3.4040399 -1.721058 4293729569
6.6814699 -3.0891621 -1.7164522 4293729569
5.9522901 -2.7731767 -1.7258244 4293729569
4.4506021 -2.1014116 -1.655591 4293729569
7.1863542 -3.34442 -1.7217826 4293729569
5.7947674 -2.734225 -1.7236047 4293729569
8.6818256 -4.0449219 -1.72692 4293729569
6.6787987 -3.1441317 -1.716289 4293729569
6.9711308 -3.2807546 -1.7195123 4293729569
4.3895483 -2.1086118 -1.6394414 4293729569
5.6243687 -2.6860967 -1.7153839 4293729569
6.7629113 -3.2171702 -1.7152565 4293729569
6.6771278 -3.1991134 -1.7161279 4293729569
5.4510093 -2.6349282 -1.7061658 4293729569
4.3334646 -2.1178792 -1.6252964 4293729569
6.5845404 -3.1649723 -1.7170309 4293729569
5.308486 -2.5961585 -1.7029769 4293729569
6.4002285 -3.1086886 -1.7148045 4293729569
6.6754589 -3.2540922 -1.7149668 4293729569
4.2913227 -2.1313305 -1.6151688 4293729569
6.2268891 -3.0545437 -1.7135952 4293729569
5.1461177 -2.5461202 -1.6917785 4293729569
6.0337019 -2.9891303 -1.704376 4293729569
4.9112506 -2.4591131 -1.6555334 4293729569
4.2104344 -2.1262624 -1.5910126 4293729569
6.6936688 -3.3183286 -1.717821 4293729569
5.8991861 -2.9484823 -1.7092093 4293729569
4.6644969 -2.363941 -1.6132865 4293729569
5.7795782 -2.9150252 -1.7160536 4293729569
4.1772494 -2.1428304 -1.5828949 4293729569
4.4396453 -2.2760518 -1.575065 4293729569
6.7029214 -3.3794482 -1.7186654 4293729569
5.6182718 -2.859014 -1.7098749 4293729569
4.2466044 -2.2025754 -1.5438691 4293729569
5.4639525 -2.8040895 -1.7037073 4293729569
4.1520233 -2.1625021 -1.5767851 4293729569
6.7042418 -3.4354615 -1.7165074 4293729569
4.1797662 -2.1877763 -1.5527706 4293729569
5.3026896 -2.7450705 -1.694537 4293729569
5.1881528 -2.706661 -1.6964061 4293729569
4.1149039 -2.1750011 -1.5616705 4293729569
4.1039658 -2.1698658 -1.5616622 4293729569
5.047812 -2.6539028 -1.6882619 4293729569
6.732389 -3.5048208 -1.7193682 4293729569
4.0649652 -2.167428 -1.5765871 4293729569
4.7962456 -2.5436652 -1.644048 4293729569
4.0688248 -2.1834006 -1.5505491 4293729569
4.0319204 -2.168072 -1.5945157 4293729569
4.5258636 -2.4201629 -1.5888326 4293729569
6.7565398 -3.5741279 -1.7212205 4293729569
4.255486 -2.2966547 -1.531617 4293729569
3.9829969 -2.1595087 -1.6084372 4293729569
4.1132784 -2.2348418 -1.5124947 4293729569
4.0515714 -2.2051742 -1.54545 4293729569
3.9321036 -2.1489117 -1.6193603 4293729569
4.0733633 -2.2253921 -1.5274377 4293729569
6.7817135 -3.6414478 -1.7230806 4293729569
4.0453639 -2.2221012 -1.5463881 4293729569
3.8911419 -2.1434464 -1.6332895 4293729569
4.0522051 -2.2351863 -1.5463649 4293729569
4.007453 -2.2126706 -1.5593354 4293729569
3.8323317 -2.12674 -1.6402135 4293729569
3.9596334 -2.1961086 -1.5692822 4293729569
3.9346509 -2.1918495 -1.5862418 4293729569
6.8128285 -3.7138379 -1.7239387 4293729569
3.9047217 -2.1835229 -1.6012028 4293729569
4.0071616 -2.2415841 -1.5302515 4293729569
3.8658748 -2.1690748 -1.6121622 4293729569
3.8359594 -2.1597455 -1.6261262 4293729569
3.783227 -2.1371052 -1.6300799 4293729569
6.8429532 -3.7852187 -1.7257978 4293729569
3.96313 -2.2469945 -1.5141429 4293729569
3.9409561 -2.2626982 -1.5060508 4293729569
6.8850007 -3.8627501 -1.7286642 4293729569
3.9316912 -2.2855675 -1.4999653 4293729569
4.1291752 -2.4007697 -1.0720483 4293729569
3.9254212 -2.3084795 -1.4958863 4293729569
4.0295086 -2.3784547 -1.042902 4293729569
3.905252 -2.3242023 -1.4857984 4293729569
4.0407124 -2.4038785 -0.79585117 4293729569
4.1116772 -2.4500206 -0.54186678 4293729569
4.0386958 -2.4127264 -0.75182116 4293729569
