# .PCD v0.7 - Point Cloud Data file format
VERSION 0.7
FIELDS x y z rgb
SIZE 4 4 4 4
TYPE F F F U
COUNT 1 1 1 1
WIDTH 1121
HEIGHT 1
VIEWPOINT 0 0 0 1 0 0 0
POINTS 1121
DATA ascii
9.5645142 1.1257387 -1.8162979 4288085770
6.8717957 0.90771985 -1.8288828 4288085770
10.13678 1.1321156 -1.8211094 4288085770
7.1839905 0.89974833 -1.8275037 4288085770
10.738129 1.1353159 -1.8227211 4288085770
7.5221863 0.89160919 -1.8268433 4288085770
11.405334 1.1390926 -1.8281559 4288085770
7.8864136 0.88230777 -1.8269001 4288085770
12.194489 1.1440936 -1.8389585 4288085770
8.2576294 0.86996472 -1.8241498 4288085770
13.039734 1.1477423 -1.8483095 4288085770
8.672821 0.85733902 -1.8246138 4288085770
14.068726 1.1542162 -1.8687406 4288085770
9.1050415 0.84160936 -1.8235462 4288085770
15.072083 1.1508726 -1.8734542 4288085770
9.5792542 0.82361364 -1.8236367 4288085770
16.2164 1.1476336 -1.8820632 4288085770
10.153198 0.8079735 -1.8334887 4288085770
17.473816 1.1386856 -1.887791 4288085770
10.695465 0.78454888 -1.8324562 4288085770
11.310516 0.75865638 -1.8364367 4288085770
12.039459 0.73303699 -1.8475654 4288085770
12.774506 0.7003864 -1.8528582 4288085770
13.683289 0.66662323 -1.8699538 4288085770
14.620178 0.62369061 -1.8808181 4288085770
15.644165 0.57521272 -1.8900862 4288085770
16.622375 0.51603627 -1.8870827 4288085770
8.7582092 -7.7854733 -1.5389357 4293729569
8.3856812 -7.4941268 -1.5506947 4293729569
8.0698547 -7.2411399 -1.5660235 4293729569
7.7709961 -7.0002599 -1.5788184 4293729569
7.4881592 -6.7694783 -1.5900524 4293729569
7.1707458 -6.513473 -1.5913185 4293729569
6.8583679 -6.2605004 -1.5897197 4293729569
6.6065674 -6.049912 -1.5938021 4293729569
6.3777161 -5.8554692 -1.5985172 4293729569
9.7443848 -7.982718 -1.5031826 4293729569
6.1330261 -5.6489239 -1.5977885 4293729569
9.5387268 -7.785439 -1.5355802 4293729569
5.9628296 -5.4938531 -1.6061293 4293729569
9.2061157 -7.5043426 -1.5484322 4293729569
5.7589722 -5.3145676 -1.6065297 4293729569
8.9223022 -7.2565579 -1.5626378 4293729569
5.5909119 -5.1595078 -1.6109234 4293729569
8.6762695 -7.0330129 -1.5778928 4293729569
5.4179077 -5.0024152 -1.6111765 4293729569
5.5514221 -4.9740281 -1.1757905 4293729569
5.2975159 -4.879662 -1.6198943 4293729569
5.5162048 -4.9038239 -1.2038889 4293729569
5.1335754 -4.7296247 -1.6173924 4293729569
5.5167236 -4.8558478 -1.2359846 4293729569
5.0004272 -4.5987864 -1.6187477 4293729569
5.5252686 -4.8099232 -1.2673041 4293729569
4.8791809 -4.4760242 -1.6214333 4293729569
5.5506287 -4.7751074 -1.3010944 4293729569
4.7937317 -4.3754888 -1.6281157 4293729569
5.5870056 -4.7443585 -1.3351912 4293729569
4.7092285 -4.27496 -1.6358241 4293729569
5.6392517 -4.7227101 -1.3707328 4293729569
4.6188049 -4.1723933 -1.6393652 4293729569
6.8709717 -5.3986254 -1.6062782 4293729569
4.5314941 -4.0708447 -1.6419886 4293729569
6.737793 -5.253788 -1.6136408 4293729569
4.4293518 -3.9601984 -1.6391951 4293729569
6.6125488 -5.1170006 -1.6182234 4293729569
4.4123535 -3.9011016 -1.655786 4293729569
6.4844055 -4.9781933 -1.620721 4293729569
4.4854736 -3.8935847 -1.6929029 4293729569
6.2948608 -4.8059902 -1.6104932 4293729569
4.6072083 -3.9123793 -1.7403818 4293729569
6.2163696 -4.6975007 -1.6183763 4293729569
4.7388306 -3.934237 -1.78914 4288085770
6.0874023 -4.561686 -1.6148384 4293729569
4.8328857 -3.9318509 -1.8298457 4288085770
6.0209045 -4.4632711 -1.6220509 4293729569
4.808197 -3.8636999 -1.838218 4288085770
5.9703674 -4.3719554 -1.6297089 4293729569
4.7280579 -3.7641926 -1.8330332 4288085770
5.9218445 -4.2816539 -1.6364218 4293729569
4.6855774 -3.6859264 -1.834904 4288085770
5.8624573 -4.1872821 -1.6398269 4293729569
4.6500549 -3.6107049 -1.8379689 4288085770
5.8268433 -4.105063 -1.6468997 4293729569
4.6086426 -3.533443 -1.8378659 4288085770
5.7516479 -4.0015883 -1.6448578 4293729569
4.5692139 -3.4561954 -1.8378185 4288085770
5.7667236 -3.9456911 -1.6593498 4293729569
4.5338135 -3.3829727 -1.836881 4288085770
5.8502808 -3.9222331 -1.6857659 4293729569
4.5300903 -3.324954 -1.8438342 4288085770
5.9893494 -3.9251313 -1.7227442 4293729569
4.4967346 -3.2537417 -1.8419508 4288085770
6.163269 -3.9402504 -1.765702 4288085770
4.4812012 -3.1896467 -1.8425696 4288085770
6.3282471 -3.9493122 -1.8064109 4288085770
4.4726257 -3.1295929 -1.8453822 4288085770
6.4218445 -3.9229159 -1.8321126 4288085770
4.4640808 -3.068542 -1.8461956 4288085770
6.411377 -3.8468504 -1.8348849 4288085770
4.478302 -3.0186357 -1.8526493 4288085770
6.3969421 -3.7697616 -1.8355448 4288085770
4.5322571 -2.9849834 -1.8682202 4282675967
6.3855286 -3.6946917 -1.8352882 4288085770
4.4594116 -2.8965163 -1.8502151 4288085770
6.3631592 -3.6155505 -1.8327197 4288085770
4.4786987 -2.8486414 -1.8548086 4288085770
6.3717041 -3.5486035 -1.8340211 4288085770
4.4782104 -2.7916403 -1.8528435 4288085770
6.3633118 -3.4755521 -1.8318465 4288085770
4.4876404 -2.7397003 -1.854157 4288085770
6.3996582 -3.4207854 -1.8369303 4288085770
4.492157 -2.6847296 -1.8513315 4288085770
6.4181213 -3.3569045 -1.8385106 4288085770
4.5144958 -2.6358738 -1.8540087 4288085770
6.4415894 -3.2960548 -1.8392309 4288085770
4.5477905 -2.5930872 -1.8579932 4288085770
6.500885 -3.2484322 -1.8459591 4288085770
4.5731812 -2.5462489 -1.8587546 4288085770
6.5243835 -3.187582 -1.8446792 4288085770
4.6105042 -2.5034866 -1.8618517 4288085770
6.5678101 -3.1338582 -1.8469594 4288085770
4.6636963 -2.465826 -1.8683971 4288085770
6.6182556 -3.0811777 -1.8484367 4288085770
4.6941528 -2.4200196 -1.867299 4288085770
6.6696777 -3.0295053 -1.848942 4288085770
4.7077026 -2.3681049 -1.8627243 4288085770
6.7340698 -2.9819145 -1.8518118 4288085770
4.7252808 -2.3182173 -1.857262 4288085770
6.778595 -2.9261956 -1.8491217 4288085770
4.7845764 -2.2825937 -1.8609762 4288085770
6.8500061 -2.8796487 -1.8511889 4288085770
4.8269958 -2.2398629 -1.8602147 4288085770
6.9412842 -2.8372288 -1.8548186 4288085770
4.8644714 -2.1951008 -1.8573134 4288085770
7.007843 -2.7876496 -1.8527471 4288085770
4.9327393 -2.1585331 -1.8612809 4288085770
7.1160278 -2.7493372 -1.8588536 4288085770
4.9821777 -2.1168475 -1.8587171 4288085770
7.2084351 -2.7049222 -1.859514 4288085770
5.0405884 -2.0772171 -1.8584058 4288085770
7.3416443 -2.6717677 -1.8663266 4288085770
5.1069641 -2.0396399 -1.8593194 4288085770
7.4291687 -2.6243205 -1.863848 4288085770
5.1753845 -2.0010729 -1.8582906 4288085770
7.5505066 -2.5840902 -1.8663262 4288085770
5.258667 -1.9666009 -1.8606831 4288085770
7.684845 -2.5469403 -1.8691711 4288085770
5.3241577 -1.9270153 -1.8575708 4288085770
7.8032837 -2.5056901 -1.8685666 4288085770
5.4303284 -1.8976884 -1.8636106 4288085770
7.9466553 -2.467598 -1.8696679 4288085770
5.5305786 -1.8653259 -1.8664834 4288085770
8.0602112 -2.4213171 -1.8649259 4288085770
5.6378784 -1.8320055 -1.8695545 4288085770
8.2086792 -2.3812561 -1.8641704 4288085770
5.7253418 -1.79456 -1.8670639 4288085770
8.3651428 -2.3422446 -1.8636413 4288085770
5.8465576 -1.7633286 -1.8705308 4288085770
8.5375366 -2.305335 -1.8635644 4288085770
5.9351196 -1.7248874 -1.8660698 4288085770
8.6921387 -2.2633133 -1.8589822 4288085770
6.055481 -1.6916497 -1.8665109 4288085770
8.8666382 -2.2244177 -1.855965 4288085770
6.2106018 -1.6636341 -1.8739384 4288085770
9.0939636 -2.1928549 -1.8594431 4288085770
6.3360291 -1.6294274 -1.8725227 4288085770
9.2934875 -2.1551166 -1.8561347 4288085770
6.4754333 -1.596308 -1.8735015 4288085770
9.5308838 -2.1206183 -1.8568983 4288085770
6.6237793 -1.5622487 -1.8737371 4288085770
9.7973022 -2.089304 -1.8584843 4288085770
6.7493286 -1.5250423 -1.8683251 4288085770
10.061737 -2.054976 -1.8580161 4288085770
6.909729 -1.4910576 -1.8679014 4288085770
10.389954 -2.0290527 -1.8643563 4288085770
7.0821533 -1.4571483 -1.8678179 4288085770
10.708374 -1.9970675 -1.8654183 4288085770
7.2456055 -1.4211829 -1.8654817 4288085770
11.022888 -1.9620566 -1.8633708 4288085770
7.4320374 -1.3873615 -1.8647962 4288085770
11.40625 -1.9334798 -1.8672746 4288085770
7.6335144 -1.3526354 -1.8635365 4288085770
11.776703 -1.9008231 -1.8668153 4288085770
7.8419189 -1.3189549 -1.8634754 4288085770
12.267914 -1.8789296 -1.876778 4288085770
8.0663757 -1.284374 -1.8618692 4288085770
12.739319 -1.8509102 -1.880181 4288085770
8.2759399 -1.2467 -1.8568411 4288085770
13.331421 -1.831655 -1.8930086 4288085770
8.5284119 -1.2112961 -1.8560297 4288085770
13.923767 -1.8064008 -1.8988435 4288085770
8.796936 -1.1749935 -1.8546733 4288085770
14.503265 -1.774065 -1.9003168 4288085770
9.0923157 -1.1408627 -1.8560817 4288085770
15.187714 -1.7463903 -1.9057657 4288085770
9.4107971 -1.104876 -1.8561443 4288085770
15.834442 -1.7094779 -1.9021471 4288085770
9.7582397 -1.0690744 -1.8580294 4288085770
16.601105 -1.6763244 -1.9019308 4288085770
10.143616 -1.0345104 -1.8619908 4288085770
17.512604 -1.6470857 -1.9078238 4288085770
10.554077 -0.99610472 -1.8646654 4288085770
10.945709 -0.95358157 -1.8608068 4288085770
11.444153 -0.91573262 -1.8659797 4288085770
11.959625 -0.87499237 -1.8696383 4288085770
12.546082 -0.83369994 -1.8753123 4288085770
13.220428 -0.79196382 -1.8854836 4288085770
13.973846 -0.74772716 -1.8968992 4288085770
14.712524 -0.69639516 -1.8998977 4288085770
15.558197 -0.64274096 -1.9049355 4288085770
16.409149 -0.58111882 -1.9011242 4288085770
17.438934 -0.51962638 -1.9063932 4288085770
17.431641 0.699507 -1.8901126 4288085770
16.555115 0.78506136 -1.8824348 4288085770
15.805481 0.86781776 -1.8804662 4288085770
15.137787 0.94605386 -1.8798944 4288085770
14.44632 1.0154854 -1.8696231 4288085770
13.810852 1.0815067 -1.860005 4288085770
13.205414 1.1433371 -1.8492644 4288085770
12.665924 1.2017475 -1.8394532 4288085770
12.201324 1.2596905 -1.8348293 4288085770
11.714935 1.3117611 -1.8225687 4288085770
11.326294 1.3672237 -1.8201624 4288085770
10.941742 1.4186563 -1.8138764 4288085770
10.59314 1.4698607 -1.8086405 4288085770
10.294464 1.5227554 -1.8078604 4288085770
17.563293 2.3626747 -1.8693036 4288085770
9.9829407 1.5707257 -1.8027052 4288085770
16.881683 2.4109921 -1.8613377 4288085770
9.7431946 1.6222498 -1.8046476 4288085770
16.26297 2.4609106 -1.8552079 4288085770
9.5015259 1.6727811 -1.8035314 4288085770
15.760254 2.5171018 -1.8544588 4288085770
9.2409973 1.716424 -1.7968683 4288085770
15.2276 2.5644741 -1.8478415 4288085770
9.0502319 1.7676384 -1.8002383 4288085770
14.822845 2.6230447 -1.8499496 4288085770
8.8605652 1.8188441 -1.8016357 4288085770
14.290375 2.6584034 -1.8353432 4288085770
8.6599426 1.8651133 -1.7987179 4288085770
13.919678 2.7137544 -1.834445 4288085770
8.4783325 1.9122627 -1.7973524 4288085770
13.535095 2.7621889 -1.8291446 4288085770
8.3157043 1.9602927 -1.7965406 4288085770
13.206421 2.8152728 -1.8274736 4288085770
8.1629944 2.0082617 -1.7970194 4288085770
12.847931 2.8595378 -1.8189358 4288085770
8.0273743 2.0591252 -1.7979902 4288085770
12.502441 2.9007125 -1.8087808 4288085770
7.9036865 2.1089091 -1.7993129 4288085770
12.207855 2.9475758 -1.8031079 4288085770
7.7860413 2.158659 -1.8008095 4288085770
11.923401 2.9943705 -1.7957261 4288085770
7.6843567 2.2113051 -1.8027697 4288085770
11.711761 3.0507126 -1.7954656 4288085770
7.5847168 2.2629416 -1.8047884 4288085770
11.490204 3.1041131 -1.7919149 4288085770
7.4671326 2.3106825 -1.8022851 4288085770
11.30365 3.1622937 -1.7903811 4288085770
7.3884583 2.3651867 -1.8059119 4288085770
11.098145 3.21559 -1.7852957 4288085770
7.2958984 2.415772 -1.8051343 4288085770
10.985504 3.2873116 -1.7899059 4288085770
7.1903992 2.4624345 -1.7999817 4288085770
10.820038 3.3433561 -1.7869854 4288085770
7.1227417 2.5168638 -1.801928 4288085770
10.71347 3.4140344 -1.7887703 4288085770
7.058136 2.5722744 -1.80296 4288085770
10.593933 3.480792 -1.7891787 4288085770
6.9785767 2.6227746 -1.8005595 4288085770
10.511414 3.5553188 -1.7916589 4288085770
6.9190369 2.6781518 -1.8007365 4288085770
10.449829 3.6337166 -1.7967473 4288085770
6.8505249 2.7305794 -1.7976539 4288085770
10.411316 3.7199674 -1.8024971 4288085770
6.815979 2.790802 -1.7995545 4288085770
10.40271 3.8140361 -1.812113 4288085770
6.7624512 2.8461392 -1.797905 4288085770
10.408203 3.9120166 -1.8211333 4288085770
6.7319031 2.9073336 -1.7989197 4288085770
10.390717 4.0041337 -1.8264871 4288085770
6.7342529 2.979327 -1.8058839 4288085770
10.365295 4.092298 -1.8296117 4288085770
6.6549072 3.0248117 -1.7954862 4288085770
10.398834 4.2010984 -1.8384337 4288085770
6.6134949 3.0810678 -1.7911847 4288085770
10.399445 4.2980986 -1.8423057 4288085770
6.5760498 3.1393008 -1.7879956 4288085770
10.378143 4.3882318 -1.8415422 4288085770
6.5606079 3.2033954 -1.7864429 4288085770
10.378815 4.4862309 -1.8434108 4288085770
6.5631104 3.2753816 -1.7884041 4288085770
10.368591 4.5802898 -1.8409628 4288085770
6.5676575 3.3473511 -1.7894237 4288085770
10.31546 4.6596117 -1.8312755 4288085770
6.5711975 3.4183276 -1.7894151 4288085770
10.321289 4.7595673 -1.8282861 4288085770
6.5837708 3.494246 -1.789662 4288085770
10.394043 4.8851147 -1.834221 4288085770
6.6143799 3.5770564 -1.7924252 4288085770
10.419952 4.9939442 -1.8318028 4288085770
6.644928 3.6598656 -1.7951878 4288085770
10.443878 5.1027832 -1.8263261 4288085770
6.7174683 3.7604198 -1.8041538 4288085770
10.54776 5.2431307 -1.8321458 4288085770
6.7800293 3.8570282 -1.8098329 4288085770
10.66272 5.3904085 -1.8372772 4288085770
6.864624 3.9645047 -1.8181394 4288085770
10.796722 5.5465651 -1.8429521 4288085770
6.9412842 4.0700259 -1.824214 4288085770
10.956787 5.7155576 -1.84937 4288085770
7.0239258 4.180512 -1.8304559 4288085770
11.087891 5.8747263 -1.8509512 4288085770
7.0837097 4.2811279 -1.8300394 4288085770
11.226105 6.0398512 -1.851728 4288085770
7.1504822 4.3837042 -1.8298248 4288085770
11.43335 6.2365437 -1.8584806 4288085770
7.2303162 4.4961987 -1.8309748 4288085770
11.59964 6.4174862 -1.8590536 4288085770
7.3032227 4.6047306 -1.8289261 4288085770
11.831055 6.6300263 -1.8644849 4288085770
7.3831177 4.7172194 -1.8270757 4288085770
12.112518 6.870254 -1.8743396 4288085770
7.4660645 4.8316851 -1.8243101 4288085770
12.394073 7.1124763 -1.8811914 4288085770
7.6099854 4.9767809 -1.8302855 4288085770
12.73877 7.3913026 -1.8918347 4288085770
7.7310181 5.1130114 -1.8305995 4288085770
13.057617 7.6592875 -1.8967319 4288085770
7.8770447 5.2620878 -1.8336264 4288085770
13.417603 7.955009 -1.9017886 4288085770
8.0401611 5.4230571 -1.8371329 4288085770
8.2422485 5.6047859 -1.8447512 4288085770
8.4194641 5.7746611 -1.8466545 4288085770
8.646759 5.9742284 -1.8529779 4288085770
8.861084 6.1688724 -1.855927 4288085770
9.0865479 6.3714375 -1.8571868 4288085770
9.3680725 6.6076627 -1.8640358 4288085770
9.6747437 6.8607273 -1.871592 4288085770
10.00946 7.1316109 -1.8789423 4288085770
10.404327 7.4411283 -1.8919909 4288085770
10.794342 7.750659 -1.8988938 4288085770
16.519989 -0.3266232 -1.8800715 4288085770
15.425232 -0.36361814 -1.883227 4288085770
14.363861 -0.3928535 -1.8763522 4288085770
13.397614 -0.41570044 -1.86832 4288085770
12.440704 -0.43363619 -1.8505417 4288085770
11.635681 -0.44752145 -1.8393339 4288085770
10.949432 -0.46314073 -1.8377161 4288085770
10.344177 -0.47527361 -1.8375305 4288085770
16.526764 -0.77468467 -1.8873426 4288085770
9.7341614 -0.48439598 -1.8301828 4288085770
15.360321 -0.77022433 -1.8881686 4288085770
9.1980896 -0.49198079 -1.8260612 4288085770
14.29306 -0.76340938 -1.8849726 4288085770
8.7070312 -0.49785066 -1.8232898 4288085770
13.250183 -0.75078082 -1.8714795 4288085770
8.3165894 -0.5063293 -1.832572 4288085770
12.318298 -0.7378571 -1.859334 4288085770
7.9273376 -0.51183033 -1.8368744 4288085770
11.49939 -0.7256496 -1.8495996 4288085770
7.5552063 -0.51544642 -1.8386831 4288085770
10.777374 -0.7150476 -1.8447955 4288085770
7.1971436 -0.51715779 -1.8389075 4288085770
10.141357 -0.70499492 -1.8405886 4288085770
6.888916 -0.52017164 -1.8446434 4288085770
9.5683594 -0.69533706 -1.8382831 4288085770
6.5688782 -0.5201273 -1.8440065 4288085770
9.0383301 -0.68495917 -1.8352723 4288085770
6.2778015 -0.51926088 -1.8462415 4288085770
8.5483093 -0.67382932 -1.8344644 4288085770
5.9788818 -0.51636243 -1.8422282 4288085770
8.1212769 -0.66509438 -1.8355657 4288085770
5.7248535 -0.51473188 -1.8445758 4288085770
7.7261353 -0.65556335 -1.8376297 4288085770
5.4351196 -0.5089066 -1.8358232 4288085770
7.3670654 -0.64725733 -1.8407834 4288085770
5.1941528 -0.50537062 -1.834556 4288085770
7.0419006 -0.63916445 -1.8459637 4288085770
4.9622803 -0.4998982 -1.8315536 4288085770
6.7159119 -0.62808013 -1.8461038 4288085770
4.7304688 -0.49343157 -1.8265474 4288085770
6.421814 -0.61918855 -1.8502153 4288085770
4.5354919 -0.48918247 -1.8276641 4288085770
6.1199036 -0.60726166 -1.8490747 4288085770
4.3207397 -0.48182511 -1.8221662 4288085770
5.8320312 -0.59542871 -1.8463567 4288085770
4.1348267 -0.4756434 -1.8205477 4288085770
5.544281 -0.58160925 -1.8396318 4288085770
3.9569092 -0.46950674 -1.8201692 4288085770
5.2735901 -0.56790137 -1.8324201 4288085770
3.7900085 -0.46244431 -1.81912 4288085770
5.027771 -0.5553391 -1.8289654 4288085770
3.6459656 -0.45751333 -1.8227714 4288085770
4.8019409 -0.5429039 -1.8261155 4288085770
3.4682617 -0.44840074 -1.8153822 4288085770
4.5890808 -0.53054905 -1.8246573 4288085770
3.334259 -0.44153571 -1.8183281 4288085770
4.3912354 -0.51828957 -1.8226523 4288085770
3.1914062 -0.43362737 -1.8169988 4288085770
4.1983643 -0.5060637 -1.8207976 4288085770
3.0664062 -0.42682219 -1.8192159 4288085770
4.0075989 -0.49285913 -1.8159996 4288085770
2.936554 -0.41899586 -1.8182782 4288085770
3.8466492 -0.48182368 -1.8181142 4288085770
2.8087158 -0.4091835 -1.8163944 4288085770
3.6897583 -0.47081947 -1.8183491 4288085770
3.539856 -0.4588604 -1.8187925 4288085770
3.3761597 -0.44483352 -1.8128053 4288085770
3.2323303 -0.43292141 -1.8104291 4288085770
3.116333 -0.42216635 -1.8149024 4288085770
2.9894409 -0.41035628 -1.8150392 4288085770
2.85672 -0.39751911 -1.8109906 4288085770
2.8501587 1.5022745 -1.7983884 4288085770
2.971405 1.5205019 -1.800082 4288085770
3.0777588 1.5338025 -1.7963346 4288085770
3.2080078 1.5519717 -1.7983098 4288085770
3.3392944 1.5691528 -1.7983212 4288085770
3.4844971 1.5882282 -1.800761 4288085770
3.6297607 1.6053004 -1.8022102 4288085770
3.7670898 1.6204042 -1.7994225 4288085770
2.8745117 1.4281282 -1.798571 4288085770
3.9084473 1.6344829 -1.7967643 4288085770
2.9858093 1.4364004 -1.7960025 4288085770
4.0608215 1.6494946 -1.7944443 4288085770
3.0931702 1.4436947 -1.7923152 4288085770
4.2151794 1.663492 -1.7921919 4288085770
3.2391968 1.4577856 -1.7998065 4288085770
4.3903809 1.6803741 -1.7945784 4288085770
3.3942261 1.4728241 -1.808574 4288085770
4.5657043 1.6962438 -1.7939724 4288085770
3.5333862 1.4829323 -1.8098696 4288085770
4.763916 1.7149806 -1.7970682 4288085770
3.6716003 1.4900439 -1.810148 4288085770
4.958252 1.7307315 -1.7970551 4288085770
3.8098755 1.4961476 -1.8084326 4288085770
5.1595459 1.7464314 -1.7962617 4288085770
3.9223633 1.4953833 -1.7989428 4288085770
5.3838196 1.7640014 -1.7991751 4288085770
4.0795593 1.5033762 -1.7998099 4288085770
5.6141052 1.7815292 -1.8012756 4288085770
4.2238464 1.5054311 -1.7963023 4288085770
5.8504028 1.7970097 -1.8015754 4288085770
4.421875 1.5181961 -1.8054239 4288085770
6.1036682 1.813392 -1.8044007 4288085770
4.6030273 1.5250401 -1.8080465 4288085770
6.3709717 1.8296796 -1.8056644 4288085770
4.7683411 1.5259652 -1.8052003 4288085770
6.6552429 1.8458622 -1.8084587 4288085770
4.9684753 1.5326905 -1.8084168 4288085770
6.9216919 1.8561338 -1.8047234 4288085770
5.1567078 1.5344784 -1.8082844 4288085770
7.1950378 1.8653593 -1.8012124 4288085770
5.3788147 1.5400701 -1.8131927 4288085770
7.516449 1.8792922 -1.8011756 4288085770
5.5949707 1.5426853 -1.8149304 4288085770
7.829834 1.8892722 -1.7999097 4288085770
5.8061829 1.541329 -1.8155315 4288085770
8.1751709 1.9010495 -1.7996343 4288085770
6.0403442 1.5418274 -1.8168423 4288085770
8.5305786 1.9097552 -1.7976869 4288085770
6.2765198 1.5393136 -1.8182302 4288085770
8.9179382 1.9202684 -1.7987297 4288085770
6.5118103 1.5347929 -1.8165987 4288085770
9.3362732 1.9315819 -1.7997375 4288085770
6.7809448 1.5330753 -1.820014 4288085770
9.7727051 1.939774 -1.7993232 4288085770
7.0430908 1.5263885 -1.8202363 4288085770
10.247009 1.9497343 -1.8020874 4288085770
7.299408 1.5147225 -1.8162972 4288085770
10.764343 1.9594204 -1.8051956 4288085770
7.5477295 1.5010976 -1.8101205 4288085770
11.301727 1.9659717 -1.806945 4288085770
7.8210144 1.486321 -1.8057295 4288085770
11.950897 1.9818442 -1.8181449 4288085770
8.1302185 1.47333 -1.8054529 4288085770
12.620178 1.9915758 -1.8260009 4288085770
8.4414368 1.4563174 -1.8032601 4288085770
13.322449 1.9990876 -1.832902 4288085770
8.8214722 1.4449018 -1.8101923 4288085770
14.166626 2.0147305 -1.8491955 4288085770
9.2045288 1.4284534 -1.8142446 4288085770
15.012909 2.0193236 -1.8576099 4288085770
9.5926514 1.4079665 -1.8164747 4288085770
15.881256 2.0167615 -1.8627503 4288085770
9.9797974 1.382471 -1.8157002 4288085770
16.870575 2.0174429 -1.8726552 4288085770
10.38797 1.3548446 -1.8155932 4288085770
10.824097 1.3250419 -1.8163726 4288085770
11.293152 1.2920299 -1.8181993 4288085770
11.834106 1.2585852 -1.8262755 4288085770
12.416016 1.2228762 -1.8346461 4288085770
13.016937 1.1800443 -1.8426461 4288085770
13.689728 1.1337637 -1.8539129 4288085770
14.421417 1.0831172 -1.8680462 4288085770
15.105377 1.0217376 -1.8727375 4288085770
15.815308 0.95217907 -1.875286 4288085770
16.612183 0.87708044 -1.8815808 4288085770
17.417053 0.79191709 -1.8851792 4288085770
11.299896 -7.8250108 -0.70693207 4293729569
11.510773 -7.9834647 -1.5048831 4293729569
11.230713 -7.8692727 -0.76911986 4293729569
11.07605 -7.8155618 -1.5263991 4293729569
11.281921 -7.9812694 -0.83946782 4293729569
10.638489 -7.6376586 -1.5437665 4293729569
10.161346 -7.4285369 -1.5537105 4293729569
5.6807251 -4.7710929 -1.051073 4293729569
5.6740417 -4.7831326 -0.62974215 4293729569
5.6195984 -4.7805285 -1.0872753 4293729569
5.6109009 -4.788548 -0.66786015 4293729569
5.5803223 -4.8020897 -1.1262331 4293729569
5.5825195 -4.8131723 -0.70918071 4293729569
5.5469971 -4.8256855 -1.1663907 4293729569
5.5591431 -4.8388209 -0.75166404 4293729569
5.514679 -4.8472857 -1.2065697 4293729569
5.5447388 -4.8675323 -0.79344845 4293729569
5.5170288 -4.8900719 -1.2539599 4293729569
5.5362549 -4.8992691 -0.83743709 4293729569
5.5491638 -4.9510317 -1.3053904 4293729569
5.5466309 -4.9411139 -0.88407767 4293729569
6.9729309 -5.9118094 -1.591707 4293729569
5.5808411 -4.9970932 -0.93454856 4293729569
6.6597595 -5.7507749 -1.5950325 4293729569
10.052307 -7.9380746 -1.5179255 4293729569
6.3903809 -5.6150069 -1.601873 4293729569
9.5982361 -7.6890597 -1.5353564 4293729569
6.1003113 -5.4601383 -1.6019508 4293729569
9.1631775 -7.4461865 -1.549415 4293729569
5.8341064 -5.3174086 -1.6048445 4293729569
8.742157 -7.2074094 -1.5619313 4293729569
5.5729065 -5.1747212 -1.6058936 4293729569
8.3798523 -7.0029922 -1.5784832 4293729569
5.3178406 -5.0310864 -1.6041254 4293729569
7.9978638 -6.7794862 -1.5873022 4293729569
5.1113586 -4.9177227 -1.6110559 4293729569
7.5883179 -6.5338464 -1.5871187 4293729569
4.873291 -4.7802057 -1.6078507 4293729569
7.1719666 -6.2781835 -1.5826575 4293729569
4.6670532 -4.6598725 -1.6087418 4293729569
6.8470154 -6.0790706 -1.5863912 4293729569
4.4964294 -4.5617399 -1.6158791 4293729569
6.5608826 -5.9041905 -1.5934752 4293729569
4.3091431 -4.4485312 -1.616403 4293729569
6.2450867 -5.7041602 -1.5924815 4293729569
4.1437073 -4.3484488 -1.6196876 4293729569
6.0057678 -5.5535741 -1.6011739 4293729569
3.9960938 -4.2584696 -1.6255912 4293729569
5.7259216 -5.3717785 -1.599406 4293729569
3.8456116 -4.1644816 -1.6293774 4293729569
5.4719238 -5.206141 -1.5995407 4293729569
3.6972046 -4.0685167 -1.6312152 4293729569
5.2349548 -5.0486197 -1.5982527 4293729569
3.546875 -3.9705558 -1.6299785 4293729569
5.049469 -4.9243813 -1.6067778 4293729569
3.46875 -3.919971 -1.646292 4293729569
4.8126831 -4.7618928 -1.5994593 4293729569
3.4271545 -3.8935704 -1.672899 4293729569
4.6482544 -4.6477966 -1.6066973 4293729569
3.4241028 -3.8913651 -1.7098637 4293729569
4.4798584 -4.5296912 -1.610786 4293729569
3.4457397 -3.905283 -1.7537028 4293729569
4.3214722 -4.4156547 -1.6142107 4293729569
3.4812012 -3.9262738 -1.8010219 4288085770
4.1681824 -4.3036599 -1.615803 4293729569
3.4545898 -3.9039593 -1.8291246 4288085770
4.0426331 -4.208817 -1.6223685 4293729569
3.3598938 -3.831316 -1.8357838 4288085770
3.9428101 -4.1301155 -1.6338394 4293729569
3.2268372 -3.7315011 -1.8270679 4288085770
3.7798157 -4.0081 -1.6270577 4293729569
3.1204224 -3.647819 -1.8262879 4288085770
3.6850891 -3.9294534 -1.6346854 4293729569
3.0289001 -3.5732265 -1.8270272 4288085770
3.6546021 -3.8931251 -1.6605874 4293729569
2.9393921 -3.4996457 -1.8278357 4288085770
3.6834412 -3.8961124 -1.6995978 4293729569
2.8529358 -3.4260883 -1.8277383 4288085770
3.7310791 -3.9081855 -1.745257 4293729569
2.7881775 -3.3666372 -1.8344096 4288085770
3.7875977 -3.925312 -1.7922293 4288085770
3.7889404 -3.9031644 -1.8222232 4288085770
3.709259 -3.827621 -1.8283392 4288085770
3.6247253 -3.7480607 -1.8312747 4288085770
3.5284119 -3.659452 -1.8287815 4288085770
3.4459839 -3.5799198 -1.8287785 4288085770
3.3606567 -3.4963865 -1.8256588 4288085770
3.2901917 -3.4239297 -1.8260714 4288085770
3.2384949 -3.3615713 -1.8311387 4288085770
3.1819458 -3.296196 -1.8330309 4288085770
3.1273804 -3.2318401 -1.8339915 4288085770
3.0758667 -3.1675024 -1.8350464 4288085770
3.0213623 -3.1031561 -1.8340054 4288085770
2.9847412 -3.0479064 -1.8365818 4288085770
2.9490662 -2.9926624 -1.8391908 4288085770
2.9242859 -2.9434729 -1.84518 4288085770
2.8837891 -2.8842192 -1.843608 4288085770
2.8502502 -2.8300037 -1.8432842 4288085770
2.8197021 -2.7758093 -1.8430554 4288085770
2.7871704 -2.7216063 -1.8417622 4288085770
2.7645569 -2.6734614 -1.8418188 4288085770
2.7783508 -1.9305649 -1.840857 4288085770
2.7918091 -1.8956733 -1.8371254 4288085770
2.8250427 -1.8688774 -1.8390756 4288085770
2.8405151 -1.8349981 -1.8354132 4288085770
2.8718262 -1.8062034 -1.8352892 4288085770
2.901123 -1.7764006 -1.8340963 4288085770
2.9364319 -1.7496233 -1.8351091 4288085770
2.9707336 -1.7218518 -1.8340874 4288085770
3.0071106 -1.6940992 -1.8321301 4288085770
3.050354 -1.6683722 -1.8334068 4288085770
3.0887451 -1.6406379 -1.8305143 4288085770
3.1321106 -1.613929 -1.8287874 4288085770
3.1932373 -1.5932965 -1.8336682 4288085770
3.2544556 -1.5706842 -1.8355402 4288085770
3.3097534 -1.5470431 -1.835215 4288085770
3.3650818 -1.5224028 -1.8348845 4288085770
3.4204407 -1.4977746 -1.8325553 4288085770
3.4877014 -1.475204 -1.8336215 4288085770
3.5530396 -1.4526327 -1.8326248 4288085770
3.6292419 -1.4321196 -1.833992 4288085770
3.700592 -1.4095838 -1.8331888 4288085770
3.7729492 -1.3860624 -1.831413 4288085770
2.7648621 -1.1385412 -1.8346323 4288085770
3.8423462 -1.3625333 -1.827541 4288085770
2.8439941 -1.123028 -1.8391171 4288085770
3.9385376 -1.3441381 -1.8305635 4288085770
2.8954163 -1.099385 -1.8346618 4288085770
4.0317688 -1.3237364 -1.8314803 4288085770
2.9587402 -1.0788078 -1.8326085 4288085770
4.1270752 -1.3043518 -1.8314679 4288085770
3.019165 -1.0572209 -1.8284544 4288085770
4.2293091 -1.2850065 -1.8326808 4288085770
3.1013794 -1.0387383 -1.8310219 4288085770
4.3484497 -1.2687557 -1.8364573 4288085770
3.1717224 -1.0182106 -1.8281953 4288085770
4.4636841 -1.2494924 -1.8380902 4288085770
3.2470703 -0.99870753 -1.8265351 4288085770
4.5700989 -1.2291942 -1.8354306 4288085770
3.3303833 -0.97925496 -1.8251328 4288085770
4.7003174 -1.2120233 -1.8375593 4288085770
3.4136963 -0.95980024 -1.8237312 4288085770
4.8444519 -1.1959302 -1.842144 4288085770
3.5247803 -0.94548941 -1.8292564 4288085770
4.9718018 -1.1767635 -1.8401691 4288085770
3.6309814 -0.92716217 -1.8316005 4288085770
5.1220703 -1.1597235 -1.8419452 4288085770
3.7302856 -0.90880823 -1.8307216 4288085770
5.2862244 -1.1437616 -1.8461781 4288085770
3.8326416 -0.89048076 -1.8289406 4288085770
5.4653625 -1.1288922 -1.8509011 4288085770
3.9329834 -0.87114668 -1.8260907 4288085770
5.6515503 -1.1150713 -1.8548572 4288085770
4.0591736 -0.85394549 -1.8290881 4288085770
5.8456726 -1.0992956 -1.860061 4288085770
4.2092285 -0.84087539 -1.8358787 4288085770
6.0369873 -1.0825307 -1.8601645 4288085770
4.3435059 -0.82273507 -1.8371311 4288085770
6.235321 -1.064816 -1.8594922 4288085770
4.4807739 -0.80562091 -1.8374876 4288085770
6.4585876 -1.0492384 -1.8626369 4288085770
4.6161804 -0.78651142 -1.8347708 4288085770
6.6531372 -1.0275326 -1.8558195 4288085770
4.7744141 -0.76952195 -1.8368058 4288085770
6.8894348 -1.0110559 -1.8563832 4288085770
4.9525452 -0.75464725 -1.8414974 4288085770
7.1348572 -0.99364567 -1.8552344 4288085770
5.125824 -0.7367568 -1.8430139 4288085770
7.3853149 -0.97528005 -1.8522443 4288085770
5.3101196 -0.7199409 -1.8438922 4288085770
7.6587524 -0.95705819 -1.8499982 4288085770
5.5212402 -0.70427251 -1.8496472 4288085770
7.9462891 -0.93893576 -1.8462074 4288085770
5.73349 -0.68762755 -1.852432 4288085770
8.2637024 -0.92099452 -1.8443863 4288085770
5.9398804 -0.66896796 -1.8510158 4288085770
8.589325 -0.90112782 -1.838817 4288085770
6.1731567 -0.65145993 -1.8534765 4288085770
8.9587097 -0.88551259 -1.8386915 4288085770
6.4134827 -0.63300776 -1.8541605 4288085770
9.3920593 -0.87029314 -1.8416349 4288085770
6.6509705 -0.6135602 -1.8507463 4288085770
9.852417 -0.85624671 -1.84446 4288085770
6.9183655 -0.59429431 -1.8493022 4288085770
10.360779 -0.84150124 -1.8488336 4288085770
7.1818542 -0.57401705 -1.8457263 4288085770
10.904175 -0.82699275 -1.8513436 4288085770
7.484314 -0.55397558 -1.8444105 4288085770
11.507629 -0.81187248 -1.8537903 4288085770
7.7919006 -0.53299117 -1.8392564 4288085770
12.189026 -0.79724026 -1.8587639 4288085770
8.1174316 -0.51211905 -1.8346866 4288085770
12.981262 -0.78628349 -1.870346 4288085770
8.4809875 -0.49048424 -1.8313415 4288085770
13.922424 -0.77726007 -1.8867559 4288085770
8.8934631 -0.47014308 -1.8315877 4288085770
14.87793 -0.76338339 -1.8936033 4288085770
9.3270264 -0.44795394 -1.8295068 4288085770
15.872742 -0.74580622 -1.8927019 4288085770
9.8713074 -0.42842269 -1.8370259 4288085770
16.994598 -0.72705269 -1.8909066 4288085770
10.415771 -0.40692639 -1.8385413 4288085770
10.994324 -0.38365626 -1.8391504 4288085770
11.668854 -0.35999203 -1.8418642 4288085770
12.486145 -0.33719373 -1.8542069 4288085770
13.422424 -0.31413817 -1.8704005 4288085770
14.392944 -0.28635097 -1.8786786 4288085770
15.469604 -0.25725555 -1.8853861 4288085770
16.654572 -0.22289252 -1.8865687 4288085770
17.549316 1.5603251 -1.8796997 4288085770
17.232056 1.6743541 -1.8763095 4288085770
16.968842 1.788049 -1.8747216 4288085770
16.758484 1.9044201 -1.8758808 4288085770
16.525238 2.0149126 -1.8733134 4288085770
16.296021 2.1223643 -1.8688997 4288085770
16.120728 2.2344944 -1.868252 4288085770
15.98053 2.3494015 -1.8677515 4288085770
15.767426 2.4527245 -1.8598964 4288085770
15.657166 2.5674434 -1.8603948 4288085770
15.603882 2.6898224 -1.8647373 4288085770
15.553619 2.812166 -1.8671811 4288085770
15.323761 2.9055271 -1.8498257 4288085770
15.18573 3.01035 -1.8404567 4288085770
15.066772 3.115057 -1.8317221 4288085770
15.021698 3.233325 -1.8283582 4288085770
15.053528 3.3671432 -1.8314512 4288085770
15.084442 3.5009594 -1.8335097 4288085770
15.182281 3.6463823 -1.8407211 4288085770
15.371094 3.8162689 -1.8547928 4288085770
15.53598 3.9812799 -1.8650987 4288085770
15.672974 4.1434441 -1.8714889 4288085770
15.78009 4.2997551 -1.8719205 4288085770
15.915253 4.4658999 -1.8742144 4288085770
15.925629 4.6027412 -1.8615462 4288085770
16.110901 4.7845674 -1.8643956 4288085770
16.174377 4.9370737 -1.8533821 4288085770
16.396759 5.1336546 -1.8553596 4288085770
16.704193 5.3557262 -1.8629912 4288085770
17.051697 5.5975566 -1.8728138 4288085770
17.371307 5.8325205 -1.8767521 4288085770
17.807007 6.1067924 -1.8882802 4288085770
17.519135 7.8862009 -1.2998945 4293729569
17.301025 -0.097991228 -1.8858044 4288085770
15.904419 -0.10996938 -1.8801527 4288085770
14.706909 -0.11822629 -1.8762776 4288085770
13.588684 -0.12406135 -1.8650837 4288085770
12.510834 -0.12523437 -1.845217 4288085770
11.635712 -0.12663913 -1.8352978 4288085770
10.868591 -0.1277225 -1.8280708 4288085770
17.740112 -0.24787807 -1.8856732 4288085770
10.214355 -0.12747526 -1.8276973 4288085770
16.242676 -0.23521471 -1.8783121 4288085770
9.5723572 -0.12537718 -1.8197185 4288085770
14.989197 -0.22409749 -1.8753191 4288085770
9.045105 -0.12394595 -1.82068 4288085770
13.869934 -0.21289277 -1.8679138 4288085770
8.5549316 -0.12176228 -1.8208998 4288085770
12.763123 -0.19887948 -1.8478936 4288085770
8.1345825 -0.1189847 -1.8265096 4288085770
11.842163 -0.18599916 -1.8362521 4288085770
7.7254333 -0.11531067 -1.8284876 4288085770
11.039124 -0.17484951 -1.828665 4288085770
7.3482666 -0.11084318 -1.8305538 4288085770
10.359955 -0.16345096 -1.8273209 4288085770
7.0279541 -0.10669374 -1.8385725 4288085770
9.71698 -0.15233803 -1.8202132 4288085770
6.6987915 -0.10154366 -1.8402746 4288085770
9.1518555 -0.14068079 -1.8187693 4288085770
6.3788147 -0.09547472 -1.8392763 4288085770
8.6547852 -0.13046265 -1.8176678 4288085770
6.0986633 -0.09062767 -1.8426573 4288085770
8.2215271 -0.12060404 -1.8227593 4288085770
5.7958374 -0.082709074 -1.8372238 4288085770
7.8143616 -0.10993385 -1.8257338 4288085770
5.5209656 -0.075966358 -1.8327597 4288085770
7.4551086 -0.099552393 -1.8313547 4288085770
5.256134 -0.068283796 -1.8286279 4288085770
7.1089172 -0.089269161 -1.8354208 4288085770
5.0023193 -0.060687304 -1.8228735 4288085770
6.7808228 -0.078114271 -1.8380954 4288085770
4.7843628 -0.052278519 -1.8223437 4288085770
6.4538879 -0.067012548 -1.8358049 4288085770
4.5675659 -0.044911385 -1.8178579 4288085770
6.1559448 -0.056089163 -1.8345091 4288085770
4.3607483 -0.036606789 -1.8137052 4288085770
5.8838806 -0.04531002 -1.836104 4288085770
4.1678467 -0.027379751 -1.8110229 4288085770
5.5892334 -0.033478022 -1.8269029 4288085770
3.9761047 -0.019185543 -1.8053837 4288085770
5.3224487 -0.02180171 -1.8206609 4288085770
3.8330078 -0.011214018 -1.8104236 4288085770
5.0775757 -0.011244774 -1.8171819 4288085770
3.6869507 -0.003241539 -1.8133601 4288085770
4.8487549 0.00020551682 -1.8132429 4288085770
3.5222168 0.0057859421 -1.8086375 4288085770
4.6339111 0.011568308 -1.8097841 4288085770
3.3911743 0.014656544 -1.8110797 4288085770
4.4519653 0.022764206 -1.8114563 4288085770
3.2552795 0.023539782 -1.8113497 4288085770
4.2611084 0.033978224 -1.8088201 4288085770
3.1174927 0.033408403 -1.808543 4288085770
4.0812378 0.045125008 -1.8065609 4288085770
2.9925537 0.042214632 -1.8081903 4288085770
3.9074097 0.057224035 -1.8034984 4288085770
2.869751 0.051989794 -1.8058977 4288085770
3.7654724 0.068164349 -1.8055425 4288085770
3.6235046 0.079092026 -1.8065861 4288085770
3.4727173 0.089040995 -1.8033302 4288085770
3.3388672 0.10090303 -1.8026392 4288085770
3.2139282 0.11171961 -1.8032653 4288085770
3.0870972 0.12352872 -1.8018137 4288085770
2.9732056 0.1352663 -1.8018085 4288085770
2.8504944 0.14601398 -1.7965041 4288085770
2.8261108 2.2509601 -1.7967708 4288085770
2.9453735 2.2862206 -1.800578 4288085770
3.053772 2.313499 -1.7990835 4288085770
3.177124 2.345716 -1.8010616 4288085770
3.3163452 2.3838613 -1.806538 4288085770
3.4397583 2.414047 -1.8055384 4288085770
3.5473022 2.435272 -1.7980729 4288085770
3.6797485 2.4653935 -1.7963891 4288085770
2.8151855 2.1580465 -1.8013551 4288085770
3.8430176 2.5053933 -1.8026851 4288085770
2.9442749 2.1872842 -1.8095694 4288085770
4.0022583 2.5423958 -1.806873 4288085770
3.0249023 2.1956465 -1.7982912 4288085770
4.1447754 2.5704358 -1.8035606 4288085770
3.1510925 2.2198644 -1.8024533 4288085770
4.2962646 2.6004272 -1.8015428 4288085770
3.2674561 2.2390954 -1.801319 4288085770
4.4675903 2.6353374 -1.8041719 4288085770
3.4105835 2.2672274 -1.8080353 4288085770
4.6409912 2.6692162 -1.8048831 4288085770
3.5200195 2.2804713 -1.8037184 4288085770
4.8154297 2.7020776 -1.8046403 4288085770
3.6543274 2.3016005 -1.804194 4288085770
4.9859314 2.7299323 -1.8013097 4288085770
3.7796936 2.3167548 -1.801417 4288085770
5.2201538 2.7785151 -1.8120006 4288085770
3.9368591 2.3427804 -1.8066454 4288085770
5.4136047 2.8112369 -1.8104252 4288085770
4.0702515 2.3568864 -1.8041589 4288085770
5.6270447 2.8468609 -1.8115183 4288085770
4.2244873 2.3779123 -1.8073344 4288085770
5.8265686 2.8755281 -1.8081949 4288085770
4.3807678 2.3979068 -1.808592 4288085770
6.0450439 2.9080973 -1.8074956 4288085770
4.5400696 2.4148691 -1.8089851 4288085770
6.27948 2.9425786 -1.8083358 4288085770
4.6934204 2.4288511 -1.8072004 4288085770
6.5239563 2.9779885 -1.8085176 4288085770
4.8756104 2.4497161 -1.8123569 4288085770
6.7515564 3.0044627 -1.8041977 4288085770
5.0389709 2.4636261 -1.8099241 4288085770
6.9931335 3.0328531 -1.8003488 4288085770
5.2182922 2.4794693 -1.8110298 4288085770
7.2336731 3.0572357 -1.7955064 4288085770
5.4233704 2.5002003 -1.8179926 4288085770
7.5142212 3.090405 -1.7949723 4288085770
5.6017456 2.5110159 -1.8161167 4288085770
7.7808228 3.1156187 -1.7900321 4288085770
5.789093 2.5217795 -1.8145565 4288085770
8.0813293 3.148654 -1.7892011 4288085770
5.9774475 2.5295365 -1.8130618 4288085770
8.4038696 3.1825619 -1.7901304 4288085770
6.1887207 2.5421734 -1.8143221 4288085770
8.7224426 3.2114663 -1.787973 4288085770
6.3751526 2.5449128 -1.8098117 4288085770
9.0809021 3.2481537 -1.790135 4288085770
6.5764465 2.5495777 -1.8078053 4288085770
9.4294739 3.275862 -1.7880404 4288085770
6.79776 2.5551298 -1.8074899 4288085770
9.8299866 3.3132799 -1.7906662 4288085770
7.012085 2.5577064 -1.8049619 4288085770
10.245453 3.350605 -1.793819 4288085770
7.2732849 2.5690534 -1.8099865 4288085770
10.736847 3.4005132 -1.8045003 4288085770
7.4846497 2.5646312 -1.8054274 4288085770
11.158447 3.4287519 -1.8029606 4288085770
7.7229614 2.5630586 -1.8037834 4288085770
11.673859 3.4714704 -1.8105597 4288085770
7.9981384 2.5673018 -1.8073734 4288085770
12.186401 3.5061688 -1.8141388 4288085770
8.2643433 2.565578 -1.8087113 4288085770
12.763885 3.5494876 -1.8219049 4288085770
8.5207214 2.5578771 -1.8057635 4288085770
13.310455 3.579946 -1.8237221 4288085770
8.8188477 2.5559642 -1.8092245 4288085770
13.95285 3.6228631 -1.8337705 4288085770
9.0632324 2.5393069 -1.8029521 4288085770
14.596375 3.6587334 -1.8399299 4288085770
9.3365173 2.5245018 -1.8006747 4288085770
15.292908 3.6942697 -1.8469497 4288085770
9.6277771 2.5095837 -1.7990298 4288085770
16.013428 3.7266455 -1.8538446 4288085770
9.9578857 2.4984779 -1.8037094 4288085770
16.707092 3.7461398 -1.8549317 4288085770
10.259125 2.4774897 -1.8014797 4288085770
17.407776 3.754549 -1.8523812 4288085770
10.603271 2.4592657 -1.8037262 4288085770
10.965302 2.440953 -1.8086036 4288085770
11.321442 2.4156482 -1.8103466 4288085770
11.725403 2.3930848 -1.817741 4288085770
12.134399 2.3654847 -1.8243642 4288085770
12.537384 2.3318994 -1.828842 4288085770
12.949402 2.2932496 -1.8326893 4288085770
13.3414 2.2487125 -1.8348998 4288085770
13.799286 2.2058015 -1.8424047 4288085770
14.297058 2.1616623 -1.8533242 4288085770
14.774841 2.1096268 -1.8616284 4288085770
15.212769 2.0467989 -1.8646472 4288085770
15.60376 1.9712093 -1.861156 4288085770
16.091492 1.9000933 -1.8680148 4288085770
16.582245 1.8219504 -1.8740544 4288085770
17.024109 1.7330701 -1.874493 4288085770
17.469849 1.6381625 -1.8751367 4288085770
14.807648 -0.074616909 -1.2899644 4293729569
17.395905 -4.3897834 -1.7007383 4293729569
16.948669 -4.4229121 -1.6974518 4293729569
16.436646 -4.4346771 -1.6886567 4293729569
16.020355 -4.4629755 -1.6884036 4293729569
17.569366 -4.954329 -0.8946079 4293729569
15.566193 -4.4770527 -1.6856641 4293729569
15.13205 -4.489264 -1.6826003 4293729569
14.609283 -4.4699731 -1.6720833 4293729569
14.16629 -4.4671292 -1.6685461 4293729569
13.712372 -4.4532313 -1.6635045 4293729569
13.247559 -4.4312744 -1.656989 4293729569
12.814667 -4.4125042 -1.652629 4293729569
12.409729 -4.3948956 -1.6502631 4293729569
12.073456 -4.3936563 -1.6554915 4293729569
12.959747 -4.7449098 -1.0360557 4293729569
11.710358 -4.3782849 -1.656621 4293729569
12.892853 -4.8290563 -1.0777051 4293729569
11.320496 -4.3477802 -1.6536409 4293729569
10.927765 -4.3112669 -1.6494898 4293729569
10.572815 -4.2829561 -1.6497579 4293729569
10.254761 -4.2618604 -1.6524014 4293729569
16.997559 -6.7044072 -1.6120065 4293729569
9.8433533 -4.2022867 -1.6423336 4293729569
11.693848 -4.921752 -1.225963 4293729569
9.5233459 -4.1701913 -1.643787 4293729569
11.610016 -4.9857712 -1.2687999 4293729569
9.1955872 -4.1310778 -1.6418837 4293729569
11.602722 -5.0791979 -1.3206549 4293729569
8.9125671 -4.1031976 -1.6456776 4293729569
14.072723 -6.1153216 -1.6130586 4293729569
8.6086731 -4.0632114 -1.646605 4293729569
13.415375 -5.9710507 -1.6114383 4293729569
8.336731 -4.0324087 -1.6497531 4293729569
12.842743 -5.8482785 -1.6150326 4293729569
8.0588074 -3.9935822 -1.6516039 4293729569
12.328918 -5.743856 -1.621893 4293729569
7.8316345 -3.971024 -1.6594189 4293729569
11.754608 -5.6051383 -1.6192422 4293729569
7.6154175 -3.9505239 -1.6686411 4293729569
11.219269 -5.4746675 -1.6170479 4293729569
7.4349976 -3.9402094 -1.6822357 4293729569
10.787415 -5.3797717 -1.6248863 4293729569
7.2704163 -3.9359603 -1.699456 4293729569
10.2901 -5.2515569 -1.6220471 4293729569
7.112854 -3.9307566 -1.7169116 4293729569
9.8396301 -5.1366181 -1.6219997 4293729569
6.9840698 -3.9356837 -1.7394933 4293729569
9.4548645 -5.0430527 -1.6274995 4293729569
6.8562927 -3.9396191 -1.762099 4288085770
9.0582886 -4.9394455 -1.6294681 4293729569
6.741394 -3.9476237 -1.7862049 4288085770
8.6539307 -4.8268337 -1.6270576 4293729569
6.6315002 -3.9546361 -1.8124746 4288085770
8.265564 -4.7163301 -1.6242303 4293729569
6.4898987 -3.9455175 -1.8314481 4288085770
7.9220581 -4.6190796 -1.6251256 4293729569
6.2909241 -3.9071622 -1.8370711 4288085770
7.5904846 -4.5239153 -1.6254637 4293729569
6.0820618 -3.8597689 -1.8402451 4288085770
7.2809143 -4.4338841 -1.6266291 4293729569
5.8693848 -3.808394 -1.8392344 4288085770
6.9952698 -4.3499875 -1.6297007 4293729569
5.6517334 -3.7519894 -1.8379937 4288085770
6.7007141 -4.2590594 -1.6303804 4293729569
5.4648743 -3.7067289 -1.8419608 4288085770
6.4509277 -4.1863742 -1.6358368 4293729569
5.2702332 -3.6534762 -1.8405617 4288085770
6.2260132 -4.1218309 -1.6432594 4293729569
5.0597839 -3.591157 -1.8355017 4288085770
5.9665222 -4.0361485 -1.6422235 4293729569
4.874176 -3.5369701 -1.8334073 4288085770
5.7496948 -3.968677 -1.6478938 4293729569
4.7162781 -3.4958897 -1.8384352 4288085770
5.5963745 -3.9305096 -1.6641283 4293729569
4.5357361 -3.4387422 -1.8354827 4288085770
5.5074768 -3.9236283 -1.6929834 4293729569
4.3710632 -3.3876853 -1.8341577 4288085770
5.4442444 -3.9288402 -1.7288814 4293729569
4.2124023 -3.3376517 -1.8340532 4288085770
5.3989258 -3.9411526 -1.7664899 4288085770
4.0547485 -3.2866373 -1.8329724 4288085770
5.343689 -3.946414 -1.8026704 4288085770
3.9248352 -3.247736 -1.8380054 4288085770
5.2557983 -3.9335375 -1.8314949 4288085770
3.7781982 -3.1967893 -1.8373109 4288085770
5.0661621 -3.8622847 -1.8330711 4288085770
3.6523438 -3.1559253 -1.841462 4288085770
4.8637085 -3.7819853 -1.8310906 4288085770
3.5117798 -3.1040363 -1.8389676 4288085770
4.683075 -3.7117972 -1.8319919 4288085770
3.3870239 -3.0592113 -1.8401107 4288085770
4.5224304 -3.6477194 -1.834663 4288085770
3.2673035 -3.0154161 -1.8414392 4288085770
4.3360291 -3.5685506 -1.8302542 4288085770
3.1791382 -2.9867311 -1.8520552 4288085770
4.1784058 -3.5025134 -1.8310077 4288085770
3.0732727 -2.9480009 -1.8559302 4288085770
4.0248413 -3.4365125 -1.8309016 4288085770
2.9468689 -2.8942404 -1.8499061 4288085770
3.8822021 -3.374568 -1.8322256 4288085770
2.8313293 -2.8445148 -1.8473108 4288085770
3.7465515 -3.3156767 -1.8328284 4288085770
3.6129456 -3.2547994 -1.8334793 4288085770
3.4912109 -3.1989703 -1.8366057 4288085770
3.3479004 -3.128109 -1.8297966 4288085770
3.2608948 -3.0894399 -1.8393391 4288085770
3.1531372 -3.0367084 -1.8419904 4288085770
3.0504456 -2.9850197 -1.843829 4288085770
2.9487 -2.9333377 -1.8457018 4288085770
2.8382568 -2.8746538 -1.8421824 4288085770
2.7828979 -0.5777545 -1.8159449 4288085770
2.8730774 -0.56533456 -1.8170469 4288085770
2.965332 -0.55194044 -1.8172107 4288085770
3.0565796 -0.53953695 -1.8173505 4288085770
3.1499023 -0.52617073 -1.8155525 4288085770
3.2501831 -0.51283383 -1.8150047 4288085770
3.3446045 -0.4995079 -1.8102458 4288085770
3.4657593 -0.48826599 -1.8134714 4288085770
3.5889282 -0.47604895 -1.8157593 4288085770
3.7260742 -0.465904 -1.8195707 4288085770
2.7934265 -0.35587955 -1.812976 4288085770
3.8483887 -0.45372772 -1.817827 4288085770
2.8887329 -0.34352517 -1.8112605 4288085770
3.9648743 -0.43955731 -1.8118491 4288085770
3.0067749 -0.33424139 -1.8163991 4288085770
4.125 -0.42955518 -1.8164874 4288085770
3.1081238 -0.32193446 -1.8139005 4288085770
4.2713013 -0.41751194 -1.8166051 4288085770
3.2243652 -0.31068492 -1.814949 4288085770
4.444458 -0.40759993 -1.8207116 4288085770
3.3396301 -0.29945278 -1.813964 4288085770
4.6147156 -0.39671755 -1.8207035 4288085770
3.4658813 -0.28827715 -1.814373 4288085770
4.7979736 -0.38590121 -1.8221616 4288085770
3.6031189 -0.27815604 -1.8161879 4288085770
4.9941711 -0.37515306 -1.8250861 4288085770
3.733429 -0.26702714 -1.8147434 4288085770
5.208374 -0.36551523 -1.8286685 4288085770
3.8826294 -0.25699067 -1.8159909 4288085770
5.4325562 -0.35494018 -1.8325995 4288085770
4.0239868 -0.24594235 -1.813943 4288085770
5.67276 -0.34547257 -1.8361177 4288085770
4.189209 -0.23500347 -1.8157547 4288085770
5.9259338 -0.33608532 -1.8401039 4288085770
4.3713684 -0.22615933 -1.8191991 4288085770
6.1932068 -0.32581925 -1.8415846 4288085770
4.5655212 -0.21637559 -1.8240628 4288085770
6.4744873 -0.31562614 -1.8445684 4288085770
4.7518311 -0.20560098 -1.8236332 4288085770
6.7589111 -0.30550861 -1.8426652 4288085770
4.9471436 -0.19588256 -1.823539 4288085770
7.050415 -0.29445958 -1.8390054 4288085770
5.1733093 -0.18631768 -1.8275561 4288085770
7.3729248 -0.28459883 -1.8364708 4288085770
5.4144897 -0.177845 -1.8321241 4288085770
7.7064819 -0.27384067 -1.8313239 4288085770
5.6716309 -0.1684711 -1.8372567 4288085770
8.0839539 -0.26332951 -1.8297569 4288085770
5.9527283 -0.16024399 -1.8432639 4288085770
8.4596252 -0.25286317 -1.8231241 4288085770
6.2310791 -0.15105534 -1.8441572 4288085770
8.901123 -0.24376583 -1.8218727 4288085770
6.5015259 -0.14085293 -1.841756 4288085770
9.403595 -0.23504472 -1.8228134 4288085770
6.7879944 -0.13077378 -1.8379326 4288085770
9.9700012 -0.22770023 -1.8270658 4288085770
7.1203918 -0.12295055 -1.8377837 4288085770
10.590393 -0.22071028 -1.8312622 4288085770
7.4529419 -0.11317587 -1.8336173 4288085770
11.26593 -0.21310425 -1.8334295 4288085770
7.7935791 -0.1034708 -1.8267365 4288085770
12.089203 -0.20734715 -1.8449194 4288085770
8.1901245 -0.095098495 -1.8238854 4288085770
12.962708 -0.20198655 -1.8512218 4288085770
8.6266174 -0.086970568 -1.822474 4288085770
14.08783 -0.19909883 -1.872589 4288085770
9.1091614 -0.0791471 -1.8207192 4288085770
15.243408 -0.19455743 -1.881029 4288085770
9.6705627 -0.07277298 -1.8248154 4288085770
16.451385 -0.18945146 -1.8813411 4288085770
10.307831 -0.06585288 -1.8326337 4288085770
10.939484 -0.060011148 -1.8302594 4288085770
11.702942 -0.053929806 -1.8366185 4288085770
12.615234 -0.049748898 -1.8493489 4288085770
13.708313 -0.046653748 -1.8705896 4288085770
14.848846 -0.042997837 -1.8805256 4288085770
16.077606 -0.039972067 -1.885636 4288085770
17.538361 -0.038413525 -1.8951018 4288085770
17.350647 0.029316425 -1.8762976 4288085770
15.978943 0.050237656 -1.8743628 4288085770
14.730591 0.06926465 -1.8660878 4288085770
13.588409 0.087539911 -1.853815 4288085770
12.576447 0.1049366 -1.8394523 4288085770
11.684418 0.12158537 -1.8276194 4288085770
10.917389 0.13747334 -1.8195062 4288085770
10.273132 0.152668 -1.8190354 4288085770
16.336304 0.19873714 -1.8622169 4288085770
9.6322021 0.1677289 -1.8106787 4288085770
15.151581 0.2204957 -1.8642766 4288085770
9.0930786 0.18220758 -1.8081697 4288085770
14.029327 0.23969364 -1.8557054 4288085770
8.6328125 0.19625902 -1.8116456 4288085770
12.922455 0.2566278 -1.8357348 4288085770
8.2025757 0.21010113 -1.8142542 4288085770
12.061249 0.27416253 -1.8300304 4288085770
