# .PCD v0.7 - Point Cloud Data file format
VERSION 0.7
FIELDS x y z rgb
SIZE 4 4 4 4
TYPE F F F U
COUNT 1 1 1 1
WIDTH 1143
HEIGHT 1
VIEWPOINT 0 0 0 1 0 0 0
POINTS 1143
DATA ascii
8.967907 5.9644575 -1.6602645 4288085770
7.6949987 5.108386 -1.7162826 4288085770
9.1768942 6.093472 -1.6561016 4288085770
8.0399733 5.3314061 -1.70101 4288085770
5.67413 3.7582619 -1.7778955 4288085770
9.389883 6.2224855 -1.6519368 4288085770
7.5940065 5.0303817 -1.7223672 4288085770
9.7278738 6.4315171 -1.6666735 4288085770
7.5020161 4.9573784 -1.7304447 4288085770
8.1989632 5.4114151 -1.692893 4288085770
5.6381359 3.7162623 -1.7839305 4288085770
10.131866 6.6795559 -1.6873595 4288085770
7.4010243 4.8763723 -1.7335304 4288085770
10.441855 6.8625803 -1.6901214 4288085770
7.2970304 4.792366 -1.7356186 4288085770
8.3539515 5.4864225 -1.68278 4288085770
5.5911393 3.6662602 -1.7849746 4288085770
10.685838 6.9995942 -1.678937 4288085770
7.1930361 4.7063594 -1.7357076 4288085770
8.5409422 5.5794353 -1.6776428 4288085770
5.5611444 3.6252615 -1.7910056 4288085770
10.931822 7.1316071 -1.665753 4288085770
7.0900412 4.6203513 -1.7337962 4288085770
8.7449312 5.68045 -1.6734935 4288085770
11.184802 7.2666211 -1.6505646 4288085770
6.9810448 4.5293417 -1.7298898 4288085770
5.5221481 3.5782599 -1.7930441 4288085770
11.430782 7.392632 -1.6333833 4288085770
6.8800497 4.4423337 -1.7269772 4288085770
8.9589186 5.7844639 -1.6683376 4288085770
12.259744 7.9116921 -1.6297357 4288085770
5.4831514 3.5302584 -1.7940829 4288085770
11.787765 7.587656 -1.6261154 4288085770
6.8040543 4.3703299 -1.7280456 4288085770
9.1889086 5.8944798 -1.6641709 4288085770
5.4531555 3.4872582 -1.7971146 4288085770
12.227747 7.8296895 -1.627785 4288085770
12.002761 7.681675 -1.6329634 4288085770
6.7210593 4.293323 -1.7271196 4288085770
9.4178963 6.0014954 -1.6580057 4288085770
5.4141583 3.4362559 -1.7971543 4288085770
6.6420627 4.2173181 -1.7251909 4288085770
11.775778 7.4716616 -1.6381671 4288085770
9.6878843 6.1305156 -1.6568103 4288085770
6.6050696 4.1683187 -1.7332292 4288085770
5.3771601 3.387254 -1.7961922 4288085770
11.608796 7.2996554 -1.650324 4288085770
9.968874 6.2625356 -1.6546078 4288085770
6.5560756 4.1083179 -1.7372779 4288085770
5.3551641 3.3462553 -1.8002186 4288085770
10.396866 6.4815755 -1.6712927 4288085770
11.503814 7.1666555 -1.669432 4288085770
6.5180817 4.0563183 -1.7433177 4288085770
5.321166 3.2972534 -1.7992547 4288085770
10.871858 6.7236199 -1.6929435 4288085770
6.4690857 3.9953163 -1.7453667 4288085770
11.35983 7.0086513 -1.680571 4288085770
5.3041697 3.2572546 -1.8022779 4288085770
6.435091 3.9433177 -1.7504042 4288085770
11.235845 6.8906479 -1.6926831 4288085770
11.253848 6.8746505 -1.6966798 4288085770
5.2721705 3.2082522 -1.8003129 4288085770
6.3950958 3.8863163 -1.7534469 4288085770
11.508827 6.9976621 -1.6764952 4288085770
11.011858 6.6576314 -1.6898938 4288085770
5.2581735 3.1692538 -1.8033341 4288085770
6.3540998 3.8283153 -1.7544903 4288085770
11.895812 7.1676908 -1.6732217 4288085770
10.654864 6.3725967 -1.6641959 4288085770
5.2321754 3.1232522 -1.8013643 4288085770
6.346107 3.7893195 -1.7645086 4288085770
12.250794 7.3127131 -1.6629753 4288085770
6.3131094 3.7353187 -1.7655462 4288085770
10.449873 6.182579 -1.6583793 4288085770
5.2081766 3.0772514 -1.8003936 4288085770
12.575776 7.4367309 -1.6457531 4288085770
6.2921147 3.6873205 -1.7705749 4288085770
3.9152343 2.2911587 -1.80339 4288085770
3.9592323 2.3161621 -1.8033568 4288085770
3.8792369 2.2691572 -1.8054177 4288085770
3.8382392 2.244154 -1.8054494 4288085770
4.0102315 2.3441665 -1.8053184 4288085770
12.986756 7.6037583 -1.6374686 4288085770
5.1971784 3.0382526 -1.8024131 4288085770
3.8112426 2.2261543 -1.8104707 4288085770
10.294886 6.0225701 -1.6595242 4288085770
4.0662298 2.3741717 -1.8072764 4288085770
3.7652419 2.1961491 -1.8055065 4288085770
4.111227 2.3971744 -1.8052431 4288085770
3.7412457 2.1791496 -1.8105258 4288085770
4.1612244 2.422178 -1.8042065 4288085770
3.7042465 2.1531463 -1.8085555 4288085770
4.2172217 2.4501822 -1.8041652 4288085770
3.6682465 2.1271427 -1.8055842 4288085770
6.2731185 3.6393216 -1.7746024 4288085770
4.2822204 2.4811881 -1.8061179 4288085770
13.470738 7.8067942 -1.6331311 4288085770
3.6382473 2.1031404 -1.8046092 4288085770
5.1851807 2.9982536 -1.8034334 4288085770
4.3372169 2.506192 -1.8040783 4288085770
10.147895 5.8685613 -1.6606624 4288085770
3.6192501 2.0861411 -1.8086253 4288085770
4.4132166 2.5411997 -1.8090235 4288085770
3.5952513 2.0641401 -1.808646 4288085770
4.4822135 2.5722053 -1.8089739 4288085770
6.2641244 3.5963249 -1.7806227 4288085770
3.6572716 2.0911627 -1.8526015 4282675967
4.5482106 2.6002102 -1.807927 4288085770
5.1671815 2.954253 -1.8014582 4288085770
10.067905 5.7525601 -1.6697499 4288085770
3.62427 2.0631585 -1.8466291 4288085770
4.6112065 2.6242142 -1.8048832 4288085770
6.2531281 3.5513272 -1.7856447 4288085770
4.6992049 2.6622229 -1.8088207 4288085770
5.1531825 2.9122529 -1.8004804 4288085770
4.7822032 2.6962302 -1.8107624 4288085770
9.9829187 5.6345582 -1.6778407 4288085770
4.7722001 2.6902273 -1.8047699 4288085770
4.7112036 2.6552227 -1.8048161 4288085770
4.6602063 2.6252201 -1.8078551 4288085770
4.8271966 2.7192297 -1.8017292 4288085770
4.5992074 2.5892146 -1.8049016 4288085770
4.8881927 2.7522335 -1.7996837 4288085770
4.5472097 2.5582108 -1.8049413 4288085770
4.9621906 2.79024 -1.8006291 4288085770
4.5062132 2.5312097 -1.8089734 4288085770
5.0211859 2.8192422 -1.7955862 4288085770
6.245132 3.5073302 -1.7906646 4288085770
4.8481979 2.719233 -1.8047173 4288085770
4.4632158 2.502207 -1.8100072 4288085770
5.1071835 2.8632498 -1.7985228 4288085770
4.4202185 2.4732046 -1.8110412 4288085770
5.194181 2.9052572 -1.8004597 4288085770
4.3662181 2.4361987 -1.8050841 4288085770
5.1461844 2.8722546 -1.8014978 4288085770
4.9271936 2.7482388 -1.802663 4288085770
5.2751775 2.9422634 -1.7994016 4288085770
14.315723 7.9878621 -1.6396112 4288085770
9.90693 5.5225577 -1.6859244 4288085770
4.3282199 2.4081967 -1.8061147 4288085770
5.3651738 2.9842701 -1.7993367 4288085770
6.2181349 3.4533291 -1.7896987 4288085770
4.2882218 2.3771937 -1.8051474 4288085770
5.0121894 2.7792454 -1.8006047 4288085770
5.4601707 3.0272779 -1.800269 4288085770
4.2562232 2.3511925 -1.8061742 4288085770
5.5581675 3.0712857 -1.8011988 4288085770
5.1301842 2.8292537 -1.7985213 4288085770
5.0961847 2.8092508 -1.7975471 4288085770
14.043741 7.737843 -1.6398543 4288085770
4.2162232 2.3191888 -1.8032072 4288085770
5.6731648 3.1222961 -1.8041172 4288085770
9.8429403 5.4175577 -1.694999 4288085770
6.2151384 3.410332 -1.7947156 4288085770
5.7771611 3.1663041 -1.804044 4288085770
4.1822248 2.2901866 -1.8022358 4288085770
5.200182 2.8482602 -1.8004755 4288085770
5.8831563 3.2093115 -1.8019701 4288085770
4.1612267 2.2671866 -1.8052551 4288085770
5.1281857 2.7922559 -1.800535 4288085770
5.2931781 2.879267 -1.7984129 4288085770
13.849759 7.5318327 -1.6470386 4288085770
5.9781499 3.2453167 -1.7959046 4288085770
9.7889509 5.3165593 -1.7050663 4288085770
4.1322279 2.2391849 -1.8042806 4288085770
6.1951404 3.3583319 -1.7937449 4288085770
6.0871439 3.2883234 -1.7918292 4288085770
5.4091768 2.9212782 -1.8023336 4288085770
4.1082287 2.2131839 -1.8043025 4288085770
5.1141849 2.7472548 -1.7965577 4288085770
6.2211399 3.3413346 -1.7927365 4288085770
5.527173 2.9632885 -1.8042532 4288085770
13.654774 7.3268228 -1.652223 4288085770
9.7269602 5.2135592 -1.712139 4288085770
4.0952315 2.1921859 -1.8093165 4288085770
6.1781416 3.3073316 -1.7927722 4288085770
6.3581362 3.3953459 -1.7946417 4288085770
4.0692315 2.1641839 -1.8073399 4288085770
5.6381693 3.0002975 -1.8041786 4288085770
6.4811296 3.4403539 -1.790558 4288085770
5.1161876 2.7122571 -1.7985685 4288085770
13.580792 7.1878257 -1.6703171 4288085770
4.0562344 2.1431849 -1.810354 4288085770
6.1661439 3.2583325 -1.792796 4288085770
9.6689692 5.1105585 -1.7182094 4288085770
5.762166 3.0413079 -1.8060956 4288085770
6.5961213 3.4793596 -1.7814808 4288085770
4.0422354 2.1191852 -1.8113694 4288085770
6.7271137 3.5243671 -1.7753927 4288085770
5.87216 3.0733151 -1.8010232 4288085770
5.1171885 2.6752594 -1.7985802 4288085770
13.457809 7.0238223 -1.6814469 4288085770
6.1631465 3.2133346 -1.7948134 4288085770
9.5899782 4.9975553 -1.7212948 4288085770
4.0342379 2.0991871 -1.8153801 4288085770
6.8551059 3.5653744 -1.7673078 4288085770
5.992156 3.1103239 -1.798944 4288085770
4.0192389 2.0741866 -1.8143965 4288085770
7.0331016 3.6313891 -1.7701864 4288085770
5.1241894 2.6412623 -1.8005875 4288085770
6.1521482 3.1653352 -1.7948364 4288085770
6.1201501 3.1483338 -1.79686 4288085770
13.344826 6.8648195 -1.6915694 4288085770
9.5399866 4.8995547 -1.7263588 4288085770
7.2190962 3.6984046 -1.7720606 4288085770
4.0062389 2.0491869 -1.8144116 4288085770
6.2341433 3.1773403 -1.7897869 4288085770
5.1151881 2.5992615 -1.7966065 4288085770
7.3440862 3.7324095 -1.7589803 4288085770
4.0002408 2.028188 -1.8164215 4288085770
6.1571507 3.1233382 -1.7978483 4288085770
13.089834 6.634798 -1.681795 4288085770
9.4599924 4.7875514 -1.7274441 4288085770
6.3961415 3.2293553 -1.7956793 4288085770
7.522079 3.7924216 -1.7548615 4288085770
4.0012431 2.009191 -1.8214267 4288085770
5.1281905 2.5672653 -1.7996099 4288085770
6.1421509 3.0723372 -1.7938744 4288085770
6.5411358 3.2713664 -1.7935848 4288085770
7.6960711 3.8464332 -1.749747 4288085770
12.773842 6.3777685 -1.6620634 4288085770
9.3769979 4.6735463 -1.7255317 4288085770
3.9872422 1.9831902 -1.8184427 4288085770
7.8970637 3.9124482 -1.7476138 4288085770
6.6791301 3.306376 -1.7894968 4288085770
5.1331911 2.5302677 -1.7996194 4288085770
6.1371522 3.0253382 -1.7928936 4288085770
3.9812436 1.9601914 -1.8194531 4288085770
12.635852 6.21176 -1.6642015 4288085770
8.0840549 3.9684589 -1.7394921 4288085770
9.2640018 4.5465355 -1.7166404 4288085770
6.8451252 3.353389 -1.789389 4288085770
3.9732432 1.9351913 -1.8174652 4288085770
8.2870464 4.0294733 -1.7343597 4288085770
6.1501546 2.9863422 -1.7958999 4288085770
5.1381917 2.4932694 -1.798629 4288085770
7.0241213 3.4044042 -1.7912731 4288085770
12.494863 6.0477519 -1.6643404 4288085770
9.1980057 4.4435325 -1.7157146 4288085770
3.9732432 1.914193 -1.8184716 4288085770
8.521039 4.1034894 -1.732206 4288085770
7.2031169 3.4524186 -1.7921584 4288085770
6.1431537 2.9373415 -1.7919208 4288085770
5.1451917 2.458271 -1.7976366 4288085770
8.7670307 4.1785078 -1.7290456 4288085770
3.9752445 1.8931952 -1.8204768 4288085770
12.403873 5.9087481 -1.668443 4288085770
9.157012 4.3525319 -1.7187707 4288085770
7.3891115 3.5024333 -1.7920392 4288085770
8.9910212 4.2425213 -1.7209011 4288085770
5.8273234 3.6030302 -1.7923496 4288085770
5.7573242 3.5590346 -1.7964108 4288085770
5.8883204 3.640023 -1.7842976 4288085770
5.6793242 3.5090361 -1.7974796 4288085770
5.9623189 3.6840184 -1.7792352 4288085770
4.2223229 2.6070557 -1.8107384 4288085770
6.0383182 3.7280126 -1.7731725 4288085770
5.780324 3.568033 -1.7943957 4288085770
5.6063242 3.4600372 -1.7985463 4288085770
6.120316 3.7730072 -1.7671069 4288085770
5.5483246 3.4200416 -1.8026 4288085770
6.2123146 3.824003 -1.763033 4288085770
6.7943077 4.1819744 -1.7345324 4288085770
5.4723244 3.3670394 -1.7996713 4288085770
8.7573013 5.3879271 -1.692845 4288085770
4.1853213 2.571053 -1.8067821 4288085770
6.306314 3.8739991 -1.7589593 4288085770
5.8663216 3.6030264 -1.787338 4288085770
5.4073238 3.32004 -1.7997336 4288085770
6.4043126 3.9249942 -1.7538835 4288085770
5.339323 3.271039 -1.7977986 4288085770
6.5133114 3.9809892 -1.7487997 4288085770
5.9613194 3.6420214 -1.7812742 4288085770
4.1593208 2.5400531 -1.8058184 4288085770
5.2913237 3.2320423 -1.8008485 4288085770
8.6923046 5.2979341 -1.6999468 4288085770
6.76331 4.1209803 -1.7395976 4288085770
6.6243105 4.0359855 -1.7447165 4288085770
5.2353234 3.1870422 -1.7999064 4288085770
6.0673194 3.6850185 -1.7782034 4288085770
4.125319 2.50405 -1.8008616 4288085770
6.7443099 4.0949812 -1.7406268 4288085770
5.1903234 3.1480446 -1.8019555 4288085770
6.8583078 4.1489744 -1.7335435 4288085770
5.148324 3.1100471 -1.8040028 4288085770
6.1673174 3.7240124 -1.771138 4288085770
8.6223049 5.2029395 -1.7050545 4288085770
4.1163211 2.4820557 -1.8068843 4288085770
6.7243094 4.0549827 -1.7416694 4288085770
6.9853063 4.2079706 -1.7284517 4288085770
5.1003232 3.0670466 -1.8030564 4288085770
6.278316 3.7670078 -1.7660655 4288085770
7.1433067 4.2839694 -1.7283351 4288085770
4.098321 2.454057 -1.8069153 4288085770
5.062324 3.0300493 -1.8051016 4288085770
8.5803089 5.1239481 -1.7141391 4288085770
7.3023071 4.3589678 -1.7272192 4288085770
6.696311 3.9939892 -1.7467334 4288085770
6.4063158 3.818006 -1.7639807 4288085770
5.0163226 2.9860487 -1.8031554 4288085770
4.0773196 2.4240572 -1.8059492 4288085770
7.4633069 4.4329638 -1.7241037 4288085770
4.9723215 2.943047 -1.800208 4288085770
6.5193138 3.8589988 -1.7559096 4288085770
8.5183086 5.0329528 -1.7182409 4288085770
7.665309 4.5279675 -1.7279567 4288085770
4.0653205 2.3990591 -1.8069756 4288085770
6.6593108 3.9279912 -1.7478049 4288085770
4.9423223 2.9080498 -1.8022491 4288085770
6.6463127 3.9049947 -1.7518299 4288085770
7.8423085 4.6049633 -1.7248334 4288085770
4.0553203 2.3730617 -1.8090023 4288085770
4.9093218 2.8700507 -1.8022935 4288085770
8.4653111 4.9469581 -1.7233353 4288085770
8.0553102 4.7029638 -1.7266804 4288085770
6.642313 3.8739972 -1.7538594 4288085770
6.7843118 3.955991 -1.7477422 4288085770
4.8763204 2.8320496 -1.8003381 4288085770
4.0443201 2.3470635 -1.8100295 4288085770
8.2643099 4.7929621 -1.7255359 4288085770
6.9323111 4.0109878 -1.7446479 4288085770
8.4083118 4.8589621 -1.7264326 4288085770
4.8543215 2.7990534 -1.803375 4288085770
6.6253142 3.8180022 -1.7579156 4288085770
8.4773111 4.8839588 -1.7233893 4288085770
4.0363207 2.3220661 -1.8110548 4288085770
7.0973115 4.0729876 -1.7445419 4288085770
4.834322 2.7660565 -1.8054113 4288085770
8.6953087 4.9749546 -1.719241 4288085770
8.3493118 4.7689648 -1.7285324 4288085770
4.0213194 2.2910655 -1.8090876 4288085770
6.6073151 3.7630074 -1.7629713 4288085770
7.2463093 4.1239815 -1.7384509 4288085770
8.9163094 5.0639482 -1.7130939 4288085770
4.8103213 2.7310565 -1.8044504 4288085770
4.0103192 2.2630656 -1.8081167 4288085770
8.2663088 4.6649632 -1.7246523 4288085770
7.3993082 4.1729755 -1.7323605 4288085770
9.1553087 5.1599436 -1.7089348 4288085770
4.7933221 2.6980591 -1.8064857 4288085770
6.5993171 3.7120128 -1.7680204 4288085770
9.408308 5.2609377 -1.704767 4288085770
7.5613065 4.2259698 -1.7252637 4288085770
4.01332 2.2410707 -1.8121359 4288085770
4.7733202 2.6640596 -1.8055227 4288085770
8.191308 4.5669622 -1.7217641 4288085770
6.5743165 3.6510153 -1.7690835 4288085770
9.6573057 5.3559294 -1.6956059 4288085770
7.7623076 4.2979693 -1.726138 4288085770
4.7633214 2.6340632 -1.8085531 4288085770
4.0153208 2.2190742 -1.8151555 4288085770
8.151309 4.4879646 -1.7238483 4288085770
9.9343052 5.4619217 -1.6894263 4288085770
7.9823098 4.3769698 -1.7280002 4288085770
6.585319 3.6090245 -1.7781187 4288085770
4.7513213 2.6020653 -1.809586 4288085770
4.0153213 2.1950777 -1.8171775 4288085770
10.198304 5.5579109 -1.6792599 4288085770
8.0973082 4.4009652 -1.7229439 4288085770
8.1593075 4.4289613 -1.7189 4288085770
4.741322 2.5710671 -1.8106176 4288085770
4.0093198 2.1680775 -1.8152043 4288085770
6.5753198 3.5560288 -1.7821702 4288085770
10.527304 5.6839061 -1.6760466 4288085770
8.3833075 4.5029602 -1.7187655 4288085770
4.7313213 2.5400686 -1.8106489 4288085770
8.0543079 4.3199658 -1.7230308 4288085770
10.860301 5.8078976 -1.6688337 4288085770
4.0133204 2.1440804 -1.817225 4288085770
6.5793214 3.5090356 -1.7882121 4288085770
8.6293087 4.5869603 -1.7206153 4288085770
4.7213211 2.5070698 -1.8106821 4288085770
11.213302 5.9378891 -1.6626097 4288085770
8.0263081 4.2469697 -1.7251058 4288085770
4.0203214 2.1220841 -1.8202431 4288085770
6.5693216 3.4550383 -1.7902644 4288085770
8.899312 4.6789613 -1.7234507 4288085770
4.7083201 2.4730694 -1.8087171 4288085770
11.606303 6.0848837 -1.6593579 4288085770
8.0063095 4.1779742 -1.729175 4288085770
4.0243201 2.0980866 -1.821264 4288085770
9.1803141 4.7729626 -1.7272807 4288085770
4.7103205 2.4460733 -1.8117412 4288085770
12.028303 6.2408767 -1.6550893 4288085770
6.5823236 3.4120452 -1.7972997 4288085770
4.0233197 2.0700865 -1.8192899 4288085770
7.9893098 4.1099777 -1.732242 4288085770
9.4723158 4.8679628 -1.7291068 4288085770
12.591309 6.4628816 -1.6657184 4288085770
4.70432 2.4140737 -1.8107724 4288085770
6.5673232 3.355047 -1.7973564 4288085770
4.0353208 2.0500915 -1.8233048 4288085770
9.7623167 4.9579606 -1.728938 4288085770
15.212316 7.7228446 -1.6487845 4288085770
13.271318 6.7368937 -1.6862648 4288085770
7.9793105 4.0449815 -1.7363045 4288085770
4.7013197 2.3830752 -1.8108017 4288085770
6.5523229 3.2960465 -1.7954149 4288085770
13.838322 6.945889 -1.6869044 4288085770
10.081319 5.0579586 -1.7297513 4288085770
3.7153153 1.863086 -1.8125712 4288085770
4.0473208 2.0280955 -1.8263212 4288085770
4.7033191 2.355077 -1.8118267 4288085770
14.976316 7.4948554 -1.6590631 4288085770
3.775317 1.8870885 -1.8155314 4288085770
7.9893126 3.9899905 -1.7443517 4288085770
3.8263164 1.9060876 -1.8144989 4288085770
14.39632 7.1418786 -1.6805587 4288085770
3.8913178 1.930091 -1.8184576 4288085770
10.368318 5.1369514 -1.7235934 4288085770
6.5523224 3.2460496 -1.7974606 4288085770
4.0533204 2.0030959 -1.8253424 4288085770
4.7013192 2.3230779 -1.8108567 4288085770
3.9523182 1.9520911 -1.8184193 4288085770
14.819321 7.3078704 -1.6762805 4288085770
7.9813123 3.9259927 -1.7464126 4288085770
4.0253201 1.9790951 -1.8233728 4288085770
14.909319 7.3068604 -1.6652545 4288085770
4.0893202 2.0010953 -1.8233336 4288085770
10.682316 5.2249451 -1.7194191 4288085770
6.5463223 3.1920507 -1.7975117 4288085770
4.704318 2.2940784 -1.8098823 4288085770
4.0023184 1.9510926 -1.8194053 4288085770
4.0503178 1.9740916 -1.81837 4288085770
3.9593186 1.9290942 -1.8204383 4288085770
4.0663204 1.981099 -1.8273588 4288085770
4.100318 1.9970912 -1.8183341 4288085770
3.9083169 1.903092 -1.8174772 4288085770
4.1603189 2.0250931 -1.8212906 4288085770
4.1653209 2.0270984 -1.8272871 4288085770
3.8633163 1.8790917 -1.8165127 4288085770
4.2123184 2.0480909 -1.8192539 4288085770
14.668325 7.1248846 -1.6914927 4288085770
3.821316 1.8560915 -1.8155462 4288085770
4.2673187 2.0710893 -1.8172166 4288085770
3.7793152 1.8320903 -1.8135808 4288085770
4.3203177 2.0930862 -1.8141806 4288085770
7.9943156 3.8710001 -1.7534589 4288085770
15.572319 7.5378494 -1.6598452 4288085770
4.2333212 2.0490975 -1.8262469 4288085770
3.7523162 1.8150942 -1.8176044 4288085770
4.3813171 2.1180849 -1.8131397 4288085770
11.028317 5.3239408 -1.7172253 4288085770
3.7343185 1.8021017 -1.8256216 4288085770
4.4523177 2.1470866 -1.8150918 4288085770
4.2983203 2.0680952 -1.8232102 4288085770
4.5193186 2.1740851 -1.8140472 4288085770
4.7153192 2.2680821 -1.8129029 4288085770
4.0693192 1.9540981 -1.8243829 4288085770
6.5433221 3.1400523 -1.7975601 4288085770
4.5953188 2.2030864 -1.8159982 4288085770
14.478327 6.9248948 -1.7007319 4288085770
4.3653188 2.0880926 -1.820172 4288085770
16.254322 7.7698359 -1.6524293 4288085770
4.6643181 2.2280834 -1.8129547 4288085770
11.335315 5.4009295 -1.7070631 4288085770
8.008316 3.8160055 -1.758505 4288085770
4.7313166 2.2520797 -1.8089126 4288085770
4.4403186 2.1100905 -1.8181294 4288085770
4.7143173 2.2360811 -1.8099325 4288085770
4.8113165 2.2800784 -1.8078634 4288085770
4.0873203 1.9331032 -1.8283966 4288085770
6.5393209 3.0870516 -1.7956098 4288085770
4.5233188 2.1350913 -1.8190818 4288085770
4.8853159 2.305074 -1.8028184 4288085770
14.166324 6.6708913 -1.6940569 4288085770
11.663314 5.4799175 -1.6968927 4288085770
4.9623146 2.33007 -1.7987727 4288085770
8.0643206 3.7810187 -1.7735202 4288085770
4.6013184 2.1570895 -1.8170385 4288085770
4.7283173 2.2110846 -1.8119512 4288085770
5.0443134 2.3570669 -1.7957234 4288085770
4.0923185 1.9061022 -1.8254199 4288085770
4.6863184 2.1800897 -1.816992 4288085770
5.1463137 2.3910675 -1.7966619 4288085770
6.5393205 3.0350533 -1.7956573 4288085770
12.021312 5.5709066 -1.6887025 4288085770
13.769316 6.379878 -1.6744411 4288085770
5.2563152 2.4280698 -1.7995954 4288085770
4.7573156 2.1960826 -1.8089563 4288085770
8.0593204 3.71702 -1.7735801 4288085770
4.7403178 2.1840873 -1.8139722 4288085770
5.3663168 2.4650702 -1.8015286 4288085770
4.1113186 1.8851055 -1.8274335 4288085770
4.8573165 2.2250841 -1.8109 4288085770
12.40131 5.6648979 -1.682503 4288085770
5.4773169 2.500071 -1.8024634 4288085770
6.5353189 2.9810519 -1.7927079 4288085770
13.525311 6.1638775 -1.6717112 4288085770
4.9373145 2.2420781 -1.8038605 4288085770
4.7533169 2.1570888 -1.8139932 4288085770
8.1073236 3.6750298 -1.7846041 4288085770
5.5833163 2.5310678 -1.7994035 4288085770
4.1243181 1.861107 -1.8274517 4288085770
12.82331 5.7728891 -1.6772779 4288085770
5.0333147 2.267077 -1.802809 4288085770
5.7073164 2.5700679 -1.8003309 4288085770
13.352312 5.983881 -1.6739269 4288085770
6.5423179 2.9330533 -1.7927496 4288085770
5.7993131 2.5920589 -1.7902832 4288085770
4.7703171 2.1320918 -1.8160111 4288085770
5.1353149 2.2920759 -1.8017559 4288085770
8.1143246 3.615032 -1.7856568 4288085770
13.280312 5.8888822 -1.6740353 4288085770
5.9133124 2.6230538 -1.7852207 4288085770
4.1473184 1.8401103 -1.8294642 4288085770
5.2473149 2.3210764 -1.8026959 4288085770
13.233313 5.8288879 -1.6811038 4288085770
6.5493174 2.8840542 -1.7917924 4288085770
6.0443125 2.6600523 -1.784148 4288085770
4.7883177 2.1060941 -1.8170295 4288085770
5.3603153 2.3490767 -1.8036366 4288085770
8.1363239 3.563036 -1.7896976 4288085770
13.755312 6.0088744 -1.6707834 4288085770
6.1923127 2.7030523 -1.7850643 4288085770
4.1633182 1.8171118 -1.8294804 4288085770
5.4833155 2.3790772 -1.8045725 4288085770
13.141315 5.6888986 -1.691259 4288085770
6.3473148 2.7470539 -1.7879778 4288085770
4.8013167 2.0780945 -1.8160512 4288085770
6.555316 2.8350542 -1.7908354 4288085770
14.300315 6.1498694 -1.6724913 4288085770
8.167325 3.5120411 -1.7947348 4288085770
5.5943151 2.4030743 -1.8015174 4288085770
6.4943137 2.7860503 -1.7848983 4288085770
4.1913185 1.7981168 -1.8334895 4288085770
4.8203168 2.0520971 -1.8170694 4288085770
13.069318 5.5569077 -1.7014009 4288085770
5.7273154 2.4350753 -1.8034483 4288085770
6.6743159 2.8370533 -1.7897979 4288085770
6.5553145 2.7830524 -1.786883 4288085770
15.018322 6.3558745 -1.6870881 4288085770
8.2233276 3.4720492 -1.8037547 4288085770
4.2093182 1.7741184 -1.8335061 4288085770
6.8463168 2.8830528 -1.7907045 4288085770
5.8303132 2.4520674 -1.794402 4288085770
4.8373146 2.0240965 -1.8150901 4288085770
12.99732 5.4249167 -1.7115427 4288085770
7.0443192 2.9380558 -1.7955949 4288085770
6.569314 2.7370536 -1.7869207 4288085770
15.900334 6.6178889 -1.7155846 4288085770
5.952312 2.4750633 -1.7903445 4288085770
8.2343273 3.4120493 -1.8028061 4288085770
4.2283173 1.7501193 -1.8325224 4288085770
7.2133169 2.9780502 -1.7905079 4288085770
4.8533144 1.9970969 -1.8141099 4288085770
6.1093135 2.5120656 -1.794264 4288085770
12.961324 5.3109283 -1.7236575 4288085770
16.626343 6.8048868 -1.7221962 4288085770
6.6003141 2.6980569 -1.789947 4288085770
7.4033175 3.0250475 -1.7894081 4288085770
8.2623272 3.3600519 -1.8048451 4288085770
6.241313 2.5370619 -1.7902014 4288085770
4.2583179 1.7301233 -1.8355318 4288085770
7.6143188 3.0780468 -1.7902964 4288085770
4.8693123 1.9680957 -1.8111317 4288085770
17.341343 6.9778776 -1.7228239 4288085770
12.921326 5.1939387 -1.7347758 4288085770
6.4033136 2.5710621 -1.792122 4288085770
6.6183133 2.6520572 -1.7889837 4288085770
7.8443203 3.1350479 -1.7941756 4288085770
8.2713242 3.298049 -1.800899 4288085770
4.2863169 1.7091266 -1.8375427 4288085770
19.802336 7.8748021 -1.6692679 4288085770
6.5573134 2.6010609 -1.7910484 4288085770
4.8913116 1.9410962 -1.8101499 4288085770
17.969345 7.1048608 -1.7125196 4288085770
8.0693207 3.1890452 -1.793059 4288085770
12.866328 5.0729456 -1.7419027 4288085770
6.642313 2.6090584 -1.7890158 4288085770
6.7193136 2.6320589 -1.7899716 4288085770
8.2953243 3.2430496 -1.8009419 4288085770
4.3133178 1.6871288 -1.8385547 4288085770
8.327323 3.2520471 -1.7979242 4288085770
19.653341 7.6628127 -1.6815057 4288085770
4.9193115 1.9160985 -1.8111644 4288085770
18.643343 7.238842 -1.7011949 4288085770
12.795327 4.9449496 -1.7460406 4288085770
6.8943138 2.6650577 -1.789889 4288085770
8.570323 3.3070426 -1.7958012 4288085770
6.6733122 2.5690608 -1.790043 4288085770
8.3103228 3.1850474 -1.7969903 4288085770
4.3393164 1.6651295 -1.8375672 4288085770
19.506342 7.4528213 -1.6907407 4288085770
4.9503107 1.8921005 -1.8121771 4288085770
19.393341 7.3918238 -1.6928302 4288085770
7.0703139 2.6970563 -1.7898071 4288085770
8.8253231 3.3630383 -1.7936735 4288085770
12.729326 4.8199525 -1.7491741 4288085770
6.7133131 2.5310638 -1.7930655 4288085770
9.1003237 3.4240346 -1.7925354 4288085770
7.2703147 2.7350562 -1.7917126 4288085770
4.3743167 1.6451337 -1.8405751 4288085770
8.3543224 3.1360493 -1.7990218 4288085770
4.9793105 1.8671018 -1.8121911 4288085770
19.457344 7.2798343 -1.7069128 4288085770
9.3703232 3.4790285 -1.7884042 4288085770
12.604323 4.6739497 -1.7433444 4288085770
7.4813166 2.775059 -1.7966127 4288085770
6.7493124 2.4920657 -1.7940905 4288085770
4.3953152 1.6201326 -1.8375916 4288085770
8.3843203 3.0820484 -1.7970619 4288085770
5.0183105 1.8451047 -1.8141996 4288085770
19.376347 7.0978441 -1.7191025 4288085770
9.6463213 3.53302 -1.7822721 4288085770
7.6593151 2.8010521 -1.7905357 4288085770
12.422317 4.5109377 -1.7275476 4288085770
9.9473219 3.5940142 -1.7791262 4288085770
6.7853117 2.4510677 -1.795117 4288085770
4.4333158 1.6001364 -1.8405986 4288085770
7.8823161 2.8400514 -1.7924331 4288085770
5.0483093 1.8191053 -1.8132145 4288085770
8.4103184 3.0260458 -1.7931052 4288085770
19.282349 6.9138503 -1.726298 4288085770
10.23232 3.6440017 -1.7689949 4288085770
12.367315 4.3929386 -1.7276715 4288085770
8.0703144 2.863044 -1.7853559 4288085770
6.815311 2.4090669 -1.7931464 4288085770
4.4573135 1.5751348 -1.8366144 4288085770
5.0813084 1.7941054 -1.8122275 4288085770
8.4493179 2.9750452 -1.7921399 4288085770
19.051344 6.6818466 -1.7205783 4288085770
10.551317 3.702992 -1.7618454 4288085770
8.3073149 2.9020424 -1.7862492 4288085770
12.304313 4.2749386 -1.7257975 4288085770
10.875317 3.75898 -1.7526969 4288085770
6.8643107 2.3720696 -1.7951654 4288085770
5.1153073 1.7691059 -1.8112402 4288085770
4.4993143 1.5561395 -1.8406192 4288085770
8.5023165 2.9280453 -1.7921667 4288085770
8.5523157 2.9400408 -1.7871408 4288085770
18.785337 6.4428387 -1.7088755 4288085770
11.242315 3.8259723 -1.7485256 4288085770
12.295315 4.1779423 -1.7308885 4288085770
8.8093166 2.9790397 -1.7890279 4288085770
5.1573071 1.7461077 -1.8122485 4288085770
4.5353131 1.5351409 -1.8406276 4288085770
6.9113102 2.3350711 -1.796185 4288085770
8.5533171 2.880044 -1.7901952 4288085770
18.693338 6.2668405 -1.7110631 4288085770
11.628315 3.8949618 -1.7423466 4288085770
9.1023197 3.0260417 -1.7948972 4288085770
12.334316 4.0949507 -1.7409524 4288085770
5.2063074 1.7241106 -1.8142538 4288085770
4.5603113 1.5091379 -1.8356439 4288085770
6.9513092 2.29407 -1.7942104 4288085770
12.036314 3.9659522 -1.7371593 4288085770
8.6223154 2.8370457 -1.7922136 4288085770
18.683338 6.1178465 -1.7192016 4288085770
9.3723192 3.0620372 -1.7937833 4288085770
12.315316 3.9939516 -1.7410499 4288085770
12.518315 4.0549459 -1.7379333 4288085770
5.2573075 1.7031143 -1.8172579 4288085770
4.6003108 1.48814 -1.8366512 4288085770
7.0143094 2.2610741 -1.7982215 4288085770
8.6813145 2.7890446 -1.7902396 4288085770
9.6553192 3.0980332 -1.7926654 4288085770
18.664339 5.9678488 -1.7233434 4288085770
13.003316 4.1389356 -1.7337106 4288085770
12.327315 3.9029553 -1.7451289 4288085770
5.3053069 1.681116 -1.8182636 4288085770
4.6343088 1.4651387 -1.833662 4288085770
9.9673204 3.141032 -1.7955325 4288085770
7.0593085 2.2210732 -1.7962445 4288085770
8.7563143 2.7470453 -1.7912552 4288085770
13.460314 4.2099199 -1.7235086 4288085770
18.693338 5.8318529 -1.730458 4288085770
10.308322 3.1870308 -1.7993878 4288085770
5.3533068 1.6581168 -1.8182701 4288085770
12.372317 3.8209608 -1.7521899 4288085770
4.6773086 1.4441401 -1.8336682 4288085770
13.994314 4.2969093 -1.7192686 4293729569
7.1293087 2.188077 -1.8002535 4288085770
8.8353138 2.7050455 -1.7922697 4288085770
18.708338 5.6938548 -1.7345788 4288085770
10.680326 3.239032 -1.8062284 4288085770
5.4053063 1.6351178 -1.8182755 4288085770
14.697318 4.4289079 -1.7289368 4293729569
12.421317 3.7409656 -1.7582476 4288085770
4.724309 1.4241426 -1.8356725 4288085770
7.1803069 2.1490757 -1.7982734 4288085770
8.9483156 2.6720505 -1.7982657 4288085770
10.990324 3.2670226 -1.8001096 4288085770
18.844343 5.5898623 -1.746632 4288085770
15.521326 4.5869102 -1.7465447 4288085770
5.4673061 1.615121 -1.8212752 4288085770
12.48232 3.6649709 -1.7652984 4288085770
4.7663069 1.4021432 -1.8346801 4288085770
7.2483072 2.1150765 -1.7992841 4288085770
11.321323 3.2970142 -1.7959826 4288085770
9.0343151 2.6300488 -1.7972778 4288085770
16.374336 4.7439108 -1.7621448 4288085770
18.963343 5.4808679 -1.7566949 4288085770
5.534307 1.5961251 -1.8252723 4288085770
4.8123059 1.3811433 -1.8336854 4288085770
12.574322 3.5959783 -1.7753332 4288085770
11.686323 3.3330083 -1.7948399 4288085770
17.186338 4.8779006 -1.7647783 4288085770
7.3043051 2.0760751 -1.7963028 4288085770
9.1273136 2.5890484 -1.7972871 4288085770
19.112347 5.3788729 -1.7667423 4288085770
5.5913062 1.5731249 -1.8242761 4288085770
12.063323 3.3680012 -1.7926943 4288085770
4.8633056 1.3611444 -1.8336884 4288085770
12.665322 3.5259838 -1.7833692 4288085770
18.062342 5.0208902 -1.7693839 4288085770
7.3773041 2.0420759 -1.7973118 4288085770
9.2193108 2.5470464 -1.7952975 4288085770
19.305349 5.2868786 -1.7787673 4288085770
5.6593065 1.552128 -1.8272748 4288085770
12.468324 3.4039941 -1.7915395 4288085770
18.958344 5.1558743 -1.7679911 4288085770
4.8973031 1.3351403 -1.8277017 4288085770
12.745323 3.4519877 -1.7894124 4288085770
7.4673047 2.0110788 -1.8013128 4288085770
9.3303118 2.5090463 -1.7962987 4288085770
12.889323 3.4379857 -1.7893815 4288085770
5.7353067 1.5341311 -1.8302683 4288085770
19.552353 5.2078876 -1.7947644 4288085770
4.9693036 1.3191462 -1.8336947 4288085770
12.862327 3.3859937 -1.7984368 4288085770
7.5343032 1.9730767 -1.7983271 4288085770
9.4403105 2.4690442 -1.7953017 4288085770
13.412328 3.4939852 -1.7981727 4288085770
5.7993054 1.5101305 -1.8292711 4288085770
19.868359 5.1408963 -1.8127295 4288085770
5.0243034 1.2981472 -1.8336973 4288085770
12.972325 3.316998 -1.8054662 4288085770
13.945331 3.5449822 -1.8049655 4288085770
7.654305 1.9490834 -1.8073128 4288085770
9.5813103 2.4370463 -1.7992883 4288085770
5.8823061 1.4921342 -1.8332623 4288085770
5.0743012 1.2761453 -1.8307023 4288085770
13.091328 3.2510026 -1.8124902 4288085770
3.9792852 0.99413031 -1.7922888 4288085770
14.469331 3.5869761 -1.8077692 4288085770
4.1182952 1.0271547 -1.8232169 4288085770
4.1942954 1.0451545 -1.8241777 4288085770
4.0673022 1.0131756 -1.8462451 4288085770
4.272296 1.0621541 -1.8251388 4288085770
9.7213097 2.4020457 -1.8002778 4288085770
7.727303 1.9100801 -1.8033262 4288085770
4.3552976 1.0801547 -1.8270975 4288085770
4.4382977 1.0981535 -1.8270561 4288085770
5.962306 1.4711363 -1.8352574 4288085770
4.526298 1.1161531 -1.8280131 4288085770
4.1802959 1.0311573 -1.8261948 4288085770
4.6132975 1.1341518 -1.8279705 4288085770
4.2642965 1.045157 -1.8271567 4288085770
4.7012978 1.1511488 -1.8259284 4288085770
5.1383014 1.2571467 -1.8317004 4288085770
4.8052988 1.1711502 -1.828879 4288085770
4.356298 1.0611585 -1.8301145 4288085770
15.103335 3.6469767 -1.8205231 4288085770
4.8952985 1.1871461 -1.8258374 4288085770
13.210328 3.1800048 -1.8175185 4288085770
4.4482985 1.076159 -1.8320731 4288085770
5.000298 1.2071447 -1.8257875 4288085770
9.8723097 2.3680458 -1.802263 4288085770
7.8173018 1.876079 -1.80233 4288085770
6.0403056 1.4501364 -1.8352531 4288085770
4.5442991 1.0921596 -1.8340296 4288085770
5.106298 1.2251425 -1.8247392 4288085770
5.2092977 1.2421378 -1.8206927 4288085770
4.6352992 1.1061577 -1.8329895 4288085770
5.1932993 1.235145 -1.828704 4288085770
5.329298 1.2631377 -1.8226374 4288085770
4.7402997 1.1221581 -1.8349433 4288085770
15.631336 3.6749647 -1.8173381 4288085770
5.454299 1.2841368 -1.8235807 4288085770
4.8212972 1.1311502 -1.8269109 4288085770
13.297327 3.1030023 -1.8165618 4288085770
5.5963006 1.3081391 -1.828516 4288085770
6.1233044 1.4291363 -1.8352472 4288085770
10.011309 2.3300431 -1.8012556 4288085770
7.9403028 1.8490822 -1.8073174 4288085770
4.9212966 1.1451474 -1.8248678 4288085770
5.7433019 1.3321404 -1.8324498 4288085770
5.2512975 1.2131431 -1.8257065 4288085770
5.0362973 1.1611487 -1.8278185 4288085770
5.8773012 1.352137 -1.8303913 4288085770
16.095333 3.6809452 -1.8041923 4288085770
6.0253024 1.3741366 -1.8323267 4288085770
5.1532979 1.1761481 -1.8287697 4288085770
13.404325 3.0290015 -1.8175967 4288085770
6.2083039 1.4081373 -1.8362405 4288085770
10.172308 2.296041 -1.8012377 4288085770
6.176302 1.3961335 -1.8312612 4288085770
8.0483036 1.8160826 -1.8083146 4288085770
5.2592969 1.1881424 -1.8237268 4288085770
5.3292985 1.1951468 -1.8296995 4288085770
6.3233013 1.4151282 -1.8271996 4288085770
5.3912973 1.2051432 -1.8266717 4288085770
16.578329 3.6849251 -1.7910427 4288085770
6.5073028 1.4421296 -1.8321193 4288085770
5.5172977 1.2201416 -1.82662 4288085770
6.3093047 1.3901395 -1.8392265 4288085770
13.524324 2.9579999 -1.8186245 4288085770
6.6643019 1.461123 -1.8270549 4288085770
10.366309 2.2670426 -1.8062055 4288085770
8.1863041 1.7900863 -1.8142966 4288085770
5.6612988 1.2361426 -1.8295621 4288085770
5.3952966 1.1741455 -1.8276985 4288085770
6.8312998 1.4811163 -1.8219862 4288085770
17.098326 3.687906 -1.7798826 4288085770
5.8193002 1.2561445 -1.834496 4288085770
6.9972987 1.4991087 -1.8159199 4288085770
6.3963027 1.3671374 -1.8372211 4288085770
5.965301 1.2711434 -1.8354384 4288085770
10.565309 2.2360423 -1.8091733 4288085770
13.682325 2.8920016 -1.8236363 4288085770
8.3243036 1.7610885 -1.8182812 4288085770
7.2092996 1.5261073 -1.8178314 4288085770
5.457294 1.1521416 -1.8226999 4288085770
17.732327 3.7078912 -1.7766726 4288085770
6.1243014 1.2871423 -1.836376 4288085770
7.4112988 1.5481024 -1.8157502 4288085770
6.4913025 1.3461372 -1.8372116 4288085770
6.2853012 1.3031409 -1.8373127 4288085770
7.6212978 1.5710958 -1.8116659 4288085770
10.78431 2.2080426 -1.8131324 4288085770
8.457304 1.7300889 -1.8202692 4288085770
13.830324 2.8219995 -1.8246551 4288085770
5.5432949 1.1341443 -1.8256903 4288085770
6.446301 1.316137 -1.8352523 4288085770
18.380325 3.7238762 -1.7734619 4288085770
7.8732996 1.6000953 -1.8155637 4288085770
6.6142998 1.3301336 -1.8341889 4288085770
6.6003017 1.3271372 -1.8381958 4288085770
8.1413021 1.6300944 -1.8194553 4288085770
11.00231 2.178041 -1.8150936 4288085770
8.6053028 1.7010899 -1.8232508 4288085770
6.782299 1.3421288 -1.8311273 4288085770
5.6242938 1.1141444 -1.8256841 4288085770
13.988322 2.7539973 -1.8256687 4288085770
8.3993015 1.6560893 -1.8183538 4288085770
19.170328 3.7568672 -1.7801927 4288085770
6.954298 1.3541219 -1.8260645 4288085770
6.7043004 1.305136 -1.8371844 4288085770
8.7063046 1.6900893 -1.8242301 4288085770
11.22531 2.1460373 -1.815055 4288085770
5.7112932 1.0951442 -1.825675 4288085770
7.1442976 1.3671182 -1.8249953 4288085770
8.766304 1.6740919 -1.8282266 4288085770
9.0443068 1.7260913 -1.8330953 4288085770
14.202322 2.6929979 -1.830659 4288085770
6.8102994 1.2841334 -1.8351713 4288085770
7.3522968 1.382115 -1.8249186 4288085770
9.3303061 1.7500814 -1.826987 4288085770
5.8112936 1.0781473 -1.8296603 4288085770
11.463308 2.1150341 -1.8160111 4288085770
9.6443043 1.7760733 -1.8238685 4288085770
7.5652971 1.3951118 -1.8248426 4288085770
8.9553051 1.6490965 -1.8361918 4288085770
14.434323 2.6339984 -1.836642 4288085770
6.9102969 1.2601285 -1.8301629 4288085770
9.9843044 1.8040657 -1.8217403 4288085770
7.8072987 1.4121104 -1.8277539 4288085770
5.9002924 1.0581462 -1.8286515 4288085770
11.715308 2.0840297 -1.8159628 4288085770
9.108305 1.6170945 -1.8361746 4288085770
10.367304 1.836059 -1.8215953 4288085770
8.0582991 1.4281089 -1.8306636 4288085770
7.0192947 1.2381243 -1.8261501 4288085770
14.753327 2.5870049 -1.8515878 4288085770
10.767305 1.8680519 -1.8214452 4288085770
8.3283014 1.4441079 -1.8345673 4288085770
6.0112929 1.041149 -1.8326334 4288085770
11.985307 2.0530252 -1.815909 4288085770
9.2883053 1.5870938 -1.8381473 4288085770
7.1492944 1.2181228 -1.8261288 4288085770
11.179305 1.8970418 -1.8182942 4288085770
8.610302 1.4601059 -1.8374674 4288085770
15.017328 2.526005 -1.857563 4288085770
6.1132917 1.0211475 -1.8316208 4288085770
11.622304 1.9290317 -1.8161311 4288085770
8.9073038 1.4751042 -1.8413639 4288085770
12.286306 2.0240204 -1.816844 4288085770
9.4673042 1.5550911 -1.838122 4288085770
7.2892933 1.1981213 -1.8261045 4288085770
12.096302 1.9600195 -1.8119594 4288085770
15.304328 2.4660034 -1.8625301 4288085770
9.169301 1.4820938 -1.8342783 4288085770
6.216291 1.0021461 -1.8306069 4288085770
12.602306 1.9960152 -1.8177736 4288085770
12.609303 1.993008 -1.8097742 4288085770
7.4222918 1.1771172 -1.8230834 4288085770
9.662303 1.525089 -1.8390901 4288085770
9.4953022 1.4970914 -1.8381659 4288085770
6.3282905 0.98314518 -1.8305901 4288085770
15.577327 2.4009984 -1.8635061 4288085770
13.190304 2.0319996 -1.8125628 4288085770
9.808301 1.5050832 -1.8350641 4288085770
7.5692902 1.1571146 -1.8220569 4288085770
12.982307 1.973013 -1.8236792 4288085770
9.8623037 1.4930857 -1.8390584 4288085770
13.853307 2.0759914 -1.8173221 4288085770
10.163301 1.5160776 -1.8359464 4288085770
6.4552903 0.9651466 -1.8335681 4288085770
15.878326 2.3369939 -1.8654726 4288085770
7.7572908 1.1411161 -1.8270144 4288085770
14.676313 2.1379914 -1.8360165 4288085770
13.381308 1.9500085 -1.827579 4288085770
10.532301 1.5270717 -1.8368245 4288085770
10.088302 1.4630836 -1.841017 4288085770
6.5732889 0.94514459 -1.8325505 4288085770
15.594322 2.2059932 -1.8586768 4288085770
7.9542928 1.1261184 -1.8329684 4288085770
16.181328 2.2709873 -1.8654401 4288085770
10.936302 1.5380673 -1.8406923 4288085770
13.835309 1.9290065 -1.8354601 4288085770
10.338303 1.4350828 -1.8449664 4288085770
6.7042885 0.92714316 -1.832527 4288085770
16.36132 2.2439747 -1.8554099 4288085770
11.332302 1.5430573 -1.8375677 4288085770
8.1382923 1.1071167 -1.8339298 4288085770
4.8352776 0.65716636 -1.8163377 4288085770
16.473322 2.1989765 -1.8604164 4288085770
14.336311 1.9120044 -1.8443236 4288085770
17.061317 2.263943 -1.8351794 4288085770
10.581302 1.4050785 -1.8449199 4288085770
6.8162856 0.90513682 -1.8265132 4288085770
11.744301 1.5460467 -1.83444 4288085770
8.3392916 1.0891151 -1.8358852 4288085770
4.9202771 0.64316779 -1.8183246 4288085770
17.860312 2.2889116 -1.8179144 4293729569
14.990317 1.9090108 -1.8671278 4288085770
12.211302 1.5520382 -1.8352929 4288085770
16.798321 2.1299665 -1.8573799 4288085770
10.872301 1.3770775 -1.8498569 4288085770
6.956284 0.88513422 -1.8254888 4288085770
8.5472908 1.0711119 -1.8358383 4288085770
5.0002766 0.62816757 -1.818314 4288085770
18.859312 2.3308871 -1.8135734 4288085770
12.711302 1.556029 -1.8361375 4288085770
15.634322 1.8970101 -1.8819431 4288085770
7.0862823 0.86412835 -1.8204683 4288085770
11.183302 1.3490758 -1.8547878 4288085770
17.120314 2.0549524 -1.8493497 4288085770
8.7952938 1.0561126 -1.8417766 4288085770
5.0912766 0.6141696 -1.8212991 4288085770
13.336306 1.5700283 -1.8499352 4288085770
7.2512817 0.84612775 -1.8224347 4288085770
5.5882745 0.65515244 -1.8121115 4288085770
5.8672748 0.68714583 -1.8109978 4288085770
5.7312756 0.6711511 -1.8140537 4288085770
5.4632745 0.64015681 -1.814163 4288085770
16.236322 1.8750007 -1.8857801 4288085770
6.0252771 0.70414603 -1.8149346 4288085770
5.3522754 0.62616253 -1.8182092 4288085770
6.1862769 0.72114277 -1.8148705 4288085770
5.231276 0.61016607 -1.8192605 4288085770
6.349277 0.73713875 -1.8138067 4288085770
4.8742747 0.56817341 -1.8194067 4288085770
5.1282763 0.59617078 -1.8223044 4288085770
4.9792747 0.57917041 -1.8183647 4288085770
11.467301 1.3160695 -1.8537314 4288085770
6.5492797 0.75714076 -1.8207278 4288085770
8.9972887 1.0341041 -1.8357353 4288085770
5.1102772 0.59317291 -1.8243124 4288085770
5.1842766 0.60017073 -1.8232837 4288085770
5.2292776 0.60517061 -1.8242656 4288085770
4.9952741 0.57816678 -1.814361 4288085770
6.730279 0.7731362 -1.8196585 4288085770
5.3572779 0.61716807 -1.8242159 4288085770
17.501312 1.9829389 -1.8442988 4288085770
4.8972745 0.56417155 -1.8174032 4288085770
6.9172788 0.79013085 -1.8175864 4288085770
5.4752765 0.62816232 -1.82017 4288085770
14.009308 1.5820258 -1.8627201 4288085770
5.6002755 0.63915724 -1.8171223 4288085770
7.1142783 0.80712599 -1.8165115 4288085770
5.732275 0.64915216 -1.8140733 4288085770
7.3332796 0.82512242 -1.8174287 4288085770
5.890276 0.66215247 -1.8180137 4288085770
7.4262819 0.82912678 -1.824397 4288085770
7.5722804 0.84411949 -1.819339 4288085770
6.0492764 0.67415023 -1.8189546 4288085770
16.783318 1.840982 -1.8776447 4288085770
7.8142805 0.86211467 -1.8192494 4288085770
9.2352886 1.0150981 -1.8336803 4288085770
5.2762766 0.58516997 -1.8232694 4288085770
6.2242785 0.68715036 -1.8228897 4288085770
11.786301 1.2830622 -1.8526645 4288085770
8.0832825 0.88211095 -1.8211497 4288085770
6.3782763 0.69714218 -1.816834 4288085770
14.850318 1.6040331 -1.891445 4288085770
8.3362818 0.8981024 -1.8170586 4288085770
6.5552759 0.70813775 -1.8157704 4288085770
17.961309 1.9159278 -1.8432196 4288085770
8.6642828 0.92210263 -1.8249373 4288085770
7.6172819 0.81212634 -1.8273543 4288085770
6.7592778 0.72113824 -1.8206967 4288085770
9.5342903 1.0010985 -1.8406022 4288085770
5.3742752 0.57016909 -1.8232532 4288085770
8.9922848 0.94309872 -1.8278189 4288085770
6.9432769 0.7301321 -1.8176329 4288085770
17.343313 1.8029574 -1.8635089 4288085770
15.57032 1.6050239 -1.8982254 4288085770
12.119298 1.2500539 -1.8505931 4288085770
7.1422763 0.74112642 -1.8155625 4288085770
9.3012829 0.96008891 -1.82371 4288085770
7.3612761 0.75112218 -1.8154871 4288085770
9.7042866 0.98508841 -1.8325648 4288085770
7.7862792 0.7921201 -1.8233212 4288085770
18.541311 1.8559214 -1.8510973 4288085770
5.4592729 0.55416417 -1.818242 4288085770
9.8252888 0.98409468 -1.8425292 4288085770
7.6202784 0.76412302 -1.8223968 4288085770
10.092287 1.0070814 -1.8334273 4288085770
18.028311 1.7719352 -1.8553287 4288085770
16.290321 1.5980099 -1.9000131 4288085770
7.849278 0.77311504 -1.8183192 4288085770
10.54329 1.031078 -1.8402687 4288085770
12.525298 1.2200496 -1.8554968 4288085770
7.9922795 0.77411842 -1.8252748 4288085770
8.1182785 0.7841115 -1.8202276 4288085770
11.045293 1.0580753 -1.8490919 4288085770
5.557272 0.53816152 -1.8162268 4288085770
10.132288 0.96608859 -1.8424522 4288085770
19.170311 1.7939129 -1.857962 4288085770
8.4232798 0.79611033 -1.8261243 4288085770
11.515293 1.0780628 -1.8459314 4288085770
16.892313 1.5719801 -1.8808537 4288085770
18.974314 1.7589247 -1.8670529 4288085770
8.6942797 0.80310071 -1.8210357 4288085770
12.9853 1.192047 -1.8633822 4288085770
8.2112808 0.75611621 -1.8272246 4288085770
12.031292 1.1000509 -1.8447548 4288085770
5.6672707 0.52416021 -1.8162061 4288085770
4.9662719 0.4591805 -1.8224776 4288085770
10.49129 0.95108658 -1.8483566 4288085770
9.0662832 0.8161034 -1.832911 4288085770
12.627293 1.125041 -1.8475512 4288085770
17.572308 1.5439527 -1.8666723 4288085770
19.83931 1.7308991 -1.8598155 4288085770
19.820312 1.7248995 -1.8598266 4288085770
9.37428 0.82209194 -1.826812 4288085770
8.4292793 0.73711145 -1.8261756 4288085770
13.3733 1.1590387 -1.863294 4288085770
5.7822704 0.50915885 -1.8161848 4288085770
13.513303 1.166046 -1.8752453 4288085770
5.0702724 0.44618282 -1.8264577 4288085770
10.879291 0.93708295 -1.8532516 4288085770
9.766283 0.83308977 -1.8336831 4288085770
14.212305 1.1960379 -1.8830059 4288085770
18.475307 1.5269343 -1.8684132 4288085770
10.136281 0.83908033 -1.8315653 4288085770
5.9122705 0.4951596 -1.8191581 4288085770
8.6512766 0.71710545 -1.8241261 4288085770
5.1652708 0.43218103 -1.8254417 4288085770
15.187315 1.2390399 -1.9096711 4288085770
11.289291 0.9220795 -1.8591404 4288085770
14.098306 1.1400454 -1.8890909 4288085770
10.602285 0.85007989 -1.8424139 4288085770
16.115318 1.2700255 -1.9163612 4288085770
6.0272694 0.48015633 -1.8171366 4288085770
8.9442797 0.70210671 -1.8320507 4288085770
19.429308 1.5029128 -1.8681448 4288085770
5.2702713 0.41818067 -1.8264225 4288085770
11.693291 0.9040693 -1.8570338 4288085770
11.079286 0.85707408 -1.8472627 4288085770
16.880312 1.2839912 -1.8961163 4288085770
14.809312 1.1180494 -1.9118947 4288085770
11.573288 0.86306602 -1.8501072 4288085770
6.1532679 0.46415195 -1.8141129 4288085770
9.2452793 0.68510497 -1.8369746 4288085770
5.3702698 0.40417778 -1.8244048 4288085770
17.766304 1.2999561 -1.8778325 4288085770
12.126288 0.88605833 -1.8549186 4288085770
12.064286 0.86505276 -1.8469563 4288085770
18.950304 1.3299304 -1.8784457 4288085770
15.521316 1.0900462 -1.9267033 4288085770
6.2912669 0.45014974 -1.8140836 4288085770
5.4812689 0.39117637 -1.8243829 4288085770
9.5702801 0.66710359 -1.8428922 4288085770
12.612289 0.86804593 -1.852787 4288085770
12.592284 0.86503774 -1.8427958 4288085770
6.4492669 0.43614981 -1.8170483 4288085770
5.5842671 0.37617165 -1.820365 4288085770
13.258287 0.86902994 -1.8505899 4288085770
16.111313 1.0480278 -1.9205619 4288085770
9.8852806 0.6480971 -1.8428135 4288085770
13.207289 0.85503972 -1.8606179 4288085770
6.600266 0.4211472 -1.817016 4288085770
14.010291 0.8730244 -1.8633575 4288085770
5.6942644 0.36216664 -1.8163443 4288085770
10.21528 0.62808836 -1.8407313 4288085770
13.869291 0.84103179 -1.8684293 4288085770
16.699305 1.0010014 -1.9054254 4288085770
14.936297 0.88202512 -1.8880681 4288085770
6.7702661 0.40614507 -1.8179778 4288085770
5.8262653 0.3491663 -1.818316 4288085770
10.621281 0.61108565 -1.8476232 4288085770
14.713298 0.83503264 -1.891178 4288085770
15.801299 0.87901145 -1.8948078 4288085770
6.9382653 0.39114118 -1.8169403 4288085770
17.333302 0.95297259 -1.8892757 4288085770
5.9732652 0.33616731 -1.822283 4288085770
11.072281 0.59408265 -1.8555013 4288085770
15.583302 0.82502651 -1.9069225 4288085770
16.651299 0.86798853 -1.8905593 4288085770
7.1182647 0.37713781 -1.8168985 4288085770
6.0982642 0.32116184 -1.8182586 4288085770
18.158297 0.90794897 -1.8840653 4288085770
11.510282 0.57407475 -1.8573862 4288085770
16.375299 0.80600393 -1.9016987 4288085770
17.455294 0.84795433 -1.8723328 4288085770
7.3172636 0.36213478 -1.8178513 4288085770
6.2522631 0.30816087 -1.8202236 4288085770
12.001282 0.55506641 -1.8602539 4288085770
17.140295 0.78297061 -1.8834869 4288085770
19.226299 0.86793244 -1.8937762 4288085770
7.5362644 0.34813386 -1.8217974 4288085770
18.567293 0.83393115 -1.8750072 4288085770
6.4052629 0.29415727 -1.8191898 4288085770
12.478278 0.53305036 -1.8541287 4288085770
18.148293 0.76594543 -1.8811955 4288085770
7.7512636 0.33312953 -1.8217454 4288085770
19.773291 0.81390196 -1.8736583 4288085770
6.5772629 0.28115574 -1.8211491 4288085770
13.052278 0.51303899 -1.8559722 4288085770
19.437294 0.75492382 -1.8908135 4288085770
7.9852633 0.31912464 -1.821687 4288085770
6.7452617 0.26815161 -1.8201098 4288085770
8.2632647 0.30512476 -1.8286151 4288085770
13.684278 0.49202523 -1.8567986 4288085770
6.9272614 0.25414804 -1.8200672 4288085770
11.45727 0.39605704 -1.8345621 4288085770
10.893265 0.37706158 -1.8247508 4288085770
12.011269 0.41304591 -1.8363783 4288085770
10.418264 0.36006913 -1.8209105 4288085770
12.580269 0.42902932 -1.8321911 4288085770
9.9882622 0.34307739 -1.8190563 4288085770
13.291271 0.44901976 -1.8399569 4288085770
9.6052637 0.32808802 -1.8211864 4288085770
8.5232639 0.29011834 -1.8275495 4288085770
14.034272 0.46700421 -1.8417147 4288085770
9.2512646 0.31209713 -1.8223083 4288085770
7.1152596 0.24114338 -1.8190217 4288085770
15.00528 0.48999879 -1.8613989 4288085770
14.442279 0.47201452 -1.8645862 4288085770
8.9082632 0.29610354 -1.8204271 4288085770
