# .PCD v0.7 - Point Cloud Data file format
VERSION 0.7
FIELDS x y z rgb
SIZE 4 4 4 4
TYPE F F F U
COUNT 1 1 1 1
WIDTH 1133
HEIGHT 1
VIEWPOINT 0 0 0 1 0 0 0
POINTS 1133
DATA ascii
6.4567027 -1.2556752 -1.8347746 4288085770
10.479796 -2.0582514 -1.5859177 4293729569
9.1307554 -1.7904129 -1.8418698 4288085770
17.007921 -3.4086249 -1.7161489 4293729569
5.4746861 -1.0787719 -1.8337393 4288085770
8.4757452 -1.6894795 -1.8548459 4288085770
9.8157816 -1.9643296 -1.6888932 4293729569
10.296795 -2.0662746 -1.6209103 4293729569
8.933753 -1.7904352 -1.8588619 4288085770
16.547916 -3.370672 -1.713131 4293729569
6.3577051 -1.2766857 -1.8347706 4288085770
10.095794 -2.069299 -1.6509022 4293729569
8.7267532 -1.7874582 -1.8728538 4282675967
16.354916 -3.3816926 -1.7131226 4293729569
5.3956881 -1.0977806 -1.8327361 4288085770
8.4037476 -1.7324896 -1.866842 4282675967
9.6527843 -1.9973478 -1.6918859 4293729569
6.2547078 -1.2946967 -1.8327661 4288085770
9.876792 -2.0653248 -1.6768934 4293729569
8.5097513 -1.7784814 -1.8808453 4282675967
10.560841 -2.2171953 -1.106917 4293729569
10.645885 -2.2471049 -0.36291984 4293729569
10.518839 -2.2312047 -1.150915 4293729569
10.587872 -2.2511432 -0.65091741 4293729569
5.3296905 -1.1187879 -1.8357335 4288085770
9.6227894 -2.0503526 -1.6938835 4293729569
10.603889 -2.2671084 -0.34791762 4293729569
10.534874 -2.2531443 -0.61191523 4293729569
8.3067513 -1.7705013 -1.8718375 4282675967
8.2547503 -1.7595071 -1.8798357 4282675967
9.5027876 -2.0323648 -1.6948792 4293729569
6.1657095 -1.3157064 -1.8327624 4288085770
10.453846 -2.2712073 -1.0989115 4293729569
9.3637867 -2.0323806 -1.7068737 4293729569
10.522893 -2.2941172 -0.33791372 4293729569
7.9947481 -1.7365328 -1.8738258 4282675967
10.429843 -2.2782192 -1.1839105 4293729569
10.480872 -2.2931592 -0.68591213 4293729569
5.2586918 -1.1377956 -1.8347307 4288085770
10.498896 -2.3201232 -0.36091214 4293729569
8.1377544 -1.791518 -1.8588305 4288085770
9.3557901 -2.0653811 -1.6958725 4293729569
10.464879 -2.3151538 -0.60991096 4293729569
9.0917826 -2.0084093 -1.7168635 4293729569
6.0827117 -1.3367153 -1.8337591 4288085770
7.7247462 -1.7085587 -1.862816 4282675967
10.426853 -2.3422122 -1.0989088 4293729569
10.410845 -2.3402281 -1.2239082 4293729569
10.481902 -2.3581212 -0.31591058 4293729569
10.439878 -2.3491702 -0.72390914 4293729569
8.8427811 -1.9864355 -1.7268541 4293729569
5.1916943 -1.1578029 -1.8357279 4288085770
7.5197444 -1.6925796 -1.8648083 4282675967
7.9087572 -1.7965387 -1.8308213 4288085770
9.2107944 -2.098397 -1.6958661 4293729569
10.464901 -2.3891308 -0.3769092 4293729569
5.9997144 -1.3577245 -1.8337556 4288085770
10.442887 -2.3871586 -0.6099084 4293729569
8.5607786 -1.9554642 -1.7288436 4293729569
7.3067431 -1.6726011 -1.8628005 4282675967
10.39085 -2.4012361 -1.265906 4293729569
10.43288 -2.4121776 -0.76590747 4293729569
10.482911 -2.4321215 -0.29290888 4293729569
10.401861 -2.4132173 -1.0979062 4293729569
8.2887754 -1.9224914 -1.7278336 4293729569
7.1037412 -1.6536213 -1.8607929 4282675967
5.9217162 -1.3787328 -1.8337525 4288085770
7.6727586 -1.7965597 -1.7988123 4288085770
9.089797 -2.1344109 -1.6988605 4293729569
10.477909 -2.4681346 -0.39590785 4293729569
10.476895 -2.4731579 -0.61190772 4293729569
8.0907726 -1.9055132 -1.7418263 4293729569
10.459885 -2.4831817 -0.81190687 4293729569
10.406853 -2.4712422 -1.3129051 4293729569
6.9167395 -1.6346399 -1.8607861 4282675967
10.53592 -2.5161159 -0.27090904 4293729569
10.47487 -2.5072131 -1.1059068 4293729569
7.8467703 -1.8745373 -1.7418175 4293729569
5.8487191 -1.3997409 -1.8347495 4288085770
6.7177382 -1.6126592 -1.8557789 4288085770
8.948801 -2.1644263 -1.6968546 4293729569
7.4497604 -1.7975793 -1.7688036 4288085770
7.6157665 -1.8455606 -1.7428093 4293729569
10.460858 -2.5492446 -1.3669053 4293729569
6.5447364 -1.5936766 -1.8547727 4288085770
7.4047647 -1.819582 -1.7458017 4293729569
5.776721 -1.4217486 -1.8337466 4288085770
6.3807344 -1.5756928 -1.8547668 4288085770
8.8608036 -2.2064371 -1.7028502 4293729569
7.2597632 -1.8035963 -1.7437962 4293729569
12.495893 -3.1300852 -1.6849722 4293729569
7.2517619 -1.8045987 -1.759796 4288085770
6.2107329 -1.5547094 -1.8517609 4288085770
7.1497607 -1.8026119 -1.7857922 4288085770
5.7057228 -1.4417562 -1.8337438 4288085770
12.002889 -3.0781341 -1.6749538 4293729569
6.0487309 -1.5347251 -1.848755 4288085770
7.0587592 -1.8016244 -1.8117888 4288085770
8.7568064 -2.2434494 -1.7048454 4293729569
7.1477661 -1.8276076 -1.7367916 4293729569
5.9087296 -1.5177392 -1.8507502 4288085770
6.9737568 -1.8006362 -1.8407855 4288085770
11.582887 -3.0401764 -1.6719383 4293729569
5.6377258 -1.4637635 -1.8327409 4288085770
5.7547278 -1.4967539 -1.845745 4288085770
6.8567553 -1.7906498 -1.8587815 4282675967
8.6568117 -2.2804608 -1.7058408 4293729569
7.0697694 -1.8586164 -1.7357882 4293729569
6.6937528 -1.7666662 -1.8617758 4282675967
5.6167269 -1.4777673 -1.84474 4288085770
11.122881 -2.9852214 -1.6609215 4293729569
6.5177503 -1.7376835 -1.8607695 4282675967
5.4757242 -1.4567807 -1.8397354 4288085770
5.5807276 -1.4867702 -1.8347387 4288085770
6.3467479 -1.7086998 -1.8577638 4288085770
8.5518131 -2.3154724 -1.7048361 4293729569
6.9907722 -1.889625 -1.7337848 4293729569
5.3587227 -1.4407924 -1.8417313 4288085770
6.1797447 -1.6787158 -1.854758 4288085770
10.845881 -2.975251 -1.6729109 4293729569
5.2407212 -1.4248041 -1.8427273 4288085770
5.5177302 -1.5077771 -1.8337363 4288085770
6.0297422 -1.6527302 -1.853753 4288085770
5.1347194 -1.4088149 -1.8457236 4288085770
8.4598188 -2.352483 -1.705832 4293729569
5.8847399 -1.6267444 -1.852748 4288085770
6.9207759 -1.9216329 -1.7337818 4293729569
10.394875 -2.9132943 -1.6578946 4293729569
5.7307377 -1.5967586 -1.8467429 4288085770
5.4657321 -1.5307827 -1.8347342 4288085770
5.5877352 -1.5687721 -1.8427382 4288085770
5.453733 -1.5427848 -1.8397336 4288085770
10.113873 -2.8943238 -1.6668842 4293729569
8.4048223 -2.3994908 -1.7128289 4293729569
6.8177781 -1.943643 -1.7237777 4293729569
5.3347311 -1.5197963 -1.8397297 4288085770
5.2207279 -1.4968071 -1.8387259 4288085770
5.4127345 -1.5537888 -1.8357321 4288085770
5.1197262 -1.4768171 -1.8417226 4288085770
9.8098688 -2.8643546 -1.6688732 4293729569
8.3318253 -2.4394999 -1.7148255 4293729569
6.7607818 -1.9776496 -1.7247751 4293729569
5.3707361 -1.5787935 -1.8387303 4288085770
9.5918655 -2.8563786 -1.6838651 4293729569
8.2728291 -2.4845073 -1.7188225 4293729569
6.6947846 -2.008657 -1.7217722 4293729569
9.361865 -2.8414028 -1.6948565 4293729569
5.3237386 -1.6027992 -1.8407284 4288085770
12.710964 -3.9160907 -1.7109617 4293729569
8.2198334 -2.5305145 -1.7228197 4293729569
6.6487885 -2.0456624 -1.72377 4293729569
9.1088619 -2.8164287 -1.6998476 4293729569
5.2797408 -1.626804 -1.8417268 4288085770
12.150954 -3.8081441 -1.7009424 4293729569
8.827858 -2.7784564 -1.6978376 4293729569
8.2018394 -2.5865188 -1.7338178 4293729569
6.5787911 -2.0746698 -1.718767 4293729569
11.626946 -3.705194 -1.6919246 4293729569
5.2407432 -1.6518086 -1.8437252 4288085770
8.6288557 -2.7634773 -1.7088305 4293729569
11.180938 -3.6232378 -1.6899092 4293729569
8.153842 -2.6345253 -1.7368153 4293729569
6.5377951 -2.111675 -1.720765 4293729569
5.2007451 -1.6758132 -1.8447238 4288085770
8.3998537 -2.7365003 -1.7138226 4293729569
10.797932 -3.5552759 -1.6928957 4293729569
8.0848484 -2.6735337 -1.7358109 4293729569
8.2488537 -2.7325184 -1.7318156 4293729569
6.5057998 -2.1516798 -1.7247623 4293729569
5.1667495 -1.702818 -1.8477213 4288085770
10.438926 -3.4903114 -1.6968812 4293729569
8.0858517 -2.7215357 -1.7458081 4288085770
8.0468521 -2.7225394 -1.7388059 4293729569
10.114922 -3.4333434 -1.7018679 4293729569
5.131753 -1.7278221 -1.8497183 4288085770
6.4488034 -2.1826859 -1.7207575 4293729569
7.9188499 -2.708554 -1.7588003 4288085770
9.7689142 -3.3643768 -1.7008544 4293729569
8.0068569 -2.7705448 -1.741801 4293729569
5.0977559 -1.7528259 -1.8507154 4288085770
7.7208471 -2.6805737 -1.7617921 4288085770
6.3758073 -2.2076929 -1.7107525 4293729569
9.4249077 -3.2914097 -1.6978413 4293729569
7.5268445 -2.6525934 -1.765784 4288085770
7.9298611 -2.8035526 -1.7347952 4293729569
9.1179028 -3.2294393 -1.6978295 4293729569
5.0657587 -1.7788296 -1.8517126 4288085770
6.3338113 -2.2416978 -1.7097486 4293729569
7.2548404 -2.5926168 -1.747774 4288085770
8.8358974 -3.1714666 -1.6978186 4293729569
7.836864 -2.8315616 -1.723789 4293729569
6.3038154 -2.2807012 -1.710745 4293729569
7.0128379 -2.5416389 -1.7357649 4293729569
8.5628929 -3.1134925 -1.6978085 4293729569
8.3058872 -3.0585175 -1.6987989 4293729569
6.8098345 -2.5016575 -1.7287574 4293729569
7.7528682 -2.8605697 -1.7147831 4293729569
6.2638192 -2.3147061 -1.7087413 4293729569
8.0558834 -3.0025408 -1.6977898 4293729569
6.6338315 -2.4696743 -1.7287506 4293729569
7.6508713 -2.8815789 -1.6997769 4293729569
7.8368788 -2.956562 -1.7007817 4293729569
6.4448285 -2.4296918 -1.7217437 4293729569
6.2308235 -2.3517096 -1.7067376 4293729569
7.6248746 -2.9095826 -1.7037739 4293729569
6.2218256 -2.3747106 -1.7037361 4293729569
7.6448765 -2.9395814 -1.7047733 4293729569
7.4478707 -2.8746002 -1.7117673 4293729569
6.1868267 -2.3837142 -1.7027339 4293729569
6.0868235 -2.3527243 -1.7087309 4293729569
7.2968678 -2.847616 -1.7247616 4293729569
7.6168818 -2.9875853 -1.7057692 4293729569
5.9388204 -2.3227382 -1.7077254 4293729569
6.1548309 -2.4197178 -1.6997306 4293729569
7.1318645 -2.8136325 -1.7317555 4293729569
5.7758183 -2.2847526 -1.70072 4293729569
6.9278603 -2.7606509 -1.7277486 4293729569
7.6048865 -3.0425882 -1.7087655 4293729569
5.5598149 -2.2227702 -1.6767131 4293729569
6.1378355 -2.4617205 -1.7017276 4293729569
6.7228556 -2.7056699 -1.7217419 4293729569
5.3378115 -2.1567876 -1.6477064 4293729569
6.5428519 -2.6586859 -1.7187359 4293729569
7.5768914 -3.0905917 -1.7067612 4293729569
6.1178393 -2.5027232 -1.7017244 4293729569
5.1908092 -2.1198003 -1.6387014 4293729569
6.3638482 -2.6087022 -1.7137303 4293729569
6.1928444 -2.5617177 -1.7097249 4293729569
5.0848069 -2.0978107 -1.6416978 4293729569
7.5678968 -3.1465943 -1.7087579 4293729569
6.1078434 -2.5467253 -1.7037216 4293729569
6.0048404 -2.505734 -1.6977191 4293729569
4.992806 -2.0798197 -1.6466947 4293729569
5.8758373 -2.4717462 -1.7007149 4293729569
7.5509019 -3.1985965 -1.7077541 4293729569
4.9068046 -2.0648286 -1.6536916 4293729569
5.6908336 -2.4127619 -1.6857095 4293729569
6.0918484 -2.5887275 -1.7027187 4293729569
4.8048019 -2.0408382 -1.6546882 4293729569
5.5028291 -2.3507774 -1.6677041 4293729569
7.5499067 -3.2555985 -1.709751 4293729569
4.7418008 -2.0318456 -1.667686 4293729569
5.2238231 -2.2467976 -1.6186968 4293729569
6.100852 -2.6407282 -1.7087165 4293729569
4.6427989 -2.0068545 -1.6666828 4293729569
5.0968204 -2.2078085 -1.6136931 4293729569
4.9708171 -2.1678193 -1.6076896 4293729569
7.542912 -3.3116004 -1.7097476 4293729569
4.537797 -1.9778637 -1.6616796 4293729569
4.8558145 -2.1308293 -1.6036863 4293729569
6.0698562 -2.6747315 -1.7037134 4293729569
4.4877954 -1.97287 -1.6766777 4293729569
4.7618122 -2.1018379 -1.6046836 4293729569
7.5439177 -3.3706019 -1.7117443 4293729569
4.4287939 -1.9618764 -1.6866759 4293729569
4.6718097 -2.0748465 -1.6056811 4293729569
6.0668612 -2.7207325 -1.704711 4293729569
4.5868073 -2.0478544 -1.6076788 4293729569
4.5098052 -2.0238614 -1.6106764 4293729569
7.5589242 -3.4356022 -1.7147416 4293729569
4.4778037 -2.0198665 -1.6286753 4293729569
4.4568028 -2.0208704 -1.6506745 4293729569
6.0578651 -2.7647343 -1.7037083 4293729569
4.4058003 -2.0058763 -1.660673 4293729569
4.3537993 -1.9908822 -1.6696714 4293729569
7.5589294 -3.4936032 -1.7147384 4293729569
6.0488691 -2.8077359 -1.7027057 4293729569
7.5809345 -3.5616026 -1.7177358 4293729569
6.0288739 -2.8457379 -1.697703 4293729569
7.5869403 -3.6226034 -1.7177328 4293729569
6.0278778 -2.8917389 -1.6977006 4293729569
7.6019464 -3.6886032 -1.7177298 4293729569
6.0558829 -2.9527378 -1.7046989 4293729569
7.6269522 -3.7586029 -1.7197274 4288085770
6.0748878 -3.0087376 -1.7086968 4293729569
4.1848106 -2.0688958 -1.6416615 4293729569
7.6429586 -3.822602 -1.7187245 4288085770
6.0768919 -3.0567379 -1.7076946 4293729569
4.1718135 -2.0878966 -1.6366602 4293729569
7.6719646 -3.8936012 -1.7207222 4288085770
4.1618156 -2.1078973 -1.6306591 4293729569
4.5648584 -2.3198278 -1.2846661 4293729569
7.7079706 -3.9695992 -1.7227199 4288085770
4.1528187 -2.1268978 -1.625658 4293729569
4.477859 -2.3078334 -1.2586631 4293729569
4.5258803 -2.3458052 -1.0146633 4293729569
4.1518211 -2.1498978 -1.6226571 4293729569
4.5298848 -2.3608 -0.95966285 4293729569
4.4278622 -2.3148367 -1.2416608 4293729569
4.5749021 -2.3967764 -0.76366311 4293729569
4.1288228 -2.1618986 -1.6106558 4293729569
4.463881 -2.3448093 -0.99666095 4293729569
4.4738836 -2.3558064 -0.97366095 4293729569
4.4858994 -2.370786 -0.77366072 4293729569
4.1328254 -2.1858985 -1.6086549 4293729569
4.3988643 -2.3308384 -1.2306589 4293729569
4.4318833 -2.3578122 -0.98965931 4293729569
4.4238834 -2.3548121 -0.98365909 4293729569
4.4448986 -2.3707912 -0.79065919 4293729569
4.1268282 -2.2048984 -1.6016539 4293729569
4.4088836 -2.3688161 -1.0106578 4293729569
4.3758674 -2.3508401 -1.2206573 4293729569
4.4218979 -2.3787956 -0.81065798 4293729569
4.4038863 -2.3748136 -0.97465754 4293729569
4.4859495 -2.4217231 -0.12865856 4293729569
4.1158299 -2.218899 -1.592653 4293729569
4.3868828 -2.3798203 -1.0306566 4293729569
4.4058976 -2.3907998 -0.83265692 4293729569
4.3548703 -2.3698409 -1.2106557 4293729569
4.444952 -2.4217238 -0.09165699 4293729569
4.1148324 -2.2388985 -1.5866523 4293729569
4.379889 -2.3918149 -0.96365589 4293729569
4.4229484 -2.4177308 -0.14265634 4293729569
4.3928981 -2.4028029 -0.85365587 4293729569
4.3738832 -2.3948243 -1.0536555 4293729569
4.1228352 -2.2638977 -1.5836514 4293729569
4.397954 -2.4227266 -0.073655188 4293729569
4.3738976 -2.4108071 -0.87465489 4293729569
4.3498735 -2.3988414 -1.2046546 4293729569
4.3628831 -2.4098277 -1.0766546 4293729569
4.3628922 -2.4118159 -0.95365447 4293729569
4.3849487 -2.4257362 -0.15765458 4293729569
4.1238379 -2.282897 -1.5766509 4293729569
4.3668976 -2.4258101 -0.89765406 4293729569
4.3779569 -2.4377272 -0.056653839 4293729569
4.3518829 -2.4248314 -1.0996536 4293729569
4.3368764 -2.4218423 -1.1966531 4293729569
4.1188397 -2.2978969 -1.56765 4293729569
4.3518949 -2.4348161 -0.94465309 4293729569
4.3528967 -2.4358139 -0.91865307 4293729569
4.3699498 -2.4467397 -0.17365319 4293729569
4.3398824 -2.4388347 -1.1216524 4293729569
4.1248431 -2.3188963 -1.5616494 4293729569
4.3589602 -2.453728 -0.038652487 4293729569
4.3468971 -2.4488168 -0.94165236 4293729569
4.3328791 -2.4498425 -1.1906518 4293729569
4.3468986 -2.4608166 -0.93765193 4293729569
4.3439503 -2.4607439 -0.18865167 4293729569
4.3408837 -2.4598377 -1.1476517 4293729569
4.1348448 -2.3418949 -1.556649 4293729569
4.3438964 -2.4628198 -0.96465176 4293729569
4.3419628 -2.4687285 -0.022651263 4293729569
4.3428965 -2.4768221 -0.98765111 4293729569
4.1508474 -2.3668938 -1.5536486 4293729569
4.3338842 -2.4748409 -1.1716508 4293729569
4.3368826 -2.4808421 -1.1856506 4293729569
4.338901 -2.4848166 -0.92865068 4293729569
4.3329515 -2.4817472 -0.20465043 4293729569
4.3338966 -2.4868252 -1.0096503 4293729569
4.3269658 -2.4837284 -0.004650115 4293729569
4.1658506 -2.3908918 -1.5486481 4293729569
4.3338833 -2.4928434 -1.1976501 4293729569
4.3298955 -2.4978278 -1.0316497 4293729569
4.1778531 -2.4118905 -1.5426477 4293729569
4.3378868 -2.5108418 -1.1796495 4293729569
4.342905 -2.5148163 -0.92164958 4293729569
4.3289533 -2.5077498 -0.22164927 4293729569
4.3348837 -2.5118461 -1.2226495 4293729569
4.3358955 -2.5158303 -1.0566493 4293729569
4.1908555 -2.4338889 -1.5366472 4293729569
4.3468957 -2.5338318 -1.0836488 4293729569
4.3458834 -2.5348482 -1.2516489 4293729569
4.3059688 -2.5137317 -0.012648168 4293729569
4.1968575 -2.4498878 -1.526647 4293729569
4.3628907 -2.5538399 -1.1796488 4293729569
4.3549085 -2.5498149 -0.91564864 4293729569
4.3239546 -2.5317526 -0.23864812 4293729569
4.3518944 -2.5488341 -1.1076485 4293729569
4.2258596 -2.4778848 -1.5246468 4293729569
4.3918848 -2.5798485 -1.2906488 4293729569
4.3698945 -2.5708356 -1.1356483 4293729569
4.2808633 -2.5218809 -1.530647 4293729569
4.3029695 -2.5377343 -0.028647117 4293729569
4.4518967 -2.629833 -1.1796489 4293729569
4.3929133 -2.5988126 -0.91564804 4293729569
4.3578672 -2.5778761 -1.5436476 4293729569
4.3329558 -2.5637538 -0.25564715 4293729569
6.4159594 -3.8197193 -1.7166722 4288085770
6.374958 -3.8007228 -1.7166713 4288085770
4.5278735 -2.6908662 -1.5886493 4293729569
5.6019197 -3.3427873 -1.7066618 4293729569
6.2419529 -3.731734 -1.7126693 4293729569
4.3009715 -2.5607367 -0.04464614 4293729569
4.7878828 -2.8568516 -1.661652 4293729569
6.1249475 -3.6717439 -1.7126673 4293729569
4.8518858 -2.9038465 -1.6656524 4293729569
5.5009165 -3.2997963 -1.7076597 4293729569
6.0149422 -3.6137536 -1.7126656 4293729569
4.3489585 -2.5997546 -0.27464631 4293729569
6.4689655 -3.8917165 -1.7196708 4288085770
4.9398909 -2.96384 -1.6776531 4293729569
5.9049373 -3.5547628 -1.7116641 4293729569
5.0428948 -3.0328333 -1.691654 4293729569
5.7969327 -3.4947715 -1.7096626 4293729569
5.3979125 -3.2548051 -1.7076577 4293729569
5.1258993 -3.0888269 -1.6986547 4293729569
5.696928 -3.4387796 -1.7066611 4293729569
4.3099732 -2.5907381 -0.061645288 4293729569
5.1919036 -3.1328216 -1.6986552 4293729569
5.5929232 -3.3787882 -1.7036599 4293729569
5.4999189 -3.3237958 -1.7006586 4293729569
5.2679071 -3.1818156 -1.7016561 4293729569
5.4199152 -3.2758029 -1.7016578 4293729569
5.3389106 -3.2268093 -1.6996568 4293729569
5.294909 -3.2068136 -1.7056559 4293729569
6.5209713 -3.9647126 -1.7216694 4288085770
5.2029057 -3.1638215 -1.7056544 4293729569
4.3399754 -2.6327374 -0.078644685 4293729569
5.1009016 -3.1138299 -1.7006526 4293729569
5.012898 -3.0708375 -1.6996512 4293729569
3.8788428 -2.3679276 -1.6556391 4293729569
4.9048944 -3.0148456 -1.6906496 4293729569
3.8958452 -2.3859253 -1.649639 4293729569
4.7648892 -2.9358552 -1.6686479 4293729569
3.9158471 -2.4069233 -1.643639 4293729569
4.6508856 -2.8728633 -1.6536462 4293729569
3.9438496 -2.4299212 -1.641639 4293729569
4.5438814 -2.8118711 -1.639645 4293729569
3.956851 -2.4439189 -1.6316389 4293729569
4.4108768 -2.7338796 -1.6146433 4293729569
3.9668534 -2.454917 -1.6196387 4293729569
4.3518739 -2.7008848 -1.6156428 4293729569
3.9858553 -2.4709148 -1.6106389 4293729569
4.2828708 -2.6608901 -1.6116416 4293729569
4.0128574 -2.4909117 -1.6046391 4293729569
4.183867 -2.5998969 -1.5956407 4293729569
4.0518599 -2.5179081 -1.6016394 4293729569
4.0908623 -2.5429049 -1.5986397 4293729569
4.1248646 -2.5649014 -1.5926402 4293729569
6.9136176 4.8841329 -0.8644675 4293729569
6.9066172 4.8791327 -0.89246732 4293729569
6.9126177 4.882133 -0.83746743 4293729569
6.9136167 4.8821321 -0.92146748 4293729569
6.9296188 4.8901339 -0.81046772 4293729569
6.9226165 4.8851318 -0.94946754 4293729569
6.9336162 4.8871312 -0.9784677 4293729569
6.9426184 4.8931332 -0.78246784 4293729569
6.9546194 4.895134 -0.75546789 4293729569
6.9366159 4.8811312 -1.0064676 4293729569
6.9656205 4.8931332 -0.72746801 4293729569
6.9526153 4.8831306 -1.0354675 4293729569
6.9716153 4.8861294 -1.0644679 4293729569
6.9776211 4.8901343 -0.69946802 4293729569
7.172626 5.0231338 -0.4654721 4293729569
7.1546249 5.0101342 -0.49347171 4293729569
7.1426249 5.0001335 -0.52147144 4293729569
7.1756263 5.0231342 -0.43647209 4293729569
7.1106243 4.974134 -0.54747063 4293729569
7.1696258 5.0151343 -0.4074719 4293729569
6.9996223 4.8931336 -0.67146814 4293729569
6.9916153 4.8861289 -1.0934681 4293729569
7.0966234 4.9591341 -0.57447022 4293729569
7.2186275 5.0431347 -0.38047278 4293729569
7.0856233 4.9441333 -0.60146981 4293729569
7.2296281 5.0431342 -0.35147285 4293729569
7.0516229 4.9131327 -0.64646894 4293729569
7.0216155 4.892128 -1.1244682 4293729569
7.0686231 4.9231334 -0.62746924 4293729569
7.2406282 5.0411348 -0.32147288 4293729569
7.0536227 4.9021335 -0.65346867 4293729569
7.2796292 5.0561342 -0.29347342 4293729569
7.1006241 4.9301333 -0.62046957 4293729569
7.0436158 4.8901281 -1.1534684 4293729569
7.0606232 4.8941321 -0.68046856 4293729569
7.3266306 5.0751343 -0.26447338 4293729569
7.1626253 4.955133 -0.59546977 4293729569
7.0656161 4.8871269 -1.1824678 4293729569
7.0726223 4.8871322 -0.70846778 4293729569
7.379632 5.0961337 -0.23547417 4293729569
7.2046256 4.9641328 -0.56847024 4293729569
7.1026158 4.8921266 -1.213468 4293729569
7.0916228 4.883132 -0.73646772 4293729569
7.4206324 5.1071339 -0.20647463 4293729569
7.1276221 4.890132 -0.76646817 4293729569
7.2406259 4.9661331 -0.54047054 4293729569
7.1356158 4.8921266 -1.2444681 4293729569
7.4666333 5.1191349 -0.17747515 4293729569
7.1496215 4.8851309 -0.79346812 4293729569
7.5586343 5.1611347 -0.14847662 4293729569
7.3026271 4.9841332 -0.51447123 4293729569
7.1816154 4.8991261 -1.2754686 4293729569
7.1676216 4.8751316 -0.821468 4293729569
7.6256347 5.1831346 -0.11747748 4293729569
7.3516273 4.9911332 -0.48747161 4293729569
7.2116151 4.893126 -1.3054687 4293729569
7.2056217 4.877131 -0.85046834 4293729569
7.6706357 5.1881351 -0.086477809 4293729569
7.4106278 5.0041337 -0.45947224 4293729569
7.2606144 4.8981256 -1.3374691 4293729569
7.2316208 4.8691316 -0.87846828 4293729569
7.4666286 5.0111337 -0.43147266 4293729569
7.3016148 4.8961263 -1.3684692 4293729569
7.2616205 4.8621311 -0.90546823 4293729569
7.5206294 5.0161347 -0.40447307 4293729569
7.3526139 4.8981256 -1.3994697 4293729569
7.2966208 4.8561311 -0.93446839 4293729569
7.5866299 5.0271344 -0.37647367 4293729569
7.4856143 4.9531245 -1.4474715 4293729569
7.3466201 4.8581309 -0.9644686 4293729569
7.6556301 5.0371351 -0.34847423 4293729569
5.2395949 3.4421442 -1.7964253 4288085770
5.3095956 3.4881434 -1.7964268 4288085770
5.3675961 3.5251431 -1.791428 4288085770
7.4896145 4.920125 -1.4704709 4293729569
5.173594 3.3971453 -1.7964239 4288085770
7.3946199 4.857131 -0.99446893 4293729569
5.4435964 3.5731423 -1.7914294 4288085770
5.1135941 3.354146 -1.7964227 4288085770
5.5145969 3.6161418 -1.7884308 4288085770
5.0635934 3.3171461 -1.7994218 4288085770
5.5895977 3.6601415 -1.7864323 4288085770
5.0115933 3.2771471 -1.8014206 4288085770
5.6635985 3.7021408 -1.7814337 4288085770
7.7326307 5.0511346 -0.32147497 4293729569
4.9595933 3.2361476 -1.8014194 4288085770
5.7465982 3.7481401 -1.7794352 4288085770
7.4366202 4.850131 -1.022469 4293729569
7.5086141 4.8961258 -1.4954703 4293729569
4.9055924 3.1931484 -1.8004181 4288085770
5.8055992 3.7771397 -1.7684361 4288085770
4.8655925 3.158149 -1.8034171 4288085770
5.8995996 3.8271391 -1.7664379 4288085770
7.8136315 5.0641351 -0.29247564 4293729569
7.4886193 4.8481312 -1.0514691 4293729569
4.8105922 3.11215 -1.8004158 4288085770
5.9776006 3.8651388 -1.7584391 4288085770
7.5196133 4.8631263 -1.5174695 4293729569
4.7785921 3.0811505 -1.8034152 4288085770
6.0626006 3.9061384 -1.7524405 4288085770
7.8966327 5.077136 -0.26547635 4293729569
7.6206198 4.8951302 -1.0914708 4293729569
4.727592 3.0351517 -1.799414 4288085770
6.1766024 3.964138 -1.7514426 4288085770
7.5846133 4.8661256 -1.5514702 4293729569
4.6965919 3.0021522 -1.8024132 4288085770
6.4526033 4.1241355 -1.7384475 4288085770
6.2766027 4.011137 -1.747444 4288085770
6.3696032 4.0701365 -1.7434459 4288085770
6.5376043 4.177135 -1.7324492 4288085770
6.2776027 4.0091367 -1.7454441 4288085770
6.6306052 4.2341337 -1.727451 4288085770
6.7536054 4.3091326 -1.7274532 4288085770
6.2096024 3.9611382 -1.7514426 4288085770
7.9706326 5.0831361 -0.23647682 4293729569
6.1296015 3.9051387 -1.753441 4288085770
6.8746066 4.3801312 -1.7264555 4288085770
7.6816192 4.8941302 -1.1224711 4293729569
4.6695914 2.9701529 -1.8054124 4288085770
7.0146074 4.462131 -1.7284582 4288085770
6.3926029 4.0661368 -1.7444459 4288085770
6.0646009 3.8571398 -1.7594395 4288085770
7.6446133 4.8621264 -1.5834702 4293729569
7.1626077 4.5481296 -1.7304609 4288085770
5.9906001 3.8021407 -1.760438 4288085770
7.3106089 4.6301284 -1.7314633 4288085770
5.9466 3.7651412 -1.769437 4288085770
6.515604 4.1241355 -1.7414479 4288085770
4.6395917 2.9351532 -1.8064116 4288085770
8.1076345 5.1261363 -0.20847844 4293729569
7.6986189 4.8641305 -1.1454705 4293729569
7.4826097 4.7261271 -1.7344664 4288085770
5.8915992 3.7191422 -1.7754356 4288085770
7.7146125 4.8631258 -1.6164707 4293729569
7.629611 4.8041258 -1.730469 4288085770
6.6246052 4.170135 -1.7344495 4288085770
5.8435998 3.6771426 -1.7804345 4288085770
4.6025915 2.8951545 -1.8034108 4288085770
7.7436118 4.8601246 -1.7174708 4288085770
5.802599 3.6381431 -1.7874334 4288085770
8.1946335 5.1341362 -0.17947899 4293729569
7.7966189 4.8831301 -1.1804714 4293729569
6.7426057 4.2211347 -1.7284514 4288085770
4.5825915 2.865155 -1.80741 4288085770
7.7626123 4.853126 -1.6834706 4288085770
7.7696133 4.8521261 -1.6464707 4293729569
5.7535992 3.5921443 -1.7914323 4288085770
7.8036132 4.8591261 -1.6524711 4293729569
6.8846064 4.2841349 -1.7264535 4288085770
5.6915989 3.5381451 -1.7894309 4288085770
4.5685916 2.8381557 -1.8124095 4288085770
7.8586187 4.87713 -1.2104717 4293729569
7.8646131 4.8741264 -1.6254716 4293729569
5.6525984 3.4971459 -1.7944299 4288085770
7.8436127 4.8521261 -1.6804709 4288085770
7.0586076 4.3641334 -1.7304564 4288085770
4.5365915 2.798157 -1.8094087 4288085770
7.8956141 4.8711267 -1.5904717 4293729569
5.6165981 3.4571466 -1.7994288 4288085770
7.9656181 4.89713 -1.2464726 4293729569
7.216608 4.4331322 -1.7294585 4288085770
7.9146147 4.8571277 -1.5534713 4293729569
7.9456124 4.8671255 -1.7194718 4288085770
4.5125918 2.7631576 -1.8094079 4288085770
5.5675983 3.4071476 -1.7984276 4288085770
7.9866152 4.8751278 -1.5264721 4293729569
7.3786092 4.501132 -1.7264608 4288085770
8.0186186 4.8811297 -1.2744726 4293729569
5.5155973 3.3561487 -1.7964262 4288085770
4.4885917 2.7271585 -1.8074074 4288085770
7.9866161 4.8461285 -1.4844716 4293729569
7.9276128 4.8061271 -1.7324704 4288085770
7.5506101 4.5731306 -1.7254633 4288085770
5.479598 3.3121495 -1.7984252 4288085770
8.0626154 4.8621292 -1.4564722 4293729569
4.4665923 2.6921594 -1.8064065 4288085770
8.0556183 4.8541307 -1.2984719 4293729569
7.7676115 4.6681299 -1.7314665 4288085770
5.440598 3.2661507 -1.7984241 4288085770
7.8626122 4.7151284 -1.734468 4288085770
8.1366177 4.8751302 -1.4274729 4293729569
4.4455919 2.6571603 -1.8044059 4288085770
5.3945975 3.216152 -1.794423 4288085770
7.9496126 4.7401285 -1.728469 4288085770
8.1276188 4.8451304 -1.3284721 4293729569
8.2026196 4.8821301 -1.3964734 4293729569
7.7606111 4.6031308 -1.727465 4288085770
4.4265924 2.6231613 -1.8034053 4288085770
5.3595972 3.1711528 -1.7944219 4288085770
8.1646137 4.8291278 -1.7294719 4288085770
8.2546186 4.8781304 -1.3624734 4293729569
8.2516174 4.8661308 -1.3654732 4293729569
4.4205928 2.5951622 -1.8064049 4288085770
5.3295979 3.1281538 -1.794421 4288085770
8.335618 4.890131 -1.332474 4293729569
8.3566141 4.9001265 -1.7234744 4288085770
7.6866112 4.5071335 -1.7254626 4288085770
8.4226179 4.9121304 -1.4114749 4293729569
5.3105969 3.092155 -1.7974203 4288085770
8.4266205 4.9051313 -1.3034747 4293729569
4.4035921 2.560163 -1.8044044 4288085770
8.5696154 4.9811268 -1.7204771 4288085770
7.6326108 4.4231353 -1.7264605 4288085770
11.207631 6.473103 -1.6685221 4288085770
5.2855973 3.0511558 -1.7974194 4288085770
9.904624 5.710115 -1.6754992 4288085770
8.7826166 5.058125 -1.7154799 4288085770
4.3985929 2.5321641 -1.8064039 4288085770
11.773632 6.7430987 -1.6915303 4288085770
7.5726104 4.3361368 -1.7264583 4288085770
5.2655969 3.0121567 -1.7984186 4288085770
9.0176172 5.1451244 -1.7124826 4288085770
4.3945928 2.503165 -1.8084035 4288085770
9.8226223 5.5951176 -1.6804961 4288085770
12.196634 6.9260969 -1.688536 4288085770
5.2365975 2.9671581 -1.7964177 4288085770
7.5186105 4.2521386 -1.7254562 4288085770
9.2496176 5.2261238 -1.7054855 4288085770
4.3785934 2.4681656 -1.8044031 4288085770
12.568636 7.0740952 -1.6765407 4288085770
9.7686214 5.4971194 -1.6894935 4288085770
5.2265973 2.9321585 -1.7994171 4288085770
9.5096207 5.3201222 -1.7024885 4288085770
7.4886098 4.1821399 -1.7304546 4288085770
12.965636 7.2300925 -1.6625454 4288085770
4.3825936 2.4431667 -1.8084027 4288085770
9.7296209 5.4071217 -1.6994914 4288085770
5.2075977 2.8931596 -1.7984164 4288085770
9.7526217 5.3991218 -1.6934911 4288085770
13.396639 7.3990908 -1.6495508 4288085770
7.4726095 4.1191411 -1.7364532 4288085770
4.3795934 2.4131677 -1.8094025 4288085770
5.197598 2.8571608 -1.8004158 4288085770
9.6756191 5.3081226 -1.7054887 4288085770
10.017622 5.4871206 -1.6874942 4288085770
13.91164 7.608088 -1.643557 4288085770
4.3795943 2.3851683 -1.8104022 4288085770
7.4516087 4.053143 -1.7414517 4288085770
5.1725984 2.8121619 -1.7954148 4288085770
10.302623 5.5801196 -1.6794972 4288085770
9.6226206 5.2091255 -1.7114862 4288085770
14.507643 7.8530841 -1.6405646 4288085770
3.662591 1.9721752 -1.8333905 4288085770
3.6605914 1.9691757 -1.8113904 4288085770
4.3665948 2.3481696 -1.8054016 4288085770
5.1695981 2.7791631 -1.7984145 4288085770
3.7095916 1.9921752 -1.8133911 4288085770
7.4126091 3.9771447 -1.74145 4288085770
3.7685919 2.020175 -1.8193921 4288085770
10.620625 5.6891184 -1.6765007 4288085770
3.8055923 2.036175 -1.8143927 4288085770
9.5866194 5.1201272 -1.718484 4288085770
3.8585925 2.0591748 -1.8153933 4288085770
3.9085929 2.0791745 -1.8133942 4288085770
5.1595988 2.7421644 -1.7974138 4288085770
4.3775949 2.3251708 -1.8094016 4288085770
3.9615939 2.1011744 -1.812395 4288085770
10.941626 5.7941165 -1.6715041 4288085770
7.4146094 3.9241462 -1.7504488 4288085770
4.0235939 2.1261737 -1.8143959 4288085770
9.5336189 5.023129 -1.7214814 4288085770
4.081594 2.149174 -1.8143966 4288085770
5.1535983 2.7061653 -1.7974132 4288085770
4.3725953 2.292172 -1.8074013 4288085770
4.1465945 2.1731739 -1.8143977 4288085770
11.288627 5.9071159 -1.6675076 4288085770
4.2095952 2.1971736 -1.8143986 4288085770
7.4056091 3.8641477 -1.7544476 4288085770
9.500618 4.9351315 -1.7274793 4288085770
4.2725949 2.2191734 -1.8123995 4288085770
5.1545987 2.6731663 -1.799413 4288085770
4.3815956 2.2671726 -1.8094009 4288085770
4.2425952 2.1951737 -1.804399 4288085770
4.199595 2.1721742 -1.8083982 4288085770
11.645628 6.0201144 -1.6615112 4288085770
4.1555953 2.1491745 -1.8103975 4288085770
4.2995958 2.2231734 -1.8063998 4288085770
4.1075945 2.1231747 -1.8093969 4288085770
4.3615961 2.254173 -1.8084008 4288085770
4.3385959 2.2411728 -1.8104004 4288085770
4.4165959 2.2801726 -1.8064016 4288085770
4.0685949 2.1001756 -1.8113962 4288085770
4.4815969 2.3101723 -1.8084025 4288085770
4.0265942 2.075176 -1.8113955 4288085770
4.540597 2.3361719 -1.8064034 4288085770
3.9855945 2.0501761 -1.8113949 4288085770
7.4166093 3.8131487 -1.7644466 4288085770
4.4205961 2.2711728 -1.8134015 4288085770
4.6055975 2.3641715 -1.8054042 4288085770
3.9605949 2.0331767 -1.8173946 4288085770
9.4576187 4.843133 -1.730477 4288085770
4.6785979 2.3961711 -1.8064052 4288085770
5.1535993 2.6391671 -1.8004124 4288085770
3.9225943 2.008177 -1.8163939 4288085770
12.054629 6.1551127 -1.6595155 4288085770
4.4815969 2.2891731 -1.8084022 4288085770
4.7465978 2.4241707 -1.8044062 4288085770
3.8815939 1.9821776 -1.8123934 4288085770
4.3965964 2.2441735 -1.813401 4288085770
4.8195977 2.4531708 -1.8024073 4288085770
3.8495944 1.9591781 -1.8123928 4288085770
4.5645971 2.3181727 -1.8094034 4288085770
4.8915982 2.4821701 -1.7994082 4288085770
3.8125939 1.9331785 -1.8093922 4288085770
7.3956089 3.7471504 -1.7654452 4288085770
5.1335993 2.5941687 -1.7934117 4288085770
4.959599 2.50617 -1.7944092 4288085770
9.375617 4.7311354 -1.7254741 4288085770
3.7885945 1.9121791 -1.8113917 4288085770
4.6405978 2.3411727 -1.8064044 4288085770
12.497631 6.2991109 -1.6585199 4288085770
5.0565991 2.5451698 -1.7974105 4288085770
4.3925967 2.2101748 -1.8094007 4288085770
3.7495944 1.8841799 -1.8043911 4288085770
5.1366 2.5741694 -1.7934115 4288085770
4.7215981 2.3661723 -1.8054053 4288085770
3.8355944 1.9181792 -1.8583925 4288085770
7.3966093 3.6911519 -1.7704442 4288085770
5.2366009 2.6121688 -1.7954127 4288085770
5.1406002 2.5631697 -1.7954112 4288085770
13.104632 6.5181079 -1.6755265 4288085770
4.802599 2.3901727 -1.8024064 4288085770
9.3156176 4.6301374 -1.7234716 4288085770
3.7335944 1.8571805 -1.8193908 4288085770
5.3326011 2.6461687 -1.7944139 4288085770
4.4125977 2.1881759 -1.8144006 4288085770
4.8955998 2.4181726 -1.8034074 4288085770
5.4346018 2.682168 -1.7944152 4288085770
5.1456008 2.5311708 -1.7964109 4288085770
7.4166098 3.643153 -1.7794434 4288085770
13.756635 6.7501044 -1.6915336 4288085770
5.5396023 2.7181678 -1.7924166 4288085770
4.9686003 2.4351723 -1.7954081 4288085770
9.2466164 4.5261393 -1.718469 4288085770
4.4205985 2.160177 -1.8144006 4288085770
5.6766038 2.768167 -1.7994182 4288085770
5.0716004 2.4671721 -1.7964096 4288085770
5.1506014 2.4971719 -1.7964106 4288085770
5.7846041 2.804167 -1.7964195 4288085770
14.333635 6.9371018 -1.6965392 4288085770
7.4186096 3.5871546 -1.7844422 4288085770
5.1786013 2.498172 -1.7974108 4288085770
9.231617 4.4481421 -1.7224672 4288085770
5.8826046 2.8321667 -1.7884206 4288085770
4.4385982 2.1361778 -1.8174005 4288085770
5.2846022 2.5271721 -1.797412 4288085770
6.0136046 2.8751664 -1.789422 4288085770
5.1566014 2.4641728 -1.7964102 4288085770
14.931638 7.1260991 -1.6985449 4288085770
7.4326096 3.5361559 -1.7914413 4288085770
6.1286049 2.9091661 -1.7844234 4288085770
9.217617 4.3701434 -1.7264653 4288085770
5.3926024 2.5561721 -1.7964132 4288085770
4.4505992 2.1091788 -1.8174003 4288085770
6.2886062 2.9631658 -1.7894251 4288085770
5.1596017 2.4291742 -1.7944098 4288085770
15.442639 7.2630978 -1.6855489 4288085770
5.5156035 2.5911715 -1.7984146 4288085770
7.43261 3.4771578 -1.7934401 4288085770
6.4476066 3.0131652 -1.7924268 4288085770
9.1866179 4.2841454 -1.7264633 4288085770
4.4655991 2.0831802 -1.8184003 4288085770
5.6456041 2.6261714 -1.8014159 4288085770
15.996642 7.4150958 -1.6755533 4288085770
6.5956073 3.0581648 -1.7904285 4288085770
5.1756024 2.4001753 -1.7964096 4288085770
5.7566047 2.6521716 -1.7974172 4288085770
7.4276109 3.4171593 -1.793439 4288085770
6.749608 3.103164 -1.78843 4288085770
9.1786165 4.209147 -1.7284617 4288085770
4.4756002 2.0541811 -1.8164001 4288085770
16.620644 7.5870943 -1.6665585 4288085770
5.1856031 2.3671765 -1.7954093 4288085770
5.863606 2.6751716 -1.790418 4288085770
6.9116087 3.149164 -1.7864317 4288085770
7.4326105 3.3611608 -1.796438 4288085770
7.0946093 3.2031634 -1.7884334 4288085770
5.9976058 2.7081714 -1.7894194 4288085770
9.1906176 4.1441488 -1.7344604 4288085770
4.4996014 2.0311821 -1.8204001 4288085770
17.285643 7.7700911 -1.6595639 4288085770
5.2046032 2.3381779 -1.7974091 4288085770
7.3116102 3.2701628 -1.7954357 4288085770
6.1336064 2.7391713 -1.7884207 4288085770
7.432611 3.3031623 -1.796437 4288085770
4.497601 1.9961833 -1.8123999 4288085770
9.212616 4.0811501 -1.7414591 4288085770
18.048643 7.9880886 -1.65757 4288085770
7.5076113 3.3251622 -1.7954376 4288085770
5.2296042 2.3111789 -1.8004088 4288085770
6.2686076 2.7691715 -1.785422 4288085770
7.721612 3.3861616 -1.7974397 4288085770
6.421608 2.8051713 -1.7854234 4288085770
7.432611 3.2421641 -1.7964358 4288085770
4.5206017 1.9711846 -1.8133998 4288085770
9.1846161 3.9971523 -1.7374572 4288085770
5.2436047 2.2791798 -1.7994088 4288085770
7.9326124 3.443161 -1.7964416 4288085770
6.5836086 2.8431711 -1.7864249 4288085770
8.1376123 3.4941607 -1.7914435 4288085770
7.4286118 3.1821654 -1.7944347 4288085770
4.5316024 1.9411854 -1.8103997 4288085770
9.1966171 3.9291539 -1.7404559 4288085770
5.2646046 2.2491808 -1.7994086 4288085770
6.756609 2.8831706 -1.7894264 4288085770
8.3476133 3.5451603 -1.7854451 4288085770
6.94561 2.9281704 -1.7934281 4288085770
7.4196119 3.1191678 -1.7904335 4288085770
4.5696034 1.9231864 -1.8174 4288085770
8.5376148 3.58516 -1.7734466 4288085770
5.2936053 2.2231822 -1.8024085 4288085770
9.2276173 3.8701558 -1.7464547 4288085770
7.1116109 2.9601705 -1.7904292 4288085770
8.7616158 3.6361597 -1.7664484 4288085770
4.5806046 1.8931878 -1.8123999 4288085770
7.4276123 3.0641689 -1.7894326 4288085770
5.3156066 2.1931832 -1.8014083 4288085770
9.2376184 3.8021574 -1.7474532 4288085770
7.2816114 2.9921708 -1.7864307 4288085770
8.9936161 3.6881595 -1.7584503 4288085770
7.4776125 3.0321703 -1.7874322 4288085770
9.2286186 3.7371593 -1.7484519 4288085770
4.6156049 1.8711889 -1.8163999 4288085770
5.3386064 2.1631846 -1.8014082 4288085770
7.4356127 3.0071707 -1.7884318 4288085770
9.2806177 3.7461593 -1.7534523 4288085770
9.5106182 3.8041582 -1.7454541 4288085770
7.6876135 3.07517 -1.7884338 4288085770
5.3676071 2.1341858 -1.8014081 4288085770
4.6416049 1.8461899 -1.8164002 4288085770
7.4676132 2.9611721 -1.791431 4288085770
9.3346176 3.6951606 -1.7604513 4288085770
9.8116198 3.873158 -1.7424562 4288085770
7.8996143 3.1161697 -1.7894355 4288085770
5.401608 2.1071868 -1.8034079 4288085770
10.114619 3.939157 -1.7374585 4288085770
4.6776061 1.8251911 -1.8204002 4288085770
8.1246147 3.1591697 -1.790437 4288085770
7.4666133 2.902174 -1.7874299 4288085770
9.3976173 3.6451621 -1.7684504 4288085770
10.45162 4.0161572 -1.7354608 4288085770
8.3646154 3.2061696 -1.7924387 4288085770
5.4356084 2.081188 -1.804408 4288085770
4.7096066 1.8011923 -1.8214003 4288085770
7.4866138 2.8501754 -1.7864292 4288085770
9.4616184 3.5971634 -1.7764497 4288085770
10.810621 4.0951557 -1.7324634 4288085770
8.6166162 3.2521694 -1.7944404 4288085770
5.472609 2.054189 -1.8054078 4288085770
4.736608 1.7751933 -1.8204004 4288085770
11.176623 4.1721554 -1.7274657 4288085770
7.5406141 2.8121772 -1.7934287 4288085770
9.5506182 3.556165 -1.7864491 4288085770
8.8596182 3.2931693 -1.7934419 4288085770
11.551623 4.2481546 -1.7204682 4288085770
5.4956098 2.0221901 -1.8014077 4288085770
4.7666082 1.7501944 -1.8194004 4288085770
9.1196175 3.336169 -1.7924435 4288085770
7.5756145 2.7651784 -1.7944281 4288085770
9.5966187 3.4981668 -1.788448 4288085770
11.986625 4.3421531 -1.7194709 4288085770
9.382618 3.3771691 -1.790445 4288085770
5.5346107 1.9951912 -1.8024076 4288085770
3.6846066 1.3302021 -1.8133897 4288085770
3.7146068 1.340202 -1.83539 4288085770
4.7966089 1.7241956 -1.8184005 4288085770
3.7486069 1.3472019 -1.8143903 4288085770
7.600615 2.7151799 -1.7924274 4288085770
9.663619 3.448168 -1.793447 4288085770
12.478625 4.449152 -1.7224742 4288085770
3.6776068 1.3162026 -1.8073897 4288085770
3.7286072 1.3342023 -1.8073902 4288085770
3.7826071 1.3522022 -1.8083907 4288085770
3.8136072 1.363202 -1.8143909 4288085770
3.8466074 1.3732018 -1.8123914 4288085770
3.9116073 1.3942014 -1.8163918 4288085770
3.977608 1.4152012 -1.8183925 4288085770
3.8756077 1.3782017 -1.8133916 4288085770
9.6666193 3.4221685 -1.7894466 4288085770
4.0506077 1.4372009 -1.8233932 4288085770
3.7186077 1.3182027 -1.8283901 4288085770
4.1396074 1.4652005 -1.8333941 4288085770
5.5716119 1.9671928 -1.8014076 4288085770
3.9556077 1.3982017 -1.8183923 4288085770
4.2036085 1.4832004 -1.8313947 4288085770
13.073627 4.5861506 -1.7334782 4288085770
4.8256097 1.6981969 -1.8154005 4288085770
4.2716084 1.5022001 -1.8303953 4288085770
4.0486083 1.4222016 -1.8283931 4288085770
4.3476095 1.5231998 -1.8303961 4288085770
7.6416159 2.6691816 -1.7944268 4288085770
9.7136192 3.3901699 -1.7944461 4288085770
4.1266079 1.4412013 -1.8303939 4288085770
4.4206095 1.5431998 -1.8293967 4288085770
9.9666204 3.4681685 -1.7904483 4288085770
3.6856081 1.2832043 -1.8033898 4288085770
4.49261 1.5621995 -1.8263972 4288085770
4.216609 1.4622012 -1.8363947 4288085770
13.775628 4.7541485 -1.7544827 4288085770
5.6126122 1.9401938 -1.8004075 4288085770
4.5756097 1.5831994 -1.8263981 4288085770
4.6466103 1.6001993 -1.8203987 4288085770
4.8636103 1.6741982 -1.8164006 4288085770
4.2986088 1.4802014 -1.8373954 4288085770
10.236622 3.500169 -1.7824495 4288085770
4.7416101 1.624199 -1.8223996 4288085770
9.7616205 3.3321717 -1.7944452 4288085770
7.6806164 2.6231828 -1.7944262 4288085770
4.3796091 1.4972011 -1.8363961 4288085770
3.7166088 1.270205 -1.8093902 4288085770
4.8166108 1.6411991 -1.8164001 4288085770
14.41063 4.8881464 -1.7604866 4288085770
4.4706106 1.5162011 -1.8383969 4288085770
4.9096112 1.662199 -1.8144008 4288085770
5.6636133 1.9151949 -1.8024077 4288085770
10.560621 3.5481684 -1.782451 4288085770
4.906611 1.6521993 -1.8174008 4288085770
5.0086117 1.6851988 -1.8134017 4288085770
4.5476112 1.5302012 -1.8343977 4288085770
15.02763 5.0091448 -1.7584901 4288085770
3.7416096 1.2542059 -1.8113904 4288085770
9.8206205 3.2761736 -1.7944441 4288085770
7.724617 2.5781848 -1.7944255 4288085770
5.0936117 1.7021989 -1.8064024 4288085770
4.6306119 1.5452013 -1.8303983 4288085770
5.2036123 1.7271986 -1.8074032 4288085770
5.7146134 1.8911961 -1.8044077 4288085770
10.871622 3.5851684 -1.7784525 4288085770
4.7076111 1.5572014 -1.8233988 4288085770
5.3156128 1.7511985 -1.8074043 4288085770
4.9496126 1.6292003 -1.818401 4288085770
15.637631 5.1211433 -1.7524931 4288085770
3.7736104 1.241207 -1.8153907 4288085770
4.8036118 1.5752014 -1.8223996 4288085770
5.4276128 1.7741984 -1.804405 4288085770
9.8986225 3.2261748 -1.7974433 4288085770
7.7716174 2.5341861 -1.7954249 4288085770
4.892612 1.5892016 -1.8184003 4288085770
11.191623 3.6211689 -1.7724537 4288085770
5.555613 1.8021981 -1.8064059 4288085770
5.7596145 1.8631972 -1.8034077 4288085770
16.346632 5.2551417 -1.7514969 4288085770
5.6736145 1.8251981 -1.8034068 4288085770
5.0036125 1.6102015 -1.8204013 4288085770
3.7906108 1.2222079 -1.812391 4288085770
4.9926128 1.6062015 -1.8184011 4288085770
9.9806213 3.1761765 -1.7994425 4288085770
5.7916145 1.847198 -1.7984077 4288085770
7.809618 2.4861879 -1.7924243 4288085770
11.494624 3.6481688 -1.7614548 4288085770
5.1036129 1.6252017 -1.8164018 4288085770
17.066631 5.3821411 -1.7445003 4288085770
5.8166151 1.8401985 -1.8054076 4288085770
5.9376149 1.8761978 -1.8014086 4288085770
5.2146134 1.6432017 -1.8164027 4288085770
3.8166115 1.2052088 -1.8133913 4288085770
5.0386138 1.5842028 -1.8194013 4288085770
6.0746155 1.9021976 -1.7984096 4288085770
11.864625 3.6911688 -1.7594563 4288085770
5.3296142 1.6612018 -1.8154036 4288085770
10.066622 3.127178 -1.8014417 4288085770
7.8756185 2.4461894 -1.795424 4288085770
17.850636 5.5211387 -1.7395039 4288085770
6.2276158 1.9301974 -1.7994107 4288085770
5.8726153 1.8151996 -1.8054076 4288085770
3.845612 1.19021 -1.8143915 4288085770
5.4346151 1.6752018 -1.8094043 4288085770
6.3846164 1.9591974 -1.7994118 4288085770
5.0916147 1.562204 -1.8214015 4288085770
12.235625 3.7301691 -1.7554576 4288085770
5.5566154 1.6932019 -1.8074051 4288085770
18.654634 5.6571369 -1.7325075 4288085770
10.164623 3.0801795 -1.803441 4288085770
6.5426173 1.9861976 -1.7964127 4288085770
7.9266195 2.4021907 -1.7944236 4288085770
3.8726132 1.1732107 -1.814392 4288085770
5.9286165 1.7892008 -1.8054076 4288085770
5.6936159 1.714202 -1.8094059 4288085770
6.6956172 2.0101972 -1.7914135 4288085770
12.640626 3.7741685 -1.7534592 4288085770
5.1416149 1.5392051 -1.8224016 4288085770
19.644638 5.8361354 -1.7345123 4288085770
5.8346167 1.735202 -1.8114067 4288085770
6.882618 2.0431972 -1.7924148 4288085770
10.256623 3.0311811 -1.8044403 4288085770
7.9846191 2.3581924 -1.7934229 4288085770
3.8966141 1.1552117 -1.8123921 4288085770
6.0016174 1.7682019 -1.808408 4288085770
7.0766182 2.0761971 -1.7934159 4288085770
5.967617 1.7522022 -1.8084075 4288085770
13.075627 3.8201685 -1.7524606 4288085770
5.1936159 1.5172061 -1.8234018 4288085770
7.2726188 2.1081972 -1.792417 4288085770
6.1146173 1.7712024 -1.8084084 4288085770
3.9336147 1.1412127 -1.8153924 4288085770
10.359623 2.9831827 -1.8054395 4288085770
8.0386209 2.3131936 -1.7904223 4288085770
6.0716176 1.7452029 -1.810408 4288085770
13.526628 3.8651688 -1.7504621 4288085770
7.4756193 2.1391969 -1.7914181 4288085770
6.2646179 1.7902024 -1.8074094 4288085770
5.2416167 1.4932073 -1.8214018 4288085770
7.6946206 2.173197 -1.7914193 4288085770
3.9696157 1.1252136 -1.8173929 4288085770
6.4166183 1.8082026 -1.8054101 4288085770
10.462624 2.9341846 -1.8044386 4288085770
8.1366215 2.280195 -1.7964222 4288085770
6.150619 1.7242041 -1.8144082 4288085770
14.001629 3.9101684 -1.7494633 4293729569
7.9216213 2.207197 -1.7914206 4288085770
6.5676193 1.8232027 -1.8014109 4288085770
5.2946172 1.4702085 -1.8204021 4288085770
3.9946167 1.1072147 -1.8133931 4288085770
8.1446218 2.2371964 -1.7874215 4288085770
14.566628 3.9731684 -1.7554653 4288085770
10.566624 2.884186 -1.8034379 4288085770
6.74262 1.8432029 -1.8014119 4288085770
6.2136192 1.6982054 -1.8124082 4288085770
8.2106218 2.2381966 -1.7954218 4288085770
8.4366226 2.2841961 -1.794423 4288085770
5.3446178 1.4452099 -1.8184021 4288085770
4.0416174 1.0942155 -1.8193934 4288085770
6.9146204 1.8612031 -1.7994126 4288085770
15.158629 4.0341682 -1.762467 4288085770
8.6926231 2.3181963 -1.7924242 4288085770
10.695625 2.8391874 -1.8044374 4288085770
6.29562 1.6762062 -1.8154082 4288085770
8.300621 2.2011983 -1.7984214 4288085770
7.1066208 1.8822032 -1.8004135 4288085770
8.9826231 2.3591957 -1.7934256 4288085770
4.0776181 1.0772166 -1.8183937 4288085770
5.4276195 1.4292108 -1.8254025 4288085770
15.704631 4.0781679 -1.7604684 4288085770
7.2806215 1.8972036 -1.7954142 4288085770
6.3836212 1.6552075 -1.8184084 4288085770
9.279623 2.3981957 -1.7924268 4288085770
10.824627 2.794189 -1.8044368 4288085770
8.3776226 2.1591997 -1.7964211 4288085770
4.1236186 1.0632175 -1.8223941 4288085770
7.477622 1.9152037 -1.7934152 4288085770
5.4916196 1.4072118 -1.8264028 4288085770
9.5846252 2.4361956 -1.7914281 4288085770
16.258631 4.1141682 -1.7564694 4293729569
6.4736218 1.6342084 -1.8204086 4288085770
7.7046232 1.9392039 -1.7974162 4288085770
10.953626 2.7461905 -1.802436 4288085770
8.4526253 2.1162012 -1.7934206 4288085770
9.9246244 2.4791954 -1.7924296 4288085770
4.1586194 1.0452186 -1.8203944 4288085770
5.5546207 1.384213 -1.8254029 4288085770
16.859632 4.1541681 -1.7554706 4293729569
7.9506235 1.964204 -1.8024172 4288085770
10.278626 2.5221953 -1.7914308 4288085770
6.556622 1.6102097 -1.8204086 4288085770
11.123627 2.7081921 -1.8054354 4288085770
4.1976204 1.0292195 -1.8193947 4288085770
8.574625 2.0842028 -1.7994204 4288085770
8.1966238 1.9862043 -1.8044181 4288085770
5.6256218 1.3632144 -1.826403 4288085770
10.678627 2.5731947 -1.7954322 4288085770
17.472633 4.1881685 -1.7524714 4293729569
6.6486235 1.5872109 -1.8214087 4288085770
8.4126253 1.999204 -1.7984188 4288085770
4.2386212 1.0122206 -1.8183949 4288085770
11.099627 2.6231942 -1.7984338 4288085770
11.265627 2.6621935 -1.8034347 4288085770
8.6766253 2.0452042 -1.79842 4288085770
5.7006226 1.3422154 -1.8274031 4288085770
18.130634 4.2261686 -1.7504725 4288085770
8.6886263 2.0232046 -1.8024197 4288085770
11.512629 2.6681943 -1.7964351 4288085770
6.7316236 1.5622121 -1.8184086 4288085770
4.2916217 0.9982217 -1.8213952 4288085770
11.443628 2.6221952 -1.8044343 4288085770
8.7936258 2.010205 -1.8004196 4288085770
8.9416256 2.0382051 -1.7994206 4288085770
5.7856231 1.3222165 -1.8304034 4288085770
11.964628 2.7161939 -1.7954365 4288085770
18.792633 4.254169 -1.7474732 4288085770
6.8276243 1.5382133 -1.8174088 4288085770
4.3406224 0.9822225 -1.8223957 4288085770
9.2456264 2.063205 -1.8044214 4288085770
12.43763 2.7641938 -1.793438 4288085770
11.621629 2.5801969 -1.8034337 4288085770
8.9226265 1.9752065 -1.8034194 4288085770
5.8636236 1.3012177 -1.8304036 4288085770
19.594635 4.3051691 -1.7534745 4288085770
4.3866234 0.96522349 -1.8213959 4288085770
6.9356251 1.5172143 -1.8184088 4288085770
9.5276279 2.0782056 -1.8014221 4288085770
12.978629 2.8211932 -1.7964395 4288085770
11.82063 2.5411983 -1.8034332 4288085770
9.0766277 1.945208 -1.8094193 4288085770
5.9506245 1.2802186 -1.8314036 4288085770
9.8416271 2.0962059 -1.802423 4288085770
13.701631 2.9111924 -1.818442 4288085770
4.4396238 0.95022446 -1.8223963 4288085770
7.0486259 1.4952155 -1.819409 4288085770
12.04563 2.5041995 -1.8054327 4288085770
10.161629 2.1132061 -1.8014235 4288085770
14.641632 3.0381911 -1.8604451 4288085770
6.0416255 1.2592198 -1.8334039 4288085770
9.2416277 1.9152091 -1.8164191 4288085770
4.4906249 0.93322557 -1.8213966 4288085770
