# .PCD v0.7 - Point Cloud Data file format
VERSION 0.7
FIELDS x y z rgb
SIZE 4 4 4 4
TYPE F F F U
COUNT 1 1 1 1
WIDTH 1107
HEIGHT 1
VIEWPOINT 0 0 0 1 0 0 0
POINTS 1107
DATA ascii
4.5359192 -3.7644362 -1.8982182 4288085770
1.7300415 -2.8099189 -1.8978977 4288085770
4.1847839 -3.709259 -1.898428 4288085770
1.5183105 -2.7885771 -1.8991942 4288085770
3.8526917 -3.6544743 -1.8983922 4288085770
1.3196716 -2.767509 -1.9000068 4288085770
3.5266418 -3.598825 -1.8975787 4288085770
1.1032715 -2.7371449 -1.8969545 4288085770
3.2145996 -3.5424709 -1.8963037 4288085770
0.86541748 -2.6964774 -1.8858666 4288085770
2.8968201 -3.4810548 -1.8917089 4288085770
0.66012573 -2.6653481 -1.8822346 4288085770
2.6186523 -3.4293504 -1.8928499 4288085770
0.50909424 -2.6511335 -1.890048 4288085770
2.3297729 -3.3705053 -1.8894391 4288085770
0.33154297 -2.6254997 -1.8906097 4288085770
2.0923462 -3.327569 -1.8943405 4288085770
0.17376709 -2.6042223 -1.8940301 4288085770
1.8491821 -3.2795887 -1.8949232 4288085770
0.0043640137 -2.5757837 -1.892859 4288085770
1.619873 -3.2338486 -1.8980923 4288085770
-0.14535522 -2.5536642 -1.8965797 4288085770
1.4231567 -3.1976819 -1.9067197 4288085770
-0.31268311 -2.5222836 -1.8944378 4288085770
1.1607056 -3.1324763 -1.8972278 4288085770
-0.47305298 -2.4920397 -1.892591 4288085770
0.89935303 -3.0633116 -1.8867073 4288085770
-0.61761475 -2.4650583 -1.8944263 4288085770
0.68045044 -3.0098791 -1.8841429 4288085770
-0.76403809 -2.4360723 -1.8941507 4288085770
0.49993896 -2.9701014 -1.8893409 4288085770
-0.92114258 -2.3999462 -1.8893228 4288085770
0.31176758 -2.9242406 -1.8901229 4288085770
-1.0605469 -2.3701162 -1.888308 4288085770
0.14044189 -2.8826776 -1.8936453 4288085770
-1.1929321 -2.3404064 -1.8885703 4288085770
-0.034790039 -2.8380718 -1.8949599 4288085770
-1.3223267 -2.3107758 -1.8879528 4288085770
-0.2069397 -2.7925458 -1.8953781 4288085770
-1.4477539 -2.2812033 -1.8884921 4288085770
-0.37014771 -2.7481952 -1.8961692 4288085770
-1.5740051 -2.2496681 -1.8859606 4288085770
-0.5390625 -2.698801 -1.8926415 4288085770
-1.6992493 -2.2161522 -1.8834352 4288085770
-0.69613647 -2.6525869 -1.8926377 4288085770
-1.818512 -2.1837358 -1.882164 4288085770
-0.83743286 -2.612668 -1.8943701 4288085770
-1.9425964 -2.147296 -1.8766294 4288085770
-0.98455811 -2.5676699 -1.8937807 4288085770
-2.0558472 -2.1150351 -1.8735981 4288085770
-1.1217041 -2.5248652 -1.8936229 4288085770
-2.1582336 -2.0859346 -1.8740506 4288085770
-1.2617188 -2.4790411 -1.8912959 4288085770
-2.266449 -2.0527716 -1.8711996 4288085770
-1.3957214 -2.4343529 -1.8882246 4288085770
-1.5306702 -2.3876457 -1.8850803 4288085770
-1.6528015 -2.3451567 -1.8845177 4288085770
-1.7758179 -2.3006849 -1.8818831 4288085770
-1.8928223 -2.2583475 -1.878521 4288085770
-2.0137024 -2.2119522 -1.8739338 4288085770
-2.1237183 -2.1697531 -1.8708496 4288085770
-2.2277527 -2.1276731 -1.8680029 4288085770
-2.2489929 0.036846161 -1.7943311 4288085770
-2.1575928 0.046976089 -1.7937112 4288085770
-2.050354 0.055864334 -1.7977352 4288085770
-1.9419861 0.06569767 -1.7997832 4288085770
-1.8237305 0.074369431 -1.8042407 4288085770
-1.7123108 0.084105492 -1.8044081 4288085770
-1.5939026 0.093705177 -1.8048511 4288085770
-1.4704895 0.10220814 -1.8055086 4288085770
-1.3331909 0.11047173 -1.8087144 4288085770
-2.1992493 0.17994404 -1.7996407 4288085770
-1.1829834 0.11849594 -1.8134308 4288085770
-2.0908508 0.18873882 -1.7997069 4288085770
-1.0306702 0.12646675 -1.8172274 4288085770
-1.969635 0.19635487 -1.8042984 4288085770
-0.89709473 0.1356802 -1.8132644 4288085770
-1.8345642 0.20274734 -1.8124557 4288085770
-0.72775269 0.14329815 -1.8167295 4288085770
-1.723053 0.21043015 -1.8096595 4288085770
-0.5663147 0.151021 -1.8168836 4288085770
-1.5808716 0.21763134 -1.8150773 4288085770
-0.37902832 0.15828228 -1.8210573 4288085770
-1.4662781 0.22522163 -1.810401 4288085770
-0.19952393 0.16561604 -1.8199201 4288085770
-1.3120728 0.23117065 -1.8153081 4288085770
-0.014007568 0.17281055 -1.8180194 4288085770
-1.1706848 0.2382822 -1.8146906 4288085770
0.22610474 0.17808914 -1.8272939 4288085770
-1.0014648 0.24393845 -1.8201885 4288085770
0.42767334 0.18493366 -1.8240247 4288085770
-0.84603882 0.24977779 -1.8201399 4288085770
0.66409302 0.19116497 -1.826129 4288085770
-0.66583252 0.25519753 -1.8250704 4288085770
0.92340088 0.19596291 -1.8301549 4288085770
-0.49142456 0.26064777 -1.824769 4288085770
1.1659851 0.20096874 -1.8265171 4288085770
-0.30010986 0.26479912 -1.8271523 4288085770
1.5188293 0.20410061 -1.8442335 4288085770
-0.092803955 0.26963615 -1.8301473 4288085770
1.8153381 0.20908165 -1.8447018 4288085770
0.12945557 0.27317905 -1.8337493 4288085770
2.1913757 0.21063805 -1.8563452 4288085770
0.31811523 0.27622604 -1.8270388 4288085770
2.58255 0.21286392 -1.8665633 4288085770
0.56832886 0.2792387 -1.8327413 4288085770
2.8924866 0.21637344 -1.8555684 4288085770
0.82955933 0.28099728 -1.8368959 4288085770
3.2284241 0.21835804 -1.8446145 4288085770
1.071167 0.28400707 -1.832252 4288085770
3.6291199 0.21913815 -1.8402147 4288085770
1.365448 0.28509903 -1.8367047 4288085770
4.0847168 0.21987343 -1.8399601 4288085770
1.6896973 0.28560734 -1.8423376 4288085770
4.5803528 0.2187891 -1.8392973 4288085770
2.0050964 0.28520012 -1.8426371 4288085770
5.0593262 0.21687794 -1.82899 4288085770
2.4328613 0.28282738 -1.8613706 4288085770
5.5842896 0.21404362 -1.8194928 4288085770
2.7615967 0.2820034 -1.8531885 4288085770
6.1602478 0.21017265 -1.8100033 4288085770
3.1281433 0.27850819 -1.8505316 4288085770
6.7962341 0.20409107 -1.8008928 4288085770
3.5237122 0.27540398 -1.8470001 4288085770
7.4813843 0.19695759 -1.7887139 4288085770
3.9703064 0.2702837 -1.8444924 4288085770
8.1938477 0.18813229 -1.7686214 4288085770
4.4607849 0.2633009 -1.8437324 4288085770
9.0211182 0.17604923 -1.7530694 4288085770
4.9544678 0.2551527 -1.8371119 4288085770
9.9654846 0.16158199 -1.7371235 4288085770
5.4802856 0.24531937 -1.8287692 4288085770
11.044861 0.14241219 -1.7235255 4288085770
6.0232544 0.23404789 -1.8151174 4288085770
12.190704 0.12167645 -1.697535 4288085770
6.6720581 0.21971512 -1.8066506 4288085770
7.3648682 0.20348167 -1.7979326 4288085770
8.098938 0.18430138 -1.7828679 4288085770
8.8911438 0.16187668 -1.7641234 4288085770
9.8082581 0.13598251 -1.7493124 4288085770
10.888245 0.10381794 -1.7369671 4288085770
11.963837 0.067465782 -1.7085056 4288085770
5.2494202 -4.522593 -0.51008749 4293729569
5.4887695 -4.5286098 -0.558496 4293729569
5.7390137 -4.5337873 -0.61031389 4293729569
5.9824219 -4.532846 -0.66075563 4293729569
6.2695007 -4.5447268 -0.71512079 4293729569
6.6488953 -4.5854177 -0.7735858 4293729569
6.9172974 -4.5799317 -0.82691479 4293729569
7.3068237 -4.6128016 -0.88662958 4293729569
7.6309509 -4.6183896 -0.94331646 4293729569
7.9789734 -4.6254287 -1.0019569 4293729569
8.383667 -4.6455598 -1.0640297 4293729569
8.7279968 -4.641542 -1.1213236 4293729569
9.1447449 -4.6558905 -1.1847596 4293729569
9.588501 -4.6707678 -1.249249 4293729569
9.9380493 -4.6518331 -1.3074765 4293729569
10.446564 -4.6729426 -1.3765879 4293729569
11.296539 -4.7824993 -1.4745388 4293729569
11.688171 -4.7533536 -1.5362124 4293729569
11.578918 -4.5848098 -1.5519381 4293729569
11.906342 -4.5325098 -1.6046972 4293729569
12.544586 -4.5540891 -1.6828437 4293729569
12.532104 -3.5396056 -1.7910261 4288085770
12.394623 -3.3688197 -1.787601 4288085770
12.275024 -3.2034197 -1.7829671 4288085770
12.199249 -3.0488958 -1.7792253 4288085770
12.356628 -2.9858875 -0.85933256 4293729569
12.07077 -2.8873911 -1.7703137 4288085770
12.392181 -2.8524728 -0.86428881 4293729569
12.006927 -2.7371173 -1.7661104 4288085770
11.971985 -2.5944271 -1.7621617 4288085770
11.913269 -2.4473209 -1.75421 4288085770
11.916229 -2.3093891 -1.7508149 4288085770
12.043549 -2.189806 -1.7575727 4288085770
12.062561 -2.0542402 -1.7518396 4288085770
12.105499 -1.922143 -1.7470956 4288085770
12.193298 -1.7939062 -1.7451591 4288085770
12.289124 -1.6668606 -1.7415533 4288085770
12.388092 -1.5378923 -1.7370319 4288085770
12.467163 -1.4065886 -1.7286968 4288085770
12.6091 -1.2804966 -1.7238894 4288085770
13.103455 0.071541786 -1.6801429 4288085770
11.838928 0.13547802 -1.6982846 4288085770
10.7883 0.19216442 -1.720798 4288085770
9.7620544 0.24515247 -1.7323103 4288085770
8.8977051 0.29290485 -1.7461557 4288085770
8.1693115 0.33800507 -1.7652841 4288085770
7.4790649 0.38024998 -1.779932 4288085770
6.8499146 0.41919041 -1.7909908 4288085770
12.571808 0.45119762 -1.6673241 4288085770
6.2279968 0.45688057 -1.7963476 4288085770
11.444183 0.50336647 -1.6859636 4288085770
5.6740112 0.49222565 -1.8033643 4288085770
10.443634 0.55094337 -1.7035789 4288085770
5.1730347 0.52549648 -1.8104596 4288085770
9.5840759 0.59469414 -1.722692 4288085770
4.7161255 0.55687428 -1.8172851 4288085770
8.7288818 0.63514137 -1.7300277 4288085770
4.2723083 0.58690262 -1.8196387 4288085770
8.0434875 0.67330742 -1.7459459 4288085770
3.8356323 0.61571789 -1.8182864 4288085770
7.393219 0.71071243 -1.7592273 4288085770
3.4717712 0.64418316 -1.8237476 4288085770
6.8059998 0.74583435 -1.7719769 4288085770
3.0831909 0.66998768 -1.8203011 4288085770
6.2409058 0.77841377 -1.779623 4288085770
2.7733459 0.69736576 -1.8258619 4288085770
5.6900024 0.80862522 -1.782855 4288085770
2.4685364 0.72260475 -1.8296561 4288085770
5.1911316 0.83776283 -1.78511 4288085770
2.1072693 0.74467373 -1.8163242 4288085770
4.7481689 0.86684704 -1.7915192 4288085770
1.8514404 0.76893997 -1.821022 4288085770
4.3133545 0.89368343 -1.7932816 4288085770
1.5470276 0.79093361 -1.8118839 4288085770
3.9025879 0.91999149 -1.7929783 4288085770
1.3361816 0.81535912 -1.8203101 4288085770
3.5428162 0.94532204 -1.7956553 4288085770
1.0806885 0.83539677 -1.8130927 4288085770
3.2139282 0.97005177 -1.7995353 4288085770
0.87203979 0.8576498 -1.8146405 4288085770
2.8922424 0.99456787 -1.7996922 4288085770
0.68228149 0.87955189 -1.817924 4288085770
2.6402588 1.0208464 -1.809505 4288085770
0.4380188 0.89726353 -1.8051782 4288085770
2.3953247 1.0459528 -1.8176103 4288085770
0.21765137 0.9145422 -1.795362 4288085770
2.0411072 1.0618134 -1.8006659 4288085770
0.040039062 0.93511581 -1.7941356 4288085770
1.7715454 1.082181 -1.7959046 4288085770
-0.13449097 0.9535923 -1.7910643 4288085770
1.526947 1.1030989 -1.7940927 4288085770
-0.27520752 0.9744997 -1.7942538 4288085770
1.3251648 1.1252546 -1.7979112 4288085770
-0.42581177 0.99352646 -1.7930956 4288085770
1.0896606 1.1449203 -1.7924719 4288085770
-0.55749512 1.0142403 -1.7956357 4288085770
0.88809204 1.1649628 -1.7903323 4288085770
-0.70797729 1.0321922 -1.7904997 4288085770
0.68453979 1.1830053 -1.7861543 4288085770
-0.84246826 1.0498495 -1.786984 4288085770
0.5178833 1.2044001 -1.7873359 4288085770
-0.97302246 1.0674505 -1.7846236 4288085770
0.33636475 1.2219944 -1.7830133 4288085770
-1.09552 1.0858736 -1.7815561 4288085770
0.15289307 1.2395916 -1.7766142 4288085770
-1.2041321 1.104063 -1.7810302 4288085770
-0.015594482 1.2568941 -1.7707987 4288085770
-1.3275452 1.1214666 -1.7759523 4288085770
-0.15319824 1.2766867 -1.7711353 4288085770
-1.4331055 1.1395578 -1.7735453 4288085770
-0.30667114 1.2947168 -1.7668839 4288085770
-1.535675 1.1576118 -1.7722549 4288085770
-0.42831421 1.3151932 -1.7678156 4288085770
-1.6272278 1.1764507 -1.7713723 4288085770
-0.57672119 1.3310518 -1.759798 4288085770
-0.69329834 1.3504171 -1.759944 4288085770
-0.8197937 1.3678799 -1.7547426 4288085770
-0.92431641 1.387989 -1.7543368 4288085770
-1.019928 1.4079418 -1.7552791 4288085770
-1.129364 1.426075 -1.75072 4288085770
-1.2219238 1.4459324 -1.7497807 4288085770
-1.3213806 1.4638872 -1.7466087 4288085770
-1.4118652 1.482667 -1.7437682 4288085770
-1.4924316 1.5022888 -1.7432947 4288085770
-1.5788269 1.5209551 -1.7386117 4288085770
-1.6503906 1.54142 -1.7394686 4288085770
-1.6159363 3.7708588 -1.7171893 4288085770
-1.5223389 3.8429937 -1.7174096 4288085770
-1.4257202 3.9160709 -1.7177277 4288085770
-1.2839661 4.0154505 -1.7292891 4288085770
-1.1822205 4.0893698 -1.7267852 4288085770
-1.0964355 4.151495 -1.7178845 4288085770
-1.3352356 4.0093641 -1.6133122 4293729569
-1.5621643 3.8730898 -1.5140915 4293729569
-1.6126709 3.9409866 -1.7270436 4288085770
-1.4820862 4.0204725 -1.7325463 4288085770
-1.3804626 4.0793247 -1.7263179 4288085770
-1.2397156 4.1625776 -1.7301369 4288085770
-1.1289978 4.2242346 -1.7232032 4288085770
-0.98925781 4.3014345 -1.7230954 4288085770
-0.82641602 4.3922749 -1.7286196 4288085770
-0.74472046 4.4292793 -1.7090273 4288085770
-1.6079102 3.6707706 -0.84844255 4293729569
4.2691345 7.1307869 -1.7531061 4288085770
4.6715393 7.3196163 -1.7469444 4288085770
5.0871277 7.5101357 -1.7382517 4288085770
5.6114197 7.759716 -1.7426205 4288085770
6.1861877 8.0302963 -1.7475262 4288085770
-1.6323853 3.3984308 -0.81055689 4293729569
-1.5302124 3.4211235 -0.79702616 4293729569
-1.4461365 3.4321184 -0.78001881 4293729569
-1.3510437 3.4469156 -0.76436329 4293729569
-1.2157593 3.48102 -0.75488758 4293729569
-1.1246948 3.4898777 -0.73818731 4293729569
-0.95315552 3.5392962 -0.73081255 4293729569
-0.84310913 3.5528193 -0.71675444 4293729569
-0.72094727 3.5731077 -0.70303297 4293729569
-0.6289978 3.5749111 -0.68449879 4293729569
-0.3348999 3.6731062 -0.68990898 4293729569
0.058807373 3.8144655 -0.70432663 4293729569
0.24728394 3.8534813 -0.69379282 4293729569
0.2605896 3.8076878 -0.66613626 4293729569
1.0778198 4.12922 -0.71640396 4293729569
0.52056885 3.8208704 -0.6348033 4293729569
-0.01763916 3.5282764 -0.56064177 4293729569
0.26626587 3.6015415 -0.55912352 4293729569
0.27331543 3.5509443 -0.53532124 4293729569
0.30752563 3.5118542 -0.51434422 4293729569
0.33468628 3.4699011 -0.49315071 4293729569
-0.18554688 3.2032137 -0.4332037 4293729569
-0.077972412 3.1958227 -0.42144442 4293729569
0.021484375 3.1835699 -0.40846729 4293729569
-0.22918701 3.0339394 -0.3736558 4293729569
-0.215271 2.9893379 -0.35700989 4293729569
-0.19842529 2.9446926 -0.34147882 4293729569
-0.16845703 2.9038143 -0.32737732 4293729569
-0.096313477 2.8791323 -0.3155899 4293729569
-0.0071716309 2.8581524 -0.30638552 4293729569
0.1020813 2.8427839 -0.29784536 4293729569
0.20629883 2.8245125 -0.28916597 4293729569
0.26217651 2.7881842 -0.27897549 4293729569
0.27578735 2.7386761 -0.26741505 4293729569
0.27627563 2.6834421 -0.25646019 4293729569
0.271698 2.627327 -0.24632835 4293729569
0.28121948 2.5759373 -0.23664761 4293729569
0.29272461 2.525527 -0.22802496 4293729569
0.40261841 2.5022373 -0.22466326 4293729569
12.714722 -0.45862293 -1.6965022 4288085770
12.151093 -0.55612469 -1.7057748 4288085770
11.632568 -0.64651108 -1.7166471 4288085770
11.153961 -0.73463345 -1.7310014 4288085770
10.655731 -0.81444645 -1.7404432 4288085770
10.175568 -0.88860893 -1.7504725 4288085770
9.6916504 -0.95575714 -1.7572236 4288085770
9.2915344 -1.0234423 -1.7721963 4288085770
8.8955078 -1.0872297 -1.7862525 4288085770
8.467865 -1.1414709 -1.7949142 4288085770
8.0821838 -1.1945095 -1.8061609 4288085770
7.7165222 -1.2449398 -1.8181262 4288085770
7.3202209 -1.2858486 -1.8247361 4288085770
6.9707336 -1.3296099 -1.836195 4288085770
12.722351 -2.1008339 -1.7275777 4288085770
6.6015625 -1.3650637 -1.8427405 4288085770
11.950104 -2.1150742 -1.7383075 4288085770
6.2444763 -1.3977518 -1.8496952 4288085770
11.289673 -2.1335115 -1.7523999 4288085770
5.877594 -1.424305 -1.8531594 4288085770
10.716034 -2.1575832 -1.7729206 4288085770
5.5377808 -1.4493847 -1.8576298 4288085770
10.096008 -2.1658974 -1.7833638 4288085770
5.2098999 -1.4726782 -1.8635273 4288085770
9.500061 -2.1707001 -1.793663 4288085770
4.9130249 -1.4955759 -1.8706031 4288085770
8.9631042 -2.1776485 -1.8062587 4288085770
4.6152344 -1.5154552 -1.8775873 4288085770
8.4045715 -2.1742868 -1.8118305 4288085770
4.3503113 -1.5369377 -1.8878613 4288085770
7.9475098 -2.1817932 -1.8274989 4288085770
4.0250854 -1.5444288 -1.8855553 4288085770
7.4469604 -2.1765623 -1.8352561 4288085770
3.7148132 -1.5511923 -1.8848095 4288085770
7.0063171 -2.1754971 -1.8453851 4288085770
3.4324646 -1.5574837 -1.886126 4288085770
6.5489502 -2.1661606 -1.851716 4288085770
3.1522522 -1.5628328 -1.8865032 4288085770
6.1017761 -2.1530771 -1.8553643 4288085770
2.9088135 -1.5708437 -1.8913422 4288085770
5.6509094 -2.1339931 -1.854754 4288085770
2.6734009 -1.5770102 -1.8964539 4288085770
5.2666016 -2.1231165 -1.8618526 4288085770
2.4588318 -1.5855293 -1.9054098 4288085770
4.8945007 -2.1095314 -1.8663635 4288085770
2.226593 -1.5867939 -1.9085493 4288085770
4.4997559 -2.0865955 -1.8648281 4288085770
1.9213562 -1.56991 -1.8935394 4288085770
4.1715393 -2.0748453 -1.8720551 4288085770
1.6933289 -1.5663118 -1.8937469 4288085770
3.8078918 -2.0495548 -1.8696651 4288085770
1.4584961 -1.5586357 -1.8906145 4288085770
3.4929504 -2.0321341 -1.8732896 4288085770
1.2238159 -1.5480003 -1.8854294 4288085770
3.1919861 -2.0139904 -1.8774376 4288085770
0.98727417 -1.5343618 -1.8781161 4288085770
2.9040527 -1.9961176 -1.8810878 4288085770
0.77755737 -1.5231934 -1.8748775 4288085770
2.6559143 -1.9829636 -1.8893514 4288085770
0.60150146 -1.518589 -1.8780565 4288085770
2.4147949 -1.9689646 -1.8968687 4288085770
0.4196167 -1.5109262 -1.8779516 4288085770
2.1559753 -1.9487133 -1.8985882 4288085770
0.2713623 -1.5088081 -1.8852439 4288085770
1.855896 -1.9128208 -1.8894238 4288085770
0.097564697 -1.4983015 -1.8853951 4288085770
1.5657959 -1.8781433 -1.8796649 4288085770
-0.086029053 -1.4826794 -1.8810725 4288085770
1.2976685 -1.8448906 -1.8707728 4288085770
-0.25567627 -1.4693079 -1.8783264 4288085770
1.0780029 -1.8224373 -1.8719463 4288085770
-0.41439819 -1.4561338 -1.8770032 4288085770
0.85751343 -1.7970219 -1.8700294 4288085770
-0.58187866 -1.4398584 -1.8712835 4288085770
0.64892578 -1.7728205 -1.8695931 4288085770
-0.72470093 -1.4279556 -1.8725953 4288085770
0.4621582 -1.7519894 -1.8730578 4288085770
-0.87136841 -1.414032 -1.870719 4288085770
0.30212402 -1.7366257 -1.880652 4288085770
-1.0140381 -1.399169 -1.8699789 4288085770
0.13427734 -1.7181635 -1.8848863 4288085770
-1.1526184 -1.3834209 -1.8673763 4288085770
-0.058044434 -1.6893511 -1.8809819 4288085770
-1.272522 -1.3719482 -1.8705754 4288085770
-0.25320435 -1.6585379 -1.8739285 4288085770
-1.4119568 -1.35324 -1.8648829 4288085770
-0.4147644 -1.6352692 -1.8743081 4288085770
-1.5375977 -1.3367252 -1.8637638 4288085770
-0.57925415 -1.6089821 -1.87252 4288085770
-1.664093 -1.3192339 -1.8605905 4288085770
-0.72488403 -1.5870075 -1.8745351 4288085770
-1.7571411 -1.3102255 -1.8678651 4288085770
-0.87237549 -1.5630503 -1.8734388 4288085770
-1.0266724 -1.5350151 -1.8690038 4288085770
-1.1583252 -1.5133305 -1.8705602 4288085770
-1.2957153 -1.487607 -1.8678164 4288085770
-1.4251709 -1.4630175 -1.8663988 4288085770
-1.5506287 -1.438509 -1.8651357 4288085770
-1.677948 -1.4120159 -1.8607616 4288085770
-1.7192993 0.63583374 -1.7955666 4288085770
-1.5940247 0.64435673 -1.7981715 4288085770
-1.4626465 0.65274811 -1.8000073 4288085770
-1.3114014 0.66180515 -1.8055911 4288085770
-1.1551819 0.67076492 -1.8113666 4288085770
-1.0038452 0.6787672 -1.8139706 4288085770
-0.85836792 0.68579197 -1.8113661 4288085770
-0.68511963 0.6934042 -1.816813 4288085770
-1.6684265 0.67879581 -1.7956395 4288085770
-0.53649902 0.70031357 -1.811326 4288085770
-1.517395 0.68490982 -1.8042741 4288085770
-0.38592529 0.705163 -1.8049526 4288085770
-1.3682251 0.69000816 -1.8098521 4288085770
-0.19946289 0.71141338 -1.8049221 4288085770
-1.2268982 0.69416714 -1.8101459 4288085770
-0.014984131 0.71666241 -1.8028331 4288085770
-1.0666809 0.69901466 -1.8141479 4288085770
0.20037842 0.72338295 -1.8058958 4288085770
-0.91925049 0.7020216 -1.8126912 4288085770
0.46142578 0.73034477 -1.8177009 4288085770
-0.74310303 0.70555592 -1.8173256 4288085770
0.70672607 0.73548508 -1.8219337 4288085770
-0.57577515 0.70819473 -1.8176355 4288085770
0.93527222 0.7398243 -1.8185368 4288085770
-0.42822266 0.70808887 -1.8102379 4288085770
1.1807556 0.74285221 -1.8168101 4288085770
-0.24591064 0.70941544 -1.810143 4288085770
1.4491882 0.74543285 -1.8159661 4288085770
-0.056549072 0.7105875 -1.8093166 4288085770
1.7267761 0.74778557 -1.81247 4288085770
0.14880371 0.71043491 -1.8091316 4288085770
2.0520935 0.75030136 -1.816802 4288085770
0.39877319 0.71159363 -1.8196211 4288085770
2.4451904 0.75462723 -1.8296766 4288085770
0.66870117 0.71136189 -1.8308969 4288085770
2.7618103 0.75314522 -1.8237338 4288085770
0.88223267 0.70793819 -1.824069 4288085770
3.0855713 0.75043392 -1.8130817 4288085770
1.1375427 0.7048111 -1.8248305 4288085770
3.4930115 0.74926281 -1.8145928 4288085770
1.3988037 0.70155144 -1.8248224 4288085770
3.8887024 0.74517441 -1.807704 4288085770
1.663208 0.6951561 -1.8209877 4288085770
4.3342285 0.74116993 -1.8057141 4288085770
1.9406738 0.68849277 -1.8166523 4288085770
4.8536987 0.7357502 -1.8075638 4288085770
2.3304443 0.68291759 -1.8315883 4288085770
5.305603 0.72639084 -1.7929049 4288085770
2.6677856 0.67410755 -1.8305736 4288085770
5.8692322 0.71696663 -1.7885036 4288085770
2.992218 0.66245461 -1.8241167 4288085770
6.4599609 0.70494366 -1.7811785 4288085770
3.3954163 0.65138531 -1.8266521 4288085770
7.1246643 0.69146919 -1.7756958 4288085770
3.7678833 0.63574696 -1.8190947 4288085770
7.7617188 0.67331219 -1.7572365 4288085770
4.2210693 0.6206522 -1.8206053 4288085770
8.5007019 0.65217495 -1.7427111 4288085770
4.6983032 0.60203266 -1.8200941 4288085770
9.3266907 0.6282959 -1.7285461 4288085770
5.1617432 0.57953644 -1.8111229 4288085770
10.213776 0.60012054 -1.7107811 4288085770
5.6731873 0.55511189 -1.8040123 4288085770
11.274811 0.56751251 -1.6967158 4288085770
6.2206116 0.52693081 -1.7953401 4288085770
12.354095 0.52834988 -1.6724582 4288085770
6.8279419 0.4965868 -1.7889886 4288085770
7.4664307 0.46051121 -1.7769232 4288085770
8.158844 0.42037106 -1.765985 4288085770
8.8694458 0.37575054 -1.7488146 4288085770
9.6669922 0.3263855 -1.7320395 4288085770
10.682037 0.26788807 -1.7287188 4288085770
11.669556 0.20163441 -1.7084799 4288085770
12.772095 0.12706089 -1.687767 4288085770
0.50726318 -4.3655052 -0.58666992 4293729569
0.6104126 -4.3847671 -0.63196707 4293729569
0.64660645 -4.3608017 -0.66990709 4293729569
0.72909546 -4.3636799 -0.71311283 4293729569
0.92584229 -4.3820724 -0.799963 4293729569
0.99472046 -4.3697228 -0.84036255 4293729569
7.0328979 -7.8529434 -1.5742531 4293729569
1.2597351 -4.4153481 -0.93531513 4293729569
1.3012085 -4.3815393 -0.97026777 4293729569
1.4292297 -4.3740005 -0.53457403 4293729569
6.0486755 -7.0033245 -1.60495 4293729569
1.5389709 -4.3745356 -0.57176065 4293729569
1.5665894 -4.4111896 -1.0639296 4293729569
1.7011414 -4.4000311 -0.61440468 4293729569
1.6762085 -4.4086123 -1.1070566 4293729569
1.8485718 -4.4152608 -0.6552949 4293729569
1.8262939 -4.4257665 -1.1550913 4293729569
1.9350281 -4.4181709 -1.1980891 4293729569
2.1050415 -4.4170098 -0.73307848 4293729569
2.0921326 -4.4344411 -1.2473717 4293729569
2.1921692 -4.4177322 -1.2868648 4293729569
2.3686829 -4.4159317 -0.80907631 4293729569
2.3651733 -4.4383111 -1.3368301 4293729569
2.4416504 -4.4042006 -1.3721004 4293729569
2.7066956 -4.4392605 -0.89035273 4293729569
2.6532288 -4.4364552 -1.4277506 4293729569
2.8851929 -4.4511104 -0.93135309 4293729569
4.091095 -5.0661092 -1.6732354 4293729569
8.6836853 -7.1593728 -1.5463543 4293729569
2.9889221 -4.4494853 -1.5227556 4293729569
3.1504822 -4.4241366 -1.0029187 4293729569
3.2214966 -4.4811473 -1.5791883 4293729569
3.4122314 -4.4665461 -1.0506492 4293729569
3.6986084 -4.6240277 -1.6760063 4293729569
7.9750671 -6.4705739 -1.5645113 4293729569
3.6385193 -4.5126276 -1.6846251 4293729569
3.7490845 -4.4559431 -1.1262331 4293729569
3.6780701 -4.445962 -1.7088704 4293729569
7.6419067 -6.0905304 -1.5777225 4293729569
3.5993042 -4.3273072 -1.7116504 4293729569
4.1357727 -4.4563398 -1.2029152 4293729569
3.754364 -4.3096824 -1.752203 4293729569
4.4266357 -4.49231 -1.2516208 4293729569
3.9706116 -4.3171163 -1.8025513 4293729569
4.6799927 -4.5086102 -1.2955332 4293729569
4.2087402 -4.3299565 -1.8548293 4293729569
4.8948975 -4.505218 -1.3346148 4293729569
4.4291687 -4.3314896 -1.9042215 4288085770
5.1316528 -4.5072494 -1.3746257 4293729569
4.4266968 -4.2392244 -1.9143786 4288085770
5.4397583 -4.5335717 -1.4227972 4293729569
4.3512573 -4.1177444 -1.9102135 4288085770
5.729187 -4.5465703 -1.468009 4293729569
4.2650146 -3.9931097 -1.9025764 4288085770
6.0583191 -4.5713201 -1.5159454 4293729569
4.2064514 -3.8809738 -1.8982248 4288085770
6.2678223 -4.5469112 -1.5494184 4293729569
4.1864319 -3.7845321 -1.8986316 4288085770
6.8148499 -4.6416154 -1.6219349 4293729569
4.1574707 -3.6849356 -1.8976402 4288085770
6.8227844 -4.536624 -1.6282392 4293729569
4.1236572 -3.5852985 -1.8934617 4288085770
6.8544922 -4.4420924 -1.6356411 4293729569
4.1263733 -3.4992986 -1.8949275 4288085770
7.0575256 -4.4026675 -1.6625781 4293729569
4.1044922 -3.4038935 -1.8912797 4288085770
7.3992615 -4.4097681 -1.704648 4293729569
4.1024475 -3.3168716 -1.8885403 4288085770
7.7718506 -4.4194493 -1.7489357 4293729569
4.1181641 -3.2341413 -1.8895578 4288085770
8.1624146 -4.4294801 -1.7939095 4293729569
4.1427917 -3.1546025 -1.8899741 4288085770
8.5640259 -4.4367232 -1.8392477 4288085770
4.1546936 -3.0708704 -1.8868241 4288085770
8.8737793 -4.4113665 -1.8704829 4288085770
4.1864319 -2.9935045 -1.8855457 4288085770
8.9675903 -4.3191299 -1.8752708 4288085770
4.2299194 -2.92133 -1.8868141 4288085770
9.0140076 -4.2121019 -1.8709798 4288085770
4.271637 -2.8461766 -1.884954 4288085770
9.0455322 -4.1008019 -1.8650441 4288085770
4.321228 -2.774157 -1.8844523 4288085770
9.1218262 -4.0013723 -1.8610253 4288085770
4.3461609 -2.6947508 -1.8778749 4288085770
9.2347412 -3.9115963 -1.8615785 4288085770
4.4473267 -2.6346588 -1.883553 4288085770
9.3300476 -3.8135505 -1.8573031 4288085770
4.499115 -2.5597553 -1.8790774 4288085770
9.4263916 -3.7165627 -1.8510857 4288085770
4.5647583 -2.4911003 -1.8762431 4288085770
9.555481 -3.6281919 -1.847271 4288085770
4.6453552 -2.4237356 -1.8739996 4288085770
9.6579285 -3.5313759 -1.838285 4288085770
4.7636414 -2.3640299 -1.8773289 4288085770
9.7813416 -3.4369655 -1.8301363 4288085770
4.8364258 -2.2945681 -1.8717456 4288085770
9.9443665 -3.3532887 -1.8256922 4288085770
4.9181824 -2.2252998 -1.8655071 4288085770
10.116577 -3.2678256 -1.8195572 4288085770
5.048584 -2.1648836 -1.8662782 4288085770
10.333527 -3.1902099 -1.8162642 4288085770
5.1750488 -2.103426 -1.8648791 4288085770
10.503967 -3.1008024 -1.8049836 4288085770
5.333313 -2.0465317 -1.8677716 4288085770
10.698303 -3.0148396 -1.7956724 4288085770
5.4848022 -1.9855595 -1.8673263 4288085770
10.956451 -2.9361148 -1.7889109 4288085770
5.6452637 -1.9257784 -1.8662429 4288085770
11.222656 -2.8575625 -1.7814541 4288085770
5.8356018 -1.8685408 -1.8683386 4288085770
11.500916 -2.7772808 -1.7724209 4288085770
6.0141296 -1.8081274 -1.8669243 4288085770
11.81015 -2.6995983 -1.7646055 4288085770
6.205658 -1.7479858 -1.8650055 4288085770
12.120514 -2.6199923 -1.7537932 4288085770
6.3823853 -1.6835938 -1.8604441 4288085770
12.491669 -2.5465479 -1.746397 4288085770
6.5950012 -1.6218948 -1.8572917 4288085770
12.840302 -2.4627733 -1.7319465 4288085770
6.7789917 -1.5537138 -1.848927 4288085770
7.0067139 -1.4893475 -1.8442931 4288085770
7.2643433 -1.4275389 -1.8418374 4288085770
7.5113525 -1.3585978 -1.8348393 4288085770
7.7494202 -1.288537 -1.8244815 4288085770
8.0552979 -1.2227383 -1.819768 4288085770
8.3076477 -1.1480246 -1.8058558 4288085770
8.6227417 -1.0774755 -1.7973971 4288085770
8.94104 -1.0040426 -1.7859998 4288085770
9.3003235 -0.9294014 -1.7761297 4288085770
9.706543 -0.85567093 -1.7680497 4288085770
10.125977 -0.7772522 -1.7573771 4288085770
10.606476 -0.69802952 -1.7479939 4288085770
11.147919 -0.6169939 -1.740881 4288085770
11.672699 -0.5307188 -1.7280316 4288085770
12.196838 -0.43754482 -1.709022 4288085770
12.903687 -0.34583664 -1.7009473 4288085770
13.211456 0.15575409 -1.6778851 4288085770
12.134003 0.25257587 -1.6917267 4288085770
11.25827 0.33946419 -1.7113128 4288085770
10.398712 0.42089367 -1.7236037 4288085770
9.603241 0.49497986 -1.7324286 4288085770
8.9017029 0.5652132 -1.7428446 4288085770
8.2472229 0.63044739 -1.7501149 4288085770
7.7075806 0.69248104 -1.7627478 4288085770
7.1600952 0.7495594 -1.7691765 4288085770
13.262604 0.93811417 -1.6277862 4288085770
6.6905212 0.80513096 -1.7785525 4288085770
12.261688 1.0073805 -1.6410232 4288085770
6.2319946 0.85743618 -1.7854018 4288085770
11.493622 1.0741549 -1.6630273 4288085770
5.7766724 0.90555286 -1.7854447 4288085770
10.683746 1.1335497 -1.6735997 4288085770
5.3532715 0.95205021 -1.786715 4288085770
10.016815 1.1931868 -1.6895218 4288085770
4.981781 0.99856377 -1.7909317 4288085770
9.4268799 1.251318 -1.7073541 4288085770
4.6243286 1.0417719 -1.7937346 4288085770
8.8031616 1.301919 -1.7140574 4288085770
4.2998962 1.0843039 -1.7957859 4288085770
8.2793274 1.3526287 -1.726501 4288085770
3.9834595 1.1236668 -1.797195 4288085770
7.8115234 1.4032221 -1.7390437 4288085770
3.6890259 1.1625643 -1.7974381 4288085770
7.3179321 1.4471645 -1.7427406 4288085770
3.4086304 1.2011919 -1.7982106 4288085770
6.8683167 1.4912586 -1.7480812 4288085770
3.1174011 1.2349224 -1.7926636 4288085770
6.4955444 1.5359249 -1.7592921 4288085770
2.8500671 1.2682076 -1.7890234 4288085770
6.1568604 1.5818939 -1.769753 4288085770
2.6654358 1.3080769 -1.7983642 4288085770
5.8192139 1.6258097 -1.7782912 4288085770
2.4828796 1.3468695 -1.8058009 4288085770
5.4646606 1.6639423 -1.7803011 4288085770
2.2963562 1.3826847 -1.8101435 4288085770
5.1331482 1.7006111 -1.7821999 4288085770
2.037262 1.4096279 -1.7969251 4288085770
4.8157349 1.7359352 -1.7806501 4288085770
1.8090515 1.4370317 -1.7878566 4288085770
4.4903259 1.7683792 -1.7768545 4288085770
1.6555786 1.4721918 -1.7924476 4288085770
4.2218933 1.8037758 -1.7781372 4288085770
1.5071106 1.506216 -1.795248 4288085770
3.9404907 1.83535 -1.7750044 4288085770
1.3596497 1.5392218 -1.7981048 4288085770
3.6911011 1.8683071 -1.773046 4288085770
1.2172241 1.572094 -1.7991519 4288085770
3.4726257 1.9037218 -1.7751999 4288085770
1.0569153 1.6002216 -1.7946153 4288085770
3.2522278 1.9361172 -1.7743368 4288085770
0.92953491 1.6328058 -1.7962298 4288085770
3.0707703 1.9728184 -1.777853 4288085770
0.81808472 1.6670961 -1.7994113 4288085770
2.8484192 2.0011778 -1.7729907 4288085770
0.67279053 1.6939163 -1.7944608 4288085770
2.6621094 2.0338621 -1.7703967 4288085770
0.55844116 1.7252121 -1.7945871 4288085770
2.561554 2.0791273 -1.7837849 4288085770
0.44009399 1.7535286 -1.7916188 4288085770
2.4211121 2.1160135 -1.7878327 4288085770
0.32284546 1.7828064 -1.787672 4288085770
2.0773315 2.1131773 -1.748992 4288085770
0.22943115 1.8147135 -1.7895722 4288085770
1.4872742 2.0583191 -1.6588798 4293729569
0.10723877 1.8400345 -1.7825127 4288085770
1.1764832 2.0528297 -1.6203227 4293729569
-0.0020141602 1.8661022 -1.7759247 4288085770
1.1647949 2.1054659 -1.6419044 4293729569
-0.11022949 1.8931704 -1.7703571 4288085770
1.184082 2.1665945 -1.6694889 4293729569
-0.19952393 1.9219084 -1.767468 4288085770
1.0368347 2.1913977 -1.6615033 4293729569
-0.29672241 1.9487457 -1.7613168 4288085770
0.70419312 2.1701307 -1.6114168 4293729569
-0.36706543 1.9811697 -1.7620702 4288085770
0.12817383 2.0876923 -1.505342 4293729569
-0.4453125 2.0096779 -1.7585974 4288085770
-0.10171509 2.0816765 -1.4718251 4293729569
-0.50564575 2.0429106 -1.7597108 4288085770
-0.36557007 2.064168 -1.4292493 4293729569
-0.57489014 2.0732613 -1.7575417 4288085770
-0.59750366 2.0511169 -1.391788 4293729569
-0.61328125 2.1111441 -1.763392 4288085770
-0.80148315 2.0435982 -1.3592715 4293729569
-0.67547607 2.1423416 -1.7604694 4288085770
-0.93264771 2.052928 -1.3431721 4293729569
-1.1130066 2.0650311 -1.6484704 4293729569
-1.073761 2.0573616 -1.3217902 4293729569
-1.2738037 2.0626259 -1.6144714 4293729569
-1.2089233 2.0616941 -1.3016343 4293729569
-1.4266052 2.0610828 -1.5817561 4293729569
-1.4258118 2.0412817 -1.2608709 4293729569
-1.4997559 2.0813475 -1.5706258 4293729569
-1.5410156 2.047267 -1.243432 4293729569
-1.5011597 2.1235676 -1.58078 4293729569
-1.6152954 2.065587 -1.2342992 4293729569
-1.5085144 2.1648693 -1.5887275 4293729569
-1.5547791 2.1927195 -1.5844665 4293729569
-1.673645 2.1955967 -1.5569401 4293729569
-1.5743408 2.2723083 -1.5942326 4293729569
-1.4930115 2.3442926 -1.6269393 4293729569
-1.5809326 2.3556795 -1.6064153 4293729569
-1.591156 2.3959465 -1.6092725 4293729569
-1.6322632 2.423625 -1.6012044 4293729569
-1.5841675 2.7483053 -1.631875 4293729569
3.1010742 6.7065277 -1.7672138 4288085770
3.2296448 6.8355961 -1.744555 4288085770
3.5143738 7.0630169 -1.7458925 4288085770
0.75158691 5.4340916 -1.7194052 4288085770
3.8093262 7.2961693 -1.7435021 4288085770
0.92358398 5.5777187 -1.7201147 4288085770
4.0883179 7.5205574 -1.7366738 4288085770
1.1359558 5.746624 -1.7248588 4288085770
4.4772949 7.8149681 -1.7406435 4288085770
1.3433533 5.9115868 -1.7274876 4288085770
4.8613892 8.1064224 -1.7414804 4288085770
1.5579529 6.0803585 -1.7273102 4288085770
1.8058472 6.2705441 -1.7309756 4288085770
2.0508728 6.4576931 -1.7295856 4288085770
2.3362122 6.6711369 -1.7332101 4288085770
2.6761169 6.9186001 -1.7422423 4288085770
3.0150757 7.1660118 -1.7472272 4288085770
3.354187 7.410347 -1.7482686 4288085770
3.7024841 7.6574364 -1.7455964 4288085770
4.1164551 7.9483471 -1.7495546 4288085770
13.022919 -0.22339344 -1.692575 4288085770
12.072571 -0.29130554 -1.7026238 4288085770
11.37085 -0.35792065 -1.726872 4288085770
10.613739 -0.41460514 -1.7408752 4288085770
9.8649902 -0.46158314 -1.7480068 4288085770
9.2221375 -0.50852489 -1.7630639 4288085770
8.6353455 -0.55158329 -1.7781281 4288085770
8.0677795 -0.58906555 -1.7907991 4288085770
7.5482788 -0.62349415 -1.8041954 4288085770
7.0619202 -0.65459347 -1.8167567 4288085770
12.733185 -1.1197014 -1.7062316 4288085770
6.5748291 -0.6807518 -1.8251967 4288085770
11.793549 -1.1316624 -1.724658 4288085770
6.0869141 -0.70094872 -1.8304954 4288085770
10.924042 -1.1410284 -1.7426343 4288085770
5.6350403 -0.72085571 -1.8361239 4288085770
10.142639 -1.1501389 -1.7608681 4288085770
5.2351685 -0.73974895 -1.8446603 4288085770
9.4273987 -1.1556005 -1.7774844 4288085770
4.8840942 -0.75852776 -1.8580084 4288085770
8.7424011 -1.1587334 -1.7901745 4288085770
4.5113831 -0.77197838 -1.8654504 4288085770
8.1195068 -1.1590958 -1.8031139 4288085770
4.1487732 -0.78367901 -1.8702335 4288085770
7.5475769 -1.1604404 -1.8179607 4288085770
3.7537231 -0.78691387 -1.8646502 4288085770
7.0216675 -1.1607103 -1.8324933 4288085770
3.4391479 -0.7955389 -1.8711576 4288085770
6.4801941 -1.1548033 -1.8393283 4288085770
3.1218262 -0.80018139 -1.873486 4288085770
5.9598389 -1.1463375 -1.8448982 4288085770
2.8026123 -0.80282593 -1.8737068 4288085770
5.4537048 -1.1352396 -1.845943 4288085770
2.5004578 -0.80381393 -1.8735285 4288085770
5.0559998 -1.1320667 -1.8601618 4288085770
2.2450562 -0.80761433 -1.8801389 4288085770
4.6595154 -1.1250067 -1.8693504 4288085770
1.9412842 -0.80268097 -1.873785 4288085770
4.2910767 -1.1194878 -1.8796048 4288085770
1.5802002 -0.78689575 -1.8510995 4288085770
3.8722839 -1.1021938 -1.8767672 4288085770
1.2986145 -0.77846146 -1.8415012 4288085770
3.5083008 -1.0889206 -1.8780375 4288085770
1.0636292 -0.77479744 -1.8407249 4288085770
3.2088928 -1.0817671 -1.8888202 4288085770
0.84265137 -0.77140236 -1.8404727 4288085770
2.8502502 -1.062706 -1.8841777 4288085770
0.62277222 -0.76506996 -1.8382063 4288085770
2.522522 -1.0462189 -1.8817282 4288085770
0.4050293 -0.75780869 -1.8339992 4288085770
2.2434692 -1.0335817 -1.8861589 4288085770
0.24468994 -0.75745869 -1.8430562 4288085770
1.9468079 -1.0157328 -1.8828354 4288085770
0.079559326 -0.75408649 -1.8478761 4288085770
1.5849915 -0.98589611 -1.8618641 4288085770
-0.061798096 -0.75308228 -1.8586249 4288085770
1.2827759 -0.96208 -1.8502183 4288085770
-0.21005249 -0.75 -1.8660789 4288085770
0.99258423 -0.93751812 -1.8380046 4288085770
-0.39758301 -0.73837662 -1.8599086 4288085770
0.77770996 -0.92320633 -1.8397794 4288085770
-0.58209229 -0.72684669 -1.8518519 4288085770
0.58361816 -0.91222286 -1.8463898 4288085770
-0.7487793 -0.71558857 -1.8484635 4288085770
0.3739624 -0.89508438 -1.8443027 4288085770
-0.89956665 -0.70662117 -1.8467093 4288085770
0.19595337 -0.88344955 -1.8494959 4288085770
-1.0354309 -0.69788361 -1.8485117 4288085770
0.022125244 -0.86992455 -1.8528047 4288085770
-1.1929016 -0.68487358 -1.8414297 4288085770
-0.10137939 -0.86417675 -1.869133 4288085770
-1.3345642 -0.67311764 -1.8379598 4288085770
-0.29879761 -0.84436226 -1.8624473 4288085770
-1.4524841 -0.66472626 -1.840436 4288085770
-0.48712158 -0.82374191 -1.8550811 4288085770
-1.5939331 -0.65102577 -1.8339338 4288085770
-0.64285278 -0.80762291 -1.8560128 4288085770
-1.7244873 -0.63751793 -1.8288422 4288085770
-0.81231689 -0.78834915 -1.8503737 4288085770
-0.96981812 -0.77028656 -1.8462 4288085770
-1.1124268 -0.75347328 -1.8446026 4288085770
-1.2668152 -0.73350525 -1.8385081 4288085770
-1.4112549 -0.71472931 -1.8328052 4288085770
-1.5417786 -0.69718742 -1.8296409 4288085770
-1.662384 -0.68079758 -1.8288655 4288085770
-1.6788025 1.1975307 -1.7657242 4288085770
-1.5613403 1.2081823 -1.7648263 4288085770
-1.4389343 1.2177534 -1.7651305 4288085770
-1.3144531 1.2272511 -1.7635093 4288085770
-1.1730652 1.2384968 -1.766479 4288085770
-1.0355835 1.2477455 -1.7653389 4288085770
-0.88919067 1.2578564 -1.7665124 4288085770
-0.73376465 1.2677774 -1.7670197 4288085770
-1.5975037 1.1750469 -1.7750492 4288085770
-0.57336426 1.2766037 -1.7677298 4288085770
-1.4741821 1.1806002 -1.7754602 4288085770
-0.4029541 1.2862549 -1.7697911 4288085770
-1.3587646 1.1832361 -1.7716317 4288085770
-0.2265625 1.2947731 -1.7710919 4288085770
-1.2313843 1.1876783 -1.7702098 4288085770
-0.030212402 1.304944 -1.7750964 4288085770
-1.070282 1.1946144 -1.7779865 4288085770
0.16320801 1.313118 -1.7760272 4288085770
-0.94287109 1.1960211 -1.7746186 4288085770
0.38153076 1.323884 -1.7818265 4288085770
-0.81344604 1.196352 -1.7693443 4288085770
0.61880493 1.3332872 -1.7883468 4288085770
-0.65222168 1.1991978 -1.7721949 4288085770
0.83526611 1.3399849 -1.7881465 4288085770
-0.48794556 1.2009506 -1.7731762 4288085770
1.0955811 1.3489275 -1.794518 4288085770
-0.30081177 1.2043324 -1.7789693 4288085770
1.3449707 1.35499 -1.7955384 4288085770
-0.12353516 1.2058353 -1.7804313 4288085770
1.5935059 1.3589983 -1.7925611 4288085770
0.064697266 1.2051086 -1.7813358 4288085770
1.8530273 1.3617964 -1.7900076 4288085770
0.26690674 1.2061501 -1.7847204 4288085770
2.2221069 1.3737593 -1.8063169 4288085770
0.49499512 1.206748 -1.7920651 4288085770
2.5046387 1.3740597 -1.801651 4288085770
0.7052002 1.2035818 -1.792819 4288085770
2.7564087 1.3688116 -1.7879505 4288085770
0.94134521 1.2019701 -1.7974963 4288085770
3.0381165 1.3640032 -1.7763419 4288085770
1.1904602 1.1990929 -1.8016729 4288085770
3.4184875 1.3655167 -1.7802434 4288085770
1.4147339 1.1905851 -1.7990355 4288085770
3.7920227 1.3640537 -1.7779431 4288085770
1.6579895 1.1827126 -1.7970824 4288085770
4.2123718 1.3627443 -1.7803617 4288085770
1.9420776 1.1761465 -1.8016071 4288085770
4.6278992 1.3574219 -1.77667 4288085770
2.2690125 1.1698303 -1.8117003 4288085770
5.0833435 1.3513498 -1.7754564 4288085770
2.5840149 1.1606693 -1.8174062 4288085770
5.5718384 1.3436108 -1.7734828 4288085770
2.8453979 1.1433067 -1.8082838 4288085770
6.09729 1.3341408 -1.7718954 4288085770
3.1575928 1.127039 -1.8050084 4288085770
6.6109314 1.3187551 -1.7619758 4288085770
3.454895 1.106987 -1.7972527 4288085770
7.167572 1.3005285 -1.7526827 4288085770
3.8129883 1.0868578 -1.7967305 4288085770
7.73526 1.2790146 -1.739852 4288085770
4.19104 1.0653257 -1.7959661 4288085770
8.3878479 1.2558708 -1.7301641 4288085770
4.584137 1.0404682 -1.7938108 4288085770
9.0874634 1.2287722 -1.7192693 4288085770
5.0141602 1.0139036 -1.7930412 4288085770
9.7991943 1.1953354 -1.7029295 4288085770
5.433197 0.98147774 -1.7879734 4288085770
10.523956 1.1565552 -1.6821609 4288085770
5.8962097 0.94820786 -1.784533 4288085770
11.428589 1.1163425 -1.669013 4288085770
6.394165 0.91025066 -1.7814574 4288085770
12.374359 1.0692158 -1.6504922 4288085770
6.9031677 0.86700821 -1.7748799 4288085770
7.4371338 0.81925201 -1.7672992 4288085770
7.9781494 0.76627064 -1.7550688 4288085770
8.5551147 0.70758057 -1.7432585 4288085770
9.1929321 0.64472389 -1.7337561 4288085770
9.9226379 0.57608318 -1.7267265 4288085770
10.673309 0.49797058 -1.7166357 4288085770
11.473969 0.41280842 -1.7035027 4288085770
12.258759 0.31884289 -1.6839414 4288085770
0.21386719 -4.8160763 -0.23843575 4293729569
-0.44625854 -4.348217 -0.60799074 4293729569
0.27825928 -4.8735452 -0.28487396 4293729569
-0.48117065 -4.3348866 -0.64348602 4293729569
0.22940063 -4.8458605 -0.32459784 4293729569
0.22387695 -4.8489695 -0.36847639 4293729569
0.23321533 -4.8593826 -0.41203117 4293729569
4.1672058 -7.7875834 -1.6326876 4293729569
3.8127136 -7.5202475 -1.6447968 4293729569
-0.44769287 -4.3413134 -0.60267687 4293729569
3.4672852 -7.2571578 -1.6533132 4293729569
-0.4211731 -4.3501277 -0.64282608 4293729569
3.147583 -7.0095968 -1.661056 4293729569
-0.39276123 -4.3589435 -0.68504667 4293729569
2.866394 -6.787776 -1.6706815 4293729569
-0.40158081 -4.3391142 -0.72137308 4293729569
2.6176147 -6.588541 -1.6839123 4293729569
-0.35629272 -4.3552527 -0.76434422 4293729569
-0.40536499 -4.3670473 -1.1691079 4293729569
-0.3197937 -4.3642392 -0.80585909 4293729569
-0.38967896 -4.3626189 -1.210618 4293729569
-0.31570435 -4.3466597 -0.84269953 4293729569
-0.39736938 -4.338829 -1.2459106 4293729569
-0.29727173 -4.3918228 -1.3025742 4293729569
4.5229797 -7.7306929 -1.6293688 4293729569
-0.31079102 -4.3599401 -1.336504 4293729569
4.161377 -7.4323473 -1.6336403 4293729569
-0.35458374 -4.3045835 -1.3628883 4293729569
-0.14465332 -4.3690534 -1.011426 4293729569
1.1131287 -5.3206043 -1.7224813 4293729569
-0.11871338 -4.3578739 -1.0501804 4293729569
0.95666504 -5.1773357 -1.7291112 4293729569
-0.040679932 -4.3816032 -1.0964866 4293729569
0.34194946 -4.7118373 -1.6259851 4293729569
3.0708618 -6.4858065 -1.6672988 4293729569
2.8503723 -6.2862396 -1.674551 4293729569
0.018859863 -4.4184828 -1.6177378 4293729569
0.10739136 -4.3783402 -1.219873 4293729569
0.38467407 -4.6346231 -1.7401538 4293729569
0.12481689 -4.351068 -1.2540131 4293729569
0.25216675 -4.5059791 -1.7389264 4293729569
0.22271729 -4.3761444 -1.3030686 4293729569
0.13641357 -4.3866181 -1.7404823 4293729569
2.135376 -5.5972981 -1.7046766 4293729569
0.060882568 -4.2959027 -1.7510405 4293729569
0.33926392 -4.3680062 -1.3841953 4293729569
0.019622803 -4.2267566 -1.7682552 4293729569
1.1792908 -4.8672895 -1.5821857 4293729569
0.074432373 -4.2200928 -1.8101439 4293729569
1.1116333 -4.771636 -1.5979424 4293729569
0.15280151 -4.2268295 -1.8561444 4293729569
1.1342773 -4.7344823 -1.6310868 4293729569
0.24002075 -4.235682 -1.905508 4288085770
0.65945435 -4.3822727 -1.5571899 4293729569
0.26461792 -4.2046008 -1.9368358 4288085770
1.0099792 -4.5494947 -1.6571169 4293729569
0.17773438 -4.1008639 -1.9357309 4288085770
1.199707 -4.610096 -1.7231822 4293729569
0.08795166 -3.9941282 -1.9314642 4288085770
1.0999756 -4.4920607 -1.7243447 4293729569
0.0011901855 -3.8914661 -1.9263806 4288085770
1.0189209 -4.3863478 -1.7284184 4293729569
-0.11196899 -3.7714429 -1.9120083 4288085770
0.96051025 -4.2940326 -1.7355676 4293729569
-0.18392944 -3.6770468 -1.9086185 4288085770
0.97085571 -4.2418394 -1.7569752 4293729569
-0.23242188 -3.5980306 -1.9103746 4288085770
1.0784302 -4.2452068 -1.7999697 4293729569
-0.30044556 -3.5077472 -1.9052048 4288085770
1.1880493 -4.2476115 -1.8430181 4293729569
-0.33309937 -3.4370151 -1.9086909 4288085770
1.3105164 -4.2542462 -1.8876147 4288085770
-0.37457275 -3.3621688 -1.9087782 4288085770
1.3672791 -4.2218528 -1.9160833 4288085770
-0.41500854 -3.2873607 -1.9079022 4288085770
1.3111267 -4.126689 -1.9172568 4288085770
-0.45046997 -3.2156458 -1.9072642 4288085770
1.2600098 -4.0346565 -1.9166703 4288085770
-0.49377441 -3.1398559 -1.9022646 4288085770
1.1686096 -3.9209967 -1.9062099 4288085770
-0.51937866 -3.0733304 -1.9020839 4288085770
1.129303 -3.8371897 -1.9062071 4288085770
-0.54498291 -3.0068254 -1.9009027 4288085770
1.0861511 -3.7503471 -1.9040055 4288085770
-0.58425903 -2.9341278 -1.8951049 4288085770
1.0351257 -3.660388 -1.8994589 4288085770
-0.58624268 -2.8810029 -1.899035 4288085770
1.0087585 -3.5828667 -1.8980432 4288085770
-0.6078186 -2.8186088 -1.8960748 4288085770
0.97357178 -3.503211 -1.8942618 4288085770
-0.62442017 -2.7573113 -1.8933163 4288085770
0.95410156 -3.4298229 -1.8931746 4288085770
-0.6282959 -2.7032037 -1.8941569 4288085770
0.91699219 -3.3481665 -1.8872867 4288085770
-0.63900757 -2.646018 -1.8916903 4288085770
0.90057373 -3.2778711 -1.8843641 4288085770
-0.63198853 -2.5971212 -1.8930244 4288085770
0.8861084 -3.2076144 -1.881515 4288085770
-0.63375854 -2.5440884 -1.8919582 4288085770
0.88845825 -3.1456432 -1.8814316 4288085770
-0.62670898 -2.4942093 -1.8922753 4288085770
0.88882446 -3.0826516 -1.8802571 4288085770
-0.62051392 -2.4443474 -1.8905573 4288085770
0.9050293 -3.0269475 -1.8807945 4288085770
-0.61050415 -2.3965244 -1.8910203 4288085770
0.9281311 -2.9733372 -1.8836226 4288085770
-0.59939575 -2.3487577 -1.8895211 4288085770
0.96304321 -2.9259553 -1.8869977 4288085770
-0.58926392 -2.3009911 -1.8869863 4288085770
0.98425293 -2.8723626 -1.8867545 4288085770
-0.56729126 -2.2583952 -1.8879781 4288085770
1.0084534 -2.8178473 -1.8856044 4288085770
-0.54238892 -2.2158766 -1.8880811 4288085770
1.0415649 -2.7684832 -1.8858728 4288085770
-0.50854492 -2.1764908 -1.8905659 4288085770
1.0825806 -2.7212539 -1.8874693 4288085770
-0.49234009 -2.1308756 -1.8862886 4288085770
1.1236267 -2.6740413 -1.8880668 4288085770
-0.46142578 -2.0904703 -1.8866472 4288085770
1.1755676 -2.6290207 -1.8901024 4288085770
-0.4432373 -2.0449114 -1.881444 4288085770
1.2137756 -2.5808086 -1.8875742 4288085770
-0.39154053 -2.010849 -1.8856769 4288085770
1.2973633 -2.5473213 -1.8949761 4288085770
-0.3447876 -1.9757299 -1.8877101 4288085770
1.337616 -2.4971867 -1.8904862 4288085770
-0.30783081 -1.9364786 -1.8863082 4288085770
1.4133911 -2.4606028 -1.8945432 4288085770
-0.25009155 -1.9035683 -1.8887801 4288085770
1.4734497 -2.4168091 -1.8928924 4288085770
-0.22094727 -1.8612366 -1.8830338 4288085770
1.5306702 -2.3719959 -1.8891144 4288085770
-0.15927124 -1.8293848 -1.8866687 4288085770
1.6312866 -2.3398724 -1.8951583 4288085770
-0.11032104 -1.7923794 -1.8847423 4288085770
1.6599121 -2.2846365 -1.8831439 4288085770
-0.052459717 -1.7575254 -1.8841801 4288085770
1.7576904 -2.2505112 -1.8860435 4288085770
0.013366699 -1.7248068 -1.8849468 4288085770
1.851593 -2.2143669 -1.8857627 4288085770
0.080169678 -1.6921244 -1.8847499 4288085770
1.9524231 -2.1793365 -1.886755 4288085770
0.15493774 -1.6605778 -1.8858633 4288085770
2.0632629 -2.1454964 -1.8881316 4288085770
0.22772217 -1.6290092 -1.8859038 4288085770
2.163269 -2.1085043 -1.8860531 4288085770
0.30062866 -1.5954809 -1.8839097 4288085770
2.3147583 -2.0833702 -1.8930707 4288085770
0.38439941 -1.564106 -1.8853526 4288085770
2.4336853 -2.0487223 -1.8927236 4288085770
0.46621704 -1.5337467 -1.8837419 4288085770
2.5497131 -2.013072 -1.8892508 4288085770
0.53829956 -1.4982538 -1.8786778 4288085770
2.6925354 -1.9818802 -1.8898349 4288085770
0.64691162 -1.4703369 -1.8820877 4288085770
2.7998352 -1.940135 -1.8819265 4288085770
0.7298584 -1.4370346 -1.8784604 4288085770
2.934906 -1.9048653 -1.8781486 4288085770
0.80316162 -1.3996391 -1.8693995 4288085770
3.0997314 -1.8751135 -1.8785563 4288085770
0.94552612 -1.3773155 -1.8771415 4288085770
3.2765808 -1.8455906 -1.8794031 4288085770
1.0534058 -1.3464727 -1.8754644 4288085770
3.4822388 -1.8206034 -1.8823819 4288085770
1.1969604 -1.3232241 -1.8802257 4288085770
3.6799927 -1.7934809 -1.8840327 4288085770
1.3969116 -1.308876 -1.8972101 4288085770
3.8898621 -1.765626 -1.8841052 4288085770
1.4822388 -1.2707653 -1.885571 4288085770
4.0947876 -1.7357149 -1.8819604 4288085770
1.6260681 -1.2426081 -1.8852463 4288085770
4.3554688 -1.7127972 -1.8859692 4288085770
1.7966309 -1.2178955 -1.8899603 4288085770
4.5874329 -1.6824198 -1.8837943 4288085770
