# .PCD v0.7 - Point Cloud Data file format
VERSION 0.7
FIELDS x y z rgb
SIZE 4 4 4 4
TYPE F F F U
COUNT 1 1 1 1
WIDTH 1114
HEIGHT 1
VIEWPOINT 0 0 0 1 0 0 0
POINTS 1114
DATA ascii
9.4454346 -3.9186802 -1.8497543 4288085770
8.9194641 -3.8841391 -1.8509246 4288085770
8.4474792 -3.8554621 -1.8549641 4288085770
7.9935303 -3.8267374 -1.8599693 4288085770
12.025177 -5.017024 -1.4919226 4293729569
7.5725403 -3.8009272 -1.8658974 4288085770
11.950684 -5.1145372 -1.5606382 4293729569
7.1005249 -3.7542171 -1.8630167 4288085770
11.802094 -5.1882324 -1.6246017 4293729569
6.6895142 -3.7183723 -1.8669697 4288085770
11.058868 -5.0783424 -1.6375239 4293729569
6.2674866 -3.6745396 -1.8669795 4288085770
10.339722 -4.9653597 -1.6454129 4293729569
5.8804626 -3.6346216 -1.8699042 4288085770
9.6434937 -4.8503113 -1.6522666 4293729569
5.5374756 -3.6045914 -1.8746998 4288085770
8.9953308 -4.7421331 -1.6599973 4293729569
5.1755066 -3.562604 -1.8775854 4288085770
8.3670959 -4.6328926 -1.6656939 4293729569
4.8194885 -3.5185928 -1.878468 4288085770
7.7729187 -4.5245485 -1.6693208 4293729569
4.4774475 -3.4745388 -1.8783238 4288085770
7.2497559 -4.4330292 -1.6777358 4293729569
4.1514282 -3.4304485 -1.8801488 4288085770
6.7586365 -4.3454218 -1.6860719 4293729569
3.8574219 -3.3942852 -1.8848767 4288085770
6.2564697 -4.2488327 -1.691469 4293729569
3.543396 -3.3471527 -1.8846921 4288085770
5.7823486 -4.1541586 -1.6948034 4293729569
3.2644043 -3.3069363 -1.8874089 4288085770
5.2530823 -4.0345917 -1.6883538 4293729569
2.9683533 -3.2567511 -1.8862027 4288085770
4.882019 -3.9646606 -1.6983795 4293729569
2.7033386 -3.2144947 -1.8879013 4288085770
4.5149231 -3.8927097 -1.7064068 4293729569
2.4613647 -3.1771851 -1.892534 4288085770
4.2319336 -3.8465748 -1.7241576 4293729569
2.2303772 -3.1408463 -1.897141 4288085770
4.0090027 -3.820302 -1.7497047 4293729569
1.9663086 -3.0895662 -1.8948776 4288085770
3.8711548 -3.824852 -1.7869517 4293729569
1.7402954 -3.0481997 -1.896497 4288085770
3.7183533 -3.8214331 -1.8222626 4288085770
1.5012512 -2.9988527 -1.8941766 4288085770
3.6125488 -3.8319159 -1.8644214 4288085770
1.2892456 -2.9574509 -1.8967692 4288085770
3.4657288 -3.8264799 -1.8997297 4288085770
1.0702209 -2.9100542 -1.8954017 4288085770
3.1966858 -3.767272 -1.910511 4288085770
0.85919189 -2.8636322 -1.8940144 4288085770
2.8875427 -3.6881323 -1.9114575 4288085770
0.65814209 -2.8171844 -1.8926078 4288085770
2.5884399 -3.6079588 -1.9113894 4288085770
0.46514893 -2.7727175 -1.892177 4288085770
2.2662354 -3.5148163 -1.9034227 4288085770
0.26306152 -2.7212534 -1.8867947 4288085770
1.9901428 -3.4375744 -1.902297 4288085770
0.08303833 -2.6767511 -1.8863389 4288085770
1.7280273 -3.3632956 -1.9011313 4288085770
-0.092987061 -2.6322308 -1.8838755 4288085770
1.4819336 -3.2929764 -1.9009172 4288085770
-0.26501465 -2.5866995 -1.8814088 4288085770
1.2438354 -3.2216244 -1.898692 4288085770
-0.41702271 -2.5471277 -1.8828772 4288085770
1.0086975 -3.1502638 -1.8954611 4288085770
-0.56802368 -2.5065517 -1.8833481 4288085770
0.79162598 -3.0828609 -1.8941779 4288085770
-0.72409058 -2.460969 -1.8798506 4288085770
0.59555054 -3.0234118 -1.8958189 4288085770
-0.86508179 -2.4213629 -1.8802979 4288085770
0.39447021 -2.957962 -1.8944963 4288085770
-0.99407959 -2.3847284 -1.8817089 4288085770
0.20440674 -2.8964891 -1.8941349 4288085770
-1.1381226 -2.3401136 -1.8781838 4288085770
0.017333984 -2.8329926 -1.8907765 4288085770
-1.2640991 -2.3014669 -1.878598 4288085770
-0.16375732 -2.7704811 -1.8874021 4288085770
-1.3841248 -2.2648029 -1.8789915 4288085770
-0.33782959 -2.70895 -1.88401 4288085770
-1.512146 -2.2211456 -1.8754317 4288085770
-0.5098877 -2.6464081 -1.8796182 4288085770
-0.66598511 -2.5898314 -1.8771694 4288085770
-0.79898071 -2.5422087 -1.8786367 4288085770
-0.93405151 -2.4915876 -1.8791208 4288085770
-1.0600586 -2.443944 -1.8805746 4288085770
-1.1881104 -2.3932953 -1.8790455 4288085770
-1.3101501 -2.3446274 -1.877496 4288085770
-1.4321899 -2.2939577 -1.8749553 4288085770
-1.5200806 -0.023326874 -1.8161682 4288085770
-1.4150085 -0.010045052 -1.8170252 4288085770
-1.302948 0.0022554398 -1.8178643 4288085770
-1.197876 0.015557289 -1.8147213 4288085770
-1.0838013 0.027873039 -1.8135568 4288085770
-0.96276855 0.04120636 -1.8123831 4288085770
-0.83370972 0.053564072 -1.8111898 4288085770
-0.68963623 0.064951897 -1.8129632 4288085770
-0.54553223 0.077345848 -1.8127412 4288085770
-1.501709 0.14066696 -1.8208669 4288085770
-0.41448975 0.090731621 -1.8065487 4288085770
-1.3895874 0.1519804 -1.8197019 4288085770
-0.23742676 0.10219383 -1.811259 4288085770
-1.2755432 0.16330338 -1.816533 4288085770
-0.077362061 0.11564827 -1.8080109 4288085770
-1.15448 0.17464352 -1.8143506 4288085770
0.10372925 0.12714291 -1.8077137 4288085770
-1.0144043 0.18601418 -1.8171318 4288085770
0.29177856 0.13966084 -1.8074077 4288085770
-0.88031006 0.1963892 -1.8149202 4288085770
0.49984741 0.15122223 -1.8090588 4288085770
-0.74429321 0.20777607 -1.8117093 4288085770
0.70291138 0.16378689 -1.8077241 4288085770
-0.58319092 0.21820831 -1.8134459 4288085770
0.94195557 0.1754303 -1.8103158 4288085770
-0.41610718 0.2296629 -1.8141756 4288085770
1.1740417 0.18808365 -1.8069257 4288085770
-0.25704956 0.24011326 -1.8109163 4288085770
1.4381104 0.2008009 -1.8084743 4288085770
-0.071990967 0.25061417 -1.811607 4288085770
1.7021484 0.21253777 -1.8060185 4288085770
0.12008667 0.26113796 -1.8122846 4288085770
1.9902344 0.22533321 -1.8045213 4288085770
0.32717896 0.27170372 -1.8129336 4288085770
2.3113098 0.23721695 -1.8049567 4288085770
0.54324341 0.28129482 -1.8135607 4288085770
2.6093445 0.24906445 -1.7984359 4288085770
0.76031494 0.29190159 -1.8111905 4288085770
2.9464111 0.26200962 -1.7938452 4288085770
0.99136353 0.30154514 -1.8087891 4288085770
3.3314819 0.27408314 -1.7911582 4288085770
1.2494202 0.31225109 -1.8093406 4288085770
3.7505188 0.28624439 -1.7894062 4288085770
1.542511 0.32204533 -1.8118206 4288085770
4.1996155 0.2994976 -1.7856014 4288085770
1.8165894 0.33181763 -1.8073373 4288085770
4.6876526 0.31184959 -1.7837174 4288085770
2.1096497 0.34164238 -1.8028176 4288085770
5.2197266 0.32433128 -1.7797495 4288085770
2.4217224 0.35152245 -1.7982615 4288085770
5.8087769 0.33696842 -1.7766725 4288085770
2.7557983 0.3594656 -1.7926548 4288085770
6.4478149 0.35075188 -1.7715045 4288085770
3.1568604 0.36856079 -1.7939241 4288085770
7.178894 0.36377716 -1.7691563 4288085770
3.5579529 0.37768269 -1.7901937 4288085770
7.9729919 0.37599468 -1.7626833 4288085770
4.0249939 0.38696671 -1.7903368 4288085770
8.9030457 0.38956356 -1.7619544 4288085770
4.4990845 0.39528942 -1.7864627 4288085770
9.9111023 0.40337753 -1.7540767 4288085770
5.0491638 0.40480518 -1.7864473 4288085770
11.030151 0.41751099 -1.7439873 4288085770
5.617218 0.41239738 -1.780389 4288085770
12.440216 0.43340302 -1.7433455 4288085770
6.2633057 0.420187 -1.7781816 4288085770
6.9584045 0.42813206 -1.7718809 4288085770
7.7674561 0.43537807 -1.7683575 4288085770
8.6385193 0.44280338 -1.7627159 4288085770
9.6696472 0.44866753 -1.7587599 4288085770
10.807709 0.45483208 -1.7525992 4288085770
12.124786 0.46049404 -1.7460927 4288085770
11.952728 -5.1879416 -0.41602337 4293729569
12.042603 -5.0808935 -0.46033183 4293729569
13.448975 0.68233109 -1.7293462 4288085770
12.037018 0.70338058 -1.7370411 4288085770
10.814056 0.72296238 -1.7423815 4288085770
9.7261353 0.74193096 -1.7454704 4288085770
8.8041992 0.76033306 -1.754251 4288085770
7.9542542 0.7779665 -1.7558954 4288085770
7.1873169 0.79482841 -1.7583835 4288085770
6.5123596 0.81093311 -1.7626985 4288085770
13.30954 1.1089249 -1.72852 4288085770
5.8994141 0.82622528 -1.7638959 4288085770
11.891632 1.1110001 -1.7261401 4288085770
5.3424683 0.84266376 -1.7669952 4288085770
10.691711 1.1166601 -1.7283748 4288085770
4.825531 0.85721779 -1.7690125 4288085770
9.8157959 1.132144 -1.748057 4288085770
4.344574 0.87188053 -1.7689636 4288085770
8.875885 1.1395254 -1.7498206 4288085770
3.9326477 0.88871765 -1.7727977 4288085770
8.1179504 1.1503849 -1.7582648 4288085770
3.5447083 0.90362167 -1.7765788 4288085770
7.3970337 1.160368 -1.7616366 4288085770
3.1547546 0.91754627 -1.7743591 4288085770
6.696106 1.1684341 -1.7589632 4288085770
2.8358154 0.93264389 -1.7780141 4288085770
6.0951843 1.1777554 -1.7611113 4288085770
2.5068665 0.94573212 -1.7766782 4288085770
5.5562439 1.1882515 -1.7621503 4288085770
2.2469482 0.96297455 -1.7842342 4288085770
5.077301 1.1999016 -1.7660842 4288085770
1.9730225 0.97720623 -1.7858021 4288085770
4.5863953 1.2075558 -1.7620223 4288085770
1.7080688 0.99146748 -1.7853539 4288085770
4.1714783 1.219388 -1.7648391 4288085770
1.4651184 1.005785 -1.7868651 4288085770
3.8215027 1.2343855 -1.7715504 4288085770
1.2521973 1.0211754 -1.7903261 4288085770
3.450592 1.244359 -1.7702779 4288085770
1.0322266 1.0355587 -1.7907953 4288085770
3.1166687 1.2564211 -1.7719463 4288085770
0.84030151 1.051013 -1.7932177 4288085770
2.7877197 1.2665195 -1.768597 4288085770
0.63336182 1.0634508 -1.7896544 4288085770
2.4917603 1.2777014 -1.7671915 4288085770
0.45141602 1.07794 -1.790054 4288085770
2.2418518 1.2919855 -1.7717156 4288085770
0.28948975 1.0934772 -1.7924216 4288085770
1.9999084 1.3063011 -1.7742249 4288085770
0.11355591 1.1059971 -1.7898014 4288085770
1.7339783 1.3165789 -1.7697603 4288085770
-0.052398682 1.1195507 -1.7861675 4288085770
1.5270386 1.330986 -1.7732056 4288085770
-0.18734741 1.1351557 -1.7894856 4288085770
1.3390808 1.347436 -1.778625 4288085770
-0.33029175 1.1497545 -1.789814 4288085770
1.1521606 1.3629036 -1.781038 4288085770
-0.45623779 1.1653938 -1.7911156 4288085770
0.97720337 1.3784037 -1.7834295 4288085770
-0.58013916 1.1800461 -1.7914093 4288085770
0.80828857 1.3939209 -1.7858098 4288085770
-0.69012451 1.196722 -1.7946861 4288085770
0.6463623 1.4094601 -1.7871773 4288085770
-0.81802368 1.2103825 -1.7909826 4288085770
0.47940063 1.4220018 -1.7855405 4288085770
-0.92300415 1.2260809 -1.7922459 4288085770
0.32543945 1.4365702 -1.7858887 4288085770
-1.0329285 1.2407742 -1.7915138 4288085770
0.17349243 1.4501543 -1.783229 4288085770
-1.1158752 1.2585182 -1.7967458 4288085770
0.0096130371 1.4597311 -1.7755735 4288085770
-1.2238464 1.2722282 -1.7930055 4288085770
-0.10534668 1.4773884 -1.7798637 4288085770
-1.29776 1.2909985 -1.7982254 4288085770
-0.22033691 1.4950628 -1.7811543 4288085770
-1.3747253 1.3087664 -1.8014464 4288085770
-0.34924316 1.5077143 -1.7774479 4288085770
-1.4626465 1.3235216 -1.8006742 4288085770
-0.45220947 1.5254154 -1.7797163 4288085770
-0.55917358 1.5411186 -1.7789832 4288085770
-0.64306641 1.5608644 -1.7832259 4288085770
-0.72903442 1.5796061 -1.7864678 4288085770
-0.82098389 1.5963459 -1.7867116 4288085770
-0.90393066 1.6151114 -1.7869478 4288085770
-0.99890137 1.6298561 -1.7841884 4288085770
-1.0788269 1.6476288 -1.7844149 4288085770
-1.158783 1.6644154 -1.7816368 4288085770
-1.2227478 1.6852188 -1.7848473 4288085770
-1.2987061 1.7020178 -1.7820619 4288085770
-1.3616333 1.7218332 -1.7832662 4288085770
-1.3995972 1.7486897 -1.791456 4288085770
-1.4665833 1.76651 -1.7886586 4288085770
-1.5175476 1.7883558 -1.7908498 4288085770
-1.5494385 3.4411149 -1.785262 4288085770
-1.4725037 3.5103073 -1.7894289 4288085770
-1.4005737 3.5745077 -1.7885824 4288085770
-1.3336792 3.6366963 -1.7867361 4288085770
-1.2597351 3.7019119 -1.7838907 4288085770
-1.164856 3.7791576 -1.7870603 4288085770
-1.0709534 3.8544092 -1.7882228 4288085770
-0.96408081 3.9376879 -1.7913971 4288085770
-0.86322021 4.0159731 -1.7895602 4288085770
-0.73233032 4.1123009 -1.7967486 4288085770
-0.61352539 4.2006221 -1.7979237 4288085770
-0.4836731 4.2939744 -1.7991009 4288085770
-0.349823 4.3893371 -1.8002796 4288085770
-1.533905 3.7200618 -1.7954772 4288085770
-0.20498657 4.4897308 -1.8014605 4288085770
-1.4240723 3.7953539 -1.7976106 4288085770
-0.013244629 4.6192064 -1.8136848 4288085770
-1.3430786 3.8496103 -1.7897038 4288085770
0.18652344 4.7517133 -1.823908 4288085770
-1.208252 3.93995 -1.7968587 4288085770
0.36328125 4.8681903 -1.826102 4288085770
-1.0813599 4.0212841 -1.7999879 4288085770
0.5390625 4.9826784 -1.825289 4288085770
-0.95648193 4.1006227 -1.8011122 4288085770
0.73083496 5.1042027 -1.8264781 4288085770
-0.82559204 4.181982 -1.8012345 4288085770
0.96054077 5.2488108 -1.8327004 4288085770
-0.66177368 4.2833972 -1.8093853 4288085770
1.1832886 5.3874164 -1.8349085 4288085770
-0.51690674 4.3688006 -1.8085002 4288085770
1.4219666 5.5320668 -1.8371147 4288085770
-0.36404419 4.4582205 -1.8086179 4288085770
1.6586914 5.6737289 -1.8353109 4288085770
-0.2052002 4.5506577 -1.8087384 4288085770
1.8973694 5.8144011 -1.8324995 4288085770
0.02154541 4.683218 -1.8239126 4288085770
2.1490784 5.9601192 -1.8276865 4288085770
0.23434448 4.804769 -1.8320637 4288085770
2.4556885 6.1369615 -1.8289113 4288085770
0.40917969 4.8992682 -1.8281641 4288085770
2.7662964 6.3128214 -1.8291245 4288085770
0.6199646 5.0128369 -1.8312836 4288085770
3.1228333 6.5147905 -1.8333699 4288085770
0.85269165 5.1394572 -1.8364205 4288085770
3.4923706 6.7198048 -1.8356047 4288085770
1.0784607 5.2570758 -1.8375306 4288085770
3.875885 6.9308658 -1.8358411 4288085770
1.3282471 5.3867483 -1.8416504 4288085770
4.2843628 7.151001 -1.8350719 4288085770
1.5739746 5.511426 -1.8417553 4288085770
4.7268066 7.3882275 -1.8353169 4288085770
1.836731 5.6421533 -1.8418562 4288085770
5.1912537 7.633523 -1.8335576 4288085770
2.0735168 5.7528381 -1.8349153 4288085770
5.6885986 7.8919101 -1.8317961 4288085770
2.3532104 5.8866191 -1.8329988 4288085770
6.2888489 8.2075424 -1.8391006 4288085770
2.6379395 6.0194254 -1.8290688 4288085770
2.9586182 6.1683168 -1.8281444 4288085770
3.2973022 6.3252487 -1.8292233 4288085770
3.6838989 6.505302 -1.8333169 4288085770
4.0635376 6.6753583 -1.8323793 4288085770
4.4671631 6.8534718 -1.8334335 4288085770
4.9217224 7.0547175 -1.8364974 4288085770
5.4241943 7.2770844 -1.8425677 4288085770
5.9326782 7.4964752 -1.8466139 4288085770
6.3942566 7.6817904 -1.8385946 4288085770
6.9577026 7.9153428 -1.8406035 4288085770
7.5441895 8.1549664 -1.8415977 4288085770
6.4933472 7.2437897 -1.4424793 4293729569
6.3317871 7.0746861 -1.3630254 4293729569
6.2651062 6.9537945 -1.2956122 4293729569
6.2023926 6.8339043 -1.2301962 4293729569
6.1956787 6.7431393 -1.1718075 4293729569
6.1949158 6.654377 -1.1164167 4293729569
6.210144 6.5726509 -1.0630281 4293729569
6.2902832 6.5210786 -1.0156547 4293729569
6.4034424 6.4825792 -0.97227907 4293729569
6.4886169 6.4290118 -0.92688799 4293729569
6.6456909 6.4066224 -0.88650382 4293729569
6.7688293 6.3661427 -0.84510148 4293729569
6.9978638 6.3709221 -0.81170672 4293729569
7.1879578 6.3546076 -0.77528954 4293729569
7.5248718 6.398664 -0.74687248 4293729569
7.5211792 6.2938495 -0.70141613 4293729569
7.437561 6.1568131 -0.65596259 4293729569
9.2569885 6.7907314 -0.6864596 4293729569
7.8187866 6.1021581 -0.58902901 4293729569
8.0039368 6.0658159 -0.5555324 4293729569
7.912384 5.9237351 -0.51507127 4293729569
7.8767395 5.8017969 -0.47759724 4293729569
8.1737671 5.8027301 -0.45206207 4293729569
8.480835 5.8046951 -0.42551345 4293729569
8.8508606 5.8228245 -0.40192184 4293729569
9.1599121 5.8137908 -0.3763209 4293729569
9.4120789 5.7826009 -0.35072544 4293729569
12.946747 -1.635272 -1.7775867 4288085770
12.16394 -1.6704597 -1.7798527 4288085770
11.48114 -1.706399 -1.7879341 4288085770
10.808319 -1.7332859 -1.7910371 4288085770
10.147461 -1.7541323 -1.7931452 4288085770
9.5436096 -1.7728281 -1.796159 4288085770
8.9607544 -1.7884655 -1.7991486 4288085770
8.4108887 -1.8030128 -1.8030828 4288085770
7.8760376 -1.811511 -1.8050169 4288085770
7.3971558 -1.8208675 -1.8098453 4288085770
6.8982544 -1.8212538 -1.8087496 4288085770
6.4503479 -1.8245153 -1.8115485 4288085770
12.869507 -2.912672 -1.8050905 4288085770
6.0595093 -1.8316374 -1.8192272 4288085770
11.938446 -2.8612795 -1.8090082 4288085770
5.6546021 -1.8317795 -1.821962 4288085770
11.067383 -2.8077097 -1.8108264 4288085770
5.2857056 -1.8328323 -1.8276274 4288085770
10.306366 -2.7648621 -1.8183976 4288085770
4.8917847 -1.8249254 -1.8263777 4288085770
9.5433655 -2.7119865 -1.8190168 4288085770
4.5489197 -1.8219023 -1.831014 4288085770
8.8763123 -2.6688671 -1.8244185 4288085770
4.2269897 -1.8198214 -1.8356079 4288085770
8.2492981 -2.6266308 -1.8287437 4288085770
3.8900452 -1.8097649 -1.8362644 4288085770
7.6402588 -2.5803337 -1.8300543 4288085770
3.5801392 -1.8006372 -1.8378677 4288085770
7.0722351 -2.5339184 -1.8312907 4288085770
3.2721863 -1.7884979 -1.8384808 4288085770
6.5502014 -2.4923878 -1.8344222 4288085770
3.0003052 -1.7812748 -1.8420067 4288085770
6.0802307 -2.4557171 -1.8394378 4288085770
2.7453918 -1.7740107 -1.847502 4288085770
5.6202087 -2.4160137 -1.8424486 4288085770
2.477417 -1.7607622 -1.8480471 4288085770
5.2032471 -2.3811979 -1.8473599 4288085770
2.2434998 -1.7524395 -1.8535089 4288085770
4.7671814 -2.3364096 -1.8463495 4288085770
1.9975586 -1.7371302 -1.8540233 4288085770
4.3952332 -2.3024664 -1.8511752 4288085770
1.7376099 -1.7168417 -1.8505855 4288085770
4.0221863 -2.2635107 -1.8520247 4288085770
1.5306702 -1.7064428 -1.8560073 4288085770
3.6782227 -2.2284822 -1.8548043 4288085770
1.2957153 -1.6860857 -1.852524 4288085770
3.3502197 -2.1924067 -1.8565594 4288085770
1.0897827 -1.6706638 -1.8529664 4288085770
3.0312195 -2.1562986 -1.8572985 4288085770
0.88986206 -1.6552343 -1.8553978 4288085770
2.7382202 -2.1221323 -1.8609816 4288085770
0.69091797 -1.6367884 -1.854841 4288085770
2.4482117 -2.0869455 -1.8616638 4288085770
0.48492432 -1.6143484 -1.8513142 4288085770
2.1842346 -2.0546989 -1.8652859 4288085770
0.30697632 -1.5978432 -1.85171 4288085770
1.9082336 -2.0164528 -1.862955 4288085770
0.14004517 -1.5813217 -1.8540856 4288085770
1.6351929 -1.9761953 -1.8586278 4288085770
-0.032928467 -1.5618029 -1.8534851 4288085770
1.407196 -1.9458447 -1.8611751 4288085770
-0.18984985 -1.5452538 -1.8558429 4288085770
1.1672058 -1.9095087 -1.8597708 4288085770
-0.36083984 -1.5217123 -1.8512568 4288085770
0.9392395 -1.8731346 -1.8573449 4288085770
-0.50875854 -1.5041342 -1.8526027 4288085770
0.72320557 -1.8387308 -1.8558884 4288085770
-0.6477356 -1.4865332 -1.8549324 4288085770
0.51724243 -1.8052998 -1.8544097 4288085770
-0.78466797 -1.4689293 -1.8572584 4288085770
0.32122803 -1.771842 -1.8529128 4288085770
-0.92260742 -1.4493141 -1.8565953 4288085770
0.13723755 -1.7403555 -1.8523855 4288085770
-1.0615845 -1.4266911 -1.8539474 4288085770
-0.028717041 -1.7128353 -1.8558084 4288085770
-1.1855164 -1.4080458 -1.8552545 4288085770
-0.19775391 -1.6813021 -1.854254 4288085770
-1.3104858 -1.3873892 -1.8535725 4288085770
-0.3687439 -1.6487665 -1.8507079 4288085770
-1.4274292 -1.3677187 -1.8538716 4288085770
-0.52670288 -1.6171999 -1.849134 4288085770
-0.67172241 -1.5896139 -1.8505189 4288085770
-0.81268311 -1.5610065 -1.849901 4288085770
-0.94763184 -1.5333862 -1.850268 4288085770
-1.0836182 -1.5037603 -1.8486457 4288085770
-1.2126465 -1.4741163 -1.8470106 4288085770
-1.325592 -1.4494448 -1.8493247 4288085770
-1.437561 -1.4247713 -1.851637 4288085770
-1.4898071 0.58283997 -1.8036044 4288085770
-1.3767395 0.59615135 -1.8034569 4288085770
-1.2566833 0.60848618 -1.8022927 4288085770
-1.1356201 0.62082863 -1.8001263 4288085770
-1.0115356 0.63318062 -1.7979548 4288085770
-0.86849976 0.64557076 -1.7987486 4288085770
-0.7144165 0.65898323 -1.801527 4288085770
-0.57037354 0.67139339 -1.798319 4288085770
-1.446228 0.64988995 -1.8128207 4288085770
-0.40530396 0.68484497 -1.7990772 4288085770
-1.3431702 0.65920353 -1.8056736 4288085770
-0.25823975 0.69628143 -1.7928596 4288085770
-1.210083 0.66856766 -1.8064723 4288085770
-0.078186035 0.70877361 -1.7935861 4288085770
-1.0740356 0.67893887 -1.8072699 4288085770
0.11486816 0.72230148 -1.7942939 4288085770
-0.94696045 0.68731213 -1.8020751 4288085770
0.31195068 0.73484898 -1.7939897 4288085770
-0.79989624 0.69671822 -1.8018484 4288085770
0.52304077 0.7484293 -1.7946646 4288085770
-0.65982056 0.70511818 -1.7986298 4288085770
0.74710083 0.76205349 -1.7943161 4288085770
-0.4937439 0.71457291 -1.7993686 4288085770
0.98117065 0.77470112 -1.793945 4288085770
-0.33364868 0.72302818 -1.796114 4288085770
1.2312012 0.78739548 -1.7935448 4288085770
-0.14556885 0.73254013 -1.7978127 4288085770
1.4902649 0.80112648 -1.7901325 4288085770
0.042510986 0.74106216 -1.7975073 4288085770
1.7633667 0.81389523 -1.7876906 4288085770
0.23855591 0.74960232 -1.7971871 4288085770
2.0714111 0.82774639 -1.7881895 4288085770
0.4536438 0.75819588 -1.7978325 4288085770
2.3684692 0.83959389 -1.7826997 4288085770
0.67971802 0.766819 -1.7984581 4288085770
2.694519 0.8525219 -1.7771617 4288085770
0.9118042 0.77446651 -1.7970681 4288085770
3.0635986 0.86555672 -1.7745457 4288085770
1.1698608 0.78217411 -1.7986313 4288085770
3.4646301 0.87967205 -1.7738758 4288085770
1.414978 0.7888813 -1.7922134 4288085770
3.8946838 0.89387703 -1.7711536 4288085770
1.6740723 0.79461861 -1.787766 4288085770
4.3487549 0.90715981 -1.7663833 4288085770
1.9671021 0.8004427 -1.7852564 4288085770
4.8658142 0.92159462 -1.7665035 4288085770
2.2762146 0.80630398 -1.7837181 4288085770
5.414856 0.93613815 -1.7625653 4288085770
2.6022949 0.81222916 -1.7791488 4288085770
6.0409546 0.95187569 -1.7624919 4288085770
2.9683838 0.81724262 -1.7795027 4288085770
6.7119751 0.96775246 -1.760337 4288085770
3.359436 0.82233429 -1.7778111 4288085770
7.4450073 0.98281288 -1.7550651 4288085770
3.7845459 0.82651997 -1.7770536 4288085770
8.2720947 0.99912167 -1.7526274 4288085770
4.2436523 0.83080006 -1.7752342 4288085770
9.2181396 1.0157642 -1.7499734 4288085770
4.7266846 0.83315372 -1.7723622 4288085770
10.199188 1.030551 -1.7372476 4288085770
5.2617798 0.83465767 -1.768392 4288085770
11.416229 1.0499334 -1.7371111 4288085770
5.8449097 0.83528519 -1.7663299 4288085770
12.741302 1.0676632 -1.7277701 4288085770
6.4789734 0.83506584 -1.762171 4288085770
7.2081299 0.83509064 -1.7628397 4288085770
7.9602051 0.83220482 -1.7574532 4288085770
8.793335 0.82655334 -1.7499068 4288085770
9.7884521 0.82033253 -1.7470618 4288085770
10.842529 0.81129551 -1.7400966 4288085770
12.079681 0.79976082 -1.734786 4288085770
10.050079 -7.4851074 -1.5816004 4293729569
9.7064209 -7.2021065 -1.5914831 4293729569
9.4488525 -6.9618874 -1.6050179 4293729569
9.1722717 -6.7176991 -1.6146053 4293729569
5.7639465 -5.0768385 -0.63413453 4293729569
8.935791 -6.4934063 -1.625031 4293729569
5.7748413 -4.9879351 -0.66150606 4293729569
8.6442261 -6.2502213 -1.6256419 4293729569
5.8057861 -4.9079676 -0.687801 4293729569
5.815155 -4.9379082 -1.3586588 4293729569
5.8857727 -4.8478727 -0.71591771 4293729569
5.7929688 -4.8340616 -1.378157 4293729569
5.8179016 -4.7490988 -1.4014851 4293729569
5.8638 -4.6710806 -1.4257438 4293729569
7.7351379 -5.3088789 -1.6514705 4293729569
7.6218262 -5.1532249 -1.6573659 4293729569
7.5054932 -4.9985657 -1.6612623 4293729569
7.3991699 -4.8518772 -1.6641049 4293729569
7.3068542 -4.7091503 -1.6669042 4293729569
7.2566528 -4.584322 -1.6735469 4293729569
7.2004089 -4.4594927 -1.6762006 4293729569
7.1471863 -4.3346605 -1.6798488 4293729569
7.1209412 -4.2207508 -1.6833988 4293729569
7.0947266 -4.1048403 -1.6859578 4293729569
7.1175537 -4.0078125 -1.6933424 4293729569
7.2285156 -3.936574 -1.7084506 4293729569
7.5746765 -3.9337997 -1.7508217 4293729569
11.969208 -5.1036777 -1.3205216 4293729569
8.0279541 -3.9597807 -1.8048674 4288085770
12.08606 -4.9993906 -1.328764 4293729569
8.3930969 -3.9539557 -1.8472165 4288085770
8.5180054 -3.8746653 -1.859334 4288085770
8.5117798 -3.7576628 -1.8538604 4288085770
8.5285645 -3.6465979 -1.8493181 4288085770
8.583374 -3.5464449 -1.8486573 4288085770
8.6421814 -3.4472733 -1.8459843 4288085770
8.7130432 -3.3500662 -1.8432808 4288085770
8.8138733 -3.2587872 -1.8424954 4288085770
8.896698 -3.1635418 -1.838761 4288085770
8.996521 -3.0712509 -1.8349819 4288085770
9.1223755 -2.9838963 -1.833133 4288085770
9.2632446 -2.8964939 -1.8302561 4288085770
9.4411316 -2.8160019 -1.8302805 4288085770
9.566925 -2.72262 -1.8224579 4288085770
9.7698059 -2.6450539 -1.8214229 4288085770
9.9897156 -2.5634356 -1.8193742 4288085770
10.205536 -2.4818249 -1.8163327 4288085770
10.452423 -2.40413 -1.8142165 4288085770
10.713287 -2.3223886 -1.8100923 4288085770
10.985138 -2.2386122 -1.8049567 4288085770
11.32605 -2.16366 -1.803654 4288085770
11.606903 -2.0758467 -1.7955194 4288085770
11.898743 -1.9859867 -1.7843732 4288085770
12.419647 -1.9195719 -1.7916989 4288085770
12.892548 -1.843255 -1.7911574 4288085770
13.358398 -1.7589369 -1.785664 4288085770
12.669159 1.1210012 -1.7329863 4288085770
11.608124 1.1620245 -1.7391751 4288085770
10.651123 1.1993504 -1.7421508 4288085770
9.9361572 1.2422867 -1.7596936 4288085770
9.1591492 1.2751188 -1.761309 4288085770
8.4781494 1.3082047 -1.7657437 4288085770
7.8692017 1.3404865 -1.7710389 4288085770
7.3061829 1.3719015 -1.7752432 4288085770
6.7922058 1.4024572 -1.7783508 4288085770
6.314209 1.4311085 -1.782382 4288085770
12.506561 2.0116348 -1.7072294 4288085770
5.8282471 1.4547777 -1.7774065 4288085770
11.545654 2.0219545 -1.7090935 4288085770
5.4142761 1.481617 -1.7793086 4288085770
10.770691 2.0427523 -1.7196521 4288085770
5.0083008 1.5064898 -1.7781868 4288085770
10.082733 2.0657892 -1.7310559 4288085770
4.6633301 1.5335207 -1.7799594 4288085770
9.3728027 2.0798044 -1.7334613 4288085770
4.3413696 1.5606117 -1.7826885 4288085770
8.7868652 2.1001453 -1.7396601 4288085770
4.0404053 1.5867615 -1.7853739 4288085770
8.2348938 2.1205826 -1.7457952 4288085770
3.7444458 1.6119375 -1.7850454 4288085770
7.7139587 2.1391201 -1.7488635 4288085770
3.411438 1.6280537 -1.7747468 4288085770
7.2110291 2.1547194 -1.7488842 4288085770
3.0644836 1.6401539 -1.759457 4288085770
6.7940674 2.1775351 -1.7537742 4288085770
2.7885132 1.6584167 -1.7520601 4288085770
6.3861084 2.1973858 -1.7566345 4288085770
2.561554 1.6807852 -1.7515887 4288085770
6.0241394 2.2193594 -1.7604166 4288085770
2.3676147 1.7072306 -1.7540731 4288085770
5.6351929 2.2352858 -1.7582235 4288085770
2.1966248 1.7357264 -1.7595229 4288085770
5.2982483 2.2553453 -1.75895 4288085770
1.9966736 1.7571859 -1.7559963 4288085770
4.9992981 2.2774992 -1.761614 4288085770
1.8006897 1.7776508 -1.752458 4288085770
4.7163086 2.3007021 -1.7632523 4288085770
1.6217041 1.7981663 -1.7488875 4288085770
4.4393311 2.3209295 -1.762866 4288085770
1.521759 1.8328295 -1.7612305 4288085770
4.1984253 2.3462477 -1.7654345 4288085770
1.4047546 1.8634691 -1.7685876 4288085770
3.9414368 2.36654 -1.7630105 4288085770
1.2868042 1.8941135 -1.7739468 4288085770
3.6884766 2.383853 -1.7585661 4288085770
1.1878357 1.9258032 -1.7812744 4288085770
3.450531 2.4012079 -1.7540933 4288085770
1.105835 1.9605246 -1.7915834 4288085770
3.1685791 2.4074841 -1.7396549 4288085770
0.97384644 1.9851618 -1.7899425 4288085770
2.9026184 2.4148064 -1.7251906 4293729569
0.85092163 2.0088234 -1.7882801 4288085770
2.7346497 2.4403315 -1.7266217 4293729569
0.75991821 2.0395527 -1.7915885 4288085770
2.6326599 2.4789953 -1.7369862 4288085770
0.67294312 2.0692863 -1.7958851 4288085770
2.5256653 2.5166597 -1.7453555 4288085770
0.55999756 2.092988 -1.7922039 4288085770
2.4026794 2.550293 -1.7497374 4288085770
0.5039978 2.1297874 -1.8014731 4288085770
2.265686 2.5779057 -1.7501191 4288085770
0.39102173 2.1514931 -1.7957832 4288085770
2.1407166 2.606555 -1.7504826 4288085770
0.29202271 2.1762304 -1.7920799 4288085770
1.9767456 2.6251345 -1.7418753 4288085770
0.21206665 2.2040033 -1.7923545 4288085770
1.7828064 2.6326599 -1.7262758 4293729569
0.131073 2.2327814 -1.7906355 4288085770
1.6798401 2.6633697 -1.726607 4293729569
0.055114746 2.2605715 -1.7899023 4288085770
1.5678406 2.6910653 -1.7239416 4293729569
-0.0098876953 2.2903843 -1.7901574 4288085770
1.4828491 2.7248206 -1.725252 4293729569
-0.084838867 2.3161907 -1.7864139 4288085770
1.4178467 2.7636123 -1.7305468 4293729569
-0.13885498 2.3500252 -1.788666 4288085770
1.3598633 2.8044243 -1.7358376 4293729569
-0.19384766 2.380867 -1.7889067 4288085770
1.3318176 2.8552999 -1.7451161 4288085770
-0.25485229 2.4107018 -1.7871544 4288085770
1.3038025 2.9051738 -1.7553899 4288085770
-0.30581665 2.4425602 -1.7863921 4288085770
1.2778015 2.9560566 -1.7646648 4288085770
-0.36679077 2.4704027 -1.782631 4288085770
1.2547607 3.0069509 -1.7729338 4288085770
-0.40078735 2.5072947 -1.7848589 4288085770
1.2307129 3.0588493 -1.7802093 4288085770
-0.44976807 2.5391665 -1.7820929 4288085770
1.2026978 3.1097412 -1.7864878 4288085770
-0.50177002 2.5690346 -1.7783238 4288085770
1.1626282 3.1546144 -1.7887621 4288085770
-0.52679443 2.6089525 -1.780548 4288085770
1.1546021 3.211555 -1.7960297 4288085770
-0.55877686 2.6448612 -1.7797678 4288085770
1.1325989 3.2634716 -1.8003014 4288085770
-0.59381104 2.6797681 -1.7779886 4288085770
1.1065674 3.313386 -1.8025717 4288085770
-0.62780762 2.7146835 -1.7752076 4288085770
1.08255 3.3633056 -1.8048384 4288085770
-0.65179443 2.7526155 -1.7744213 4288085770
1.0544739 3.4132276 -1.8041127 4288085770
-0.67480469 2.7915511 -1.7736372 4288085770
1.0464172 3.4691815 -1.8083755 4288085770
-0.69281006 2.8324976 -1.7738528 4288085770
1.0453491 3.529161 -1.8116432 4288085770
-0.69485474 2.8804736 -1.7770692 4288085770
1.0283203 3.5811138 -1.8109057 4288085770
-0.72085571 2.9164181 -1.7722777 4288085770
1.0452271 3.6491275 -1.8171748 4288085770
-0.73287964 2.9593844 -1.7714908 4288085770
1.0231934 3.7000799 -1.8134421 4288085770
-0.73287964 3.0073752 -1.7727036 4288085770
1.0161438 3.7560654 -1.8117036 4288085770
-0.74194336 3.0503583 -1.7699111 4288085770
1.0380249 3.8261023 -1.815972 4288085770
-0.73193359 3.1023674 -1.7731227 4288085770
1.0369873 3.8861084 -1.8132397 4288085770
-0.73098755 3.1513748 -1.7713379 4288085770
1.0559082 3.9551477 -1.8155097 4288085770
-0.71704102 3.2053995 -1.7735509 4288085770
1.0598145 4.0171709 -1.8117769 4288085770
-0.67114258 3.2754769 -1.7837741 4288085770
1.1056824 4.0992718 -1.8170536 4288085770
-0.66317749 3.3265033 -1.781985 4288085770
1.121582 4.166328 -1.8133202 4288085770
-0.63626099 3.3875604 -1.7852045 4288085770
1.1425171 4.2363906 -1.8115907 4288085770
-0.61230469 3.4476171 -1.7864252 4288085770
1.1983643 4.3255277 -1.8148797 4288085770
-0.56539917 3.5197167 -1.7926556 4288085770
1.2372437 4.4046402 -1.8131562 4288085770
-0.52746582 3.586803 -1.7958809 4288085770
1.2870789 4.4907742 -1.8134431 4288085770
-0.49752808 3.6498871 -1.7951035 4288085770
1.3569336 4.5879536 -1.8157409 4288085770
-0.48358154 3.7049527 -1.788321 4288085770
1.4317322 4.6881485 -1.8180426 4288085770
-0.42172241 3.7860889 -1.7955631 4288085770
1.522583 4.7963791 -1.82235 4288085770
-0.38381958 3.854198 -1.7937928 4288085770
1.5933838 4.8965802 -1.8206593 4288085770
-0.3079834 3.9433737 -1.8010439 4288085770
1.6781921 5.002811 -1.8209687 4288085770
-0.26205444 4.0165095 -1.7982807 4288085770
1.7809753 5.1220827 -1.823302 4288085770
-0.209198 4.0926566 -1.7975177 4288085770
1.8907166 5.2443829 -1.8236355 4288085770
-0.1333313 4.182848 -1.8007734 4288085770
1.9984741 5.3656821 -1.8229679 4288085770
-0.035491943 4.2860808 -1.8090451 4288085770
2.1252441 5.4990258 -1.8243181 4288085770
0.036346436 4.3732843 -1.8072948 4288085770
2.2519531 5.6323771 -1.823668 4288085770
0.12319946 4.4715123 -1.8095651 4288085770
2.3696899 5.7607231 -1.819013 4288085770
0.21902466 4.5737643 -1.8118364 4288085770
2.5173645 5.9091368 -1.8173898 4288085770
0.36276245 4.7061067 -1.8241497 4288085770
2.6700439 6.0595708 -1.8147663 4288085770
0.4755249 4.8204069 -1.8264419 4288085770
2.8586731 6.234086 -1.8161812 4288085770
0.57232666 4.924684 -1.82372 4288085770
3.0822144 6.430685 -1.8206276 4288085770
0.6991272 5.0470276 -1.8250215 4288085770
3.3177795 6.6363215 -1.8240912 4288085770
0.84884644 5.1854134 -1.8313502 4288085770
3.5513 6.8409672 -1.8245542 4288085770
0.99758911 5.3208132 -1.8336675 4288085770
3.8177795 7.0666895 -1.828048 4288085770
1.1522827 5.4612298 -1.8359957 4288085770
4.0962219 7.3014584 -1.8285592 4288085770
1.3040161 5.6006556 -1.8343252 4288085770
4.3646851 7.5302224 -1.8240626 4288085770
1.4667053 5.7451077 -1.8336561 4288085770
4.6760559 7.7870932 -1.8226089 4288085770
1.6254272 5.8875718 -1.8279858 4288085770
5.0073853 8.0580235 -1.8201796 4288085770
1.8140564 6.0490999 -1.8263427 4288085770
2.0386047 6.2357054 -1.8297428 4288085770
2.2911682 6.4393816 -1.8351654 4288085770
2.5467224 6.6450787 -1.8375912 4288085770
2.8182068 6.8608246 -1.8390311 4288085770
3.1286316 7.101665 -1.843508 4288085770
3.453064 7.3525543 -1.8460033 4288085770
3.7385254 7.5743837 -1.8374432 4288085770
4.0709229 7.8263254 -1.8329275 4288085770
4.4392395 8.1013575 -1.8304458 4288085770
12.986603 -0.66312695 -1.7563362 4288085770
11.940796 -0.69906044 -1.7601695 4288085770
10.958984 -0.72779942 -1.7609127 4288085770
10.133148 -0.75714111 -1.7693564 4288085770
9.3483582 -0.78034782 -1.7737492 4288085770
8.6254883 -0.80038548 -1.7790378 4288085770
7.9566345 -0.81727314 -1.7832376 4288085770
7.3177795 -0.82906532 -1.7854028 4288085770
6.7809143 -0.84359932 -1.7933614 4288085770
13.26358 -1.4254494 -1.7694472 4288085770
6.2520447 -0.85309029 -1.7973272 4288085770
12.049622 -1.3978434 -1.7718817 4288085770
5.7641907 -0.86147976 -1.8032198 4288085770
11.019684 -1.3767443 -1.778937 4288085770
5.2973022 -0.86779976 -1.8070817 4288085770
10.097717 -1.35534 -1.7847879 4288085770
4.8444214 -0.8700676 -1.8079346 4288085770
9.224762 -1.3307829 -1.7865595 4288085770
4.4395447 -0.87321663 -1.8116925 4288085770
8.4647827 -1.3109312 -1.793095 4288085770
4.0496216 -0.87431335 -1.8134305 4288085770
7.7698364 -1.2908897 -1.7975074 4288085770
3.6877441 -0.87433624 -1.8161204 4288085770
7.0968628 -1.2677746 -1.7988917 4288085770
3.342865 -0.8733139 -1.8187823 4288085770
6.5049438 -1.2484474 -1.804105 4288085770
3.0119324 -0.87024593 -1.8204266 4288085770
5.9559937 -1.2279997 -1.8082415 4288085770
2.7150269 -0.86909676 -1.8249974 4288085770
5.4510193 -1.209425 -1.8122854 4288085770
2.4171448 -0.86393166 -1.8255882 4288085770
4.9660645 -1.1887884 -1.8143007 4288085770
2.1471863 -0.86069965 -1.828117 4288085770
4.526123 -1.1700306 -1.817222 4288085770
1.9023132 -0.85741329 -1.8345985 4288085770
4.1161499 -1.1501875 -1.820091 4288085770
1.6504211 -0.85212612 -1.8361024 4288085770
3.7202148 -1.1302986 -1.8209335 4288085770
1.3924561 -0.84283829 -1.8336349 4288085770
3.3572388 -1.1113262 -1.823709 4288085770
1.1585388 -0.83449078 -1.8331178 4288085770
3.0293274 -1.0942631 -1.8284096 4288085770
0.93460083 -0.82611465 -1.8325819 4288085770
2.7043762 -1.0751791 -1.8301131 4288085770
0.73471069 -0.81869125 -1.8359958 4288085770
2.4124146 -1.0580158 -1.8347453 4288085770
0.53179932 -0.80926228 -1.8364244 4288085770
2.1264954 -1.0398226 -1.8363709 4288085770
0.33981323 -0.80079746 -1.8358278 4288085770
1.8395081 -1.0186186 -1.8350116 4288085770
0.1399231 -0.78834152 -1.8322641 4288085770
1.5835876 -1.0003443 -1.8365802 4288085770
-0.03302002 -0.77883434 -1.8336358 4288085770
1.3366089 -0.98103809 -1.8371361 4288085770
-0.20495605 -0.76831436 -1.8330103 4288085770
1.087677 -0.96072102 -1.8337005 4288085770
-0.36990356 -0.75677681 -1.8323758 4288085770
0.86669922 -0.94134235 -1.8342074 4288085770
-0.52383423 -0.74620914 -1.832716 4288085770
0.6477356 -0.9219532 -1.8337103 4288085770
-0.6517334 -0.73859787 -1.8389938 4288085770
0.4447937 -0.90351963 -1.8331788 4288085770
-0.80566406 -0.726017 -1.8363429 4288085770
0.24783325 -0.8840704 -1.8326402 4288085770
-0.94259644 -0.71440506 -1.8366555 4288085770
0.089904785 -0.87054062 -1.8390013 4288085770
-1.0785522 -0.70178032 -1.8349705 4288085770
-0.093048096 -0.85104656 -1.8374362 4288085770
-1.1924438 -0.69312382 -1.8402264 4288085770
-0.26699829 -0.83252907 -1.8358496 4288085770
-1.3183899 -0.68047714 -1.8395226 4288085770
-0.42797852 -0.8139801 -1.8352386 4288085770
-0.58291626 -0.79641247 -1.8346118 4288085770
-0.73287964 -0.77783108 -1.8339796 4288085770
-0.87780762 -0.75923061 -1.8323383 4288085770
-1.0117798 -0.74160576 -1.8316718 4288085770
-1.1397095 -0.724967 -1.8319894 4288085770
-1.2676697 -0.70632362 -1.8313156 4288085770
-1.384613 -0.6896534 -1.8316126 4288085770
-1.4837952 1.166791 -1.7930067 4288085770
-1.3617249 1.1831207 -1.7948459 4288085770
-1.2536926 1.1974382 -1.7907027 4288085770
-1.1236267 1.2137909 -1.7925267 4288085770
-0.99356079 1.2291517 -1.7923461 4288085770
-0.86453247 1.2445221 -1.7891675 4288085770
-0.72348022 1.2599144 -1.7889662 4288085770
-0.57040405 1.2773371 -1.7897508 4288085770
-1.4280396 1.1689014 -1.7969095 4288085770
-0.42733765 1.2907524 -1.785537 4288085770
-1.3069763 1.1802359 -1.7967284 4288085770
-0.26531982 1.3072081 -1.7843001 4288085770
-1.1769409 1.1925926 -1.7975343 4288085770
-0.088226318 1.3236961 -1.7850351 4288085770
-1.0518494 1.2019501 -1.795337 4288085770
0.096801758 1.3412066 -1.785759 4288085770
-0.93676758 1.2092953 -1.7891499 4288085770
0.28787231 1.3587408 -1.7854716 4288085770
-0.78866577 1.2206993 -1.7909176 4288085770
0.50192261 1.3773184 -1.7891448 4288085770
-0.64962769 1.2300987 -1.7876935 4288085770
0.74697876 1.3999701 -1.7967771 4288085770
-0.47653198 1.2425585 -1.7924181 4288085770
0.95800781 1.4145699 -1.7934384 4288085770
-0.32247925 1.251996 -1.7901658 4288085770
1.1540833 1.4271584 -1.7841195 4288085770
-0.16741943 1.2594404 -1.7869024 4288085770
1.4091187 1.4458618 -1.7857152 4288085770
0.013671875 1.2699471 -1.7866032 4288085770
1.6161804 1.4554968 -1.7723624 4288085770
0.20175171 1.2794657 -1.7872863 4288085770
1.8902283 1.4732666 -1.7709174 4288085770
0.40081787 1.2900133 -1.7889527 4288085770
2.1822815 1.4910841 -1.7704382 4288085770
0.61889648 1.3006086 -1.7915832 4288085770
2.4533081 1.5038719 -1.7629771 4288085770
0.83099365 1.3092003 -1.7912164 4288085770
2.7823792 1.5227938 -1.7624325 4288085770
1.0430603 1.314806 -1.7878361 4288085770
3.1994019 1.5499144 -1.7727557 4288085770
1.2671204 1.3214445 -1.7844375 4288085770
3.6544495 1.5771399 -1.783007 4288085770
1.512207 1.3281336 -1.782999 4288085770
4.1065369 1.6013851 -1.7872509 4288085770
1.7332764 1.3297911 -1.7735844 4288085770
4.5285645 1.6195812 -1.7835252 4288085770
2.0463867 1.3406363 -1.7800347 4288085770
5.022583 1.6409597 -1.7836761 4288085770
2.3004456 1.341382 -1.7715528 4288085770
5.5696411 1.6664772 -1.7867442 4288085770
2.6185303 1.3472691 -1.7719715 4288085770
6.1516724 1.6891022 -1.7877328 4288085770
2.9136353 1.3481207 -1.7654119 4288085770
6.7727051 1.7128382 -1.7876515 4288085770
3.3037109 1.3561821 -1.7717025 4288085770
7.3787842 1.7295742 -1.778568 4288085770
3.70578 1.3622875 -1.7759619 4288085770
8.0947876 1.7515936 -1.7752979 4288085770
4.0949097 1.3633814 -1.7742242 4288085770
8.8288269 1.7696857 -1.765976 4288085770
4.5650024 1.3686686 -1.78035 4288085770
9.6888428 1.7931137 -1.7614371 4288085770
5.0461121 1.3700104 -1.7814373 4288085770
10.566864 1.8096333 -1.7478333 4288085770
5.5452271 1.3694048 -1.7814819 4288085770
11.560913 1.8284674 -1.7360182 4288085770
6.0872803 1.3679199 -1.7814404 4288085770
12.691956 1.8496799 -1.725952 4288085770
6.6424561 1.3614922 -1.7773522 4288085770
7.2885437 1.3582869 -1.7801046 4288085770
7.9576721 1.3491755 -1.7767869 4288085770
8.6268005 1.3340874 -1.7674427 4288085770
9.4359436 1.3213587 -1.765842 4288085770
10.272064 1.3027287 -1.7591634 4288085770
11.122253 1.2761765 -1.7444233 4288085770
12.129395 1.2500324 -1.7363851 4288085770
13.342621 1.2224274 -1.7369473 4288085770
0.68267822 -4.5469446 0.00019472837 4293729569
0.65487671 -4.5551987 -0.038822711 4293729569
0.63009644 -4.5624466 -0.078838825 4293729569
0.603302 -4.5677023 -0.11886771 4293729569
0.57846069 -4.5719566 -0.15989684 4293729569
0.55465698 -4.575202 -0.19992881 4293729569
0.012817383 -4.2178478 -0.22753228 4293729569
-0.26153564 -4.0417519 -0.25682938 4293729569
-0.27938843 -4.0409622 -0.29286739 4293729569
-0.27316284 -4.0551157 -0.3307941 4293729569
-0.29000854 -4.0513315 -0.36784321 4293729569
0.61218262 -4.6742897 -0.023382187 4293729569
-0.28982544 -4.0584946 -0.40481198 4293729569
0.60632324 -4.6734972 -0.065397143 4293729569
-0.29263306 -4.0616741 -0.44280386 4293729569
0.57543945 -4.6517696 -0.10755204 4293729569
-0.29248047 -4.0638409 -0.47979432 4293729569
0.55255127 -4.6350279 -0.15066952 4293729569
-0.30130005 -4.0590363 -0.5178327 4293729569
0.52767944 -4.6132822 -0.19181272 4293729569
-0.29510498 -4.0621881 -0.55580759 4293729569
0.023864746 -4.2568293 -0.22133982 4293729569
-0.27792358 -4.0713139 -0.59473503 4293729569
-0.27960205 -4.0378151 -0.25088081 4293729569
-0.2727356 -4.0704708 -0.63272917 4293729569
-0.26443481 -4.0399389 -0.28784278 4293729569
-0.26055908 -4.072608 -0.67069685 4293729569
-0.22824097 -4.055007 -0.32570773 4293729569
-0.24136353 -4.0787277 -0.70963359 4293729569
-0.21203613 -4.0531311 -0.36368546 4293729569
-0.22418213 -4.079854 -0.74859631 4293729569
-0.18286133 -4.0592184 -0.4016031 4293729569
-0.20202637 -4.0829706 -0.78854036 4293729569
-0.14968872 -4.0652962 -0.43951336 4293729569
-0.17883301 -4.0850792 -0.82748705 4293729569
-0.12145996 -4.0673819 -0.47645053 4293729569
-0.14962769 -4.0891724 -0.86641371 4293729569
-0.079315186 -4.076438 -0.5153302 4293729569
-0.1164856 -4.0942593 -0.90632784 4293729569
-0.082244873 -4.0983429 -0.94624484 4293729569
-0.063110352 -4.0894575 -0.98424745 4293729569
4.1041565 -6.8916187 -1.6369923 4293729569
3.8066101 -6.6495037 -1.6476229 4293729569
3.5491333 -6.4352798 -1.6590545 4293729569
3.2695618 -6.2050877 -1.6635982 4293729569
3.000061 -5.9818554 -1.6650925 4293729569
2.7164917 -5.7496376 -1.6616528 4293729569
2.4960632 -5.5592747 -1.6649088 4293729569
2.2956848 -5.3828564 -1.6680654 4293729569
5.7564087 -7.4448013 -1.5923958 4293729569
2.1263428 -5.226366 -1.6750752 4293729569
5.4758606 -7.1976585 -1.6080157 4293729569
1.9770508 -5.0818205 -1.6829942 4293729569
5.1962891 -6.9534988 -1.6196204 4293729569
1.8006897 -4.9213219 -1.6830349 4293729569
4.9868469 -6.7541599 -1.6358948 4293729569
1.6213074 -4.7598114 -1.6790859 4293729569
4.7313232 -6.5269146 -1.6433794 4293729569
1.4930725 -4.6301985 -1.6848992 4293729569
4.4236755 -6.2707634 -1.6390908 4293729569
1.3898621 -4.5165224 -1.6915947 4293729569
4.2062073 -6.0704002 -1.6443847 4293729569
1.2766418 -4.3968601 -1.6953357 4293729569
4.0138245 -5.885973 -1.650561 4293729569
1.1774292 -4.2851629 -1.7000147 4293729569
3.8033752 -5.6925755 -1.6528112 4293729569
1.0992432 -4.1864185 -1.707597 4293729569
3.632019 -5.5230751 -1.6568817 4293729569
1.0200806 -4.0866699 -1.7131853 4293729569
3.5026855 -5.378479 -1.6647623 4293729569
0.93490601 -3.9849205 -1.7147938 4293729569
3.3934631 -5.2458315 -1.6745522 4293729569
0.87176514 -3.8951292 -1.721308 4293729569
3.2571716 -5.1002274 -1.6774509 4293729569
0.81362915 -3.8093204 -1.7267948 4293729569
3.1408997 -4.96558 -1.6822631 4293729569
0.7975769 -3.7454252 -1.7401054 4293729569
3.0406494 -4.8398848 -1.6870054 4293729569
0.87670898 -3.7333584 -1.7750061 4293729569
2.9474182 -4.7191706 -1.6917124 4293729569
1.0039368 -3.7462006 -1.8197058 4293729569
2.8692017 -4.6064186 -1.6973554 4293729569
1.1281433 -3.7540445 -1.8634329 4288085770
2.8110046 -4.5046177 -1.7049123 4293729569
1.235321 -3.7509117 -1.9012407 4288085770
2.7508545 -4.4028101 -1.709473 4293729569
1.2232361 -3.6839933 -1.9115566 4288085770
2.6285706 -4.2711239 -1.7022839 4293729569
1.1781006 -3.6011219 -1.9110056 4288085770
2.5733948 -4.1732931 -1.7048175 4293729569
1.1209106 -3.5112715 -1.9075083 4288085770
2.5152283 -4.0754633 -1.7053568 4293729569
1.0798035 -3.4303837 -1.905941 4288085770
2.486084 -3.990572 -1.7107838 4293729569
1.0306702 -3.3465052 -1.9014019 4288085770
2.4559326 -3.905673 -1.7142128 4293729569
1.0005188 -3.2715883 -1.9007872 4288085770
2.4608459 -3.8377047 -1.7235003 4293729569
0.98544312 -3.2036419 -1.9021132 4288085770
2.5228882 -3.796608 -1.7405605 4293729569
0.96936035 -3.1366863 -1.9014368 4288085770
2.6740417 -3.7933302 -1.7742842 4293729569
0.95126343 -3.0667372 -1.9007772 4288085770
2.9764404 -3.8527498 -1.835443 4288085770
0.92315674 -2.9937954 -1.8951499 4288085770
3.0634766 -3.8155918 -1.8544377 4288085770
0.90505981 -2.9258375 -1.8924819 4288085770
3.2446289 -3.8172407 -1.8900819 4288085770
0.90194702 -2.863842 -1.8907584 4288085770
3.3106384 -3.768115 -1.9031695 4288085770
0.9019165 -2.8038406 -1.8900208 4288085770
3.3135071 -3.6921082 -1.9024957 4288085770
0.90084839 -2.7438354 -1.8872849 4288085770
3.2993774 -3.6091318 -1.8988854 4288085770
0.90274048 -2.6838207 -1.8845432 4288085770
3.2752075 -3.5221691 -1.8913114 4288085770
0.92572021 -2.6327686 -1.8867221 4288085770
3.2910767 -3.4511213 -1.8895912 4288085770
0.93063354 -2.5747375 -1.881966 4288085770
3.303009 -3.3800726 -1.8858784 4288085770
0.94256592 -2.5196934 -1.8791834 4288085770
3.3388977 -3.3159761 -1.886089 4288085770
0.97558594 -2.4726095 -1.8803256 4288085770
3.3648376 -3.2498913 -1.8833276 4288085770
1.0014954 -2.4215355 -1.8794985 4288085770
3.4057312 -3.1877728 -1.8815199 4288085770
1.0184326 -2.3674698 -1.874702 4288085770
3.4546509 -3.1276293 -1.879688 4288085770
1.0514221 -2.3193722 -1.8728486 4288085770
3.4996033 -3.066493 -1.8768682 4288085770
1.1023865 -2.2762365 -1.8739387 4288085770
3.5635376 -3.0113106 -1.875986 4288085770
1.1463623 -2.2321129 -1.8730465 4288085770
3.6214905 -2.9531345 -1.8721281 4288085770
1.188324 -2.184988 -1.8711715 4288085770
3.6984558 -2.9019213 -1.8722032 4288085770
1.248291 -2.1438236 -1.8712355 4288085770
3.7813721 -2.8496809 -1.8702712 4288085770
1.2982788 -2.099678 -1.8693321 4288085770
3.8592834 -2.7954454 -1.8663577 4288085770
1.3572693 -2.0575037 -1.8674024 4288085770
3.9582825 -2.7471657 -1.8653775 4288085770
1.4282532 -2.0173073 -1.8674411 4288085770
4.0572205 -2.697875 -1.8624016 4288085770
1.5092163 -1.9800911 -1.8694474 4288085770
4.1712036 -2.6515474 -1.860384 4288085770
1.5742188 -1.9378948 -1.8655062 4288085770
4.2861633 -2.6042147 -1.8573688 4288085770
1.6622314 -1.9006481 -1.865499 4288085770
4.4121094 -2.5598516 -1.8553194 4288085770
1.7312012 -1.8584404 -1.8615502 4288085770
4.5511169 -2.5174532 -1.8532363 4288085770
1.8131714 -1.8191986 -1.8585633 4288085770
4.6890564 -2.4730539 -1.8501637 4288085770
1.9161682 -1.7839117 -1.8585187 4288085770
4.8500671 -2.4325943 -1.8480297 4288085770
2.0171509 -1.7476215 -1.8564823 4288085770
5.0240479 -2.3940992 -1.846862 4288085770
2.1141663 -1.7083359 -1.8534666 4288085770
5.204071 -2.3555841 -1.8446827 4288085770
2.2461853 -1.6779795 -1.8563445 4288085770
5.3960266 -2.3160315 -1.8414845 4288085770
2.3481445 -1.6376696 -1.8503233 4288085770
5.6080322 -2.2794313 -1.8402354 4288085770
2.4841614 -1.6042929 -1.8512065 4288085770
5.8239746 -2.2408075 -1.8359867 4288085770
2.6201477 -1.568903 -1.8490986 4288085770
6.0579834 -2.2041349 -1.8326951 4288085770
2.7611389 -1.5344982 -1.8469765 4288085770
6.3029785 -2.1664257 -1.8283868 4288085770
2.8931274 -1.4961071 -1.8418893 4288085770
6.5729675 -2.1326551 -1.826013 4288085770
3.0481262 -1.46066 -1.8387448 4288085770
6.8599548 -2.0978327 -1.8226107 4288085770
3.2291565 -1.4291544 -1.839533 4288085770
7.1679688 -2.0639467 -1.818164 4288085770
3.4021301 -1.3946533 -1.8363495 4288085770
7.5090027 -2.0329781 -1.8166407 4288085770
3.5831299 -1.3601332 -1.8331506 4288085770
7.8549805 -1.9999809 -1.8111166 4288085770
3.7921448 -1.3285446 -1.832885 4288085770
8.25 -1.9708614 -1.8094811 4288085770
3.9931335 -1.2919559 -1.8276566 4288085770
8.6249695 -1.9337616 -1.7999188 4288085770
4.2251587 -1.2592983 -1.8263512 4288085770
9.0740051 -1.90448 -1.7961795 4288085770
4.4581299 -1.2246294 -1.8230524 4288085770
9.6210327 -1.8829479 -1.7982173 4288085770
4.7171631 -1.1918907 -1.820695 4288085770
10.183105 -1.8583584 -1.7972394 4288085770
4.9981384 -1.1580944 -1.8192998 4288085770
10.822113 -1.8365545 -1.7971004 4288085770
5.2811584 -1.1232767 -1.8149053 4288085770
11.446136 -1.8067646 -1.7900254 4288085770
5.6191406 -1.0903282 -1.8153962 4288085770
12.136139 -1.7777853 -1.7828193 4288085770
5.9471436 -1.0533857 -1.8109239 4288085770
12.973175 -1.756423 -1.7822961 4288085770
6.2891235 -1.0153942 -1.8044291 4288085770
6.7011414 -0.98123455 -1.8047823 4288085770
7.1030884 -0.9410696 -1.7971811 4288085770
7.5570984 -0.902771 -1.7934713 4288085770
8.0730896 -0.86430931 -1.7916422 4288085770
