# .PCD v0.7 - Point Cloud Data file format
VERSION 0.7
FIELDS x y z rgb
SIZE 4 4 4 4
TYPE F F F U
COUNT 1 1 1 1
WIDTH 1125
HEIGHT 1
VIEWPOINT 0 0 0 1 0 0 0
POINTS 1125
DATA ascii
5.1470308 2.1617999 -1.8094153 4288085770
3.9733598 1.6660098 -1.8342023 4288085770
17.315609 7.2600012 -1.7246302 4288085770
5.9178214 2.4763169 -1.7945572 4288085770
13.03083 5.4481096 -1.7198527 4288085770
6.1277671 2.553458 -1.8005972 4288085770
5.2610102 2.1888735 -1.8104398 4288085770
4.5652051 1.8964047 -1.8233135 4288085770
11.60724 4.8301506 -1.7565964 4288085770
6.0597935 2.5154104 -1.7955865 4288085770
7.5193887 3.1113949 -1.8048542 4288085770
4.0003691 1.6480222 -1.8382131 4288085770
5.389987 2.2199574 -1.8144672 4288085770
6.2017665 2.5525033 -1.7956159 4288085770
13.470765 5.5434017 -1.7149445 4288085770
17.198725 7.07692 -1.7356259 4288085770
4.5982132 1.8784217 -1.8293252 4288085770
6.1507907 2.5134673 -1.8006096 4288085770
5.4879751 2.2380197 -1.807489 4288085770
6.3627357 2.5956094 -1.797649 4288085770
11.515322 4.703084 -1.753592 4288085770
7.5274224 3.0563948 -1.8018645 4288085770
4.0213799 1.62703 -1.8382229 4288085770
13.933696 5.6397109 -1.7100414 4288085770
6.5017138 2.6277001 -1.7926785 4288085770
5.6099553 2.2640986 -1.8075153 4288085770
17.12183 6.9108653 -1.7466288 4288085770
4.618227 1.8534293 -1.8293351 4288085770
6.1738148 2.4744763 -1.8006216 4288085770
6.685678 2.6768217 -1.7977163 4288085770
11.344429 4.543962 -1.739573 4288085770
5.736937 2.2901809 -1.8065429 4288085770
7.5404568 3.0023975 -1.7978761 4288085770
4.0453901 1.6070402 -1.8392329 4288085770
14.453617 5.752058 -1.7081497 4288085770
6.8496513 2.7149289 -1.7957509 4288085770
16.909977 6.6937189 -1.7416065 4288085770
5.8539219 2.3112564 -1.8015686 4288085770
4.6482387 1.832444 -1.8313469 4288085770
6.2008371 2.4364891 -1.8006347 4288085770
11.259509 4.4219003 -1.7355695 4288085770
7.0316191 2.7590492 -1.7967888 4288085770
14.971544 5.8564034 -1.7032582 4288085770
4.0734005 1.588053 -1.8412441 4288085770
5.9879031 2.3373432 -1.8005979 4288085770
7.580482 2.9594188 -1.8008926 4288085770
7.2425804 2.8121896 -1.8018324 4288085770
4.6702523 1.8084531 -1.8313569 4288085770
16.550158 6.4224706 -1.7215564 4288085770
6.1408796 2.3684425 -1.8036311 4288085770
6.2218604 2.3964968 -1.7996465 4288085770
11.205579 4.3128586 -1.7355717 4288085770
7.4515438 2.8623276 -1.803876 4288085770
15.545462 5.9757876 -1.7013777 4288085770
4.0964131 1.5660619 -1.8402544 4288085770
7.615509 2.915437 -1.800908 4288085770
6.2798615 2.3935328 -1.7996614 4288085770
4.6952658 1.7844639 -1.8303677 4288085770
7.6395173 2.9014509 -1.799916 4288085770
16.256323 6.1802673 -1.7045187 4288085770
6.2668786 2.3645213 -1.8026631 4288085770
16.184366 6.1102171 -1.7035106 4288085770
11.170643 4.2128305 -1.7365772 4288085770
6.4428382 2.4246397 -1.8026969 4288085770
4.1294203 1.5490783 -1.8432664 4288085770
7.8604813 2.951597 -1.7999623 4288085770
7.6755295 2.8784721 -1.8059283 4288085770
4.7232785 1.761477 -1.8313793 4288085770
16.237406 6.0462518 -1.7135315 4288085770
6.5898204 2.4487352 -1.7987293 4288085770
8.0794487 2.9977417 -1.7980087 4288085770
16.996233 6.2987638 -1.716677 4288085770
6.3058991 2.3295417 -1.8046786 4288085770
11.199689 4.1358461 -1.7475948 4288085770
4.1624303 1.5300946 -1.8462788 4288085770
7.7095571 2.8324895 -1.8049437 4288085770
6.7687955 2.4818525 -1.8017682 4288085770
8.3354082 3.0549116 -1.8010622 4288085770
4.7512922 1.7384897 -1.8303906 4288085770
16.148514 5.886188 -1.7145312 4288085770
17.744127 6.4522672 -1.7208328 4288085770
6.9477715 2.5139699 -1.8028072 4288085770
8.6003656 3.1130881 -1.8041178 4288085770
6.3439202 2.2935612 -1.8056939 4288085770
11.184748 4.0428314 -1.7496042 4288085770
4.1944404 1.5111099 -1.8472908 4288085770
7.7575841 2.7895164 -1.804962 4288085770
4.778306 1.714502 -1.8294019 4288085770
8.8753252 3.1712711 -1.8051754 4288085770
7.1227512 2.5420847 -1.8008457 4288085770
16.174583 5.7702031 -1.7265521 4288085770
18.641985 6.6488738 -1.7340177 4288085770
6.3769431 2.2555773 -1.8047084 4288085770
11.184803 3.9558268 -1.7536166 4288085770
4.2204528 1.4891212 -1.8463019 4288085770
9.1732788 3.2334695 -1.8082383 4288085770
4.8103194 1.6915175 -1.8294144 4288085770
7.7946129 2.7435355 -1.8029783 4288085770
7.3017321 2.5682013 -1.7978854 4288085770
19.584846 6.8465099 -1.7462127 4288085770
16.223652 5.660233 -1.7385781 4288085770
9.4232502 3.2766347 -1.7992921 4288085770
7.501708 2.6003325 -1.7989292 4288085770
6.4229631 2.2216027 -1.8057255 4288085770
4.2644601 1.4731449 -1.8513163 4288085770
11.200852 3.8748333 -1.7586317 4288085770
4.8503294 1.6715391 -1.8314283 4288085770
7.8596339 2.7055738 -1.806 4288085770
9.7422037 3.3408475 -1.8013593 4288085770
7.7336779 2.6404865 -1.8039796 4288085770
16.290712 5.5572767 -1.7506073 4288085770
4.2894726 1.4501551 -1.8483273 4288085770
6.4629846 2.1856236 -1.8047413 4288085770
11.235899 3.7998526 -1.7656506 4288085770
4.8763452 1.6455501 -1.8274397 4288085770
10.080158 3.4060731 -1.8024306 4288085770
7.8876672 2.6545866 -1.8000147 4288085770
7.9256606 2.6636121 -1.7990226 4288085770
16.296795 5.4332776 -1.7546248 4288085770
10.411117 3.4652936 -1.7985014 4288085770
4.3254843 1.430173 -1.8483405 4288085770
8.1396399 2.6927528 -1.79607 4288085770
4.916357 1.6235712 -1.8284539 4288085770
6.510005 2.1506491 -1.8057587 4288085770
11.287942 3.7288837 -1.7736729 4288085770
7.961688 2.6186314 -1.8030382 4288085770
10.747076 3.5225174 -1.7935735 4288085770
8.3796139 2.7269115 -1.7981228 4288085770
16.399851 5.3383441 -1.7676612 4288085770
4.3544974 1.4081861 -1.8453522 4288085770
4.961369 1.6025956 -1.829469 4288085770
6.5720215 2.1206853 -1.808779 4288085770
11.095037 3.5797489 -1.786648 4288085770
11.325988 3.6539049 -1.7786925 4288085770
8.0287113 2.5806713 -1.8030604 4288085770
8.6115942 2.7550645 -1.7951745 4288085770
16.463921 5.2323856 -1.7746902 4288085770
11.459997 3.6369929 -1.7797267 4288085770
4.3975058 1.3902092 -1.8483667 4288085770
5.0033798 1.5816182 -1.8294835 4288085770
6.6260409 2.0867159 -1.8097979 4288085770
11.401027 3.5889516 -1.7887195 4288085770
8.8655682 2.7872331 -1.7952307 4288085770
8.0837383 2.5367024 -1.8000805 4288085770
11.832959 3.6922412 -1.7698075 4288085770
16.525988 5.1234241 -1.7797189 4288085770
5.0483923 1.5596426 -1.8304989 4288085770
4.4385171 1.3702303 -1.848381 4288085770
9.1445408 2.8254182 -1.7972919 4288085770
6.6800613 2.0527463 -1.8088168 4288085770
11.45507 3.5179842 -1.7947423 4288085770
12.252913 3.7585227 -1.7648976 4288085770
8.1797552 2.5047624 -1.8051088 4288085770
9.4515095 2.8666229 -1.8033595 4288085770
5.0994029 1.5396714 -1.8315154 4288085770
16.622046 5.025486 -1.7867541 4288085770
4.4725294 1.3482469 -1.8463941 4288085770
12.705863 3.8288264 -1.759995 4288085770
6.7360816 2.0187781 -1.8088362 4288085770
11.536108 3.4540348 -1.8027705 4288085770
8.2647772 2.4688146 -1.8061349 4288085770
9.7474823 2.9018199 -1.8034251 4288085770
13.198809 3.906157 -1.7561004 4288085770
5.1474147 1.5176979 -1.8315316 4288085770
4.5115414 1.328267 -1.8444077 4288085770
16.668121 4.9125142 -1.7867798 4288085770
6.7961011 1.9858129 -1.8088564 4288085770
10.056456 2.9360261 -1.8054936 4288085770
11.593152 3.383069 -1.8057942 4288085770
8.3338022 2.4268558 -1.8031579 4288085770
13.727753 3.9865136 -1.7532141 4288085770
5.2004261 1.4977279 -1.8325483 4288085770
4.556551 1.3082912 -1.845423 4288085770
16.761185 4.8105741 -1.7908149 4288085770
10.422419 2.9842715 -1.8135737 4288085770
6.8551211 1.9518468 -1.8078762 4288085770
14.341682 4.085927 -1.7573447 4293729569
11.665195 3.3151133 -1.8108209 4288085770
8.4378214 2.3949211 -1.8061879 4288085770
5.2404408 1.4727486 -1.8275629 4288085770
10.784388 3.0255136 -1.8176535 4288085770
4.5975633 1.2873126 -1.8434374 4288085770
16.710279 4.6695356 -1.7768215 4288085770
14.959618 4.1783438 -1.7564774 4293729569
6.9281383 1.9218905 -1.808899 4288085770
8.5368404 2.3609827 -1.807217 4288085770
11.71824 3.2411449 -1.811844 4288085770
11.137362 3.0597494 -1.8187324 4288085770
5.3014517 1.4527843 -1.8305818 4288085770
15.554563 4.2567444 -1.747606 4293729569
4.6445732 1.2683383 -1.8434529 4288085770
16.688368 4.5385156 -1.7648337 4288085770
7.0041561 1.8909364 -1.8099225 4288085770
8.6448593 2.3280506 -1.809248 4288085770
11.791282 3.1731901 -1.8138709 4288085770
11.471343 3.0839722 -1.8138078 4288085770
16.269495 4.3592272 -1.7467597 4293729569
5.3664608 1.4348229 -1.8326011 4288085770
4.6875863 1.2473609 -1.8404677 4288085770
16.762438 4.4315624 -1.7608651 4293729569
11.844321 3.1142218 -1.8118917 4288085770
7.0891728 1.8619883 -1.8119478 4288085770
17.16839 4.5018373 -1.7599505 4288085770
8.7658768 2.2961283 -1.8122817 4288085770
11.857328 3.1012297 -1.8138967 4288085770
5.4264722 1.4138578 -1.8326198 4288085770
4.7355981 1.2263874 -1.8394839 4288085770
16.82851 4.3246021 -1.7548947 4293729569
12.254295 3.1474969 -1.8129836 4288085770
18.21027 4.6675448 -1.7771715 4288085770
7.1781893 1.8330431 -1.8139743 4288085770
8.8678999 2.2591913 -1.8103119 4288085770
11.906379 3.0252583 -1.8109189 4288085770
5.4994812 1.3959018 -1.835641 4288085770
4.7846098 1.2064142 -1.8374999 4288085770
12.703265 3.186799 -1.8170837 4288085770
19.543106 4.8944521 -1.8154517 4288085770
17.012558 4.2437253 -1.7579482 4293729569
7.2582083 1.8010918 -1.8139988 4288085770
8.9949179 2.227273 -1.8113471 4288085770
5.5744905 1.3769474 -1.838663 4288085770
11.984423 2.9553063 -1.8099475 4288085770
4.8426189 1.1884478 -1.8385178 4288085770
13.195231 3.2301307 -1.8241932 4288085770
17.323586 4.1939344 -1.7730272 4288085770
7.3512259 1.7711493 -1.815026 4288085770
9.1289358 2.1963592 -1.8123837 4288085770
5.6455026 1.3569899 -1.8386838 4288085770
12.065467 2.887357 -1.807976 4288085770
4.8996291 1.1694806 -1.8375355 4288085770
13.730194 3.2774918 -1.8333122 4288085770
17.593624 4.130116 -1.7810984 4288085770
7.4502425 1.742211 -1.8160547 4288085770
5.7195134 1.3370346 -1.8387055 4288085770
9.2769537 2.1664548 -1.8144236 4288085770
14.375141 3.3429296 -1.8534539 4288085770
4.9566407 1.1495132 -1.8365535 4288085770
12.168508 2.8214226 -1.8090098 4288085770
4.2527599 0.96803129 -1.853415 4288085770
5.8055215 1.3200877 -1.8417295 4288085770
17.850668 4.059288 -1.7851676 4288085770
4.3507509 0.9880954 -1.8284354 4288085770
7.5522585 1.7132752 -1.8170837 4288085770
4.42874 1.004148 -1.8274515 4288085770
9.4379702 2.1375594 -1.8174661 4288085770
15.085087 3.4134116 -1.8756101 4288085770
4.5267253 1.0232146 -1.832472 4288085770
4.6207128 1.0422784 -1.8344914 4288085770
5.0296488 1.1325573 -1.8405746 4288085770
4.7067013 1.0583364 -1.8325095 4288085770
12.300544 2.7625079 -1.8120492 4288085770
4.8026886 1.076401 -1.8325297 4288085770
4.3527589 0.97409391 -1.8304387 4288085770
4.8986769 1.0934654 -1.83055 4288085770
4.4547453 0.99116278 -1.8354605 4288085770
5.0066628 1.1125382 -1.8325728 4288085770
4.5467358 1.0052241 -1.8354806 4288085770
5.1006536 1.1276009 -1.8265929 4288085770
5.8955312 1.3021438 -1.8447546 4288085770
18.084717 3.9814444 -1.7852323 4288085770
5.2116408 1.1466755 -1.8266165 4288085770
15.615069 3.4347692 -1.8717308 4288085770
7.6652746 1.6853466 -1.8191154 4288085770
9.5899868 2.1066582 -1.8175068 4288085770
4.6477242 1.0202916 -1.8375024 4288085770
5.3266277 1.1647524 -1.8256413 4288085770
5.0816627 1.1105863 -1.8355917 4288085770
4.7457137 1.0343568 -1.8375238 4288085770
12.422584 2.7005866 -1.8120866 4288085770
5.457612 1.1858408 -1.8276693 4288085770
4.8447046 1.0474228 -1.8355457 4288085770
5.6045938 1.2099401 -1.8337007 4288085770
5.9735427 1.2811912 -1.8437773 4288085770
4.9386978 1.0584847 -1.8305665 4288085770
5.7405801 1.2300316 -1.83373 4288085770
16.101067 3.4420962 -1.8628429 4288085770
7.8082852 1.6624393 -1.8271531 4288085770
18.364761 3.9086323 -1.7873068 4288085770
9.7610054 2.0767698 -1.8195517 4288085770
5.9025607 1.2551411 -1.8397647 4288085770
5.0536866 1.0735614 -1.831592 4288085770
5.1406751 1.0896202 -1.8316101 4288085770
6.0535455 1.2762425 -1.8407975 4288085770
5.1626768 1.0866338 -1.829616 4288085770
12.551623 2.6366699 -1.8111259 4288085770
6.2005315 1.2963411 -1.8388295 4288085770
5.2696691 1.0977043 -1.82564 4288085770
6.0625539 1.2612463 -1.8438023 4288085770
16.595064 3.4424291 -1.8509578 4288085770
6.3625164 1.3174498 -1.8388648 4288085770
5.4006577 1.1137921 -1.8276688 4288085770
7.9582968 1.6395367 -1.8341928 4288085770
9.9680166 2.0529068 -1.8256042 4288085770
18.694807 3.842855 -1.790392 4288085770
5.1936893 1.0676501 -1.8256272 4288085770
6.5305004 1.3395627 -1.8389013 4288085770
5.5376449 1.1298836 -1.829699 4288085770
6.702486 1.3606781 -1.8369391 4288085770
12.704662 2.5757699 -1.8121704 4288085770
6.1495662 1.2403003 -1.8418272 4288085770
5.6796336 1.1449786 -1.8327308 4288085770
17.02808 3.4237196 -1.830061 4288085770
6.8554754 1.3757796 -1.8279731 4288085770
10.153033 2.0230277 -1.8256524 4288085770
8.0943108 1.6126245 -1.8382293 4288085770
5.8386188 1.1630855 -1.8377659 4288085770
5.2746973 1.0506999 -1.82865 4288085770
7.0584574 1.4009165 -1.8310174 4288085770
19.111834 3.7911367 -1.7994953 4288085770
6.0006046 1.1811944 -1.8428017 4288085770
7.2554431 1.4220486 -1.8280609 4288085770
12.8587 2.5148702 -1.8122151 4288085770
6.2525754 1.2223651 -1.843855 4288085770
17.562082 3.4180799 -1.8181857 4288085770
6.1575933 1.1952993 -1.842837 4288085770
7.4624271 1.4451877 -1.8261063 4288085770
5.3477082 1.031744 -1.8266712 4288085770
10.381046 1.9991794 -1.8307096 4288085770
8.2253304 1.5827084 -1.8372654 4288085770
6.3145833 1.2094041 -1.8418723 4288085770
19.561867 3.7404425 -1.8076062 4288085770
7.7104049 1.4733554 -1.8311608 4288085770
6.3505869 1.2024267 -1.842882 4288085770
6.4805727 1.2225147 -1.8409097 4288085770
13.042735 2.4579916 -1.8142661 4288085770
7.9643841 1.5005268 -1.8342167 4288085770
18.18408 3.4225011 -1.8123293 4288085770
5.4277186 1.0137931 -1.8266939 4288085770
10.620059 1.9743378 -1.8347695 4288085770
6.6645613 1.238638 -1.8429508 4288085770
8.3613472 1.552796 -1.8373022 4288085770
8.2033701 1.5226874 -1.8302696 4288085770
6.4635968 1.184499 -1.8459122 4288085770
6.8335528 1.2497507 -1.8399894 4288085770
8.4983463 1.5538871 -1.8363345 4288085770
18.941059 3.4420156 -1.8175019 4288085770
13.24377 2.4011247 -1.8163211 4288085770
5.5167279 0.99584854 -1.8287189 4288085770
7.0175428 1.2628736 -1.8380309 4288085770
8.8243198 1.5871081 -1.8444062 4288085770
10.853075 1.9474928 -1.8368281 4288085770
8.5573568 1.5329257 -1.8483517 4288085770
6.5636091 1.1635618 -1.8419398 4288085770
9.1372986 1.6163199 -1.8464755 4288085770
7.1885381 1.2709872 -1.8300703 4288085770
19.761044 3.4615736 -1.823689 4288085770
5.6087365 0.97890604 -1.8297442 4288085770
13.476803 2.3482802 -1.8203828 4288085770
9.4432793 1.6415262 -1.8435435 4288085770
7.3985281 1.284128 -1.829118 4288085770
11.098092 1.9186554 -1.8368896 4288085770
8.7263708 1.506036 -1.8503958 4288085770
6.6776195 1.1446346 -1.8419703 4288085770
9.7672625 1.6667447 -1.8396158 4288085770
7.601521 1.2942636 -1.8251644 4288085770
5.7017469 0.96096432 -1.8307698 4288085770
13.724834 2.2964456 -1.8254478 4288085770
10.122244 1.6939849 -1.8386947 4288085770
7.8805022 1.3154525 -1.8362269 4288085770
11.35211 1.8898245 -1.8359532 4288085770
8.9053869 1.4791536 -1.8534423 4288085770
6.7866325 1.1237038 -1.8389997 4288085770
10.513221 1.7242498 -1.8397819 4288085770
8.1604853 1.3346417 -1.8452898 4288085770
5.800756 0.94402695 -1.8317966 4288085770
10.915199 1.753522 -1.8378716 4288085770
14.019863 2.2476439 -1.8325232 4288085770
11.664121 1.8670337 -1.8410294 4288085770
8.420475 1.3478167 -1.845349 4288085770
6.9016452 1.1027772 -1.8350307 4288085770
9.070406 1.4482611 -1.851486 4288085770
11.345179 1.7818134 -1.8349676 4288085770
5.8967671 0.92508721 -1.8308231 4288085770
8.7174625 1.3640175 -1.8504163 4288085770
7.0186582 1.0818522 -1.8310621 4288085770
11.94114 1.8362188 -1.8370986 4288085770
14.376884 2.2068853 -1.8466119 4288085770
11.796161 1.8101189 -1.8310685 4288085770
9.2364254 1.4163699 -1.8485299 4288085770
9.0334492 1.3792313 -1.8564881 4288085770
6.0177736 0.91016555 -1.8358545 4288085770
12.263142 1.8364352 -1.8241735 4288085770
9.287447 1.3834012 -1.845547 4288085770
7.1616683 1.0639452 -1.831099 4288085770
12.268156 1.8114387 -1.8391782 4288085770
9.4554377 1.3915154 -1.8525851 4288085770
14.779906 2.1661587 -1.861711 4288085770
12.843112 1.8758301 -1.8293025 4288085770
6.1207852 0.89123082 -1.8338825 4288085770
9.6154375 1.3946227 -1.847622 4288085770
7.3046808 1.0440383 -1.829136 4288085770
13.450086 1.9112432 -1.8304385 4288085770
12.635168 1.787686 -1.841267 4288085770
9.9384308 1.4028405 -1.8446963 4288085770
9.6734543 1.3636599 -1.8546404 4288085770
15.175932 2.1214266 -1.8728088 4288085770
6.2497931 0.87531447 -1.837916 4288085770
14.17205 1.9587357 -1.8405992 4288085770
7.4556913 1.0261371 -1.8281746 4288085770
10.312421 1.4140939 -1.8477819 4288085770
13.064175 1.7709765 -1.850369 4288085770
9.8704748 1.33179 -1.8506912 4288085770
6.3718028 0.85739338 -1.8379481 4288085770
15.054 2.020339 -1.8627945 4288085770
15.589959 2.0727074 -1.8829113 4288085770
10.709411 1.4243629 -1.8508728 4288085770
7.639699 1.0102589 -1.8322206 4288085770
15.925961 2.0719349 -1.8739891 4288085770
13.54318 1.7553017 -1.8594823 4288085770
6.4898148 0.83846903 -1.8349792 4288085770
11.146399 1.4366597 -1.8559726 4288085770
10.147489 1.3079759 -1.8577596 4288085770
7.8327069 0.99438715 -1.8362684 4288085770
15.985991 2.0179751 -1.8870103 4288085770
16.696941 2.1014602 -1.8641632 4288085770
11.564395 1.4409426 -1.8530691 4288085770
14.090184 1.742674 -1.8726106 4288085770
6.6348233 0.8215642 -1.8390163 4288085770
10.392506 1.2791393 -1.8568211 4288085770
17.412935 2.1189466 -1.8423258 4288085770
8.0107183 0.97550464 -1.8343134 4288085770
11.985395 1.4412278 -1.8481666 4288085770
16.357035 1.9572256 -1.8851044 4288085770
6.7638354 0.80264795 -1.8360502 4288085770
14.74918 1.7391242 -1.8947635 4288085770
18.344912 2.1525824 -1.8345361 4288085770
10.68952 1.2523389 -1.8608941 4288085770
8.2297249 0.96065116 -1.8393669 4288085770
12.482388 1.4465656 -1.850281 4288085770
6.9038458 0.78473938 -1.8340861 4288085770
16.766073 1.8955027 -1.8842072 4288085770
19.43688 2.195329 -1.8327817 4288085770
15.466174 1.7346143 -1.9169296 4288085770
8.4167385 0.9407748 -1.8344139 4288085770
13.07138 1.4559672 -1.8594159 4288085770
11.018535 1.2265606 -1.8669742 4288085770
4.8680139 0.54134071 -1.8256509 4288085770
7.0558572 0.76683927 -1.8341248 4288085770
13.742364 1.469426 -1.876569 4288085770
8.6677437 0.92694354 -1.8404745 4288085770
17.136122 1.8257523 -1.8743019 4288085770
16.048191 1.7100102 -1.9160671 4288085770
4.9500217 0.52739263 -1.8256731 4288085770
11.338552 1.1987764 -1.8680526 4288085770
7.1978688 0.74693203 -1.8281615 4288085770
14.520346 1.4859589 -1.8997462 4288085770
8.9297514 0.91211987 -1.8455377 4288085770
6.1269541 0.62519526 -1.821932 4288085770
5.9779639 0.61009324 -1.8228998 4288085770
6.2799444 0.64029992 -1.8189652 4288085770
6.4439335 0.65641224 -1.8170006 4288085770
5.831975 0.59399307 -1.8238685 4288085770
5.0450287 0.5134536 -1.8286984 4288085770
5.6749873 0.57688475 -1.8188348 4288085770
6.6249213 0.67253613 -1.8180404 4288085770
16.65321 1.6814218 -1.9102104 4288085770
6.8289084 0.69067597 -1.8220848 4288085770
5.5489969 0.56179821 -1.8208078 4288085770
7.0278969 0.70781219 -1.8211284 4288085770
5.4320059 0.54771769 -1.823783 4288085770
5.1880221 0.5225507 -1.8287303 4288085770
5.0710301 0.51047039 -1.8287052 4288085770
5.3150134 0.53463793 -1.8307579 4288085770
17.620161 1.762081 -1.872422 4288085770
11.648572 1.1659847 -1.8641293 4288085770
4.9500399 0.49738702 -1.8256791 4288085770
7.2278857 0.72394848 -1.8181723 4288085770
5.4390063 0.5457226 -1.829785 4288085770
5.3210149 0.53364146 -1.8267595 4288085770
5.5589991 0.55680442 -1.8258111 4288085770
5.6929922 0.56789577 -1.8228406 4288085770
7.48487 0.74412501 -1.8272289 4288085770
5.1980257 0.51755619 -1.8247336 4288085770
5.8349838 0.57899249 -1.821872 4288085770
7.3858776 0.73105717 -1.832208 4288085770
7.7068591 0.76127636 -1.8232778 4288085770
5.090035 0.50348175 -1.8267108 4288085770
5.9979744 0.59210432 -1.8259078 4288085770
7.9738445 0.78045905 -1.8263369 4288085770
15.37233 1.5005426 -1.9229406 4288085770
4.9640474 0.48739389 -1.8196844 4288085770
6.1369691 0.60119843 -1.8199388 4288085770
9.1797609 0.89428759 -1.8445988 4288085770
6.3169599 0.61432159 -1.8229785 4288085770
5.1320367 0.49950925 -1.8287216 4288085770
8.2518311 0.79964912 -1.8283983 4288085770
6.4899521 0.62543941 -1.822017 4288085770
8.5118217 0.81582618 -1.8234563 4288085770
17.236235 1.6468179 -1.8963493 4288085770
6.6669445 0.6355598 -1.8200567 4288085770
12.00059 1.1362226 -1.8642149 4288085770
8.8738012 0.83907461 -1.8355366 4288085770
7.5848861 0.71519017 -1.8362571 4288085770
6.8749347 0.64770174 -1.8231031 4288085770
18.211199 1.704484 -1.8765656 4288085770
9.194788 0.85829377 -1.8336079 4288085770
16.074333 1.4920217 -1.9221033 4288085770
7.093926 0.65985131 -1.8271521 4288085770
9.4457731 0.87646639 -1.8436632 4288085770
5.2260456 0.4845694 -1.8287468 4288085770
9.5687723 0.87954962 -1.8376914 4288085770
7.3119168 0.67099988 -1.827201 4288085770
9.957756 0.90081561 -1.8397781 4288085770
17.952253 1.6193061 -1.8895178 4288085770
7.5589075 0.68316853 -1.8312565 4288085770
7.7478995 0.69529748 -1.8292984 4288085770
12.390609 1.1064866 -1.8643093 4288085770
10.403737 0.92412114 -1.8478777 4288085770
7.7759037 0.6903156 -1.8243058 4288085770
16.703352 1.4704493 -1.906251 4288085770
9.7777796 0.8626914 -1.8507422 4288085770
5.322053 0.47063133 -1.8287721 4288085770
18.941231 1.6519833 -1.8887404 4288085770
10.87272 0.94844246 -1.8529824 4288085770
8.0358963 0.70049274 -1.8253644 4288085770
11.380702 0.97179019 -1.8580964 4288085770
8.3108883 0.71068037 -1.8264266 4288085770
18.882261 1.6029425 -1.8957335 4288085770
7.9489088 0.67743182 -1.8293481 4288085770
12.849624 1.0787988 -1.8694192 4288085770
10.101788 0.8469106 -1.8518198 4288085770
5.421061 0.45669535 -1.8277978 4288085770
8.5858812 0.71886742 -1.823489 4288085770
11.86269 0.99011934 -1.8532047 4288085770
17.385368 1.4449137 -1.8914112 4288085770
8.9468689 0.73211467 -1.8345705 4288085770
12.424672 1.012504 -1.853331 4288085770
19.60227 1.5874346 -1.8889008 4288085770
8.1899185 0.66159403 -1.8334064 4288085770
19.780277 1.5765562 -1.8869431 4288085770
9.2958612 0.74135292 -1.8376498 4288085770
13.10465 1.0409703 -1.8624834 4288085770
10.465796 0.83115768 -1.8559064 4288085770
5.5210719 0.44075987 -1.8258244 4288085770
13.383636 1.0531629 -1.879546 4288085770
18.238382 1.4244969 -1.8876098 4288085770
9.6758518 0.75161266 -1.8427361 4288085770
13.962618 1.0775602 -1.8866757 4288085770
8.4309292 0.6447562 -1.8354651 4288085770
10.055847 0.75887203 -1.8428227 4288085770
5.6240807 0.42582652 -1.8228512 4288085770
10.895801 0.81945086 -1.8670073 4288085770
14.958581 1.1202455 -1.9168986 4288085770
13.968652 1.0265623 -1.8896844 4288085770
19.239393 1.4041823 -1.8898422 4288085770
10.527836 0.77019548 -1.8529299 4288085770
15.914555 1.1539021 -1.9301136 4288085770
8.6709375 0.6269176 -1.8345237 4288085770
5.7450886 0.41190618 -1.8248819 4288085770
11.316808 0.80473757 -1.8711066 4288085770
5.0291228 0.36041465 -1.8297248 4288085770
11.005827 0.77852273 -1.8600389 4288085770
16.727547 1.1714578 -1.9152977 4288085770
14.704659 1.006067 -1.9128565 4288085770
11.490823 0.78485429 -1.8611497 4288085770
8.9669466 0.61111832 -1.8405945 4288085770
17.58654 1.1860451 -1.8954928 4288085770
5.8700962 0.39798868 -1.8259137 4288085770
11.751818 0.7880336 -1.8712093 4288085770
5.1361289 0.34748468 -1.8327523 4288085770
11.981821 0.7871896 -1.8582623 4288085770
18.774517 1.2158605 -1.897761 4288085770
9.2609558 0.59431744 -1.843665 4288085770
15.432671 0.9795661 -1.9280273 4288085770
5.984107 0.38306323 -1.8219428 4288085770
5.2321382 0.33454698 -1.8297772 4288085770
12.195829 0.77033579 -1.867314 4288085770
12.507819 0.78754902 -1.8543831 4288085770
19.969503 1.2376795 -1.8870318 4288085770
13.118817 0.78996718 -1.8555231 4288085770
9.5989637 0.57854736 -1.8497455 4288085770
6.1231146 0.36815539 -1.8229779 4288085770
5.3411455 0.32161856 -1.8308052 4288085770
12.69084 0.75367332 -1.86443 4288085770
16.125698 0.94403958 -1.9281913 4288085770
13.795815 0.7904309 -1.8576785 4288085770
9.9109764 0.55975866 -1.8468202 4288085770
6.263123 0.35424849 -1.8230129 4288085770
5.4511538 0.30769065 -1.8298334 4288085770
13.24785 0.73705375 -1.8635604 4288085770
14.728803 0.79907298 -1.8838912 4288085770
16.740728 0.90045869 -1.912338 4288085770
10.310985 0.54403162 -1.8539146 4288085770
6.3971329 0.33933714 -1.8190467 4288085770
5.5611625 0.2937628 -1.8278615 4288085770
13.935855 0.72452533 -1.8717201 4288085770
15.672794 0.80172181 -1.9011072 4288085770
17.445757 0.85694003 -1.8995056 4288085770
6.5801392 0.3264606 -1.8260912 4288085770
10.729993 0.52731764 -1.8600135 4288085770
5.6781702 0.28084001 -1.8258911 4288085770
14.815853 0.71713054 -1.8959227 4288085770
16.529802 0.79230905 -1.8953048 4288085770
6.7371483 0.31156549 -1.8241301 4288085770
5.7971792 0.26791865 -1.822921 4288085770
11.172003 0.50961947 -1.8641177 4288085770
15.655859 0.70470715 -1.9031168 4288085770
17.399817 0.77690482 -1.882506 4288085770
18.328785 0.81554496 -1.8947133 4288085770
6.9071574 0.29667965 -1.8241719 4288085770
5.9471855 0.25501922 -1.8269581 4288085770
11.631014 0.49193314 -1.8652257 4288085770
16.54287 0.69031596 -1.9053218 4288085770
18.520821 0.76367462 -1.8837643 4288085770
19.426809 0.77729893 -1.9009695 4288085770
7.084167 0.28179842 -1.8212152 4288085770
6.0851932 0.24211133 -1.8259922 4288085770
12.115026 0.47226378 -1.8643394 4288085770
17.431881 0.67192519 -1.8955278 4288085770
19.828829 0.74957383 -1.8910651 4288085770
7.2951741 0.26794139 -1.8252661 4288085770
6.233202 0.22821027 -1.8250288 4288085770
12.632039 0.45261702 -1.8594606 4288085770
18.633888 0.65975165 -1.9038041 4288085770
7.5211816 0.25409493 -1.8303204 4288085770
6.4032087 0.21632513 -1.8290702 4288085770
13.281048 0.43506262 -1.8676118 4288085770
19.97489 0.64767432 -1.9121121 4288085770
7.7431903 0.24024546 -1.8303736 4288085770
6.5532169 0.20342565 -1.8251069 4288085770
13.92306 0.41650262 -1.8657614 4288085770
7.9881983 0.22641224 -1.8334322 4288085770
6.7412243 0.19055295 -1.8281524 4288085770
12.715113 0.34566706 -1.8414955 4288085770
13.4321 0.36416131 -1.8476566 4288085770
14.752069 0.39907292 -1.8779532 4288085770
12.092126 0.32823789 -1.8393556 4288085770
14.241084 0.38371879 -1.8538387 4288085770
11.532139 0.31085187 -1.8372302 4288085770
15.315061 0.40746087 -1.8840806 4288085770
10.999151 0.2934843 -1.8331109 4288085770
16.180052 0.42405531 -1.8732759 4288085770
10.531163 0.27716166 -1.8320063 4288085770
17.248039 0.44379064 -1.8745172 4288085770
10.079174 0.26084974 -1.8279054 4288085770
8.2512074 0.21159139 -1.8364949 4288085770
18.461025 0.46362564 -1.8747914 4288085770
9.9091806 0.2517322 -1.8268681 4288085770
9.5361862 0.24247563 -1.8297842 4288085770
9.1931915 0.23323959 -1.8327072 4288085770
6.9362321 0.17768514 -1.8301994 4288085770
10.337173 0.26102707 -1.8289644 4288085770
9.7061834 0.24459273 -1.8318225 4288085770
8.8501997 0.22300306 -1.8306301 4288085770
10.809168 0.27035236 -1.8340709 4288085770
11.319159 0.27970359 -1.8361861 4288085770
19.942009 0.48664597 -1.8821262 4288085770
8.5372076 0.21178707 -1.8295604 4288085770
15.704075 0.38172841 -1.8941731 4288085770
9.3391953 0.22933936 -1.830741 4288085770
11.869153 0.28708231 -1.8393108 4288085770
8.2462149 0.20158637 -1.8294955 4288085770
12.466148 0.29449308 -1.8394461 4288085770
7.9632235 0.1903908 -1.8274325 4288085770
9.0062056 0.2131094 -1.8316674 4288085770
13.143141 0.30095926 -1.8435998 4288085770
7.6982312 0.17920744 -1.8243737 4288085770
8.520216 0.19677454 -1.835559 4288085770
7.12924 0.1648159 -1.8302457 4288085770
8.6762161 0.1978811 -1.8285944 4288085770
13.901137 0.30748123 -1.847772 4288085770
7.4582386 0.16804151 -1.8243207 4288085770
16.559092 0.35931516 -1.8853716 4288085770
8.3792276 0.18167555 -1.8275292 4288085770
14.786129 0.31309116 -1.8579733 4288085770
7.2212472 0.15587719 -1.8212684 4288085770
8.8212261 0.18198019 -1.8386302 4288085770
7.356246 0.15197057 -1.8343 4288085770
15.787124 0.31778115 -1.8692012 4288085770
8.1032381 0.16648439 -1.8264686 4288085770
7.022254 0.14473951 -1.8242248 4288085770
17.699106 0.34010011 -1.8956344 4288085770
16.796124 0.31947556 -1.8684311 4288085770
6.8172617 0.1335973 -1.8231798 4288085770
7.8352489 0.15129855 -1.8244097 4288085770
9.135232 0.16819485 -1.8397043 4288085770
7.5652542 0.14011258 -1.83235 4288085770
18.006123 0.31930897 -1.8737072 4288085770
6.6152706 0.12145676 -1.8201358 4288085770
7.5992589 0.13613477 -1.8243583 4288085770
18.87512 0.31690896 -1.8919059 4288085770
19.383123 0.31825772 -1.8800216 4288085770
6.4332781 0.10933007 -1.8190964 4288085770
7.3632693 0.12197085 -1.8223069 4288085770
9.4622431 0.15341838 -1.8387812 4288085770
7.7992625 0.12727198 -1.8324056 4288085770
6.2622857 0.098210946 -1.8180592 4288085770
7.1342797 0.10681131 -1.818257 4288085770
8.0692682 0.11545675 -1.8364693 4288085770
9.8342514 0.13867339 -1.8418686 4288085770
6.1062927 0.086102292 -1.8210257 4288085770
6.9502878 0.09268342 -1.8222173 4288085770
8.3352766 0.10263835 -1.8355321 4288085770
10.212261 0.12393235 -1.840957 4288085770
5.9593 0.073999509 -1.8219943 4288085770
6.7612972 0.077551529 -1.8221769 4288085770
8.6332846 0.090842605 -1.8386021 4288085770
10.642269 0.10922751 -1.8430576 4288085770
5.8023086 0.06188944 -1.8189609 4288085770
6.5783067 0.063423693 -1.8211378 4288085770
8.9592915 0.078066245 -1.8426785 4288085770
11.108279 0.094547659 -1.845166 4288085770
5.6763153 0.049801201 -1.8229344 4288085770
6.3983173 0.048297569 -1.8190994 4288085770
9.2593002 0.066271305 -1.836749 4288085770
11.620289 0.078899518 -1.8462851 4288085770
5.5573215 0.03871794 -1.8279092 4288085770
9.6193085 0.054518357 -1.8368328 4288085770
12.174297 0.064280525 -1.8474135 4288085770
6.2373261 0.034184627 -1.8180652 4288085770
10.010313 0.042787157 -1.8399237 4288085770
5.4383283 0.026634134 -1.8298844 4288085770
12.807307 0.049716502 -1.85256 4288085770
10.44032 0.032082953 -1.8420235 4288085770
6.0963345 0.020085782 -1.8220357 4288085770
13.509316 0.034200057 -1.8567221 4288085770
5.311337 0.014544375 -1.8278579 4288085770
10.88733 0.020390324 -1.8421271 4288085770
14.292323 0.019739822 -1.8629025 4288085770
11.406335 0.010747947 -1.8462466 4288085770
15.177333 0.0043501332 -1.8701063 4288085770
5.9583426 0.0059888139 -1.8250068 4288085770
11.96234 0.00013100356 -1.8493748 4288085770
5.1933441 0.0034610331 -1.8278332 4288085770
16.162344 -0.009970516 -1.8763325 4288085770
12.556347 -0.010459892 -1.8495117 4288085770
17.275354 -0.026202925 -1.8815882 4288085770
13.27035 -0.019967169 -1.8576757 4288085770
5.8043523 -0.007119894 -1.8199743 4288085770
14.020356 -0.029449891 -1.8618478 4288085770
18.606361 -0.042284295 -1.8928936 4288085770
19.367367 -0.046760492 -1.8820673 4288085770
14.91136 -0.037834797 -1.8710517 4288085770
15.889364 -0.046159893 -1.8772756 4288085770
16.971371 -0.053413369 -1.8815228 4288085770
19.747374 -0.06449683 -1.9031563 4288085770
18.259373 -0.059524223 -1.8908169 4288085770
17.969376 -0.060725659 -1.875751 4288085770
16.752388 -0.073566295 -1.8674759 4288085770
5.6693611 -0.021215513 -1.8179462 4288085770
15.694395 -0.088297188 -1.8622371 4288085770
14.769406 -0.10193637 -1.8580285 4288085770
5.5553699 -0.035296302 -1.820923 4288085770
13.927417 -0.11551863 -1.8518391 4288085770
19.823456 -0.18244842 -1.8831896 4288085770
13.185427 -0.12903196 -1.8466722 4288085770
5.4433775 -0.049375836 -1.8239003 4288085770
18.385469 -0.19844189 -1.8758645 4288085770
12.517436 -0.14349425 -1.8435225 4288085770
17.120481 -0.21331629 -1.867579 4288085770
5.3263865 -0.063459232 -1.8238766 4288085770
11.917447 -0.15790975 -1.8403882 4288085770
16.079489 -0.22903585 -1.8643444 4288085770
11.398456 -0.17226917 -1.8412725 4288085770
5.2243948 -0.077532202 -1.8258561 4288085770
15.120501 -0.24469927 -1.8591288 4288085770
10.902465 -0.18561324 -1.8371619 4288085770
14.269512 -0.25928834 -1.8529375 4288085770
5.1214027 -0.091606177 -1.8258357 4288085770
10.469475 -0.19991356 -1.838066 4288085770
13.525522 -0.27480352 -1.8497707 4288085770
10.078484 -0.21518493 -1.8409796 4288085770
12.846533 -0.29027405 -1.8466189 4288085770
9.7014923 -0.22944707 -1.8398963 4288085770
12.247543 -0.30468935 -1.8444852 4288085770
9.3555012 -0.24368776 -1.8408201 4288085770
11.712553 -0.32006058 -1.8433661 4288085770
9.042511 -0.25890589 -1.8417518 4288085770
11.239564 -0.33638892 -1.8452615 4288085770
8.7185211 -0.27213222 -1.8366807 4288085770
10.830573 -0.35367286 -1.8511714 4288085770
19.429775 -0.65972912 -1.8921647 4288085770
19.492773 -0.66268361 -1.9141794 4288085770
8.4415293 -0.28632578 -1.8366205 4288085770
10.400582 -0.36797208 -1.8490764 4288085770
18.192785 -0.67558384 -1.9048861 4288085770
8.182539 -0.30150703 -1.8375645 4288085770
18.272802 -0.69753087 -1.8849074 4288085770
9.9995937 -0.38325188 -1.8439879 4288085770
16.98579 -0.68242073 -1.8906136 4288085770
7.9285479 -0.31568521 -1.8355095 4288085770
9.6556034 -0.39849174 -1.8449128 4288085770
17.248827 -0.73324108 -1.8786801 4288085770
16.003796 -0.69010115 -1.887392 4288085770
7.6925573 -0.32985109 -1.8334588 4288085770
9.3186131 -0.41372722 -1.8438389 4288085770
15.100797 -0.69472754 -1.8811882 4288085770
7.4805665 -0.34500036 -1.8344135 4288085770
16.333849 -0.76687634 -1.8714776 4288085770
9.0016212 -0.42794916 -1.8407699 4288085770
14.289798 -0.69629002 -1.878005 4288085770
7.2765751 -0.35914418 -1.8343701 4288085770
8.709631 -0.44315395 -1.8377067 4288085770
15.55087 -0.79942048 -1.868305 4288085770
13.550798 -0.69580317 -1.8728378 4288085770
7.0885844 -0.37427706 -1.8353306 4288085770
12.888798 -0.69526279 -1.870688 4288085770
8.4506426 -0.4593358 -1.8386511 4288085770
19.556065 -1.0976478 -1.921253 4288085770
14.844893 -0.83291161 -1.8661501 4288085770
12.259795 -0.6917001 -1.8645456 4288085770
6.8945932 -0.38741454 -1.8312894 4288085770
8.2036514 -0.47450954 -1.838598 4288085770
18.178041 -1.0646032 -1.9089365 4288085770
11.712792 -0.68808007 -1.8634216 4288085770
6.7426019 -0.40352243 -1.8362583 4288085770
14.218913 -0.86334741 -1.8640131 4288085770
16.960026 -1.0324481 -1.8966565 4288085770
11.203789 -0.68243396 -1.8613061 4288085770
7.9566612 -0.48868361 -1.8355449 4288085770
15.916004 -1.0051721 -1.8904166 4288085770
10.756784 -0.67874467 -1.8632047 4288085770
6.5696111 -0.4176456 -1.8342221 4288085770
19.83819 -1.2844552 -1.9293422 4288085770
15.006987 -0.97980285 -1.8852077 4288085770
10.345778 -0.6740303 -1.8671116 4288085770
13.624931 -0.89176166 -1.8588831 4288085770
7.7356706 -0.50383991 -1.8334979 4288085770
14.184971 -0.95437324 -1.8810185 4288085770
9.9427748 -0.66631079 -1.8650197 4288085770
6.4126201 -0.43175769 -1.8331896 4288085770
9.5477695 -0.65758598 -1.8609296 4288085770
13.446955 -0.93088567 -1.8768487 4288085770
18.642199 -1.2972864 -1.9120734 4288085770
7.5476804 -0.52097291 -1.837459 4288085770
13.118952 -0.9231149 -1.8607737 4288085770
9.1917639 -0.64883399 -1.8588483 4288085770
12.760938 -0.90636218 -1.8716905 4288085770
19.746279 -1.4125229 -1.9123387 4288085770
6.2666292 -0.44686231 -1.8331598 4288085770
8.8547573 -0.64006889 -1.8557714 4288085770
12.155924 -0.88478243 -1.8695509 4288085770
7.3536892 -0.53611052 -1.8374182 4288085770
8.5327492 -0.62929344 -1.8516974 4288085770
17.595211 -1.3090142 -1.9018384 4288085770
11.61591 -0.86415744 -1.8684264 4288085770
19.315306 -1.4538227 -1.911247 4288085770
12.64397 -0.95244694 -1.8596709 4288085770
8.2587433 -0.62148404 -1.8546349 4288085770
11.153895 -0.84647787 -1.8743198 4288085770
6.1286373 -0.46096134 -1.8331317 4288085770
18.585289 -1.4213302 -1.8960775 4288085770
7.9667368 -0.60968792 -1.8485675 4288085770
10.662881 -0.82481956 -1.8682063 4288085770
7.1536989 -0.55025291 -1.832376 4288085770
7.7137299 -0.59986424 -1.8475094 4288085770
10.233866 -0.80411756 -1.8681067 4288085770
16.660215 -1.3176649 -1.8926286 4288085770
7.4847217 -0.59002364 -1.8494565 4288085770
9.8138523 -0.78340983 -1.8630093 4288085770
5.9986463 -0.47605506 -1.8341057 4288085770
12.190989 -0.97976434 -1.8565732 4288085770
7.2357144 -0.57719743 -1.8443989 4288085770
18.595348 -1.5133243 -1.9080924 4288085770
17.612297 -1.4350069 -1.8878598 4288085770
9.4328394 -0.76367497 -1.8599209 4288085770
7.0277061 -0.56734222 -1.8453507 4288085770
5.1596026 -0.41463691 -1.8389081 4288085770
6.9817076 -0.56537545 -1.8323402 4288085770
6.8266988 -0.55648232 -1.8443042 4288085770
9.078825 -0.74392128 -1.8558385 4288085770
5.2666125 -0.42856395 -1.8359344 4288085770
6.6356907 -0.54561532 -1.8442597 4288085770
8.7498131 -0.72515023 -1.8537618 4288085770
5.3896217 -0.44347939 -1.8379645 4288085770
15.903223 -1.3311913 -1.8944598 4288085770
6.4406829 -0.5327512 -1.8402141 4288085770
8.4498005 -0.70635879 -1.8516916 4288085770
6.2706752 -0.5218693 -1.8411745 4288085770
5.5076327 -0.45839864 -1.8359936 4288085770
6.1066675 -0.51098347 -1.8411361 4288085770
5.8686557 -0.4911491 -1.8330796 4288085770
8.1657887 -0.68855631 -1.8506252 4288085770
5.9486589 -0.49909309 -1.8410988 4288085770
5.2736187 -0.4415606 -1.8439386 4288085770
5.6386423 -0.47330859 -1.8350253 4288085770
5.3986278 -0.45347419 -1.8439685 4288085770
5.788651 -0.48720458 -1.8380612 4288085770
5.6556435 -0.4762966 -1.8400297 4288085770
5.5276351 -0.46538502 -1.8429993 4288085770
7.8837757 -0.6697526 -1.8465592 4288085770
11.789007 -1.0080462 -1.8564872 4288085770
5.773653 -0.48821557 -1.835058 4288085770
7.6457634 -0.65291774 -1.8475034 4288085770
6.830718 -0.58248353 -1.8353096 4288085770
5.9266629 -0.50410968 -1.8380948 4288085770
7.4047523 -0.63508523 -1.8454465 4288085770
16.77231 -1.4525917 -1.8836727 4288085770
6.0736737 -0.52000844 -1.8371305 4288085770
7.1777401 -0.61724305 -1.842393 4288085770
6.2326837 -0.53489828 -1.8381684 4288085770
6.9697285 -0.60038733 -1.8423438 4288085770
6.4026942 -0.55078053 -1.839209 4288085770
6.5847058 -0.56765443 -1.8402524 4288085770
6.7727175 -0.58452415 -1.8412971 4288085770
17.963387 -1.5727649 -1.906958 4288085770
15.162227 -1.3387073 -1.893294 4288085770
5.7446642 -0.50523901 -1.832055 4288085770
6.6777263 -0.59759319 -1.8362783 4288085770
11.419024 -1.0363064 -1.8554083 4288085770
16.063324 -1.4750856 -1.8835161 4288085770
14.444227 -1.3402079 -1.8881326 4288085770
5.6346726 -0.52031922 -1.8330334 4288085770
17.332424 -1.6272055 -1.9008234 4288085770
6.5137362 -0.61171126 -1.8302445 4288085770
11.080043 -1.064545 -1.8553367 4288085770
15.402336 -1.4955468 -1.8813703 4288085770
13.795228 -1.3406608 -1.8839867 4288085770
5.544682 -0.53738523 -1.8390168 4288085770
19.889694 -1.972447 -1.7694473 4293729569
6.3837461 -0.62880516 -1.8332188 4288085770
16.845463 -1.6865458 -1.9037219 4288085770
13.185226 -1.3380867 -1.8788494 4288085770
10.780062 -1.0947565 -1.859274 4288085770
14.829351 -1.5199469 -1.8832449 4288085770
5.4356899 -0.55146497 -1.8389956 4288085770
18.338646 -1.8965271 -1.7380874 4293729569
6.2467556 -0.64390433 -1.8321915 4288085770
12.635223 -1.335471 -1.8767258 4288085770
16.271496 -1.7329479 -1.8935992 4288085770
10.50408 -1.1239517 -1.8622169 4288085770
17.327621 -1.8652296 -1.7438554 4293729569
5.3336997 -0.56654024 -1.8379762 4288085770
14.298366 -1.5433183 -1.884129 4288085770
6.123765 -0.65999377 -1.8331673 4288085770
19.704828 -2.1685801 -1.7624322 4293729569
12.11922 -1.330832 -1.8736095 4288085770
16.482603 -1.8408166 -1.7566619 4293729569
5.2357082 -0.58161271 -1.8379577 4288085770
15.665522 -1.7683735 -1.8734682 4288085770
10.223098 -1.1521505 -1.8621587 4288085770
13.80338 -1.5656649 -1.8830212 4288085770
6.0067739 -0.67507899 -1.8331444 4288085770
11.600215 -1.3221956 -1.8664923 4288085770
15.750583 -1.8223252 -1.7724949 4293729569
11.141208 -1.3145171 -1.8633884 4288085770
5.8917837 -0.6911633 -1.8331223 4288085770
9.9461145 -1.1763474 -1.8581009 4288085770
13.361395 -1.5909752 -1.8839259 4288085770
14.93854 -1.7838852 -1.8333073 4288085770
15.085565 -1.8057872 -1.7903434 4293729569
16.754768 -2.0476441 -1.6347523 4293729569
10.741203 -1.3087974 -1.8652985 4288085770
5.7877932 -0.70723975 -1.8351024 4288085770
14.533552 -1.7961704 -1.8142182 4288085770
17.370916 -2.1602442 -1.3379064 4293729569
9.7081318 -1.2035168 -1.8580521 4288085770
12.93841 -1.6142721 -1.8838348 4288085770
14.234553 -1.7903812 -1.7901505 4293729569
10.366197 -1.3030603 -1.8672142 4288085770
14.108543 -1.7964647 -1.8481231 4288085770
16.459803 -2.109848 -1.6726947 4293729569
17.161934 -2.2063875 -1.3808658 4293729569
5.6758022 -0.72232246 -1.832081 4288085770
10.003192 -1.2953151 -1.8671323 4288085770
9.4611473 -1.228693 -1.8540013 4288085770
12.561425 -1.6405376 -1.8847545 4288085770
13.719535 -1.7967339 -1.8820362 4288085770
16.962967 -2.2305322 -1.3218246 4293729569
13.696574 -1.8137614 -1.7630335 4293729569
9.6621828 -1.2855546 -1.8670549 4288085770
5.5778117 -0.73839498 -1.8330626 4288085770
16.140833 -2.1660695 -1.708631 4293729569
13.222518 -1.7790797 -1.8979224 4282675967
16.876982 -2.2815862 -1.4058125 4293729569
16.986197 -2.3015895 -0.53984004 4293729569
16.970192 -2.3005989 -0.56083637 4293729569
16.965109 -2.3025701 -0.91783535 4293729569
16.993095 -2.3085432 -0.99884242 4293729569
9.2641649 -1.2578341 -1.8579625 4288085770
12.263445 -1.6727475 -1.8936929 4282675967
9.3391743 -1.2757818 -1.8659819 4288085770
16.948315 -2.3356545 -0.12683639 4293729569
12.624494 -1.7424977 -1.8937837 4282675967
16.883038 -2.3405902 -1.328822 4293729569
5.4878201 -0.754462 -1.8340462 4288085770
13.340601 -1.8540136 -1.7549599 4293729569
15.59584 -2.1854503 -1.7195117 4293729569
9.038168 -1.2669936 -1.8679138 4288085770
16.925142 -2.398587 -1.0658396 4293729569
16.886047 -2.3945792 -1.4518303 4293729569
12.108472 -1.7138585 -1.8946645 4282675967
16.91527 -2.4076431 -0.532839 4293729569
9.0641823 -1.2849776 -1.8579226 4288085770
11.897459 -1.6940063 -1.8886145 4288085770
16.912178 -2.4136076 -0.94583905 4293729569
16.937275 -2.4176264 -0.54984534 4293729569
8.7371597 -1.2542057 -1.8658454 4288085770
5.4058304 -0.77252352 -1.8380319 4288085770
16.920385 -2.4476748 -0.1578458 4293729569
11.584447 -1.6782254 -1.8895426 4288085770
16.900122 -2.4645813 -1.3418432 4293729569
12.955626 -1.8872865 -1.7398788 4293729569
15.195856 -2.2197294 -1.743427 4293729569
16.964193 -2.5015554 -1.1398628 4293729569
8.46315 -1.2433987 -1.8657831 4288085770
11.122425 -1.6465487 -1.8874351 4288085770
16.966122 -2.5205216 -1.5028659 4293729569
8.8741999 -1.3121145 -1.856885 4288085770
11.576474 -1.7182336 -1.8865469 4288085770
17.003366 -2.5385873 -0.50687701 4293729569
16.982258 -2.5405586 -0.98387241 4293729569
5.3188396 -0.78758883 -1.8370161 4288085770
17.006357 -2.5495803 -0.56187916 4293729569
8.1961403 -1.2305871 -1.8637223 4288085770
16.944458 -2.5666583 -0.18986781 4293729569
10.694403 -1.6168487 -1.8863356 4288085770
14.670858 -2.2270968 -1.749311 4293729569
12.629654 -1.9265183 -1.7298121 4293729569
7.9371314 -1.2167701 -1.8606633 4288085770
8.6922169 -1.3382457 -1.8568491 4288085770
10.285382 -1.5871357 -1.8842405 4288085770
11.263491 -1.7404557 -1.8814807 4288085770
5.2398496 -0.80464864 -1.8390025 4288085770
18.792353 -2.9212365 -1.7073303 4293729569
7.6981211 -1.203939 -1.8606086 4288085770
14.092853 -2.2205024 -1.7471812 4293729569
9.8773594 -1.5534223 -1.8771449 4288085770
12.358684 -1.9697117 -1.7247584 4293729569
7.4661112 -1.1901029 -1.8585554 4288085770
9.5033388 -1.5226849 -1.8730576 4288085770
8.5272341 -1.3663656 -1.8568175 4288085770
10.981505 -1.7646564 -1.8794221 4288085770
18.208376 -2.9546463 -1.6992041 4293729569
7.2371001 -1.174265 -1.8545028 4288085770
13.507844 -2.2059133 -1.7400486 4293729569
9.1793203 -1.4959126 -1.8719819 4288085770
7.0530915 -1.1643951 -1.8584609 4288085770
8.8783016 -1.4711242 -1.8729118 4288085770
12.056709 -2.0039275 -1.7116965 4293729569
8.3672514 -1.3934817 -1.856787 4288085770
10.592511 -1.7679336 -1.8553364 4288085770
6.8550806 -1.1495351 -1.8584152 4288085770
8.5592804 -1.4403487 -1.8658367 4288085770
17.878422 -3.0238783 -1.71014 4293729569
12.964832 -2.1892951 -1.7329255 4293729569
6.6570702 -1.1346756 -1.8543698 4288085770
8.2702627 -1.4135523 -1.8627691 4288085770
11.647722 -2.0162194 -1.6816077 4293729569
10.256521 -1.7771736 -1.8372638 4288085770
8.2202682 -1.421589 -1.8577595 4288085770
8.0102453 -1.3887353 -1.8617079 4288085770
6.4800596 -1.1208011 -1.8543289 4288085770
12.376815 -2.1597097 -1.7167908 4293729569
19.566696 -3.4387019 -1.7535745 4293729569
17.507458 -3.082139 -1.714065 4293729569
7.7522264 -1.361917 -1.8586471 4288085770
6.2930484 -1.1039338 -1.8492855 4288085770
7.5252094 -1.3390771 -1.8585938 4288085770
6.1480393 -1.0930364 -1.8532522 4288085770
9.9115257 -1.7804207 -1.8131882 4288085770
8.0762863 -1.4486946 -1.8567325 4288085770
11.186729 -2.0145488 -1.6415056 4293729569
18.347618 -3.3225543 -1.735286 4293729569
7.298193 -1.3152372 -1.8565406 4288085770
5.9940286 -1.0791457 -1.8542167 4288085770
17.115494 -3.1334155 -1.7119848 4293729569
7.0971766 -1.2933789 -1.857493 4288085770
5.8330178 -1.0632604 -1.8501791 4288085770
6.8941607 -1.270522 -1.8554453 4288085770
10.951743 -2.0317166 -1.6344565 4293729569
5.6800079 -1.0473692 -1.8461432 4288085770
17.308556 -3.2282813 -1.724041 4293729569
9.6085339 -1.7876383 -1.7941229 4288085770
7.9393024 -1.4757953 -1.8567071 4288085770
6.7001438 -1.246659 -1.853399 4288085770
10.872746 -2.0337741 -1.6194392 4293729569
5.553997 -1.0344583 -1.8491141 4288085770
6.5241289 -1.2257832 -1.8533572 4288085770
16.842535 -3.2006078 -1.7189332 4293729569
5.4279876 -1.0215478 -1.8500847 4288085770
6.3451138 -1.2029098 -1.8503146 4288085770
10.56273 -2.0159917 -1.6323683 4293729569
16.484505 -3.1618574 -1.726848 4293729569
5.3049779 -1.0086352 -1.851056 4288085770
6.180099 -1.1820261 -1.8492754 4288085770
9.3225431 -1.794844 -1.7750614 4293729569
7.80232 -1.5018963 -1.8536818 4288085770
5.1769662 -0.99272609 -1.8480258 4288085770
6.0250835 -1.1611357 -1.8482383 4288085770
10.543757 -2.0450108 -1.5923686 4293729569
5.8770695 -1.1412402 -1.8482031 4288085770
10.332732 -2.0281539 -1.6523197 4293729569
15.523438 -3.0585318 -1.7066195 4293729569
16.564579 -3.2658052 -1.7228804 4293729569
5.7390556 -1.1223376 -1.8481702 4288085770
5.5970416 -1.1014379 -1.846136 4288085770
5.4660273 -1.0815305 -1.8451042 4288085770
9.0615501 -1.8040324 -1.7580059 4293729569
7.6963382 -1.5329752 -1.857664 4288085770
5.3460145 -1.063615 -1.8460754 4288085770
10.424792 -2.0970984 -1.5943505 4293729569
5.2280011 -1.0456982 -1.8470471 4288085770
10.113734 -2.0393083 -1.6732733 4293729569
14.752385 -2.9840727 -1.7014378 4293729569
16.27062 -3.3260133 -1.7228234 4293729569
8.862565 -1.824177 -1.7509656 4293729569
7.5863566 -1.5620571 -1.8596451 4288085770
14.134347 -2.930506 -1.706293 4293729569
9.881732 -2.0444727 -1.6902233 4293729569
10.312827 -2.1501813 -1.5973343 4293729569
10.612053 -2.2300408 -0.86741251 4293729569
10.547984 -2.2260606 -1.1473975 4293729569
10.596056 -2.2380521 -0.87241024 4293729569
10.501941 -2.2270765 -1.3323876 4293729569
9.6907339 -2.0556073 -1.7121832 4293729569
8.7235823 -1.8522788 -1.7519399 4293729569
7.4923768 -1.5941279 -1.8626302 4288085770
10.577196 -2.2711146 -0.36441135 4293729569
10.228863 -2.2062445 -1.6023246 4293729569
10.574274 -2.2921429 -0.091414012 4293729569
10.442956 -2.2671165 -1.382381 4293729569
9.4277239 -2.0477941 -1.7211246 4293729569
10.468086 -2.2761476 -0.85238808 4293729569
10.46608 -2.2811456 -0.89438844 4293729569
10.443018 -2.2791381 -1.1523829 4293729569
10.521209 -2.3011534 -0.39940372 4293729569
8.5645981 -1.8763951 -1.7489094 4293729569
7.3983941 -1.6231986 -1.864615 4288085770
10.497239 -2.3311765 -0.35640308 4293729569
10.397972 -2.3091464 -1.4343776 4293729569
9.1947184 -2.0439596 -1.7320734 4293729569
10.139898 -2.2613118 -1.6053138 4293729569
10.51932 -2.3501887 -0.061410952 4293729569
10.429115 -2.3431735 -0.92538989 4293729569
