# .PCD v0.7 - Point Cloud Data file format
VERSION 0.7
FIELDS x y z rgb
SIZE 4 4 4 4
TYPE F F F U
COUNT 1 1 1 1
WIDTH 1120
HEIGHT 1
VIEWPOINT 0 0 0 1 0 0 0
POINTS 1120
DATA ascii
5.4639282 -5.8189516 -1.7130412 4293729569
5.2651367 -5.6274695 -1.7129838 4293729569
5.1018372 -5.4577565 -1.7160681 4293729569
9.9981384 -8.0199938 -1.6832657 4293729569
4.937561 -5.2890391 -1.7171357 4293729569
9.7699585 -7.7827005 -1.6990039 4293729569
4.7821655 -5.1265397 -1.7164969 4293729569
9.4639587 -7.5037718 -1.7022945 4293729569
4.6690979 -4.9889307 -1.7222106 4293729569
9.2219543 -7.2652464 -1.7096565 4293729569
4.5354004 -4.8419218 -1.72129 4293729569
9.0333252 -7.0558958 -1.7197003 4293729569
4.4243774 -4.7074051 -1.722086 4293729569
8.829895 -6.8402433 -1.7262944 4293729569
4.2946167 -4.5655012 -1.7193171 4293729569
8.6185913 -6.6254511 -1.7286872 4293729569
4.2446899 -4.4652872 -1.7280499 4293729569
8.4151611 -6.4158449 -1.7303374 4293729569
4.1603394 -4.3483706 -1.7287147 4293729569
8.2314453 -6.2196956 -1.7306353 4293729569
4.0778809 -4.234499 -1.7294595 4293729569
8.0438232 -6.0244856 -1.7278372 4293729569
4.0378723 -4.1405306 -1.7355127 4293729569
7.8927307 -5.8490667 -1.7281895 4293729569
3.9969177 -4.0465508 -1.7405399 4293729569
7.7781067 -5.692441 -1.7316828 4293729569
3.9579163 -3.9556341 -1.7436481 4293729569
7.6635437 -5.5388422 -1.7322047 4293729569
4.0273438 -3.9139585 -1.7680855 4293729569
7.5420532 -5.3831086 -1.7305239 4293729569
4.1875305 -3.912199 -1.8062974 4293729569
7.4986572 -5.263051 -1.7372394 4293729569
4.3971558 -3.92945 -1.8549923 4293729569
7.4354248 -5.1355829 -1.7403631 4293729569
4.6038513 -3.941658 -1.9015641 4288085770
7.3782043 -5.0112553 -1.7426739 4293729569
4.7455444 -3.9245205 -1.9351403 4288085770
7.3269348 -4.891078 -1.74318 4293729569
4.6871338 -3.8192513 -1.9285976 4288085770
7.250885 -4.7623811 -1.7399533 4293729569
4.633667 -3.7171001 -1.9212149 4288085770
7.2342834 -4.6569614 -1.7425127 4293729569
4.6393738 -3.6411819 -1.924643 4288085770
7.212677 -4.5514526 -1.7429404 4293729569
4.6095581 -3.550539 -1.9199945 4288085770
7.1772766 -4.4396544 -1.7409446 4293729569
4.6232605 -3.4768047 -1.9226532 4288085770
7.1142578 -4.3182983 -1.7321283 4293729569
4.6270752 -3.3998799 -1.9220212 4288085770
7.178772 -4.2456417 -1.7411379 4293729569
4.6467285 -3.3292859 -1.9238665 4288085770
7.2304993 -4.1687269 -1.7467685 4293729569
4.6801758 -3.2639923 -1.9271275 4288085770
7.2901611 -4.0939989 -1.7516296 4293729569
4.7285461 -3.203018 -1.9318217 4288085770
7.4260254 -4.044898 -1.7657443 4293729569
4.7462769 -3.1314087 -1.9306067 4288085770
7.5749207 -3.997072 -1.7812126 4293729569
4.7858582 -3.0652742 -1.9310198 4288085770
7.858429 -3.9921217 -1.8126397 4293729569
4.8343811 -3.0023286 -1.9326978 4288085770
8.2005005 -4.0034208 -1.8507636 4293729569
4.8571167 -2.9328587 -1.928635 4288085770
8.5982666 -4.0249262 -1.893452 4288085770
4.9452515 -2.8817542 -1.9354708 4288085770
8.9911194 -4.0413322 -1.9349639 4288085770
4.994812 -2.8188684 -1.9331775 4288085770
9.2980347 -4.0249319 -1.9628969 4288085770
5.0829773 -2.7677839 -1.9380144 4288085770
9.4762573 -3.9708228 -1.9710765 4288085770
5.1524353 -2.7093191 -1.9382865 4288085770
9.6298218 -3.9042044 -1.9744881 4288085770
5.2367554 -2.6541846 -1.9389839 4288085770
9.7676086 -3.8332727 -1.9734414 4288085770
5.3518066 -2.6076841 -1.9455726 4288085770
9.9450989 -3.7711928 -1.9765263 4288085770
5.4342957 -2.5505252 -1.9441999 4288085770
10.081116 -3.6942477 -1.9723749 4288085770
5.5662842 -2.5054092 -1.9502494 4288085770
10.275635 -3.6325612 -1.973912 4288085770
5.6597595 -2.4485021 -1.9481695 4288085770
10.505096 -3.5756447 -1.9764132 4288085770
5.776123 -2.3960822 -1.9487345 4288085770
10.75647 -3.5222039 -1.9805248 4288085770
5.8924866 -2.3426809 -1.9472917 4288085770
11.02771 -3.4712055 -1.9851849 4288085770
6.0168457 -2.2904472 -1.9470698 4288085770
11.280273 -3.4128265 -1.9852808 4288085770
6.1383057 -2.2371757 -1.9437609 4288085770
11.630249 -3.3725483 -1.9941164 4288085770
6.2895813 -2.1875372 -1.9442734 4288085770
11.981354 -3.3283207 -1.9999447 4288085770
6.4269714 -2.1356096 -1.9423978 4288085770
12.338654 -3.280247 -2.0038979 4288085770
6.5754395 -2.0819423 -1.9387972 4288085770
12.708984 -3.2324777 -2.006197 4288085770
6.7567444 -2.0339754 -1.9391155 4288085770
13.100372 -3.1831927 -2.0070364 4288085770
6.9459534 -1.9871833 -1.9396553 4288085770
13.515778 -3.1344359 -2.0085135 4288085770
7.1442871 -1.9386005 -1.9394166 4288085770
13.965179 -3.086448 -2.0088935 4288085770
7.365509 -1.8925142 -1.9408059 4288085770
14.467529 -3.0426192 -2.0117061 4288085770
7.6117249 -1.8459802 -1.94285 4288085770
15.016876 -2.9978473 -2.0137498 4288085770
7.8729248 -1.8007772 -1.9453009 4288085770
8.1730042 -1.7584159 -1.9508041 4288085770
8.4464111 -1.7095168 -1.9495401 4288085770
8.765625 -1.6636031 -1.9525136 4288085770
9.1356506 -1.6227854 -1.9598749 4288085770
9.4671326 -1.5711852 -1.9581163 4288085770
9.9390564 -1.53259 -1.9711835 4288085770
10.377258 -1.4873027 -1.9772983 4288085770
10.909271 -1.4460489 -1.989924 4288085770
11.491333 -1.4029104 -2.0028505 4288085770
12.046783 -1.3512443 -2.007993 4288085770
12.63031 -1.298216 -2.011862 4288085770
13.258026 -1.2401875 -2.0138474 4288085770
13.885986 -1.1761984 -2.0117812 4288085770
14.646759 -1.1151255 -2.0152445 4288085770
14.186218 0.55389762 -1.9770331 4288085770
13.18988 0.6360302 -1.9650364 4288085770
12.312408 0.7115283 -1.9552318 4288085770
11.448944 0.77965617 -1.9388614 4288085770
10.621521 0.83991885 -1.915509 4288085770
9.9447937 0.89993048 -1.9051346 4288085770
9.3310852 0.95554376 -1.8954577 4288085770
8.7911987 1.0095336 -1.8887441 4288085770
8.2913513 1.0596235 -1.8811182 4288085770
7.8483582 1.108474 -1.877004 4288085770
14.965546 1.5904801 -1.9430808 4288085770
7.4144592 1.1530807 -1.8681649 4288085770
14.081421 1.6421444 -1.9363227 4288085770
7.0294189 1.1976345 -1.8636162 4288085770
13.257355 1.691468 -1.9291661 4288085770
6.6973877 1.2430365 -1.8624563 4288085770
12.540222 1.7394311 -1.92484 4288085770
6.3623657 1.2854769 -1.8582435 4288085770
11.753143 1.775831 -1.9067723 4288085770
6.06427 1.3271115 -1.8560122 4288085770
11.05603 1.8112447 -1.891084 4288085770
5.7871399 1.3682916 -1.8553379 4288085770
10.443909 1.8488009 -1.8796164 4288085770
5.5669861 1.4132483 -1.8601317 4288085770
9.9087524 1.887676 -1.8721653 4288085770
5.3707581 1.4576933 -1.8675618 4288085770
9.3666077 1.9196522 -1.858591 4288085770
5.1026917 1.4936125 -1.8601718 4288085770
8.9324341 1.958298 -1.8538028 4288085770
4.8795471 1.5305645 -1.8569577 4288085770
8.5482483 1.9988577 -1.8523154 4288085770
4.6654663 1.5673192 -1.8539822 4288085770
8.1781311 2.037082 -1.8482175 4288085770
4.4692993 1.6036856 -1.8524845 4288085770
7.8219604 2.0729806 -1.842509 4288085770
4.2741699 1.6390011 -1.8480229 4288085770
7.5247803 2.1136191 -1.8433131 4288085770
4.0550842 1.6677969 -1.8369863 4288085770
7.2336121 2.1520998 -1.8412948 4288085770
3.9189148 1.7078741 -1.8410366 4288085770
6.9904785 2.1955464 -1.8434978 4288085770
3.7487793 1.7416303 -1.8362474 4288085770
6.747345 2.2349684 -1.842736 4288085770
3.6145935 1.7786362 -1.8373775 4288085770
6.5151978 2.2741444 -1.8422663 4288085770
3.4624939 1.8119957 -1.8330663 4288085770
6.2750854 2.3094642 -1.8376199 4288085770
3.346283 1.8486054 -1.8346741 4288085770
6.0829773 2.3517673 -1.8391773 4288085770
3.2321472 1.8871601 -1.8353188 4288085770
5.8878784 2.3911116 -1.8376818 4288085770
3.1080322 1.9209111 -1.8327416 4288085770
5.6887817 2.4275162 -1.833107 4288085770
2.9938965 1.9564388 -1.8304129 4288085770
5.5227051 2.469228 -1.8333553 4288085770
2.9007874 1.9945323 -1.8316149 4288085770
5.3656311 2.510731 -1.8328428 4288085770
2.7996216 2.029784 -1.8306309 4288085770
5.2135925 2.5501158 -1.8314804 4288085770
2.7145386 2.0686915 -1.8310372 4288085770
5.0555725 2.5876062 -1.8269771 4288085770
2.6244202 2.1046894 -1.829337 4288085770
4.9325256 2.6323683 -1.8283328 4288085770
2.5483093 2.1433985 -1.8299824 4288085770
4.7895203 2.6705186 -1.8232198 4288085770
2.4532471 2.1764805 -1.8251765 4288085770
4.6805115 2.7139609 -1.8239558 4288085770
2.4031677 2.2206404 -1.8294597 4288085770
4.5525513 2.7537806 -1.819224 4288085770
2.3301086 2.2582653 -1.8281941 4288085770
4.4545898 2.7989733 -1.8192356 4288085770
2.2620544 2.2957785 -1.8270614 4288085770
4.3637085 2.845 -1.8184249 4288085770
2.2000122 2.3341491 -1.8250798 4288085770
4.2788086 2.8908951 -1.8177736 4288085770
2.1470032 2.3743408 -1.8253193 4288085770
4.197937 2.9377034 -1.81722 4288085770
2.0870056 2.4136674 -1.8233824 4288085770
4.1801758 3.0021961 -1.8271734 4288085770
2.0390015 2.4537375 -1.8227551 4288085770
4.0792847 3.042392 -1.8201511 4288085770
1.9930115 2.4957554 -1.8211645 4288085770
3.9794006 3.0795562 -1.8121812 4288085770
1.9500427 2.5367157 -1.8206615 4288085770
3.9126282 3.1280262 -1.8089839 4288085770
1.9100952 2.5796015 -1.819222 4288085770
3.8568726 3.1792619 -1.8070526 4288085770
1.8882141 2.6271122 -1.8212163 4288085770
3.7961121 3.2275999 -1.8040147 4288085770
1.8493042 2.6689675 -1.8188121 4288085770
3.7443848 3.2777278 -1.800199 4288085770
1.8143921 2.7117331 -1.8165058 4288085770
3.7187805 3.3383276 -1.8019781 4288085770
1.7835083 2.7564094 -1.8142887 4288085770
3.6651001 3.3874834 -1.796119 4288085770
1.7576904 2.8029768 -1.8121874 4288085770
3.6394958 3.4460557 -1.7949164 4288085770
1.7378845 2.8494098 -1.8102455 4288085770
3.632019 3.5102451 -1.7961402 4288085770
1.7200623 2.8978074 -1.8093395 4288085770
3.6195374 3.573539 -1.7962401 4288085770
1.7032776 2.9451644 -1.8064693 4288085770
3.6291199 3.6443608 -1.7988554 4288085770
1.6885376 2.9934776 -1.8036437 4288085770
3.6417847 3.7171161 -1.8015335 4288085770
1.704895 3.0551689 -1.8085196 4288085770
3.6795654 3.8003457 -1.8077809 4288085770
1.6801453 3.098666 -1.8014731 4288085770
3.727478 3.8873527 -1.8142598 4288085770
1.6824951 3.1546113 -1.8000308 4288085770
3.7683716 3.9735038 -1.8195621 4288085770
1.6848755 3.2095559 -1.7985975 4288085770
3.8093262 4.0596476 -1.8238652 4288085770
1.6672363 3.2568934 -1.7907033 4288085770
3.8562927 4.1486483 -1.8273025 4288085770
1.6896973 3.320421 -1.7927234 4288085770
3.9144287 4.2434044 -1.8309811 4288085770
1.7052002 3.3810785 -1.7915844 4288085770
3.9665527 4.3362846 -1.833518 4288085770
1.7247925 3.4446366 -1.7895267 4288085770
4.0107117 4.4273138 -1.8328613 4288085770
1.7554016 3.5129793 -1.7907174 4288085770
4.0599365 4.5202265 -1.8313208 4288085770
1.7820129 3.5793827 -1.7888205 4288085770
4.1163025 4.616971 -1.8289326 4288085770
1.8478699 3.6660006 -1.7967771 4288085770
4.1636047 4.7099094 -1.8253403 4288085770
1.9087219 3.7487018 -1.8016367 4288085770
4.2259827 4.8085108 -1.8220953 4288085770
1.9475708 3.822829 -1.7989912 4288085770
4.3226929 4.926405 -1.8245817 4288085770
2.0326233 3.9190352 -1.8083677 4288085770
4.4416504 5.0558214 -1.8285503 4288085770
2.1348572 4.0258713 -1.8191023 4288085770
4.5445557 5.179553 -1.8281471 4288085770
2.1929016 4.1095867 -1.8178768 4288085770
4.6535339 5.3051414 -1.8268867 4288085770
2.27005 4.2039051 -1.8200614 4288085770
4.8169861 5.4605942 -1.8337947 4288085770
2.3603821 4.3069544 -1.8245146 4288085770
4.9876099 5.6218824 -1.8398386 4288085770
2.4457092 4.4060869 -1.8258702 4288085770
5.1472473 5.7783556 -1.8416327 4288085770
2.5281372 4.5052328 -1.8241448 4288085770
5.3321228 5.9493122 -1.8459632 4288085770
2.6326599 4.61695 -1.8268933 4288085770
5.5241699 6.1260958 -1.8484299 4288085770
2.7060547 4.7102776 -1.8199835 4288085770
5.7233887 6.3087158 -1.8500323 4288085770
2.8087158 4.8220043 -1.818681 4288085770
5.9429321 6.5038815 -1.8510563 4288085770
2.9225464 4.9394865 -1.8176198 4288085770
6.1998596 6.722249 -1.855859 4288085770
3.0626221 5.0724201 -1.8201127 4288085770
6.4609985 6.9445047 -1.8577355 4288085770
3.1845703 5.1957054 -1.8172143 4288085770
6.771698 7.1966953 -1.8636495 4288085770
3.3641357 5.3547964 -1.8235135 4288085770
7.0997009 7.4624958 -1.8688976 4288085770
3.5477295 5.5147877 -1.8289109 4288085770
7.4713135 7.755352 -1.8760505 4288085770
3.7435913 5.684515 -1.8345428 4288085770
3.9788513 5.8783989 -1.8439977 4288085770
4.2041321 6.0664597 -1.8482403 4288085770
4.4406128 6.2622776 -1.8527074 4288085770
4.6842651 6.4629126 -1.8543198 4288085770
4.9542542 6.6809664 -1.8564707 4288085770
5.2495728 6.9154844 -1.8611412 4288085770
5.5783691 7.1702681 -1.8665106 4288085770
5.9477539 7.4521704 -1.8737054 4288085770
6.3344116 7.746685 -1.8802426 4288085770
14.378204 -0.71659732 -1.9895197 4288085770
13.407898 -0.74694991 -1.9952936 4288085770
12.358398 -0.76369226 -1.9818602 4288085770
11.447784 -0.7794739 -1.9750705 4288085770
10.525757 -0.78510976 -1.9548869 4288085770
9.7256165 -0.79040074 -1.941905 4288085770
9.0214233 -0.79579091 -1.9334459 4288085770
8.3721924 -0.80038619 -1.9274254 4288085770
7.7929382 -0.80551684 -1.9242481 4288085770
14.083252 -1.3640931 -2.0073667 4288085770
7.1931152 -0.80226433 -1.9114537 4288085770
13.00827 -1.3391609 -2.0059066 4288085770
6.7208557 -0.80575562 -1.9110748 4288085770
11.973694 -1.3091817 -1.9974594 4288085770
6.2597961 -0.80550742 -1.9089549 4288085770
10.955475 -1.2716465 -1.9793749 4288085770
5.8535767 -0.80745435 -1.9102978 4288085770
10.009491 -1.2327523 -1.957173 4288085770
5.4763794 -0.80803239 -1.9133909 4288085770
9.2230225 -1.2033043 -1.9482492 4288085770
5.1212463 -0.80711436 -1.9150507 4288085770
8.536438 -1.178062 -1.9419873 4288085770
4.7752075 -0.80441248 -1.9149333 4288085770
7.8790588 -1.1495036 -1.931462 4288085770
4.4541931 -0.8012538 -1.9164686 4288085770
7.2915344 -1.1254615 -1.925812 4288085770
4.1352844 -0.79617333 -1.9140422 4288085770
6.7529907 -1.101518 -1.919451 4288085770
3.84729 -0.79175234 -1.915435 4288085770
6.2733459 -1.0798485 -1.9176577 4288085770
3.5395813 -0.78295159 -1.909269 4288085770
5.8594666 -1.0635989 -1.9216415 4288085770
3.2489624 -0.7725451 -1.9015372 4288085770
5.4458313 -1.043403 -1.9195952 4288085770
2.9961243 -0.76492167 -1.9008245 4288085770
5.0820312 -1.0262827 -1.9218867 4288085770
2.7255249 -0.75297451 -1.8916066 4288085770
4.7184143 -1.007188 -1.9211632 4288085770
2.4957275 -0.74486804 -1.8904948 4288085770
4.3836975 -0.98873436 -1.9212071 4288085770
2.2858887 -0.73719335 -1.8909118 4288085770
4.0601501 -0.96854889 -1.9185269 4288085770
2.0543213 -0.72510481 -1.8827176 4288085770
3.766449 -0.95099878 -1.9196553 4288085770
1.8446655 -0.71346736 -1.8791039 4288085770
3.4481201 -0.92797697 -1.9110858 4288085770
1.6470032 -0.70310259 -1.8748163 4288085770
3.1716003 -0.90785527 -1.9066424 4288085770
1.486145 -0.6954999 -1.8775209 4288085770
2.907135 -0.88799834 -1.9025164 4288085770
1.2975769 -0.68235159 -1.8714478 4288085770
2.6487122 -0.86629045 -1.8965337 4288085770
1.1347961 -0.67273283 -1.8710849 4288085770
2.3933716 -0.84466767 -1.8886313 4288085770
0.97219849 -0.66113973 -1.867707 4288085770
2.1896667 -0.82911944 -1.8901421 4288085770
0.81747437 -0.65070558 -1.8665481 4288085770
1.9603271 -0.8070693 -1.8829195 4288085770
0.68960571 -0.64183164 -1.8701098 4288085770
1.7538452 -0.78850842 -1.878329 4288085770
0.52719116 -0.62728429 -1.8617098 4288085770
1.5682373 -0.7713846 -1.8773011 4288085770
0.42510986 -0.62093925 -1.8709736 4288085770
1.3867493 -0.75336576 -1.8743715 4288085770
0.29440308 -0.61003494 -1.8704417 4288085770
1.1983337 -0.73321962 -1.8682421 4288085770
0.18255615 -0.60052323 -1.8734193 4288085770
1.0358276 -0.71562076 -1.8658153 4288085770
0.90200806 -0.70159793 -1.871177 4288085770
0.75344849 -0.68530679 -1.8691289 4288085770
0.60494995 -0.66702628 -1.8660649 4288085770
0.46148682 -0.64986229 -1.8621418 4288085770
0.33981323 -0.63413978 -1.8638071 4288085770
0.23498535 -0.62175632 -1.8699443 4288085770
0.1272583 -0.60733366 -1.8729873 4288085770
0.19671631 1.2694485 -1.8140144 4288085770
0.31021118 1.2809031 -1.8118833 4288085770
0.42364502 1.2903516 -1.8087684 4288085770
0.55810547 1.3033698 -1.8101735 4288085770
0.7164917 1.3188922 -1.8161856 4288085770
0.8609314 1.330682 -1.8168623 4288085770
1.0293274 1.3459752 -1.8221383 4288085770
1.1658325 1.3538997 -1.8176374 4288085770
0.25762939 1.2300718 -1.8179207 4288085770
1.3402405 1.3680542 -1.8220794 4288085770
0.37796021 1.2353842 -1.8170205 4288085770
1.5077209 1.3783195 -1.8213702 4288085770
0.50030518 1.2396438 -1.8151813 4288085770
1.6901855 1.3902729 -1.8230395 4288085770
0.64456177 1.2474601 -1.8188882 4288085770
1.8696289 1.3992665 -1.8216544 4288085770
0.790802 1.2532256 -1.8216639 4288085770
2.0839844 1.4125373 -1.8271496 4288085770
0.92712402 1.2571757 -1.8201931 4288085770
2.307373 1.4266107 -1.8328739 4288085770
1.0913696 1.263552 -1.8244344 4288085770
2.5228271 1.4358208 -1.8334286 4288085770
1.2516174 1.2679985 -1.8265866 4288085770
2.7782288 1.4501984 -1.8409871 4288085770
1.4188843 1.2712843 -1.8279314 4288085770
3.0216064 1.4597967 -1.8432708 4288085770
1.5861206 1.2745607 -1.8282764 4288085770
3.2990417 1.4726737 -1.8494171 4288085770
1.7633362 1.2766254 -1.8298922 4288085770
3.6173706 1.4886868 -1.8616097 4288085770
1.9535522 1.2784145 -1.8328496 4288085770
3.8848267 1.4947169 -1.8595502 4288085770
2.1607666 1.2818353 -1.8372388 4288085770
4.16922 1.5003717 -1.8579383 4288085770
2.3699341 1.2821949 -1.8397048 4288085770
4.5036316 1.5099757 -1.8636017 4288085770
2.5920715 1.2832778 -1.8435047 4288085770
4.8320923 1.515662 -1.8631401 4288085770
2.8322144 1.2829726 -1.8487859 4288085770
5.167511 1.5191777 -1.8608793 4288085770
3.0873413 1.2833364 -1.854454 4288085770
5.4830322 1.5170753 -1.8511412 4288085770
3.3255005 1.2780268 -1.8537238 4288085770
5.8664246 1.5185344 -1.8501518 4288085770
3.5805969 1.2733567 -1.8554324 4288085770
6.3048096 1.5227964 -1.8525782 4288085770
3.8726501 1.2688992 -1.8611063 4288085770
6.7921753 1.5280049 -1.8592778 4288085770
4.1447449 1.2598326 -1.8602943 4288085770
7.2685852 1.5273983 -1.8587372 4288085770
4.4438171 1.251178 -1.8611853 4288085770
7.7958984 1.527684 -1.8615227 4288085770
4.7488403 1.2403939 -1.8622496 4288085770
8.3672791 1.5269926 -1.8644669 4288085770
5.0648499 1.226351 -1.8616273 4288085770
9.0305176 1.5273063 -1.873808 4288085770
5.402832 1.2108142 -1.8605926 4288085770
9.7337952 1.5247152 -1.8812187 4288085770
5.7767334 1.1955097 -1.8634964 4288085770
10.609985 1.5283759 -1.9011025 4288085770
6.1755981 1.1776552 -1.8670734 4288085770
11.517242 1.5273149 -1.9168353 4288085770
6.5675049 1.1549141 -1.8655072 4288085770
12.491364 1.5207517 -1.9313639 4288085770
7.0083008 1.1321278 -1.8692212 4288085770
13.595459 1.5143335 -1.9502906 4288085770
7.5059814 1.107094 -1.8754432 4288085770
14.736633 1.4970186 -1.9602726 4288085770
8.0366211 1.0803337 -1.8825413 4288085770
8.5652466 1.0465765 -1.8846428 4288085770
9.1907043 1.0117242 -1.8942881 4288085770
9.868042 0.97373652 -1.906317 4288085770
10.605316 0.92942047 -1.9189641 4288085770
11.502258 0.88364553 -1.9438045 4288085770
12.332336 0.82523251 -1.9529946 4288085770
13.312134 0.76055074 -1.9701548 4288085770
14.256989 0.68656731 -1.9774745 4288085770
5.9594116 -7.7950974 -1.6783905 4293729569
5.5435181 -7.5067492 -1.6821505 4293729569
5.1896362 -7.2597446 -1.6918706 4293729569
4.8565063 -7.0232067 -1.7012202 4293729569
4.552002 -6.8053122 -1.7104704 4293729569
4.1898499 -6.5412292 -1.705833 4293729569
3.8435364 -6.2855129 -1.699679 4293729569
3.5600891 -6.0741529 -1.7005332 4293729569
3.2729797 -5.8567557 -1.6952398 4293729569
3.0221558 -5.6651344 -1.6951084 4293729569
6.0579529 -7.7793484 -1.6756296 4293729569
2.7979431 -5.4900932 -1.6968085 4293729569
5.6860962 -7.4889526 -1.682528 4293729569
2.5434875 -5.2914515 -1.6885237 4293729569
5.3495789 -7.2233448 -1.6905565 4293729569
2.3802185 -5.1577168 -1.6981561 4293729569
5.0476379 -6.9804926 -1.7006724 4293729569
2.2033386 -5.0127258 -1.70134 4293729569
4.7536926 -6.7408485 -1.7070237 4293729569
2.0177917 -4.85958 -1.6992292 4293729569
4.4372864 -6.4857779 -1.7036614 4293729569
1.8567505 -4.7229557 -1.7008963 4293729569
4.1278992 -6.2348757 -1.6985154 4293729569
1.7252502 -4.6069698 -1.7055035 4293729569
3.8617859 -6.0139165 -1.6967458 4293729569
1.5898132 -4.4869051 -1.7089758 4293729569
3.6339722 -5.8197851 -1.699198 4293729569
1.4623108 -4.3720245 -1.7116973 4293729569
3.4151001 -5.630868 -1.6999263 4293729569
1.3427429 -4.2613263 -1.7136601 4293729569
3.1855164 -5.4357586 -1.6943231 4293729569
1.222229 -4.1496234 -1.7135905 4293729569
2.9903564 -5.2633815 -1.6938057 4293729569
1.1302185 -4.0565138 -1.7194177 4293729569
2.8119202 -5.1023836 -1.6928194 4293729569
0.99905396 -3.9366267 -1.7120019 4293729569
2.6316223 -4.9393673 -1.6887674 4293729569
0.92672729 -3.8559449 -1.7194459 4293729569
2.4944763 -4.8072624 -1.6920969 4293729569
0.90924072 -3.8123889 -1.7406297 4293729569
2.3671875 -4.6803765 -1.6957277 4293729569
0.96511841 -3.818315 -1.7831401 4293729569
2.2546997 -4.5638189 -1.6998287 4293729569
1.0397034 -3.8346255 -1.8302238 4293729569
2.14328 -4.447298 -1.7019572 4293729569
1.1260681 -3.8561807 -1.8796598 4288085770
2.0367737 -4.3338957 -1.7032411 4293729569
1.137146 -3.8262186 -1.9067018 4288085770
1.9498901 -4.2339048 -1.7081478 4293729569
1.0827026 -3.7519481 -1.9126658 4288085770
1.8749084 -4.1401772 -1.7134153 4293729569
1.0058594 -3.6612496 -1.9089085 4288085770
1.7832336 -4.037118 -1.7131705 4293729569
0.9319458 -3.5736079 -1.9062525 4288085770
1.6779175 -3.9247863 -1.708492 4293729569
0.86984253 -3.4932206 -1.9049647 4288085770
1.6490784 -3.8610368 -1.7212124 4293729569
0.82046509 -3.4200928 -1.9070705 4288085770
1.6791687 -3.832509 -1.7467616 4293729569
0.77703857 -3.351105 -1.9083648 4288085770
1.7681274 -3.8391867 -1.7871387 4293729569
0.72186279 -3.274888 -1.9052929 4288085770
1.8905334 -3.8615527 -1.8355193 4293729569
0.69219971 -3.2131805 -1.910007 4288085770
2.0061035 -3.8797827 -1.8816863 4288085770
0.6479187 -3.1432023 -1.90727 4288085770
2.0550537 -3.8546562 -1.9097562 4288085770
0.60949707 -3.0763493 -1.9057128 4288085770
2.0236206 -3.7839081 -1.9143485 4288085770
0.58969116 -3.0208621 -1.9107357 4288085770
1.9675903 -3.6976626 -1.9121735 4288085770
0.56307983 -2.9612608 -1.9105468 4288085770
1.9087219 -3.6113763 -1.9069214 4288085770
0.55517578 -2.9120357 -1.9159304 4288085770
1.8803406 -3.5407093 -1.9095942 4288085770
0.54138184 -2.858696 -1.9191275 4288085770
1.8460388 -3.4679372 -1.9090955 4288085770
0.50897217 -2.7960055 -1.913761 4288085770
1.8186646 -3.3983171 -1.9088042 4288085770
0.49328613 -2.7416446 -1.9138994 4288085770
1.7903137 -3.3286843 -1.9074867 4288085770
0.47171021 -2.6841791 -1.910859 4288085770
1.7786865 -3.2683892 -1.9106823 4288085770
0.45703125 -2.6308575 -1.9090325 4288085770
1.769104 -3.2081552 -1.9119313 4288085770
0.44628906 -2.5796154 -1.9083258 4288085770
1.760498 -3.1489427 -1.9132144 4288085770
0.44049072 -2.530484 -1.9077656 4288085770
1.7440186 -3.0855885 -1.910259 4288085770
0.45535278 -2.4917614 -1.91383 4288085770
1.7384033 -3.0284586 -1.9096372 4288085770
0.45059204 -2.4436674 -1.911305 4288085770
1.7407227 -2.9744961 -1.9102477 4288085770
0.47232056 -2.4071004 -1.9175683 4288085770
1.7852783 -2.940392 -1.9221265 4288085770
0.46466064 -2.3569565 -1.9129504 4288085770
1.8407288 -2.9105229 -1.935324 4288085770
0.45794678 -2.3078353 -1.9083664 4288085770
1.8215027 -2.8461425 -1.9272852 4288085770
0.44836426 -2.2576709 -1.9006975 4288085770
1.7884521 -2.7754879 -1.9148355 4288085770
0.46630859 -2.2190473 -1.9028429 4288085770
1.8125 -2.7310007 -1.9170917 4288085770
0.49310303 -2.1846139 -1.9062544 4288085770
1.8286743 -2.6833594 -1.9161167 4288085770
0.4992981 -2.1407769 -1.90205 4288085770
1.863678 -2.6421113 -1.9186845 4288085770
0.52319336 -2.1042938 -1.9033687 4288085770
1.8966675 -2.6008275 -1.9202002 4288085770
0.55395508 -2.0709472 -1.9068933 4288085770
1.9139404 -2.5522242 -1.9172453 4288085770
0.57199097 -2.0323648 -1.9040414 4288085770
1.9873962 -2.5267749 -1.927947 4288085770
0.59793091 -1.9969413 -1.9034212 4288085770
2.0097046 -2.4792991 -1.9231316 4288085770
0.62487793 -1.9605397 -1.9028199 4288085770
2.0526733 -2.4392433 -1.9239181 4288085770
0.64993286 -1.9231188 -1.8991597 4288085770
2.1026001 -2.4033401 -1.9249185 4288085770
0.69070435 -1.8920088 -1.9009628 4288085770
2.1525574 -2.3654377 -1.9259039 4288085770
0.7147522 -1.8545666 -1.8972768 4288085770
2.185791 -2.3212116 -1.9204005 4288085770
0.75558472 -1.823472 -1.8970808 4288085770
2.2358093 -2.2833333 -1.9183874 4288085770
0.79449463 -1.7903423 -1.8958176 4288085770
2.3006592 -2.2497597 -1.9197966 4288085770
0.84423828 -1.761438 -1.8968726 4288085770
2.3566895 -2.2130127 -1.9179485 4288085770
0.89892578 -1.7336351 -1.899066 4288085770
2.4324646 -2.1816809 -1.9196615 4288085770
0.94677734 -1.7027034 -1.8980544 4288085770
2.5014038 -2.1482205 -1.9181771 4288085770
0.98974609 -1.6696773 -1.8948971 4288085770
2.5930786 -2.1212244 -1.9223392 4288085770
1.0484924 -1.6419779 -1.8951964 4288085770
2.6710205 -2.0879612 -1.9210908 4288085770
1.1092224 -1.6143242 -1.8955481 4288085770
2.7578125 -2.0578876 -1.921101 4288085770
1.1818542 -1.5899166 -1.8982363 4288085770
2.850647 -2.0279458 -1.9212685 4288085770
1.2397156 -1.5602199 -1.8954957 4288085770
2.9424744 -1.9979904 -1.9204103 4288085770
1.3114014 -1.5348058 -1.8961511 4288085770
3.0521851 -1.9724134 -1.9220533 4288085770
1.3742981 -1.5052205 -1.8935415 4288085770
3.1629639 -1.9448674 -1.922708 4288085770
1.4598999 -1.4821062 -1.8955786 4288085770
3.284668 -1.9195628 -1.9236662 4288085770
1.5406494 -1.4559 -1.8954632 4288085770
3.4172974 -1.8954849 -1.9269197 4288085770
1.6441345 -1.4351572 -1.9009864 4288085770
3.5618896 -1.8736708 -1.9305029 4288085770
1.7111206 -1.4046924 -1.8944758 4288085770
3.6976318 -1.8486814 -1.9308285 4288085770
1.8058167 -1.3807926 -1.8947425 4288085770
3.8384094 -1.8228126 -1.9302781 4288085770
1.9094543 -1.357083 -1.8962448 4288085770
4.0218506 -1.8048465 -1.9359059 4288085770
2.0329285 -1.3377887 -1.9013003 4288085770
4.2044067 -1.7848669 -1.9404931 4288085770
2.1347046 -1.3120614 -1.8997364 4288085770
4.3592224 -1.7593218 -1.9383105 4288085770
2.2612915 -1.2918488 -1.902864 4288085770
4.5478821 -1.7375008 -1.9400408 4288085770
2.3859558 -1.269609 -1.9039247 4288085770
4.7187805 -1.7113225 -1.936271 4288085770
2.5136414 -1.2464441 -1.904057 4288085770
4.9155273 -1.6887025 -1.9352046 4288085770
2.6522217 -1.2255055 -1.906492 4288085770
5.1173096 -1.6651906 -1.9342618 4288085770
2.8057556 -1.2058959 -1.9093279 4288085770
5.3460083 -1.644274 -1.9340419 4288085770
2.9613953 -1.1833392 -1.9111941 4288085770
5.5896912 -1.6246858 -1.9342229 4288085770
3.1309814 -1.1640817 -1.9144495 4288085770
5.8275146 -1.6019814 -1.9322245 4288085770
3.3025818 -1.1438769 -1.9167498 4288085770
6.1051636 -1.5831513 -1.9322969 4288085770
3.4881897 -1.122981 -1.9194099 4288085770
6.3721008 -1.5601104 -1.9280522 4288085770
3.6798096 -1.1022246 -1.9212275 4288085770
6.692688 -1.5432177 -1.930259 4288085770
3.8983154 -1.0840377 -1.9267669 4288085770
7.0452881 -1.5280371 -1.9323123 4288085770
4.1060486 -1.0616494 -1.9269896 4288085770
7.4238586 -1.5144193 -1.9360542 4288085770
4.3227539 -1.0404692 -1.9264563 4288085770
7.8273926 -1.5003625 -1.9394442 4288085770
4.5614319 -1.0197545 -1.9284987 4288085770
8.2798767 -1.4893811 -1.9441336 4288085770
4.8031921 -0.99713159 -1.9276059 4288085770
8.7683411 -1.4791862 -1.9507661 4288085770
5.045105 -0.9735322 -1.9237065 4288085770
9.2998657 -1.4689524 -1.9565188 4288085770
5.3228149 -0.95169485 -1.9247569 4288085770
9.8813477 -1.4598278 -1.9625826 4288085770
5.6046753 -0.92797625 -1.9218986 4288085770
10.580475 -1.4602507 -1.9777892 4288085770
5.9234619 -0.9060564 -1.9220169 4288085770
11.369568 -1.4616628 -1.9943476 4288085770
6.233429 -0.87998092 -1.9168712 4288085770
12.165955 -1.4582869 -2.0040545 4288085770
6.5922852 -0.85795617 -1.9160309 4288085770
13.036407 -1.4555557 -2.0136936 4288085770
7.0000305 -0.83698785 -1.9194739 4288085770
13.899261 -1.4447314 -2.0130668 4288085770
7.4477234 -0.81690848 -1.9229658 4288085770
14.945862 -1.4419322 -2.0202911 4288085770
7.9305115 -0.79560649 -1.9263601 4288085770
8.4732056 -0.77560985 -1.9333262 4288085770
9.0699158 -0.75481057 -1.940693 4288085770
9.6878967 -0.73152876 -1.942585 4288085770
10.465424 -0.713691 -1.9576914 4288085770
11.32605 -0.69469571 -1.9729515 4288085770
12.213928 -0.67234349 -1.9828918 4288085770
13.280701 -0.6509254 -1.9985011 4288085770
14.284149 -0.61922073 -1.9973714 4288085770
14.565308 1.2846968 -1.9599674 4288085770
14.044434 1.386255 -1.9566507 4288085770
13.42157 1.4729683 -1.9387875 4288085770
13.007507 1.5681803 -1.9392998 4288085770
12.534515 1.6546261 -1.929341 4288085770
12.143372 1.7412951 -1.9255134 4288085770
11.693298 1.818198 -1.9112216 4288085770
11.262115 1.8916833 -1.8974483 4288085770
10.924957 1.9701297 -1.8900855 4288085770
10.64679 2.0502999 -1.8872452 4288085770
10.349518 2.1248586 -1.8799512 4288085770
10.108276 2.2022097 -1.8770941 4288085770
9.8299866 2.2713292 -1.8673338 4288085770
9.6166992 2.3460557 -1.8642244 4288085770
9.3894348 2.4180672 -1.8577709 4288085770
9.2101746 2.4930389 -1.8545455 4288085770
9.0579529 2.5714285 -1.8539984 4288085770
8.8596802 2.6397817 -1.8453267 4288085770
8.7575378 2.723078 -1.847047 4288085770
8.6493225 2.8035009 -1.8476319 4288085770
8.4890747 2.8720086 -1.8389488 4288085770
8.3418274 2.9412315 -1.8305995 4288085770
8.2426758 3.0194261 -1.827436 4288085770
8.1485901 3.097502 -1.823404 4288085770
8.0854797 3.1809185 -1.8231411 4288085770
8.0094604 3.2625973 -1.819553 4288085770
8.0035706 3.3587778 -1.8236847 4288085770
7.9776306 3.4493711 -1.8233361 4288085770
7.9757996 3.5464566 -1.8265663 4288085770
8.0301819 3.6573374 -1.8351578 4288085770
8.0856628 3.7711847 -1.8427552 4288085770
8.176239 3.8952849 -1.8541923 4288085770
8.2528076 4.0156698 -1.8622921 4288085770
8.3235168 4.1371698 -1.8682289 4288085770
8.4263306 4.2679739 -1.8759344 4288085770
8.4459534 4.3765345 -1.8716373 4288085770
8.50177 4.4973211 -1.871192 4288085770
8.5325317 4.609622 -1.8651568 4288085770
8.5552979 4.7200871 -1.856927 4288085770
8.635376 4.8503284 -1.8550429 4288085770
8.7677612 4.9994526 -1.858381 4288085770
8.8710632 5.1391783 -1.8560314 4288085770
9.0498657 5.309289 -1.8614227 4288085770
9.2418213 5.484108 -1.8661207 4288085770
9.4560242 5.6704397 -1.8713124 4288085770
9.643219 5.852335 -1.8718343 4288085770
9.8737793 6.0512953 -1.8753574 4288085770
10.143646 6.2673941 -1.8797783 4288085770
10.425842 6.4942255 -1.8844385 4288085770
10.759399 6.7449446 -1.8922615 4288085770
11.172821 7.0349302 -1.9038707 4288085770
11.565308 7.3203468 -1.9109671 4288085770
11.987152 7.6231155 -1.9177001 4288085770
15.10202 -0.41030312 -1.9866657 4288085770
13.762482 -0.41066742 -1.9807835 4288085770
12.503326 -0.40586495 -1.966954 4288085770
11.408234 -0.40068102 -1.955394 4288085770
10.28772 -0.38704276 -1.927106 4288085770
9.4127502 -0.37973094 -1.9162639 4288085770
8.6318054 -0.37249422 -1.9068711 4288085770
7.961792 -0.36567473 -1.9033711 4288085770
14.484161 -0.69570804 -1.9886236 4288085770
7.2989502 -0.35706139 -1.893044 4288085770
13.146454 -0.66112041 -1.9805362 4288085770
6.7220764 -0.34832263 -1.8869553 4288085770
11.94101 -0.62650442 -1.9658899 4288085770
6.250946 -0.34286308 -1.8906471 4288085770
10.819733 -0.59178543 -1.9464328 4288085770
5.7860107 -0.33457351 -1.8894781 4288085770
9.8005371 -0.55733728 -1.9256361 4288085770
5.375946 -0.32747746 -1.8917491 4288085770
8.9520874 -0.52961135 -1.9143362 4288085770
4.9978943 -0.32107782 -1.8958578 4288085770
8.2294312 -0.50463367 -1.9093356 4288085770
4.6359253 -0.31304455 -1.8983729 4288085770
7.5369873 -0.47935724 -1.8991164 4288085770
4.2840576 -0.30426741 -1.8961455 4288085770
6.9224243 -0.45678687 -1.8919463 4288085770
3.9581909 -0.2950542 -1.8955919 4288085770
6.4246216 -0.43774652 -1.8938456 4288085770
3.628479 -0.2837832 -1.890922 4288085770
5.9429016 -0.41907835 -1.8931648 4288085770
3.3387146 -0.27438259 -1.8883057 4288085770
5.5170898 -0.40163469 -1.8949506 4288085770
3.0401001 -0.26181436 -1.8814356 4288085770
5.1053467 -0.38351226 -1.895097 4288085770
2.7723999 -0.25191164 -1.8773898 4288085770
4.7365723 -0.36633539 -1.8963702 4288085770
2.5108337 -0.23916316 -1.8704827 4288085770
4.3789368 -0.34842038 -1.8949257 4288085770
2.2671509 -0.22779727 -1.8660527 4288085770
4.0512085 -0.3321588 -1.8952732 4288085770
2.0404968 -0.2168107 -1.8610686 4288085770
3.7255859 -0.31397033 -1.8916616 4288085770
1.8208618 -0.20498633 -1.8552616 4288085770
3.3952026 -0.29471421 -1.8819144 4288085770
1.6459961 -0.19609356 -1.8586435 4288085770
3.1115723 -0.27744818 -1.8794029 4288085770
1.4562683 -0.18490624 -1.8566213 4288085770
2.8232117 -0.25912285 -1.8697562 4288085770
1.2815857 -0.1740489 -1.8549917 4288085770
2.5616455 -0.24236941 -1.8638223 4288085770
1.1030273 -0.16213179 -1.8492525 4288085770
2.328064 -0.22620845 -1.8616209 4288085770
0.94033813 -0.15054703 -1.8469313 4288085770
2.0985107 -0.21016574 -1.8555257 4288085770
0.79949951 -0.1414156 -1.849198 4288085770
1.8859558 -0.19347572 -1.8528682 4288085770
0.64492798 -0.12902045 -1.8450805 4288085770
1.6824341 -0.1779952 -1.8484536 4288085770
0.49533081 -0.11674047 -1.8400942 4288085770
1.5285034 -0.16554451 -1.8553586 4288085770
0.39831543 -0.10852671 -1.8505112 4288085770
1.3360596 -0.1493206 -1.8492264 4288085770
0.27157593 -0.097724676 -1.8501326 4288085770
1.1753845 -0.13476539 -1.8489373 4288085770
0.14205933 -0.084884405 -1.8456638 4288085770
1.0128479 -0.11918831 -1.8455904 4288085770
0.86917114 -0.10600615 -1.8457531 4288085770
0.71362305 -0.090588093 -1.8415899 4288085770
0.58197021 -0.076677561 -1.8410609 4288085770
0.45529175 -0.06286931 -1.8416624 4288085770
0.32873535 -0.048083305 -1.8392587 4288085770
0.21801758 -0.034619093 -1.841279 4288085770
0.20623779 1.9572799 -1.8021464 4288085770
0.3258667 1.9806454 -1.804109 4288085770
0.44747925 2.00196 -1.8051369 4288085770
0.58016968 2.0270455 -1.8084276 4288085770
0.71783447 2.0510147 -1.8108561 4288085770
0.8704834 2.0786746 -1.8166518 4288085770
0.99511719 2.095897 -1.8137858 4288085770
1.1607971 2.1242707 -1.8199164 4288085770
0.22817993 1.877773 -1.8082873 4288085770
1.3084412 2.1449997 -1.8196278 4288085770
0.34564209 1.8921845 -1.8102542 4288085770
1.4541016 2.1647599 -1.8172938 4288085770
0.46212769 1.9045975 -1.8092088 4288085770
1.6207886 2.1870792 -1.8184907 4288085770
0.59857178 1.922611 -1.814648 4288085770
1.7844543 2.2074506 -1.8176224 4288085770
0.72799683 1.9357526 -1.8159366 4288085770
1.9651794 2.2304633 -1.8191805 4288085770
0.88143921 1.9543993 -1.8228153 4288085770
2.1438599 2.2515061 -1.8186996 4288085770
0.9888916 1.9579718 -1.815593 4288085770
2.3435669 2.2761071 -1.8217435 4288085770
1.1263123 1.9689238 -1.8151051 4288085770
2.5482483 2.2995918 -1.823925 4288085770
1.2717285 1.9797075 -1.8158268 4288085770
2.7849426 2.3284032 -1.8319066 4288085770
1.4321289 1.9931738 -1.8189223 4288085770
3.0086365 2.3514574 -1.8325877 4288085770
1.5815125 2.0018637 -1.8187619 4288085770
3.2303467 2.3715489 -1.8322356 4288085770
1.7269592 2.007621 -1.8155167 4288085770
3.4890442 2.3988583 -1.8378022 4288085770
1.8903198 2.0160029 -1.8157237 4288085770
3.7377625 2.4203565 -1.838146 4288085770
2.0687256 2.0270689 -1.8183045 4288085770
3.9684753 2.4342172 -1.8330703 4288085770
2.2661133 2.0397317 -1.8233707 4288085770
4.229187 2.4524333 -1.830749 4288085770
2.4334412 2.0420063 -1.8207216 4288085770
4.5238953 2.4759352 -1.8342804 4288085770
2.6637573 2.0569689 -1.8306332 4288085770
4.8035889 2.4917247 -1.8314708 4288085770
2.8590698 2.0616424 -1.8306992 4288085770
5.1323242 2.5154727 -1.8348883 4288085770
3.0744019 2.068897 -1.8342699 4288085770
5.4500122 2.5324352 -1.8340631 4288085770
3.2926941 2.0740721 -1.8359327 4288085770
5.7857361 2.5510113 -1.834697 4288085770
3.5099792 2.0762632 -1.8365884 4288085770
6.1564331 2.5718205 -1.8372302 4288085770
3.7402344 2.0781686 -1.8375854 4288085770
6.5401306 2.5903413 -1.8391172 4288085770
3.9554443 2.0743845 -1.8352278 4288085770
6.9258423 2.6047909 -1.8370836 4288085770
4.1856689 2.0702722 -1.8332634 4288085770
7.3225098 2.6169994 -1.835351 4288085770
4.4408875 2.0686219 -1.8339355 4288085770
7.8012085 2.6384399 -1.840699 4288085770
4.7139893 2.0665901 -1.8370792 4288085770
8.256897 2.6513526 -1.840502 4288085770
4.9601135 2.0561135 -1.833573 4288085770
8.7835999 2.6707313 -1.8461161 4288085770
5.2452087 2.0498068 -1.8350574 4288085770
9.4553528 2.7069886 -1.865405 4288085770
5.5292664 2.0385096 -1.8345473 4288085770
10.009033 2.7177355 -1.86578 4288085770
5.8373108 2.028693 -1.8356541 4288085770
10.750824 2.7494361 -1.8839256 4288085770
6.1422729 2.0149338 -1.8357077 4288085770
11.432465 2.7643936 -1.8906139 4288085770
6.4842529 2.0023777 -1.8387188 4288085770
12.13916 2.7737734 -1.8939909 4288085770
6.8501282 1.9873006 -1.8433714 4288085770
12.941772 2.7870648 -1.9028478 4288085770
7.2109375 1.968322 -1.8459184 4288085770
13.786377 2.7974217 -1.9108195 4288085770
7.5647583 1.9434698 -1.8443211 4288085770
14.677979 2.8017266 -1.9170573 4288085770
7.9725037 1.92046 -1.8481202 4288085770
8.3962097 1.8951066 -1.8533512 4288085770
8.8098145 1.8619387 -1.8533717 4288085770
9.3113708 1.8338921 -1.863654 4288085770
9.8337708 1.8003733 -1.8725194 4288085770
10.349152 1.7599881 -1.8782457 4288085770
10.962402 1.7225058 -1.8945088 4288085770
11.610504 1.6782405 -1.9097284 4288085770
12.285522 1.6263721 -1.9237006 4288085770
12.967407 1.5693457 -1.936888 4288085770
13.557251 1.4962738 -1.9377778 4288085770
14.257904 1.4218009 -1.9465714 4288085770
15.017426 1.3420403 -1.9579372 4288085770
9.3927917 -4.9871354 -0.85737371 4293729569
9.3134155 -5.0652356 -0.88482749 4293729569
13.364716 -8.0895748 -1.7209941 4293729569
12.595459 -7.8665504 -1.7134105 4293729569
11.925323 -7.6786852 -1.7126517 4293729569
11.330536 -7.51647 -1.7160332 4293729569
10.760712 -7.3578024 -1.7200894 4293729569
10.194092 -7.1912174 -1.7221769 4293729569
9.6553345 -7.0302515 -1.7240303 4293729569
9.1671753 -6.8873816 -1.730325 4293729569
8.6674194 -6.7302837 -1.7312217 4293729569
8.1571045 -6.5589762 -1.727746 4293729569
7.6794739 -6.397378 -1.7271913 4293729569
7.2129822 -6.2340469 -1.7229148 4293729569
6.7438354 -6.0626721 -1.715512 4293729569
6.3526001 -5.9269714 -1.7183874 4293729569
5.9547729 -5.780159 -1.7150143 4293729569
5.5876465 -5.6460023 -1.7155271 4293729569
5.2206421 -5.5058765 -1.7120053 4293729569
9.533844 -7.9771175 -1.6800251 4293729569
4.8883972 -5.3785014 -1.7114744 4293729569
8.9538574 -7.7281723 -1.689219 4293729569
4.5808105 -5.2616596 -1.7136602 4293729569
8.3711853 -7.4702034 -1.6922824 4293729569
4.3029785 -5.1564598 -1.7186997 4293729569
7.8744507 -7.2550936 -1.7038764 4293729569
3.9741516 -5.0172005 -1.7111783 4293729569
7.4243469 -7.0590296 -1.713815 4293729569
3.3516846 -4.6967564 -1.6447659 4293729569
3.4241943 -4.7329507 -1.2187403 4293729569
3.277771 -4.6999135 -1.6798615 4293729569
3.361084 -4.7383232 -1.2581354 4293729569
3.1538086 -4.6700144 -1.7054276 4293729569
3.3009644 -4.7447538 -1.298615 4293729569
2.944397 -4.5863237 -1.7124007 4293729569
3.2752991 -4.7689219 -1.3441147 4293729569
2.6871338 -4.4676409 -1.7068858 4293729569
3.2565613 -4.7972288 -1.3918214 4293729569
2.4809875 -4.3790441 -1.7099092 4293729569
3.2427368 -4.8266401 -1.4406652 4293729569
2.2720642 -4.2833982 -1.7108126 4293729569
3.2397766 -4.8602777 -1.4918211 4293729569
2.0681458 -4.1888742 -1.7098542 4293729569
3.2702026 -4.9146166 -1.5499883 4293729569
1.888855 -4.1068687 -1.7136233 4293729569
3.7837524 -5.274168 -1.6998267 4293729569
1.697937 -4.0136375 -1.7120131 4293729569
3.522522 -5.1403294 -1.7051121 4293729569
1.5012512 -3.9152942 -1.7072161 4293729569
3.2221375 -4.9776778 -1.7001816 4293729569
1.3800964 -3.8615334 -1.7196962 4293729569
2.995636 -4.8586082 -1.705472 4293729569
1.2982483 -3.8315883 -1.7413617 4293729569
2.7407837 -4.7179613 -1.7018766 4293729569
1.2605591 -3.8295584 -1.774368 4293729569
2.4948425 -4.580512 -1.6985363 4293729569
1.2424011 -3.838933 -1.812964 4293729569
2.2882996 -4.4649138 -1.6993721 4293729569
1.2311707 -3.8514462 -1.8537612 4288085770
2.0848083 -4.3493824 -1.7002867 4293729569
1.2072449 -3.8526893 -1.8921515 4288085770
1.9059753 -4.2473836 -1.703936 4293729569
1.1090393 -3.803431 -1.905259 4288085770
1.7370605 -4.1486015 -1.7078658 4293729569
0.9649353 -3.7212334 -1.9039445 4288085770
1.5623779 -4.0447178 -1.7076098 4293729569
0.81600952 -3.632957 -1.8984644 4288085770
1.3770142 -3.9306269 -1.7020069 4293729569
0.70440674 -3.5674539 -1.9021119 4288085770
1.2701416 -3.8661733 -1.714788 4293729569
0.58599854 -3.4958127 -1.9035403 4288085770
1.2044373 -3.828577 -1.7378254 4293729569
0.45788574 -3.4159944 -1.8986602 4288085770
1.2024841 -3.8313036 -1.7767992 4293729569
0.35437012 -3.3506804 -1.9005189 4288085770
1.2093811 -3.8372078 -1.8190261 4293729569
0.25967407 -3.2895565 -1.9036379 4288085770
1.2436523 -3.8606768 -1.8690883 4288085770
0.15722656 -3.2222869 -1.9025122 4288085770
1.2290649 -3.8501413 -1.9046435 4288085770
0.06072998 -3.1571462 -1.9015563 4288085770
1.1040039 -3.7633581 -1.9047984 4288085770
0.96826172 -3.6683667 -1.8996185 4288085770
0.85510254 -3.5868509 -1.8991194 4288085770
0.74298096 -3.5043578 -1.8986406 4288085770
0.64172363 -3.4281046 -1.8984871 4288085770
0.55130005 -3.357085 -1.8996522 4288085770
0.4520874 -3.2798893 -1.8975463 4288085770
0.3666687 -3.2099855 -1.8978496 4288085770
0.29208374 -3.1473145 -1.8994834 4288085770
0.22729492 -3.089843 -1.9044091 4288085770
0.15087891 -3.0231493 -1.9029677 4288085770
0.082336426 -2.9606225 -1.9027605 4288085770
0.13168335 -1.1036131 -1.8837016 4288085770
0.18533325 -1.0838132 -1.8809717 4288085770
0.24786377 -1.0661931 -1.8814893 4288085770
0.30352783 -1.0464464 -1.8778126 4288085770
0.36517334 -1.026822 -1.8752933 4288085770
0.42678833 -1.0081991 -1.87278 4288085770
0.50231934 -0.99186933 -1.8726456 4288085770
0.57592773 -0.97450781 -1.8704535 4288085770
0.66040039 -0.95836997 -1.8715556 4288085770
0.74588013 -0.94226038 -1.8716841 4288085770
0.82553101 -0.92503738 -1.8686503 4288085770
0.90228271 -0.90576875 -1.8625271 4288085770
1.0076599 -0.89308345 -1.8651984 4288085770
1.1289368 -0.88172853 -1.871295 4288085770
0.1557312 -0.68417335 -1.871582 4288085770
1.2215881 -0.86480439 -1.866604 4288085770
0.24810791 -0.67120194 -1.8739121 4288085770
1.3409729 -0.85243225 -1.8686438 4288085770
0.3059082 -0.65253019 -1.865297 4288085770
1.4673767 -0.83921576 -1.8708616 4288085770
0.39346313 -0.63747716 -1.8634855 4288085770
1.5947876 -0.82701731 -1.8731116 4288085770
0.47601318 -0.62231946 -1.860543 4288085770
1.7173767 -0.81274474 -1.8702205 4288085770
0.57247925 -0.60845709 -1.8599738 4288085770
1.8667297 -0.80202389 -1.8740544 4288085770
0.6809082 -0.59584355 -1.861725 4288085770
2.0151367 -0.7892952 -1.875851 4288085770
0.79232788 -0.58329487 -1.8635551 4288085770
2.1784973 -0.77888751 -1.8790535 4288085770
0.89486694 -0.56957626 -1.8611444 4288085770
2.3508606 -0.76868343 -1.8814926 4288085770
1.0202332 -0.55732918 -1.8643422 4288085770
2.5153198 -0.75631738 -1.8817108 4288085770
1.132782 -0.54383612 -1.861195 4288085770
2.7037048 -0.74646401 -1.8845706 4288085770
1.269165 -0.53283691 -1.8636882 4288085770
2.9189453 -0.73918343 -1.8911506 4288085770
1.4016113 -0.52076244 -1.8640712 4288085770
3.1520996 -0.73229265 -1.8992034 4288085770
1.5490112 -0.50901103 -1.8658483 4288085770
3.3735352 -0.72317553 -1.9009314 4288085770
1.7004089 -0.49735355 -1.8667309 4288085770
3.6098938 -0.71438813 -1.9030538 4288085770
1.8618774 -0.48591399 -1.8678763 4288085770
3.8751526 -0.70721698 -1.9089428 4288085770
2.0322266 -0.47566748 -1.8702638 4288085770
4.1276855 -0.69680643 -1.9074756 4288085770
2.2354736 -0.46711755 -1.8775228 4288085770
4.3892212 -0.68659377 -1.906245 4288085770
2.4129333 -0.45604277 -1.8770897 4288085770
4.6727295 -0.67787004 -1.9045988 4288085770
2.6143494 -0.44548798 -1.8782871 4288085770
4.9762573 -0.66858363 -1.9034724 4288085770
2.8188477 -0.43400478 -1.8785579 4288085770
5.3017883 -0.65978718 -1.9019247 4288085770
3.0690613 -0.42648578 -1.8870525 4288085770
5.6602173 -0.65270162 -1.9032495 4288085770
3.3015747 -0.41563034 -1.88606 4288085770
6.0218506 -0.64471889 -1.8986495 4288085770
3.55896 -0.40730357 -1.8887352 4288085770
6.4353638 -0.63785791 -1.8984151 4288085770
3.8511963 -0.39972544 -1.8953291 4288085770
6.8927612 -0.63395572 -1.9003484 4288085770
4.1327209 -0.38994312 -1.8956246 4288085770
7.4101868 -0.63136792 -1.9038587 4288085770
4.4371338 -0.3806603 -1.8975246 4288085770
8.0054016 -0.63147211 -1.9124236 4288085770
4.7626343 -0.37185073 -1.8979771 4288085770
8.6277771 -0.63120103 -1.9166942 4288085770
5.0982361 -0.36127949 -1.8956819 4288085770
9.3002014 -0.63104439 -1.9192742 4288085770
5.4747314 -0.35359359 -1.8964752 4288085770
10.138306 -0.63748312 -1.9332318 4288085770
5.8483887 -0.34387445 -1.8921801 4288085770
11.121155 -0.6500752 -1.9550161 4288085770
6.2829285 -0.33547425 -1.892487 4288085770
12.172241 -0.66021061 -1.9705677 4288085770
6.7216187 -0.32620144 -1.8868959 4288085770
13.306488 -0.67121148 -1.9812973 4288085770
7.2760315 -0.32141209 -1.8933616 4288085770
14.530029 -0.68122721 -1.9843526 4288085770
7.8723755 -0.31755853 -1.8989321 4288085770
8.5467834 -0.31341362 -1.9065411 4288085770
9.2792664 -0.31056094 -1.9126756 4288085770
10.147522 -0.31066489 -1.9263831 4288085770
11.160675 -0.31294227 -1.9448955 4288085770
12.337799 -0.31782222 -1.9667128 4288085770
13.552246 -0.32058549 -1.9784896 4288085770
14.878937 -0.32286024 -1.9841962 4288085770
14.402924 -0.16967797 -1.9692615 4288085770
13.097015 -0.14194727 -1.9649241 4288085770
11.814453 -0.11380053 -1.947191 4288085770
10.627136 -0.085789442 -1.9219484 4288085770
9.6615295 -0.061593771 -1.9095349 4288085770
8.7890625 -0.038461685 -1.8945627 4288085770
8.0603333 -0.017445326 -1.8893692 4288085770
14.615356 -0.15038276 -1.9637077 4288085770
7.3598022 0.0029120445 -1.8769145 4288085770
13.268646 -0.11175942 -1.9582407 4288085770
6.7770691 0.02072382 -1.8735598 4288085770
12.018188 -0.075293303 -1.9453015 4288085770
6.2762146 0.03775835 -1.8753549 4288085770
10.813049 -0.039892673 -1.9195498 4288085770
5.8213806 0.054780245 -1.8773543 4288085770
9.8336487 -0.0094056129 -1.9047381 4288085770
5.3925781 0.070224047 -1.8780432 4288085770
8.9213867 0.020586967 -1.8866844 4288085770
4.9888 0.085108757 -1.8773899 4288085770
8.2276611 0.045852661 -1.8853843 4288085770
4.6260376 0.10109496 -1.8778045 4288085770
7.5581055 0.07055831 -1.8787173 4288085770
4.288208 0.11654115 -1.8798758 4288085770
6.9396057 0.094127178 -1.8693924 4288085770
3.9784241 0.13136864 -1.8816838 4288085770
6.4338379 0.11526299 -1.8700359 4288085770
3.6767273 0.14600396 -1.880703 4288085770
5.9771118 0.13532829 -1.8719676 4288085770
3.3621826 0.1608851 -1.872383 4288085770
5.5493774 0.15574741 -1.8726573 4288085770
3.0646667 0.17639327 -1.8645048 4288085770
5.1506653 0.17452598 -1.8731149 4288085770
2.7930908 0.19033861 -1.8583148 4288085770
4.796875 0.1933322 -1.8767498 4288085770
2.5514526 0.20464301 -1.8559077 4288085770
4.459198 0.21177697 -1.878806 4288085770
2.3138428 0.21884418 -1.8506064 4288085770
4.1414795 0.22977209 -1.8793888 4288085770
2.0912781 0.23271751 -1.8456998 4288085770
3.8318481 0.24757695 -1.877183 4288085770
1.8906555 0.24712086 -1.8433657 4288085770
3.5193481 0.26441741 -1.8699051 4288085770
1.6920776 0.26046371 -1.8380902 4288085770
3.2268372 0.28081536 -1.8621533 4288085770
1.5273132 0.27309656 -1.8397067 4288085770
2.9464111 0.29794478 -1.8537126 4288085770
1.3526917 0.28692603 -1.8370564 4288085770
2.6978455 0.31439233 -1.8491118 4288085770
1.2149048 0.29997826 -1.841377 4288085770
2.4632874 0.3295269 -1.8438847 4288085770
1.0562744 0.31345892 -1.8391473 4288085770
2.2427063 0.34536052 -1.8400203 4288085770
0.90075684 0.32685399 -1.8339977 4288085770
2.0500793 0.36059475 -1.8388911 4288085770
0.76803589 0.33977532 -1.8344513 4288085770
1.8644409 0.375669 -1.8369466 4288085770
0.62945557 0.3528049 -1.8307483 4288085770
1.6779175 0.39075518 -1.8329762 4288085770
0.50778198 0.36548615 -1.8314909 4288085770
1.5122681 0.40539098 -1.8315575 4288085770
