# .PCD v0.7 - Point Cloud Data file format
VERSION 0.7
FIELDS x y z rgb
SIZE 4 4 4 4
TYPE F F F U
COUNT 1 1 1 1
WIDTH 1131
HEIGHT 1
VIEWPOINT 0 0 0 1 0 0 0
POINTS 1131
DATA ascii
3.8905029 -2.3255684 -1.8856628 4288085770
4.2822418 -2.4528673 -1.9006819 4288085770
8.1221085 -3.6394646 -1.893921 4288085770
1.6576538 -1.6496838 -1.8720882 4288085770
6.6795654 -3.2141864 -1.9052783 4288085770
12.149162 -4.9258132 -1.9470745 4288085770
12.989212 -5.2134318 -1.8307936 4293729569
4.0213242 -2.4149754 -1.897071 4288085770
7.6901703 -3.5792558 -1.8918977 4288085770
3.8261032 -2.3678758 -1.884697 4288085770
6.1472931 -3.0983932 -1.9008214 4288085770
6.3396683 -3.1595209 -1.9123459 4288085770
1.6001587 -1.6749531 -1.8719046 4288085770
3.7714157 -2.3780396 -1.8933543 4288085770
12.472603 -5.1502771 -1.862628 4293729569
12.147026 -5.0519285 -1.9401776 4288085770
5.9756317 -3.0930274 -1.9105625 4288085770
7.3012924 -3.5278504 -1.8925022 4288085770
6.0498581 -3.1448569 -1.8972342 4288085770
3.7626877 -2.4101794 -1.8837209 4288085770
3.5535736 -2.3469334 -1.8943545 4288085770
1.5607147 -1.7041157 -1.8755672 4288085770
12.071167 -5.1155963 -1.9015098 4288085770
5.5804443 -3.0127335 -1.8999841 4288085770
11.890182 -5.0933409 -1.9012011 4288085770
6.9264145 -3.47438 -1.8939437 4288085770
3.3356781 -2.3138525 -1.8923379 4288085770
5.2684708 -2.9560075 -1.9007431 4288085770
11.568428 -5.0434446 -1.9261222 4288085770
5.9694977 -3.1992285 -1.8965377 4288085770
3.727356 -2.4603288 -1.8875203 4288085770
1.5011826 -1.7274181 -1.872388 4288085770
6.5895767 -3.4287415 -1.8970569 4288085770
3.1278 -2.2817228 -1.8912256 4288085770
4.9634552 -2.8972695 -1.8994126 4288085770
11.550133 -5.1041684 -1.8528268 4293729569
10.896164 -4.9071851 -1.9259464 4288085770
2.9399643 -2.2534881 -1.8929385 4288085770
4.6624222 -2.8365331 -1.8960236 4288085770
5.9011536 -3.2555435 -1.8967329 4288085770
1.4637527 -1.7575736 -1.8760383 4288085770
3.679985 -2.5075605 -1.8874201 4288085770
6.2205963 -3.3682983 -1.8923768 4288085770
10.210785 -4.7590284 -1.9198043 4288085770
11.34137 -5.154356 -1.817426 4293729569
4.3864059 -2.7806709 -1.8954161 4288085770
2.7390213 -2.2183554 -1.888728 4288085770
5.8706131 -3.3087783 -1.8875074 4288085770
1.4222794 -1.7847698 -1.8767051 4288085770
5.8317871 -3.3108797 -1.8949302 4288085770
3.6456299 -2.5567143 -1.8902009 4288085770
4.1344452 -2.7306967 -1.8966093 4288085770
9.5824356 -4.6216445 -1.9131618 4288085770
2.5712051 -2.1920235 -1.8922491 4288085770
11.100525 -5.1917143 -1.7772485 4293729569
5.5597153 -3.2580526 -1.8883072 4288085770
3.8814468 -2.6777515 -1.8947875 4288085770
2.3862839 -2.1588187 -1.8888887 4288085770
9.0212173 -4.5009518 -1.9109646 4288085770
1.3878326 -1.814922 -1.8793242 4288085770
5.8035202 -3.3779922 -1.8998017 4288085770
3.5942307 -2.6019793 -1.8881254 4288085770
3.6665192 -2.6346118 -1.8976545 4288085770
5.2638321 -3.2102761 -1.8879764 4288085770
2.221405 -2.129499 -1.8893534 4288085770
11.092232 -5.3059201 -1.7623136 4293729569
8.4979935 -4.3851085 -1.9084139 4288085770
3.4355087 -2.5845788 -1.8956292 4288085770
1.3493576 -1.8431062 -1.8799683 4288085770
2.0514679 -2.0972428 -1.8848453 4288085770
5.7572174 -3.4412119 -1.9008274 4288085770
4.9759216 -3.1604667 -1.8875451 4288085770
3.5558472 -2.6501744 -1.8879398 4288085770
3.2285538 -2.5404246 -1.8964041 4288085770
8.0018005 -4.2741485 -1.9066242 4288085770
1.9046097 -2.0708427 -1.8861479 4288085770
11.051865 -5.410296 -1.7426277 4293729569
3.0094986 -2.488359 -1.8922367 4288085770
4.7160797 -3.1175213 -1.889881 4288085770
1.3128891 -1.8712829 -1.8805916 4288085770
7.5446472 -4.1720338 -1.9045045 4288085770
5.7189026 -3.5053985 -1.9017781 4288085770
1.751709 -2.0414925 -1.8844875 4288085770
3.5335159 -2.7032807 -1.8906299 4288085770
2.8205414 -2.4461324 -1.8928412 4288085770
11.077621 -5.5363584 -1.7284405 4293729569
4.4491425 -3.067636 -1.888231 4288085770
1.6078033 -2.0130973 -1.883742 4288085770
7.1214981 -4.0747747 -1.9030727 4288085770
2.6184616 -2.3970165 -1.8865223 4288085770
1.2723541 -1.8965001 -1.8782312 4288085770
5.7016525 -3.5764766 -1.9055692 4288085770
1.47995 -1.9886125 -1.8858633 4288085770
3.4981308 -2.7514725 -1.8894132 4288085770
2.4223862 -2.3478765 -1.8801408 4288085770
4.2193298 -3.0295615 -1.8912969 4288085770
6.7193832 -3.9804232 -1.9024473 4288085770
10.477715 -5.4285283 -1.6447495 4293729569
2.2533875 -2.3065858 -1.8785455 4288085770
1.3570862 -1.9651076 -1.887941 4288085770
1.2328415 -1.9227055 -1.8768691 4288085770
3.9753952 -2.9815853 -1.8894237 4288085770
6.3352356 -3.8890176 -1.8996602 4288085770
2.1074524 -2.2721608 -1.8817693 4288085770
5.6763763 -3.6456037 -1.9074268 4288085770
1.2251511 -1.9366809 -1.8850706 4288085770
3.4717712 -2.803612 -1.8901366 4288085770
10.213646 -5.439044 -1.5965835 4293729569
1.9404144 -2.2288873 -1.8771366 4288085770
5.9881668 -3.8074393 -1.8995719 4288085770
3.7454758 -2.9355435 -1.8884219 4288085770
1.107254 -1.911172 -1.8850793 4288085770
1.2063904 -1.9538337 -1.8784134 4288085770
1.7964325 -2.1934886 -1.8763316 4288085770
5.6420364 -3.7097912 -1.9063363 4288085770
0.9913559 -1.8866556 -1.8850758 4288085770
3.4574356 -2.858686 -1.8927605 4288085770
5.6510849 -3.7258205 -1.8993793 4288085770
3.524559 -2.8914669 -1.887343 4288085770
1.6614761 -2.1590362 -1.877441 4288085770
10.143097 -5.5226064 -1.5690327 4293729569
10.413376 -5.6458244 -1.0652324 4293729569
0.88145447 -1.8621056 -1.8860097 4288085770
1.1698608 -1.9790348 -1.8760117 4288085770
1.5315018 -2.125572 -1.8775069 4288085770
5.347084 -3.6540453 -1.9019275 4288085770
3.3176498 -2.8493335 -1.8861355 4288085770
10.288322 -5.6501961 -0.84855175 4293729569
5.6418076 -3.7867923 -1.9110013 4288085770
1.4196014 -2.0979931 -1.8824356 4288085770
3.4350739 -2.911818 -1.8924509 4288085770
10.384941 -5.7287583 -0.38717896 4293729569
10.116646 -5.6219592 -1.5451592 4293729569
10.311493 -5.708868 -1.1128385 4293729569
1.3016129 -2.0654714 -1.8833849 4288085770
5.04599 -3.5772998 -1.8994024 4288085770
1.1433792 -2.0091708 -1.8765479 4288085770
3.1097183 -2.805213 -1.8839211 4288085770
1.1866455 -2.0339377 -1.8843114 4288085770
10.174644 -5.7159629 -0.81729686 4293729569
4.7659531 -3.5064366 -1.9007088 4288085770
5.6255035 -3.8578999 -1.9107828 4288085770
1.0706253 -2.0014334 -1.8822402 4288085770
10.308128 -5.7986593 -0.4395836 4293729569
3.4207382 -2.9668999 -1.8940749 4288085770
2.9208374 -2.765991 -1.8845512 4288085770
10.286827 -5.8015289 -1.1688962 4293729569
10.121239 -5.733181 -1.5220646 4293729569
0.96966553 -1.9728264 -1.8850461 4288085770
1.123909 -2.0402701 -1.8780196 4288085770
4.4908752 -3.4355879 -1.8979636 4288085770
0.86063385 -1.940293 -1.8829017 4288085770
10.126106 -5.8054366 -0.78956807 4293729569
2.724884 -2.7208302 -1.8812034 4288085770
10.300453 -5.8952527 -0.49549821 4293729569
0.76766968 -1.9136621 -1.8846413 4288085770
5.6302719 -3.9378898 -1.9144214 4288085770
3.4073639 -3.0219951 -1.8936886 4288085770
10.340347 -5.9268208 -1.2314211 4293729569
4.2177658 -3.3617389 -1.8941722 4288085770
10.197044 -5.8740525 -1.5064845 4293729569
1.0893631 -2.0654716 -1.8745971 4288085770
2.5569992 -2.6845236 -1.8816398 4288085770
3.9847717 -3.3006797 -1.8960738 4288085770
10.166748 -5.9325333 -0.76423466 4293729569
5.6289902 -4.0149293 -1.9150976 4288085770
2.3780212 -2.6412942 -1.8781321 4288085770
3.406044 -3.0820169 -1.8962196 4288085770
3.7477112 -3.2366707 -1.8939918 4288085770
1.0568085 -2.0906649 -1.8711537 4288085770
2.2141418 -2.603972 -1.8785182 4288085770
3.5297012 -3.1765592 -1.8947456 4288085770
5.6287308 -4.0919552 -1.9167632 4288085770
3.4137726 -3.1469862 -1.9006993 4288085770
1.0312805 -2.1188219 -1.8686627 4288085770
2.0642471 -2.5695932 -1.8787842 4288085770
3.3186493 -3.1174371 -1.8934351 4288085770
1.9102936 -2.5302463 -1.8770494 4288085770
3.1146164 -3.0592871 -1.8920599 4288085770
5.6404724 -4.1739335 -1.9183463 4288085770
3.4124298 -3.2060158 -1.9022217 4288085770
1.0167923 -2.1499 -1.8700825 4288085770
2.9145508 -3.0001376 -1.8886348 4288085770
1.7533264 -2.4899375 -1.8723377 4288085770
2.7285004 -2.9449153 -1.8870976 4288085770
5.6461868 -4.2539525 -1.9179752 4288085770
1.6304779 -2.4614158 -1.8763728 4288085770
0.98921967 -2.1760812 -1.8655956 4288085770
3.4130936 -3.2680466 -1.9027492 4288085770
2.5404053 -2.8867345 -1.881556 4288085770
1.4965515 -2.426981 -1.8754719 4288085770
2.369339 -2.8334599 -1.8788794 4288085770
5.6769867 -4.3448391 -1.9214369 4288085770
0.97873688 -2.2091434 -1.8669907 4288085770
1.3625946 -2.3905623 -1.8725541 4288085770
3.4197617 -3.3310444 -1.9042226 4288085770
2.2183609 -2.7890635 -1.8810707 4288085770
1.2386475 -2.3560858 -1.8715491 4288085770
2.0582733 -2.7367616 -1.8762882 4288085770
0.96621704 -2.2402296 -1.8663899 4288085770
5.6806793 -4.4238825 -1.9190785 4288085770
1.9232941 -2.6953001 -1.878338 4288085770
3.4304581 -3.3960173 -1.9066714 4288085770
1.132782 -2.3295038 -1.874424 4288085770
1.7802353 -2.6479127 -1.8754206 4288085770
1.0107956 -2.294045 -1.8703899 4288085770
0.96375275 -2.2762425 -1.8697269 4288085770
5.7284927 -4.5216913 -1.9234226 4288085770
1.6522217 -2.6064401 -1.8753976 4288085770
3.4360886 -3.4590356 -1.9061556 4288085770
0.89884949 -2.2615201 -1.8692768 4288085770
1.5211563 -2.5620043 -1.8723806 4288085770
0.80796814 -2.2368681 -1.8730123 4288085770
0.9592514 -2.3102882 -1.8700681 4288085770
1.3991241 -2.5205154 -1.8712951 4288085770
5.8034439 -4.6353502 -1.9326208 4288085770
9.9147873 -6.6173224 -1.7638338 4293729569
1.2921143 -2.4839401 -1.8730955 4288085770
3.4557877 -3.5279722 -1.9085445 4288085770
0.71205902 -2.2102625 -1.8737832 4288085770
1.1841049 -2.4463775 -1.873898 4288085770
0.95069885 -2.341357 -1.8694254 4288085770
0.61611176 -2.1806638 -1.8735285 4288085770
1.078064 -2.4088242 -1.8726798 4288085770
9.46772 -6.4920411 -1.7764131 4293729569
5.8532486 -4.7361679 -1.9349699 4288085770
0.97600555 -2.3712535 -1.8714199 4288085770
0.52818298 -2.1550252 -1.8742244 4288085770
3.4824982 -3.6008723 -1.9118947 4288085770
0.88700104 -2.3386049 -1.8730668 4288085770
0.9471817 -2.3753979 -1.8697563 4288085770
0.778862 -2.2961001 -1.8668272 4288085770
9.0757675 -6.3885155 -1.7916059 4293729569
0.69281769 -2.2624557 -1.8664343 4288085770
5.9160995 -4.8439164 -1.9392428 4288085770
0.60674286 -2.2278194 -1.8650331 4288085770
3.5031815 -3.6708133 -1.913282 4288085770
0.5377655 -2.2020648 -1.8695309 4288085770
0.95773315 -2.415349 -1.873992 4288085770
8.6396179 -6.2562318 -1.7990115 4293729569
5.860466 -4.8933382 -1.9202462 4288085770
3.5308762 -3.7447174 -1.9156303 4288085770
0.95617676 -2.44838 -1.8742934 4288085770
8.1923752 -6.1130352 -1.8014383 4293729569
5.6963959 -4.8873677 -1.8809006 4288085770
0.95863342 -2.4834039 -1.8735704 4288085770
3.5676041 -3.8235769 -1.9189274 4288085770
7.6456985 -5.9123921 -1.7854052 4293729569
5.5634308 -4.8932223 -1.8473337 4293729569
0.97015381 -2.5233581 -1.8767958 4288085770
7.3950043 -5.8562207 -1.8095356 4293729569
3.5932693 -3.8965063 -1.9192885 4288085770
0.97457123 -2.5573728 -1.8760434 4288085770
5.4745941 -4.9188504 -1.8194774 4293729569
6.9415054 -5.689157 -1.7988218 4293729569
3.6460342 -3.9822838 -1.9244783 4288085770
0.9810257 -2.5933714 -1.8762872 4288085770
6.4949951 -5.5210738 -1.7870263 4293729569
5.4008179 -4.9503841 -1.7955159 4293729569
3.6656265 -4.0512609 -1.9218682 4288085770
0.99448395 -2.6323326 -1.8774835 4288085770
5.9158554 -5.2747612 -1.746937 4293729569
5.3741913 -5.00668 -1.7772764 4293729569
1.0099335 -2.6712849 -1.8786589 4288085770
3.7203827 -4.139039 -1.9260546 4288085770
5.571579 -5.1481967 -1.7434348 4293729569
5.3606186 -5.0678983 -1.7619438 4293729569
1.0273819 -2.7112293 -1.8798221 4288085770
5.3186035 -5.0661664 -1.7513658 4293729569
3.7680893 -4.2238617 -1.9282882 4288085770
5.3731232 -5.1429877 -1.749459 4293729569
1.0428009 -2.7491894 -1.8799893 4288085770
5.1147842 -5.0068746 -1.766981 4293729569
3.7826309 -4.2898917 -1.9217054 4288085770
1.073288 -2.7950552 -1.8840677 4288085770
4.9099274 -4.9446111 -1.7795813 4293729569
5.3896255 -5.2190518 -1.737941 4293729569
8.132843 -6.7693667 -1.8227077 4293729569
3.8222504 -4.3687792 -1.9199721 4288085770
1.0916672 -2.8330102 -1.8832037 4288085770
4.7532272 -4.9050884 -1.7998763 4293729569
7.5999451 -6.5276361 -1.8091788 4293729569
5.3538895 -5.2654247 -1.714711 4293729569
1.1191025 -2.8759038 -1.8852881 4288085770
4.590477 -4.8606071 -1.8181914 4293729569
3.9131012 -4.4763699 -1.9289529 4288085770
7.1733704 -6.3403902 -1.8060119 4293729569
5.3783722 -5.3434639 -1.7021269 4293729569
1.138443 -2.9128704 -1.8824054 4288085770
4.4939804 -4.8497596 -1.8481067 4293729569
6.6934967 -6.1154656 -1.7900755 4293729569
4.0029373 -4.5839725 -1.9369445 4288085770
1.1718826 -2.9587395 -1.8844528 4288085770
5.9314194 -5.7230992 -1.7236336 4293729569
4.4185867 -4.8507953 -1.8819051 4288085770
1.2012482 -3.000649 -1.8835082 4288085770
4.0987778 -4.6955509 -1.9449077 4288085770
4.3421097 -4.8468494 -1.9136714 4288085770
5.7717133 -5.6997042 -1.7310977 4293729569
1.2326202 -3.0425408 -1.8835427 4288085770
5.0525665 -5.2910366 -1.6780696 4293729569
4.2063522 -4.8072581 -1.9317476 4288085770
4.1493912 -4.7814097 -1.9411196 4288085770
1.2860718 -3.0963016 -1.8884495 4288085770
4.8284607 -5.195868 -1.6875871 4293729569
6.0793152 -5.9452405 -1.7620089 4293729569
4.0404205 -4.7468534 -1.9419582 4288085770
0.23565674 -2.4916162 -1.8761909 4288085770
4.6304169 -5.1105695 -1.6999184 4293729569
1.329483 -3.1451283 -1.8904184 4288085770
4.1507492 -4.8365569 -1.9265794 4288085770
3.8362885 -4.662694 -1.9413617 4288085770
6.5133972 -6.2681222 -1.8102691 4293729569
4.4674835 -5.0450983 -1.7160547 4293729569
1.3768692 -3.1939373 -1.8923454 4288085770
0.25906372 -2.5275245 -1.8782574 4288085770
4.3537064 -5.0053725 -1.7389008 4293729569
1.4222183 -3.241771 -1.8922852 4288085770
3.6109695 -4.5616851 -1.93284 4288085770
4.0606613 -4.8362527 -1.8905132 4288085770
0.28138733 -2.5604515 -1.878309 4288085770
6.7325974 -6.4671774 -1.8216996 4293729569
4.2519836 -4.9705715 -1.7646643 4293729569
1.4766006 -3.2935512 -1.8941652 4288085770
3.4127655 -4.473525 -1.929147 4288085770
4.1391525 -4.9268579 -1.7854661 4293729569
0.3037262 -2.5943789 -1.8783693 4288085770
1.5289536 -3.3433471 -1.8950487 4288085770
3.975563 -4.8359179 -1.8553947 4293729569
6.9607925 -6.6711955 -1.8330789 4293729569
3.2205353 -4.3863497 -1.9244001 4288085770
4.0453873 -4.8930416 -1.8091546 4293729569
1.5943375 -3.4000735 -1.8978564 4288085770
0.33610535 -2.6332316 -1.8823674 4288085770
3.9264755 -4.8423843 -1.8259598 4293729569
1.6395798 -3.4429383 -1.893754 4288085770
3.0644608 -4.3189712 -1.9264475 4288085770
3.914566 -4.8494544 -1.8241447 4293729569
3.8879242 -4.8372545 -1.8603208 4293729569
0.36039734 -2.666167 -1.8803984 4288085770
4.6686096 -5.3286686 -1.447377 4293729569
1.7179947 -3.5055947 -1.8984768 4288085770
2.8862228 -4.2347383 -1.92158 4288085770
3.8523331 -4.8331299 -1.8926593 4288085770
1.7822876 -3.558357 -1.8972611 4288085770
3.8227692 -4.8299637 -1.9269437 4288085770
0.39474487 -2.7050273 -1.882376 4288085770
1.8616562 -3.6190162 -1.9009567 4288085770
3.8987579 -4.8877268 -1.8026379 4293729569
2.7320786 -4.1633768 -1.9205728 4288085770
3.72686 -4.785203 -1.9445599 4288085770
4.5754395 -5.3213816 -1.4102824 4293729569
1.9440231 -3.6816723 -1.9036382 4288085770
3.5555267 -4.6909108 -1.942534 4288085770
0.42201996 -2.7379401 -1.8813756 4288085770
2.030365 -3.7443106 -1.9062781 4288085770
2.5879288 -4.095983 -1.9184953 4288085770
3.3911819 -4.5985899 -1.940452 4288085770
2.1126633 -3.8039906 -1.9059343 4288085770
3.2117157 -4.4943881 -1.9314249 4288085770
2.2130051 -3.8725624 -1.9094793 4288085770
3.0452957 -4.3971162 -1.9243215 4288085770
0.46135712 -2.7777708 -1.8843093 4288085770
3.8819275 -4.9250102 -1.7801328 4293729569
2.307312 -3.937185 -1.9100528 4288085770
2.8989258 -4.3097391 -1.9200946 4288085770
4.5043564 -5.325973 -1.3770604 4293729569
2.421669 -4.0117006 -1.9135027 4288085770
2.4407425 -4.0246091 -1.9154152 4288085770
2.7756348 -4.2352357 -1.9197382 4288085770
2.6563492 -4.161716 -1.9193487 4288085770
2.5360184 -4.0862169 -1.9169526 4288085770
4.5205231 -5.3609281 -0.32209668 4293729569
0.49562836 -2.8136549 -1.8832616 4288085770
2.3005524 -3.9542062 -1.9122704 4288085770
3.9153061 -4.9920101 -1.7673613 4293729569
0.52684021 -2.8465664 -1.8802197 4288085770
4.4513016 -5.3384743 -1.3457186 4293729569
2.1693649 -3.8877585 -1.910066 4288085770
4.4330673 -5.3530197 -0.35494372 4293729569
0.57515717 -2.889359 -1.8830854 4288085770
2.0421829 -3.8233035 -1.9068369 4288085770
4.3857346 -5.3580904 -0.019450486 4293729569
0.61540222 -2.9262168 -1.8819836 4288085770
1.9370804 -3.7697175 -1.9084716 4288085770
4.4123001 -5.3589029 -1.316299 4293729569
3.9446487 -5.0550332 -1.7535974 4293729569
4.381691 -5.3659687 -0.38759428 4293729569
0.66669464 -2.9689953 -1.8848178 4288085770
1.8239136 -3.7091885 -1.9071304 4288085770
1.7157211 -3.6506472 -1.9047539 4288085770
0.73001862 -3.0187092 -1.8895867 4288085770
4.3195572 -5.3536577 0.013900429 4293729569
4.392334 -5.3892469 -1.2877662 4293729569
0.78527832 -3.0614791 -1.8913795 4288085770
1.6075134 -3.5901136 -1.9013608 4288085770
3.9870224 -5.1249948 -1.7407575 4293729569
1.5173569 -3.5384736 -1.9018562 4288085770
0.84049988 -3.1032655 -1.8911637 4288085770
4.3563766 -5.3917871 -0.42308423 4293729569
1.4271851 -3.4868505 -1.9003518 4288085770
0.89067841 -3.141088 -1.8889662 4288085770
1.3399963 -3.4342053 -1.8998075 4288085770
0.96495819 -3.1927547 -1.8936374 4288085770
1.0341873 -3.2394655 -1.8953183 4288085770
1.2608185 -3.3865283 -1.8992224 4288085770
1.1775894 -3.3338835 -1.8966364 4288085770
1.0913239 -3.2782667 -1.8920563 4288085770
4.3240356 -5.402617 0.0085245073 4293729569
4.3552933 -5.4066758 -1.2573004 4293729569
4.0303726 -5.1949611 -1.7269073 4293729569
4.3280411 -5.4156342 -0.4565886 4293729569
4.3066788 -5.429419 -0.024890661 4293729569
4.3383102 -5.434998 -1.229719 4293729569
4.0616684 -5.2559915 -1.7111056 4293729569
4.3267746 -5.4553485 -0.49294746 4293729569
4.2983627 -5.4601684 -0.060245901 4293729569
4.3433838 -5.475215 -1.2040106 4293729569
4.0898972 -5.3130584 -1.6923016 4293729569
4.3124619 -5.4841218 -0.52834833 4293729569
4.2920227 -5.4899087 -0.095571756 4293729569
4.3353882 -5.5065093 -1.1753612 4293729569
4.1653442 -5.4008532 -1.6832706 4293729569
4.3191681 -5.5238032 -0.56462377 4293729569
4.2926712 -5.5226293 -0.12985027 4293729569
4.3494568 -5.5496898 -1.1495844 4293729569
4.2015457 -5.4598956 -1.6634004 4293729569
4.3389435 -5.5724149 -0.60284013 4293729569
4.2943192 -5.5543365 -0.16510977 4293729569
4.3825684 -5.603785 -1.1247033 4293729569
4.2578354 -5.5318241 -1.647432 4293729569
4.3430939 -5.6148391 -0.20212607 4293729569
4.3797607 -5.6329336 -0.64193976 4293729569
4.4126511 -5.6539006 -1.0988193 4293729569
4.3517227 -5.6475172 -0.23732103 4293729569
4.3392258 -5.6196189 -1.6353388 4293729569
4.6406021 -5.8542023 -1.6622196 4293729569
5.050415 -6.1612201 -1.7045952 4293729569
5.6892395 -6.626008 -1.783945 4293729569
2.3202057 4.4205008 -1.74114 4288085770
2.2274323 4.3571777 -1.7426878 4288085770
2.3989487 4.473722 -1.7338305 4288085770
2.1446838 4.2978973 -1.7450933 4288085770
2.5307312 4.5602493 -1.7396628 4288085770
2.0629425 4.2386193 -1.7474883 4288085770
2.6415253 4.6316509 -1.739852 4288085770
1.9802017 4.1763191 -1.7479202 4288085770
2.7552948 4.702034 -1.7370181 4288085770
1.894455 4.1119909 -1.7464021 4288085770
2.8560638 4.7633367 -1.7304027 4288085770
1.8667526 4.0840044 -1.7599461 4288085770
3.0078583 4.8559217 -1.7349685 4288085770
1.7900314 4.0227132 -1.7593051 4288085770
3.1496658 4.9394355 -1.7357208 4288085770
1.6903 3.9432614 -1.750069 4288085770
3.281456 5.0138688 -1.7316593 4288085770
3.4162369 5.089304 -1.7265571 4288085770
1.6566162 3.9082162 -1.7597388 4288085770
1.5648575 3.8337822 -1.7493732 4288085770
3.5530243 5.162735 -1.7204512 4288085770
3.7228088 5.2563348 -1.7198161 4288085770
1.5011673 3.7755239 -1.7475669 4288085770
4.0100327 5.4452543 -1.7060863 4288085770
4.1586685 5.5437617 -1.7026324 4288085770
4.3222733 5.6523399 -1.7009301 4288085770
3.8774109 5.3538084 -1.7103074 4288085770
4.5088882 5.7730141 -1.7008764 4288085770
3.7567978 5.2684212 -1.7163475 4288085770
4.7074814 5.8997293 -1.7006416 4288085770
4.899086 6.019393 -1.6975434 4288085770
3.6451797 5.1870661 -1.7222557 4288085770
3.8676224 5.3297834 -1.7126245 4288085770
1.4484711 3.7243207 -1.7475811 4288085770
3.5265503 5.1006575 -1.7252834 4288085770
5.1176682 6.1541762 -1.6970245 4288085770
5.3552399 6.2990432 -1.6982143 4288085770
3.4359436 5.0293908 -1.7328793 4288085770
4.0464096 5.4233952 -1.7098936 4288085770
5.6077957 6.4509516 -1.6981823 4288085770
3.3453217 4.9581137 -1.7394753 4288085770
1.3957825 3.6721087 -1.7466043 4288085770
5.8773575 6.6109352 -1.6998982 4288085770
3.2167053 4.8596063 -1.7357157 4288085770
4.2181931 5.5099459 -1.7032994 4288085770
6.1648636 6.7799635 -1.6993428 4288085770
1.3401184 3.615875 -1.7446947 4288085770
3.1090927 4.7732062 -1.7356257 4288085770
6.4773712 6.960104 -1.7014233 4288085770
4.4239807 5.615665 -1.7021741 4288085770
3.0144958 4.6938586 -1.7363352 4288085770
1.2874374 3.5616434 -1.7417355 4288085770
6.8318329 7.1654177 -1.7058347 4288085770
2.951889 4.6346931 -1.744526 4288085770
4.6367645 5.7224002 -1.6999652 4288085770
7.1942749 7.3707304 -1.7071612 4288085770
1.2267609 3.5013556 -1.7359147 4288085770
2.8592758 4.5553341 -1.7432142 4288085770
8.2311935 8.0245361 -1.7133408 4288085770
4.8715363 5.8402395 -1.7004244 4288085770
7.5766983 7.5841107 -1.7082033 4288085770
2.7936859 4.4911203 -1.7474813 4288085770
1.2021255 3.4632897 -1.7405146 4288085770
7.9990768 7.8186569 -1.7116333 4288085770
5.1222992 5.9651237 -1.6996511 4288085770
7.9522476 7.7784734 -1.7104875 4288085770
2.6950684 4.4057031 -1.7422868 4288085770
1.1644745 3.4171257 -1.7393245 4288085770
8.4424057 8.0632591 -1.7127512 4288085770
2.6304779 4.3404741 -1.7445521 4288085770
5.3840637 6.0920525 -1.6997423 4288085770
7.6822739 7.538424 -1.7054851 4288085770
1.1338425 3.374011 -1.7410327 4288085770
2.5628891 4.2722163 -1.744876 4288085770
5.657814 6.2240243 -1.6996619 4288085770
1.1072311 3.3319085 -1.7426895 4288085770
7.4592743 7.3295989 -1.7067072 4288085770
2.5033035 4.2089949 -1.7460705 4288085770
5.9475403 6.361032 -1.6973664 4288085770
2.462738 4.1558814 -1.7519734 4288085770
1.0796204 3.2887943 -1.7433656 4288085770
7.2242508 7.1136866 -1.7031195 4288085770
6.2772598 6.5192313 -1.7004583 4288085770
2.4031525 4.0896311 -1.7501942 4288085770
1.0530014 3.2456732 -1.7430311 4288085770
6.6189499 6.6794548 -1.7014048 4288085770
7.014183 6.9158792 -1.7011063 4288085770
2.3555832 4.0314574 -1.7522161 4288085770
1.0324097 3.2055898 -1.744606 4288085770
6.9836426 6.847764 -1.703035 4288085770
2.2960052 3.9641969 -1.7494458 4288085770
6.8171082 6.7251163 -1.6988926 4288085770
1.0007858 3.1584237 -1.7413605 4288085770
7.4042816 7.0463133 -1.7088026 4288085770
2.2424393 3.8999641 -1.7475848 4288085770
6.6159973 6.5353127 -1.6937131 4288085770
0.98519897 3.120348 -1.7418643 4288085770
7.8149185 7.2317824 -1.7097919 4288085770
2.2058868 3.8458264 -1.7494539 4288085770
6.4648819 6.3747511 -1.6957434 4288085770
8.2615204 7.4333844 -1.7112559 4288085770
0.97664642 3.085331 -1.7462664 4288085770
2.1593246 3.7846086 -1.7464918 4288085770
6.3267288 6.2232351 -1.6975555 4288085770
8.7310867 7.6420655 -1.712413 4288085770
0.95605469 3.0432181 -1.7448591 4288085770
2.1237869 3.7294631 -1.7473589 4288085770
9.2546387 7.8759785 -1.7177725 4288085770
6.1695786 6.0616093 -1.6946592 4288085770
2.0812225 3.670258 -1.7443364 4288085770
0.95650482 3.0122309 -1.7491299 4288085770
9.8141174 8.1219969 -1.7206424 4288085770
2.0557022 3.6191547 -1.7460614 4288085770
0.94595337 2.9741697 -1.74958 4288085770
6.038414 5.9151082 -1.6953527 4288085770
2.0261612 3.566011 -1.7448469 4288085770
0.93439484 2.9361043 -1.750041 4288085770
5.9082413 5.7695909 -1.6940269 4288085770
2.0136414 3.5219698 -1.7483711 4288085770
0.93887329 2.9051294 -1.754269 4288085770
5.8120575 5.6452446 -1.6981525 4288085770
1.97509 3.4627578 -1.743306 4288085770
0.92732239 2.8650441 -1.7527475 4288085770
5.7198486 5.5228949 -1.700218 4288085770
10.448174 8.14814 -1.7176669 4288085770
1.9565735 3.4146681 -1.7439297 4288085770
0.92778778 2.8320372 -1.755036 4288085770
5.6286316 5.4025474 -1.7022552 4288085770
10.152382 7.8809829 -1.7121797 4288085770
1.9430542 3.3685956 -1.7444825 4288085770
0.93328857 2.8000543 -1.7582619 4288085770
5.5594177 5.2943044 -1.7069516 4288085770
9.8335724 7.6057019 -1.7020093 4288085770
1.9215317 3.317467 -1.7421649 4288085770
0.9257431 2.7609732 -1.7556891 4288085770
5.482193 5.1820049 -1.7087687 4288085770
9.6866302 7.4251952 -1.7091725 4288085770
1.90802 3.2703838 -1.7417264 4288085770
0.94626617 2.7360766 -1.7626929 4288085770
1.903511 3.2273407 -1.7421565 4288085770
5.4189453 5.0777626 -1.7113658 4288085770
9.5206909 7.2365952 -1.7136095 4288085770
0.95376587 2.7040913 -1.7648977 4288085770
1.906044 3.1873469 -1.7454852 4288085770
5.3677139 4.9795799 -1.7157818 4288085770
9.3037567 7.0217285 -1.7088208 4288085770
0.94018555 2.6619534 -1.7584157 4288085770
1.8905258 3.1382289 -1.7420859 4288085770
5.3344727 4.8924847 -1.7229087 4288085770
9.095787 6.8148842 -1.7028655 4288085770
-0.24207306 2.0278604 -1.7816125 4288085770
0.95672607 2.6330152 -1.7624975 4288085770
-0.19007874 2.0480256 -1.7798808 4288085770
1.8820038 3.0931442 -1.7395767 4288085770
-0.13506317 2.0692186 -1.7801081 4288085770
8.9127884 6.6231527 -1.6995109 4288085770
5.2752228 4.7902374 -1.7234457 4288085770
-0.070014954 2.0944724 -1.7831929 4288085770
-0.0099945068 2.1166723 -1.7823581 4288085770
0.96523285 2.6000221 -1.7637006 4288085770
1.8935471 3.0561888 -1.7437826 4288085770
0.055046082 2.1398983 -1.7824608 4288085770
8.7567444 6.4475231 -1.6967274 4288085770
0.11707306 2.1621044 -1.7816044 4288085770
5.2289505 4.6970525 -1.7257645 4288085770
0.1811142 2.1822982 -1.7787445 4288085770
0.077278137 2.1298916 -1.775313 4288085770
0.12717438 2.1540556 -1.7735679 4288085770
0.035369873 2.1087632 -1.7779461 4288085770
-0.0045166016 2.0886512 -1.7815492 4288085770
0.1740799 2.1762004 -1.7708726 4288085770
-0.061454773 2.0593982 -1.7764133 4288085770
0.98072815 2.5710626 -1.7657934 4288085770
0.23202515 2.2024078 -1.7710241 4288085770
-0.10233307 2.0372627 -1.7780446 4288085770
0.28095245 2.2235484 -1.7673161 4288085770
1.9070663 3.0202234 -1.7459586 4288085770
-0.13117218 2.0191944 -1.7825121 4288085770
0.24615479 2.2035046 -1.7768649 4288085770
0.33688354 2.2477217 -1.7645069 4288085770
-0.18008423 1.9919765 -1.7782732 4288085770
0.40283203 2.2759562 -1.7645555 4288085770
-0.21794128 1.9688306 -1.7778811 4288085770
0.47581482 2.3062313 -1.7665112 4288085770
8.6387024 6.2910705 -1.6983701 4288085770
5.1847 4.6028738 -1.7280706 4288085770
0.31920624 2.2277472 -1.7758734 4288085770
-0.24780273 1.9497309 -1.7793683 4288085770
0.54377747 2.333462 -1.765547 4288085770
0.62176514 2.3647449 -1.7664406 4288085770
0.39027405 2.2489719 -1.7739297 4288085770
0.98926544 2.5360591 -1.766014 4288085770
0.68872833 2.388943 -1.7625139 4288085770
1.9145966 2.9802277 -1.747234 4288085770
0.76270294 2.4161742 -1.7594857 4288085770
0.45731354 2.2681572 -1.7690464 4288085770
8.5216064 6.1386037 -1.6979672 4288085770
5.1324234 4.5076418 -1.7274714 4288085770
0.84468842 2.4464512 -1.7583456 4288085770
0.53839111 2.2924249 -1.7679695 4288085770
0.92868042 2.4767339 -1.7571839 4288085770
1.0007477 2.5040591 -1.7651763 4288085770
1.9281235 2.9432514 -1.7484188 4288085770
1.0126648 2.5059991 -1.7540313 4288085770
0.63550568 2.323802 -1.7726593 4288085770
1.1056595 2.5383127 -1.752756 4288085770
8.4195175 5.9931965 -1.6983423 4288085770
5.1011353 4.4225082 -1.7295598 4288085770
0.71154785 2.3440073 -1.7666714 4288085770
1.1966629 2.5686095 -1.7505196 4288085770
1.0172729 2.4730921 -1.7662759 4288085770
1.9436493 2.9072919 -1.7505735 4288085770
1.3076859 2.6070104 -1.751999 4288085770
0.80766296 2.3723528 -1.7683985 4288085770
1.4137039 2.6423762 -1.7515583 4288085770
8.3133926 5.8487487 -1.6957518 4288085770
5.0678329 4.336349 -1.7296782 4288085770
0.89572144 2.3966262 -1.7652469 4288085770
1.5187225 2.67471 -1.7481549 4288085770
1.9501648 2.8652644 -1.7488774 4288085770
1.0438156 2.447196 -1.7712246 4288085770
0.98682404 2.4199178 -1.7630718 4288085770
1.6317444 2.7100899 -1.7466394 4288085770
8.2572632 5.7265449 -1.7004327 4288085770
1.082901 2.4452178 -1.7598258 4288085770
5.0555649 4.2593083 -1.7344929 4288085770
1.7497559 2.7474871 -1.7450529 4288085770
1.9727173 2.831337 -1.7519397 4288085770
1.8797913 2.7879331 -1.7443118 4288085770
1.0623322 2.4162266 -1.7713033 4288085770
1.1840057 2.4705422 -1.7575264 4288085770
2.000824 2.8223217 -1.7407199 4288085770
8.192131 5.601274 -1.7012367 4288085770
5.053299 4.1862993 -1.7391653 4288085770
1.2971344 2.4999259 -1.7570634 4288085770
2.1388474 2.8637955 -1.7398846 4288085770
2.0022583 2.7994335 -1.7549094 4288085770
1.0768585 2.3832347 -1.7704422 4288085770
1.4112396 2.529314 -1.7565898 4288085770
2.2899017 2.9083302 -1.7408838 4288085770
8.122963 5.4759808 -1.7010834 4288085770
5.0480118 4.1122723 -1.7428789 4288085770
1.5333633 2.5597277 -1.7560219 4288085770
2.4379349 2.9508195 -1.7379332 4288085770
2.0217972 2.7634776 -1.7560215 4288085770
1.1023788 2.3553076 -1.7724196 4288085770
1.6554794 2.5901425 -1.7554539 4288085770
2.5889664 2.9923182 -1.7349591 4288085770
8.0708008 5.3577542 -1.701687 4288085770
5.0607224 4.0473342 -1.7493207 4288085770
2.7640152 3.0429361 -1.7356493 4288085770
1.7766113 2.6165249 -1.7519321 4288085770
2.0473328 2.7285416 -1.7570606 4288085770
1.1239166 2.3243473 -1.7724661 4288085770
2.951088 3.095612 -1.7381936 4288085770
1.9207535 2.6520414 -1.7540852 4288085770
8.0416183 5.2506251 -1.703948 4288085770
5.0604248 3.9753153 -1.7519636 4288085770
3.1511307 3.1523328 -1.740564 4288085770
2.0748672 2.6946123 -1.7580695 4288085770
2.0488663 2.6794388 -1.74948 4288085770
1.1584702 2.2984679 -1.7763293 4288085770
3.3421783 3.2029867 -1.7390836 4288085770
2.1959991 2.7129383 -1.7486187 4288085770
8.0384445 5.1536207 -1.7098429 4288085770
5.0611343 3.9032993 -1.7545956 4288085770
2.108429 2.6617208 -1.7610054 4288085770
3.5592346 3.2617652 -1.7412547 4288085770
1.1679611 2.2624128 -1.7705487 4288085770
2.3501511 2.7464693 -1.7486827 4288085770
3.8023071 3.3286605 -1.7460774 4288085770
8.0032272 5.0454359 -1.7081772 4288085770
5.0568085 3.8302391 -1.7542901 4288085770
2.5133133 2.7820315 -1.7486329 4288085770
2.1419754 2.6288118 -1.7619417 4288085770
4.0323486 3.3874559 -1.7451103 4288085770
1.1985016 2.2345023 -1.7724726 4288085770
2.6674347 2.8125267 -1.7447237 4288085770
8.0050201 4.9514313 -1.7119927 4288085770
4.270401 3.446279 -1.7440577 4288085770
5.0555038 3.7581983 -1.7549437 4288085770
2.1705093 2.5928671 -1.7609577 4288085770
2.8466034 2.850152 -1.7454853 4288085770
1.2390594 2.2096429 -1.776263 4288085770
4.5514603 3.5203052 -1.7484133 4288085770
8.0047989 4.8574023 -1.7138298 4288085770
5.0611725 3.6891813 -1.7554964 4288085770
3.0327454 2.8898025 -1.7461549 4288085770
2.2030487 2.5589461 -1.7609135 4288085770
4.8235016 3.5862541 -1.7479361 4288085770
1.2766113 2.1837645 -1.7790946 4288085770
3.2249222 2.9274716 -1.7467779 4288085770
5.1045303 3.6542342 -1.747345 4288085770
8.0115662 4.7653975 -1.7155745 4288085770
5.0668488 3.6191554 -1.7550577 4288085770
2.2586136 2.5331571 -1.7665528 4288085770
3.415062 2.9631083 -1.7444402 4288085770
5.399559 3.7222528 -1.7456049 4288085770
1.3171692 2.1578958 -1.781894 4288085770
8.0403442 4.6824942 -1.7200048 4288085770
5.7075958 3.7923164 -1.7437083 4288085770
5.0755234 3.5511398 -1.7545695 4288085770
3.6402512 3.008918 -1.7476404 4288085770
2.3031769 2.5022945 -1.7683541 4288085770
1.3426743 2.1259134 -1.777907 4288085770
6.014595 3.8583403 -1.7378579 4288085770
3.8594208 3.0486712 -1.7469578 4288085770
8.0761108 4.5996065 -1.7233607 4288085770
5.0981903 3.4881895 -1.7558879 4288085770
2.3477097 2.4714227 -1.769155 4288085770
6.3516006 3.9314849 -1.7336257 4288085770
1.3852081 2.1010525 -1.7806764 4288085770
4.0946045 3.0925059 -1.7490689 4288085770
8.11586 4.5207338 -1.7266386 4288085770
6.7155991 4.0107417 -1.7310525 4288085770
2.3962479 2.4405649 -1.7699138 4288085770
5.1038589 3.4181445 -1.7534496 4288085770
4.3257675 3.1322911 -1.7472584 4288085770
1.4287643 2.0741847 -1.7824528 4288085770
7.089592 4.0880046 -1.7253902 4288085770
4.5789337 3.1771705 -1.7471689 4288085770
8.1315765 4.4317236 -1.7242614 4288085770
2.4457932 2.4097102 -1.7706616 4288085770
5.1175003 3.3521283 -1.7508906 4288085770
7.513588 4.1794949 -1.7250706 4288085770
1.47332 2.0483212 -1.7842098 4288085770
4.8431168 3.221096 -1.7479707 4288085770
8.1633072 4.3487864 -1.7236605 4288085770
2.4973297 2.379863 -1.7713795 4288085770
7.9365616 4.264936 -1.719815 4288085770
5.1541519 3.2942266 -1.7520156 4288085770
5.1032715 3.2619715 -1.7448422 4288085770
1.5148544 2.0204289 -1.7840167 4288085770
8.3255157 4.3331876 -1.7070729 4288085770
8.2530365 4.2851219 -1.7302724 4288085770
2.5628967 2.3530898 -1.7749212 4288085770
5.3634415 3.2978373 -1.7407577 4288085770
5.1888046 3.2343094 -1.7521795 4288085770
8.888504 4.4552288 -1.7130048 4288085770
1.556366 1.992529 -1.7828236 4288085770
5.6556091 3.3428414 -1.7392523 4288085770
2.6104126 2.3202014 -1.7727083 4288085770
8.3477631 4.2214646 -1.7358311 4288085770
5.2464752 3.182507 -1.7560272 4288085770
9.432457 4.5641413 -1.7122551 4288085770
-0.24510956 1.3630803 -1.788565 4288085770
1.6149216 1.9697315 -1.7864047 4288085770
-0.17707062 1.3803368 -1.7906886 4288085770
5.9698029 3.3899384 -1.7394943 4288085770
-0.1896286 1.3725808 -1.8238944 4288085770
-0.22905731 1.3590444 -1.7794294 4288085770
-0.16506195 1.3793097 -1.7835697 4288085770
-0.11302948 1.3945411 -1.7888819 4288085770
-0.11212158 1.3944641 -1.7798719 4288085770
-0.05317688 1.4126676 -1.7790836 4288085770
9.9883957 4.6710591 -1.7073953 4288085770
0.013809204 1.4319147 -1.7802008 4288085770
2.6789627 2.2934306 -1.7752182 4288085770
0.077774048 1.4501338 -1.779359 4288085770
-0.053031921 1.4077066 -1.7841269 4288085770
8.4404831 4.1567831 -1.7394204 4288085770
0.14775848 1.4703913 -1.7804354 4288085770
5.2891235 3.1246173 -1.7560881 4288085770
0.21875763 1.4886322 -1.7795188 4288085770
0.01600647 1.4229283 -1.7822578 4288085770
0.29475403 1.5089086 -1.7805309 4288085770
6.2839737 3.4320076 -1.7367808 4288085770
0.086036682 1.4381541 -1.7803782 4288085770
0.37071991 1.5291591 -1.7785435 4288085770
1.6644516 1.942867 -1.7861174 4288085770
0.45174408 1.5494514 -1.7795023 4288085770
10.594322 4.7851663 -1.7039403 4288085770
0.16812897 1.4554548 -1.7823522 4288085770
0.53674316 1.5707492 -1.7794096 4288085770
2.7485123 2.2656536 -1.7767265 4288085770
0.62676239 1.5930723 -1.7802546 4288085770
0.25519562 1.4747745 -1.7842555 4288085770
8.5411911 4.0931387 -1.7439153 4288085770
6.6581955 3.489356 -1.7412941 4288085770
0.71076202 1.6123384 -1.7771906 4288085770
5.3647842 3.0768859 -1.7607086 4288085770
0.33325958 1.4900261 -1.7822903 4288085770
0.81078339 1.636705 -1.7789112 4288085770
11.304222 4.9236884 -1.7051634 4288085770
1.723999 1.9190644 -1.7886968 4288085770
0.42635345 1.5093738 -1.7851294 4288085770
0.91282654 1.6600771 -1.7806193 4288085770
1.0188599 1.6844543 -1.7812759 4288085770
0.50839996 1.5246203 -1.7811217 4288085770
2.8260574 2.2409227 -1.7801226 4288085770
7.025383 3.5396347 -1.7409443 4288085770
8.6688995 4.0365958 -1.7490604 4288085770
1.1238861 1.7068089 -1.7799609 4288085770
11.986122 5.0460501 -1.6998273 4288085770
5.4234314 3.0230608 -1.7615635 4288085770
0.60852814 1.544 -1.7848859 4288085770
1.2359161 1.7311972 -1.7795535 4288085770
1.7785187 1.8932173 -1.7883474 4288085770
0.7006073 1.5602977 -1.7827624 4288085770
1.3449402 1.7535567 -1.7771959 4288085770
7.4155807 3.5930121 -1.7423226 4288085770
2.8935852 2.2111213 -1.7796699 4288085770
0.80368042 1.5796527 -1.7824949 4288085770
12.714973 5.1725545 -1.6919546 4288085770
1.4700012 1.7789967 -1.7776409 4288085770
8.808609 3.9811034 -1.7550685 4288085770
5.4920578 2.9712694 -1.7622943 4288085770
1.605072 1.8074991 -1.7809525 4288085770
0.90879822 1.5980213 -1.7832149 4288085770
1.8290405 1.8653476 -1.7870586 4288085770
7.8197708 3.6434174 -1.7415782 4288085770
1.7381287 1.8329571 -1.7803119 4288085770
1.0178986 1.6163952 -1.7828922 4288085770
13.503822 5.3082767 -1.6843624 4288085770
2.970108 2.1833599 -1.7801036 4288085770
1.8771667 1.8604366 -1.77959 4288085770
1.1300125 1.6347877 -1.7835374 4288085770
8.9593124 3.9286585 -1.7619331 4288085770
2.0092087 1.8838642 -1.7759783 4288085770
5.569725 2.9205265 -1.7649201 4288085770
8.239975 3.6958976 -1.7426454 4288085770
1.2511292 1.6552114 -1.7840688 4288085770
1.8925781 1.8405498 -1.7886041 4288085770
14.38662 5.4623599 -1.6796085 4288085770
2.1622772 1.9123994 -1.776098 4288085770
1.3712463 1.6736214 -1.7836287 4288085770
3.0746841 2.1627486 -1.7861762 4288085770
2.3213501 1.9409555 -1.7761536 4288085770
9.1250153 3.877265 -1.7686288 4288085770
8.721199 3.7576232 -1.7469821 4288085770
1.4933548 1.6920303 -1.7821674 4288085770
15.372429 5.6338429 -1.6786056 4288085770
5.6623688 2.8748453 -1.7683417 4288085770
2.4884262 1.9705385 -1.7761151 4288085770
1.964119 1.8177888 -1.7910469 4288085770
1.6224747 1.7104616 -1.7806312 4288085770
2.6594925 1.9991256 -1.7750427 4288085770
3.1652298 2.1370533 -1.7884429 4288085770
9.2144165 3.8173809 -1.7502087 4288085770
15.649055 5.5979118 -1.6919848 4288085770
9.2826843 3.8228078 -1.7714367 4288085770
1.7706223 1.7329946 -1.7828567 4288085770
2.8405609 2.0297472 -1.773846 4288085770
5.7449951 2.8251023 -1.7689056 4288085770
2.0256119 1.791958 -1.7896231 4288085770
3.0516739 2.0665171 -1.777276 4288085770
1.9197845 1.7535211 -1.7840892 4288085770
9.7606354 3.8853488 -1.7557991 4288085770
3.26577 2.1134024 -1.791585 4288085770
3.2637787 2.1012809 -1.7797128 4288085770
2.0659103 1.7740296 -1.784354 4288085770
15.556122 5.4255576 -1.6955035 4288085770
9.458374 3.7714398 -1.7770259 4288085770
5.8266068 2.7743475 -1.7684892 4288085770
2.0931396 1.7661558 -1.7891352 4288085770
3.4838715 2.137063 -1.7810557 4288085770
2.2160416 1.7925231 -1.781594 4288085770
10.281837 3.9391758 -1.7557803 4288085770
3.3692932 2.0897527 -1.7936954 4288085770
3.7179794 2.1739025 -1.7832404 4288085770
2.3601608 1.8079784 -1.7769246 4288085770
15.481178 5.2582645 -1.6987861 4288085770
9.6370316 3.7190561 -1.7795925 4288085770
5.9282303 2.7276797 -1.7698241 4288085770
3.965065 2.2127771 -1.7842689 4288085770
2.1666565 1.7423846 -1.7895658 4288085770
10.913094 4.0144811 -1.7654018 4288085770
2.5383301 1.8306128 -1.7788299 4288085770
3.4648209 2.0620573 -1.7939267 4288085770
4.2141724 2.2486494 -1.7843025 4288085770
2.713501 1.8512186 -1.7787852 4288085770
15.469193 5.110218 -1.7042289 4288085770
9.8006821 3.6595926 -1.779381 4288085770
4.5173111 2.2967796 -1.7916533 4288085770
6.0368576 2.6820447 -1.7720754 4288085770
11.524323 4.0746455 -1.7673699 4288085770
2.2341614 1.7145644 -1.7870959 4288085770
2.892662 1.8708293 -1.7777069 4288085770
3.5663147 2.0363736 -1.7930765 4288085770
4.8344727 2.3449667 -1.7998549 4288085770
15.450203 4.9621372 -1.7087463 4288085770
3.0828094 1.8914776 -1.7765023 4288085770
10.037354 3.6174543 -1.7862403 4288085770
12.092522 4.117589 -1.7619478 4288085770
2.3106613 1.6897945 -1.7865033 4288085770
5.141571 2.3880563 -1.8012078 4288085770
6.1374664 2.6333561 -1.771439 4288085770
3.7008896 2.0158758 -1.7998291 4288085770
3.3010178 1.9162668 -1.7799631 4288085770
5.431633 2.4240246 -1.7958044 4288085770
12.615715 4.1412959 -1.7481741 4288085770
10.286011 3.5753474 -1.7919718 4288085770
15.442177 4.8150768 -1.7111381 4288085770
3.5292206 1.9420995 -1.7843084 4288085770
2.3971863 1.6660767 -1.7877952 4288085770
6.263092 2.5887794 -1.7735002 4288085770
5.736702 2.460043 -1.7902412 4288085770
3.8174057 1.990253 -1.7998189 4288085770
3.7614212 1.9649181 -1.7856379 4288085770
6.0467606 2.493052 -1.7816515 4288085770
13.139908 4.1569877 -1.7324607 4288085770
10.525658 3.5271742 -1.7938527 4288085770
15.436111 4.6720066 -1.7114733 4288085770
2.4716568 1.6392733 -1.784242 4288085770
6.3937073 2.5442123 -1.7745082 4288085770
4.0296783 1.9949237 -1.7935208 4288085770
6.3547897 2.5240269 -1.770101 4288085770
3.9539261 1.9687271 -1.8025599 4288085770
13.763138 4.1891017 -1.7245494 4288085770
4.2678528 2.0147359 -1.791813 4288085770
6.7038498 2.560179 -1.7620686 4288085770
10.755272 3.4749396 -1.7928761 4288085770
15.490067 4.5411887 -1.7160624 4288085770
2.5761948 1.6186447 -1.7883152 4288085770
6.5233002 2.4986229 -1.7735361 4288085770
4.0954514 1.9462175 -1.8052562 4288085770
4.5791321 2.0489163 -1.8022019 4288085770
7.0819168 2.5994399 -1.7547005 4288085770
14.390358 4.2131944 -1.7126666 4288085770
11.019897 3.4268441 -1.7934905 4288085770
2.6807098 1.5969995 -1.7903974 4288085770
15.575996 4.4164791 -1.7202575 4288085770
4.874382 2.0749869 -1.8068326 4288085770
7.510994 2.6459122 -1.7507262 4288085770
6.666893 2.4551005 -1.7743969 4288085770
4.226944 1.9216483 -1.8050774 4288085770
15.101608 4.2466302 -1.705808 4288085770
5.2016373 2.1061954 -1.8140775 4288085770
7.9640732 2.6924672 -1.746496 4288085770
2.7771912 1.5732996 -1.7895831 4288085770
11.292503 3.3777583 -1.7920289 4288085770
4.4155045 1.9073738 -1.8152014 4288085770
6.8195038 2.410609 -1.7751707 4288085770
5.4858398 2.1231554 -1.8109057 4288085770
8.5032043 2.7523909 -1.7492331 4288085770
2.8786697 1.5486081 -1.7877243 4288085770
11.579094 3.3297307 -1.7914093 4288085770
9.0192719 2.8031628 -1.7442955 4288085770
5.7890472 2.1411815 -1.8075224 4288085770
4.5840225 1.8869684 -1.8185922 4288085770
6.9790878 2.3671336 -1.774861 4288085770
9.6584015 2.8714581 -1.7488953 4288085770
6.0581818 2.1500092 -1.7955822 4288085770
2.9841614 1.5239393 -1.7868228 4288085770
11.861671 3.2776527 -1.786868 4288085770
4.7755585 1.8686683 -1.82472 4288085770
7.1496735 2.3236959 -1.7744342 4288085770
10.339531 2.9408977 -1.7530382 4288085770
6.3633575 2.1619964 -1.7872311 4288085770
3.1106644 1.5033798 -1.7896619 4288085770
12.134216 3.2184954 -1.7774959 4288085770
11.082642 3.0165615 -1.7574669 4288085770
4.9610596 1.8483131 -1.8269299 4288085770
6.7135773 2.1791923 -1.7843555 4288085770
7.3522644 2.2854054 -1.7776217 4288085770
11.91378 3.0995634 -1.7648951 4288085770
3.2251205 1.4797338 -1.7876558 4288085770
7.0567856 2.1903193 -1.776608 4288085770
5.1435318 1.8259299 -1.8271898 4288085770
12.392723 3.1562455 -1.7633001 4288085770
7.5588531 2.2441106 -1.7787932 4288085770
12.556755 3.1386373 -1.743711 4288085770
7.4330063 2.2035861 -1.7714907 4288085770
3.3676376 1.4592391 -1.7913241 4288085770
5.350029 1.8046464 -1.8291847 4288085770
12.696243 3.0971875 -1.7525976 4288085770
13.303772 3.1901426 -1.729311 4288085770
7.8702698 2.2241178 -1.7716604 4288085770
7.799469 2.2079687 -1.7835578 4288085770
0.79255676 0.96801805 -1.7920645 4288085770
3.5071106 1.4377069 -1.7920337 4288085770
0.88347626 0.98330492 -1.7879617 4288085770
0.99445343 1.0017241 -1.7906187 4288085770
1.105423 1.0191154 -1.7902845 4288085770
1.2213974 1.037542 -1.791888 4288085770
5.5294495 1.7792093 -1.8245037 4288085770
1.3403625 1.0559608 -1.7914598 4288085770
14.235817 3.2643857 -1.723743 4288085770
1.4663391 1.0744028 -1.7909567 4288085770
8.3285522 2.2417207 -1.7716327 4288085770
1.5772705 1.0897386 -1.7846407 4288085770
13.086784 3.0514829 -1.7468519 4288085770
0.84779358 0.9632203 -1.7945207 4288085770
1.7263031 1.1103036 -1.7888741 4288085770
0.95579529 0.97759932 -1.7942449 4288085770
1.8742981 1.1308383 -1.7901186 4288085770
8.0490646 2.1698403 -1.7862443 4288085770
1.0748444 0.99204075 -1.7968514 4288085770
2.0132828 1.1483057 -1.7874858 4288085770
1.1948853 1.0064683 -1.7974474 4288085770
2.1592484 1.1667876 -1.7837696 4288085770
3.6615906 1.4172451 -1.7945745 4288085770
15.26387 3.3429768 -1.7191157 4288085770
5.7128601 1.7507664 -1.8178067 4288085770
2.3242645 1.187371 -1.7838327 4288085770
1.3259354 1.0219516 -1.799917 4288085770
8.8028336 2.25737 -1.7704523 4288085770
1.4499664 1.0353739 -1.7984793 4288085770
2.4882507 1.2059226 -1.7809244 4288085770
13.579338 3.0181942 -1.746912 4288085770
2.6742783 1.2275866 -1.7817547 4288085770
1.5729752 1.0477746 -1.7950615 4288085770
8.3086472 2.1317468 -1.7888242 4288085770
2.8622818 1.2492391 -1.7805638 4288085770
1.7030029 1.0601991 -1.7915684 4288085770
3.8250885 1.3968234 -1.7980189 4288085770
9.3971939 2.2865498 -1.780876 4288085770
3.0643158 1.2709478 -1.7802234 4288085770
1.8620911 1.0767946 -1.7957305 4288085770
5.9192963 1.7254314 -1.8138378 4288085770
3.2813568 1.2947268 -1.7817051 4288085770
1.9981155 1.088221 -1.7901828 4288085770
14.073883 2.9778676 -1.7420135 4288085770
3.5154114 1.3185627 -1.7830056 4288085770
2.1822357 1.1069295 -1.79706 4288085770
8.6142654 2.0968478 -1.7948868 4288085770
9.9824982 2.307627 -1.7834674 4288085770
3.7634735 1.3434474 -1.7841479 4288085770
3.9795227 1.3743266 -1.7965778 4288085770
2.3352814 1.1184226 -1.7923309 4288085770
6.1507187 1.7031918 -1.8105758 4288085770
4.0315475 1.3694178 -1.7870678 4288085770
2.4903107 1.1299131 -1.7865806 4288085770
4.2925873 1.3933293 -1.7860806 4288085770
14.665421 2.9479299 -1.7419916 4288085770
2.6734009 1.143553 -1.7865131 4288085770
10.598854 2.3248186 -1.7867635 4288085770
4.599678 1.4214427 -1.7895666 4288085770
4.1670074 1.3549889 -1.7997578 4288085770
8.9288712 2.0599625 -1.7988715 4288085770
2.8795166 1.1602999 -1.7891737 4288085770
6.3911285 1.6789745 -1.8062356 4288085770
4.9568176 1.4557917 -1.799466 4288085770
3.0705872 1.1729406 -1.7860302 4288085770
5.3089218 1.4860687 -1.8034548 4288085770
11.2742 2.3452327 -1.7914039 4288085770
15.277954 2.9150476 -1.7397729 4288085770
3.2726746 1.1856279 -1.7837692 4288085770
4.3424606 1.3315732 -1.7991015 4288085770
6.6545563 1.656855 -1.8036324 4288085770
5.6489868 1.5122502 -1.8016071 4288085770
9.2924805 2.0282829 -1.8062892 4288085770
3.5078125 1.2014732 -1.7861295 4288085770
0.91803741 0.83228678 -1.791942 4288085770
6.0250549 1.5415829 -1.8023489 4288085770
11.921516 2.3524768 -1.7884583 4288085770
3.7519455 1.2163397 -1.7874026 4288085770
6.3690567 1.5626968 -1.7915037 4288085770
4.5569458 1.3133469 -1.8039848 4288085770
6.9459839 1.635841 -1.8017218 4288085770
4.0161057 1.231284 -1.7894623 4288085770
9.6650772 1.9916064 -1.8106554 4288085770
1.0074615 0.81861359 -1.7961142 4288085770
6.7921295 1.5921824 -1.7907447 4288085770
12.446739 2.335139 -1.7690279 4288085770
4.2892609 1.246268 -1.792426 4288085770
7.2331924 1.6207019 -1.7868023 4288085770
4.7503738 1.2899857 -1.8021369 4288085770
7.2754211 1.6169852 -1.8023881 4288085770
4.5653915 1.259217 -1.7903757 4288085770
1.0958481 0.8049199 -1.7982972 4288085770
10.028656 1.950864 -1.8111535 4288085770
7.7402954 1.654503 -1.7881117 4288085770
12.993965 2.3138487 -1.7463986 4288085770
4.8865891 1.2753843 -1.7948185 4288085770
8.3114243 1.6925513 -1.791703 4288085770
4.9738235 1.268764 -1.803951 4288085770
7.61483 1.5971382 -1.7999569 4288085770
1.1852264 0.79122132 -1.7994698 4288085770
5.2037277 1.2884922 -1.794331 4288085770
8.976593 1.7369868 -1.8012382 4288085770
10.472267 1.916461 -1.8177451 4288085770
13.758324 2.310487 -1.7413032 4288085770
5.5629349 1.3047893 -1.7983686 4288085770
1.2745895 0.77651364 -1.7996514 4288085770
5.212265 1.2495955 -1.8055878 4288085770
8.0212936 1.5835952 -1.8047576 4288085770
9.6897583 1.7815694 -1.8082618 4288085770
5.9271164 1.3170673 -1.7983885 4288085770
10.406876 1.822121 -1.8102788 4288085770
14.589699 2.307374 -1.7374933 4288085770
10.962898 1.8832473 -1.8268263 4288085770
1.369957 0.76182699 -1.799769 4288085770
6.2792511 1.3262588 -1.7935635 4288085770
5.4526901 1.2274157 -1.8052298 4288085770
8.450737 1.5681126 -1.8073312 4288085770
11.255051 1.8721963 -1.8188183 4288085770
6.6724167 1.3356098 -1.790301 4288085770
15.485092 2.3004911 -1.7340364 4288085770
1.4682999 0.74815202 -1.7998458 4288085770
11.469475 1.8470448 -1.8307643 4288085770
12.033073 1.9058416 -1.8072481 4288085770
