# .PCD v0.7 - Point Cloud Data file format
VERSION 0.7
FIELDS x y z rgb
SIZE 4 4 4 4
TYPE F F F U
COUNT 1 1 1 1
WIDTH 1120
HEIGHT 1
VIEWPOINT 0 0 0 1 0 0 0
POINTS 1120
DATA ascii
10.134186 6.8489838 -1.834548 4288085770
10.476257 7.1259832 -1.8433127 4288085770
10.786346 7.3829961 -1.8430135 4288085770
11.063446 7.6160192 -1.8336434 4288085770
11.37851 7.8770437 -1.8253543 4288085770
19.016846 -0.83739948 -1.7872193 4288085770
17.944946 -0.86644077 -1.7900772 4288085770
16.968048 -0.89047909 -1.7920401 4288085770
16.105133 -0.91251564 -1.7971232 4288085770
15.277222 -0.9295454 -1.7972493 4288085770
14.579285 -0.94558048 -1.8035104 4288085770
13.911407 -0.95761013 -1.8068082 4288085770
13.294525 -0.96763515 -1.8091612 4288085770
19.780609 -1.4594393 -1.7951512 4288085770
12.705597 -0.97366047 -1.8095484 4288085770
18.578674 -1.4394875 -1.8019438 4288085770
12.178711 -0.97968102 -1.8119993 4288085770
17.499725 -1.4185305 -1.8058648 4288085770
11.678772 -0.98370171 -1.8124814 4288085770
16.474884 -1.3955669 -1.8058443 4288085770
11.220886 -0.98572159 -1.8140087 4288085770
15.59494 -1.3745975 -1.8079693 4288085770
10.792969 -0.98774052 -1.8165672 4288085770
14.823029 -1.3576336 -1.8142004 4288085770
10.385071 -0.98675632 -1.8171508 4288085770
14.078156 -1.3366594 -1.814465 4288085770
10.00116 -0.98577309 -1.8177586 4288085770
13.406219 -1.3176861 -1.8168015 4288085770
9.6252747 -0.98178673 -1.8153789 4288085770
12.789337 -1.2987099 -1.8181949 4288085770
9.3033752 -0.97980309 -1.8180523 4288085770
12.214417 -1.27773 -1.8186338 4288085770
9.003479 -0.9788208 -1.8227465 4288085770
11.676514 -1.2577486 -1.8181098 4288085770
8.6935425 -0.97283363 -1.8214374 4288085770
11.210602 -1.2417727 -1.8226542 4288085770
8.3966675 -0.9658432 -1.820143 4288085770
10.749725 -1.2227888 -1.8222082 4288085770
8.1387634 -0.96185589 -1.8218851 4288085770
10.316833 -1.2028027 -1.820792 4288085770
7.882843 -0.95486832 -1.8226328 4288085770
9.9299011 -1.1858196 -1.8214188 4288085770
7.6359863 -0.94787979 -1.8213902 4288085770
9.5639954 -1.1678333 -1.8220687 4288085770
7.3940735 -0.93888474 -1.8191552 4288085770
9.2120972 -1.1488485 -1.8217344 4288085770
7.1791687 -0.93189716 -1.820945 4288085770
8.9012146 -1.132864 -1.8254383 4288085770
6.9542847 -0.92090034 -1.8157303 4288085770
8.609314 -1.1168785 -1.8271618 4288085770
6.7693481 -0.91391468 -1.819551 4288085770
8.3093872 -1.097887 -1.8238807 4288085770
6.5734253 -0.90492153 -1.8173633 4288085770
8.0234985 -1.0788918 -1.8206139 4288085770
6.3805542 -0.89392662 -1.8141811 4288085770
7.7695923 -1.0619059 -1.8213778 4288085770
6.2176514 -0.88593864 -1.8170261 4288085770
7.5186768 -1.0439129 -1.8191457 4288085770
6.0597229 -0.87795162 -1.8198762 4288085770
7.2838135 -1.0259209 -1.8179302 4288085770
5.8918457 -0.86595345 -1.8167212 4288085770
7.0618896 -1.0079288 -1.8167279 4288085770
5.7509155 -0.85796642 -1.8205886 4288085770
6.8499756 -0.99093628 -1.8155346 4288085770
5.5900269 -0.8449688 -1.8154423 4288085770
6.6510925 -0.97394276 -1.8143549 4288085770
5.4461365 -0.83397388 -1.8143108 4288085770
6.485199 -0.96095943 -1.8192031 4288085770
5.3202209 -0.8249855 -1.8161948 4288085770
6.2902832 -0.9419632 -1.8150301 4288085770
5.1923218 -0.81399059 -1.8170795 4288085770
6.1223755 -0.92596912 -1.8148806 4288085770
5.0644226 -0.80199623 -1.8159659 4288085770
5.9564819 -0.90897655 -1.8137343 4288085770
5.805603 -0.89298248 -1.8136024 4288085770
5.6566467 -0.87699223 -1.8134723 4288085770
5.50177 -0.85899162 -1.8083386 4288085770
5.3648682 -0.84299564 -1.8072209 4288085770
5.2459717 -0.82900715 -1.8101187 4288085770
5.1230774 -0.81301498 -1.8100154 4288085770
5.0011902 -0.79702091 -1.8099129 4288085770
5.096283 1.0815382 -1.7692914 4288085770
5.214386 1.0975361 -1.7684247 4288085770
5.3344727 1.1135368 -1.7655602 4288085770
5.4645691 1.1295328 -1.7647049 4288085770
5.6006775 1.1465321 -1.7628572 4288085770
5.7747803 1.1695204 -1.7710533 4288085770
5.9188538 1.1855164 -1.7692115 4288085770
5.0389099 1.0475073 -1.7751832 4288085770
6.0639648 1.2005186 -1.7643695 4288085770
5.1660156 1.0605021 -1.7763216 4288085770
6.2390747 1.2195148 -1.7665617 4288085770
5.2851257 1.0705032 -1.7734487 4288085770
6.4281616 1.2405043 -1.7707696 4288085770
5.4092407 1.0795031 -1.7705791 4288085770
6.6032715 1.256505 -1.7679579 4288085770
5.544342 1.0905008 -1.7697227 4288085770
6.7863464 1.2725048 -1.7651539 4288085770
5.6813965 1.1005001 -1.7678668 4288085770
6.9984741 1.2924967 -1.7673829 4288085770
5.8235168 1.109498 -1.7660148 4288085770
7.2255859 1.3134899 -1.7706275 4288085770
5.9976196 1.1234875 -1.7711999 4288085770
7.455658 1.3334837 -1.7728736 4288085770
6.1557007 1.1334839 -1.770364 4288085770
7.6947632 1.3534784 -1.7731283 4288085770
6.3198242 1.1424828 -1.7695332 4288085770
7.9398499 1.3714771 -1.7713861 4288085770
6.5109253 1.1544743 -1.7727318 4288085770
8.2559509 1.3984613 -1.7817242 4288085770
6.7030029 1.1654701 -1.7739305 4288085770
8.5820618 1.4254456 -1.7910717 4288085770
6.8840942 1.1724672 -1.7711134 4288085770
8.8701172 1.4434452 -1.7883711 4288085770
7.1221924 1.1864548 -1.7793601 4288085770
9.1722717 1.4614449 -1.7856839 4288085770
7.3182983 1.1934538 -1.7755573 4288085770
9.4843445 1.478447 -1.7810051 4288085770
7.5653992 1.204443 -1.7808087 4288085770
9.7724609 1.4884558 -1.7682943 4288085770
7.7764893 1.2084475 -1.7760167 4288085770
10.025543 1.491477 -1.7465415 4288085770
8.0265808 1.2164412 -1.7762675 4288085770
10.518646 1.5244551 -1.7610576 4288085770
8.2756958 1.2214394 -1.7745137 4288085770
10.977753 1.5494471 -1.7645302 4288085770
8.592804 1.233428 -1.7828341 4288085770
11.288879 1.5504694 -1.7418308 4288085770
8.9018555 1.2414179 -1.7871416 4288085770
11.971954 1.5964355 -1.7675457 4288085770
9.2290039 1.2484093 -1.7914655 4288085770
12.609039 1.6314144 -1.7802029 4288085770
9.5210876 1.2484112 -1.7857468 4288085770
13.227142 1.6574049 -1.7838304 4288085770
9.8111877 1.2444162 -1.7760212 4288085770
13.834259 1.6774063 -1.77844 4288085770
10.073303 1.2364311 -1.7592638 4288085770
14.526337 1.7013998 -1.7781363 4288085770
10.414398 1.2324343 -1.7525876 4288085770
15.296417 1.7263956 -1.7779088 4288085770
10.829529 1.2334299 -1.753989 4288085770
16.09552 1.7473955 -1.7727048 4288085770
11.238617 1.2294273 -1.7503784 4288085770
16.933655 1.7644014 -1.7635334 4288085770
11.83667 1.2413998 -1.7709699 4288085770
17.877747 1.7844028 -1.7554681 4288085770
12.437775 1.2463751 -1.7855556 4288085770
18.886841 1.8014107 -1.7434618 4288085770
13.01886 1.2453642 -1.792115 4288085770
13.569977 1.2353611 -1.789634 4288085770
14.24408 1.2293453 -1.796277 4288085770
14.973145 1.2203331 -1.8019695 4288085770
15.68222 1.2023344 -1.7986317 4288085770
16.462341 1.1823301 -1.79636 4288085770
17.323456 1.1583242 -1.7951615 4288085770
18.24353 1.1303196 -1.7930155 4288085770
19.158661 1.0903263 -1.77985 4288085770
11.166077 -7.9370337 -1.6363394 4293729569
10.766174 -7.6520433 -1.6462617 4293729569
10.390259 -7.381053 -1.6541924 4293729569
10.030365 -7.1190577 -1.6601286 4293729569
9.6875 -6.8660593 -1.6640713 4293729569
9.3215942 -6.5950518 -1.6580112 4293729569
9.002655 -6.3550501 -1.6559629 4293729569
8.7077637 -6.1310492 -1.6549203 4293729569
8.4248962 -5.9140463 -1.6518817 4293729569
8.2099915 -5.7420511 -1.6568594 4293729569
11.572998 -7.9130793 -1.6347349 4293729569
8.0110474 -5.5810595 -1.6628411 4293729569
11.203125 -7.6240854 -1.6426892 4293729569
7.8591614 -5.4510756 -1.6758339 4293729569
10.891205 -7.3720961 -1.6546593 4293729569
7.6912537 -5.3080835 -1.6818259 4293729569
10.585266 -7.1251078 -1.6636295 4293729569
7.5343323 -5.1720915 -1.6878202 4293729569
10.280396 -6.8771086 -1.6676018 4293729569
7.4094543 -5.0571032 -1.6988227 4293729569
9.89151 -6.5750933 -1.6545522 4293729569
7.2685242 -4.930109 -1.7028224 4293729569
9.6395874 -6.3630991 -1.6585364 4293729569
7.1256409 -4.8021135 -1.7048218 4293729569
9.3717041 -6.1421003 -1.6565154 4293729569
7.0057373 -4.6881199 -1.7098279 4293729569
9.1348267 -5.9420958 -1.6555011 4293729569
6.8988342 -4.5821295 -1.7168379 4293729569
8.9249268 -5.759099 -1.6574945 4293729569
6.7939148 -4.4771357 -1.7208481 4293729569
8.7090149 -5.5720987 -1.6554863 4293729569
6.6800232 -4.3661366 -1.7208564 4293729569
8.571106 -5.435111 -1.6634986 4293729569
6.5941162 -4.2721481 -1.7268732 4293729569
8.4492188 -5.3091192 -1.6725147 4293729569
6.4822083 -4.163146 -1.7238812 4293729569
7.7194214 -4.8090029 -1.5613549 4293729569
6.4363098 -4.0931625 -1.7359102 4293729569
7.7235107 -4.7620344 -1.5894055 4293729569
6.4173889 -4.0401831 -1.754946 4293729569
7.7185669 -4.7090626 -1.6144538 4293729569
6.4844666 -4.0402288 -1.7940071 4293729569
7.7186584 -4.6580906 -1.6395049 4293729569
6.5645142 -4.0452776 -1.8370745 4288085770
7.7136841 -4.6031189 -1.6625552 4293729569
6.680542 -4.069334 -1.8881555 4288085770
7.6837769 -4.5331411 -1.6785979 4293729569
6.6906433 -4.0293589 -1.9102044 4282675967
7.6598816 -4.4651575 -1.6946445 4293729569
6.6287231 -3.9443617 -1.9122336 4282675967
7.6369629 -4.3981762 -1.7086899 4293729569
6.5378418 -3.843358 -1.9032521 4282675967
7.5750427 -4.3081846 -1.7147236 4293729569
6.4849548 -3.7643604 -1.9042833 4282675967
7.5001526 -4.210187 -1.7147534 4293729569
6.394043 -3.663353 -1.8923018 4288085770
7.4732666 -4.1392012 -1.7247996 4293729569
6.3571472 -3.5933561 -1.8953381 4282675967
7.4733276 -4.0822191 -1.7398558 4293729569
6.2882385 -3.5063515 -1.8873625 4288085770
7.5664368 -4.0752592 -1.7739463 4293729569
6.2613525 -3.442358 -1.8904021 4288085770
7.7094727 -4.0913105 -1.8190584 4288085770
6.2194824 -3.3693581 -1.8874366 4288085770
7.8555298 -4.1073618 -1.8641729 4288085770
6.1635742 -3.2903509 -1.8784647 4288085770
7.9645691 -4.1014023 -1.9002762 4282675967
6.1446533 -3.2303572 -1.880507 4288085770
7.9586792 -4.0354128 -1.9073358 4282675967
6.1237793 -3.1693621 -1.8805485 4288085770
7.9127808 -3.9504147 -1.9043779 4282675967
6.0988464 -3.1073618 -1.8785872 4288085770
7.8759155 -3.8694134 -1.9024246 4282675967
6.0709534 -3.044363 -1.8746243 4288085770
7.8330078 -3.7884121 -1.8974652 4282675967
6.0590515 -2.9883642 -1.8736689 4288085770
7.8041077 -3.7114153 -1.895515 4282675967
6.0481873 -2.9323673 -1.8727138 4288085770
7.7911987 -3.6434183 -1.8955696 4282675967
6.0352478 -2.8763685 -1.8697569 4288085770
7.7683105 -3.5714159 -1.8916192 4288085770
6.0293579 -2.82337 -1.8688037 4288085770
7.7493896 -3.4994183 -1.8886721 4288085770
6.0295105 -2.7733727 -1.8678527 4288085770
7.7504883 -3.4374208 -1.8877335 4288085770
6.0265808 -2.7213745 -1.8649006 4288085770
7.7526245 -3.3764238 -1.8867941 4288085770
6.0286865 -2.6713753 -1.8629513 4288085770
7.7576904 -3.3164282 -1.8858564 4288085770
6.0407715 -2.62638 -1.8640058 4288085770
7.757782 -3.2544289 -1.8829165 4288085770
6.0448914 -2.5773802 -1.861057 4288085770
7.7698975 -3.1974297 -1.8809817 4288085770
6.0569763 -2.532383 -1.8591113 4288085770
7.7790222 -3.1384277 -1.8770468 4288085770
6.0720825 -2.4883852 -1.8571668 4288085770
7.8081055 -3.0884323 -1.8771203 4288085770
6.0971985 -2.4473896 -1.8582287 4288085770
7.8312073 -3.0354366 -1.8751915 4288085770
6.1152954 -2.4043903 -1.8552859 4288085770
7.8642883 -2.9854383 -1.8742681 4288085770
6.1573792 -2.3694 -1.8593566 4288085770
7.8934021 -2.9324408 -1.8713443 4288085770
6.1694946 -2.3233976 -1.8534117 4288085770
7.9275208 -2.8844414 -1.8684201 4288085770
6.2105713 -2.2884035 -1.8554814 4288085770
7.9926147 -2.8454504 -1.8715143 4288085770
6.2366943 -2.2464056 -1.8515444 4288085770
8.0357056 -2.797452 -1.8685977 4288085770
6.2687988 -2.2074032 -1.8486099 4288085770
8.0938416 -2.7554541 -1.8686883 4288085770
6.3128967 -2.17241 -1.8486819 4288085770
8.144928 -2.7104578 -1.8657753 4288085770
6.3639832 -2.1394157 -1.8497579 4288085770
8.2130127 -2.6694593 -1.8648736 4288085770
6.407074 -2.1024189 -1.8478308 4288085770
8.2871094 -2.6304655 -1.863975 4288085770
6.4641724 -2.0704231 -1.8479109 4288085770
8.3712158 -2.5934725 -1.8650832 4288085770
6.5122986 -2.0344229 -1.8459868 4288085770
8.4553223 -2.5574741 -1.8641903 4288085770
6.5544128 -1.9964228 -1.8400595 4288085770
8.5484314 -2.5214806 -1.8643048 4288085770
6.6264954 -1.9664316 -1.8421509 4288085770
8.6355286 -2.4824839 -1.8614173 4288085770
6.699585 -1.9374361 -1.8432417 4288085770
8.7376404 -2.4474888 -1.8605385 4288085770
6.7796936 -1.9084444 -1.8453386 4288085770
8.8467102 -2.4134922 -1.8606648 4288085770
6.8327942 -1.8714409 -1.8394194 4288085770
8.9598389 -2.3794975 -1.8587947 4288085770
6.9338684 -1.8474541 -1.8445296 4288085770
9.0819092 -2.3465014 -1.8579309 4288085770
7.0159912 -1.8174572 -1.8436289 4288085770
9.2070007 -2.313508 -1.8560698 4288085770
7.1011047 -1.7874603 -1.8427308 4288085770
9.3321228 -2.2785091 -1.8532107 4288085770
7.2142029 -1.7634706 -1.8468511 4288085770
9.4772034 -2.2485151 -1.8523638 4288085770
7.2852783 -1.7274675 -1.8389459 4288085770
9.6373291 -2.2185202 -1.8515301 4288085770
7.4003906 -1.7014761 -1.8410695 4288085770
9.806427 -2.190526 -1.8517015 4288085770
7.5184631 -1.6754837 -1.8431957 4288085770
9.9825134 -2.1615324 -1.8508799 4288085770
7.6195984 -1.645484 -1.8393106 4288085770
10.16861 -2.1335382 -1.8500659 4288085770
7.7446899 -1.6184902 -1.8394434 4288085770
10.362701 -2.105545 -1.8482587 4288085770
7.8817749 -1.5934982 -1.8415844 4288085770
10.605835 -2.0845556 -1.8524876 4288085770
8.0129089 -1.5655012 -1.8397233 4288085770
10.80191 -2.0535583 -1.8476839 4288085770
8.1659851 -1.5415115 -1.8418767 4288085770
11.037018 -2.0265656 -1.845911 4288085770
8.2970886 -1.5115108 -1.8370173 4288085770
11.293121 -2.0005693 -1.8441546 4288085770
8.459198 -1.484519 -1.8371809 4288085770
11.558197 -1.974577 -1.8424053 4288085770
8.6352844 -1.459527 -1.8383551 4288085770
11.86734 -1.9535875 -1.8436897 4288085770
8.7913818 -1.4295282 -1.8335164 4288085770
12.151428 -1.9245911 -1.8379593 4288085770
8.9824829 -1.4045353 -1.8337028 4288085770
12.475525 -1.8995972 -1.8352597 4288085770
9.1855774 -1.3795452 -1.8338995 4288085770
12.856628 -1.8806095 -1.8376033 4288085770
9.3886719 -1.3515482 -1.8310986 4288085770
13.237762 -1.8576174 -1.8359501 4288085770
9.6157837 -1.3255548 -1.8313167 4288085770
13.649841 -1.8346272 -1.8333235 4288085770
9.855896 -1.3005629 -1.8315444 4288085770
14.102966 -1.8136368 -1.8317297 4288085770
10.10498 -1.2735691 -1.8297815 4288085770
14.568024 -1.7886438 -1.8261495 4288085770
10.386078 -1.2475796 -1.8300452 4288085770
15.105133 -1.7696581 -1.8256254 4288085770
10.664215 -1.2195845 -1.8273079 4288085770
15.683228 -1.7486677 -1.8231375 4288085770
10.966309 -1.1915922 -1.8255906 4288085770
16.326324 -1.7296801 -1.8217034 4288085770
11.306396 -1.1656008 -1.8259039 4288085770
16.985443 -1.7076902 -1.8162851 4288085770
11.629486 -1.1356058 -1.8212061 4288085770
17.785553 -1.6927099 -1.8169808 4288085770
12.022614 -1.1086159 -1.8215652 4288085770
18.615631 -1.6727247 -1.812706 4288085770
12.431671 -1.0786266 -1.8199399 4288085770
19.558746 -1.6537409 -1.8085265 4288085770
12.868805 -1.0486374 -1.8183386 4288085770
13.349915 -1.0186481 -1.8167746 4288085770
13.890991 -0.98866177 -1.8172615 4288085770
14.442108 -0.95567036 -1.8127589 4288085770
15.072205 -0.92168331 -1.8103244 4288085770
15.768311 -0.88669968 -1.8089466 4288085770
16.509399 -0.84971142 -1.8046086 4288085770
17.32251 -0.80772305 -1.7973356 4288085770
18.291595 -0.76874542 -1.7971926 4288085770
19.375702 -0.72676754 -1.7971492 4288085770
19.661255 1.9991112 -1.7252614 4288085770
19.16037 2.0801191 -1.7279727 4288085770
18.576447 2.1441374 -1.7196157 4288085770
18.201599 2.2281389 -1.7264147 4288085770
17.805695 2.3031454 -1.7281933 4288085770
17.456757 2.3811502 -1.7310059 4288085770
17.145874 2.4591503 -1.7358444 4288085770
16.917969 2.5461454 -1.7457452 4288085770
16.618073 2.6191521 -1.7455881 4288085770
16.402191 2.701149 -1.7514937 4288085770
16.163269 2.779151 -1.7533815 4288085770
16.03537 2.8721409 -1.7653544 4288085770
15.832428 2.9511423 -1.7672677 4288085770
15.597595 3.0221481 -1.7641535 4288085770
15.460663 3.1081429 -1.7691152 4288085770
15.282745 3.1851444 -1.7680435 4288085770
15.174866 3.2761402 -1.7730289 4288085770
15.051971 3.3621383 -1.7750006 4288085770
14.938049 3.4471359 -1.7759774 4288085770
14.87616 3.5441294 -1.7819977 4288085770
14.808258 3.6401248 -1.7860131 4288085770
14.721344 3.7291236 -1.7850106 4288085770
19.658722 4.968276 -1.3741767 4293729569
14.62146 3.8141236 -1.781997 4288085770
19.247833 5.0082989 -1.3539209 4293729569
14.576569 3.9141197 -1.7840302 4288085770
18.817963 5.0393252 -1.330646 4293729569
14.548676 4.0161152 -1.7860765 4288085770
18.574036 5.1123376 -1.3185256 4293729569
14.504761 4.1151123 -1.7861094 4288085770
18.42218 5.2093439 -1.310483 4293729569
14.473877 4.2161098 -1.784153 4288085770
18.325256 5.3203464 -1.3044868 4293729569
14.481995 4.3301044 -1.7872312 4288085770
18.3284 5.459343 -1.3035772 4293729569
14.519104 4.4520946 -1.7903347 4288085770
18.305481 5.590342 -1.2986445 4293729569
14.553192 4.5750885 -1.7934361 4288085770
18.276611 5.7203436 -1.291707 4293729569
14.608307 4.7060785 -1.7965572 4288085770
18.338684 5.8793387 -1.2888498 4293729569
14.674377 4.8400688 -1.8006871 4288085770
18.334808 6.0183406 -1.2799346 4293729569
14.748474 4.9780622 -1.8028252 4288085770
18.267914 6.1363492 -1.2649629 4293729569
14.802582 5.1110559 -1.8009465 4288085770
18.373016 6.3113451 -1.2591448 4293729569
14.886688 5.2560444 -1.8010967 4288085770
18.41214 6.4663429 -1.2472715 4293729569
14.971802 5.4020395 -1.8002489 4288085770
18.604218 6.6753354 -1.2435367 4293729569
15.080902 5.558032 -1.7994237 4288085770
15.200012 5.7170258 -1.7986066 4288085770
15.385101 5.9070129 -1.8028548 4288085770
15.57019 6.098001 -1.8051035 4288085770
15.810333 6.3129869 -1.8114047 4288085770
16.073425 6.5419698 -1.8177309 4288085770
16.342529 6.7779551 -1.8210652 4288085770
16.56665 6.9969478 -1.8173573 4288085770
16.829742 7.2369375 -1.81569 4288085770
17.076874 7.4739313 -1.8080091 4288085770
17.460968 7.7739124 -1.8124621 4288085770
19.013428 -0.39375305 -1.7863164 4288085770
17.709503 -0.40671635 -1.7846227 4288085770
16.611603 -0.41868877 -1.7870381 4288085770
15.650726 -0.42866516 -1.791527 4288085770
14.778809 -0.4356451 -1.7950644 4288085770
13.98291 -0.43962479 -1.7946446 4288085770
13.279022 -0.44260883 -1.7982736 4288085770
19.748077 -0.65779591 -1.7844481 4288085770
12.641113 -0.44459534 -1.8009372 4288085770
18.345123 -0.64175892 -1.7847281 4288085770
12.033203 -0.44457912 -1.8006189 4288085770
17.114258 -0.62673092 -1.7870977 4288085770
11.470306 -0.44357109 -1.7993259 4288085770
16.06134 -0.61270523 -1.79056 4288085770
10.981415 -0.44256115 -1.8020713 4288085770
15.115448 -0.59868145 -1.7920783 4288085770
10.515503 -0.43955135 -1.8028309 4288085770
14.274567 -0.58365917 -1.7936525 4288085770
10.083618 -0.4355402 -1.8016086 4288085770
13.534637 -0.57164288 -1.7972763 4288085770
9.692688 -0.43253422 -1.803407 4288085770
12.829742 -0.55662441 -1.7959208 4288085770
9.3397827 -0.42852879 -1.8072257 4288085770
12.222839 -0.54361343 -1.8006148 4288085770
8.9919128 -0.42352295 -1.8090482 4288085770
11.640961 -0.52959824 -1.8003225 4288085770
8.6689758 -0.41851902 -1.8088834 4288085770
11.121033 -0.51658726 -1.8010621 4288085770
8.3710938 -0.41251183 -1.8107328 4288085770
10.651154 -0.50357723 -1.8028271 4288085770
8.078186 -0.40550709 -1.8085854 4288085770
10.206268 -0.49056721 -1.8026056 4288085770
7.8063049 -0.3985014 -1.8074489 4288085770
9.8093567 -0.47756004 -1.8054087 4288085770
7.543396 -0.39049625 -1.8053179 4288085770
9.4234314 -0.46455288 -1.8042178 4288085770
7.3044739 -0.38349152 -1.8051989 4288085770
9.08255 -0.45254803 -1.8070495 4288085770
7.0656128 -0.37448597 -1.8010812 4288085770
8.759613 -0.43954086 -1.8078909 4288085770
6.8686523 -0.36748505 -1.8039837 4288085770
8.4407349 -0.4265337 -1.8057351 4288085770
6.6667786 -0.35948372 -1.8038845 4288085770
8.1498108 -0.4135294 -1.8045936 4288085770
6.4739075 -0.35147858 -1.8027902 4288085770
7.8709412 -0.40052128 -1.8014584 4288085770
6.2969666 -0.34247971 -1.8037043 4288085770
7.6160278 -0.38751888 -1.8013356 4288085770
6.1170654 -0.33347607 -1.8016174 4288085770
7.3771057 -0.37451363 -1.8022208 4288085770
5.9631653 -0.32547665 -1.8045433 4288085770
7.1552429 -0.36251259 -1.8021142 4288085770
5.7922974 -0.31547356 -1.800462 4288085770
6.9453125 -0.34951019 -1.803015 4288085770
5.6473694 -0.30647278 -1.801393 4288085770
6.7384338 -0.3365078 -1.8019171 4288085770
5.5134888 -0.297472 -1.8043299 4288085770
6.54953 -0.32450485 -1.8018279 4288085770
5.3765564 -0.28747368 -1.803266 4288085770
6.3556213 -0.3114996 -1.7977369 4288085770
5.2507019 -0.2784729 -1.8042071 4288085770
6.18573 -0.29849815 -1.7966583 4288085770
5.1217957 -0.26847172 -1.8021474 4288085770
6.0318298 -0.28649807 -1.7995868 4288085770
5.0118713 -0.2594738 -1.8050969 4288085770
5.8769226 -0.27349663 -1.799516 4288085770
5.7279968 -0.26149559 -1.7974474 4288085770
5.5761108 -0.24849319 -1.7933781 4288085770
5.4422607 -0.23549271 -1.7933185 4288085770
5.3213196 -0.22349262 -1.7952638 4288085770
5.1984253 -0.21149254 -1.7942088 4288085770
5.0745239 -0.1984911 -1.7911539 4288085770
5.066925 1.7731152 -1.7640572 4288085770
5.1870422 1.8011065 -1.7651212 4288085770
5.2881165 1.821104 -1.7591722 4288085770
5.426239 1.8520937 -1.7632456 4288085770
5.5653687 1.8830862 -1.7663188 4288085770
5.6944275 1.9080791 -1.764384 4288085770
5.8485413 1.9400702 -1.7674639 4288085770
5.9796448 1.9640675 -1.7635295 4288085770
5.0946655 1.7140799 -1.7720146 4288085770
6.1377258 1.9940577 -1.7646091 4288085770
5.1877747 1.7250824 -1.7630572 4288085770
6.2918396 2.0220537 -1.762686 4288085770
5.2879028 1.7370787 -1.7571032 4288085770
6.4659424 2.0530443 -1.7647729 4288085770
5.4309692 1.7610683 -1.7621734 4288085770
6.6320496 2.0810375 -1.7628546 4288085770
5.5830688 1.787055 -1.7692485 4288085770
6.8121338 2.1110296 -1.7629428 4288085770
5.7171936 1.8060513 -1.7683122 4288085770
7.0032349 2.1420212 -1.763036 4288085770
5.8652649 1.8270416 -1.7713828 4288085770
7.2103271 2.176012 -1.765137 4288085770
6.0123596 1.846035 -1.7714515 4288085770
7.4084167 2.2050056 -1.7622318 4288085770
6.1644592 1.8650265 -1.772522 4288085770
7.6445312 2.2419939 -1.7663465 4288085770
6.3575745 1.8940134 -1.7826149 4288085770
7.8766479 2.2769842 -1.7674577 4288085770
6.4926758 1.9040117 -1.774673 4288085770
8.1147461 2.3089752 -1.7665699 4288085770
6.6617737 1.9220047 -1.7747495 4288085770
8.3688049 2.344964 -1.7686901 4288085770
6.836853 1.9409962 -1.7758288 4288085770
8.6149292 2.374958 -1.7648036 4288085770
7.0119934 1.9559898 -1.7739058 4288085770
8.8909912 2.4099483 -1.7649317 4288085770
7.1930847 1.971983 -1.7719853 4288085770
9.1851196 2.4469366 -1.7650683 4288085770
7.3891602 1.9879742 -1.7720706 4288085770
9.4882202 2.4819279 -1.7642069 4288085770
7.5942383 2.0049639 -1.7721603 4288085770
9.7663574 2.5089226 -1.7563307 4288085770
7.7963257 2.0189581 -1.7702467 4288085770
10.033417 2.5289202 -1.7444456 4288085770
8.0224609 2.0369492 -1.7723451 4288085770
10.509521 2.5958939 -1.7636716 4288085770
8.2485657 2.0519419 -1.7714412 4288085770
10.793671 2.6128912 -1.7497911 4288085770
8.4906616 2.0669298 -1.7725439 4288085770
11.266754 2.6698723 -1.7600098 4288085770
8.7247925 2.0779228 -1.7696409 4288085770
11.836823 2.7438421 -1.7812762 4288085770
8.9708557 2.0889168 -1.766742 4288085770
12.279907 2.7838306 -1.7794719 4288085770
9.2489319 2.1039057 -1.7678585 4288085770
12.777008 2.829814 -1.7806921 4288085770
9.4890442 2.1078997 -1.7609529 4288085770
13.314148 2.8788004 -1.7829299 4288085770
9.7171631 2.1058989 -1.7500391 4288085770
13.905212 2.9317789 -1.7871909 4288085770
9.9202576 2.0949001 -1.7321098 4288085770
14.475311 2.9747658 -1.7844372 4288085770
10.253357 2.1088867 -1.7352469 4288085770
15.033417 3.0087528 -1.7756729 4288085770
10.689484 2.1388636 -1.7524338 4288085770
15.663513 3.048739 -1.7699404 4288085770
11.008575 2.1398544 -1.7475569 4288085770
16.303619 3.0827255 -1.7602079 4288085770
11.225677 2.1188593 -1.7256265 4288085770
17.051758 3.1307073 -1.7565258 4288085770
11.691772 2.1398392 -1.7378192 4288085770
17.778839 3.1636939 -1.7448258 4288085770
12.251862 2.1718102 -1.7600551 4288085770
18.647919 3.2136726 -1.7411919 4288085770
12.669952 2.1717978 -1.7592158 4288085770
19.562012 3.2606516 -1.7355726 4288085770
13.111053 2.1717844 -1.7593853 4288085770
13.575134 2.1687717 -1.7585618 4288085770
14.067261 2.1647558 -1.7577486 4288085770
14.581329 2.1567421 -1.7559414 4288085770
15.087463 2.1427307 -1.7511268 4288085770
15.640533 2.1287165 -1.7503309 4288085770
16.212616 2.1097021 -1.7455392 4288085770
16.791748 2.0846901 -1.7397459 4288085770
17.473816 2.0616713 -1.7389939 4288085770
18.118927 2.0266562 -1.7322202 4288085770
18.870056 1.9936371 -1.7304888 4288085770
19.666138 1.9556179 -1.7287714 4288085770
14.364136 -5.348918 -0.50049812 4293729569
14.279175 -5.4219408 -0.53442699 4293729569
14.329254 -5.5469656 -0.57337815 4293729569
15.213623 -7.8335962 -1.6304905 4293729569
14.58371 -7.6065874 -1.63538 4293729569
14.042816 -7.416585 -1.6462822 4293729569
8.4242859 -4.4749184 -0.57377487 4293729569
8.4121704 -4.4981537 -1.0417588 4293729569
8.3434143 -4.4819393 -0.60974234 4293729569
8.3102722 -4.4961729 -1.0737233 4293729569
8.2284851 -4.4699554 -0.64370698 4293729569
8.2093811 -4.493187 -1.1046886 4293729569
8.1375427 -4.4679766 -0.67967564 4293729569
8.0964355 -4.481204 -1.1336544 4293729569
8.0486755 -4.4659977 -0.71464473 4293729569
8.0145264 -4.4842234 -1.1676238 4293729569
7.9657288 -4.4640188 -0.7516163 4293729569
7.9106445 -4.4732389 -1.1975923 4293729569
7.8678284 -4.4520369 -0.78558761 4293729569
7.8276978 -4.4712582 -1.2305639 4293729569
7.7839355 -4.4470568 -0.82156032 4293729569
7.7388 -4.4642763 -1.2625358 4293729569
7.7219849 -4.4510794 -0.85953611 4293729569
7.7218933 -4.4973021 -1.3055131 4293729569
7.7270508 -4.493104 -0.90351647 4293729569
7.730957 -4.5443287 -1.3544924 4293729569
7.722168 -4.5271301 -0.94849795 4293729569
7.7310181 -4.5843573 -1.4024723 4293729569
7.7202454 -4.5631571 -0.99447888 4293729569
7.7251587 -4.6203823 -1.4494524 4293729569
7.7213135 -4.5991859 -1.0414608 4293729569
7.7182312 -4.6544104 -1.4974325 4293729569
7.7154236 -4.6282129 -1.0874441 4293729569
7.7172852 -4.6904402 -1.5474141 4293729569
7.7174988 -4.66224 -1.1354275 4293729569
7.7203979 -4.7264681 -1.5973971 4293729569
7.7115784 -4.6892672 -1.1824119 4293729569
7.7184448 -4.7594976 -1.6473796 4293729569
7.7146301 -4.7192945 -1.2313979 4293729569
7.634552 -4.7395134 -1.6803603 4293729569
7.7167053 -4.7483234 -1.2803838 4293729569
7.4996033 -4.6855259 -1.7023401 4293729569
7.7127991 -4.7713518 -1.328371 4293729569
7.3237305 -4.6035318 -1.7123199 4293729569
7.7149048 -4.7963791 -1.3783588 4293729569
7.1218567 -4.5025311 -1.7153001 4293729569
8.3479309 -5.2134771 -1.5413709 4293729569
6.9249268 -4.4015312 -1.7162821 4293729569
8.6789551 -5.4425478 -1.6563711 4293729569
6.7550354 -4.3145323 -1.7212665 4293729569
8.4620667 -5.3275499 -1.6713533 4293729569
6.5751343 -4.2185326 -1.7222521 4293729569
8.2491455 -5.2115583 -1.6843367 4293729569
6.4162292 -4.1335373 -1.7262392 4293729569
7.8652954 -4.9845381 -1.6583166 4293729569
6.2773132 -4.0605373 -1.7332275 4293729569
7.642395 -4.8565397 -1.662303 4293729569
6.2064209 -4.0275536 -1.7572198 4293729569
7.5654602 -4.8195581 -1.6952944 4293729569
6.181488 -4.0225744 -1.7932136 4293729569
7.3865967 -4.7145615 -1.7042849 4293729569
6.186615 -4.0366001 -1.8382087 4288085770
7.1926575 -4.5975599 -1.7062757 4293729569
6.2006531 -4.053627 -1.8842051 4288085770
7.0267639 -4.4955635 -1.7122691 4293729569
6.1337891 -4.0166397 -1.9072006 4282675967
6.855896 -4.3895645 -1.7152627 4293729569
6.0028687 -3.9356422 -1.9081957 4282675967
6.6959839 -4.2885666 -1.7182579 4293729569
5.8529358 -3.8406363 -1.9011912 4282675967
6.5300598 -4.1815672 -1.7172534 4293729569
5.7160645 -3.752635 -1.8961878 4288085770
6.4111633 -4.1025724 -1.7272518 4293729569
5.5831604 -3.6646318 -1.8911858 4288085770
6.3302612 -4.0465832 -1.7452514 4293729569
5.4602661 -3.5826311 -1.8861842 4288085770
6.3173218 -4.0316029 -1.7792542 4293729569
5.3723755 -3.5206356 -1.891185 4288085770
6.3464355 -4.0426302 -1.8252585 4288085770
5.2684326 -3.4486351 -1.8891852 4288085770
6.3965149 -4.0646601 -1.8762646 4288085770
5.1575623 -3.3696356 -1.8841865 4288085770
6.3746338 -4.0386763 -1.9062696 4282675967
5.0666504 -3.3026352 -1.8831885 4288085770
6.2286987 -3.9336739 -1.8992712 4282675967
6.1108093 -3.8446732 -1.8982749 4282675967
5.9788818 -3.7466717 -1.8902781 4288085770
5.8729858 -3.6636715 -1.8892825 4288085770
5.7740784 -3.5836735 -1.8872883 4288085770
5.6842041 -3.5086727 -1.8862944 4288085770
5.5953064 -3.4336729 -1.8853009 4288085770
5.5094299 -3.3596754 -1.8833077 4288085770
5.4205322 -3.2826729 -1.8773155 4288085770
5.3406067 -3.2106743 -1.8733232 4288085770
5.278717 -3.1496754 -1.874332 4288085770
5.2058105 -3.0816765 -1.8703403 4288085770
5.1499023 -3.0226793 -1.8703499 4288085770
5.0990295 -2.965683 -1.8703604 4288085770
5.0271301 -2.8966799 -1.8613698 4288085770
5.0449219 -1.5248089 -1.8259974 4288085770
5.092041 -1.5028143 -1.8260212 4288085770
5.1411133 -1.4808168 -1.8250456 4288085770
5.1912231 -1.4578218 -1.8240702 4288085770
5.2573242 -1.4398298 -1.8280976 4288085770
5.300415 -1.4148321 -1.8231211 4288085770
5.3545227 -1.3928366 -1.8211465 4288085770
5.4256287 -1.3748426 -1.8231754 4288085770
5.4837341 -1.3528471 -1.8202021 4288085770
5.5538025 -1.3328524 -1.8202312 4288085770
5.6268921 -1.313859 -1.8202605 4288085770
5.7230225 -1.2988672 -1.8262951 4288085770
5.7971191 -1.2788734 -1.8243253 4288085770
5.8731995 -1.2578773 -1.8213561 4288085770
5.9443054 -1.2358799 -1.8153861 4288085770
6.0544434 -1.2218885 -1.8204243 4288085770
6.1455383 -1.2028952 -1.8184583 4288085770
5.1095581 -0.99187183 -1.821243 4288085770
6.2486267 -1.1858997 -1.8184953 4288085770
5.1846924 -0.97487545 -1.8192723 4288085770
6.3417358 -1.165906 -1.8155303 4288085770
5.2597656 -0.95688152 -1.817301 4288085770
6.467804 -1.1519156 -1.8185725 4288085770
5.3568726 -0.94188976 -1.8213367 4288085770
6.5758972 -1.1329203 -1.815613 4288085770
5.4349976 -0.92389488 -1.818368 4288085770
6.7030029 -1.1169252 -1.8166578 4288085770
5.5210571 -0.9068985 -1.8164008 4288085770
6.8291016 -1.0999336 -1.8147023 4288085770
5.6231384 -0.89090538 -1.8174384 4288085770
6.9692078 -1.08494 -1.8157499 4288085770
5.7112732 -0.87290764 -1.8134723 4288085770
7.1152954 -1.0689478 -1.8158002 4288085770
5.8333435 -0.85891724 -1.8175147 4288085770
7.2723999 -1.0539551 -1.8158526 4288085770
5.9524231 -0.84392738 -1.8195562 4288085770
7.4365234 -1.037962 -1.8169079 4288085770
6.0635376 -0.82793236 -1.817596 4288085770
7.6105957 -1.0229702 -1.8169656 4288085770
6.1906433 -0.81293774 -1.8186398 4288085770
7.7926941 -1.0079794 -1.8170252 4288085770
6.3027344 -0.79494286 -1.8136802 4288085770
7.9888 -0.99398994 -1.8180883 4288085770
6.4278564 -0.77794743 -1.8117247 4288085770
8.1899109 -0.97899818 -1.8171535 4288085770
6.5869446 -0.76495743 -1.8157766 4288085770
8.4079895 -0.96500587 -1.8172228 4288085770
6.7320251 -0.74896336 -1.8138256 4288085770
8.6430969 -0.95101547 -1.8182971 4288085770
6.8851624 -0.73297024 -1.8128774 4288085770
8.9031982 -0.93902779 -1.8213775 4288085770
7.0532532 -0.71797657 -1.8129327 4288085770
9.1742859 -0.92503738 -1.8224621 4288085770
7.227356 -0.70298481 -1.8129897 4288085770
9.4284058 -0.91004467 -1.818542 4288085770
7.411438 -0.687994 -1.8130491 4288085770
9.720459 -0.89605713 -1.8176324 4288085770
7.6135254 -0.67400455 -1.8151138 4288085770
10.024597 -0.88106537 -1.8147264 4288085770
7.8136597 -0.65801048 -1.8131788 4288085770
10.366699 -0.86807823 -1.8148308 4288085770
8.0447693 -0.64401913 -1.8152514 4288085770
10.718781 -0.85308838 -1.8109384 4288085770
8.2828369 -0.62903214 -1.8163261 4288085770
11.102905 -0.83909988 -1.8090549 4288085770
8.5319214 -0.61403942 -1.8164039 4288085770
11.517975 -0.8261137 -1.8071795 4288085770
8.7900085 -0.59804916 -1.8144851 4288085770
11.990082 -0.81412697 -1.8073201 4288085770
9.0621643 -0.58205891 -1.8115699 4288085770
12.503204 -0.8021431 -1.8064721 4288085770
9.3582458 -0.56606674 -1.8106618 4288085770
13.042267 -0.78915977 -1.8046319 4288085770
9.6733398 -0.55007839 -1.8087585 4288085770
13.656372 -0.7771759 -1.8028128 4288085770
10.018433 -0.53509045 -1.8078635 4288085770
14.276489 -0.76219273 -1.7969964 4288085770
10.380554 -0.51810265 -1.8049741 4288085770
15.027588 -0.75121498 -1.7962153 4288085770
10.786621 -0.5031147 -1.8050961 4288085770
15.834686 -0.73923683 -1.7924509 4288085770
11.214752 -0.48612881 -1.8032255 4288085770
16.756744 -0.72826385 -1.7907183 4288085770
11.680847 -0.46914196 -1.8003652 4288085770
17.80188 -0.71628952 -1.7870216 4288085770
12.215942 -0.45215797 -1.8005247 4288085770
18.98996 -0.70632172 -1.7843642 4288085770
12.792053 -0.43517494 -1.8006957 4288085770
13.411133 -0.41719341 -1.797879 4288085770
14.092224 -0.39921188 -1.7960799 4288085770
14.838318 -0.38023186 -1.7912993 4288085770
15.723419 -0.3602562 -1.7915585 4288085770
16.693512 -0.33928299 -1.788842 4288085770
17.79361 -0.31731033 -1.7851627 4288085770
19.065735 -0.2943449 -1.7835319 4288085770
19.680054 4.9081917 -0.69834751 4293729569
19.485168 5.0002017 -0.6583243 4293729569
19.558258 5.1582079 -0.62338036 4293729569
19.912476 5.5382166 -0.55455667 4293729569
19.876587 5.6712275 -0.5105806 4293729569
19.955688 5.8372345 -0.46763951 4293729569
19.938812 5.9732456 -0.41966802 4293729569
19.177856 -0.043747902 -1.7743976 4288085770
17.827942 -0.041747093 -1.7781372 4288085770
16.619049 -0.038742065 -1.7769043 4288085770
15.617157 -0.034744263 -1.7817116 4288085770
14.70224 -0.029742241 -1.783536 4288085770
13.874359 -0.02474308 -1.7853773 4288085770
13.139435 -0.017743111 -1.7852371 4288085770
19.494507 -0.006772995 -1.7684433 4288085770
12.485565 -0.011741638 -1.7871125 4288085770
18.110626 0.0052280426 -1.7731802 4288085770
11.881653 -0.004743576 -1.7879977 4288085770
16.850708 0.016231537 -1.7709408 4288085770
11.316711 0.0032548904 -1.7868903 4288085770
15.831818 0.026233673 -1.7757473 4288085770
10.818848 0.010253906 -1.7877965 4288085770
14.884888 0.037232399 -1.7765679 4288085770
10.361938 0.018250465 -1.7877102 4288085770
14.048981 0.049233437 -1.77741 4288085770
9.9510498 0.025249481 -1.7896328 4288085770
13.349091 0.060231209 -1.7832782 4288085770
9.5641479 0.034247398 -1.7905602 4288085770
12.669189 0.071229935 -1.78215 4288085770
9.2402039 0.043243408 -1.7985001 4288085770
12.049286 0.082230568 -1.7820337 4288085770
8.9013367 0.052242279 -1.7984369 4288085770
11.48938 0.093230247 -1.7809291 4288085770
8.5724487 0.060239792 -1.7953756 4288085770
10.999481 0.10422802 -1.7838373 4288085770
8.2785339 0.070238113 -1.7953212 4288085770
10.539581 0.11622715 -1.7847519 4288085770
8.0115967 0.079234123 -1.796272 4288085770
10.117676 0.12722397 -1.7856736 4288085770
7.7447205 0.088232994 -1.7942228 4288085770
9.7457886 0.13822269 -1.788605 4288085770
7.5208435 0.098230362 -1.7971823 4288085770
9.3928833 0.14921951 -1.7905397 4288085770
7.2679443 0.10722923 -1.791136 4288085770
9.0719604 0.16121864 -1.7934809 4288085770
7.065033 0.1172266 -1.7940991 4288085770
8.7410583 0.17221546 -1.7904203 4288085770
6.8591309 0.12722301 -1.792062 4288085770
8.4401855 0.18321419 -1.7883651 4288085770
6.6782227 0.13721848 -1.7950296 4288085770
8.1672974 0.19421196 -1.7873154 4288085770
6.484314 0.14721775 -1.7909949 4288085770
7.9043579 0.20620918 -1.7862678 4288085770
6.3343811 0.15721321 -1.7959681 4288085770
7.6854858 0.21720505 -1.7902284 4288085770
6.1685181 0.16721153 -1.7949388 4288085770
7.4475708 0.22820282 -1.7871854 4288085770
6.0166016 0.17820644 -1.7949121 4288085770
7.238678 0.240201 -1.787148 4288085770
5.8547058 0.18820477 -1.7898836 4288085770
7.0317688 0.25119686 -1.7851112 4288085770
5.7138367 0.19820309 -1.7888591 4288085770
6.848877 0.26319504 -1.7870789 4288085770
5.5869141 0.20919991 -1.790837 4288085770
6.671936 0.27419186 -1.7870474 4288085770
5.4630127 0.22019482 -1.791816 4288085770
6.4930725 0.28619003 -1.7840159 4288085770
5.3490906 0.23119259 -1.7937963 4288085770
6.3281555 0.29718781 -1.7829871 4288085770
5.2282104 0.241189 -1.7917759 4288085770
6.1922607 0.31018448 -1.7869637 4288085770
5.1173096 0.25218582 -1.7917571 4288085770
6.0453491 0.32217979 -1.7859383 4288085770
5.911438 0.33417797 -1.7869155 4288085770
5.7605286 0.34517479 -1.7818892 4288085770
5.6396484 0.35717106 -1.7828684 4288085770
5.5227661 0.36916828 -1.7828491 4288085770
5.4048462 0.38216591 -1.7818294 4288085770
5.3039551 0.39416122 -1.7838125 4288085770
5.1970215 0.40616035 -1.7827947 4288085770
5.091156 0.41815567 -1.7807772 4288085770
5.0513916 2.5507917 -1.754961 4288085770
5.1504822 2.5907869 -1.7519789 4288085770
5.2605896 2.6347837 -1.7519987 4288085770
5.3726807 2.6787786 -1.7500184 4288085770
5.4988098 2.7277737 -1.7510409 4288085770
5.619873 2.772768 -1.7500622 4288085770
5.7530212 2.8217649 -1.7490857 4288085770
5.914093 2.8837585 -1.7561145 4288085770
6.1011658 2.9557524 -1.7681479 4288085770
5.0802307 2.5107584 -1.7519438 4288085770
6.3042908 3.0327444 -1.7811844 4288085770
5.2043457 2.5517521 -1.7559648 4288085770
6.4603882 3.0847411 -1.7802112 4288085770
5.3214111 2.5877466 -1.7539842 4288085770
6.6294861 3.1417351 -1.7802398 4288085770
5.437561 2.6207447 -1.7520032 4288085770
6.7895813 3.1917315 -1.7762661 4288085770
5.5636292 2.6577396 -1.7510235 4288085770
6.9716797 3.2497263 -1.7752967 4288085770
5.7077332 2.7017355 -1.7550473 4288085770
7.1577759 3.3077207 -1.7743275 4288085770
5.8438416 2.739728 -1.7540693 4288085770
7.3778687 3.378715 -1.7783639 4288085770
5.9839172 2.7767248 -1.7530916 4288085770
7.5629578 3.4307103 -1.7723937 4288085770
6.1470337 2.823719 -1.7581177 4288085770
7.7930908 3.5007052 -1.7744315 4288085770
6.3111267 2.8677139 -1.760144 4288085770
8.051178 3.5796986 -1.7794743 4288085770
6.538208 2.937706 -1.778182 4288085770
8.2902527 3.6476927 -1.7795124 4288085770
6.688324 2.9717016 -1.7732046 4288085770
8.5793762 3.7336869 -1.7865598 4288085770
6.8704224 3.0166979 -1.776233 4288085770
8.8945007 3.8276792 -1.7966115 4288085770
7.0445251 3.0566912 -1.7752593 4288085770
9.1965637 3.9116735 -1.8006601 4288085770
7.2476196 3.1056862 -1.7792907 4288085770
9.5196533 4.0016665 -1.805712 4288085770
7.4227295 3.1406813 -1.7753162 4288085770
9.8477783 4.0886602 -1.8077636 4288085770
7.599823 3.1726766 -1.7693417 4288085770
10.219879 4.1886539 -1.8148227 4288085770
7.8009033 3.2136722 -1.7683713 4288085770
10.590942 4.2836461 -1.8188806 4288085770
8.0370178 3.2646656 -1.7724068 4288085770
10.930054 4.3626413 -1.8139322 4288085770
8.3011169 3.3246584 -1.7814467 4288085770
11.305145 4.450635 -1.812989 4288085770
8.5782166 3.3856525 -1.7904885 4288085770
11.694275 4.5396276 -1.8100479 4288085770
8.8693237 3.4486456 -1.7995324 4288085770
12.114349 4.6336212 -1.808111 4288085770
9.1373901 3.4986401 -1.8025713 4288085770
12.570465 4.7366152 -1.8081799 4288085770
9.4095154 3.5466332 -1.8036101 4288085770
13.03656 4.8356071 -1.8062491 4288085770
9.7196045 3.6046271 -1.8096552 4288085770
13.536652 4.9426007 -1.8053238 4288085770
10.034698 3.6606207 -1.8147001 4288085770
14.107727 5.0685925 -1.8094094 4288085770
10.357788 3.7146139 -1.8187461 4288085770
14.671875 5.1835847 -1.8084924 4288085770
10.687897 3.7666073 -1.8227918 4288085770
15.247986 5.2955775 -1.8045762 4288085770
10.958008 3.7946019 -1.8138273 4288085770
15.834045 5.4045711 -1.7986605 4288085770
11.258118 3.8275967 -1.8088667 4288085770
16.404144 5.4985633 -1.7857404 4288085770
11.5672 3.8605919 -1.802907 4288085770
17.096252 5.6255555 -1.7828398 4288085770
11.884277 3.8905859 -1.7969477 4288085770
17.794373 5.7445469 -1.7749386 4288085770
12.248383 3.9325795 -1.7959962 4288085770
18.596466 5.8875384 -1.7730534 4288085770
12.663513 3.9845724 -1.8000522 4288085770
19.468536 6.0415282 -1.7721777 4288085770
13.091583 4.0345654 -1.8031092 4288085770
18.279694 5.5585513 -1.5899591 4293729569
13.524719 4.0795584 -1.8041658 4288085770
18.173798 5.4105568 -1.5059211 4293729569
13.876801 4.0955529 -1.7932084 4288085770
18.131927 5.2815609 -1.429894 4293729569
14.318878 4.131546 -1.7912648 4288085770
18.265015 5.2035623 -1.3688951 4293729569
14.772003 4.1645389 -1.7893219 4288085770
18.299103 5.0945644 -1.3018801 4293729569
15.250122 4.199532 -1.7883818 4288085770
18.607239 5.0605631 -1.2559092 4293729569
15.732178 4.2285252 -1.786442 4288085770
19.055328 5.0595593 -1.2169597 4293729569
16.160278 4.2375193 -1.775492 4288085770
19.277405 4.9935575 -1.1639733 4293729569
16.667389 4.2595115 -1.7725534 4288085770
19.735535 4.9805555 -1.1230233 4293729569
17.198486 4.2795048 -1.7686176 4288085770
17.718567 4.2894979 -1.7626784 4288085770
18.273712 4.3014894 -1.7577441 4288085770
18.799774 4.2994828 -1.7498038 4288085770
19.437897 4.3154755 -1.7498796 4288085770
19.927338 -4.644803 -1.7007191 4293729569
19.33844 -4.6378021 -1.7076545 4293729569
18.728485 -4.6178007 -1.7105887 4293729569
18.016602 -4.5627995 -1.7025161 4293729569
17.475708 -4.542799 -1.7084587 4293729569
16.926819 -4.5137997 -1.7114015 4293729569
16.3479 -4.4677992 -1.7093427 4293729569
15.847992 -4.436799 -1.7142913 4293729569
15.364105 -4.4027987 -1.7182422 4293729569
14.890198 -4.3637991 -1.7201946 4293729569
14.515289 -4.3478022 -1.7321556 4293729569
14.092407 -4.3138037 -1.7381136 4293729569
13.699493 -4.2828054 -1.7450743 4293729569
13.372589 -4.267807 -1.7590411 4293729569
19.557648 -6.3118505 -1.6555021 4293729569
13.066681 -4.2538099 -1.7740095 4293729569
18.627747 -6.1278486 -1.6544201 4293729569
12.797791 -4.2468128 -1.7929819 4293729569
17.88385 -5.9958467 -1.6663535 4293729569
12.527893 -4.2378159 -1.8109539 4288085770
17.159943 -5.8578482 -1.6732893 4293729569
12.297974 -4.2378187 -1.8339298 4288085770
16.460022 -5.7198458 -1.6792281 4293729569
12.072113 -4.2358217 -1.8569059 4288085770
14.390167 -5.085824 -1.5380695 4293729569
11.838165 -4.2288275 -1.8778822 4288085770
14.315247 -5.1468306 -1.5970557 4293729569
11.588287 -4.2108307 -1.8958578 4288085770
14.22934 -5.2018366 -1.6550417 4293729569
11.350372 -4.1958332 -1.9138346 4282675967
13.900421 -5.165843 -1.6850104 4293729569
11.021484 -4.1408348 -1.9148054 4282675967
13.403503 -5.0588465 -1.6919701 4293729569
10.665588 -4.0728397 -1.9097767 4282675967
12.937622 -4.9588442 -1.7009304 4293729569
10.327667 -4.004838 -1.9047472 4282675967
12.486725 -4.8578453 -1.7058921 4293729569
10.02475 -3.9468403 -1.9027207 4282675967
12.069824 -4.7638464 -1.7138565 4293729569
9.7328796 -3.8888416 -1.9016955 4282675967
11.607941 -4.6458445 -1.710819 4293729569
9.4599609 -3.8348408 -1.9026718 4282675967
11.212036 -4.5488453 -1.7137861 4293729569
9.2070618 -3.7848434 -1.90465 4282675967
10.850128 -4.4608479 -1.7197564 4293729569
8.9591675 -3.7338448 -1.9066288 4282675967
10.469238 -4.3598471 -1.7187262 4293729569
8.6962585 -3.6728487 -1.9016073 4282675967
10.141327 -4.2758484 -1.7226994 4293729569
8.4683533 -3.6218472 -1.9025884 4282675967
9.852417 -4.2038517 -1.7306759 4293729569
8.2344666 -3.5668516 -1.9005692 4282675967
9.6385193 -4.1618528 -1.7496574 4293729569
7.9845886 -3.5008516 -1.8935497 4288085770
9.4756165 -4.1388578 -1.7776427 4293729569
7.7746582 -3.4488535 -1.8925328 4288085770
9.3876953 -4.146863 -1.8176324 4288085770
7.5747681 -3.3988552 -1.893517 4288085770
9.3138123 -4.1588697 -1.8606236 4288085770
7.3748474 -3.3458576 -1.8915014 4288085770
9.1948853 -4.1488724 -1.8946121 4288085770
7.1699829 -3.2888584 -1.887486 4288085770
9.0019836 -4.1028786 -1.9115963 4282675967
6.9730835 -3.2318611 -1.8824708 4288085770
8.7220764 -4.0128794 -1.9085758 4282675967
6.7961426 -3.1818628 -1.8814578 4288085770
8.4552002 -3.9268789 -1.9045565 4282675967
6.6172485 -3.1288662 -1.8784444 4288085770
8.2002869 -3.8418818 -1.9015381 4282675967
6.4493408 -3.0788689 -1.8764322 4288085770
7.9623718 -3.7628841 -1.8995211 4282675967
6.2954712 -3.0328712 -1.8764212 4288085770
7.7294922 -3.6828842 -1.8965046 4282675967
6.1395569 -2.9838724 -1.8744099 4288085770
7.5135803 -3.6078882 -1.89449 4282675967
5.9796753 -2.9308739 -1.8683989 4288085770
7.3096924 -3.5358887 -1.8934755 4288085770
5.84375 -2.886879 -1.8693893 4288085770
7.105835 -3.4618912 -1.8894618 4288085770
5.7098694 -2.8428793 -1.86938 4288085770
6.9219055 -3.3948917 -1.8884492 4288085770
5.5749512 -2.7958822 -1.8663712 4288085770
6.7299805 -3.3208933 -1.8824365 4288085770
5.4570618 -2.755887 -1.8673627 4288085770
6.5480957 -3.2508974 -1.8774245 4288085770
5.327179 -2.7078876 -1.8633544 4288085770
6.3841858 -3.1869001 -1.8754141 4288085770
5.2172241 -2.6678934 -1.8643472 4288085770
6.2292786 -3.1259022 -1.874404 4288085770
5.1023254 -2.624896 -1.8633399 4288085770
6.0854187 -3.0689049 -1.8743949 4288085770
5.9454956 -3.0109081 -1.8733861 4288085770
5.7905884 -2.9439106 -1.8653767 4288085770
5.6777039 -2.8969135 -1.8693697 4288085770
5.5557861 -2.8439169 -1.8683624 4288085770
5.4338989 -2.7889175 -1.8653555 4288085770
5.321991 -2.7389212 -1.8653488 4288085770
5.2120972 -2.6869259 -1.8633423 4288085770
5.0931702 -2.6309271 -1.8563356 4288085770
5.2108765 -0.46125889 -1.8023701 4288085770
5.2909851 -0.44726276 -1.7963729 4288085770
5.4020996 -0.43526745 -1.7993765 4288085770
5.5131836 -0.42227173 -1.80038 4288085770
5.616272 -0.40927601 -1.7973833 4288085770
5.727356 -0.3962822 -1.7953868 4288085770
5.8594666 -0.38428497 -1.7983909 4288085770
5.9965515 -0.3722887 -1.800395 4288085770
6.1306763 -0.36029148 -1.7993989 4288085770
5.1747131 -0.2772913 -1.8003647 4288085770
6.2757568 -0.34829712 -1.8004031 4288085770
5.2857971 -0.26629639 -1.8013678 4288085770
6.4238586 -0.33630085 -1.8004072 4288085770
5.4078979 -0.25529957 -1.8033714 4288085770
6.5839844 -0.32430649 -1.8004119 4288085770
5.5240479 -0.24330521 -1.8023748 4288085770
6.7410889 -0.31130886 -1.7974162 4288085770
5.6251221 -0.23131084 -1.7953773 4288085770
6.9141541 -0.2993145 -1.797421 4288085770
5.7702332 -0.22131252 -1.8003814 4288085770
7.0992432 -0.28731823 -1.7964253 4288085770
5.8973083 -0.2093153 -1.796385 4288085770
7.3123474 -0.27632236 -1.8004313 4288085770
6.0393982 -0.1983223 -1.7963884 4288085770
7.5084229 -0.2643261 -1.7974362 4288085770
6.2025146 -0.18832588 -1.7993927 4288085770
7.7485657 -0.25333023 -1.8014426 4288085770
6.3565979 -0.17732811 -1.7983966 4288085770
7.9736633 -0.24133492 -1.7994483 4288085770
6.5196838 -0.16633224 -1.7964005 4288085770
8.2347412 -0.23034 -1.8004549 4288085770
6.7018127 -0.15633583 -1.7984052 4288085770
8.4968567 -0.21834373 -1.7994611 4288085770
6.9009094 -0.14634037 -1.80141 4288085770
8.7989502 -0.20734882 -1.8024683 4288085770
7.1000061 -0.13634682 -1.8024149 4288085770
9.1090088 -0.19635391 -1.8034756 4288085770
7.3041077 -0.12535 -1.8014195 4288085770
9.4241638 -0.18435764 -1.7994833 4288085770
7.5332336 -0.11635494 -1.8034246 4288085770
9.7562561 -0.17236233 -1.7964904 4288085770
7.7512817 -0.10536003 -1.798429 4288085770
10.127319 -0.16136742 -1.793499 4288085770
8.0074158 -0.095362663 -1.7994351 4288085770
10.537445 -0.1503706 -1.7915082 4288085770
8.2764893 -0.086368561 -1.800441 4288085770
10.977539 -0.13837719 -1.790518 4288085770
8.568573 -0.076371193 -1.8024473 4288085770
11.479645 -0.12738132 -1.7915292 4288085770
8.8886719 -0.06637764 -1.8044538 4288085770
12.009735 -0.11638546 -1.7905409 4288085770
9.1767578 -0.05738163 -1.7954595 4288085770
12.586853 -0.10538864 -1.7885532 4288085770
9.5488892 -0.047385216 -1.7994673 4288085770
13.250977 -0.09439373 -1.7885675 4288085770
9.9059753 -0.038389206 -1.7954743 4288085770
13.946045 -0.083400726 -1.7845824 4288085770
10.311066 -0.02939415 -1.7934823 4288085770
14.751129 -0.072405815 -1.7835994 4288085770
10.759186 -0.020399094 -1.7924912 4288085770
15.640228 -0.061410904 -1.7796178 4288085770
11.240265 -0.011404037 -1.7905004 4288085770
16.656311 -0.050415993 -1.7766387 4288085770
11.775391 -0.0034074783 -1.7895107 4288085770
17.832458 -0.038420677 -1.7746634 4288085770
12.374512 0.0045862198 -1.7915223 4288085770
19.162506 -0.02842617 -1.7716904 4288085770
13.016602 0.012582779 -1.7895341 4288085770
