# .PCD v0.7 - Point Cloud Data file format
VERSION 0.7
FIELDS x y z rgb
SIZE 4 4 4 4
TYPE F F F U
COUNT 1 1 1 1
WIDTH 1122
HEIGHT 1
VIEWPOINT 0 0 0 1 0 0 0
POINTS 1122
DATA ascii
9.2720652 3.4078593 -1.7880647 4288085770
6.4984903 2.3904226 -1.7856063 4288085770
18.972055 6.9043851 -1.7126729 4288085770
6.1084042 2.2386427 -1.7845421 4288085770
5.3112373 1.9470928 -1.7934099 4288085770
4.2220082 1.5527108 -1.8252295 4288085770
5.5132737 2.01298 -1.7954438 4288085770
6.251421 2.2695632 -1.7825667 4288085770
3.7058978 1.357002 -1.8211435 4288085770
12.607718 4.5449753 -1.7236233 4288085770
12.0246 4.3343034 -1.7195265 4288085770
5.4302483 1.9690278 -1.7934303 4288085770
9.2820234 3.3388574 -1.7870715 4288085770
19.967186 7.1378288 -1.7108511 4288085770
6.5344677 2.3544049 -1.7826145 4288085770
6.4104385 2.3034754 -1.7825941 4288085770
4.2459941 1.5327001 -1.8252332 4288085770
5.5552602 1.9919591 -1.7934517 4288085770
5.5422535 1.9809668 -1.7934498 4288085770
13.140773 4.6486797 -1.7337196 4288085770
6.5574555 2.3333936 -1.7786195 4288085770
3.67588 1.3200186 -1.795138 4288085770
12.060552 4.2542877 -1.7225404 4288085770
5.6892729 2.0168853 -1.7954749 4288085770
9.3139858 3.2778432 -1.7900819 4288085770
6.5844464 2.3223805 -1.7846249 4288085770
6.7454762 2.37429 -1.7836522 4288085770
4.2789812 1.5146846 -1.8282388 4288085770
5.8192835 2.0378137 -1.7934973 4288085770
13.755837 4.7743387 -1.7518306 4288085770
5.5902362 1.9549432 -1.795459 4288085770
3.733871 1.3139906 -1.810147 4288085770
6.9324965 2.4131866 -1.7856849 4288085770
12.139509 4.1872478 -1.7295617 4288085770
9.3299446 3.2108378 -1.7880898 4288085770
5.9572949 2.0607376 -1.7925215 4288085770
6.6314259 2.2893569 -1.783635 4288085770
4.3059678 1.4946719 -1.8272432 4288085770
7.1075139 2.4460888 -1.7817156 4288085770
14.316888 4.8720284 -1.7589338 4288085770
3.7728601 1.300972 -1.8161529 4288085770
5.6242166 1.9239268 -1.7934659 4288085770
6.0793037 2.0766702 -1.786543 4288085770
7.2955337 2.4809847 -1.779749 4288085770
12.205464 4.1152153 -1.734581 4288085770
4.3289542 1.4726615 -1.8242469 4288085770
6.6794043 2.2553332 -1.7826456 4288085770
9.3519058 3.145829 -1.7870986 4288085770
6.2433176 2.1045802 -1.7905719 4288085770
7.5125561 2.5238647 -1.7827874 4288085770
14.846931 4.9527326 -1.7590327 4288085770
3.7928467 1.2799633 -1.8121558 4288085770
5.6801987 1.8988991 -1.7974769 4288085770
7.7235765 2.5627475 -1.7808251 4288085770
6.3913279 2.1254985 -1.7875984 4288085770
12.264418 4.0401864 -1.7365992 4288085770
4.3589406 1.4536473 -1.8242521 4288085770
6.7503867 2.2292967 -1.7866601 4288085770
9.3938684 3.0858097 -1.7891111 4288085770
15.379971 5.0254354 -1.7561333 4288085770
7.9635992 2.6076148 -1.783868 4288085770
6.5563402 2.1504078 -1.7886276 4288085770
3.8308353 1.2649451 -1.8151618 4288085770
5.7281804 1.8708756 -1.7984864 4288085770
4.3929281 1.434631 -1.825258 4288085770
8.201622 2.6504824 -1.7839109 4288085770
12.336374 3.9671504 -1.7396201 4288085770
6.7153516 2.1713197 -1.7866563 4288085770
6.8013649 2.1942713 -1.7846713 4288085770
15.965014 5.1081109 -1.7562439 4288085770
9.4238319 3.0227962 -1.7871218 4288085770
3.8548229 1.2459341 -1.8131655 4288085770
8.4546452 2.6953423 -1.7839566 4288085770
6.9023647 2.1992168 -1.78969 4288085770
5.7881637 1.8468454 -1.8014983 4288085770
4.4289145 1.4156137 -1.8252643 4288085770
12.414332 3.8981111 -1.7426418 4288085770
16.557055 5.1847816 -1.7543567 4288085770
6.8743463 2.1672339 -1.7876863 4288085770
8.6966667 2.7332079 -1.780001 4288085770
9.4677954 2.9637754 -1.7871348 4288085770
7.0763755 2.2211208 -1.7867217 4288085770
3.8888106 1.2289178 -1.813171 4288085770
8.9566908 2.7750633 -1.7760484 4288085770
5.8391447 1.8188199 -1.8015085 4288085770
4.4659019 1.3965956 -1.8252708 4288085770
7.2633877 2.2450178 -1.7867559 4288085770
17.183102 5.2644339 -1.7534767 4288085770
12.526293 3.8360531 -1.7486697 4288085770
6.9543276 2.1401927 -1.7917029 4288085770
9.5067568 2.9017568 -1.7851472 4288085770
9.2677174 2.8278909 -1.7801056 4288085770
3.9197981 1.2109032 -1.8121759 4288085770
7.4604001 2.268909 -1.7857922 4288085770
4.5008888 1.3775787 -1.8242769 4288085770
5.8841262 1.7887976 -1.7985181 4288085770
17.878147 5.3540463 -1.7546101 4288085770
9.595746 2.8837094 -1.784166 4288085770
12.661257 3.7799821 -1.7557023 4288085770
7.0103059 2.1061642 -1.7877153 4288085770
19.949471 5.9258809 -1.7369763 4288085770
7.6694131 2.2947938 -1.7868309 4288085770
9.5507221 2.8417358 -1.7831603 4288085770
3.9517863 1.1928878 -1.810181 4288085770
9.9247732 2.9345264 -1.7842271 4288085770
4.5318747 1.3555636 -1.8212826 4288085770
5.9501085 1.7637641 -1.8015313 4288085770
18.531183 5.4216824 -1.7487377 4288085770
7.8704233 2.3156829 -1.7838684 4288085770
7.1002893 2.0811174 -1.791734 4288085770
12.786219 3.7189164 -1.7607332 4288085770
19.819363 5.7379603 -1.7469699 4288085770
10.326809 3.0043037 -1.7943013 4288085770
3.9887743 1.1758702 -1.8111871 4288085770
9.607688 2.7857075 -1.7831759 4288085770
4.5738616 1.3375428 -1.8212903 4288085770
8.1054363 2.3435533 -1.7859125 4288085770
19.320234 5.5182443 -1.7528905 4288085770
6.020093 1.7407284 -1.8045453 4288085770
10.732842 3.0690789 -1.8013772 4288085770
7.1742697 2.051079 -1.7907498 4288085770
12.952186 3.6688285 -1.7687716 4288085770
19.785265 5.5789862 -1.7619803 4288085770
8.3184462 2.3614354 -1.7809527 4288085770
4.026762 1.1588516 -1.8111937 4288085770
9.6686535 2.729677 -1.7821923 4288085770
4.608849 1.3165258 -1.8182968 4288085770
11.117871 3.1248648 -1.7994498 4288085770
6.0950756 1.71769 -1.8085604 4288085770
8.6084633 2.3992758 -1.7910073 4288085770
7.2602506 2.0230341 -1.7927681 4288085770
11.515902 3.1786435 -1.7975253 4288085770
13.124152 3.6177368 -1.7778113 4288085770
19.80518 5.4369822 -1.7800003 4288085770
4.0767512 1.1448268 -1.8152024 4288085770
4.6618371 1.3004991 -1.8213063 4288085770
9.7536221 2.6796334 -1.7852134 4288085770
8.8224707 2.4121573 -1.7820485 4288085770
6.1540575 1.6886599 -1.8065728 4288085770
11.908928 3.2264245 -1.7906007 4288085770
7.3292308 1.9899981 -1.7877835 4288085770
4.1237392 1.1298035 -1.8182106 4288085770
13.333124 3.5756257 -1.7888581 4288085770
19.791088 5.2879972 -1.7930139 4288085770
4.7028236 1.2794787 -1.8193142 4288085770
9.0894833 2.4370093 -1.7820997 4288085770
9.8295889 2.6265943 -1.7842327 4288085770
12.36896 3.2881687 -1.7896885 4288085770
6.2390413 1.666616 -1.8115901 4288085770
7.429213 1.9629455 -1.7898046 4288085770
9.3764963 2.462851 -1.7831551 4288085770
4.174727 1.1137784 -1.8222196 4288085770
4.7498112 1.2614549 -1.818323 4288085770
13.551095 3.5325081 -1.798907 4288085770
19.799002 5.1419992 -1.8050319 4288085770
12.889998 3.3588791 -1.7927881 4288085770
9.9055557 2.5725553 -1.7832525 4288085770
6.3020229 1.6375837 -1.8096035 4288085770
9.6805096 2.4906833 -1.7852138 4288085770
13.488042 3.443547 -1.8019029 4288085770
7.5231938 1.9338962 -1.7898247 4288085770
4.2057147 1.093763 -1.8162251 4288085770
4.7967978 1.2414312 -1.816332 4288085770
13.811069 3.4973683 -1.812964 4288085770
19.747906 4.9820333 -1.8120393 4282675967
10.018527 2.5274961 -1.7872789 4288085770
9.9805183 2.5125175 -1.7842724 4288085770
14.119086 3.5291967 -1.8090243 4288085770
6.3980079 1.6165336 -1.814623 4288085770
7.6401777 1.9108342 -1.7938492 4288085770
4.2597032 1.0787359 -1.8192347 4288085770
4.8497849 1.2224044 -1.8163421 4288085770
14.037038 3.4502468 -1.8210154 4288085770
19.557796 4.7881446 -1.8020214 4288085770
10.326533 2.5423267 -1.7883401 4288085770
14.770132 3.6128345 -1.8141506 4288085770
10.126497 2.4784396 -1.7893049 4288085770
6.4799919 1.5924909 -1.8156402 4288085770
7.7521605 1.8847747 -1.7948732 4288085770
4.9067731 1.2053751 -1.8173531 4288085770
4.3036914 1.0607139 -1.8172429 4288085770
10.674547 2.569134 -1.7904086 4288085770
15.406169 3.6834807 -1.8112752 4288085770
14.329013 3.4160888 -1.8340793 4288085770
19.098658 4.5344019 -1.7659538 4288085770
10.233466 2.4303832 -1.7893307 4288085770
6.5649748 1.5664464 -1.816658 4288085770
4.9637599 1.1863461 -1.8163642 4288085770
4.3526802 1.0436894 -1.8172519 4288085770
11.04756 2.595928 -1.7924823 4288085770
7.8731437 1.8597105 -1.7968988 4288085770
15.9802 3.7331598 -1.7963896 4288085770
14.64799 3.3849156 -1.8491489 4288085770
18.749538 4.3136001 -1.7379055 4288085770
10.356438 2.3833187 -1.79136 4288085770
6.6649585 1.543394 -1.8196789 4288085770
11.431569 2.6197159 -1.7945589 4288085770
16.561228 3.7768345 -1.7775062 4288085770
5.0357485 1.1713089 -1.8203783 4288085770
4.4196687 1.0306553 -1.8232646 4288085770
7.9971266 1.8336443 -1.7979256 4288085770
14.997969 3.3577261 -1.8662248 4288085770
18.976482 4.2254801 -1.7609634 4288085770
11.795579 2.6365144 -1.7906324 4288085770
17.205257 3.8274748 -1.7616358 4293729569
6.7519417 1.5173482 -1.8186976 4288085770
10.50441 2.3402402 -1.796394 4288085770
5.0817347 1.1492852 -1.8143876 4288085770
4.4686565 1.0126302 -1.8212737 4288085770
8.1441107 1.8115656 -1.8019567 4288085770
18.048304 3.914005 -1.7598033 4288085770
12.205588 2.6572876 -1.7917153 4288085770
15.287939 3.3125684 -1.8722901 4288085770
19.112411 4.11341 -1.7730049 4288085770
5.1387224 1.1292555 -1.811399 4288085770
6.8419247 1.4903008 -1.8167168 4288085770
10.660383 2.2991567 -1.8004297 4288085770
4.5176449 0.994605 -1.8182831 4288085770
8.2920942 1.7884864 -1.8049883 4288085770
19.04636 4.0204487 -1.7660017 4288085770
12.617595 2.673059 -1.7887992 4288085770
15.560906 3.2604196 -1.873353 4288085770
5.1997099 1.1102237 -1.8094113 4288085770
19.116331 3.9724133 -1.7710222 4288085770
4.575633 0.97757536 -1.8182943 4288085770
6.9409075 1.4642484 -1.816738 4288085770
10.817357 2.2560728 -1.8044659 4288085770
8.4840813 1.7723832 -1.8150283 4288085770
13.106607 2.6987886 -1.7938983 4288085770
5.2686987 1.0921876 -1.8074253 4288085770
15.825872 3.2032754 -1.871415 4288085770
4.6406217 0.96254188 -1.8203069 4288085770
7.0328898 1.4361995 -1.8127582 4288085770
19.204258 3.850369 -1.7750552 4288085770
10.965327 2.2089937 -1.8035009 4288085770
8.6440649 1.7482973 -1.8180629 4288085770
13.640619 2.7274938 -1.8020071 4288085770
5.3496866 1.0761454 -1.8104415 4288085770
4.6886106 0.94351703 -1.8153164 4288085770
16.10784 3.1471217 -1.8694806 4288085770
7.1558747 1.4131343 -1.8157845 4288085770
8.8300495 1.7281969 -1.8231025 4288085770
14.428648 2.7980599 -1.8381653 4288085770
19.387196 3.7462733 -1.7861062 4288085770
11.1583 2.1678901 -1.8085448 4288085770
5.4226742 1.058107 -1.8084564 4288085770
4.7585993 0.92748064 -1.8163302 4288085770
16.416807 3.0899522 -1.8655523 4288085770
7.2798586 1.3900682 -1.817811 4288085770
15.211673 2.8566287 -1.8683238 4288085770
9.0430365 1.7100818 -1.8311477 4288085770
19.571129 3.6381762 -1.7941581 4288085770
11.336272 2.1217945 -1.8095863 4288085770
5.4956622 1.0390685 -1.8064716 4288085770
4.8265882 0.9114452 -1.8163438 4288085770
4.642571 0.8775472 -1.8073086 4288085770
4.7395802 0.89449292 -1.8073272 4288085770
4.8455892 0.91143417 -1.8103476 4288085770
4.9435983 0.92737907 -1.8083663 4288085770
5.0486073 0.94432038 -1.8083864 4288085770
7.389842 1.3630092 -1.8138351 4288085770
15.79568 2.871305 -1.8694456 4288085770
5.1546168 0.96026093 -1.8064069 4288085770
16.714771 3.0287888 -1.8576225 4288085770
9.2260189 1.6849827 -1.8321875 4288085770
5.2736268 0.97819465 -1.8074299 4288085770
4.7025657 0.8725161 -1.8153204 4288085770
5.3826351 0.9931336 -1.8044508 4288085770
11.498241 2.0717068 -1.8056248 4288085770
5.515645 1.0120598 -1.8064766 4288085770
19.812071 3.5390477 -1.8052214 4288085770
4.8015723 0.88546091 -1.8143395 4288085770
5.5906515 1.0240182 -1.809491 4288085770
5.6456552 1.0299873 -1.8065017 4288085770
4.8975782 0.89640731 -1.811358 4288085770
4.8865762 0.89241397 -1.8133562 4288085770
5.8046651 1.0518996 -1.8125327 4288085770
5.0005851 0.90834975 -1.808378 4288085770
5.9556766 1.0718155 -1.8145618 4288085770
16.349678 2.8709979 -1.8635632 4288085770
7.5208259 1.3389388 -1.8148634 4288085770
5.121592 0.92228293 -1.8114014 4288085770
6.1126866 1.0917284 -1.8165926 4288085770
9.4030018 1.6578865 -1.8292265 4288085770
16.966734 2.9586504 -1.8436841 4288085770
5.2395992 0.93521732 -1.8104246 4288085770
6.266696 1.1096425 -1.8146225 4288085770
5.6896396 1.0079658 -1.8125114 4288085770
11.704213 2.0275955 -1.8076725 4288085770
5.3516054 0.94615489 -1.8074464 4288085770
6.4567075 1.1325378 -1.8216598 4288085770
4.9585652 0.87637603 -1.8123707 4288085770
5.4806128 0.95908338 -1.8074716 4288085770
6.6187181 1.1504472 -1.8176917 4288085770
16.856672 2.8547158 -1.8486729 4288085770
7.66781 1.3158599 -1.8168951 4288085770
6.7787275 1.1663575 -1.8117231 4288085770
5.6186194 0.97300714 -1.8094987 4288085770
9.6279888 1.6367642 -1.832275 4288085770
17.280697 2.8954773 -1.8327583 4288085770
5.7946286 0.99291021 -1.8165331 4288085770
5.7666264 0.98792523 -1.8115276 4288085770
6.9527378 1.1832601 -1.8067576 4288085770
5.0355539 0.86033553 -1.8123862 4288085770
11.929189 1.9854734 -1.809724 4288085770
7.1557488 1.2041473 -1.8067977 4288085770
5.905633 0.99884802 -1.8095552 4288085770
7.3717589 1.2250274 -1.8078407 4288085770
17.255651 2.8154926 -1.8217623 4288085770
6.0726395 1.0147561 -1.8135884 4288085770
7.8127947 1.2917819 -1.8169267 4288085770
9.8259716 1.6096561 -1.8293188 4288085770
5.8866167 0.97486109 -1.8145524 4288085770
7.6027713 1.2478993 -1.8098867 4288085770
6.244647 1.0296612 -1.8186225 4288085770
17.635664 2.8352816 -1.8228412 4288085770
5.1175427 0.84429234 -1.8134031 4288085770
7.8557835 1.271759 -1.8139372 4288085770
6.4226532 1.0435629 -1.8206578 4288085770
12.164161 1.9413462 -1.8117781 4288085770
8.1467953 1.2995982 -1.8219953 4288085770
17.831644 2.7971728 -1.8098875 4288085770
8.0047817 1.2736785 -1.8259678 4288085770
6.5886593 1.0544707 -1.8176911 4288085770
10.053955 1.5855314 -1.8283687 4288085770
5.9876056 0.957807 -1.8145738 4288085770
8.4428101 1.3264344 -1.8280547 4288085770
18.068634 2.7830427 -1.81594 4288085770
6.7556648 1.0643779 -1.8137248 4288085770
5.2085319 0.82924438 -1.8164217 4288085770
8.7638226 1.3542569 -1.8351192 4288085770
12.409134 1.8962128 -1.8118347 4288085770
6.9346709 1.0752782 -1.8097608 4288085770
18.516636 2.7887928 -1.8070352 4288085770
8.151763 1.2465988 -1.8230004 4288085770
6.1035943 0.94174498 -1.8165982 4288085770
10.328941 1.5653814 -1.8334284 4288085770
9.0698357 1.3780868 -1.8351811 4288085770
7.1166763 1.0841767 -1.8047978 4288085770
5.2915206 0.81220031 -1.8154391 4288085770
18.610607 2.7417438 -1.8160613 4288085770
9.3598461 1.396925 -1.8292402 4288085770
7.3486824 1.0990489 -1.8108447 4288085770
12.695107 1.8560569 -1.8158995 4288085770
9.6978588 1.420737 -1.8283091 4288085770
6.2065816 0.9226895 -1.8136203 4288085770
19.351637 2.7913308 -1.8142141 4288085770
8.3257494 1.2225046 -1.8240385 4288085770
10.604927 1.5442302 -1.8354886 4288085770
7.5536876 1.107935 -1.8058865 4288085770
5.3735099 0.7951566 -1.8124563 4288085770
10.054872 1.4445384 -1.8263819 4288085770
7.8036938 1.1217968 -1.8099375 4288085770
19.247585 2.7083924 -1.821202 4288085770
6.333571 0.90762138 -1.8166471 4288085770
10.463885 1.472311 -1.8284656 4288085770
13.044082 1.8188667 -1.8249778 4288085770
8.5087328 1.1984054 -1.8240788 4288085770
10.920912 1.5250574 -1.8405571 4288085770
8.0976992 1.1396351 -1.8209975 4288085770
5.4704981 0.77910495 -1.8134767 4288085770
10.901899 1.5000679 -1.8315556 4288085770
8.3757067 1.1524814 -1.8240547 4288085770
19.949564 2.6740043 -1.8243574 4288085770
6.4675593 0.89254922 -1.8196757 4288085770
11.353915 1.5268168 -1.8316488 4288085770
8.7027178 1.1742998 -1.8251215 4288085770
11.2379 1.5038835 -1.8426266 4288085770
5.5654879 0.76305407 -1.8124968 4288085770
13.428057 1.7836572 -1.8350633 4288085770
8.6157103 1.1583477 -1.8161047 4288085770
11.812926 1.5505611 -1.8277439 4288085770
6.5865488 0.87448472 -1.8167014 4288085770
8.945715 1.1731658 -1.8241727 4288085770
8.9267025 1.1531781 -1.8291705 4288085770
12.336943 1.5782697 -1.8278527 4288085770
5.6574769 0.74500471 -1.8095164 4288085770
11.550882 1.4787112 -1.8396957 4288085770
9.2607183 1.1829913 -1.8252382 4288085770
13.849034 1.7494272 -1.8481573 4288085770
6.7315378 0.85840648 -1.8187326 4288085770
12.944959 1.6119322 -1.832979 4288085770
9.6107235 1.1937977 -1.8283113 4288085770
5.7584662 0.72895026 -1.8075379 4288085770
11.902869 1.4575176 -1.8397731 4288085770
9.1206865 1.1260719 -1.8252138 4288085770
13.636977 1.6505485 -1.8431231 4288085770
14.331011 1.7171633 -1.8632643 4288085770
9.9697285 1.2035992 -1.8313867 4288085770
6.8525267 0.83934045 -1.8137591 4288085770
14.448999 1.6960984 -1.859292 4288085770
5.873456 0.71288848 -1.8085625 4288085770
12.281854 1.4353086 -1.8408563 4288085770
9.3656712 1.1029381 -1.8272678 4288085770
10.363731 1.212381 -1.8344696 4288085770
7.0095153 0.82325524 -1.814793 4288085770
15.36202 1.7465928 -1.8804827 4288085770
14.928988 1.6938363 -1.8903955 4288085770
6.005445 0.69881749 -1.8125907 4288085770
10.762733 1.2191598 -1.8345541 4288085770
12.726843 1.4170637 -1.8449538 4288085770
9.6356535 1.0807906 -1.8323271 4288085770
16.15004 1.776154 -1.876649 4288085770
7.1585045 0.8061738 -1.8118254 4288085770
11.220737 1.2289068 -1.840651 4288085770
6.1164351 0.68175739 -1.8096148 4288085770
15.456963 1.6555469 -1.9025139 4288085770
16.909052 1.7957298 -1.8608105 4288085770
13.331833 1.4107314 -1.8660845 4288085770
9.894639 1.055649 -1.8313849 4288085770
7.3074937 0.78709233 -1.8068582 4288085770
11.646736 1.2296702 -1.8367422 4288085770
6.2554235 0.6666823 -1.8126447 4288085770
17.693064 1.8092911 -1.8389784 4288085770
15.955935 1.6092722 -1.9056271 4288085770
12.127737 1.2324033 -1.835845 4288085770
13.913821 1.3984106 -1.8772111 4288085770
7.520483 0.77397674 -1.8159043 4288085770
10.172625 1.0304961 -1.8304466 4288085770
18.762083 1.8436958 -1.8362057 4288085770
6.3784132 0.64961517 -1.8086715 4288085770
12.673738 1.2371011 -1.8409621 4288085770
7.698472 0.75687909 -1.8129433 4288085770
14.663813 1.395998 -1.9033735 4288085770
16.456905 1.5579962 -1.9047419 4288085770
19.9081 1.8760573 -1.8314505 4288085770
10.501609 1.0083158 -1.8355193 4288085770
6.5174022 0.63253963 -1.8077019 4288085770
13.343739 1.2467309 -1.8561056 4288085770
7.8944621 0.73977178 -1.8119863 4288085770
15.412803 1.387585 -1.9215366 4282675967
10.869594 0.98711389 -1.8426006 4288085770
6.6643929 0.61645955 -1.8067341 4288085770
14.111738 1.2583072 -1.8782704 4288085770
16.907869 1.4967465 -1.8928473 4288085770
8.1044502 0.72365648 -1.8110327 4288085770
16.091791 1.367209 -1.9226863 4288085770
14.977739 1.2718292 -1.9044563 4288085770
11.258577 0.96390015 -1.8486868 4288085770
6.835382 0.60136652 -1.8097715 4288085770
17.409838 1.4354684 -1.880964 4288085770
8.3494415 0.70852232 -1.8150861 4288085770
15.811736 1.2723677 -1.9166371 4288085770
7.0073719 0.58627272 -1.8108091 4288085770
16.716778 1.3388613 -1.9098256 4288085770
11.613563 0.93670422 -1.8457664 4288085770
8.5764303 0.69139725 -1.8121364 4288085770
18.073807 1.3821017 -1.8811153 4288085770
7.1983609 0.57116842 -1.8138511 4288085770
16.48373 1.2529931 -1.9017856 4288085770
17.369761 1.3064976 -1.8919717 4288085770
12.012545 0.91048396 -1.8448557 4288085770
8.8674202 0.67723775 -1.8182002 4288085770
7.536365 0.57798016 -1.8089229 4288085770
7.2903562 0.56011701 -1.8038715 4288085770
7.0703483 0.54423958 -1.8018255 4288085770
7.7873745 0.59484041 -1.8109753 4288085770
6.8683391 0.52835238 -1.8007836 4288085770
8.0343838 0.61070222 -1.809027 4288085770
6.6753297 0.51245916 -1.8007439 4288085770
8.3173923 0.62754333 -1.8110869 4288085770
6.4823208 0.49656677 -1.7977037 4288085770
8.5804014 0.64239573 -1.8051422 4288085770
6.3113122 0.48166227 -1.7966682 4288085770
7.3843508 0.5560652 -1.8138925 4288085770
8.9284115 0.66220254 -1.8122153 4288085770
17.196716 1.2305942 -1.8869443 4288085770
6.1523037 0.46675146 -1.7976353 4288085770
6.1843047 0.46873385 -1.799642 4288085770
6.0292978 0.45782071 -1.8016096 4288085770
6.3613105 0.48063529 -1.801679 4288085770
5.8762918 0.44690615 -1.8015776 4288085770
9.2794199 0.68100721 -1.8162893 4288085770
6.5363173 0.49153733 -1.7997158 4288085770
5.7362847 0.43598473 -1.8035483 4288085770
5.604279 0.42605883 -1.8055209 4288085770
18.886774 1.3336507 -1.8892996 4288085770
6.7333221 0.50242788 -1.8027571 4288085770
6.0052948 0.45183408 -1.7996048 4288085770
18.256746 1.2860029 -1.8901684 4288085770
9.6934299 0.70177758 -1.8263768 4288085770
6.9333282 0.51331621 -1.8027992 4288085770
5.4742713 0.41413182 -1.8064938 4288085770
9.1944084 0.66505677 -1.8282725 4288085770
12.433528 0.88224912 -1.8409508 4288085770
5.8622866 0.4379144 -1.8005754 4288085770
5.351265 0.40320092 -1.8084681 4288085770
7.1623344 0.52518922 -1.8078474 4288085770
10.073441 0.71956557 -1.8254571 4288085770
5.2322583 0.39226773 -1.8094435 4288085770
7.3733401 0.53507131 -1.805892 4288085770
5.724277 0.42299202 -1.8015467 4288085770
10.566451 0.74229252 -1.8395616 4288085770
5.1192508 0.38033146 -1.8114201 4288085770
7.6163449 0.54493618 -1.8079435 4288085770
7.5853405 0.5399546 -1.8149371 4288085770
5.5802693 0.40807238 -1.7985166 4288085770
4.9982452 0.36839885 -1.8073949 4288085770
7.8763494 0.55579162 -1.8109984 4288085770
11.008458 0.76004565 -1.8376555 4288085770
18.026703 1.2061309 -1.8771292 4288085770
5.458261 0.39414111 -1.7994915 4288085770
8.1383553 0.56564564 -1.8110541 4288085770
11.567471 0.78373528 -1.8477743 4288085770
9.5473976 0.65186256 -1.8393503 4288085770
19.305735 1.2694192 -1.8934002 4288085770
8.4153605 0.5744912 -1.8101132 4288085770
5.346252 0.38020465 -1.8034682 4288085770
12.970512 0.85895216 -1.8490705 4288085770
12.02948 0.79747623 -1.8368732 4288085770
19.67174 1.2732142 -1.8864799 4288085770
8.7273645 0.58431762 -1.8121796 4288085770
5.2342434 0.36626801 -1.8054452 4288085770
7.78333 0.52384514 -1.8129814 4288085770
12.586492 0.81516486 -1.8319923 4288085770
9.087369 0.59511811 -1.8202565 4288085770
5.1272345 0.35232842 -1.8064231 4288085770
9.8513889 0.63569373 -1.8364179 4288085770
19.058691 1.1855565 -1.877358 4288085770
13.257503 0.8367914 -1.8371359 4288085770
9.4213734 0.60293186 -1.8183281 4288085770
5.0102258 0.337394 -1.8033987 4288085770
13.497496 0.83165938 -1.8481889 4288085770
14.065514 0.86334246 -1.8503089 4288085770
8.0243206 0.50871241 -1.8160349 4288085770
9.8293772 0.61270559 -1.8264159 4288085770
5.0072198 0.32939723 -1.8103985 4288085770
15.097525 0.89777082 -1.88153 4288085770
10.197378 0.61950207 -1.8374951 4288085770
10.22638 0.61948436 -1.8265014 4288085770
16.068539 0.9252305 -1.8917389 4288085770
10.678383 0.62723327 -1.8315989 4288085770
8.2853098 0.49356872 -1.8210928 4288085770
14.171479 0.80828649 -1.8613393 4288085770
5.1022105 0.3153457 -1.8114194 4288085770
10.599368 0.60527939 -1.8415841 4288085770
16.920551 0.93975329 -1.8769236 4288085770
11.175385 0.63495708 -1.8377063 4288085770
11.683388 0.63967425 -1.8388165 4288085770
17.900564 0.95620483 -1.8631361 4288085770
8.5292997 0.47743332 -1.8181474 4288085770
5.2012019 0.30229178 -1.8114413 4288085770
14.955462 0.78585249 -1.8785137 4288085770
11.047358 0.59103137 -1.8486834 4288085770
12.221389 0.64237434 -1.8379339 4288085770
19.276575 0.98543864 -1.8754338 4288085770
8.8272896 0.46226883 -1.8232137 4288085770
12.77039 0.64306772 -1.8320538 4288085770
11.480349 0.5747906 -1.8467801 4288085770
5.2921929 0.28724185 -1.8074616 4288085770
15.756443 0.75840795 -1.8876929 4288085770
13.44039 0.64569485 -1.8362001 4288085770
9.1412783 0.44709545 -1.8282837 4288085770
11.977337 0.55851448 -1.8488907 4288085770
5.4121833 0.27417672 -1.8114883 4288085770
14.230389 0.64825588 -1.846373 4288085770
16.527426 0.72497845 -1.8838668 4288085770
9.4062691 0.42894715 -1.8173434 4288085770
15.222385 0.65470606 -1.8715898 4288085770
12.498327 0.54222447 -1.8470068 4288085770
5.5081749 0.25912371 -1.80651 4288085770
9.7492609 0.41275686 -1.8184202 4288085770
16.100384 0.65021688 -1.8727831 4288085770
17.321405 0.68753499 -1.8720464 4288085770
13.087317 0.52589685 -1.848138 4288085770
5.624166 0.24506006 -1.805536 4288085770
16.998381 0.63971472 -1.861982 4288085770
10.12225 0.39754996 -1.8205036 4288085770
13.728308 0.51054001 -1.8492806 4288085770
18.366385 0.65495366 -1.8782808 4288085770
5.7581563 0.23098686 -1.8085657 4288085770
18.058371 0.6271233 -1.8582169 4288085770
10.557239 0.3823089 -1.8266006 4288085770
14.531299 0.49809408 -1.8604589 4288085770
5.1361356 0.19633567 -1.8104326 4288085770
19.465366 0.61834067 -1.8745281 4288085770
19.593365 0.62127084 -1.8855557 4288085770
5.8761473 0.21692175 -1.8055927 4288085770
11.00923 0.36705807 -1.8307016 4288085770
15.489286 0.48656267 -1.879671 4288085770
5.2561269 0.18427032 -1.8144594 4288085770
11.497218 0.35078698 -1.8338107 4288085770
6.0161386 0.20284498 -1.807624 4288085770
16.35928 0.46907723 -1.875865 4288085770
11.991209 0.33451146 -1.8299214 4288085770
5.3681192 0.17220888 -1.8144844 4288085770
17.367268 0.45251507 -1.8750894 4288085770
6.1581297 0.18876681 -1.807656 4288085770
12.571198 0.318189 -1.834051 4288085770
18.59926 0.438829 -1.883363 4288085770
5.4961104 0.16013885 -1.8175131 4288085770
6.3041215 0.17468604 -1.8056891 4288085770
13.235188 0.30281982 -1.8401991 4288085770
19.906248 0.42209959 -1.8816537 4288085770
5.5951037 0.14608341 -1.8085357 4288085770
6.4641123 0.15959793 -1.8067253 4288085770
13.950177 0.2864219 -1.8443589 4288085770
5.7230964 0.13401276 -1.8075645 4288085770
14.793166 0.27095309 -1.853547 4288085770
6.6381035 0.14550203 -1.8087646 4288085770
15.715157 0.25443974 -1.8597525 4288085770
5.8610888 0.12193661 -1.8075957 4288085770
6.8110948 0.13140622 -1.807804 4288085770
18.609169 0.26882267 -1.8513896 4288085770
17.361158 0.25251958 -1.8501163 4288085770
16.19615 0.23416927 -1.8418616 4288085770
16.755146 0.23786071 -1.8679845 4288085770
15.18214 0.21773449 -1.8326399 4288085770
14.301131 0.20122629 -1.8294477 4288085770
6.0160794 0.10885156 -1.8116306 4288085770
13.275123 0.18579879 -1.8242232 4288085770
12.573121 0.17819017 -1.8190693 4288085770
14.048127 0.19336763 -1.8283929 4288085770
11.959115 0.1695329 -1.8169348 4288085770
14.938128 0.19987157 -1.8355887 4288085770
13.508122 0.18466863 -1.8232747 4288085770
7.0140848 0.11729429 -1.8118497 4288085770
11.40711 0.16084117 -1.815814 4288085770
15.939131 0.20531371 -1.843809 4288085770
10.895104 0.15112689 -1.8127022 4288085770
17.886135 0.21922997 -1.870237 4288085770
12.793114 0.16906765 -1.819119 4288085770
17.054132 0.20969197 -1.8500546 4288085770
10.437099 0.14138302 -1.8136022 4288085770
18.315132 0.21198884 -1.8573328 4288085770
12.156106 0.15342319 -1.8149804 4288085770
10.004094 0.1316247 -1.8105078 4288085770
19.740133 0.21219361 -1.8606477 4288085770
6.1600728 0.09677171 -1.8096633 4288085770
19.269121 0.20245942 -1.8795452 4288085770
11.589098 0.13773996 -1.812857 4288085770
7.2110753 0.10218518 -1.8118945 4288085770
9.6260872 0.12083638 -1.8124256 4288085770
9.2510805 0.11104582 -1.8103439 4288085770
11.082089 0.1230235 -1.8127469 4288085770
6.3240643 0.084681235 -1.8117003 4288085770
8.9340744 0.10022367 -1.8132751 4288085770
10.613079 0.1082857 -1.8116452 4288085770
7.4230671 0.088067733 -1.8129426 4288085770
8.6030684 0.088408418 -1.8092031 4288085770
10.17907 0.092528485 -1.810551 4288085770
6.4850578 0.072591804 -1.8097368 4288085770
8.3260593 0.077563979 -1.8121431 4288085770
7.6530571 0.072940387 -1.8149948 4288085770
9.8020611 0.077739976 -1.8134694 4288085770
8.0490541 0.065718941 -1.810083 4288085770
6.6760497 0.060486436 -1.8137802 4288085770
9.4240522 0.062951244 -1.8103874 4288085770
7.9030476 0.058802046 -1.8190516 4288085770
7.7830477 0.054867737 -1.8080255 4288085770
6.8570423 0.048385769 -1.811821 4288085770
9.1170425 0.048124142 -1.8163213 4288085770
8.1550379 0.043661907 -1.8181088 4288085770
7.5590401 0.042993851 -1.810977 4288085770
7.063035 0.037271746 -1.8148676 4288085770
8.773036 0.034316055 -1.8102465 4288085770
7.3240337 0.032125399 -1.808926 4288085770
8.4340296 0.029507004 -1.820172 4288085770
7.285027 0.025148809 -1.8179179 4288085770
8.4910259 0.019474521 -1.8121856 4288085770
7.1130261 0.020243913 -1.8088801 4288085770
8.724021 0.014345825 -1.8212379 4288085770
7.5090203 0.013024293 -1.8179686 4288085770
8.2110167 0.0056313202 -1.810125 4288085770
9.0610123 -0.00084095448 -1.8273141 4288085770
6.9120193 0.0083568767 -1.8088367 4288085770
7.7400131 0.00089555606 -1.8160211 4288085770
9.4050016 -0.016032387 -1.828392 4288085770
7.9520082 -0.0092232488 -1.8100691 4288085770
8.0060053 -0.011251934 -1.8200814 4288085770
6.7090125 -0.0035295598 -1.8047926 4288085770
9.7599916 -0.032230228 -1.8274727 4288085770
8.2859983 -0.02240761 -1.8221445 4288085770
7.7080007 -0.023086328 -1.8090162 4288085770
10.157985 -0.047451779 -1.8295629 4288085770
6.5290041 -0.015428241 -1.8047537 4288085770
8.5739908 -0.034568012 -1.8222097 4288085770
19.636923 -0.1487408 -1.8656783 4288085770
10.583974 -0.062689282 -1.8296592 4288085770
8.9129829 -0.045756027 -1.8292862 4288085770
19.573908 -0.16970223 -1.8866677 4288085770
9.2349777 -0.056935806 -1.8273588 4288085770
7.471992 -0.037953928 -1.8069652 4288085770
11.031965 -0.078939222 -1.8287605 4288085770
18.215916 -0.1659476 -1.8573658 4288085770
6.3649964 -0.028335631 -1.8057183 4288085770
18.147909 -0.16690679 -1.877351 4288085770
9.59797 -0.068138108 -1.8284409 4288085770
11.543957 -0.09522453 -1.8308761 4288085770
16.895914 -0.16320828 -1.8700728 4288085770
9.9879656 -0.078355432 -1.8305286 4288085770
15.807915 -0.15860137 -1.8628309 4288085770
12.101946 -0.11153561 -1.8330022 4288085770
10.403958 -0.089587525 -1.8306223 4288085770
14.84592 -0.15206477 -1.8566165 4288085770
10.845954 -0.098834537 -1.8287216 4288085770
16.992907 -0.18226506 -1.8480971 4288085770
7.2579823 -0.052833617 -1.8059192 4288085770
13.984924 -0.14458489 -1.8484246 4288085770
11.355947 -0.10911898 -1.8308361 4288085770
12.730937 -0.12788607 -1.8371439 4288085770
13.212932 -0.1361545 -1.8422519 4288085770
11.921943 -0.11843449 -1.8349631 4288085770
12.534936 -0.12777652 -1.8371005 4288085770
6.2069888 -0.040246397 -1.806684 4288085770
13.432925 -0.14527707 -1.843302 4288085770
14.211915 -0.16271126 -1.8484775 4288085770
15.105903 -0.18120943 -1.8556783 4288085770
16.085894 -0.19975612 -1.8598984 4288085770
18.53187 -0.23811981 -1.8774468 4288085770
17.210884 -0.21838355 -1.8661507 4288085770
15.967894 -0.19969186 -1.8478723 4288085770
7.0529742 -0.066718355 -1.8048747 4288085770
6.0639806 -0.053165164 -1.8096532 4288085770
15.011887 -0.21515825 -1.8396622 4288085770
6.8739643 -0.081616968 -1.8078362 4288085770
5.8999734 -0.065073319 -1.8046174 4288085770
14.167877 -0.23168683 -1.8334769 4288085770
6.6909556 -0.095513895 -1.8067966 4288085770
5.7619658 -0.076995268 -1.8045875 4288085770
13.436869 -0.247278 -1.8313166 4288085770
18.881779 -0.4013142 -1.8615484 4288085770
6.5199466 -0.10941736 -1.8067595 4288085770
5.6469564 -0.089929283 -1.8095626 4288085770
12.76386 -0.26290175 -1.8271691 4288085770
17.611773 -0.41360494 -1.8542682 4288085770
12.17085 -0.27857 -1.8240391 4288085770
6.3529387 -0.12332343 -1.8037232 4288085770
5.5269475 -0.10286075 -1.8125366 4288085770
16.511763 -0.4269903 -1.8490256 4288085770
11.619842 -0.29426184 -1.8199184 4288085770
6.2059283 -0.13823988 -1.8056916 4288085770
5.4109392 -0.11579467 -1.8135114 4288085770
15.537756 -0.4404462 -1.8418108 4288085770
11.160829 -0.31100389 -1.8238181 4288085770
6.0649199 -0.15215999 -1.8056611 4288085770
5.2919307 -0.12772721 -1.8124852 4288085770
14.696747 -0.45497575 -1.8396256 4288085770
10.72382 -0.32775873 -1.8237228 4288085770
5.9279108 -0.16608228 -1.8056312 4288085770
5.1829228 -0.1406651 -1.8124615 4288085770
13.947738 -0.46855673 -1.8364606 4288085770
10.336808 -0.34454101 -1.8266383 4288085770
5.7899022 -0.18000421 -1.803601 4288085770
13.26373 -0.48217401 -1.8333098 4288085770
9.9597979 -0.3603293 -1.8265558 4288085770
5.6688929 -0.19393522 -1.8045747 4288085770
12.646721 -0.49682853 -1.8311741 4288085770
9.6087866 -0.37613207 -1.8264792 4288085770
19.426527 -0.83260775 -1.8767347 4288085770
18.976528 -0.8203541 -1.8926327 4288085770
5.5478835 -0.20786634 -1.8045483 4288085770
12.090712 -0.51151717 -1.8280518 4288085770
9.2777777 -0.3919462 -1.8244069 4288085770
17.747524 -0.83066791 -1.8803602 4288085770
11.603702 -0.52724373 -1.8289449 4288085770
5.4478731 -0.22280854 -1.8085265 4288085770
18.373499 -0.87501866 -1.8705066 4288085770
8.9747677 -0.4077757 -1.8243406 4288085770
11.167689 -0.54399848 -1.8318495 4288085770
16.682518 -0.839073 -1.8701239 4288085770
5.3488636 -0.23675162 -1.810505 4288085770
8.6927586 -0.42361695 -1.8232788 4288085770
17.433481 -0.91349268 -1.8633026 4288085770
10.76068 -0.55976963 -1.8327601 4288085770
15.768513 -0.84656161 -1.8669209 4288085770
5.2428546 -0.25069097 -1.8104818 4288085770
8.4287472 -0.43946829 -1.822221 4288085770
10.37167 -0.57455128 -1.8316746 4288085770
14.959509 -0.85210848 -1.8667409 4288085770
16.599457 -0.95102578 -1.8571219 4288085770
8.1757374 -0.45532569 -1.8211657 4288085770
14.171511 -0.85166824 -1.8585644 4288085770
10.002659 -0.59034395 -1.8295935 4288085770
7.9397283 -0.47019273 -1.819114 4288085770
15.883434 -0.98962408 -1.8559676 4288085770
13.484509 -0.85228354 -1.8564104 4288085770
9.6766491 -0.6061604 -1.829522 4288085770
7.7247176 -0.4860712 -1.8190669 4288085770
12.862508 -0.85093534 -1.8542707 4288085770
15.24241 -1.0272641 -1.8548297 4288085770
9.3556414 -0.62097996 -1.8274511 4288085770
19.537218 -1.3566549 -1.9058403 4288085770
12.26551 -0.84760123 -1.8501362 4288085770
7.5267062 -0.50295889 -1.8200235 4288085770
18.152246 -1.3118829 -1.8875238 4288085770
9.0766306 -0.63682264 -1.82739 4288085770
14.634388 -1.0629227 -1.8516984 4288085770
11.731511 -0.84330201 -1.8490154 4288085770
7.3216977 -0.51784325 -1.8169783 4288085770
16.960268 -1.2732179 -1.874251 4288085770
11.246512 -0.83903015 -1.8489056 4288085770
8.7836218 -0.65165788 -1.8233253 4288085770
15.985283 -1.2426726 -1.8730279 4288085770
14.102367 -1.0986235 -1.8515841 4288085770
7.1336875 -0.53273678 -1.8159372 4288085770
10.806513 -0.83478314 -1.8498056 4288085770
15.140297 -1.2161994 -1.8728344 4288085770
8.5206118 -0.66650987 -1.8202672 4288085770
10.391516 -0.82855016 -1.850711 4288085770
19.114092 -1.5704123 -1.9147788 4288085770
6.9736757 -0.55064535 -1.8189023 4288085770
14.328312 -1.1867454 -1.8686478 4288085770
13.599347 -1.1313411 -1.8484759 4288085770
9.9875193 -0.82032406 -1.8476187 4288085770
8.3015985 -0.68438548 -1.8232195 4288085770
13.582328 -1.1573288 -1.8624758 4288085770
9.6105242 -0.811113 -1.8445319 4288085770
18.088087 -1.5788391 -1.9015504 4288085770
6.8136644 -0.56655413 -1.819867 4288085770
12.900344 -1.1289479 -1.8563179 4288085770
9.2525282 -0.80191243 -1.8414496 4288085770
13.151326 -1.1660886 -1.8483797 4288085770
8.0785894 -0.70025921 -1.8231704 4288085770
12.300359 -1.102612 -1.854179 4288085770
19.209003 -1.7514721 -1.8418286 4288085770
8.9315338 -0.79273248 -1.8403753 4288085770
19.126009 -1.7544295 -1.8148103 4293729569
6.6596541 -0.58246642 -1.819833 4288085770
17.207083 -1.5873458 -1.8953543 4288085770
11.750371 -1.0783044 -1.8510513 4288085770
8.6225376 -0.78255934 -1.8393039 4288085770
7.8585801 -0.71513516 -1.8191218 4288085770
11.263383 -1.0560315 -1.8539382 4288085770
12.737305 -1.2008551 -1.8482915 4288085770
8.329545 -0.77139509 -1.8372358 4288085770
17.927021 -1.7327602 -1.7995381 4293729569
6.4996452 -0.59737587 -1.8157978 4288085770
10.813394 -1.034779 -1.8548334 4288085770
16.416075 -1.5979023 -1.8931781 4288085770
8.0465508 -0.76023674 -1.8341699 4288085770
17.87002 -1.7547352 -1.7465286 4293729569
7.6755686 -0.73203081 -1.8220817 4288085770
10.376406 -1.0115345 -1.8527312 4288085770
7.7965555 -0.75009638 -1.8341113 4288085770
12.321287 -1.2296216 -1.8412013 4288085770
9.954421 -0.98629898 -1.8476322 4288085770
6.365634 -0.61429906 -1.8167682 4288085770
7.549562 -0.73795819 -1.8310534 4288085770
16.987019 -1.7372359 -1.7793278 4293729569
15.639072 -1.5974677 -1.8840034 4288085770
9.5774326 -0.96408796 -1.8455434 4288085770
7.3145685 -0.72582662 -1.8289981 4288085770
7.4885569 -0.74892467 -1.8210406 4288085770
17.180998 -1.799351 -1.7253808 4293729569
9.2204447 -0.94288838 -1.8424594 4288085770
7.1065731 -0.71570951 -1.8309492 4288085770
6.2426219 -0.63122809 -1.8197414 4288085770
8.8924561 -0.9207049 -1.8413818 4288085770
6.9095778 -0.70459884 -1.8319025 4288085770
11.952268 -1.2604138 -1.8391221 4288085770
14.973067 -1.6030937 -1.8848542 4288085770
6.7085848 -0.69248629 -1.829855 4288085770
8.5664682 -0.89852303 -1.8353046 4288085770
16.200016 -1.7477958 -1.7671524 4293729569
7.3195457 -0.76582831 -1.8220034 4288085770
6.5105925 -0.67937577 -1.8258078 4288085770
8.2804794 -0.87836295 -1.8342367 4288085770
6.3395982 -0.66827965 -1.8267672 4288085770
8.0124912 -0.85821277 -1.8341728 4288085770
6.1136107 -0.64715433 -1.8187129 4288085770
16.546978 -1.8409973 -1.7042447 4293729569
6.1776042 -0.65618873 -1.8277284 4288085770
7.7445035 -0.83706331 -1.8301088 4288085770
14.342065 -1.6037397 -1.8827119 4288085770
6.0126104 -0.64409637 -1.825689 4288085770
11.59625 -1.2902133 -1.8340454 4288085770
7.5125127 -0.81893319 -1.8310535 4288085770
7.1385369 -0.77972609 -1.816963 4288085770
5.8546181 -0.63100791 -1.824651 4288085770
7.291522 -0.80080938 -1.8310007 4288085770
15.564002 -1.7684389 -1.7630123 4293729569
5.7016263 -0.6179226 -1.8216141 4288085770
7.0665345 -0.78068399 -1.8269465 4288085770
5.5836296 -0.60785562 -1.8275857 4288085770
6.8665442 -0.76257217 -1.8258984 4288085770
5.4456363 -0.59577841 -1.8265525 4288085770
5.9926009 -0.66308498 -1.8176861 4288085770
6.6725535 -0.7444635 -1.8258517 4288085770
5.3226423 -0.58370936 -1.8275228 4288085770
5.1936498 -0.5706374 -1.8254915 4288085770
6.4825649 -0.72535771 -1.8228058 4288085770
13.719068 -1.5993907 -1.8775705 4282675967
6.3095746 -0.70826101 -1.8217638 4288085770
5.2066464 -0.57764494 -1.8214951 4288085770
6.1455841 -0.69116932 -1.8207241 4288085770
5.9945931 -0.67408484 -1.8216873 4288085770
16.094942 -1.8967433 -1.6981516 4293729569
5.323637 -0.59371012 -1.8215237 4288085770
5.4436293 -0.60877728 -1.8205531 4288085770
5.8476019 -0.65800267 -1.8216516 4288085770
5.7046113 -0.64092296 -1.8206167 4288085770
5.570621 -0.62484807 -1.8205841 4288085770
6.9915252 -0.79764175 -1.8189309 4288085770
11.296231 -1.3220434 -1.8339816 4288085770
17.222895 -2.0463958 -1.5404286 4293729569
14.923993 -1.7820808 -1.75187 4293729569
5.8775897 -0.6790188 -1.8176605 4288085770
13.15607 -1.5930752 -1.8734422 4288085770
6.857512 -0.81556451 -1.8229016 4288085770
16.774868 -2.0701363 -1.5903316 4293729569
17.352865 -2.150485 -1.4144741 4293729569
11.040207 -1.3588976 -1.8379285 4288085770
15.755904 -1.9625511 -1.7000852 4293729569
14.332985 -1.7967501 -1.7417387 4293729569
5.7605796 -0.69495177 -1.8156344 4288085770
12.632071 -1.587781 -1.8713226 4288085770
16.479832 -2.1099608 -1.6532712 4293729569
6.7105017 -0.8314808 -1.820869 4288085770
16.912828 -2.2032335 -1.4363834 4293729569
10.75019 -1.3877339 -1.8338661 4288085770
12.154073 -1.5825121 -1.8722131 4282675967
15.409867 -2.0223556 -1.6980163 4293729569
5.6655679 -0.71189636 -1.8186134 4288085770
16.970894 -2.2383196 -1.0654017 4293729569
13.868971 -1.8204889 -1.7396371 4293729569
17.054979 -2.2524271 -0.65042281 4293729569
16.028812 -2.1237009 -1.6981716 4293729569
6.5744905 -0.84840286 -1.8198389 4288085770
16.966858 -2.2863109 -1.1014085 4293729569
16.975946 -2.3053818 -0.64941335 4293729569
11.66208 -1.5692369 -1.8640993 4288085770
16.958031 -2.3084269 -0.27240956 4293729569
16.784765 -2.2941525 -1.4833686 4293729569
16.934025 -2.3174124 -0.27640557 4293729569
10.561163 -1.4276246 -1.8428284 4288085770
5.5785546 -0.72984505 -1.8225943 4288085770
15.442808 -2.1133683 -1.7230376 4293729569
13.524945 -1.8582932 -1.7485646 4293729569
16.951912 -2.3443596 -0.70341408 4293729569
15.161823 -2.0942132 -1.7039711 4293729569
16.915829 -2.3502867 -1.0624069 4293729569
6.4484792 -0.86533058 -1.8198109 4288085770
11.283077 -1.5670222 -1.8710124 4288085770
14.834815 -2.0930245 -1.739897 4293729569
16.927784 -2.3982821 -1.1344173 4293729569
5.4795437 -0.74578792 -1.8215719 4288085770
16.921881 -2.4183469 -0.66641903 4293729569
16.821686 -2.4051616 -1.5463947 4293729569
16.930964 -2.4254096 -0.27142194 4293729569
10.382135 -1.467521 -1.8517927 4288085770
16.920973 -2.426409 -0.2364198 4293729569
12.947948 -1.8579721 -1.7234335 4293729569
6.3194695 -0.88125688 -1.8167822 4288085770
16.949839 -2.4513476 -0.76343048 4293729569
10.859085 -1.5537845 -1.8669138 4288085770
15.067766 -2.1851552 -1.7249639 4293729569
14.033847 -2.0385771 -1.7287071 4293729569
16.955755 -2.4763067 -1.064436 4293729569
5.3885322 -0.76273501 -1.8215518 4288085770
17.0137 -2.5273216 -1.1734573 4293729569
10.47309 -1.5425675 -1.8648237 4288085770
16.806608 -2.511142 -1.607408 4293729569
10.173115 -1.5014015 -1.8537493 4288085770
6.2074575 -0.89819217 -1.8177575 4288085770
16.87081 -2.5313129 -0.6854254 4293729569
13.366869 -1.9952033 -1.726549 4293729569
12.575933 -1.8817625 -1.7203523 4293729569
14.696739 -2.2329476 -1.711887 4293729569
10.113093 -1.5313649 -1.8647395 4288085770
5.3095193 -0.78068823 -1.8245343 4288085770
12.679898 -1.94382 -1.7143849 4293729569
16.519567 -2.5699737 -1.6433525 4293729569
6.1004448 -0.91613007 -1.8187339 4288085770
9.9640932 -1.5342823 -1.8527057 4288085770
12.145927 -1.8935221 -1.705256 4293729569
9.7401037 -1.5131562 -1.8566512 4288085770
12.134917 -1.9065145 -1.7132553 4293729569
14.446702 -2.295805 -1.71084 4293729569
5.2215095 -0.79663712 -1.8235145 4288085770
6.0044322 -0.93507403 -1.8207128 4288085770
9.4301081 -1.5019814 -1.8575783 4288085770
16.270519 -2.632827 -1.6823062 4293729569
11.609937 -1.8692199 -1.7111298 4293729569
9.7750721 -1.5671742 -1.8536664 4288085770
11.736923 -1.9042935 -1.690164 4293729569
9.1121159 -1.4868027 -1.8545026 4288085770
14.202667 -2.3546667 -1.7067935 4293729569
11.153954 -1.8379636 -1.7130208 4293729569
5.9064207 -0.95201725 -1.8206911 4288085770
15.816502 -2.6565685 -1.6992071 4293729569
9.5960522 -1.6000719 -1.8536294 4288085770
8.8201227 -1.4726384 -1.8524332 4288085770
11.324922 -1.9090639 -1.6700699 4293729569
10.748967 -1.8097351 -1.7189238 4293729569
5.8124084 -0.96996224 -1.8216703 4288085770
14.062619 -2.4315851 -1.7137736 4293729569
8.5451298 -1.4574835 -1.8513672 4288085770
10.440968 -1.7965592 -1.735851 4293729569
15.428478 -2.6843464 -1.7211235 4293729569
9.4150314 -1.6329685 -1.8515918 4288085770
10.883928 -1.9048195 -1.6419681 4293729569
8.2901363 -1.4443396 -1.8523061 4288085770
10.098978 -1.7733656 -1.7437689 4293729569
5.7133985 -0.98590523 -1.8186481 4288085770
14.965467 -2.6940835 -1.7340199 4293729569
13.925575 -2.506505 -1.7197537 4293729569
8.0281458 -1.4271924 -1.8482429 4288085770
9.850976 -1.7642227 -1.7647103 4293729569
9.2460127 -1.6638716 -1.8505566 4288085770
10.620914 -1.9276708 -1.6369107 4293729569
5.6343846 -1.0048585 -1.8216306 4288085770
9.6809664 -1.7671216 -1.7976713 4288085770
7.7821536 -1.4100541 -1.845183 4288085770
14.422472 -2.6817782 -1.7338943 4293729569
13.713541 -2.5643845 -1.7137144 4293729569
9.5289545 -1.7710302 -1.8326366 4288085770
7.561161 -1.3949294 -1.8451293 4288085770
9.1089888 -1.7007923 -1.8535298 4288085770
10.401896 -1.9575464 -1.6368643 4293729569
5.5433741 -1.0218058 -1.8186102 4288085770
9.3299513 -1.7639142 -1.8565894 4288085770
7.3541675 -1.3808125 -1.8460789 4288085770
13.827489 -2.6514452 -1.7237539 4293729569
9.0599623 -1.7407613 -1.8635236 4288085770
13.491509 -2.6192596 -1.704672 4293729569
7.1381769 -1.3626909 -1.8430257 4288085770
8.9919634 -1.7397236 -1.8585074 4288085770
10.221874 -1.9914424 -1.6398274 4293729569
5.4733591 -1.0417638 -1.822595 4288085770
8.7979727 -1.7176127 -1.8704594 4282675967
13.23551 -2.6151145 -1.7106129 4293729569
6.9371853 -1.3465778 -1.8409762 4288085770
8.4529991 -1.6744212 -1.855373 4288085770
6.7571912 -1.3324757 -1.8429317 4288085770
13.340469 -2.6871724 -1.7036479 4293729569
5.3983474 -1.0597196 -1.8225783 4288085770
8.8209476 -1.7666266 -1.850471 4288085770
10.05385 -2.0273457 -1.6437935 4293729569
10.673823 -2.1617234 -1.4319561 4293729569
8.2150097 -1.6512862 -1.8603142 4288085770
6.5672016 -1.3133692 -1.8388846 4288085770
7.9370294 -1.6161311 -1.8532444 4288085770
6.3982091 -1.2982736 -1.8388424 4288085770
5.3313341 -1.0786796 -1.8245635 4288085770
10.524825 -2.1856494 -1.3589249 4293729569
7.6820469 -1.5849885 -1.8471805 4288085770
10.510799 -2.1896262 -1.4599222 4293729569
8.5759449 -1.7764908 -1.8264149 4288085770
10.592905 -2.2097473 -0.95694387 4293729569
9.9188242 -2.0682669 -1.6497678 4293729569
6.2302175 -1.282179 -1.8368006 4288085770
10.521917 -2.2197196 -0.87192881 4293729569
7.4580612 -1.5578623 -1.8471242 4288085770
10.558967 -2.2397797 -0.6079402 4293729569
6.080224 -1.2670939 -1.8387628 4288085770
10.615067 -2.2648852 -0.11195652 4293729569
10.595071 -2.2618752 -0.10595144 4293729569
7.2420754 -1.5307411 -1.8450696 4288085770
5.2593222 -1.0966372 -1.8235475 4288085770
10.418766 -2.2305667 -1.4979067 4293729569
10.479874 -2.2446764 -0.99592257 4293729569
10.428792 -2.2405932 -1.3579105 4293729569
5.9222336 -1.250005 -1.8357228 4288085770
8.3029499 -1.7763407 -1.7933507 4288085770
10.487956 -2.2617412 -0.59592688 4293729569
9.7827978 -2.1081874 -1.6547415 4293729569
7.0290914 -1.5026217 -1.8420156 4288085770
5.773242 -1.232921 -1.833685 4288085770
10.453881 -2.2806785 -0.87692177 4293729569
6.8301058 -1.4755099 -1.839965 4288085770
10.483929 -2.2967324 -0.62893093 4293729569
10.434834 -2.2936425 -1.0409192 4293729569
10.300736 -2.2644939 -1.5318841 4293729569
5.1933093 -1.1145977 -1.8245326 4288085770
10.527031 -2.3178308 -0.13494372 4293729569
5.6262517 -1.2148383 -1.8306475 4288085770
10.512039 -2.3208287 -0.090940639 4293729569
6.6551175 -1.4524112 -1.8409204 4288085770
10.386751 -2.3085666 -1.3629105 4293729569
8.0609512 -1.7802072 -1.764294 4288085770
10.439921 -2.3267138 -0.58092499 4293729569
9.6907654 -2.156132 -1.6667268 4293729569
5.5032592 -1.2007686 -1.8336161 4288085770
6.4691324 -1.425307 -1.8368731 4288085770
10.418791 -2.3486245 -1.0899234 4293729569
10.429836 -2.3526618 -0.88392651 4293729569
5.3852644 -1.1877012 -1.8355862 4288085770
10.189709 -2.2984245 -1.5678631 4293729569
6.3001456 -1.4012119 -1.8358296 4288085770
10.450884 -2.3637083 -0.65293288 4293729569
10.489985 -2.3828042 -0.15994447 4293729569
10.499998 -2.3938224 -0.07694836 4293729569
5.2592731 -1.1716301 -1.8345537 4288085770
6.1391587 -1.3771217 -1.833788 4288085770
10.381704 -2.3835599 -1.3719199 4293729569
7.8509502 -1.7890909 -1.7412454 4293729569
9.5637407 -2.1950576 -1.6697024 4293729569
5.9901714 -1.3540378 -1.8337497 4288085770
10.459878 -2.4067249 -0.56794119 4293729569
10.411745 -2.4036114 -1.1399298 4293729569
10.053686 -2.3233416 -1.5978351 4293729569
5.8431835 -1.3309549 -1.8327115 4288085770
10.440787 -2.4326642 -0.89194059 4293729569
10.458832 -2.4397066 -0.68094575 4293729569
5.7021952 -1.3088757 -1.8316748 4288085770
10.498937 -2.4578035 -0.18595745 4293729569
10.524954 -2.4758368 -0.060966045 4293729569
5.5652084 -1.2857991 -1.8286391 4288085770
10.428698 -2.4656107 -1.1949427 4293729569
7.7199364 -1.8130163 -1.7332171 4293729569
9.9216614 -2.349261 -1.6298078 4293729569
10.413652 -2.4685733 -1.3839397 4293729569
9.4347172 -2.2319829 -1.6716775 4293729569
10.534825 -2.4997666 -0.55697203 4293729569
5.4432182 -1.2657301 -1.8296072 4288085770
5.328228 -1.2466651 -1.8315773 4288085770
10.525772 -2.5287364 -0.71397436 4293729569
5.2162385 -1.2266018 -1.8325478 4288085770
10.509638 -2.5426457 -1.2579734 4293729569
9.6966581 -2.3481331 -1.6447556 4293729569
7.6199164 -1.8439605 -1.7311976 4293729569
9.3156929 -2.2699158 -1.673655 4293729569
12.595233 -3.0917466 -1.6805394 4293729569
13.688054 -3.4023535 -1.7048393 4293729569
9.53864 -2.362041 -1.6707195 4293729569
7.5488925 -1.8819201 -1.7331843 4293729569
9.2186651 -2.3118613 -1.6776367 4293729569
12.539186 -3.1707158 -1.6795371 4293729569
13.053103 -3.3110003 -1.6956775 4293729569
9.3106384 -2.3549118 -1.6826639 4293729569
12.444155 -3.2206621 -1.6845213 4293729569
