# .PCD v0.7 - Point Cloud Data file format
VERSION 0.7
FIELDS x y z rgb
SIZE 4 4 4 4
TYPE F F F U
COUNT 1 1 1 1
WIDTH 1114
HEIGHT 1
VIEWPOINT 0 0 0 1 0 0 0
POINTS 1114
DATA ascii
7.5088196 -1.919446 -1.8280264 4288085770
6.8848877 -1.8822975 -1.8187135 4288085770
6.308075 -1.8458786 -1.8125525 4288085770
13.99173 -3.193861 -1.9586797 4288085770
5.8125305 -1.8169804 -1.810158 4288085770
11.990356 -2.9287653 -1.8769546 4288085770
5.3117676 -1.783083 -1.804002 4288085770
10.81189 -2.796011 -1.8570635 4288085770
4.8934021 -1.7577238 -1.8045629 4288085770
9.8200684 -2.6871529 -1.8456938 4288085770
4.4819641 -1.7303009 -1.8028672 4288085770
8.9989319 -2.6002979 -1.8434857 4288085770
4.0885315 -1.7017689 -1.8014759 4288085770
8.1702881 -2.5044193 -1.8326309 4288085770
3.7382507 -1.6779833 -1.8023618 4288085770
7.4611206 -2.4248343 -1.8269831 4288085770
3.4089661 -1.6540594 -1.8024275 4288085770
6.8190918 -2.3508387 -1.8226671 4288085770
3.1098633 -1.6329765 -1.806293 4288085770
6.1898193 -2.2727156 -1.812879 4288085770
2.8156433 -1.6098385 -1.8069819 4288085770
5.6116638 -2.1992893 -1.8050555 4288085770
2.5232544 -1.583662 -1.8046187 4288085770
5.1098633 -2.1374149 -1.8011614 4288085770
2.2550354 -1.560359 -1.8052912 4288085770
4.6602783 -2.0822439 -1.8011751 4288085770
2.0089417 -1.5389338 -1.8080854 4288085770
4.2547913 -2.0328064 -1.8024197 4288085770
1.7626953 -1.5144854 -1.8079063 4288085770
3.8581848 -1.981286 -1.8003312 4288085770
1.5315247 -1.4919462 -1.8081244 4288085770
3.4997253 -1.9345474 -1.8007151 4288085770
1.3123169 -1.4693346 -1.8088729 4288085770
3.1734314 -1.8926277 -1.8038054 4288085770
1.0930176 -1.4436998 -1.8066479 4288085770
2.8863525 -1.8564892 -1.8103204 4288085770
0.89898682 -1.4229469 -1.8094014 4288085770
2.5769043 -1.8134336 -1.809757 4288085770
0.70581055 -1.4011641 -1.8091259 4288085770
2.3107605 -1.7771416 -1.8134531 4288085770
0.51251221 -1.3753672 -1.8068846 4288085770
2.0494995 -1.738801 -1.8149717 4288085770
0.31811523 -1.3485584 -1.8026917 4288085770
1.7991943 -1.7013874 -1.8160526 4288085770
0.13684082 -1.3236723 -1.7989738 4288085770
1.5305786 -1.6570292 -1.8098985 4288085770
-0.0081176758 -1.3056278 -1.8037864 4288085770
1.307373 -1.6224518 -1.8118989 4288085770
-0.16125488 -1.2845964 -1.8039391 4288085770
1.0971375 -1.5877819 -1.8123925 4288085770
-0.31652832 -1.2615547 -1.8011881 4288085770
0.86962891 -1.5481758 -1.8075943 4288085770
-0.45559692 -1.240448 -1.8027925 4288085770
0.65716553 -1.5104895 -1.8041931 4288085770
-0.59268188 -1.2193184 -1.8033193 4288085770
0.47497559 -1.4786415 -1.8045679 4288085770
0.29470825 -1.4457722 -1.8038732 4288085770
0.12243652 -1.4128513 -1.8028662 4288085770
-0.029632568 -1.3848295 -1.8050348 4288085770
-0.19604492 -1.3518448 -1.8007953 4288085770
-0.33511353 -1.3247452 -1.8034474 4288085770
-0.47229004 -1.2966166 -1.804031 4288085770
-0.62060547 -1.2645216 -1.8000799 4288085770
-0.92596436 0.70036793 -1.7420529 4288085770
-0.80795288 0.71412373 -1.739572 4288085770
-0.67575073 0.72992802 -1.7415602 4288085770
-0.53457642 0.74479866 -1.7421917 4288085770
-0.39950562 0.759655 -1.7400585 4288085770
-0.24639893 0.77560616 -1.7402327 4288085770
-0.083221436 0.79161453 -1.7410179 4288085770
0.070831299 0.80659294 -1.7381479 4288085770
-0.88619995 0.75353909 -1.7459627 4288085770
0.25805664 0.82374668 -1.7400078 4288085770
-0.76724243 0.76430511 -1.7424209 4288085770
0.45330811 0.84094048 -1.7425566 4288085770
-0.62094116 0.77719498 -1.7448406 4288085770
0.64639282 0.85715294 -1.7411788 4288085770
-0.47579956 0.78909111 -1.7452931 4288085770
0.8626709 0.87548542 -1.742921 4288085770
-0.32763672 0.80101776 -1.7446306 4288085770
1.0858154 0.89288044 -1.7423853 4288085770
-0.16851807 0.81301689 -1.7435408 4288085770
1.3471985 0.91346741 -1.7473934 4288085770
0.0087585449 0.8260994 -1.7457572 4288085770
1.6235962 0.93315315 -1.7518108 4288085770
0.17074585 0.83714294 -1.7415458 4288085770
1.9441528 0.95707226 -1.7615474 4288085770
0.35592651 0.84929562 -1.7414458 4288085770
2.1990967 0.97372532 -1.7537676 4288085770
0.58444214 0.86464977 -1.7496929 4288085770
2.4861145 0.99155331 -1.7487507 4288085770
0.79660034 0.87698174 -1.7485452 4288085770
2.8374634 1.0137243 -1.7512739 4288085770
1.0097351 0.88931656 -1.7473592 4288085770
3.199707 1.0359907 -1.7503729 4288085770
1.2651367 0.90288067 -1.7505457 4288085770
3.5939636 1.0584488 -1.7502285 4288085770
1.5466309 0.91858482 -1.7567366 4288085770
3.9890747 1.079958 -1.7450421 4288085770
1.8208923 0.93128681 -1.7571803 4288085770
4.5297852 1.111248 -1.7552831 4288085770
2.098053 0.9430294 -1.7555015 4288085770
4.9596558 1.1310244 -1.743727 4288085770
2.3841858 0.95484352 -1.7514755 4288085770
5.4959412 1.1573935 -1.7410948 4288085770
2.7134399 0.96790028 -1.7507843 4288085770
6.1334839 1.1893444 -1.7445754 4288085770
3.0909119 0.98322773 -1.7542422 4288085770
6.9153442 1.2281361 -1.7555057 4288085770
3.4711914 0.99660301 -1.7535709 4288085770
7.7411804 1.2672281 -1.7637299 4288085770
3.8855286 1.0101957 -1.7525799 4288085770
8.6076965 1.3046484 -1.762354 4288085770
4.3317871 1.0239944 -1.7503476 4288085770
9.7108154 1.3534441 -1.7738825 4288085770
4.8001404 1.0369339 -1.7482527 4288085770
11.023285 1.4114914 -1.7923537 4288085770
5.3566284 1.0533924 -1.7497617 4288085770
12.48465 1.4725075 -1.8060588 4288085770
5.9420471 1.0670605 -1.7481233 4288085770
6.6699524 1.0875282 -1.7570106 4288085770
7.4306641 1.1052494 -1.7605971 4288085770
8.3377686 1.1268301 -1.770533 4288085770
9.3148193 1.14886 -1.7787526 4288085770
10.445007 1.1718407 -1.788031 4288085770
11.839722 1.2014027 -1.8060901 4288085770
1.8877258 -4.3594179 -0.42760038 4293729569
2.0014343 -4.3790221 -0.46530807 4293729569
2.111145 -4.3926592 -0.50421017 4293729569
2.3023071 -4.3960958 -0.58023733 4293729569
2.3837891 -4.3868866 -0.61635464 4293729569
2.6391602 -4.4139271 -0.69284189 4293729569
2.8743591 -4.4200854 -0.76823413 4293729569
3.1708374 -4.4478741 -0.84521192 4293729569
3.2208557 -4.4058223 -0.87673771 4293729569
3.6130066 -4.4377389 -0.42579848 4293729569
3.5745544 -4.4462795 -0.9565202 4293729569
3.8196411 -4.4687119 -0.45700741 4293729569
3.7654724 -4.4694257 -0.99737358 4293729569
3.9539185 -4.459125 -0.48718882 4293729569
9.3417053 -7.0879865 -1.5196501 4293729569
4.0669861 -4.4386525 -0.5152306 4293729569
4.0987854 -4.4819751 -1.0731212 4293729569
4.3257751 -4.4833083 -0.54742092 4293729569
4.2764893 -4.4881864 -1.1115915 4293729569
4.5172424 -4.4913731 -0.57836783 4293729569
8.3260498 -6.2713184 -1.5203598 4293729569
4.6236877 -4.488637 -1.1859258 4293729569
4.8617249 -4.4856954 -0.63483709 4293729569
4.8495789 -4.5075645 -1.2265315 4293729569
5.1273499 -4.51829 -0.66487134 4293729569
5.0704346 -4.5205259 -1.2673693 4293729569
5.3327026 -4.520256 -0.69435585 4293729569
5.2912292 -4.5294795 -1.3072405 4293729569
5.5952454 -4.5438724 -0.72457391 4293729569
5.7964783 -4.5368404 -0.75128084 4293729569
5.6802063 -4.5146337 -1.3771636 4293729569
6.0750122 -4.5593514 -0.7809217 4293729569
6.052002 -4.5747623 -1.4311085 4293729569
6.3444824 -4.5729141 -0.80996615 4293729569
6.4941406 -4.6575036 -1.4912986 4293729569
6.574646 -4.5676937 -0.83559668 4293729569
6.7559509 -4.6631966 -1.5306944 4293729569
6.8691101 -4.5840936 -0.86370248 4293729569
6.72052 -4.5504723 -1.5368952 4293729569
7.2911682 -4.6437478 -0.8977952 4293729569
6.7263794 -4.4545164 -1.546453 4293729569
7.5673828 -4.6432343 -0.92270136 4293729569
6.912384 -4.4245768 -1.5728986 4293729569
7.8968811 -4.6574144 -0.95054305 4293729569
7.2071533 -4.4300561 -1.6110876 4293729569
8.1578674 -4.6429687 -0.97211576 4293729569
7.5522156 -4.4492631 -1.6543286 4293729569
8.5725708 -4.6776309 -1.0016733 4293729569
7.8951721 -4.4614682 -1.6957014 4293729569
8.9962463 -4.7072358 -1.0309427 4293729569
8.2752991 -4.4834619 -1.7396365 4293729569
9.3525085 -4.7122083 -1.0538743 4293729569
8.6734009 -4.5033393 -1.7829298 4293729569
9.8051453 -4.7406244 -1.0820913 4293729569
9.0896301 -4.5241232 -1.8285545 4293729569
10.320953 -4.7816515 -1.1108956 4293729569
9.5046997 -4.5398889 -1.8712593 4288085770
10.659912 -4.7626967 -1.1296493 4293729569
9.8240051 -4.5181522 -1.9017611 4288085770
11.245789 -4.8112917 -1.1588266 4293729569
9.9570618 -4.4373975 -1.9105403 4288085770
11.766327 -4.8332553 -1.1836069 4293729569
10.073792 -4.3497109 -1.9149668 4288085770
12.318909 -4.8570204 -1.2082005 4293729569
10.173401 -4.2560959 -1.9150674 4288085770
12.9245 -4.8874454 -1.2317979 4293729569
10.295074 -4.1663523 -1.9163296 4288085770
13.599304 -4.9264598 -1.2577945 4293729569
10.449951 -4.0864239 -1.9203 4288085770
14.322113 -4.9691677 -1.2830026 4293729569
10.583557 -3.9975939 -1.9201157 4288085770
10.753265 -3.916544 -1.9205484 4288085770
10.927032 -3.8354683 -1.9208345 4288085770
11.108643 -3.7533264 -1.9188378 4288085770
11.351562 -3.6818314 -1.920516 4288085770
11.630615 -3.6191406 -1.9258008 4288085770
11.89444 -3.5475006 -1.9257123 4288085770
12.238647 -3.4914093 -1.9315608 4288085770
12.591766 -3.4302435 -1.9351223 4288085770
13.148895 -3.4049463 -1.9559398 4288085770
14.018433 -3.4309025 -2.0009243 4288085770
12.640076 2.0632696 -1.8308115 4288085770
11.584869 2.0618868 -1.8142226 4288085770
10.676849 2.0653839 -1.8013139 4288085770
9.8408813 2.0683355 -1.7867763 4288085770
9.1391907 2.0780592 -1.7794065 4288085770
8.5517273 2.0934477 -1.7769253 4288085770
8.0143127 2.111146 -1.7746397 4288085770
7.5209045 2.1281099 -1.7727445 4288085770
7.0292969 2.1401367 -1.7647395 4288085770
6.5898743 2.15446 -1.7598563 4288085770
6.1904907 2.1710176 -1.7565321 4288085770
5.7859192 2.1825886 -1.7473531 4288085770
13.851257 3.5283756 -1.8694239 4288085770
5.4576721 2.2025661 -1.7464677 4288085770
12.460144 3.4152336 -1.8141493 4288085770
5.1513977 2.2216921 -1.7437744 4288085770
11.758728 3.4079294 -1.8106364 4288085770
4.8781433 2.2430077 -1.7428954 4288085770
11.021057 3.3854704 -1.798316 4288085770
4.5917969 2.2602701 -1.738459 4288085770
10.3414 3.3673649 -1.786917 4288085770
4.3486023 2.2837734 -1.7375044 4288085770
9.8009949 3.3680582 -1.7826015 4288085770
4.1112976 2.3053207 -1.7353154 4288085770
9.2475281 3.361701 -1.7747041 4288085770
3.9202271 2.3341103 -1.7385064 4288085770
8.7550049 3.3587236 -1.7666117 4288085770
3.7361145 2.3619556 -1.7404351 4288085770
8.3065796 3.3610029 -1.7599574 4288085770
3.5549316 2.3888321 -1.740248 4288085770
7.9473267 3.37778 -1.7601744 4288085770
3.3747559 2.4137259 -1.7390081 4288085770
7.5900574 3.3905935 -1.7572873 4288085770
3.2215881 2.4417677 -1.7398092 4288085770
7.213562 3.3943396 -1.7480224 4288085770
3.081543 2.4728813 -1.7421606 4288085770
6.9473877 3.4196796 -1.7499192 4288085770
2.9162598 2.4948874 -1.7383524 4288085770
6.6350403 3.4317913 -1.7443883 4288085770
2.7770996 2.5230284 -1.7376448 4288085770
6.370697 3.4511795 -1.7411664 4288085770
2.6609802 2.5552959 -1.7391312 4288085770
6.1535339 3.4818258 -1.7423205 4288085770
2.5267334 2.5814838 -1.7362267 4288085770
5.9212646 3.5044136 -1.7389585 4288085770
2.4417114 2.6199179 -1.7406323 4288085770
5.7401123 3.5392761 -1.7408346 4288085770
2.3305359 2.6492319 -1.7399139 4288085770
5.5488281 3.5681067 -1.7390282 4288085770
2.2112427 2.6755285 -1.7354643 4288085770
5.3525085 3.5939169 -1.7353806 4288085770
2.0879211 2.6998138 -1.7291452 4288085770
5.2123413 3.6340389 -1.7368062 4288085770
2.020874 2.7383728 -1.7318968 4288085770
5.0791626 3.6752014 -1.737985 4288085770
1.9386902 2.7738581 -1.7321709 4288085770
4.9328613 3.7103148 -1.7355905 4288085770
1.864502 2.8103962 -1.7321626 4288085770
4.8237305 3.7556171 -1.7379282 4288085770
1.7993469 2.847991 -1.731835 4288085770
4.7144775 3.7999353 -1.7382588 4288085770
1.7181091 2.8805065 -1.7290505 4288085770
4.6182861 3.8483305 -1.7391484 4288085770
1.6529236 2.9171114 -1.7277154 4288085770
4.526062 3.8967495 -1.7398931 4288085770
1.6027527 2.9587946 -1.7278742 4288085770
4.4237366 3.9401379 -1.7369629 4288085770
1.5194092 2.9883299 -1.7211404 4288085770
4.3363953 3.9876127 -1.7345195 4288085770
1.5003357 3.0391655 -1.7262414 4288085770
4.2892151 4.0492926 -1.7377309 4288085770
1.4742432 3.088975 -1.7295903 4288085770
4.204834 4.0967932 -1.7341787 4288085770
1.4289551 3.129715 -1.7265608 4288085770
4.1595459 4.1575022 -1.7353107 4288085770
1.3796692 3.1694374 -1.7226697 4288085770
4.1052246 4.2151747 -1.7337474 4288085770
1.3655396 3.2223225 -1.7256068 4288085770
4.0668945 4.2769423 -1.7326342 4288085770
1.340332 3.2691669 -1.7248971 4288085770
4.074707 4.3579454 -1.7379982 4288085770
1.2929382 3.3079166 -1.7189268 4288085770
4.0583496 4.4298372 -1.7381656 4288085770
1.2817078 3.361845 -1.7187644 4288085770
4.0360107 4.4976969 -1.7375191 4288085770
1.2714844 3.4147787 -1.7185578 4288085770
4.0215759 4.5706224 -1.735623 4288085770
1.2652283 3.4707384 -1.7182305 4288085770
4.0312195 4.653676 -1.7359339 4288085770
1.2559509 3.524682 -1.7170011 4288085770
4.0688782 4.7478647 -1.7403183 4288085770
1.289856 3.5978432 -1.7223533 4288085770
4.1045227 4.8420591 -1.7427715 4288085770
1.3035889 3.6619158 -1.7233626 4288085770
4.1340637 4.9352388 -1.7424371 4288085770
1.3223267 3.730011 -1.725222 4288085770
4.1946716 5.0435801 -1.7460945 4288085770
1.342041 3.7971287 -1.7250382 4288085770
4.2471924 5.1478891 -1.7470126 4288085770
1.3747559 3.871316 -1.7264382 4288085770
4.3467712 5.2764502 -1.7534128 4288085770
1.4064941 3.9464951 -1.7278819 4288085770
4.3871765 5.3747244 -1.7497218 4288085770
1.4512024 4.0257502 -1.7298855 4288085770
4.4615784 5.4921865 -1.7489463 4288085770
1.4908447 4.1049871 -1.730072 4288085770
4.5579834 5.6217642 -1.7504673 4288085770
1.536499 4.1872644 -1.7300649 4288085770
4.6392517 5.7452841 -1.7474886 4288085770
1.5790405 4.2685385 -1.7281603 4288085770
4.771637 5.895072 -1.7508621 4288085770
1.6466675 4.3619413 -1.729442 4288085770
4.9410095 6.0670538 -1.7580669 4288085770
1.7142334 4.4583426 -1.7307482 4288085770
5.0330505 6.1986856 -1.7497571 4288085770
1.816925 4.5729208 -1.736925 4288085770
5.2162781 6.3807745 -1.7545363 4288085770
1.8743896 4.6633062 -1.7325498 4288085770
5.4034729 6.5669031 -1.7572038 4288085770
2.0060425 4.79704 -1.7418247 4288085770
5.6255798 6.7762327 -1.7617848 4288085770
2.1255798 4.9237337 -1.7464824 4288085770
5.870575 6.999711 -1.7656443 4288085770
2.2420654 5.0504351 -1.7482511 4288085770
6.1585693 7.2504168 -1.7741572 4288085770
2.4066772 5.2063646 -1.7585049 4288085770
6.4003296 7.4759207 -1.7721469 4288085770
2.539032 5.3421659 -1.759766 4288085770
6.7431335 7.7639627 -1.7809614 4288085770
2.6964111 5.4961061 -1.7632627 4288085770
7.1358643 8.0853014 -1.7912259 4288085770
2.8467102 5.6460218 -1.763984 4288085770
2.9959106 5.7959566 -1.7617437 4288085770
3.13797 5.9428797 -1.7557361 4288085770
3.3471375 6.131135 -1.75962 4288085770
3.5942993 6.345603 -1.7663314 4288085770
3.7962036 6.5318727 -1.7624594 4288085770
4.0983276 6.7836542 -1.7724711 4288085770
4.3590698 7.0102739 -1.7707782 4288085770
4.6808472 7.2772188 -1.7751895 4288085770
4.9714966 7.5250387 -1.771579 4288085770
5.4190979 7.8786955 -1.7841047 4288085770
5.9095764 8.2636061 -1.7983189 4288085770
14.531647 -1.0832052 -1.9836648 4288085770
12.107452 -0.9910841 -1.8711942 4288085770
10.89505 -0.97035122 -1.8543041 4288085770
9.8267822 -0.95075989 -1.840179 4288085770
8.9098511 -0.93428993 -1.8315471 4288085770
8.0437622 -0.91446304 -1.8170943 4288085770
7.3211365 -0.89984035 -1.8124063 4288085770
6.6464539 -0.88391018 -1.8059882 4288085770
5.9754639 -0.8628912 -1.7914697 4288085770
12.293549 -1.4660645 -1.8718096 4288085770
5.4239807 -0.84822941 -1.787577 4288085770
11.132416 -1.4101219 -1.8683407 4288085770
4.9447327 -0.83616447 -1.788049 4288085770
9.9406128 -1.3422384 -1.8490644 4288085770
4.491394 -0.82392311 -1.7865798 4288085770
8.98349 -1.2890234 -1.8421744 4288085770
4.0499878 -0.80858898 -1.7827013 4288085770
8.0691223 -1.2344856 -1.8277391 4288085770
3.671814 -0.79691029 -1.7835053 4288085770
7.2861023 -1.1891899 -1.8184743 4288085770
3.3085938 -0.78412533 -1.7827746 4288085770
6.5560303 -1.1425571 -1.8072983 4288085770
2.9633484 -0.77122593 -1.7813921 4288085770
5.9101562 -1.1014328 -1.7990285 4288085770
2.6330566 -0.75622177 -1.7784828 4288085770
5.3112793 -1.061018 -1.790049 4288085770
2.3419189 -0.74400902 -1.7791345 4288085770
4.8158875 -1.030036 -1.7892522 4288085770
2.0829468 -0.73362255 -1.782609 4288085770
4.3654785 -1.0007849 -1.7888089 4288085770
1.8349609 -0.7231741 -1.7866843 4288085770
3.915863 -0.96848679 -1.7833565 4288085770
1.5918884 -0.71067047 -1.7875965 4288085770
3.5285645 -0.94185448 -1.7836058 4288085770
1.3658752 -0.69907665 -1.7898877 4288085770
3.1662903 -0.91506767 -1.7829545 4288085770
1.1225586 -0.68252468 -1.7848364 4288085770
2.8289795 -0.89012432 -1.7823781 4288085770
0.90026855 -0.66785336 -1.7810072 4288085770
2.5137024 -0.86504173 -1.7810044 4288085770
0.70825195 -0.65604973 -1.7830634 4288085770
2.2134094 -0.8408699 -1.7800794 4288085770
0.50808716 -0.64125347 -1.7804363 4288085770
1.9563599 -0.82046986 -1.783561 4288085770
0.31381226 -0.62641239 -1.7765926 4288085770
1.7193604 -0.800951 -1.7873105 4288085770
0.14883423 -0.61443996 -1.7786702 4288085770
1.4762268 -0.77944756 -1.7882949 4288085770
-0.030395508 -0.59850216 -1.7742913 4288085770
1.2601318 -0.75978565 -1.7902842 4288085770
-0.16625977 -0.58837795 -1.7793003 4288085770
0.99853516 -0.73230171 -1.7799755 4288085770
-0.28900146 -0.57919407 -1.7868289 4288085770
0.79437256 -0.71155643 -1.7805393 4288085770
-0.43710327 -0.56509018 -1.7853087 4288085770
0.6022644 -0.69273472 -1.7806522 4288085770
0.40097046 -0.66992855 -1.776126 4288085770
0.22683716 -0.65099144 -1.7755871 4288085770
0.052581787 -0.63003731 -1.7730657 4288085770
-0.10046387 -0.61198139 -1.7737572 4288085770
-0.24249268 -0.59487343 -1.7760412 4288085770
-0.37142944 -0.57869434 -1.7798451 4288085770
-0.3475647 1.3701382 -1.7168298 4288085770
-0.21258545 1.3889704 -1.7141047 4288085770
-0.051422119 1.4119272 -1.7154711 4288085770
0.13787842 1.4390068 -1.7228557 4288085770
0.31607056 1.4630632 -1.7246168 4288085770
0.51431274 1.4892254 -1.7286707 4288085770
0.7164917 1.5144176 -1.7315741 4288085770
-0.3961792 1.3337078 -1.7273347 4288085770
0.91860962 1.5386353 -1.7314713 4288085770
-0.26925659 1.3455124 -1.7218443 4288085770
1.1427612 1.5659761 -1.7325983 4288085770
-0.13632202 1.357357 -1.7161375 4288085770
1.4051208 1.5974941 -1.7403826 4288085770
0.040985107 1.3763847 -1.720893 4288085770
1.6542664 1.6259851 -1.7416161 4288085770
0.2484436 1.3985538 -1.730587 4288085770
1.936554 1.6576433 -1.7466816 4288085770
0.44573975 1.4186993 -1.7356291 4288085770
2.2348633 1.6894073 -1.7511698 4288085770
0.62683105 1.4328089 -1.7332053 4288085770
2.5289612 1.719182 -1.7507904 4288085770
0.83004761 1.4500179 -1.7350097 4288085770
2.8461914 1.7510777 -1.7525959 4288085770
1.0513611 1.4693155 -1.739179 4288085770
3.1913452 1.7841511 -1.7534008 4288085770
1.2815857 1.4876862 -1.7410179 4288085770
3.5354309 1.8152447 -1.7512281 4288085770
1.5218201 1.5051117 -1.7434875 4288085770
3.8783569 1.84237 -1.7440629 4288085770
1.7851257 1.5246744 -1.7461438 4288085770
4.27948 1.8768072 -1.7418586 4288085770
2.0704651 1.5453539 -1.7510135 4288085770
4.7326355 1.9155378 -1.7418101 4288085770
2.3768921 1.5671501 -1.7571329 4288085770
5.2399292 1.9585743 -1.7448448 4288085770
2.6368713 1.5797644 -1.7508483 4288085770
5.8515625 2.0131674 -1.7572106 4288085770
2.9631348 1.5987186 -1.7522262 4288085770
6.4860229 2.0659428 -1.7637355 4288085770
3.2943726 1.6157112 -1.752409 4288085770
7.1694641 2.1210203 -1.7695101 4288085770
3.6275024 1.6317415 -1.7495142 4288085770
7.8707581 2.1732464 -1.7706161 4288085770
3.9725952 1.6448631 -1.7441643 4288085770
8.6742249 2.2320604 -1.775089 4288085770
4.3919983 1.6653671 -1.7471962 4288085770
9.5796814 2.2994871 -1.7799488 4288085770
4.8051758 1.6798859 -1.7434018 4288085770
10.733704 2.3883038 -1.7990165 4288085770
5.3227844 1.7059393 -1.7519372 4288085770
11.903412 2.4712963 -1.8074671 4288085770
5.9205933 1.7354412 -1.7646087 4288085770
13.538086 2.5988884 -1.842505 4288085770
6.5372314 1.7620964 -1.7725754 4288085770
7.1516724 1.7837868 -1.7745782 4288085770
7.8383179 1.8068914 -1.7789916 4288085770
8.5557861 1.8272152 -1.7792665 4288085770
9.3924866 1.8532209 -1.784288 4288085770
10.446716 1.8914347 -1.8025644 4288085770
11.616028 1.931344 -1.820703 4288085770
12.958588 1.9752693 -1.8426257 4288085770
0.85830688 -4.2963738 -0.39554912 4293729569
0.86001587 -4.312695 -0.43539226 4293729569
0.83950806 -4.3111477 -0.47517318 4293729569
0.81396484 -4.3036242 -0.51418287 4293729569
0.79949951 -4.3030405 -0.55373991 4293729569
0.80014038 -4.3103762 -0.59469134 4293729569
0.80175781 -4.3156981 -0.63462383 4293729569
0.80233765 -4.3200259 -0.67460048 4293729569
0.79788208 -4.3173866 -0.71481335 4293729569
0.79238892 -4.3127446 -0.75407904 4293729569
0.85543823 -4.3164229 -0.39053637 4293729569
0.8039856 -4.3170118 -0.79465973 4293729569
0.85797119 -4.31074 -0.43052202 4293729569
0.79846191 -4.3083706 -0.83395791 4293729569
0.81008911 -4.3096371 -0.87456292 4293729569
0.7883606 -4.2860746 -0.91155958 4293729569
5.1616516 -7.2845693 -1.4789379 4293729569
0.95339966 -4.3274903 -0.59008437 4293729569
4.6682129 -6.9245276 -1.4795408 4293729569
0.98599243 -4.3326335 -0.63090205 4293729569
4.2704468 -6.6289639 -1.4861958 4293729569
0.98434448 -4.3119521 -0.66815495 4293729569
3.8755493 -6.3353496 -1.4887291 4293729569
1.0562134 -4.338872 -0.71039087 4293729569
0.99438477 -4.3526468 -1.1297938 4293729569
1.0635681 -4.3211336 -0.74729615 4293729569
0.98251343 -4.323997 -1.163474 4293729569
1.0394287 -4.339036 -1.2093438 4293729569
1.0689697 -4.3341908 -1.2493509 4293729569
1.2306213 -4.35215 -0.87013817 4293729569
2.4126282 -5.2012501 -1.5053496 4293729569
1.2550049 -4.338306 -0.9064008 4293729569
2.0733337 -4.9431467 -1.4885875 4293729569
1.3186951 -4.3472605 -0.94707155 4293729569
5.6320801 -7.0858412 -1.4806643 4293729569
1.3507385 -4.4010363 -1.4348323 4293729569
5.217926 -6.7653317 -1.4820988 4293729569
1.6390686 -4.5530143 -1.520324 4293729569
1.5196838 -4.3680654 -1.0687742 4293729569
1.4763184 -4.411015 -1.5233065 4293729569
1.5751953 -4.364048 -1.10684 4293729569
1.3407288 -4.2858706 -1.5281794 4293729569
1.6155701 -4.3481102 -1.1435436 4293729569
1.2243652 -4.1726365 -1.5362689 4293729569
3.9727478 -5.7568979 -1.4958843 4293729569
1.2758179 -4.1656365 -1.5735039 4293729569
1.7698059 -4.3558455 -1.2229987 4293729569
1.339386 -4.1625848 -1.6132731 4293729569
1.8675537 -4.3686018 -1.2644149 4293729569
1.4151001 -4.1664805 -1.6555526 4293729569
3.3094177 -5.1839523 -1.5052904 4293729569
1.4897461 -4.1663766 -1.696901 4293729569
2.1327209 -4.4297829 -1.3574697 4293729569
1.5735168 -4.1692305 -1.7399008 4293729569
1.6602173 -4.1730652 -1.7827851 4293729569
2.3421936 -4.4452195 -1.4408815 4293729569
1.7570496 -4.1798453 -1.826285 4288085770
2.6630249 -4.5739212 -1.5163829 4293729569
1.8102722 -4.1588116 -1.8605642 4288085770
2.5757446 -4.4665203 -1.5253818 4293729569
1.7166443 -4.0523686 -1.8597759 4288085770
2.4692078 -4.3491921 -1.5291475 4293729569
1.6168823 -3.9419403 -1.856238 4288085770
2.3817749 -4.2417607 -1.5341488 4293729569
1.5383301 -3.8444109 -1.8558375 4288085770
2.4468689 -4.2186179 -1.5640165 4293729569
1.467804 -3.7508307 -1.8551172 4288085770
2.557373 -4.2182641 -1.6010754 4293729569
1.4033203 -3.6632223 -1.8551319 4288085770
2.7001648 -4.2327466 -1.6418601 4293729569
1.3468628 -3.57757 -1.8558425 4288085770
2.8247681 -4.2343206 -1.6803993 4293729569
1.2904053 -3.4939013 -1.854538 4288085770
2.9684753 -4.2437887 -1.7201898 4293729569
1.2420044 -3.4131889 -1.8539209 4288085770
3.1222839 -4.2552109 -1.7616041 4293729569
1.1732788 -3.3235579 -1.8480995 4288085770
3.2547607 -4.2537179 -1.7978822 4288085770
1.1378784 -3.2507725 -1.84795 4288085770
3.3851929 -4.2482309 -1.8332654 4288085770
1.0872803 -3.1710339 -1.8424 4288085770
3.4377441 -4.2030797 -1.8527508 4288085770
1.0700684 -3.1071596 -1.844529 4288085770
3.3781128 -4.103416 -1.8496864 4288085770
1.0194092 -3.0284147 -1.8379718 4288085770
3.3215027 -4.0057321 -1.8464981 4288085770
0.99404907 -2.9625492 -1.8354076 4288085770
3.2860107 -3.9189491 -1.8464637 4288085770
0.96762085 -2.8956833 -1.831888 4288085770
3.235321 -3.8252125 -1.8410288 4288085770
0.96038818 -2.837738 -1.8326102 4288085770
3.2038269 -3.740387 -1.8388358 4288085770
0.94094849 -2.7738266 -1.828815 4288085770
3.1863708 -3.6624823 -1.8370827 4288085770
0.94882202 -2.7228022 -1.8309407 4288085770
3.1709595 -3.5845642 -1.8352575 4288085770
0.9354248 -2.6618547 -1.8269058 4288085770
3.1564636 -3.5086317 -1.8323816 4288085770
0.93310547 -2.6068535 -1.8244259 4288085770
3.1510315 -3.4366417 -1.8291495 4288085770
0.93887329 -2.5548162 -1.8236331 4288085770
3.1466064 -3.364646 -1.8258816 4288085770
0.9425354 -2.5027695 -1.8199143 4288085770
3.1491699 -3.2976084 -1.8223222 4288085770
0.96139526 -2.4556675 -1.8206133 4288085770
3.1688843 -3.2354851 -1.8211093 4288085770
0.96603394 -2.4036064 -1.8158591 4288085770
3.2016602 -3.1792965 -1.8213804 4288085770
0.9949646 -2.3614492 -1.8171575 4288085770
3.2323914 -3.1211042 -1.8197404 4288085770
1.0147095 -2.3143167 -1.8148227 4288085770
3.2680664 -3.0648794 -1.8179053 4288085770
1.0445557 -2.2711372 -1.814095 4288085770
3.3088074 -3.0096245 -1.8158822 4288085770
1.0855103 -2.2309046 -1.8149465 4288085770
3.3676453 -2.9602728 -1.815163 4288085770
1.1253052 -2.1906624 -1.813836 4288085770
3.4315186 -2.9118958 -1.815256 4288085770
1.1480103 -2.1434879 -1.8083951 4288085770
3.4852295 -2.8605499 -1.8117348 4288085770
1.1979065 -2.1071997 -1.8088919 4288085770
3.5611267 -2.8161001 -1.8113648 4288085770
1.2235718 -2.0619965 -1.8023282 4288085770
3.6419983 -2.7726164 -1.8108071 4288085770
1.2804871 -2.0256653 -1.8025736 4288085770
3.7288818 -2.730094 -1.8100262 4288085770
1.3484802 -1.9922695 -1.8033992 4288085770
3.823761 -2.6885252 -1.8089502 4288085770
1.4093933 -1.9569025 -1.8024939 4288085770
3.9397888 -2.6518459 -1.8100779 4288085770
1.4884949 -1.9254551 -1.8049072 4288085770
4.0385742 -2.6102333 -1.80686 4288085770
1.5785828 -1.8979454 -1.8078929 4288085770
4.1645508 -2.5744829 -1.806622 4288085770
1.6747131 -1.8704062 -1.811663 4288085770
4.2904968 -2.5377264 -1.8053927 4288085770
1.7546692 -1.8369293 -1.8110589 4288085770
4.4465942 -2.508812 -1.8070195 4288085770
1.8486633 -1.8063707 -1.810928 4288085770
4.6096802 -2.4778538 -1.8084118 4288085770
1.9870605 -1.7876167 -1.8191142 4288085770
4.7928467 -2.4517851 -1.8110443 4288085770
2.0971069 -1.7589722 -1.8203915 4288085770
5.0021057 -2.4285679 -1.8147185 4288085770
2.1899719 -1.7243986 -1.8173313 4288085770
5.215332 -2.4053278 -1.8182497 4288085770
2.2928772 -1.6927691 -1.8148873 4288085770
5.4133911 -2.377141 -1.8173633 4288085770
2.4229431 -1.6660013 -1.8154315 4288085770
5.6566772 -2.3557196 -1.8208013 4288085770
2.5398865 -1.6362915 -1.8134687 4288085770
5.9360962 -2.3411045 -1.8268892 4288085770
2.6789246 -1.6084681 -1.8136985 4288085770
6.1972961 -2.3195553 -1.8276836 4288085770
2.8310547 -1.5835772 -1.815436 4288085770
6.4674072 -2.2949419 -1.8271806 4288085770
2.9699402 -1.5527229 -1.8116934 4288085770
6.7384338 -2.2682972 -1.8236603 4288085770
3.1360168 -1.5277367 -1.8119301 4288085770
7.1039734 -2.2581739 -1.8306206 4288085770
3.2848511 -1.4958105 -1.8068376 4288085770
7.4592896 -2.2420673 -1.831993 4288085770
3.4689331 -1.4697132 -1.806437 4288085770
7.8627625 -2.2306967 -1.8365999 4288085770
3.6590271 -1.4445763 -1.8058132 4288085770
8.3284912 -2.2269859 -1.8449137 4288085770
3.8549805 -1.417387 -1.8029922 4288085770
8.84021 -2.2240028 -1.8535691 4288085770
4.0650024 -1.3901186 -1.8006681 4288085770
9.3658752 -2.2189064 -1.8587406 4288085770
4.3041687 -1.3666992 -1.8012693 4288085770
9.9455566 -2.2164974 -1.8649496 4288085770
4.5431824 -1.3402567 -1.7988973 4288085770
10.567291 -2.2158327 -1.8706359 4288085770
4.8485718 -1.3214779 -1.8040862 4288085770
11.351624 -2.2312851 -1.887362 4288085770
5.1316833 -1.2977753 -1.8021104 4288085770
12.064301 -2.2290506 -1.8897941 4288085770
5.4459229 -1.2749176 -1.8040119 4288085770
13.626831 -2.3343258 -1.9649007 4288085770
5.7952271 -1.253849 -1.8056414 4288085770
6.1886292 -1.2355394 -1.8106641 4288085770
6.6261597 -1.2179728 -1.8160999 4288085770
7.0987244 -1.2002029 -1.8222795 4288085770
7.597168 -1.1802626 -1.8265436 4288085770
8.120575 -1.1591492 -1.8279219 4288085770
8.7362671 -1.1415367 -1.8359612 4288085770
9.4230957 -1.1255045 -1.8444374 4288085770
10.161774 -1.1061382 -1.8500739 4288085770
11.052917 -1.0929298 -1.8641937 4288085770
12.027039 -1.0782166 -1.8773448 4288085770
13.91272 -1.1186361 -1.9623752 4288085770
14.504089 5.3659983 -1.912364 4288085770
14.146057 5.4239874 -1.8976152 4288085770
13.711761 5.4606085 -1.8724152 4288085770
13.315552 5.4994402 -1.8488727 4288085770
13.094696 5.5812101 -1.8384171 4288085770
12.914825 5.6732035 -1.8305779 4288085770
12.851105 5.7948275 -1.8298302 4288085770
12.703186 5.8920279 -1.8198905 4288085770
12.700531 6.031991 -1.8221099 4288085770
12.770874 6.1973639 -1.8279253 4288085770
13.200806 6.4806185 -1.8648539 4288085770
13.369232 6.6815252 -1.876454 4288085770
13.302124 6.8072176 -1.8648531 4288085770
13.402161 6.9888124 -1.8647332 4288085770
13.296844 7.1013422 -1.8453878 4288085770
13.300568 7.2524691 -1.832458 4288085770
14.057404 -0.30040741 -1.9541719 4288085770
11.645142 -0.26580715 -1.8532203 4288085770
10.323608 -0.25543213 -1.8323193 4288085770
9.2677307 -0.24860573 -1.8249452 4288085770
8.2737122 -0.23936749 -1.8123854 4288085770
7.4318848 -0.23126507 -1.8034016 4288085770
6.6590881 -0.22174263 -1.7929727 4288085770
5.9723816 -0.21171951 -1.7834849 4288085770
12.13736 -0.44298553 -1.8533735 4288085770
5.38797 -0.20414543 -1.7803413 4288085770
10.786896 -0.40983009 -1.8386821 4288085770
4.8616333 -0.19623756 -1.7781345 4288085770
9.5884705 -0.37876797 -1.8225623 4288085770
4.3964844 -0.18899822 -1.7797476 4288085770
8.6054993 -0.35250378 -1.8147432 4288085770
3.9501343 -0.18061066 -1.7766962 4288085770
7.7135925 -0.32769108 -1.8056725 4288085770
3.5288391 -0.17107487 -1.7737634 4288085770
6.9077148 -0.30436993 -1.7965269 4288085770
3.1878662 -0.16413593 -1.7789568 4288085770
6.1597595 -0.27967739 -1.7833297 4288085770
2.831604 -0.1552248 -1.7767038 4288085770
5.5451355 -0.2602644 -1.7783498 4288085770
2.5063782 -0.14612675 -1.7743489 4288085770
5.0108032 -0.24241352 -1.7775059 4288085770
2.2254028 -0.13782215 -1.7784166 4288085770
4.5315552 -0.22525311 -1.7786969 4288085770
1.97052 -0.13037395 -1.7835513 4288085770
4.058075 -0.20800877 -1.7736782 4288085770
1.695282 -0.119977 -1.7804267 4288085770
3.6508179 -0.19141102 -1.7733018 4288085770
1.4481812 -0.11043835 -1.780296 4288085770
3.2866516 -0.17657852 -1.7753787 4288085770
1.2080688 -0.10084915 -1.7789172 4288085770
2.9294434 -0.16067982 -1.7742161 4288085770
1.0050964 -0.092076302 -1.7822117 4288085770
2.6143188 -0.14655685 -1.7755429 4288085770
0.78482056 -0.081339836 -1.7771322 4288085770
2.3161621 -0.13131618 -1.7752737 4288085770
0.58370972 -0.071516991 -1.7753667 4288085770
2.058136 -0.11887646 -1.7795557 4288085770
0.39761353 -0.061618805 -1.7750666 4288085770
1.7879333 -0.1034565 -1.7772923 4288085770
0.21447754 -0.051674843 -1.771662 4288085770
1.5519104 -0.090874672 -1.7797927 4288085770
0.024108887 -0.03973484 -1.7635255 4288085770
1.2996216 -0.075325012 -1.7748908 4288085770
-0.12078857 -0.030622482 -1.7667571 4288085770
1.0925903 -0.062562943 -1.7763605 4288085770
-0.25772095 -0.021459579 -1.7697048 4288085770
0.88244629 -0.048803329 -1.7759461 4288085770
-0.39877319 -0.011296272 -1.7698046 4288085770
0.67822266 -0.033983231 -1.7723285 4288085770
0.48501587 -0.021102905 -1.7693034 4288085770
0.31390381 -0.0071105957 -1.7685024 4288085770
0.13372803 0.0058584213 -1.7640154 4288085770
-0.034484863 0.0198946 -1.7601095 4288085770
-0.17550659 0.033047676 -1.7612326 4288085770
-0.31048584 0.045231819 -1.7631339 4288085770
-0.44259644 0.058456421 -1.7619385 4288085770
-0.47338867 2.0459604 -1.7072598 4288085770
-0.32925415 2.0807724 -1.7104307 4288085770
-0.16207886 2.1226845 -1.7178411 4288085770
-0.014007568 2.1555471 -1.7178559 4288085770
0.14096069 2.1894493 -1.7176316 4288085770
0.31311035 2.2284231 -1.7208432 4288085770
0.50732422 2.2715034 -1.7273058 4288085770
0.6661377 2.3024712 -1.7219188 4288085770
-0.43984985 1.9820547 -1.7125915 4288085770
0.84912109 2.3385458 -1.7207198 4288085770
-0.28765869 2.011899 -1.717437 4288085770
1.0531921 2.379715 -1.7228155 4288085770
-0.087036133 2.0549269 -1.7346803 4288085770
1.2733154 2.4239693 -1.7263678 4288085770
0.0085754395 2.0635948 -1.7203517 4288085770
1.5074463 2.4703016 -1.7304403 4288085770
0.21914673 2.1056919 -1.7362334 4288085770
1.739502 2.5126505 -1.7305535 4288085770
0.34088135 2.1184902 -1.7250147 4288085770
2.0147095 2.5662012 -1.7372289 4288085770
0.51098633 2.1454706 -1.7262013 4288085770
2.3089294 2.6218596 -1.7442476 4288085770
0.69607544 2.1735401 -1.7268651 4288085770
2.5667725 2.6643944 -1.7404432 4288085770
0.87411499 2.1975851 -1.7257456 4288085770
2.8518066 2.7120619 -1.7397206 4288085770
1.0783081 2.227747 -1.7287513 4288085770
3.165863 2.764884 -1.741011 4288085770
1.2904663 2.2579603 -1.7314742 4288085770
3.4767761 2.8137169 -1.7383775 4288085770
1.5136719 2.2882318 -1.7348065 4288085770
3.8308716 2.8707666 -1.7402834 4288085770
1.7427979 2.3185568 -1.7359284 4288085770
4.1898193 2.92488 -1.7379901 4288085770
1.9900208 2.349968 -1.739419 4288085770
4.6109619 2.9922991 -1.7426026 4288085770
2.2331543 2.378377 -1.7400293 4288085770
5.0209045 3.0517063 -1.7405441 4288085770
2.510376 2.4119635 -1.7434739 4288085770
5.4699097 3.1163301 -1.7401441 4288085770
2.7644043 2.4374647 -1.7406723 4288085770
5.999115 3.1963644 -1.7470282 4288085770
3.0655823 2.4711981 -1.7432683 4288085770
6.5542603 3.2775707 -1.7510011 4288085770
3.3547058 2.4998913 -1.7422502 4288085770
7.2356567 3.3814392 -1.7646844 4288085770
3.652771 2.5256453 -1.7398907 4288085770
7.9148865 3.478344 -1.7723856 4288085770
3.9798889 2.5555639 -1.7385355 4288085770
8.6140442 3.5723925 -1.7763573 4288085770
4.3129578 2.5835152 -1.7369523 4288085770
9.477478 3.6963196 -1.7907491 4288085770
4.7062683 2.6197805 -1.7403055 4288085770
10.397797 3.8226042 -1.802141 4288085770
5.0994873 2.6520691 -1.7406286 4288085770
11.473419 3.9737301 -1.8212335 4288085770
5.5267334 2.6875429 -1.7427713 4288085770
12.499512 4.0996923 -1.8248694 4288085770
5.9990234 2.7262659 -1.7463433 4288085770
14.4216 4.3983488 -1.8961639 4288085770
6.4943848 2.7651224 -1.7501005 4288085770
7.0829468 2.8144712 -1.7606413 4288085770
7.6532898 2.8547726 -1.7637515 4288085770
8.2737427 2.898344 -1.7691144 4288085770
8.9723511 2.9483509 -1.7777615 4288085770
9.72995 3.0006924 -1.7873349 4288085770
10.53952 3.0503616 -1.7940443 4288085770
11.505524 3.1188469 -1.8123684 4288085770
12.611633 3.1961269 -1.8337971 4288085770
4.7466736 -4.4764018 -0.42188197 4293729569
4.6140137 -4.4884682 -0.45650899 4293729569
4.4009705 -4.4599848 -0.48930424 4293729569
4.2894287 -4.4759369 -0.52515453 4293729569
4.1265869 -4.4661794 -0.56002331 4293729569
4.0130005 -4.4771447 -0.59598541 4293729569
3.8360291 -4.4554567 -0.62944835 4293729569
3.7445679 -4.472312 -0.66758126 4293729569
3.574585 -4.4475813 -0.7008211 4293729569
3.4961548 -4.4683642 -0.73946059 4293729569
3.3201294 -4.4356627 -0.77197856 4293729569
3.1671448 -4.411828 -0.804609 4293729569
3.0886841 -4.424614 -0.84331286 4293729569
3.0209045 -4.413353 -0.39851063 4293729569
2.9334412 -4.4162078 -0.43961495 4293729569
2.8894043 -4.4223986 -0.91744053 4293729569
2.8238525 -4.4041815 -0.47962046 4293729569
2.8128967 -4.4301691 -0.95611548 4293729569
2.6547852 -4.3913579 -0.98804605 4293729569
2.6377869 -4.3939495 -0.56134874 4293729569
2.5469971 -4.3782783 -1.0229923 4293729569
2.5533142 -4.3897867 -0.6024034 4293729569
6.4263306 -6.6307921 -1.5029979 4293729569
2.47052 -4.4234433 -1.1084026 4293729569
2.3536377 -4.3994117 -1.1427575 4293729569
2.3600159 -4.3989692 -0.72826385 4293729569
2.3012085 -4.4090605 -1.1835655 4293729569
2.2935791 -4.3967028 -0.76966494 4293729569
4.3044128 -5.6301208 -1.5041201 4293729569
2.1166687 -4.3767376 -1.2554092 4293729569
2.0460815 -4.3704734 -1.2939867 4293729569
2.1142273 -4.390801 -0.89515269 4293729569
2.7267761 -4.8158088 -1.4474399 4293729569
2.0264587 -4.3686237 -0.93246388 4293729569
2.2259827 -4.5464911 -1.4203026 4293729569
2.023407 -4.3940372 -0.97940338 4293729569
1.9058228 -4.3823328 -1.4179479 4293729569
6.1065369 -6.8986559 -1.4922185 4293729569
2.1737061 -4.5765824 -1.5139813 4293729569
5.5426025 -6.5919719 -1.4976363 4293729569
1.9797058 -4.4848504 -1.530594 4293729569
1.8467407 -4.3600855 -1.1010171 4293729569
1.7229614 -4.3513689 -1.5337526 4293729569
1.8416443 -4.3775101 -1.1480933 4293729569
1.4549255 -4.2069073 -1.531394 4293729569
1.757782 -4.3453016 -1.1843452 4293729569
1.3476562 -4.1607513 -1.5575806 4293729569
1.776825 -4.3746047 -1.2334731 4293729569
1.3222656 -4.1642518 -1.5994822 4293729569
2.587677 -4.8943281 -1.4037406 4293729569
1.2867432 -4.1587973 -1.639812 4293729569
2.8958435 -5.1023893 -1.5052426 4293729569
1.2693787 -4.1632566 -1.6824219 4293729569
2.0786133 -4.6044707 -1.4260942 4293729569
1.2328491 -4.1538 -1.7218207 4293729569
1.6924744 -4.3715734 -1.4096124 4293729569
1.2265625 -4.1622081 -1.7660075 4293729569
2.0379639 -4.5964656 -1.5166633 4293729569
1.2061462 -4.158679 -1.8077898 4288085770
1.8174133 -4.4638147 -1.5245368 4293729569
1.1876526 -4.1541367 -1.8495098 4288085770
1.5886841 -4.3231783 -1.5287614 4293729569
1.0718994 -4.0869498 -1.8661579 4288085770
1.3729553 -4.1894546 -1.5314699 4293729569
0.90533447 -3.9839253 -1.8668798 4288085770
1.3321228 -4.1629844 -1.5661532 4293729569
0.74682617 -3.8848686 -1.8692847 4288085770
1.3348083 -4.1633372 -1.6100879 4293729569
0.58105469 -3.7778063 -1.8660067 4288085770
1.3414917 -4.1636662 -1.6538815 4293729569
0.42028809 -3.6737061 -1.8615278 4288085770
1.3522034 -4.1639786 -1.6985337 4293729569
0.27664185 -3.5785255 -1.8593721 4288085770
1.3668823 -4.1662664 -1.7430278 4293729569
0.14212036 -3.4862976 -1.8578734 4288085770
1.3806152 -4.1655612 -1.7875819 4293729569
0.01965332 -3.4020205 -1.8588828 4288085770
1.4074097 -4.1708016 -1.8346258 4288085770
-0.11206055 -3.3097401 -1.8532804 4288085770
1.3531799 -4.1233382 -1.8609468 4288085770
-0.23678589 -3.2204189 -1.847406 4288085770
1.1954956 -4.0092511 -1.8604416 4288085770
-0.34121704 -3.1440248 -1.8467141 4288085770
1.0498657 -3.9030991 -1.8604459 4288085770
-0.44067383 -3.0685968 -1.8458372 4288085770
0.91833496 -3.8048773 -1.8618886 4288085770
0.77966309 -3.699667 -1.8596386 4288085770
0.6449585 -3.5974226 -1.8562231 4288085770
0.52331543 -3.5021076 -1.8532902 4288085770
0.40966797 -3.4107428 -1.8500419 4288085770
0.29904175 -3.3203602 -1.8466794 4288085770
0.19650269 -3.2349367 -1.8439922 4288085770
0.10299683 -3.1534662 -1.8419536 4288085770
0.014526367 -3.0759659 -1.8397053 4288085770
-0.058837891 -3.0053968 -1.8398682 4288085770
-0.14239502 -2.9298477 -1.8354282 4288085770
-0.21276855 -2.8612432 -1.8334693 4288085770
-0.28121948 -2.7926207 -1.8304405 4288085770
-0.34158325 -2.7279634 -1.8290955 4288085770
-0.39691162 -2.6672764 -1.8275404 4288085770
-0.44116211 -2.6115456 -1.8285542 4288085770
-0.43533325 -1.4074831 -1.8050948 4288085770
-0.39645386 -1.3802462 -1.8029406 4288085770
-0.34234619 -1.3589497 -1.8042054 4288085770
-0.30047607 -1.3336935 -1.8019292 4288085770
-0.25457764 -1.3084049 -1.7985125 4288085770
-0.19754028 -1.2860813 -1.7986803 4288085770
-0.13247681 -1.2657175 -1.7995491 4288085770
-0.066375732 -1.245348 -1.8003827 4288085770
-0.0033874512 -1.2239809 -1.7993315 4288085770
0.060516357 -1.2015905 -1.7962548 4288085770
0.13253784 -1.1801758 -1.7958862 4288085770
0.20046997 -1.1587629 -1.7926602 4288085770
0.29058838 -1.1412621 -1.7946215 4288085770
0.37359619 -1.1217728 -1.7928492 4288085770
0.51528931 -1.1150742 -1.8069121 4288085770
0.55670166 -1.0837145 -1.7916945 4288085770
0.70428467 -1.0769634 -1.8035476 4288085770
0.79516602 -1.0554028 -1.7985117 4288085770
0.90621948 -1.0377598 -1.7977346 4288085770
-0.3704834 -0.77805805 -1.7869062 4288085770
1.0101624 -1.0181341 -1.7942228 4288085770
-0.29046631 -0.76058578 -1.7852231 4288085770
1.1201172 -0.99847221 -1.7904999 4288085770
-0.20849609 -0.74310303 -1.7834694 4288085770
1.2441101 -0.98174191 -1.7882572 4288085770
-0.12051392 -0.72557545 -1.7805052 4288085770
1.3913269 -0.96691132 -1.7901833 4288085770
-0.016357422 -0.7099905 -1.7819569 4288085770
1.5434875 -0.95204163 -1.7909344 4288085770
0.095825195 -0.695364 -1.7841177 4288085770
1.6723938 -0.93325806 -1.7855341 4288085770
0.19882202 -0.67876053 -1.7826152 4288085770
1.8424988 -0.91827965 -1.785651 4288085770
0.30786133 -0.66212177 -1.7809012 4288085770
2.0116577 -0.90330029 -1.7848036 4288085770
0.43505859 -0.64840508 -1.7825253 4288085770
2.1917419 -0.88925362 -1.7835606 4288085770
0.53994751 -0.62975883 -1.7769715 4288085770
2.3748169 -0.87318039 -1.7812291 4288085770
0.69631958 -0.61791325 -1.7835529 4288085770
2.5859985 -0.85996914 -1.7818832 4288085770
0.8465271 -0.60506439 -1.7853574 4288085770
2.8011475 -0.84571838 -1.7804058 4288085770
0.98452759 -0.58824825 -1.782622 4288085770
3.0484009 -0.83430386 -1.7817733 4288085770
1.1760254 -0.57721519 -1.7909594 4288085770
3.3096313 -0.8228054 -1.7826474 4288085770
1.3421936 -0.56226158 -1.7912174 4288085770
3.5787964 -0.8092432 -1.7812574 4288085770
1.4950256 -0.54433155 -1.7849638 4288085770
3.8721313 -0.79856586 -1.7829945 4288085770
1.6882935 -0.53123856 -1.7872521 4288085770
4.1903687 -0.78672886 -1.7828592 4288085770
1.9147034 -0.5189867 -1.7933655 4288085770
4.5357056 -0.77675247 -1.7847537 4288085770
2.1087036 -0.50283813 -1.7896478 4288085770
4.9110413 -0.76659203 -1.7855915 4288085770
2.3077087 -0.48665142 -1.7847545 4288085770
5.3013306 -0.75633526 -1.7849013 4288085770
2.5308228 -0.47135162 -1.7830046 4288085770
5.7206116 -0.74590111 -1.7831891 4288085770
2.7880554 -0.45686913 -1.783046 4288085770
6.2483521 -0.74093056 -1.7926108 4288085770
3.0501404 -0.44134235 -1.7809213 4288085770
6.8391724 -0.73859406 -1.8017858 4288085770
3.3534546 -0.42861271 -1.7833226 4288085770
7.4910889 -0.73691082 -1.8118012 4288085770
3.6515808 -0.41287422 -1.7809289 4288085770
8.1838684 -0.73297119 -1.8193892 4288085770
4.0089417 -0.39983177 -1.783426 4288085770
8.9657898 -0.73152256 -1.8278134 4288085770
4.3812866 -0.3856926 -1.7844042 4288085770
9.8337708 -0.73057556 -1.8361963 4288085770
4.7896118 -0.37135029 -1.7861114 4288085770
10.860962 -0.73274422 -1.8489368 4288085770
5.2108765 -0.35591125 -1.7853714 4288085770
12.011383 -0.7372036 -1.8623137 4288085770
5.6912842 -0.34114933 -1.7865412 4288085770
14.400299 -0.80029964 -1.9725661 4288085770
6.2689514 -0.32786751 -1.79327 4288085770
6.9197998 -0.31620026 -1.8044055 4288085770
7.6285706 -0.30317307 -1.8125062 4288085770
8.4184875 -0.2896862 -1.8217499 4288085770
9.3164368 -0.27658367 -1.832177 4288085770
10.280334 -0.26107121 -1.8392956 4288085770
11.513916 -0.24911213 -1.8598785 4288085770
13.46582 -0.25141144 -1.9310293 4288085770
14.097565 0.29297829 -1.9380322 4288085770
11.697906 0.29414654 -1.8439583 4288085770
10.302307 0.29742718 -1.8198115 4288085770
9.1822815 0.3001585 -1.8090229 4288085770
8.2004089 0.30467033 -1.7984159 4288085770
7.3527222 0.30992603 -1.7901214 4288085770
6.6010437 0.31571293 -1.7834688 4288085770
5.9214172 0.32192802 -1.7742996 4288085770
12.019104 0.38795853 -1.8375314 4288085770
5.3501282 0.32768822 -1.7733399 4288085770
10.600494 0.394104 -1.8142093 4288085770
4.836792 0.33478832 -1.7713614 4288085770
9.4554443 0.40170288 -1.802333 4288085770
4.3635559 0.34110069 -1.770974 4288085770
8.4836426 0.40925312 -1.794397 4288085770
3.9313354 0.34765816 -1.7691536 4288085770
7.6329651 0.41648388 -1.7872208 4288085770
3.5351257 0.3554163 -1.768082 4288085770
6.8582458 0.42415047 -1.7793872 4288085770
3.1548462 0.36327457 -1.7654521 4288085770
6.1556091 0.43223 -1.771036 4288085770
2.8297729 0.37141323 -1.7668964 4288085770
5.5601807 0.44088268 -1.7669408 4288085770
2.5126343 0.37961674 -1.7660617 4288085770
5.0358276 0.44991684 -1.7653618 4288085770
2.2336121 0.38801289 -1.7678971 4288085770
4.5706482 0.45827103 -1.7657093 4288085770
1.9604187 0.39647675 -1.7655249 4288085770
4.1354065 0.467803 -1.7650172 4288085770
1.7053223 0.40502453 -1.7655215 4288085770
3.7371826 0.47654629 -1.7640226 4288085770
1.4792786 0.41372776 -1.7665038 4288085770
3.362915 0.48644257 -1.7611988 4288085770
1.2733765 0.42252827 -1.7697847 4288085770
3.0267944 0.49553204 -1.7610356 4288085770
1.0289612 0.4312067 -1.761402 4288085770
2.725708 0.50580788 -1.7626562 4288085770
0.8309021 0.44008541 -1.7604058 4288085770
2.442627 0.51518726 -1.7636393 4288085770
0.63369751 0.44899464 -1.7563765 4288085770
2.1795654 0.52568054 -1.7649308 4288085770
0.47073364 0.45804214 -1.7591546 4288085770
1.9385681 0.53529453 -1.7664449 4288085770
0.29663086 0.46807194 -1.7563285 4288085770
1.682312 0.54486847 -1.7624866 4288085770
0.1335144 0.4771595 -1.754109 4288085770
1.4390564 0.55452824 -1.7570745 4288085770
-0.018554688 0.48630619 -1.7525046 4288085770
1.2329712 0.56435394 -1.7573656 4288085770
-0.1505127 0.49653149 -1.7552066 4288085770
1.0328369 0.57522869 -1.7554561 4288085770
-0.28555298 0.50576782 -1.7540075 4288085770
0.84371948 0.58516121 -1.7541533 4288085770
-0.41259766 0.51604462 -1.7535365 4288085770
0.65249634 0.5941143 -1.7489146 4288085770
0.49145508 0.60519791 -1.7486404 4288085770
0.32629395 0.61528301 -1.7454994 4288085770
0.18231201 0.62546062 -1.7456222 4288085770
0.029083252 0.63562489 -1.7410626 4288085770
-0.10598755 0.64586258 -1.7398716 4288085770
-0.21588135 0.65820312 -1.7438201 4288085770
-0.33181763 0.66952991 -1.7449713 4288085770
-0.43170166 0.68092823 -1.7485617 4288085770
-0.44522095 2.842659 -1.7028217 4288085770
-0.33145142 2.8883247 -1.6992188 4288085770
-0.1803894 2.9501266 -1.7044522 4288085770
-0.052581787 2.9998598 -1.7023929 4288085770
0.11245728 3.0657387 -1.7081709 4288085770
0.26739502 3.1246004 -1.7092427 4288085770
0.44735718 3.1935759 -1.7135236 4288085770
0.60720825 3.2514801 -1.7124143 4288085770
0.79714966 3.3215227 -1.7153555 4288085770
-0.39187622 2.7978973 -1.7026154 4288085770
1.0202026 3.4047022 -1.7242503 4288085770
-0.26095581 2.8406315 -1.7023923 4288085770
1.2130737 3.4717875 -1.7240642 4288085770
-0.1149292 2.8884315 -1.7046859 4288085770
1.4470215 3.5550556 -1.7295775 4288085770
0.0440979 2.939291 -1.70855 4288085770
1.6839905 3.6363516 -1.7339703 4288085770
0.20108032 2.988163 -1.7094692 4288085770
1.9469299 3.7267838 -1.7395302 4288085770
0.37112427 3.0410881 -1.7129667 4288085770
2.211853 3.8162346 -1.7440133 4288085770
0.53604126 3.089015 -1.7125995 4288085770
2.4836731 3.9047461 -1.746245 4288085770
0.75634766 3.1601448 -1.7254966 4288085770
2.7805786 4.0003777 -1.7506617 4288085770
0.93322754 3.2081518 -1.723712 4288085770
3.0622864 4.0869818 -1.7485311 4288085770
1.142334 3.26828 -1.7289062 4288085770
3.3820801 4.1867647 -1.7501808 4288085770
1.3261719 3.3153391 -1.7258704 4288085770
3.698761 4.2805643 -1.7478881 4288085770
1.56427 3.3826237 -1.7321106 4288085770
4.0626221 4.390584 -1.7510854 4288085770
1.7912903 3.4428768 -1.7346793 4288085770
4.4162598 4.4915953 -1.7485608 4288085770
2.0362854 3.5072184 -1.7386526 4288085770
4.8330383 4.614913 -1.752018 4288085770
2.3235168 3.5857439 -1.7492728 4288085770
5.3119202 4.7585287 -1.761475 4288085770
2.5834351 3.6501923 -1.7507248 4288085770
5.8017578 4.9012365 -1.7675424 4288085770
2.8353882 3.7076168 -1.7493994 4288085770
6.3174438 5.0471048 -1.7717296 4288085770
3.1233215 3.7762127 -1.7519076 4288085770
6.8902283 5.210269 -1.779068 4288085770
3.4022217 3.8377981 -1.7496744 4288085770
7.5149841 5.3857126 -1.7876917 4288085770
3.729248 3.9135923 -1.7548791 4288085770
8.1777344 5.5683851 -1.7950493 4288085770
4.026123 3.9732819 -1.7520021 4288085770
8.8673401 5.753232 -1.7994843 4288085770
4.3479919 4.0391073 -1.7503027 4288085770
9.6450195 5.9625425 -1.8080467 4288085770
