# .PCD v0.7 - Point Cloud Data file format
VERSION 0.7
FIELDS x y z rgb
SIZE 4 4 4 4
TYPE F F F U
COUNT 1 1 1 1
WIDTH 1136
HEIGHT 1
VIEWPOINT 0 0 0 1 0 0 0
POINTS 1136
DATA ascii
5.8889728 -1.2917597 -1.8448945 4288085770
10.409194 -2.3075948 -1.3666399 4293729569
6.6099787 -1.4567311 -1.8481723 4288085770
5.7359743 -1.267766 -1.8408338 4288085770
10.503648 -2.350626 -0.17867422 4293729569
5.6059732 -1.2477713 -1.841782 4288085770
10.447434 -2.3536124 -0.74165034 4293729569
10.410257 -2.3506002 -1.2086351 4293729569
10.481624 -2.3706255 -0.24766268 4293729569
9.939086 -2.2466063 -1.6474527 4293729569
10.447463 -2.3636146 -0.66764927 4293729569
5.4809723 -1.2277764 -1.8427323 4288085770
9.4090643 -2.1336257 -1.6932472 4293729569
7.9289889 -1.7936796 -1.857676 4288085770
5.3649721 -1.2087809 -1.8446863 4288085770
10.384192 -2.3765972 -1.3836211 4293729569
6.5239811 -1.4817353 -1.8491325 4288085770
5.2479715 -1.1897857 -1.8446398 4288085770
10.40524 -2.4056008 -1.2616264 4293729569
10.494657 -2.4266288 -0.16566135 4293729569
9.724081 -2.2506158 -1.664363 4293729569
10.422428 -2.4206147 -0.76963198 4293729569
10.479614 -2.4426267 -0.27665314 4293729569
10.445472 -2.4386172 -0.65563935 4293729569
7.7090001 -1.7956902 -1.8335841 4288085770
9.3200684 -2.1826315 -1.6952039 4293729569
6.4339848 -1.5057399 -1.847091 4288085770
10.39219 -2.4555988 -1.4036149 4293729569
10.408222 -2.4606004 -1.3166209 4293729569
9.558074 -2.263623 -1.6892927 4293729569
10.530664 -2.5126297 -0.1526659 4293729569
10.488419 -2.509613 -0.80564851 4293729569
10.532607 -2.5266256 -0.30766499 4293729569
10.480479 -2.5236182 -0.64464366 4293729569
7.5100117 -1.8006997 -1.8115001 4288085770
10.423204 -2.5195999 -1.37462 4293729569
9.237071 -2.2316365 -1.6981634 4293729569
9.3110723 -2.2546337 -1.6981912 4293729569
6.3619876 -1.5337435 -1.8490564 4288085770
10.446184 -2.545598 -1.4296263 4293729569
9.0700703 -2.2426441 -1.7060925 4293729569
7.2830253 -1.7967106 -1.7814054 4288085770
9.1410751 -2.274642 -1.6971179 4293729569
6.3039885 -1.5637465 -1.8550273 4288085770
12.245107 -3.0795238 -1.6913079 4293729569
11.242133 -2.8345652 -1.6029217 4293729569
8.8570662 -2.2366531 -1.7180045 4293729569
7.0990353 -1.8007195 -1.7593275 4293729569
9.0920773 -2.3296459 -1.7030905 4293729569
6.2329922 -1.5907502 -1.8549931 4288085770
8.6410656 -2.2266626 -1.7269157 4293729569
12.103112 -3.1325324 -1.6902432 4293729569
10.667119 -2.794589 -1.6416881 4293729569
6.9500432 -1.8107266 -1.7442634 4293729569
8.4220638 -2.2116716 -1.7338262 4293729569
9.0290794 -2.3806498 -1.7060578 4293729569
6.1729941 -1.618753 -1.8579634 4288085770
11.996115 -3.1945391 -1.6921922 4293729569
10.293117 -2.7466047 -1.6445386 4293729569
8.2270594 -2.2016797 -1.7437458 4293729569
6.8630471 -1.8367311 -1.743223 4293729569
8.9700832 -2.4316537 -1.7080268 4293729569
6.1069975 -1.6457564 -1.8579313 4288085770
9.9741154 -2.7096179 -1.6534107 4293729569
11.88912 -3.2535458 -1.6931411 4293729569
8.0090599 -2.1836889 -1.7476569 4293729569
6.7850494 -1.863735 -1.7431861 4293729569
9.7591066 -2.6966264 -1.6753227 4293729569
7.7920589 -2.1626978 -1.7495687 4293729569
6.0500011 -1.6747593 -1.8599026 4288085770
8.906086 -2.4826577 -1.7089934 4293729569
11.790123 -3.3165517 -1.6940929 4293729569
9.5141001 -2.6736367 -1.6922233 4293729569
7.5800595 -2.1397064 -1.7504826 4293729569
6.7150536 -1.8937385 -1.7441522 4293729569
9.2900944 -2.6526451 -1.7081324 4293729569
5.9970026 -1.7037619 -1.8628756 4288085770
8.8300915 -2.5286624 -1.7059559 4293729569
7.3190646 -2.1007173 -1.7383779 4293729569
11.702127 -3.380558 -1.6950493 4293729569
8.9470959 -2.5946591 -1.7009963 4293729569
6.6340566 -1.9187424 -1.7421139 4293729569
7.1200643 -2.076725 -1.7382972 4293729569
5.9400058 -1.7317648 -1.8628469 4288085770
8.8030939 -2.5866647 -1.7119372 4293729569
8.7190933 -2.5676682 -1.7129043 4293729569
11.625131 -3.4455633 -1.6960099 4293729569
6.9400644 -2.0567324 -1.7402239 4293729569
6.546062 -1.9407469 -1.7360736 4293729569
8.482089 -2.5346773 -1.7198092 4293729569
5.8860092 -1.7597674 -1.8638195 4288085770
8.7550974 -2.6406686 -1.7119101 4293729569
6.7340674 -2.0257406 -1.7341411 4293729569
11.555133 -3.5135686 -1.6969732 4293729569
8.2800846 -2.5086851 -1.7317277 4293729569
6.4430685 -1.9567517 -1.7260275 4293729569
6.5500689 -1.999748 -1.7310667 4293729569
8.0840816 -2.4836929 -1.7436485 4293729569
5.8300133 -1.7867706 -1.8617911 4288085770
8.7081013 -2.6926715 -1.7118838 4293729569
11.497137 -3.5835731 -1.6979412 4293729569
6.3770695 -1.9747547 -1.7289965 4293729569
7.9420743 -2.4726977 -1.7635901 4288085770
6.3700724 -1.9817551 -1.7229927 4293729569
6.1950722 -1.9447619 -1.7229234 4293729569
7.6920753 -2.4257078 -1.759491 4293729569
5.7370205 -1.8007747 -1.8487492 4288085770
8.670104 -2.7476747 -1.7128608 4293729569
11.450142 -3.6565771 -1.6999134 4293729569
6.0700703 -1.9307663 -1.7308722 4293729569
7.4570765 -2.3807168 -1.7553977 4293729569
6.3010769 -2.0077589 -1.7189592 4293729569
5.6080322 -1.8027806 -1.8226935 4288085770
7.2120786 -2.3297267 -1.7463011 4293729569
5.9420686 -1.9157712 -1.7358195 4293729569
8.621109 -2.7976782 -1.7108338 4293729569
11.410146 -3.7315814 -1.7008882 4293729569
6.2670789 -2.0427608 -1.7239397 4293729569
6.9870811 -2.2837348 -1.7402117 4293729569
5.8270669 -1.9027756 -1.744772 4293729569
5.4760451 -1.8007866 -1.794637 4288085770
6.7810826 -2.2417428 -1.73513 4293729569
8.5771132 -2.8506811 -1.7078086 4293729569
5.7120647 -1.8877798 -1.7507249 4293729569
11.383148 -3.8095846 -1.7038682 4293729569
6.224081 -2.0757627 -1.7259163 4293729569
6.5930829 -2.20275 -1.7320554 4293729569
5.5800648 -1.8667848 -1.7516713 4293729569
5.3400588 -1.7957927 -1.7635789 4293729569
6.4050856 -2.1627572 -1.7269808 4293729569
8.4591227 -2.8766875 -1.6907556 4293729569
5.4420657 -1.8417898 -1.7486156 4293729569
11.375152 -3.895587 -1.7078552 4293729569
6.1410875 -2.0937669 -1.715878 4293729569
6.2440839 -2.1297629 -1.7279168 4293729569
5.3230667 -1.8217943 -1.7495673 4293729569
6.0520878 -2.0847704 -1.7168411 4293729569
5.2620659 -1.8097963 -1.7505428 4293729569
8.4551249 -2.9406891 -1.6947459 4293729569
5.2280645 -1.8087975 -1.7575282 4293729569
11.376154 -3.9845898 -1.7118455 4293729569
5.9200864 -2.0577748 -1.7207885 4293729569
6.0790915 -2.1177702 -1.7118478 4293729569
5.1600585 -1.8037995 -1.7734995 4293729569
5.7760868 -2.0267801 -1.7197312 4293729569
5.2080717 -1.831799 -1.7445158 4293729569
8.4731283 -3.01369 -1.7017443 4293729569
5.0980539 -1.8008013 -1.790473 4288085770
5.6270881 -1.9917856 -1.7156723 4293729569
6.0490947 -2.1537719 -1.7148296 4293729569
5.503088 -1.9637901 -1.7176229 4293729569
5.0480471 -1.8008028 -1.8114511 4288085770
5.1670747 -1.8568007 -1.742494 4293729569
5.3700881 -1.9317948 -1.7145702 4293729569
5.0040412 -1.802804 -1.8334316 4288085770
8.4721289 -3.0806916 -1.7047353 4293729569
5.2640867 -1.9087986 -1.7185277 4293729569
6.0250959 -2.1907732 -1.7188137 4293729569
5.1610861 -1.8848017 -1.7224866 4293729569
5.0960827 -1.869804 -1.7294608 4293729569
5.0830822 -1.8698044 -1.7324551 4293729569
8.468133 -3.1456933 -1.7067255 4293729569
5.9710999 -2.2157755 -1.7147866 4293729569
5.002079 -1.8528072 -1.7404225 4293729569
4.9120779 -1.8318102 -1.7443867 4293729569
5.0450873 -1.8908064 -1.7234352 4293729569
4.8230758 -1.808813 -1.7483513 4293729569
10.50916 -3.9876277 -1.7154832 4293729569
8.4881344 -3.2206941 -1.7127244 4293729569
5.9171052 -2.2407784 -1.7087597 4293729569
4.770071 -1.7998146 -1.7633295 4293729569
10.181159 -3.92664 -1.7153528 4293729569
5.0130911 -1.9178081 -1.7224166 4293729569
8.497139 -3.290695 -1.7147197 4293729569
5.8811088 -2.2707803 -1.7067397 4293729569
9.886157 -3.8726509 -1.7192353 4293729569
4.9530978 -1.9328107 -1.7103879 4293729569
8.5001421 -3.3586967 -1.7157125 4293729569
5.8581109 -2.3067818 -1.7087243 4293729569
9.6031542 -3.8196616 -1.7221226 4293729569
4.8671083 -1.9368143 -1.6893495 4293729569
8.5221453 -3.4346972 -1.7187124 4293729569
5.8021169 -2.3287847 -1.7006969 4293729569
9.3171539 -3.7626722 -1.7220087 4293729569
4.8141146 -1.9528167 -1.6793236 4293729569
9.0491524 -3.7076819 -1.7239023 4293729569
8.5391474 -3.5086985 -1.7207105 4293729569
5.7421231 -2.3477874 -1.6906677 4293729569
8.791152 -3.6546912 -1.7247996 4293729569
4.7961164 -1.9828176 -1.6813107 4293729569
5.7201262 -2.3827884 -1.6906531 4293729569
8.548152 -3.5806994 -1.7197056 4293729569
8.527153 -3.5937006 -1.7216952 4293729569
4.7381234 -1.9948198 -1.6672829 4293729569
5.7041283 -2.4187896 -1.6916409 4293729569
8.5741558 -3.6587005 -1.7217072 4293729569
8.2941504 -3.5437088 -1.7236025 4293729569
4.7161269 -2.0228212 -1.6662687 4293729569
8.0591526 -3.4887176 -1.7225093 4293729569
5.7081304 -2.4647903 -1.6976358 4293729569
8.6001587 -3.7367013 -1.7227088 4293729569
7.8501511 -3.4427247 -1.7244262 4293729569
4.6461353 -2.0288239 -1.6482366 4293729569
5.6821337 -2.4957914 -1.69462 4293729569
8.6411638 -3.8237014 -1.7257158 4293729569
7.6381502 -3.3927319 -1.7243419 4293729569
4.5471487 -2.0198281 -1.6181942 4293729569
5.6611366 -2.5287929 -1.6936058 4293729569
8.6841669 -3.9097016 -1.7287238 4293729569
7.4291506 -3.340739 -1.7232592 4293729569
7.2301512 -3.289746 -1.7211804 4293729569
4.5121536 -2.0388293 -1.6101754 4293729569
5.6521392 -2.5667934 -1.6935964 4293729569
8.7311687 -3.9997013 -1.7307332 4288085770
7.0371509 -3.2397528 -1.7191039 4293729569
4.505156 -2.0708299 -1.6121669 4293729569
5.6401424 -2.6037943 -1.6925859 4293729569
6.8631506 -3.1957581 -1.720035 4293729569
8.4101706 -3.9447131 -1.7266034 4293729569
4.4851599 -2.0948312 -1.6091541 4293729569
5.6461434 -2.647795 -1.696582 4293729569
6.6741519 -3.1417646 -1.7159605 4293729569
8.1721687 -3.8707209 -1.7275109 4293729569
6.5131516 -3.0987699 -1.7158966 4293729569
7.9481673 -3.8007283 -1.728424 4293729569
5.6401463 -2.6867957 -1.6965739 4293729569
4.4671636 -2.1208317 -1.6051418 4293729569
6.3601513 -3.0577745 -1.7168359 4293729569
7.7281671 -3.7297356 -1.7273384 4293729569
5.6461487 -2.7307959 -1.6995701 4293729569
4.4181709 -2.1308336 -1.5911181 4293729569
7.5181661 -3.6607418 -1.7262572 4293729569
6.2061515 -3.0147796 -1.7157749 4293729569
7.3181653 -3.5937483 -1.7251797 4293729569
6.0581517 -2.9717841 -1.7147162 4293729569
5.6481514 -2.7727966 -1.7005651 4293729569
4.3981748 -2.1538348 -1.5861052 4293729569
7.1111655 -3.5207551 -1.7200999 4293729569
5.8791556 -2.9117904 -1.7026466 4293729569
6.9221649 -3.4547608 -1.7180269 4293729569
5.3501816 -2.6618075 -1.6114501 4293729569
4.373178 -2.1738362 -1.5790913 4293729569
5.7381539 -2.8667948 -1.6995918 4293729569
6.7591634 -3.3997657 -1.718964 4293729569
4.9832129 -2.50682 -1.5103115 4293729569
4.924222 -2.4818223 -1.4842891 4293729569
6.6031623 -3.3457699 -1.7199036 4293729569
4.3591824 -2.1988358 -1.575081 4293729569
4.5302458 -2.295835 -1.4051422 4293729569
6.435163 -3.2827744 -1.715839 4293729569
4.4722657 -2.2808375 -1.3491186 4293729569
4.5253053 -2.3118386 -1.2401375 4293729569
4.4482446 -2.2738366 -1.409109 4293729569
4.3371873 -2.2188358 -1.5680677 4293729569
4.4932995 -2.3108385 -1.2591232 4293729569
4.4222383 -2.2788365 -1.4300964 4293729569
4.4352732 -2.2928381 -1.3361 4293729569
4.4562941 -2.306839 -1.2761073 4293729569
4.3131928 -2.2378359 -1.5600538 4293729569
4.4002318 -2.2858365 -1.4520854 4293729569
4.427289 -2.3048389 -1.2940947 4293729569
4.5314441 -2.3668461 -0.86013174 4293729569
4.3782258 -2.2918358 -1.4730746 4293729569
4.4052825 -2.306839 -1.3150843 4293729569
4.4012794 -2.3048387 -1.3230828 4293729569
4.287199 -2.2548366 -1.5500393 4293729569
4.3932757 -2.3128383 -1.3380778 4293729569
4.3552198 -2.295836 -1.4940634 4293729569
4.3722687 -2.3138382 -1.3580683 4293729569
4.5035367 -2.3848522 -0.60411638 4293729569
4.4714527 -2.3678474 -0.84210467 4293729569
4.3692856 -2.3168392 -1.3110665 4293729569
4.3292136 -2.2978354 -1.5140513 4293729569
4.3552623 -2.3158381 -1.3780603 4293729569
4.2742033 -2.2778358 -1.5450296 4293729569
4.3452554 -2.3208375 -1.401055 4293729569
4.2792106 -2.2868364 -1.5250306 4293729569
4.3272491 -2.3208375 -1.4210469 4293729569
4.4585762 -2.3928552 -0.49609503 4293729569
4.4435434 -2.3848536 -0.58708948 4293729569
4.4324594 -2.3788481 -0.82708538 4293729569
4.3492908 -2.3348398 -1.3020546 4293729569
4.2612047 -2.2918358 -1.5460216 4293729569
4.3122425 -2.3218374 -1.4410399 4293729569
4.4616523 -2.4038599 -0.28109476 4293729569
4.2622075 -2.3008358 -1.5390207 4293729569
4.2942362 -2.3188372 -1.4590323 4293729569
4.2301993 -2.2888365 -1.563008 4293729569
4.2792301 -2.3188369 -1.4780254 4293729569
4.4215722 -2.4008553 -0.51207703 4293729569
4.3372955 -2.3568389 -1.2950456 4293729569
4.2642236 -2.3168366 -1.4970188 4293729569
4.4065499 -2.395854 -0.57407105 4293729569
4.400466 -2.3928483 -0.81306863 4293729569
4.1801968 -2.2748373 -1.5719877 4293729569
4.4126477 -2.4038603 -0.2980727 4293729569
4.2542171 -2.3168361 -1.5170144 4293729569
4.2302122 -2.3088367 -1.5320048 4293729569
4.2362137 -2.3158367 -1.5280063 4293729569
4.2052078 -2.2988367 -1.544995 4293729569
4.0011754 -2.1868408 -1.6269207 4293729569
4.1491923 -2.2698374 -1.5869743 4293729569
4.1692042 -2.2818372 -1.5539815 4293729569
4.0431771 -2.2128391 -1.6259354 4293729569
4.1511989 -2.2738376 -1.5689747 4293729569
4.0701809 -2.2298388 -1.617945 4293729569
4.0911851 -2.241838 -1.6069527 4293729569
4.1321936 -2.2648377 -1.5829673 4293729569
4.1131883 -2.2548378 -1.5959604 4293729569
4.3945675 -2.4128551 -0.52906299 4293729569
4.3223009 -2.3758392 -1.2860359 4293729569
4.1211867 -2.2658374 -1.6029623 4293729569
4.385643 -2.41486 -0.31505874 4293729569
4.3835564 -2.4138544 -0.56105787 4293729569
4.3844719 -2.4158485 -0.80205786 4293729569
4.0801845 -2.2538381 -1.6129457 4293729569
4.2342181 -2.3438358 -1.524001 4293729569
4.377562 -2.4308543 -0.54805243 4293729569
4.0481801 -2.2458384 -1.6249322 4293729569
4.3163052 -2.3988388 -1.2800294 4293729569
4.3666377 -2.4298594 -0.33404776 4293729569
4.3605628 -2.4318545 -0.54904467 4293729569
4.365479 -2.4348488 -0.78904623 4293729569
3.9951794 -2.2248397 -1.6289115 4293729569
4.2332211 -2.3708353 -1.5209963 4293729569
4.3655581 -2.4498537 -0.56704402 4293729569
4.3143096 -2.4238389 -1.2740246 4293729569
4.3546329 -2.4468589 -0.35203969 4293729569
4.3445683 -2.4528544 -0.53703409 4293729569
4.355485 -2.4598486 -0.77803791 4293729569
4.2382245 -2.401835 -1.5199935 4293729569
4.3505526 -2.4678531 -0.58603442 4293729569
4.3386273 -2.461858 -0.37103009 4293729569
4.3193135 -2.4528379 -1.2700223 4293729569
4.3395748 -2.4788542 -0.5260278 4293729569
4.3454909 -2.4838483 -0.76702964 4293729569
4.3366222 -2.4848568 -0.39002559 4293729569
4.2532268 -2.4368336 -1.5209949 4293729569
4.3425474 -2.488852 -0.60602754 4293729569
4.3093185 -2.4718378 -1.2610149 4293729569
4.3315806 -2.5028541 -0.5140205 4293729569
4.3246174 -2.4998567 -0.40901783 4293729569
4.3434958 -2.5118477 -0.75702435 4293729569
4.3415418 -2.512851 -0.62602341 4293729569
4.3233223 -2.5048368 -1.2580161 4293729569
4.2532306 -2.4638333 -1.5169905 4293729569
4.3286119 -2.5258553 -0.43001559 4293729569
4.3355861 -2.5328534 -0.50301754 4293729569
4.3385367 -2.5358498 -0.64701843 4293729569
4.3555017 -2.5468473 -0.74902445 4293729569
4.3433242 -2.5398362 -1.2570198 4293729569
4.2862315 -2.5088315 -1.5229987 4293729569
4.3336058 -2.5508542 -0.45101401 4293729569
4.3495307 -2.5668488 -0.67001873 4293729569
5.9681959 -3.5397813 -1.7086022 4293729569
4.3435922 -2.5658531 -0.49301621 4293729569
4.3785067 -2.588846 -0.74202842 4293729569
4.3692265 -2.5838282 -1.5460246 4293729569
4.3515997 -2.5818529 -0.47301742 4293729569
6.0551949 -3.6227784 -1.7216297 4293729569
4.3845234 -2.6108465 -0.69702774 4293729569
4.7021961 -2.8108163 -1.6561408 4293729569
4.4155965 -2.6378503 -0.48903784 4293729569
4.4125929 -2.6398499 -0.50003612 4293729569
6.0981975 -3.6797767 -1.7216413 4293729569
4.7741938 -2.8808136 -1.674163 4293729569
6.1462007 -3.7377753 -1.720655 4293729569
4.8141947 -2.9318118 -1.6791736 4293729569
6.1972036 -3.7977734 -1.72067 4293729569
4.8901916 -3.0048089 -1.6971974 4293729569
6.2612052 -3.865772 -1.7236896 4293729569
4.9301929 -3.0538075 -1.7012084 4293729569
6.3222084 -3.9297695 -1.7247082 4293729569
6.3872108 -3.9957678 -1.7247285 4293729569
4.9601951 -3.0968063 -1.7012159 4293729569
5.005197 -3.1478047 -1.7042288 4293729569
5.0451989 -3.1958032 -1.7062402 4293729569
5.0901999 -3.2458017 -1.7092534 4293729569
5.1292024 -3.2908003 -1.7082646 4293729569
5.172205 -3.3377988 -1.7082775 4293729569
5.2272053 -3.3917973 -1.7112948 4293729569
5.2772083 -3.4417953 -1.7113106 4293729569
5.3292098 -3.4917939 -1.7123272 4293729569
5.3892112 -3.546792 -1.7143466 4293729569
5.4432135 -3.5957904 -1.7123643 4293729569
5.5202141 -3.6597881 -1.7173902 4293729569
5.5842161 -3.7137864 -1.7174115 4293729569
5.664217 -3.7767842 -1.7204391 4293729569
5.7442179 -3.8387818 -1.7234665 4293729569
5.82622 -3.9007797 -1.7244951 4293729569
5.9082212 -3.9617774 -1.7255235 4293729569
7.0242929 4.8302684 -1.7428037 4288085770
6.9132953 4.7532668 -1.7448014 4288085770
7.1372933 4.9062705 -1.7398057 4288085770
6.8062959 4.6772656 -1.7457991 4288085770
7.2532916 4.9822721 -1.7358077 4288085770
6.6832976 4.5882635 -1.7417963 4288085770
7.3592911 5.0502725 -1.7278093 4288085770
6.5622993 4.4992619 -1.7367933 4288085770
7.4862905 5.1302748 -1.7238111 4288085770
6.4453015 4.4122601 -1.7307904 4288085770
7.6082907 5.2042766 -1.7178127 4288085770
6.3573036 4.3422589 -1.7317876 4288085770
7.7352905 5.2802782 -1.710814 4288085770
6.2663054 4.269258 -1.7297847 4288085770
7.8612905 5.3522801 -1.7008152 4288085770
6.1933074 4.2082577 -1.732782 4288085770
8.0102901 5.438282 -1.6948166 4288085770
6.1363087 4.1552563 -1.7377795 4288085770
8.1502895 5.5152841 -1.6858176 4288085770
6.0823107 4.1042557 -1.7437769 4288085770
8.3152914 5.606286 -1.679819 4288085770
9.0582838 6.1062965 -1.662833 4288085770
8.8622866 5.9732924 -1.6638292 4288085770
9.2492809 6.2342982 -1.6568366 4288085770
8.7112875 5.8692913 -1.6708262 4288085770
9.5482788 6.4323025 -1.6688418 4288085770
8.5572882 5.7602887 -1.6758227 4288085770
9.9312744 6.6823077 -1.6928486 4288085770
8.4032917 5.6492872 -1.6798192 4288085770
6.0293136 4.0512557 -1.7487741 4288085770
10.223272 6.8703122 -1.6978536 4288085770
8.4972916 5.7062888 -1.6748204 4288085770
8.2662935 5.548285 -1.6848159 4288085770
10.432271 6.9983149 -1.6848564 4288085770
8.154295 5.4622841 -1.6928127 4288085770
5.9713154 3.9952543 -1.750771 4288085770
10.64727 7.1273179 -1.6718593 4288085770
8.6992912 5.8152909 -1.671822 4288085770
8.041297 5.3732824 -1.6998093 4288085770
10.87627 7.26232 -1.6588621 4288085770
7.9412985 5.2912812 -1.7068061 4288085770
5.9103184 3.9342535 -1.7507677 4288085770
11.115269 7.4003229 -1.6438649 4288085770
8.9012899 5.9232941 -1.6678233 4288085770
7.841301 5.2082796 -1.7138026 4288085770
11.412269 7.5743275 -1.6338685 4288085770
5.8733201 3.8902533 -1.7577649 4288085770
9.123291 6.0392966 -1.6648247 4288085770
7.7433038 5.1242785 -1.718799 4288085770
11.778267 7.7893319 -1.6328732 4288085770
7.6543055 5.0452771 -1.7257955 4288085770
5.8483233 3.8512535 -1.766762 4288085770
9.3572922 6.1613002 -1.6618261 4288085770
7.5723085 4.9692764 -1.7317917 4288085770
5.8063254 3.8012531 -1.7697587 4288085770
9.6462898 6.3153028 -1.6648284 4288085770
7.4773107 4.8842754 -1.7337879 4288085770
5.7793283 3.7592528 -1.7767553 4288085770
10.050289 6.5393085 -1.6838322 4288085770
7.4003143 4.8092737 -1.7387842 4288085770
10.447289 6.7543139 -1.6988357 4288085770
7.3033175 4.720273 -1.7377799 4288085770
5.7523313 3.7162528 -1.7827518 4288085770
7.1963215 4.623271 -1.732775 4288085770
10.758289 6.9083176 -1.6958375 4288085770
5.7183337 3.6692522 -1.7857485 4288085770
7.1323242 4.5542703 -1.7367711 4288085770
11.02029 7.0263205 -1.683838 4288085770
5.6933365 3.6252522 -1.7907448 4288085770
7.0233278 4.4552693 -1.7297661 4288085770
11.317292 7.1623235 -1.6728389 4288085770
5.6693397 3.5812521 -1.7947412 4288085770
6.9443312 4.3742681 -1.7277616 4288085770
11.593293 7.2803268 -1.656839 4288085770
5.6333432 3.5292523 -1.794737 4288085770
6.8953347 4.3122673 -1.7327574 4288085770
11.973294 7.4573312 -1.6528404 4288085770
5.6123466 3.4862521 -1.798733 4288085770
6.8133383 4.2282667 -1.7277526 4288085770
12.336295 7.6193347 -1.6428413 4288085770
5.5903502 3.441252 -1.8017288 4288085770
6.7743421 4.1702666 -1.7327483 4288085770
12.769295 7.8193402 -1.6398432 4288085770
6.7343454 4.1102657 -1.7367438 4288085770
5.5653543 3.3942523 -1.8037246 4288085770
6.7053494 4.0562663 -1.7427394 4288085770
5.5223579 3.3342521 -1.79772 4288085770
4.078373 2.4442344 -1.7996943 4288085770
6.6743526 4.0002656 -1.7467349 4288085770
4.0343733 2.4172337 -1.7996936 4288085770
3.9973743 2.3942335 -1.8026929 4288085770
4.124373 2.4702349 -1.7996949 4288085770
4.1713724 2.4972355 -1.7986953 4288085770
3.954375 2.3672328 -1.8016921 4288085770
4.236372 2.5332365 -1.8046961 4288085770
5.5113616 3.2952521 -1.8017157 4288085770
3.9133754 2.3392327 -1.8006909 4288085770
4.2933726 2.5632374 -1.8046962 4288085770
3.8823762 2.3172321 -1.8036898 4288085770
4.3513722 2.5932376 -1.8056965 4288085770
3.8463771 2.2912319 -1.8026886 4288085770
4.3993726 2.6162384 -1.8006964 4288085770
3.8103783 2.2652316 -1.8006872 4288085770
6.6463566 3.9462655 -1.7517303 4288085770
4.4693732 2.6502395 -1.8036965 4288085770
3.7903793 2.2462313 -1.8056858 4288085770
5.4853659 3.2452519 -1.800711 4288085770
4.5433736 2.6862407 -1.8066964 4288085770
3.7623806 2.2222311 -1.8056842 4288085770
4.6073742 2.7152414 -1.8056961 4288085770
3.733382 2.1972313 -1.8046826 4288085770
6.6133604 3.887265 -1.7537254 4288085770
4.6883745 2.7532427 -1.8096961 4288085770
3.7143836 2.1772311 -1.8086808 4288085770
5.4653702 3.1982517 -1.8007063 4288085770
4.759376 2.7832437 -1.8076956 4288085770
3.6843851 2.1512308 -1.8056788 4288085770
4.8303766 2.8132446 -1.804695 4288085770
6.5863647 3.8322651 -1.7567207 4288085770
3.647387 2.1192307 -1.7976768 4288085770
4.9013782 2.8402455 -1.8016942 4288085770
5.4493742 3.1542523 -1.8007016 4288085770
4.9833779 2.8802469 -1.7976944 4288085770
3.6483891 2.1082311 -1.8086748 4288085770
4.8543792 2.8052454 -1.7976925 4288085770
4.9133792 2.8392458 -1.7956932 4288085770
5.0493784 2.9162474 -1.7966951 4288085770
4.8093801 2.7772448 -1.8026916 4288085770
5.1213784 2.9552479 -1.7966957 4288085770
4.7463808 2.7382441 -1.7996901 4288085770
4.9773793 2.8702464 -1.7986933 4288085770
5.2053776 3.0002494 -1.7996964 4288085770
4.7053809 2.7112434 -1.8046892 4288085770
6.5643687 3.7782648 -1.7607155 4288085770
5.2773786 3.0362504 -1.7966968 4288085770
4.6503825 2.6752431 -1.8036876 4288085770
3.6263907 2.0842311 -1.8066726 4288085770
5.3613782 3.0792511 -1.7976973 4288085770
4.6053839 2.6432426 -1.8046862 4288085770
5.0573802 2.9012477 -1.7956926 4288085770
5.4473782 3.1202521 -1.7966975 4288085770
4.5633845 2.6122422 -1.8056846 4288085770
5.4413781 3.1132522 -1.8036969 4288085770
3.5903933 2.0512311 -1.79667 4288085770
5.5493779 3.1702538 -1.799698 4288085770
4.5233855 2.5832422 -1.8066831 4288085770
5.1603818 2.9442489 -1.8006917 4288085770
5.6543779 3.2212551 -1.8026983 4288085770
6.5523729 3.7312651 -1.7657108 4288085770
4.4823871 2.5512416 -1.8066813 4288085770
5.7483783 3.2642562 -1.8006983 4288085770
3.6593938 2.0772326 -1.8396686 4288085770
5.255383 2.9802506 -1.7996908 4288085770
4.4383888 2.5162411 -1.8046793 4288085770
5.8573799 3.3132575 -1.8006982 4288085770
5.4313822 3.0702527 -1.803692 4288085770
4.4023905 2.4862409 -1.8046772 4288085770
3.6193969 2.0402322 -1.8266656 4288085770
5.9553809 3.3552587 -1.7976979 4288085770
5.3593845 3.0192521 -1.8006896 4288085770
6.5313773 3.6772647 -1.7677056 4288085770
4.367393 2.4562407 -1.8036753 4288085770
6.0483813 3.3922596 -1.7906973 4288085770
5.4623861 3.0572531 -1.8006885 4288085770
4.3373938 2.4272406 -1.804673 4288085770
5.4153872 3.0242529 -1.802687 4288085770
6.1553817 3.4372609 -1.786697 4288085770
4.3053961 2.3962402 -1.8026707 4288085770
6.5273814 3.6322649 -1.7737007 4288085770
5.5773869 3.1002548 -1.8036873 4288085770
6.2853832 3.4922626 -1.7876966 4288085770
4.2733979 2.3652401 -1.8006681 4288085770
6.4003849 3.5372636 -1.782696 4288085770
5.6973891 3.145256 -1.8056861 4288085770
5.4053912 2.9812529 -1.802682 4288085770
4.2554002 2.3412406 -1.8036658 4288085770
6.5293856 3.5892651 -1.7806954 4288085770
6.5153861 3.5802648 -1.7756952 4288085770
5.8043914 3.1802573 -1.8026845 4288085770
4.2304029 2.3132403 -1.8036634 4288085770
6.6373878 3.6252666 -1.7696942 4288085770
5.3973961 2.9382532 -1.8026768 4288085770
5.926393 3.222259 -1.8016831 4288085770
4.202405 2.2822402 -1.8006605 4288085770
6.5203896 3.5402653 -1.7836901 4288085770
6.7333889 3.655267 -1.7556928 4288085770
6.8963909 3.7192693 -1.757692 4288085770
6.031395 3.2522604 -1.7946812 4288085770
4.1924076 2.2602406 -1.8036578 4288085770
5.3824015 2.8912532 -1.7996714 4288085770
6.5203943 3.4962659 -1.788685 4288085770
7.0503917 3.7762709 -1.754691 4288085770
4.1694098 2.2302408 -1.8026547 4288085770
6.1553974 3.2912619 -1.7926793 4288085770
7.2123938 3.8352728 -1.75169 4288085770
4.1574125 2.2062411 -1.8036518 4288085770
6.2884002 3.3332634 -1.7916775 4288085770
5.3834057 2.8532538 -1.8006662 4288085770
6.5153985 3.4482658 -1.7916795 4288085770
7.372395 3.8912742 -1.7466887 4288085770
4.149415 2.1832414 -1.8066487 4288085770
6.4334021 3.3792653 -1.7916753 4288085770
7.5343966 3.9462759 -1.7396873 4288085770
5.3824105 2.8132541 -1.801661 4288085770
6.5114031 3.399266 -1.7936739 4288085770
4.1374183 2.1582415 -1.8066456 4288085770
6.5804043 3.4242666 -1.7906733 4288085770
7.7243986 4.0122781 -1.7366858 4288085770
4.1344213 2.1372421 -1.8106424 4288085770
6.7134066 3.4602683 -1.7846708 4288085770
6.4994082 3.3482661 -1.7936683 4288085770
7.9194012 4.0792799 -1.7336844 4288085770
5.3754153 2.7692547 -1.7996554 4288085770
4.1274238 2.1132421 -1.810639 4288085770
8.1024036 4.1372814 -1.7256825 4288085770
6.85041 3.4962697 -1.7776684 4288085770
6.4974127 3.3002663 -1.7946625 4288085770
5.3784194 2.7312548 -1.7996501 4288085770
4.1204281 2.0882425 -1.8106354 4288085770
8.3284054 4.2142844 -1.7246809 4288085770
7.0364118 3.5542715 -1.782666 4288085770
4.1164303 2.065243 -1.811632 4288085770
8.5634069 4.2922869 -1.722679 4288085770
6.5024171 3.2552667 -1.7976568 4288085770
5.3794246 2.6912556 -1.7996445 4288085770
7.1994143 3.5982733 -1.7786634 4288085770
8.8054094 4.3722887 -1.7206774 4288085770
4.1164336 2.0432432 -1.8146284 4288085770
7.3754148 3.6472757 -1.7766614 4288085770
6.495419 3.2052667 -1.7956518 4288085770
5.3824258 2.6522563 -1.7986399 4288085770
9.0584078 4.452291 -1.7166772 4288085770
4.1144338 2.0192442 -1.8146259 4288085770
7.5474167 3.6902771 -1.7716602 4288085770
9.3324099 4.5402937 -1.7136769 4288085770
6.5044236 3.161267 -1.7986478 4288085770
5.3854299 2.6122563 -1.7966359 4288085770
4.116437 1.9962445 -1.8156227 4288085770
7.7194195 3.7322783 -1.7646587 4288085770
9.6894102 4.6642966 -1.7236776 4288085770
4.1124411 1.9712445 -1.81462 4288085770
6.5024285 3.1112671 -1.7976437 4288085770
7.9164219 3.7822797 -1.7626575 4288085770
5.4074349 2.5812569 -1.8016319 4288085770
10.056413 4.789299 -1.7316782 4288085770
16.357382 7.7843585 -1.6667411 4288085770
4.1274438 1.954245 -1.820617 4288085770
8.1094246 3.8282814 -1.7576561 4288085770
10.391416 4.8933024 -1.7306782 4288085770
6.5054331 3.0642664 -1.7966396 4288085770
5.417439 2.5442567 -1.8016278 4288085770
16.055391 7.5213532 -1.6727329 4288085770
4.1304474 1.9302452 -1.8196138 4288085770
8.292429 3.8672826 -1.7486546 4288085770
10.755416 5.0073051 -1.7306786 4288085770
6.5064378 3.0162666 -1.7946354 4288085770
5.4264445 2.5062568 -1.8006235 4288085770
15.899395 7.3313503 -1.6907262 4288085770
4.1244507 1.9022453 -1.8156104 4288085770
8.4824314 3.9062834 -1.7396529 4288085770
11.132419 5.1213074 -1.7306787 4288085770
6.5114427 2.9692664 -1.793631 4288085770
11.470421 5.2143097 -1.7206784 4288085770
8.717433 3.9632852 -1.7376517 4288085770
4.1404538 1.8842459 -1.8196074 4288085770
5.4394488 2.470257 -1.8006195 4288085770
15.768402 7.1513472 -1.7097193 4288085770
11.841423 5.3173118 -1.7116783 4288085770
8.9594374 4.0192866 -1.7346504 4288085770
6.5194473 2.9232664 -1.7926267 4288085770
4.1474576 1.8612461 -1.819604 4288085770
15.625407 6.9703441 -1.7257125 4288085770
5.4574533 2.435257 -1.8006152 4288085770
12.255426 5.4323144 -1.7056783 4288085770
9.2174387 4.079289 -1.732649 4288085770
4.158462 1.8392465 -1.8206006 4288085770
6.5254526 2.8762662 -1.7896223 4288085770
15.275416 6.6993389 -1.7167035 4288085770
5.4744582 2.4002573 -1.8006109 4288085770
3.7654655 1.6522433 -1.8385948 4288085770
12.671429 5.5433168 -1.6956782 4288085770
9.5024433 4.1472907 -1.7336478 4288085770
3.7704668 1.6472433 -1.8125938 4288085770
4.1684647 1.8172467 -1.8205973 4288085770
3.8334677 1.6662439 -1.8135933 4288085770
6.5474563 2.8362663 -1.791618 4288085770
13.115431 5.6623197 -1.6876783 4288085770
3.9024684 1.6882445 -1.8165927 4288085770
3.7814693 1.6342435 -1.8145914 4288085770
3.7314696 1.6122433 -1.8125908 4288085770
3.8224695 1.6512439 -1.8115917 4288085770
14.803425 6.379333 -1.6906935 4288085770
3.7614694 1.6242437 -1.8485911 4288085770
3.8824692 1.6762446 -1.8165922 4288085770
3.6944699 1.594243 -1.8365902 4288085770
3.9344692 1.697245 -1.8165923 4288085770
9.7584448 4.1992922 -1.7276462 4288085770
5.4964623 2.3662574 -1.8016067 4288085770
3.9954693 1.7212455 -1.8195927 4288085770
3.9774697 1.7112452 -1.8205923 4288085770
4.049469 1.7412459 -1.8185928 4288085770
3.6754711 1.5792429 -1.838589 4288085770
4.1834688 1.7962469 -1.8215935 4288085770
4.1144691 1.7662466 -1.820593 4288085770
4.1814694 1.7902472 -1.822593 4288085770
4.05547 1.7342461 -1.8255916 4288085770
4.2424703 1.8112475 -1.8215928 4288085770
13.613433 5.7963219 -1.6816787 4288085770
6.5594621 2.790266 -1.7886133 4288085770
4.2994704 1.8302482 -1.8165926 4288085770
4.1294713 1.7552468 -1.8275907 4288085770
10.014449 4.246294 -1.7186444 4288085770
14.49843 6.138329 -1.681685 4288085770
4.3674712 1.8522488 -1.8165925 4288085770
5.5154672 2.3312578 -1.8016022 4288085770
4.4334722 1.8742491 -1.8135923 4288085770
4.2024722 1.7762476 -1.8245901 4288085770
4.2044725 1.7762476 -1.82759 4288085770
3.6234758 1.5312426 -1.8055847 4288085770
4.5024724 1.8962498 -1.8105921 4288085770
14.171435 5.950326 -1.6776793 4293729569
4.2784739 1.7952482 -1.826589 4288085770
4.5904732 1.9242506 -1.8145916 4288085770
10.328452 4.3152952 -1.717643 4288085770
6.5814667 2.7492659 -1.7886089 4288085770
4.6714745 1.9492513 -1.8135914 4288085770
14.338438 5.9613266 -1.6866776 4288085770
4.3524752 1.8132488 -1.8245881 4288085770
4.215476 1.7532477 -1.8235862 4288085770
4.7514749 1.9732519 -1.8115909 4288085770
3.6704795 1.5252435 -1.8205813 4288085770
5.541472 2.299258 -1.8025979 4288085770
14.782438 6.1163287 -1.6746802 4293729569
4.4334769 1.8342496 -1.8245871 4288085770
4.8294764 1.9952527 -1.8075905 4288085770
10.662457 4.3872972 -1.7166415 4288085770
4.9234772 2.022253 -1.8085898 4288085770
4.4984784 1.8472501 -1.8165859 4288085770
6.6084709 2.7102659 -1.7886046 4288085770
4.2344799 1.7332484 -1.8245828 4288085770
14.214445 5.8013234 -1.6946707 4288085770
15.60844 6.3623343 -1.6906825 4288085770
5.0134778 2.0472541 -1.8055892 4288085770
3.6884835 1.5062438 -1.8205774 4288085770
4.5824804 1.8662508 -1.8155847 4288085770
5.5534768 2.259258 -1.798593 4288085770
5.1034789 2.0712547 -1.8015887 4288085770
11.021457 4.4632993 -1.7176402 4288085770
4.6784821 1.8902516 -1.8175838 4288085770
5.1994801 2.0962555 -1.7995878 4288085770
6.6294756 2.6672661 -1.7875999 4288085770
16.599443 6.66434 -1.7156863 4288085770
4.2554846 1.7122487 -1.8265789 4288085770
14.127451 5.657321 -1.704664 4288085770
3.7044878 1.4862446 -1.8185735 4288085770
5.3104815 2.126256 -1.7995871 4288085770
4.757484 1.9052522 -1.8115824 4288085770
11.431462 4.5563006 -1.7236391 4288085770
5.5794821 2.2262583 -1.7975888 4288085770
5.421484 2.1552567 -1.7995865 4288085770
4.8604856 1.9292532 -1.8135811 4288085770
17.484444 6.9113445 -1.7236886 4288085770
4.2714882 1.690249 -1.8255754 4288085770
6.6794806 2.6362662 -1.7925956 4288085770
5.5374842 2.1852582 -1.7985855 4288085770
14.060457 5.5223193 -1.7156574 4288085770
3.725492 1.4672449 -1.8195695 4288085770
4.9374871 1.9422537 -1.8055797 4288085770
11.908463 4.6693034 -1.7366383 4288085770
5.6614861 2.216259 -1.7985847 4288085770
5.6184864 2.1972585 -1.8005841 4288085770
18.219446 7.0873489 -1.7096893 4288085770
5.0344896 1.9622542 -1.8025783 4288085770
4.298492 1.6712493 -1.8285714 4288085770
5.767488 2.2392595 -1.7915837 4288085770
6.7064857 2.5942659 -1.7905908 4288085770
12.348467 4.7603059 -1.739637 4288085770
3.7464962 1.4482453 -1.8195653 4288085770
13.993462 5.3873167 -1.7246505 4288085770
5.1434913 1.9842552 -1.8025769 4288085770
5.8944898 2.2692604 -1.7885827 4288085770
19.074451 7.3003521 -1.7016907 4288085770
5.6464906 2.1642587 -1.8005795 4288085770
5.2614927 2.0102561 -1.8045756 4288085770
6.035491 2.3032613 -1.7895819 4288085770
4.3274961 1.6522497 -1.8305676 4288085770
12.834471 4.863308 -1.746636 4288085770
6.7524896 2.5602663 -1.7925862 4288085770
3.7615001 1.4272459 -1.8155614 4288085770
6.1754918 2.3352623 -1.7875807 4288085770
13.948468 5.2633147 -1.7356439 4288085770
5.3764954 2.0322568 -1.8045741 4288085770
19.895452 7.4873557 -1.6846914 4288085770
5.6864953 2.1352587 -1.8025752 4288085770
6.3314943 2.3722632 -1.7895799 4288085770
4.3505001 1.6312501 -1.8305638 4288085770
5.485497 2.0512576 -1.8005724 4288085770
13.297474 4.9493103 -1.7466345 4288085770
6.7814951 2.5192661 -1.7895814 4288085770
3.7815046 1.4072462 -1.8145573 4288085770
6.4764962 2.403264 -1.7855786 4288085770
13.916475 5.1433134 -1.7466372 4288085770
5.6074996 2.0742586 -1.7995709 4288085770
5.7195005 2.1032591 -1.8025706 4288085770
4.3755045 1.6102506 -1.8315597 4288085770
6.656498 2.4452651 -1.7895777 4288085770
13.801478 5.0453115 -1.749633 4288085770
5.7365017 2.0982592 -1.7995695 4288085770
3.8085084 1.3902469 -1.8155532 4288085770
6.832499 2.4862661 -1.7925769 4288085770
6.8344998 2.4842663 -1.7905765 4288085770
13.87448 5.0213113 -1.7546304 4288085770
5.8615046 2.1182601 -1.7965676 4288085770
4.4035087 1.5902508 -1.8315557 4288085770
5.7525053 2.0702596 -1.8015656 4288085770
7.0085015 2.5202672 -1.7885753 4288085770
14.294482 5.1303134 -1.7476312 4288085770
6.0035067 2.1442609 -1.7965659 4288085770
3.8365128 1.3722473 -1.8165492 4288085770
6.8815045 2.4522662 -1.7935722 4288085770
7.1885042 2.5562682 -1.786574 4288085770
13.812486 4.8923092 -1.7586236 4288085770
4.4215126 1.566251 -1.8275516 4288085770
14.839485 5.2263155 -1.7486297 4288085770
6.1385088 2.1652615 -1.7935641 4288085770
5.7945099 2.0402596 -1.8025609 4288085770
7.374506 2.5922692 -1.7825725 4288085770
3.8625174 1.3532478 -1.8155448 4288085770
6.9245086 2.4142663 -1.7925673 4288085770
6.299511 2.1932626 -1.7955621 4288085770
7.6315084 2.6512704 -1.7945716 4288085770
13.751492 4.764308 -1.7616166 4288085770
4.4485164 1.5452516 -1.8265476 4288085770
15.300488 5.2843161 -1.7366267 4288085770
5.8255148 2.0062597 -1.7995563 4288085770
6.4525127 2.2172632 -1.7945603 4288085770
7.81251 2.6802714 -1.78457 4288085770
3.8925211 1.3362483 -1.816541 4288085770
6.9955139 2.3862662 -1.7965626 4288085770
4.4855204 1.5262519 -1.8295436 4288085770
13.576498 4.6003046 -1.7486086 4288085770
15.871492 5.3733177 -1.7346249 4288085770
8.0575123 2.7292724 -1.7875686 4288085770
6.6125164 2.2412641 -1.7935582 4288085770
5.8675199 1.9752599 -1.7985513 4288085770
3.9305255 1.320249 -1.8205367 4288085770
8.2955141 2.7742736 -1.7865672 4288085770
6.7785187 2.2662649 -1.7925564 4288085770
7.0355182 2.3462665 -1.7935576 4288085770
4.520525 1.5062524 -1.8295394 4288085770
16.538498 5.4853201 -1.7386233 4288085770
13.367505 4.4263015 -1.7306005 4288085770
8.5375175 2.8172746 -1.7845657 4288085770
6.9425216 2.2872655 -1.7885542 4288085770
5.922524 1.9492601 -1.8015467 4288085770
3.9685299 1.3042495 -1.8225324 4288085770
7.0975237 2.3142662 -1.7945529 4288085770
8.8055201 2.8652756 -1.7845643 4288085770
4.5505295 1.4852527 -1.8285352 4288085770
17.126503 5.5623207 -1.7316206 4288085770
7.146524 2.3192663 -1.7935522 4288085770
13.280511 4.2953 -1.7255931 4293729569
5.9665294 1.9182602 -1.8005418 4288085770
9.114522 2.9242768 -1.7895628 4288085770
4.0035334 1.28725 -1.8245283 4288085770
7.3185267 2.3392673 -1.7885497 4288085770
17.824509 5.6663232 -1.7336184 4288085770
4.580533 1.463253 -1.825531 4288085770
7.1545277 2.2792661 -1.793548 4288085770
13.302515 4.2012982 -1.7325865 4288085770
9.4415236 2.9842782 -1.7945613 4288085770
7.5245299 2.368268 -1.7895476 4288085770
6.0295329 1.8922604 -1.8045371 4288085770
4.0355382 1.2682502 -1.823524 4288085770
18.508511 5.7563233 -1.7296157 4288085770
9.7585268 3.0382795 -1.7955595 4288085770
4.6275368 1.4452535 -1.8295268 4288085770
7.2245326 2.2482662 -1.7945431 4288085770
7.7475324 2.3992691 -1.7935454 4288085770
13.330522 4.1092968 -1.7405798 4288085770
10.103529 3.0962803 -1.7965579 4288085770
6.0785384 1.8622606 -1.8025323 4288085770
4.0785418 1.2522509 -1.8265197 4288085770
19.309511 5.8723249 -1.7336135 4288085770
7.967536 2.4272699 -1.793543 4288085770
4.6595416 1.4232538 -1.8265225 4288085770
7.2975368 2.2162664 -1.794538 4288085770
10.490533 3.1642818 -1.8025565 4288085770
13.334527 4.0092955 -1.7435731 4288085770
8.1805391 2.4492705 -1.7905402 4288085770
4.1235456 1.2362515 -1.8305154 4288085770
6.1435432 1.8362608 -1.8055272 4288085770
4.7065458 1.4052541 -1.8285182 4288085770
10.872535 3.2252829 -1.8035545 4288085770
7.371542 2.1842663 -1.7955331 4288085770
8.4265413 2.478271 -1.7915378 4288085770
13.372533 3.9202933 -1.7495664 4288085770
11.245538 3.2802839 -1.7995524 4288085770
4.1675506 1.2202519 -1.8325111 4288085770
6.2075472 1.8082608 -1.8075225 4288085770
4.7445498 1.3842543 -1.8265139 4288085770
8.6845436 2.5092719 -1.7935352 4288085770
7.4575462 2.1542661 -1.796528 4288085770
11.627541 3.3322845 -1.7935501 4288085770
13.450538 3.8392925 -1.7595595 4288085770
4.2015548 1.2012522 -1.8305068 4288085770
4.7855539 1.3632549 -1.8245095 4288085770
8.8995476 2.523272 -1.7845323 4288085770
6.2805514 1.7832611 -1.8105174 4288085770
12.048543 3.3912857 -1.789548 4288085770
7.5325513 2.1212664 -1.794523 4288085770
9.1735506 2.552273 -1.7865295 4288085770
13.539544 3.761291 -1.7695528 4288085770
4.2515588 1.1852527 -1.8335023 4288085770
4.8245583 1.3412549 -1.8215051 4288085770
12.497545 3.4522862 -1.7855457 4288085770
6.3405566 1.7542611 -1.8085127 4288085770
7.6275554 2.0932662 -1.7975181 4288085770
9.4455538 2.5762737 -1.7845265 4288085770
12.977548 3.5162876 -1.7825433 4288085770
13.649548 3.6892896 -1.7795463 4288085770
4.2895632 1.166253 -1.831498 4288085770
4.8755627 1.3232553 -1.8215009 4288085770
6.4245605 1.7302614 -1.8135078 4288085770
9.762557 2.6092737 -1.7875234 4288085770
7.7125597 2.0612664 -1.7955129 4288085770
13.55055 3.6002886 -1.7875412 4288085770
3.9085674 1.0462518 -1.8074932 4288085770
3.7975676 1.0162511 -1.7654924 4293729569
3.9635675 1.059252 -1.8124932 4288085770
4.0315671 1.0762522 -1.8134934 4288085770
4.1135669 1.0972524 -1.8194937 4288085770
3.9965675 1.0642521 -1.8154927 4288085770
4.1915669 1.1152529 -1.8214936 4288085770
4.2825675 1.1372533 -1.8284937 4288085770
4.9365659 1.3062556 -1.8244966 4288085770
4.328568 1.1462535 -1.8284934 4288085770
4.0815673 1.0812525 -1.8194922 4288085770
13.815554 3.6302891 -1.7975397 4288085770
4.3495674 1.1512536 -1.8234935 4288085770
4.4325671 1.1702538 -1.8244934 4288085770
10.08056 2.6382747 -1.7895204 4288085770
4.1775689 1.100253 -1.8274918 4288085770
6.4995656 1.7042614 -1.8145028 4288085770
4.5105677 1.1862543 -1.8224933 4288085770
14.157556 3.6852896 -1.7915388 4288085770
4.6095681 1.2082545 -1.8264931 4288085770
4.2595696 1.1142532 -1.8284909 4288085770
7.8265638 2.0362663 -1.7995079 4288085770
4.6925697 1.2242548 -1.8234928 4288085770
4.7845697 1.2432553 -1.8224925 4288085770
4.33957 1.1282538 -1.8264902 4288085770
4.8855705 1.2622557 -1.8234921 4288085770
4.9835701 1.2852559 -1.8224921 4288085770
4.4295716 1.143254 -1.8284895 4288085770
4.3785715 1.1292539 -1.8304892 4288085770
10.432564 2.6712749 -1.7935171 4288085770
4.9805713 1.2802558 -1.8214915 4288085770
13.96956 3.5642874 -1.8115327 4288085770
14.758558 3.7612901 -1.7895362 4288085770
4.5275726 1.1602544 -1.8314887 4288085770
5.082572 1.2992563 -1.819491 4288085770
6.5745697 1.6762615 -1.8144978 4288085770
4.6255732 1.1762547 -1.8324879 4288085770
7.926569 2.0062661 -1.7995028 4288085770
5.187573 1.3172568 -1.8174903 4288085770
5.3145733 1.3412571 -1.8214899 4288085770
4.7155747 1.1892551 -1.8294868 4288085770
10.785567 2.7002757 -1.7955135 4288085770
5.0415745 1.2662563 -1.8234876 4288085770
15.375561 3.8332906 -1.7835332 4293729569
5.4215741 1.3582575 -1.817489 4288085770
4.4305754 1.1122541 -1.8314847 4288085770
4.7985754 1.2002556 -1.8234857 4288085770
14.141563 3.5022867 -1.8255261 4288085770
5.5675755 1.385258 -1.8244885 4288085770
6.6625743 1.6502615 -1.8164927 4288085770
4.908577 1.2172557 -1.8264849 4288085770
8.0435734 1.9792658 -1.8004977 4288085770
5.7055769 1.4072584 -1.8264875 4288085770
11.17857 2.7352755 -1.8015102 4288085770
5.012579 1.2312562 -1.8244836 4288085770
15.970565 3.8932912 -1.7715299 4293729569
5.8445773 1.4302589 -1.8274869 4288085770
5.0995793 1.2472565 -1.8224833 4288085770
4.4765801 1.0942546 -1.8294803 4288085770
5.1255798 1.2462567 -1.8244824 4288085770
5.9905782 1.4532591 -1.8274859 4288085770
14.295568 3.4332852 -1.836519 4288085770
6.7515793 1.6242615 -1.8174877 4288085770
6.1225791 1.4712597 -1.8214847 4288085770
5.2365808 1.2602571 -1.8214811 4288085770
11.536573 2.7562764 -1.7985063 4288085770
16.617569 3.9582918 -1.7605264 4293729569
8.1685781 1.9522659 -1.8024924 4288085770
6.286581 1.4962602 -1.8234837 4288085770
5.3655825 1.2772573 -1.8244798 4288085770
5.153583 1.2262566 -1.8194789 4288085770
4.5195837 1.074255 -1.8254759 4288085770
6.4465828 1.5182605 -1.8224825 4288085770
5.4795837 1.2902577 -1.8204784 4288085770
11.906577 2.774276 -1.7945021 4288085770
14.478574 3.3702836 -1.849512 4288085770
17.459574 4.0592918 -1.7625233 4293729569
6.8355837 1.5962617 -1.8164824 4288085770
6.6115837 1.541261 -1.8204813 4288085770
8.2865829 1.9232656 -1.8024873 4288085770
5.6255856 1.3092582 -1.8254771 4288085770
5.2155867 1.2082568 -1.8194745 4288085770
6.7685857 1.5602614 -1.8154799 4288085770
4.5815878 1.0592552 -1.8284715 4288085770
5.7815866 1.3292584 -1.8304756 4288085770
12.318581 2.7992761 -1.7944982 4288085770
18.308577 4.1512923 -1.7595196 4293729569
6.9555869 1.5842617 -1.8134785 4288085770
5.9355884 1.3472589 -1.834474 4288085770
6.9215875 1.5682614 -1.8154774 4288085770
14.698578 3.3122826 -1.865505 4288085770
8.4725857 1.9072657 -1.8134819 4288085770
7.1445885 1.6082622 -1.8114772 4288085770
5.2825909 1.1892573 -1.8194702 4288085770
6.0555902 1.3562592 -1.8254722 4288085770
4.6455922 1.0432556 -1.8314672 4288085770
7.3235898 1.6272624 -1.8044754 4288085770
19.16358 4.2342925 -1.7505157 4293729569
12.743584 2.820276 -1.7944938 4288085770
6.2305918 1.3762597 -1.8314705 4288085770
7.023592 1.5432614 -1.8164723 4288085770
7.5375915 1.6522627 -1.8044738 4288085770
14.844584 3.2352808 -1.8694974 4288085770
8.6025915 1.8782654 -1.8124768 4288085770
5.3435946 1.1692573 -1.8164656 4288085770
6.3995938 1.39226 -1.8324685 4288085770
4.7005959 1.0242559 -1.8294626 4288085770
7.7885933 1.684263 -1.808472 4288085770
13.301588 2.8652763 -1.8084896 4288085770
6.5455961 1.4032601 -1.8264664 4288085770
8.0295954 1.7112634 -1.8084702 4288085770
7.1345959 1.5182614 -1.8184671 4288085770
8.7795954 1.8572652 -1.8184713 4288085770
5.4175978 1.1512575 -1.8164612 4288085770
15.017589 3.1632793 -1.87649 4288085770
6.730598 1.4202605 -1.8284644 4288085770
4.7456002 1.0042561 -1.8234584 4288085770
13.982592 2.9272766 -1.8344854 4288085770
8.2855978 1.7392638 -1.8084685 4288085770
6.8945999 1.4312607 -1.8234621 4288085770
8.5805979 1.7732643 -1.8144666 4288085770
7.2426004 1.4922614 -1.8194619 4288085770
5.4926023 1.1332576 -1.8164568 4288085770
8.9485989 1.8332648 -1.8214661 4288085770
15.190594 3.0902779 -1.8804823 4288085770
14.777594 3.0042765 -1.870481 4288085770
4.8156037 0.98825628 -1.825454 4288085770
7.0626016 1.442261 -1.8174599 4288085770
8.8806 1.8052645 -1.8164644 4288085770
7.252604 1.455261 -1.8144577 4288085770
9.2006025 1.8382649 -1.8204623 4288085770
5.5846062 1.1172578 -1.8204525 4288085770
7.3626046 1.4672612 -1.8214568 4288085770
9.1426029 1.8122647 -1.8274608 4288085770
15.404598 3.0372765 -1.8794758 4288085770
4.8786073 0.97025663 -1.8244495 4288085770
15.361598 3.0132759 -1.8824745 4288085770
7.474606 1.4722614 -1.8184551 4288085770
9.5016031 1.865265 -1.8164599 4288085770
7.7086082 1.4902616 -1.8214527 4288085770
9.8246078 1.8932651 -1.8124574 4288085770
5.6676102 1.098258 -1.8204478 4288085770
7.4806089 1.4412612 -1.8214515 4288085770
15.953601 3.0482757 -1.8764702 4288085770
9.3446083 1.7912643 -1.8334553 4288085770
4.938611 0.95125657 -1.8214451 4288085770
15.543604 2.9362745 -1.8844666 4288085770
10.183609 1.9252652 -1.8124549 4288085770
7.94561 1.5052617 -1.82245 4288085770
5.7686138 1.0832582 -1.8244435 4288085770
7.6256137 1.4192609 -1.8254466 4288085770
16.431608 3.0372744 -1.8624637 4288085770
10.588612 1.9612652 -1.815452 4288085770
8.2046127 1.5222616 -1.8254472 4288085770
9.5156116 1.7622637 -1.8304497 4288085770
5.0056152 0.93325692 -1.8194406 4288085770
15.68661 2.8512723 -1.8794585 4288085770
11.027614 2.0002654 -1.8194492 4288085770
8.4936142 1.5422621 -1.8334442 4288085770
5.8656173 1.0662582 -1.825439 4288085770
16.91761 3.023273 -1.8464572 4288085770
7.7696166 1.3952606 -1.8284411 4288085770
5.078619 0.91625702 -1.8194362 4288085770
9.7306156 1.7392633 -1.8334441 4288085770
11.427615 2.0282655 -1.812446 4288085770
8.7846174 1.5592619 -1.8374412 4288085770
15.828613 2.7642703 -1.8724505 4288085770
5.9556212 1.0472584 -1.8244346 4288085770
11.878617 2.0602648 -1.8094428 4288085770
9.0556192 1.5702618 -1.834438 4288085770
17.385616 2.9982715 -1.8264502 4288085770
5.1556225 0.89925718 -1.818432 4288085770
7.9236207 1.3722606 -1.8314359 4288085770
9.9356213 1.7122627 -1.8324385 4288085770
12.359619 2.0932648 -1.8064392 4288085770
9.3306227 1.5792617 -1.8304347 4288085770
6.0616241 1.0312582 -1.8264301 4288085770
16.04862 2.6882684 -1.8714422 4288085770
5.2366266 0.88225728 -1.8194275 4288085770
17.95262 2.98227 -1.8144429 4293729569
8.0986252 1.3502601 -1.8374305 4288085770
10.186625 1.6922621 -1.8374327 4288085770
12.861623 2.1252646 -1.8014354 4288085770
9.6646261 1.5942616 -1.8334309 4288085770
6.1546278 1.0112582 -1.8224257 4288085770
13.526625 2.1772642 -1.8114314 4288085770
5.3256292 0.86625743 -1.8204232 4288085770
16.255625 2.6072669 -1.8674337 4288085770
9.9776278 1.6022613 -1.8294271 4288085770
18.713625 2.990268 -1.8194355 4288085770
8.2576275 1.3262599 -1.8384252 4288085770
10.426628 1.6672616 -1.837427 4288085770
6.2816315 0.99625808 -1.8274211 4288085770
14.247627 2.2312639 -1.8224273 4288085770
10.350631 1.6172608 -1.8344233 4288085770
5.4096332 0.84925747 -1.8194189 4288085770
19.519629 2.9932661 -1.8244275 4288085770
16.472631 2.5272641 -1.8624253 4288085770
8.4156322 1.2992593 -1.8374196 4288085770
10.701631 1.6462609 -1.8414212 4288085770
15.175629 2.3092632 -1.8514227 4288085770
6.3916354 0.97825795 -1.8254168 4288085770
10.725634 1.6272604 -1.834419 4288085770
5.5006371 0.83225757 -1.8184144 4288085770
16.000633 2.3632622 -1.8574178 4288085770
11.006636 1.6272601 -1.8464152 4288085770
8.5936365 1.274259 -1.8384142 4288085770
11.130635 1.6372598 -1.8364146 4288085770
16.709633 2.4472623 -1.8574165 4288085770
6.5196385 0.96125799 -1.8274122 4288085770
5.5926404 0.81525755 -1.8174102 4288085770
16.740635 2.3972609 -1.8484125 4288085770
11.519639 1.6412592 -1.83241 4288085770
11.289639 1.601259 -1.8454093 4288085770
8.809639 1.2532585 -1.8444089 4288085770
6.6526418 0.9442578 -1.8294076 4288085770
16.948639 2.3642597 -1.8494077 4288085770
17.45364 2.4182599 -1.8284066 4293729569
