# .PCD v0.7 - Point Cloud Data file format
VERSION 0.7
FIELDS x y z rgb
SIZE 4 4 4 4
TYPE F F F U
COUNT 1 1 1 1
WIDTH 1104
HEIGHT 1
VIEWPOINT 0 0 0 1 0 0 0
POINTS 1104
DATA ascii
2.1821289 -7.2296033 -1.6394193 4293729569
-2.5536804 -4.3090239 -1.4584006 4293729569
1.7650757 -7.0196686 -1.6572459 4293729569
-2.6027832 -4.3148208 -1.4993021 4293729569
-2.5695801 -4.3060775 -1.0903654 4293729569
-2.1466675 -4.644537 -1.6447148 4293729569
-2.6688232 -4.2736902 -1.1241095 4293729569
-2.675293 -4.3370256 -1.5861746 4293729569
-2.6625366 -4.3057947 -1.1731656 4293729569
-2.6651611 -4.3742208 -1.639245 4293729569
0.17703247 -6.1758585 -1.6967229 4293729569
-2.372467 -4.5980725 -1.7571673 4293729569
-0.15567017 -5.9929371 -1.705768 4293729569
-2.5464172 -4.5129247 -1.7706819 4293729569
-0.44491577 -5.8350444 -1.7199395 4293729569
-2.7222595 -4.4227376 -1.7811861 4293729569
-2.8301392 -4.2926593 -1.3377903 4293729569
-2.9107666 -4.3212509 -1.7866482 4293729569
-2.8443604 -4.3032784 -1.3837744 4293729569
-3.074646 -4.233345 -1.7961812 4293729569
-3.2128601 -4.1610489 -1.80879 4293729569
-2.8953247 -4.3029842 -1.4706668 4293729569
-3.2673645 -4.1417208 -1.8436486 4293729569
-2.7765198 -4.3957405 -1.5440454 4293729569
-3.2874146 -4.1452022 -1.8876108 4288085770
-2.6182861 -4.5134244 -1.6275414 4293729569
-3.3497314 -4.1166925 -1.9184408 4288085770
-2.9255676 -4.3181319 -1.6076266 4293729569
-3.5123291 -4.0178246 -1.9199631 4288085770
-2.5094604 -4.6058908 -1.7529004 4293729569
-3.6846619 -3.9097309 -1.915453 4288085770
-2.6395264 -4.5247769 -1.7725168 4293729569
-3.8274536 -3.8203316 -1.9180306 4288085770
-2.8108215 -4.4136939 -1.7790054 4293729569
-3.9888916 -3.7154975 -1.9115483 4288085770
-2.986969 -4.2964978 -1.7824759 4293729569
-4.1414185 -3.6148758 -1.9070907 4288085770
-3.1178589 -4.2093706 -1.795083 4293729569
-4.2919006 -3.5133028 -1.8996365 4288085770
-3.2053833 -4.1482654 -1.817818 4293729569
-4.4354553 -3.4148946 -1.8922017 4288085770
-3.2111206 -4.1400843 -1.8597983 4293729569
-4.5435791 -3.3393197 -1.8948728 4288085770
-3.2011108 -4.1402755 -1.9048241 4288085770
-4.6723328 -3.2482638 -1.8884797 4288085770
-3.2983093 -4.0669451 -1.9205228 4288085770
-4.7901917 -3.1624646 -1.8831171 4288085770
-3.4614258 -3.9490676 -1.9150213 4288085770
-4.8942261 -3.0839915 -1.8807939 4288085770
-3.6038208 -3.8426785 -1.9135799 4288085770
-3.7373047 -3.739502 -1.9111621 4288085770
-3.8756714 -3.6332126 -1.9057298 4288085770
-3.9923706 -3.5404348 -1.9043617 4288085770
-4.1119995 -3.4435902 -1.8999823 4288085770
-4.2236938 -3.3519316 -1.8966269 4288085770
-4.339325 -3.256186 -1.8892578 4288085770
-4.4450989 -3.1666732 -1.8829182 4288085770
-4.5380554 -3.0844622 -1.879616 4288085770
-4.6073303 -3.0168071 -1.8823841 4288085770
-4.6835327 -2.9439936 -1.8811306 4288085770
-4.7655334 -2.8660431 -1.8758579 4288085770
-4.837738 -2.7943258 -1.8726147 4288085770
-4.9089661 -2.7236333 -1.8683752 4288085770
-4.8488159 -1.1278572 -1.8588649 4288085770
-4.7971497 -1.1060772 -1.8579644 4288085770
-4.7375183 -1.0854883 -1.8590839 4288085770
-4.678833 -1.0638723 -1.8592 4288085770
-4.6092834 -1.045516 -1.8613451 4288085770
-4.5516052 -1.0228825 -1.8584582 4288085770
-4.4789734 -1.0035963 -1.8596096 4288085770
-4.4252625 -0.97887325 -1.8537117 4288085770
-4.3516235 -0.95961285 -1.8528659 4288085770
-4.2730713 -0.94147396 -1.8530329 4288085770
-4.2073669 -0.91803074 -1.8471643 4288085770
-4.1217957 -0.90005207 -1.8473481 4288085770
-4.0332031 -0.88214684 -1.846539 4288085770
-3.9456177 -0.86421967 -1.844728 4288085770
-3.8072815 -0.85648251 -1.8560456 4288085770
-3.7156677 -0.83665276 -1.8522422 4288085770
-4.8677063 -0.57536983 -1.8332956 4288085770
-3.6150818 -0.81903553 -1.8484622 4288085770
-4.7861938 -0.55929947 -1.8334724 4288085770
-3.5383606 -0.79485798 -1.8376201 4288085770
-4.6946716 -0.54446125 -1.8346738 4288085770
-3.4128723 -0.78082561 -1.8389024 4288085770
-4.5962219 -0.53078938 -1.8368931 4288085770
-3.2943115 -0.76463223 -1.8371663 4288085770
-4.5066528 -0.51390648 -1.8360881 4288085770
-3.1170044 -0.7588129 -1.8485781 4288085770
-4.4131165 -0.49812317 -1.8332939 4288085770
-2.9685669 -0.74732018 -1.8519169 4288085770
-4.2937012 -0.48694229 -1.8385651 4288085770
-2.8639221 -0.72680855 -1.8401451 4288085770
-4.203125 -0.46908855 -1.8337623 4288085770
-2.6964417 -0.71476555 -1.8435283 4288085770
-4.1026001 -0.45346928 -1.8299854 4288085770
-2.5100708 -0.70616627 -1.8489596 4288085770
-3.9781189 -0.44041348 -1.8312668 4288085770
-2.3366394 -0.69427013 -1.8493575 4288085770
-3.8556213 -0.42631054 -1.8315427 4288085770
-2.1352539 -0.68602848 -1.8538245 4288085770
-3.722168 -0.414464 -1.8328471 4288085770
-1.9656982 -0.6710434 -1.8482112 4288085770
-3.5916748 -0.39955235 -1.8311417 4288085770
-1.7582703 -0.65994835 -1.8486904 4288085770
-3.4561768 -0.38575935 -1.8284494 4288085770
-1.5617371 -0.64660072 -1.844142 4288085770
-3.3126526 -0.37215614 -1.8267763 4288085770
-1.3472595 -0.63467312 -1.8416375 4288085770
-3.1312866 -0.36343956 -1.8331968 4288085770
-1.1028748 -0.6254549 -1.8412062 4288085770
-2.9608765 -0.3524704 -1.8345897 4288085770
-0.85641479 -0.61528397 -1.8397791 4288085770
-2.7774048 -0.34080887 -1.8360155 4288085770
-0.56808472 -0.60910416 -1.8424578 4288085770
-2.6009521 -0.32898331 -1.8344231 4288085770
-0.24078369 -0.60583591 -1.8482288 4288085770
-2.3845825 -0.32009697 -1.8399277 4288085770
0.079559326 -0.59941101 -1.8499811 4288085770
-2.2070312 -0.30530071 -1.8333356 4288085770
0.38204956 -0.58957005 -1.8436886 4288085770
-1.9806213 -0.29565334 -1.8348638 4288085770
0.65960693 -0.57414913 -1.8283328 4288085770
-1.7601318 -0.28386879 -1.8323761 4288085770
1.0320435 -0.56795597 -1.8262091 4288085770
-1.5126953 -0.27372169 -1.831954 4288085770
1.4433899 -0.56368828 -1.8241793 4288085770
-1.2702026 -0.26245785 -1.8285196 4288085770
1.8707581 -0.55879402 -1.8211874 4288085770
-0.95889282 -0.25581264 -1.8352517 4288085770
2.4757996 -0.56708813 -1.8376262 4288085770
-0.68637085 -0.2442627 -1.8288876 4288085770
3.0689697 -0.57110882 -1.844033 4288085770
-0.34399414 -0.23735428 -1.8336937 4288085770
3.602356 -0.56772709 -1.8362941 4288085770
-0.02053833 -0.22800732 -1.8294535 4288085770
4.1937561 -0.5657177 -1.8286939 4288085770
0.32089233 -0.21808624 -1.8252555 4288085770
4.8600464 -0.56647682 -1.8232737 4288085770
0.62854004 -0.203372 -1.809974 4288085770
5.5015259 -0.56166267 -1.8037907 4288085770
1.13974 -0.20344734 -1.8241867 4288085770
6.2069397 -0.5583601 -1.7854609 4288085770
1.6201172 -0.1978035 -1.825322 4288085770
6.9894104 -0.55687809 -1.7653155 4288085770
2.0646667 -0.18832397 -1.8163702 4288085770
7.8757629 -0.55885696 -1.7444198 4288085770
2.7168884 -0.18973064 -1.830919 4288085770
8.7602844 -0.55580044 -1.7125164 4288085770
3.341217 -0.18749142 -1.8333999 4288085770
9.8017273 -0.55845451 -1.68099 4288085770
3.9617004 -0.18116856 -1.8258688 4288085770
4.7160645 -0.18000221 -1.8266596 4288085770
5.4195862 -0.17364883 -1.8123267 4288085770
6.1042175 -0.16285896 -1.7869465 4288085770
6.9258118 -0.15630341 -1.7638952 4288085770
7.8703613 -0.15165329 -1.7431376 4288085770
8.8629761 -0.14614868 -1.7124928 4288085770
9.9346313 -0.14051723 -1.6760381 4288085770
1.8172913 2.2069855 -0.56291699 4293729569
1.2093811 2.2083158 -0.52631569 4293729569
0.77191162 2.2266331 -0.49715447 4293729569
0.25793457 2.2257481 -0.46380258 4293729569
0.23577881 2.2982807 -0.4537065 4293729569
0.45062256 2.409236 -0.45421457 4293729569
0.30996704 2.460556 -0.43681812 4293729569
0.31292725 2.5364971 -0.42578721 4293729569
0.30780029 2.6096268 -0.41373706 4293729569
0.26055908 2.6767473 -0.39757872 4293729569
0.27154541 2.7534981 -0.38356876 4293729569
0.26745605 2.8276024 -0.36852098 4293729569
0.2774353 2.9053755 -0.35250831 4293729569
0.3548584 2.9975586 -0.3376658 4293729569
0.49359131 3.1052999 -0.32397676 4293729569
0.68569946 3.2267876 -0.31142139 4293729569
0.80645752 3.3349504 -0.2936852 4293729569
0.8085022 3.4139051 -0.27065206 4293729569
9.4591064 0.079760551 -1.6802772 4288085770
8.3214111 0.10563087 -1.7119554 4288085770
7.3267212 0.12912464 -1.742052 4288085770
6.3891296 0.15426636 -1.7633126 4288085770
5.5664673 0.17669582 -1.7869097 4288085770
4.8088379 0.19858837 -1.8056957 4288085770
4.0622864 0.22121525 -1.814512 4288085770
9.6434631 0.098378181 -1.6629769 4288085770
3.3887024 0.24311924 -1.8235413 4288085770
8.5430298 0.13437366 -1.6997514 4288085770
2.7291565 0.2656908 -1.8256098 4288085770
7.522583 0.16847515 -1.7287593 4288085770
2.074707 0.28913593 -1.818691 4288085770
6.5571594 0.20227909 -1.7519267 4288085770
1.4631653 0.31056881 -1.8108981 4288085770
5.7197571 0.23405743 -1.7734693 4288085770
1.015564 0.3291378 -1.8205875 4288085770
4.9832458 0.26145363 -1.7953089 4288085770
0.57501221 0.34753895 -1.8252966 4288085770
4.2128601 0.29164505 -1.8040459 4288085770
0.18243408 0.36580753 -1.8331462 4288085770
3.5354004 0.31864166 -1.8130561 4288085770
-0.19515991 0.38271999 -1.8360395 4288085770
2.9139404 0.34531403 -1.8202298 4288085770
-0.62466431 0.40185547 -1.8247776 4288085770
2.2135925 0.3738451 -1.8081683 4288085770
-0.972229 0.41905785 -1.8237574 4288085770
1.670105 0.39767361 -1.8095703 4288085770
-1.2798157 0.43531609 -1.8258547 4288085770
1.1916504 0.42097187 -1.8141626 4288085770
-1.5753784 0.4522953 -1.8259865 4288085770
0.80111694 0.44219398 -1.8270152 4288085770
-1.8809509 0.468503 -1.8200883 4288085770
0.36965942 0.46438122 -1.8277451 4288085770
-2.1634827 0.48516941 -1.8152572 4288085770
-0.0098571777 0.48533916 -1.8316281 4288085770
-2.3940735 0.50061321 -1.8195797 4288085770
-0.39831543 0.50650978 -1.8294837 4288085770
-2.6366272 0.51633549 -1.816866 4288085770
-0.76379395 0.52713394 -1.8254066 4288085770
-2.8512268 0.53140068 -1.818235 4288085770
-1.0802917 0.54660606 -1.8254739 4288085770
-3.0757446 0.54669571 -1.8125737 4288085770
-1.3998108 0.56514549 -1.8215324 4288085770
-3.2543335 0.56191349 -1.8170482 4288085770
-1.6853333 0.58388424 -1.8196903 4288085770
-3.4538879 0.5766201 -1.8124601 4288085770
-1.9868164 0.60199642 -1.8108006 4288085770
-3.6214905 0.59157372 -1.8149664 4288085770
-2.235321 0.61986256 -1.8090674 4288085770
-3.7860718 0.60645866 -1.8144811 4288085770
-2.4608459 0.63718605 -1.8104019 4288085770
-3.9466248 0.62124634 -1.8140074 4288085770
-2.6873474 0.65453148 -1.8087329 4288085770
-4.0881958 0.63558865 -1.81659 4288085770
-2.8998718 0.67154312 -1.8061053 4288085770
-4.2467346 0.65032864 -1.8121215 4288085770
-3.1104126 0.6885128 -1.8024828 4288085770
-4.386322 0.66462135 -1.8117094 4288085770
-3.2879639 0.70470238 -1.8029584 4288085770
-4.506897 0.67946529 -1.8143529 4288085770
-3.457489 0.72170353 -1.8044567 4288085770
-4.6574402 0.69301414 -1.8059076 4288085770
-3.6140137 0.73739719 -1.8069941 4288085770
-4.7690125 0.70764732 -1.8085777 4288085770
-3.7715454 0.75411701 -1.8065277 4288085770
-3.9190979 0.76959705 -1.8060913 4288085770
-4.0505981 0.7867012 -1.8087014 4288085770
-4.1851807 0.80187511 -1.8083031 4288085770
-4.3087158 0.81779099 -1.8099369 4288085770
-4.4532166 0.83319569 -1.8025081 4288085770
-4.5677795 0.84890079 -1.8031683 4288085770
-4.6802979 0.86455536 -1.8028343 4288085770
-4.7908325 0.88016319 -1.8015059 4288085770
-4.7001038 3.1741486 -1.7557869 4288085770
-4.6011658 3.2068148 -1.7480932 4288085770
-4.4840088 3.2480583 -1.7464535 4288085770
-4.3335876 3.3025188 -1.7519131 4288085770
-4.2084351 3.3445711 -1.7482988 4288085770
-4.0630798 3.3931522 -1.7497454 4288085770
-3.9127808 3.4416132 -1.7502079 4288085770
-3.7564392 3.4919329 -1.7506893 4288085770
-4.7470398 3.096199 -1.7637454 4288085770
-3.5930176 3.5440865 -1.7511925 4288085770
-4.6280823 3.1293945 -1.763115 4288085770
-3.4075012 3.6017199 -1.7557631 4288085770
-4.5172729 3.1567831 -1.7584618 4288085770
-3.2229919 3.6583776 -1.7583315 4288085770
-4.3994141 3.1850042 -1.7538303 4288085770
-3.0203552 3.7206106 -1.7629553 4288085770
-4.2593689 3.2217035 -1.7552656 4288085770
-2.8278809 3.7750778 -1.7625505 4288085770
-4.1173706 3.258359 -1.7557076 4288085770
-2.6233521 3.832263 -1.763183 4288085770
-3.9824524 3.2891769 -1.7521297 4288085770
-2.4006958 3.8940229 -1.7648712 4288085770
-3.8314514 3.3246193 -1.751601 4288085770
-2.1851501 3.9509449 -1.7635397 4288085770
-3.6774292 3.3589897 -1.7510824 4288085770
-1.932373 4.0189943 -1.7673213 4288085770
-3.5184631 3.39324 -1.7495799 4288085770
-1.7037964 4.0766125 -1.7640315 4288085770
-3.340332 3.4340458 -1.7531357 4288085770
-1.4662781 4.1330175 -1.7607708 4288085770
-3.1592407 3.4737778 -1.7547016 4288085770
-1.1904602 4.2015238 -1.7626268 4288085770
-2.9721069 3.5133686 -1.7562869 4288085770
-0.91369629 4.267005 -1.7624873 4288085770
-2.7810364 3.5518656 -1.7568854 4288085770
-0.64810181 4.3257484 -1.7573159 4288085770
-2.5910034 3.5863867 -1.7564826 4288085770
-0.34829712 4.3926878 -1.75625 4288085770
-2.3859253 3.6255531 -1.7571262 4288085770
-0.026367188 4.465107 -1.7562524 4288085770
-2.1617432 3.6682711 -1.760829 4288085770
0.29144287 4.5316191 -1.7532449 4288085770
-1.9416199 3.7070837 -1.7615209 4288085770
0.61218262 4.5950623 -1.7472484 4288085770
-1.7104797 3.7466364 -1.7632478 4288085770
0.99432373 4.6760626 -1.7484399 4288085770
-1.4744263 3.7840719 -1.7639916 4288085770
1.3804016 4.7539692 -1.747646 4288085770
-1.2615662 3.8110485 -1.7576665 4288085770
1.804657 4.8389769 -1.7489709 4288085770
-0.99337769 3.8537283 -1.7605109 4288085770
-1.4103088 3.6593695 -1.2202692 4293729569
-0.75747681 3.882164 -1.7562591 4288085770
-1.4414368 3.5990725 -1.1702058 4293729569
-0.85220337 3.7953539 -1.6890054 4293729569
-1.4564514 3.5443945 -1.124191 4293729569
-1.1273193 3.6477737 -1.5902032 4293729569
-1.4190979 3.5054865 -1.0843363 4293729569
-1.5585938 3.4508581 -1.4669244 4293729569
-1.3858032 3.4656754 -1.045469 4293729569
-1.5827332 3.3913946 -1.4198823 4293729569
-1.5096741 3.375555 -0.98912287 4293729569
-1.5907898 3.3365526 -1.3768893 4293729569
-1.4602966 3.339365 -0.95430493 4293729569
-1.5897217 3.2854986 -1.3359236 4293729569
-1.4158936 3.3012934 -0.91847157 4293729569
-1.6179199 3.2231312 -1.2908685 4293729569
-1.3494263 3.2687054 -0.88570571 4293729569
-1.6249695 3.1682682 -1.2498782 4293729569
-1.2859802 3.2341852 -0.85293174 4293729569
-1.6128845 3.1179552 -1.2139466 4293729569
-1.1491089 3.2189407 -0.82838345 4293729569
-1.6521606 3.0538473 -1.1698575 4293729569
-1.0042114 3.2045059 -0.8038609 4293729569
-1.6380615 3.0044899 -1.135932 4293729569
-0.77880859 3.2101812 -0.78558612 4293729569
-1.6260681 2.9531794 -1.1020002 4293729569
-0.62594604 3.1925611 -0.76009035 4293729569
-1.6150208 2.9018908 -1.0680656 4293729569
-0.10992432 3.2684002 -0.76471353 4293729569
-1.6251221 2.844101 -1.033066 4293729569
0.85272217 3.4527416 -0.79971695 4293729569
-1.6030884 2.7955542 -1.0021653 4293729569
0.87548828 3.3881721 -0.7598269 4293729569
-1.5568848 2.7504406 -0.97433949 4293729569
0.88510132 3.319911 -0.71989655 4293729569
-1.5147095 2.7054224 -0.94750118 4293729569
0.88967896 3.2487707 -0.67995119 4293729569
-1.4545288 2.6619787 -0.92271972 4293729569
0.91641235 3.1841087 -0.6430738 4293729569
-1.3822327 2.6222515 -0.8999753 4293729569
0.74807739 3.0750351 -0.59659147 4293729569
-1.3039856 2.5813866 -0.87825036 4293729569
0.14245605 2.8712482 -0.52575183 4293729569
-1.2197266 2.5403776 -0.85754466 4293729569
-1.1113586 2.5048018 -0.83891392 4293729569
0.12866211 2.7335129 -0.45978355 4293729569
-0.99301147 2.4679899 -0.82231474 4293729569
0.3081665 2.7012596 -0.43637872 4293729569
-0.84957886 2.4345894 -0.80779529 4293729569
0.27557373 2.6249952 -0.40431523 4293729569
-0.69012451 2.4028091 -0.79432631 4293729569
0.27716064 2.5549269 -0.37435794 4293729569
-0.55484009 2.3635979 -0.77878332 4293729569
0.40731812 2.5088339 -0.34980202 4293729569
-0.36636353 2.3311367 -0.76740742 4293729569
0.69506836 2.4870291 -0.33174038 4293729569
-0.25125122 2.2853985 -0.75080299 4293729569
0.91949463 2.4517145 -0.31148195 4293729569
-0.23352051 2.2209539 -0.72689438 4293729569
0.82254028 2.3609657 -0.28021789 4293729569
-0.2590332 2.1495247 -0.69985008 4293729569
0.87261963 2.2498598 -0.75943899 4293729569
0.0091247559 2.0531549 -0.67276406 4293729569
0.90960693 2.104928 -0.71263433 4293729569
1.6392822 2.1227169 -0.7379725 4293729569
2.1992493 2.1105003 -0.75078011 4293729569
9.766571 -2.5134454 -1.0332863 4293729569
9.0828552 -2.541328 -1.0251012 4293729569
9.5102234 -2.697629 -0.13653564 4293729569
8.9542542 -2.6533232 -1.0487373 4293729569
9.0138245 -2.798768 -1.0849926 4293729569
9.8371887 -4.4746075 -1.6283638 4293729569
9.2634277 -4.4620709 -1.6345127 4293729569
9.6222839 -4.640748 -0.74873471 4293729569
8.7186279 -4.4512162 -1.642755 4293729569
9.1877747 -4.6574988 -0.78734398 4293729569
8.18396 -4.4346008 -1.6500276 4293729569
8.6629333 -4.6441102 -0.82064962 4293729569
7.68927 -4.4209275 -1.6594298 4293729569
8.1502686 -4.6250057 -0.85399222 4293729569
7.2214966 -4.4098897 -1.6719197 4293729569
7.6834412 -4.6139865 -0.88848519 4293729569
6.785675 -4.3996062 -1.6845127 4293729569
7.1462097 -4.5743003 -0.91773987 4293729569
6.3579407 -4.3865132 -1.6981306 4293729569
6.7591248 -4.5741653 -0.95349431 4293729569
5.9760132 -4.3825021 -1.7148993 4293729569
6.3920593 -4.5725012 -0.99031234 4293729569
5.5982361 -4.3715887 -1.730679 4293729569
5.9685974 -4.5475006 -1.0209391 4293729569
5.2364197 -4.362052 -1.7475102 4293729569
5.6265564 -4.5444288 -1.0568368 4293729569
4.8896179 -4.3528686 -1.7653897 4293729569
5.1665649 -4.4975624 -1.0843368 4293729569
4.5518799 -4.340898 -1.7832975 4293729569
4.9330139 -4.5200539 -1.1255941 4293729569
4.2460022 -4.3356795 -1.8043102 4288085770
4.5725098 -4.4955401 -1.1574235 4293729569
3.9391785 -4.3254399 -1.823318 4288085770
4.2657471 -4.4822984 -1.1914308 4293729569
3.6246033 -4.3070164 -1.8402976 4288085770
3.9888 -4.4767613 -1.226537 4293729569
3.3240356 -4.2889209 -1.8583224 4288085770
3.7417297 -4.4779291 -1.2637424 4293729569
2.967041 -4.2454886 -1.8671551 4288085770
3.481842 -4.4697952 -1.2999027 4293729569
2.6012268 -4.194849 -1.8719562 4288085770
3.2111206 -4.4544024 -1.3340249 4293729569
2.2296753 -4.1350698 -1.8747354 4288085770
5.093811 -5.2640085 -1.5994191 4293729569
1.8839722 -4.0809026 -1.8786 4288085770
4.5683594 -5.154583 -1.6116824 4293729569
1.5452881 -4.0249004 -1.8824867 4288085770
3.2981567 -4.7405152 -1.5334232 4293729569
1.2147217 -3.9660897 -1.8853984 4288085770
2.3492432 -4.4410567 -1.4832456 4293729569
0.90704346 -3.911819 -1.8893856 4288085770
2.1820068 -4.448112 -1.5247105 4293729569
0.5786438 -3.8460579 -1.8883011 4288085770
2.1881409 -4.5252719 -1.5877622 4293729569
0.28897095 -3.7912126 -1.8923463 4288085770
1.7715149 -4.4234176 -1.5943798 4293729569
0.010284424 -3.7366266 -1.8964268 4288085770
1.969696 -4.5791283 -1.6870819 4293729569
-0.26431274 -3.6801353 -1.8995197 4288085770
1.5800476 -4.4799104 -1.6947876 4293729569
-0.5279541 -3.6239047 -1.9026482 4288085770
1.2261047 -4.3925381 -1.7046129 4293729569
-0.78063965 -3.568933 -1.9058127 4288085770
0.90795898 -4.3140121 -1.7175573 4293729569
-1.0114136 -3.5194778 -1.9110496 4288085770
0.66207886 -4.2652001 -1.738746 4293729569
-1.2669067 -3.456439 -1.9092019 4288085770
0.48950195 -4.2461224 -1.7721837 4293729569
-1.5104065 -3.3956823 -1.9083935 4288085770
0.35559082 -4.24196 -1.8117517 4293729569
-1.7399597 -3.3372555 -1.9096314 4288085770
0.23751831 -4.2431746 -1.852373 4288085770
-1.9723816 -3.2737603 -1.9068578 4288085770
0.14224243 -4.2519269 -1.8970712 4288085770
-2.1948853 -3.2124991 -1.9041173 4288085770
-0.049865723 -4.2133856 -1.9234382 4288085770
-2.3965454 -3.1587305 -1.9064469 4288085770
-0.34466553 -4.1214085 -1.926453 4288085770
-2.6128845 -3.0926132 -1.9017245 4288085770
-0.63543701 -4.0285149 -1.9294814 4288085770
-2.7906799 -3.0443983 -1.9051352 4288085770
-0.91522217 -3.9358935 -1.929546 4288085770
-3.0039673 -2.9753528 -1.8974226 4288085770
-1.2324219 -3.8213849 -1.9184811 4288085770
-3.1944275 -2.9148469 -1.8937869 4288085770
-1.4932251 -3.7312102 -1.9186076 4288085770
-3.3739929 -2.8566012 -1.8901876 4288085770
-1.7450867 -3.6422505 -1.9157635 4288085770
-3.5396423 -2.8046818 -1.890635 4288085770
-2.0018005 -3.5481725 -1.9119016 4288085770
-3.723053 -2.7403436 -1.8830208 4288085770
-2.2307129 -3.4627533 -1.910133 4288085770
-3.9063721 -2.6730075 -1.8734057 4288085770
-2.4596252 -3.3763351 -1.9063641 4288085770
-4.0550537 -2.6214895 -1.8729087 4288085770
-2.6795349 -3.2921286 -1.9016246 4288085770
-4.2076721 -2.5658793 -1.8683968 4288085770
-2.8786621 -3.2154145 -1.8999553 4288085770
-4.3582458 -2.5103159 -1.8638918 4288085770
-3.0697937 -3.1398883 -1.8983123 4288085770
-4.4979248 -2.4580121 -1.8614235 4288085770
-3.2657776 -3.059248 -1.893652 4288085770
-4.6246948 -2.4100127 -1.8599986 4288085770
-3.4410095 -2.9870992 -1.8910619 4288085770
-4.7247925 -2.3746467 -1.8676651 4288085770
-3.6191101 -2.9118805 -1.8864613 4288085770
-4.8514709 -2.3236485 -1.8642391 4288085770
-3.7823792 -2.8420153 -1.8839109 4288085770
-3.9564514 -2.7648931 -1.8753225 4288085770
-4.1156921 -2.6931233 -1.8697845 4288085770
-4.2639771 -2.6256104 -1.8652833 4288085770
-4.4033203 -2.5603099 -1.8608119 4288085770
-4.5219727 -2.5055013 -1.8624117 4288085770
-4.6434937 -2.4486227 -1.8610013 4288085770
-4.7620239 -2.3898168 -1.8586 4288085770
-4.8607788 -2.341476 -1.8612669 4288085770
-4.8450317 -0.040664673 -1.8135198 4288085770
-4.7426147 -0.030081749 -1.8138797 4288085770
-4.6461792 -0.017360687 -1.8122191 4288085770
-4.5387573 -0.006896019 -1.8125969 4288085770
-4.4333496 0.0036144257 -1.810968 4288085770
-4.3009644 0.012488365 -1.815433 4288085770
-4.1855469 0.023761749 -1.8128394 4288085770
-4.0531616 0.033634186 -1.8143051 4288085770
-3.9117737 0.043297768 -1.8158022 4288085770
-3.7753601 0.053076744 -1.8142825 4288085770
-4.7709656 0.16359711 -1.8148202 4288085770
-3.6519165 0.064161301 -1.806718 4288085770
-4.6665649 0.17413139 -1.8121885 4288085770
-3.4765625 0.072021484 -1.8123342 4288085770
-4.5462036 0.18328667 -1.8126128 4288085770
-3.2932434 0.079690933 -1.8169789 4288085770
-4.4188232 0.19227886 -1.8130618 4288085770
-3.1168823 0.087528229 -1.8175997 4288085770
-4.2834778 0.20008278 -1.814539 4288085770
-2.9364624 0.096268654 -1.8162349 4288085770
-4.1481018 0.20888424 -1.8140165 4288085770
-2.7291565 0.10337543 -1.8189645 4288085770
-3.9927673 0.21621704 -1.8175639 4288085770
-2.527771 0.11061859 -1.8176737 4288085770
-3.8334351 0.22345543 -1.8201256 4288085770
-2.3153687 0.11860561 -1.8164216 4288085770
-3.6900635 0.23106956 -1.8156323 4288085770
-2.0790405 0.1250267 -1.8172537 4288085770
-3.5177307 0.23899937 -1.8172401 4288085770
-1.850647 0.13263226 -1.8140587 4288085770
-3.3443909 0.24590683 -1.8178519 4288085770
-1.5753479 0.13713264 -1.8170279 4288085770
-3.1540527 0.25241184 -1.8185234 4288085770
-1.2740784 0.14202213 -1.8210883 4288085770
-2.9667053 0.25898838 -1.8171849 4288085770
-0.96676636 0.14576626 -1.8231705 4288085770
-2.727417 0.26333809 -1.8250283 4288085770
-0.66339111 0.15160465 -1.8192397 4288085770
-2.5200806 0.26944351 -1.8217607 4288085770
-0.30014038 0.15402794 -1.8225188 4288085770
-2.3187256 0.27568913 -1.8144728 4288085770
0.046264648 0.15885258 -1.8177396 4288085770
-2.0584106 0.28054428 -1.817391 4288085770
0.4395752 0.16156578 -1.8161253 4288085770
-1.7791748 0.2839489 -1.8213762 4288085770
0.83987427 0.16411686 -1.8105363 4288085770
-1.4888916 0.28709507 -1.823401 4288085770
1.3091736 0.16503906 -1.8101896 4288085770
-1.1925964 0.2901001 -1.8224473 4288085770
1.8194275 0.16399288 -1.8099874 4288085770
-0.85531616 0.29213905 -1.8256377 4288085770
2.4456177 0.16021347 -1.8181919 4288085770
-0.51904297 0.29419994 -1.8238256 4288085770
3.1517334 0.15454483 -1.8306779 4288085770
-0.12078857 0.29479694 -1.829231 4288085770
3.7001038 0.1546011 -1.8116131 4288085770
0.26644897 0.2956543 -1.8265994 4288085770
4.4023743 0.15002346 -1.8040886 4288085770
0.67370605 0.29504108 -1.8220385 4288085770
5.153595 0.14429092 -1.7927376 4288085770
1.1309509 0.29424572 -1.8196539 4288085770
5.8938904 0.13881588 -1.7703502 4288085770
1.5732422 0.29280567 -1.808218 4288085770
6.7221985 0.13226318 -1.7462727 4288085770
2.1833801 0.28740215 -1.8163718 4288085770
7.7033997 0.12010384 -1.7257339 4288085770
2.9014282 0.27845287 -1.8319057 4288085770
8.6676331 0.10933876 -1.6891381 4288085770
3.5066223 0.27216434 -1.8210455 4288085770
9.8048706 0.094497681 -1.6551514 4288085770
4.1838074 0.26417828 -1.8114394 4288085770
4.9429321 0.25425911 -1.8031229 4288085770
5.6980591 0.24143219 -1.7827946 4288085770
6.538208 0.22859669 -1.7617666 4288085770
7.4542847 0.21197319 -1.7350079 4288085770
8.4993286 0.19130325 -1.7087051 4288085770
9.5973511 0.16837883 -1.6725913 4288085770
8.5730896 -4.6168542 -0.38247967 4293729569
9.1157532 -4.6326785 -0.43556571 4293729569
9.6815796 -4.6450458 -0.48973918 4293729569
9.6021423 -3.062819 -0.80472875 4293729569
9.2977905 -2.8665862 -0.8085947 4293729569
8.7871399 -2.6394739 -0.80167317 4293729569
9.0106506 -2.5397291 -0.82555294 4293729569
9.5310974 -2.4840078 -0.8625679 4293729569
9.5085449 0.37021255 -1.6639781 4288085770
8.4494019 0.42120361 -1.6975777 4288085770
7.4742737 0.46921444 -1.7255255 4288085770
6.5700989 0.51354885 -1.7467678 4288085770
5.7549133 0.55478764 -1.7653798 4288085770
5.0146179 0.59325695 -1.7833035 4288085770
4.2623596 0.6290102 -1.7871745 4288085770
3.6100769 0.66340446 -1.7954626 4288085770
9.0068665 0.73011971 -1.6561412 4288085770
3.0507812 0.69560051 -1.8081391 4288085770
8.0466003 0.77277851 -1.6881423 4288085770
2.3944702 0.72609234 -1.7984061 4288085770
7.1743469 0.81435776 -1.7145107 4288085770
1.8851318 0.75511169 -1.8022885 4288085770
6.3150024 0.85163593 -1.7329301 4288085770
1.4217529 0.78304863 -1.8063629 4288085770
5.5286865 0.88619041 -1.7476535 4288085770
0.97937012 0.80948734 -1.8085239 4288085770
4.787323 0.91868401 -1.7565633 4288085770
0.5199585 0.8333292 -1.8006115 4288085770
4.1359253 0.95005322 -1.7678496 4288085770
0.14755249 0.8581171 -1.8030641 4288085770
3.5215759 0.97955227 -1.7752895 4288085770
-0.16488647 0.88249111 -1.8117678 4288085770
3.012207 1.0085735 -1.7881691 4288085770
-0.52529907 0.90399742 -1.8052682 4288085770
2.390686 1.0312386 -1.7785746 4288085770
-0.82171631 0.92699337 -1.8090376 4288085770
1.9293213 1.0581264 -1.7856536 4288085770
-1.1081848 0.9487524 -1.8088481 4288085770
1.4598389 1.0812035 -1.7856964 4288085770
-1.3865967 0.97032356 -1.8086914 4288085770
1.030426 1.1053391 -1.785907 4288085770
-1.657074 0.98970699 -1.8045671 4288085770
0.62893677 1.126811 -1.7842339 4288085770
-1.9375305 1.0083265 -1.7943997 4288085770
0.25946045 1.148531 -1.7846947 4288085770
-2.1630249 1.027647 -1.7944638 4288085770
-0.088012695 1.1687288 -1.783247 4288085770
-2.3564758 1.048214 -1.7976625 4288085770
-0.41647339 1.1894827 -1.7818787 4288085770
-2.5629578 1.0670853 -1.7968055 4288085770
-0.71496582 1.2095261 -1.7806358 4288085770
-2.7554321 1.0866261 -1.7950073 4288085770
-1.0064697 1.228405 -1.7774216 4288085770
-2.9489136 1.1041937 -1.7902037 4288085770
-1.2709656 1.2476454 -1.7753208 4288085770
-3.1074219 1.1229334 -1.7925478 4288085770
-1.5114441 1.2673197 -1.7753206 4288085770
-3.276886 1.1409321 -1.7898449 4288085770
-1.749939 1.2849474 -1.7723279 4288085770
-3.432373 1.1586018 -1.7882005 4288085770
-1.9824219 1.3034353 -1.76836 4288085770
-3.5758667 1.1769876 -1.7886066 4288085770
-2.1748962 1.3219757 -1.7695608 4288085770
-3.7083435 1.1951132 -1.7900584 4288085770
-2.3634033 1.3414249 -1.7707777 4288085770
-3.8318176 1.2140274 -1.7915486 4288085770
-2.5428772 1.3596611 -1.7700324 4288085770
-3.9482727 1.2327738 -1.7940681 4288085770
-2.7123413 1.3786583 -1.7703291 4288085770
-4.0677795 1.2505951 -1.7935743 4288085770
-2.8728333 1.3964481 -1.7696633 4288085770
-4.2013245 1.2657471 -1.7870203 4288085770
-3.0122986 1.4167376 -1.7730867 4288085770
-4.3177795 1.2834949 -1.7845386 4288085770
-3.1427002 1.4378147 -1.777548 4288085770
-4.413269 1.3017483 -1.7871456 4288085770
-3.2792053 1.4560337 -1.7769828 4288085770
-4.5077515 1.3199768 -1.7887567 4288085770
-3.4196777 1.4743509 -1.7754 4288085770
-4.6122437 1.336442 -1.7843248 4288085770
-3.5271301 1.4948854 -1.7799578 4288085770
-4.7047119 1.3536243 -1.7839437 4288085770
-3.6565857 1.511941 -1.776421 4288085770
-4.8032227 1.3699503 -1.7795364 4288085770
-3.7590332 1.5323582 -1.7799994 4288085770
-3.8704834 1.5509892 -1.7795388 4288085770
-3.9819641 1.5686207 -1.7760775 4288085770
-4.082428 1.5869904 -1.7756628 4288085770
-4.1848755 1.6054096 -1.7722396 4288085770
-4.2883911 1.621851 -1.7678113 4288085770
-4.3748474 1.6398935 -1.7674549 4288085770
-4.4673462 1.6580753 -1.764073 4288085770
-4.5497742 1.6760197 -1.7617339 4288085770
-4.6192017 1.6966591 -1.7634504 4288085770
-4.6906128 1.7163467 -1.7631578 4288085770
-4.756012 1.7368898 -1.7638911 4288085770
-4.6957092 3.721756 -1.7539867 4288085770
-4.5897827 3.7972736 -1.7604686 4288085770
-4.4899597 3.8679342 -1.763924 4288085770
-4.3871155 3.9395218 -1.765393 4288085770
-4.2781677 4.014967 -1.7678894 4288085770
-4.1703491 4.0864391 -1.7683809 4288085770
-4.0584106 4.1608162 -1.7668909 4288085770
-3.920166 4.2495737 -1.7725182 4288085770
-3.789093 4.3314981 -1.7741139 4288085770
-3.6742249 4.4028072 -1.7676375 4288085770
-3.5299988 4.4904213 -1.7692922 4288085770
-4.693573 3.8846989 -1.7691244 4288085770
-3.3989868 4.5683508 -1.7638881 4288085770
-4.5757751 3.9539356 -1.7716594 4288085770
-3.2416077 4.6606598 -1.7636019 4288085770
-4.4347534 4.0346251 -1.7792983 4288085770
-3.0691223 4.7586136 -1.765383 4288085770
-4.2957764 4.112361 -1.7839282 4288085770
-2.885498 4.8623056 -1.7662144 4288085770
-4.2013855 4.1611462 -1.7743589 4288085770
-2.7019043 4.9640007 -1.7660458 4288085770
-4.0736389 4.2281485 -1.7719388 4288085770
-2.5052185 5.070384 -1.7669359 4288085770
-3.9489746 4.2912216 -1.7685049 4288085770
-2.2974243 5.181509 -1.766876 4288085770
-3.7797546 4.3802471 -1.7752706 4288085770
-2.0927124 5.2887068 -1.7638026 4288085770
-3.6459961 4.4451094 -1.7698777 4288085770
-1.8606873 5.4082613 -1.7638515 4288085770
-3.4849548 4.5243273 -1.7706069 4288085770
-1.6185608 5.5315809 -1.762946 4288085770
-3.3209534 4.6024742 -1.7703496 4288085770
-1.353241 5.6653538 -1.7641445 4288085770
-3.1539307 4.6805534 -1.7681061 4288085770
-1.0666809 5.8076277 -1.7664384 4288085770
-2.9515381 4.7757988 -1.7720209 4288085770
-0.79437256 5.9382391 -1.7616689 4288085770
-2.7754517 4.8536654 -1.7678181 4288085770
-0.53829956 6.0562315 -1.7508266 4288085770
-2.5762024 4.9419851 -1.7667193 4288085770
-0.14056396 6.2508955 -1.7636197 4288085770
-2.362793 5.0359735 -1.7676841 4288085770
0.18927002 6.4031534 -1.7591089 4288085770
-2.1403503 5.1317453 -1.7676895 4288085770
0.54638672 6.5667734 -1.7567207 4288085770
-1.9098816 5.2283335 -1.7667309 4288085770
0.96310425 6.7569895 -1.7585995 4288085770
-1.662262 5.3315163 -1.7668496 4288085770
1.4172363 6.9643297 -1.7636471 4288085770
-1.4197693 5.4278173 -1.7649454 4288085770
1.855072 7.157052 -1.7606219 4288085770
-1.144928 5.539361 -1.7661866 4288085770
2.352478 7.3753748 -1.7618643 4288085770
-0.88131714 5.6401691 -1.7623776 4288085770
2.8426819 7.5848646 -1.7580755 4288085770
-0.61682129 5.7369537 -1.7575721 4288085770
3.4431152 7.8457708 -1.76378 4288085770
-0.3270874 5.8431482 -1.7528805 4288085770
4.0221863 8.0891752 -1.7603906 4288085770
0.032440186 5.9836988 -1.7595025 4288085770
0.36352539 6.103919 -1.7579973 4288085770
0.70254517 6.2229509 -1.755528 4288085770
1.0839539 6.356986 -1.755249 4288085770
1.4794617 6.4946928 -1.7540337 4288085770
1.9374695 6.6569242 -1.7600996 4288085770
2.3650818 6.7978773 -1.7590289 4288085770
2.8380127 6.9537611 -1.7581624 4288085770
3.3614197 7.1294565 -1.7635233 4288085770
3.8522949 7.280921 -1.7597382 4288085770
4.3540955 7.4301176 -1.7530025 4288085770
4.8719177 7.5779428 -1.7453388 4288085770
5.4916382 7.7663755 -1.7471342 4288085770
6.0647278 7.9248991 -1.7397201 4288085770
6.7376099 8.1180792 -1.7387545 4282675967
0.80645752 3.3919563 -0.25824237 4293729569
0.82492065 3.3175011 -0.24333143 4293729569
0.77297974 3.2277012 -0.22810316 4293729569
0.78839111 3.1523151 -0.21517801 4293729569
0.80584717 3.0788813 -0.20326257 4293729569
0.78808594 2.9962769 -0.19218779 4293729569
0.80450439 2.9228687 -0.18326783 4293729569
0.79174805 2.8421459 -0.17421579 4293729569
0.79812622 2.7649708 -0.16624975 4293729569
0.84567261 2.6948299 -0.16046977 4293729569
0.85098267 2.6176777 -0.15449953 4293729569
0.853302 2.5395975 -0.14951539 4293729569
9.938446 -1.9265728 -1.6969457 4288085770
9.3980408 -1.9788523 -1.7155061 4288085770
8.8189697 -2.020216 -1.7308903 4288085770
8.3268127 -2.0666304 -1.7516679 4288085770
7.8308411 -2.1029515 -1.7684286 4288085770
9.8968506 -2.4745855 -1.0867927 4293729569
7.3011169 -2.1304731 -1.7800351 4288085770
9.7234497 -2.5675454 -1.1510167 4293729569
6.7427673 -2.1433134 -1.785512 4288085770
9.1616211 -2.5923176 -1.1914792 4293729569
6.2114563 -2.1547923 -1.7921107 4288085770
9.105957 -2.6970592 -1.2632368 4293729569
5.7190857 -2.1661897 -1.799886 4288085770
9.3788452 -2.8595762 -1.3604851 4293729569
5.2527771 -2.1772022 -1.8077786 4288085770
4.7756958 -2.1799564 -1.8136219 4288085770
4.2928162 -2.1745701 -1.8144386 4288085770
3.8886719 -2.1790466 -1.8236123 4288085770
9.8338318 -3.4095879 -1.7335916 4288085770
3.4777222 -2.1763597 -1.8297536 4288085770
9.0856323 -3.3689394 -1.751205 4288085770
3.1296082 -2.1811581 -1.8411812 4288085770
8.413208 -3.3360825 -1.7731636 4288085770
2.7775269 -2.1818633 -1.8505905 4288085770
7.7261658 -3.290874 -1.7870548 4288085770
2.3570251 -2.1619415 -1.8476887 4288085770
7.0821533 -3.244679 -1.8011414 4288085770
1.9306946 -2.1358824 -1.84076 4288085770
6.4620972 -3.1990499 -1.8133359 4288085770
1.5690918 -2.1193538 -1.8401251 4288085770
5.8542175 -3.1477065 -1.8225852 4288085770
1.2384338 -2.105557 -1.8436304 4288085770
5.2346497 -3.0850806 -1.825781 4288085770
0.95556641 -2.0998912 -1.8533522 4288085770
4.6689148 -3.028729 -1.8312205 4288085770
0.69766235 -2.0968142 -1.8651872 4288085770
4.130188 -2.9730124 -1.8357822 4288085770
0.4130249 -2.0831041 -1.8699007 4288085770
3.6115112 -2.9157686 -1.8384346 4288085770
0.11950684 -2.0641813 -1.8715736 4288085770
3.1277771 -2.8603497 -1.8412454 4288085770
-0.14309692 -2.0489893 -1.8763868 4288085770
2.6839294 -2.810873 -1.8472369 4288085770
-0.40267944 -2.0318689 -1.8802135 4288085770
2.3077698 -2.7739987 -1.8585356 4288085770
-0.65716553 -2.0118656 -1.8830633 4288085770
1.908844 -2.7265844 -1.8637308 4288085770
-0.92745972 -1.985487 -1.8798407 4288085770
1.4604797 -2.6589928 -1.8567009 4288085770
-1.1728821 -1.9626989 -1.8807311 4288085770
1.0687866 -2.604743 -1.8559276 4288085770
-1.4320679 -1.9315786 -1.8755585 4288085770
0.77252197 -2.5727553 -1.867588 4288085770
-1.668396 -1.9050026 -1.87449 4288085770
0.45352173 -2.5302267 -1.8741452 4288085770
-1.9006653 -1.8775196 -1.8714395 4288085770
0.16445923 -2.4924045 -1.8818382 4288085770
-2.0990906 -1.8558397 -1.8745431 4288085770
-0.13549805 -2.4483237 -1.8844814 4288085770
-2.2974854 -1.8331594 -1.8746463 4288085770
-0.43231201 -2.4013133 -1.8861386 4288085770
-2.508728 -1.8041735 -1.8716911 4288085770
-0.71621704 -2.3556113 -1.8868542 4288085770
-2.7287903 -1.7679758 -1.8626957 4288085770
-1.0059509 -2.3047667 -1.8835429 4288085770
-2.9240112 -1.7393656 -1.8598129 4288085770
-1.2767639 -2.256371 -1.8823177 4288085770
-3.1023254 -1.7131586 -1.859007 4288085770
-1.5266418 -2.2124691 -1.8821872 4288085770
-3.2805176 -1.6839514 -1.8562015 4288085770
-1.7774658 -2.1645446 -1.8790525 4288085770
-3.434967 -1.6623087 -1.8585039 4288085770
-2.0173035 -2.1178789 -1.8759676 4288085770
-3.6160583 -1.6280308 -1.8506852 4288085770
-2.2421875 -2.0735664 -1.8749504 4288085770
-3.7485352 -1.6099062 -1.8570871 4288085770
-2.4640198 -2.0273266 -1.8719471 4288085770
-3.8898926 -1.5865707 -1.8584489 4288085770
-2.7145386 -1.9694014 -1.8588126 4288085770
-4.0302734 -1.5622606 -1.859815 4288085770
-2.9085083 -1.9288206 -1.8579355 4288085770
-4.1636047 -1.5381126 -1.8602128 4288085770
-3.0736694 -1.8959227 -1.8611898 4288085770
-4.2919617 -1.5140858 -1.8616337 4288085770
-3.2724915 -1.8492241 -1.8552902 4288085770
-4.4182739 -1.4891043 -1.8620633 4288085770
-3.4464417 -1.8091135 -1.8535038 4288085770
-4.5396118 -1.4652395 -1.8625157 4288085770
-3.5975647 -1.7755451 -1.8558215 4288085770
-4.6599121 -1.4394007 -1.8619729 4288085770
-3.7446899 -1.7410707 -1.8571576 4288085770
-4.7593994 -1.4210529 -1.8685247 4288085770
-3.9046326 -1.7012911 -1.8544346 4288085770
-4.0278931 -1.6733828 -1.859879 4288085770
-4.1768799 -1.6338615 -1.8562059 4288085770
-4.316925 -1.5965538 -1.8525736 4288085770
-4.4390869 -1.5646667 -1.8540227 4288085770
-4.5443726 -1.5381823 -1.8595488 4288085770
-4.6515808 -1.5086517 -1.863066 4288085770
-4.7706604 -1.4738388 -1.8605288 4288085770
-4.7609558 0.61903095 -1.8040674 4288085770
-4.6505737 0.62842751 -1.8026129 4288085770
-4.5251465 0.63846779 -1.8052316 4288085770
-4.3977661 0.6484623 -1.8058603 4288085770
-4.2643738 0.65831566 -1.8065183 4288085770
-4.1210022 0.66693211 -1.8092248 4288085770
-3.982605 0.67666721 -1.8079081 4288085770
-3.834259 0.68516731 -1.8066393 4288085770
-4.7539978 0.70286083 -1.805197 4288085770
-3.6878357 0.6947155 -1.8033621 4288085770
-4.620697 0.71071053 -1.8088547 4288085770
-3.5184631 0.70271873 -1.8051965 4288085770
-4.4784241 0.71735382 -1.8145561 4288085770
-3.3410645 0.7115345 -1.8060704 4288085770
-4.3690186 0.72377396 -1.8070983 4288085770
-3.1667175 0.71942329 -1.8039302 4288085770
-4.2147522 0.7301321 -1.8118587 4288085770
-2.9703674 0.72679043 -1.804897 4288085770
-4.0773926 0.73689175 -1.8095375 4288085770
-2.7600098 0.734828 -1.8069327 4288085770
-3.9220886 0.74222851 -1.8103036 4288085770
-2.548645 0.74184036 -1.8059735 4288085770
-3.7698059 0.74763489 -1.8090556 4288085770
-2.3042908 0.74907589 -1.8101753 4288085770
-3.6174622 0.75304031 -1.8048084 4288085770
-2.0639038 0.75640869 -1.8093588 4288085770
-3.3992615 0.75788784 -1.8168819 4288085770
-1.7695923 0.76346397 -1.8178054 4288085770
-3.2059326 0.76332855 -1.8188349 4288085770
-1.5012207 0.76913166 -1.8161261 4288085770
-3.054657 0.76576138 -1.8075836 4288085770
-1.1968994 0.77495289 -1.8196229 4288085770
-2.8314209 0.76949215 -1.812683 4288085770
-0.87158203 0.78028202 -1.8212227 4288085770
-2.6420898 0.77202797 -1.8056178 4288085770
-0.55023193 0.7847023 -1.8188038 4288085770
-2.3559265 0.77527332 -1.8200252 4288085770
-0.17791748 0.7889204 -1.8206341 4288085770
-2.1436768 0.77726746 -1.8130728 4288085770
0.13543701 0.79053402 -1.8071772 4288085770
-1.878418 0.77800846 -1.8143791 4288085770
0.52276611 0.79339981 -1.8030828 4288085770
-1.5672302 0.77966499 -1.8229105 4288085770
1.0290833 0.79645634 -1.8125695 4288085770
-1.3089905 0.77857494 -1.8171842 4288085770
1.4853516 0.79669666 -1.8068136 4288085770
-0.97283936 0.7776432 -1.8218389 4288085770
1.9656372 0.79637146 -1.8001759 4288085770
-0.63165283 0.77559376 -1.8235186 4288085770
2.5309448 0.79504013 -1.7979541 4288085770
-0.26748657 0.77300167 -1.8253118 4288085770
3.1741943 0.79287052 -1.7991146 4288085770
0.057647705 0.76833439 -1.8149152 4288085770
3.7964172 0.78819847 -1.7901742 4288085770
0.43783569 0.76236916 -1.8097879 4288085770
4.4506226 0.78177261 -1.7743915 4288085770
0.90386963 0.75537205 -1.8150815 4288085770
5.2338867 0.77330494 -1.7672408 4288085770
1.3919678 0.747859 -1.8164839 4288085770
6.0280457 0.76257896 -1.7511456 4288085770
1.8569946 0.73688889 -1.8077743 4288085770
6.8761902 0.74858475 -1.7273161 4288085770
2.3760071 0.72364902 -1.8023299 4288085770
7.8233032 0.73125553 -1.7039726 4288085770
3.0689697 0.7103014 -1.8137379 4288085770
8.8424072 0.71122932 -1.6749837 4288085770
3.6558838 0.6924572 -1.8016285 4288085770
9.9634399 0.68680191 -1.639496 4288085770
4.3207703 0.67177677 -1.7919018 4288085770
5.0906067 0.64861965 -1.7856896 4288085770
5.8074036 0.62071705 -1.76322 4288085770
6.6351013 0.58919716 -1.7452955 4288085770
7.5567627 0.55246449 -1.7248328 4288085770
8.5052795 0.5100956 -1.6955038 4288085770
9.567749 0.46104431 -1.6637349 4288085770
0.60336304 -5.0593252 -0.57870293 4293729569
0.60046387 -4.9670215 -0.028714657 4293729569
0.61004639 -4.9864783 -0.61577797 4293729569
0.61703491 -4.897409 -0.066840649 4293729569
0.64437866 -4.927289 -0.65399408 4293729569
0.69198608 -4.8571811 -0.10326338 4293729569
-0.31713867 -4.3554716 -0.62215257 4293729569
-0.14950562 -4.368444 -0.66504312 4293729569
0.19100952 -4.3875074 -0.74885464 4293729569
0.36975098 -4.3967404 -0.79080606 4293729569
0.734375 -4.4083719 -0.87574959 4293729569
0.89849854 -4.4022565 -0.91463041 4293729569
1.1091919 -4.4132423 -0.95775104 4293729569
6.7729492 -6.8395443 -1.5087628 4293729569
1.513031 -4.4177933 -1.0419073 4293729569
1.765564 -4.4367681 -1.0882471 4293729569
1.9751892 -4.4194732 -0.49135208 4293729569
6.1928711 -6.207726 -1.5449893 4293729569
2.1873474 -4.4134855 -0.52248836 4293729569
2.1659546 -4.418232 -1.1693959 4293729569
2.4392395 -4.420435 -0.55583 4293729569
2.4276733 -4.42942 -1.2137885 4293729569
2.6813049 -4.4201508 -0.58712316 4293729569
2.6706543 -4.4281635 -1.2570875 4293729569
2.953125 -4.4275727 -0.61957192 4293729569
2.9256592 -4.4281883 -1.2994497 4293729569
3.1717834 -4.4220047 -1.3417679 4293729569
3.5150452 -4.4368405 -0.68256807 4293729569
5.3762817 -5.1422281 -1.591174 4293729569
3.879425 -4.4654474 -0.71849966 4293729569
4.1774902 -4.4654837 -0.74909139 4293729569
4.2151489 -4.4876637 -1.4923078 4293729569
4.5747986 -4.4958668 -0.78419805 4293729569
4.8692322 -4.6061392 -1.5747409 4293729569
4.9118042 -4.4988208 -0.81499648 4293729569
5.098114 -4.5685358 -1.6089829 4293729569
5.3242798 -4.5235586 -0.84918714 4293729569
5.0820923 -4.4461293 -1.6149602 4293729569
5.7032166 -4.529501 -0.8812077 4293729569
5.2168274 -4.3742938 -1.6367171 4293729569
6.1457825 -4.5519466 -0.91455984 4293729569
5.5531006 -4.3642302 -1.6785184 4293729569
6.6798706 -4.5945544 -0.95239019 4293729569
5.9906616 -4.3805652 -1.7308475 4293729569
7.0771179 -4.5889235 -0.98051476 4293729569
6.4145508 -4.3855705 -1.780109 4288085770
7.5827026 -4.6098537 -1.0142045 4293729569
6.7631226 -4.3627925 -1.8189826 4288085770
8.0994263 -4.6260433 -1.0469561 4293729569
6.8605347 -4.2640662 -1.8285544 4288085770
8.6351929 -4.6406813 -1.0788102 4293729569
6.8696594 -4.1382475 -1.8256682 4288085770
9.1661682 -4.6482024 -1.1086428 4293729569
6.8747864 -4.0113344 -1.8217608 4288085770
9.8225403 -4.6796885 -1.1441317 4293729569
6.9405212 -3.9018545 -1.8231686 4288085770
7.0122681 -3.7915163 -1.8226091 4288085770
7.09198 -3.6833658 -1.8210911 4288085770
7.1398621 -3.5684614 -1.8154072 4288085770
7.2365112 -3.4627104 -1.8129785 4288085770
7.3113098 -3.3524408 -1.8064359 4288085770
7.434845 -3.2523255 -1.8041484 4288085770
7.5544739 -3.1491141 -1.7988417 4288085770
7.6850586 -3.0471611 -1.7925931 4288085770
7.838623 -2.9477501 -1.7864658 4288085770
7.972229 -2.8448687 -1.7782345 4288085770
8.1278381 -2.7435031 -1.7691195 4288085770
9.5769043 -2.9053545 -0.9367547 4293729569
8.3710938 -2.6572089 -1.7664654 4288085770
8.9101562 -2.6525598 -0.87732649 4293729569
8.5507202 -2.5564103 -1.7554787 4288085770
8.9573364 -2.5276299 -0.85164595 4293729569
8.7672119 -2.4594817 -1.7466877 4288085770
9.684082 -2.510745 -0.85653877 4293729569
8.9788208 -2.3604345 -1.7338705 4288085770
9.8350525 -2.3962607 -0.83040643 4293729569
9.2144165 -2.2609539 -1.7221825 4288085770
9.5696411 -2.1762972 -1.7181265 4288085770
9.8911438 -2.08284 -1.707895 4288085770
9.2032166 0.72430038 -1.6614407 4288085770
8.3586426 0.79718399 -1.6916062 4288085770
7.5179749 0.86397934 -1.7117894 4288085770
6.7582092 0.92586708 -1.7294372 4288085770
5.9874268 0.98202133 -1.7350165 4288085770
5.370575 1.0365458 -1.7514848 4288085770
4.692627 1.0855112 -1.7525951 4288085770
4.1456909 1.1333904 -1.7614626 4288085770
3.6076355 1.1770592 -1.7653786 4288085770
9.4091492 1.4736357 -1.6381241 4288085770
3.1916809 1.2238531 -1.7810018 4288085770
8.5961914 1.5277748 -1.6634552 4288085770
2.7015991 1.2633972 -1.7801915 4288085770
7.81604 1.5751371 -1.6819725 4288085770
2.221405 1.2977076 -1.7734354 4288085770
7.1820679 1.6260605 -1.7063364 4288085770
1.8593445 1.3372335 -1.7813649 4288085770
6.592041 1.6739502 -1.7269524 4288085770
1.5172119 1.3752918 -1.7874087 4288085770
5.9308472 1.7135153 -1.7341509 4288085770
1.1420288 1.4081278 -1.7842578 4288085770
5.3927002 1.7541866 -1.7480623 4288085770
0.77380371 1.4378023 -1.7771449 4288085770
4.7904358 1.7863674 -1.7475964 4288085770
0.44552612 1.4675341 -1.7732633 4288085770
4.2581482 1.8198986 -1.7505362 4288085770
0.19934082 1.5023308 -1.7808595 4288085770
3.7678528 1.8514423 -1.7527177 4288085770
-0.072845459 1.5327425 -1.7803018 4288085770
3.3045959 1.8823509 -1.7540543 4288085770
-0.34011841 1.561038 -1.7767715 4288085770
2.9874268 1.9218187 -1.7682426 4288085770
-0.5854187 1.5888147 -1.7743683 4288085770
2.6713257 1.9602613 -1.7814353 4288085770
-0.80566406 1.6180029 -1.7751102 4288085770
2.3080139 1.9898157 -1.7823496 4288085770
-1.0229187 1.646122 -1.7738684 4288085770
1.9306946 2.0156984 -1.7781798 4288085770
-1.2171631 1.6756973 -1.7737603 4288085770
1.6354675 2.0486536 -1.783489 4288085770
-1.4194641 1.7014637 -1.7706038 4288085770
1.3442078 2.0785122 -1.7848196 4288085770
-1.5726929 1.7320728 -1.7757338 4288085770
1.0288391 2.1019392 -1.7800068 4288085770
-1.7519836 1.7582951 -1.7727101 4288085770
0.74050903 2.1277304 -1.7763511 4288085770
-1.900238 1.7867889 -1.7748674 4288085770
0.39691162 2.1408215 -1.7583687 4288085770
-2.0705566 1.811801 -1.7698941 4288085770
-0.7048645 2.0337801 -1.6039262 4293729569
-2.191803 1.8416586 -1.7742085 4288085770
-0.99951172 2.0437202 -1.585225 4293729569
-2.3210449 1.8697023 -1.7754751 4288085770
-1.0143127 2.0970678 -1.6171688 4293729569
-2.4463196 1.896656 -1.7757642 4288085770
-0.97692871 2.1591873 -1.6574198 4293729569
-2.5775757 1.9227495 -1.7740175 4288085770
-0.79400635 2.249877 -1.7255291 4288085770
-2.6898499 1.9503937 -1.7743818 4288085770
-0.78970337 2.3097744 -1.7595868 4288085770
-2.7991028 1.9779701 -1.7747632 4288085770
-0.96096802 2.3358097 -1.7566082 4288085770
-2.8953247 2.0072384 -1.7762212 4288085770
-1.1031799 2.3661623 -1.7588005 4288085770
-2.9755249 2.0381289 -1.7817727 4288085770
-1.2524109 2.3946772 -1.7579504 4288085770
-3.0707703 2.0663738 -1.7812353 4288085770
-1.4017029 2.421195 -1.7550992 4288085770
-3.1509399 2.0962667 -1.7837837 4288085770
-1.5309143 2.450242 -1.7543621 4288085770
-3.2472229 2.1225357 -1.7812378 4288085770
-1.6340637 2.4846735 -1.7577806 4288085770
-3.3274841 2.1504288 -1.7807857 4288085770
-1.74823 2.5153666 -1.7581326 4288085770
-3.4127197 2.1774406 -1.7783037 4288085770
-1.8574219 2.54494 -1.7575133 4288085770
-3.4869385 2.2061901 -1.7778866 4288085770
-1.9595642 2.5763483 -1.7579353 4288085770
-3.5802307 2.2293921 -1.771356 4288085770
-2.0778198 2.603138 -1.7522616 4288085770
-3.6343994 2.2616701 -1.7750561 4288085770
-2.1730347 2.6333818 -1.7507226 4288085770
-3.7096558 2.2884445 -1.7716318 4288085770
-2.2581177 2.6673908 -1.7512444 4288085770
-3.7577515 2.3215828 -1.7743677 4288085770
-2.321167 2.7048788 -1.7548962 4288085770
-3.8290405 2.3472643 -1.769966 4288085770
-2.4203796 2.7322197 -1.7493327 4288085770
-3.8721313 2.3812809 -1.7727314 4288085770
-2.4914856 2.7658997 -1.7489358 4288085770
-3.9242859 2.4115133 -1.7714425 4288085770
-2.5464783 2.8041983 -1.7516342 4288085770
-3.9734802 2.441678 -1.7711709 4288085770
-2.6095276 2.8396902 -1.7512844 4288085770
-4.0306702 2.470027 -1.7668514 4288085770
-2.6736145 2.8732014 -1.748928 4288085770
-4.0597229 2.5057182 -1.7696992 4288085770
-2.7165527 2.9142199 -1.7516974 4288085770
-4.105835 2.536809 -1.7674451 4288085770
-2.7554626 2.9561424 -1.7544905 4288085770
-4.1641235 2.5631828 -1.7611187 4288085770
-2.8175354 2.9896107 -1.750145 4288085770
-4.1810913 2.6015882 -1.7650374 4288085770
-2.870575 3.0248652 -1.746853 4288085770
-4.1920166 2.6428518 -1.7709926 4288085770
-2.9145813 3.0629053 -1.7456149 4288085770
-4.2281189 2.6757069 -1.7677976 4288085770
