# .PCD v0.7 - Point Cloud Data file format
VERSION 0.7
FIELDS x y z rgb
SIZE 4 4 4 4
TYPE F F F U
COUNT 1 1 1 1
WIDTH 1116
HEIGHT 1
VIEWPOINT 0 0 0 1 0 0 0
POINTS 1116
DATA ascii
1.4398804 4.551096 -1.7294226 4288085770
3.699707 5.867548 -1.7640018 4288085770
1.5185547 4.6369286 -1.7216778 4288085770
3.9474182 6.0701542 -1.7756939 4288085770
1.669281 4.7678757 -1.7302952 4288085770
4.1691284 6.2570667 -1.7795286 4288085770
1.8081055 4.8909435 -1.7335243 4288085770
4.4220886 6.4645596 -1.786376 4288085770
1.9700317 5.0297222 -1.7405005 4288085770
4.7202759 6.7014656 -1.7986937 4288085770
2.125 5.162569 -1.7442589 4288085770
5.0246582 6.9412498 -1.8072195 4288085770
2.2980042 5.3071747 -1.7496071 4288085770
5.3693237 7.2084961 -1.8190432 4288085770
2.4762268 5.4546967 -1.7531233 4288085770
5.6709595 7.4482574 -1.8194618 4288085770
2.6434631 5.5933285 -1.751296 4288085770
6.084198 7.7595654 -1.8345146 4288085770
2.8468323 5.7555008 -1.7556438 4288085770
6.5026855 8.0757523 -1.8437252 4288085770
3.0663757 5.9284496 -1.7605143 4288085770
3.3160706 6.1199894 -1.767374 4288085770
3.5698547 6.313467 -1.7733707 4288085770
3.8709412 6.5373135 -1.7839079 4288085770
4.1891479 6.7719231 -1.7950039 4288085770
4.5436096 7.0290394 -1.8082876 4288085770
4.9062805 7.2900124 -1.8178463 4288085770
5.2931824 7.5656452 -1.827199 4288085770
5.7384644 7.8784904 -1.8414564 4288085770
14.024323 -0.75311756 -2.0617704 4288085770
12.720184 -0.77415657 -2.0058889 4288085770
11.557098 -0.79014301 -1.9552708 4288085770
10.405457 -0.79435539 -1.8959913 4288085770
9.5867004 -0.8110199 -1.8693314 4288085770
8.8846436 -0.82826233 -1.852067 4288085770
8.3431396 -0.8506546 -1.8498821 4288085770
7.7709351 -0.86566734 -1.8404865 4288085770
7.320343 -0.88430119 -1.8436918 4288085770
14.527649 -1.563118 -2.0866318 4288085770
6.8669434 -0.89893341 -1.8417597 4288085770
13.045654 -1.5086851 -2.0255003 4288085770
6.4227905 -0.9087162 -1.8371353 4288085770
11.749481 -1.4578199 -1.9713821 4288085770
6.036377 -0.9212656 -1.838707 4288085770
10.599182 -1.4099693 -1.9227695 4288085770
5.644165 -0.92876625 -1.8360205 4288085770
9.6364746 -1.3726816 -1.8852921 4288085770
5.2710876 -0.93354416 -1.8320303 4288085770
8.841217 -1.3446484 -1.8621845 4288085770
4.9457703 -0.94095421 -1.8338585 4288085770
8.1835022 -1.3254719 -1.850317 4288085770
4.6176758 -0.94435596 -1.8315487 4288085770
7.5926819 -1.3082066 -1.8429794 4288085770
4.3284302 -0.94826317 -1.8347054 4288085770
7.1253967 -1.3006029 -1.8463612 4288085770
4.0412598 -0.95122337 -1.8349323 4288085770
6.6573181 -1.289012 -1.8466835 4288085770
3.7750549 -0.95346355 -1.8369427 4288085770
6.1914978 -1.2724943 -1.8410482 4288085770
3.5100098 -0.95274353 -1.8359728 4288085770
5.7765198 -1.2596569 -1.840354 4288085770
3.2728271 -0.95338535 -1.8390617 4288085770
5.3815918 -1.2451115 -1.8383999 4288085770
3.027832 -0.95094872 -1.8378315 4288085770
5.0057068 -1.2298393 -1.8361559 4288085770
2.8018188 -0.94976616 -1.8383236 4288085770
4.666748 -1.2170687 -1.8363199 4288085770
2.5996094 -0.94889259 -1.8427172 4288085770
4.3378906 -1.2014503 -1.8348398 4288085770
2.383667 -0.94386482 -1.8415604 4288085770
4.0597229 -1.1924982 -1.8403177 4288085770
2.1787415 -0.93799019 -1.8408089 4288085770
3.7668152 -1.1773853 -1.8391943 4288085770
1.9749146 -0.93114376 -1.8380919 4288085770
3.5068665 -1.164712 -1.8413267 4288085770
1.7949219 -0.92660427 -1.8392897 4288085770
3.2489319 -1.150075 -1.8425217 4288085770
1.5834351 -0.91370487 -1.8292351 4288085770
3.0020447 -1.1355982 -1.843132 4288085770
1.4105225 -0.90627956 -1.8286781 4288085770
2.769165 -1.1213236 -1.8432693 4288085770
1.2673645 -0.90322781 -1.8342733 4288085770
2.5502625 -1.1072311 -1.8449345 4288085770
1.0631409 -0.88646412 -1.8194599 4288085770
2.3245544 -1.0900755 -1.8423185 4288085770
0.89941406 -0.87618446 -1.8162241 4288085770
2.1217041 -1.0742245 -1.8425732 4288085770
0.77520752 -0.87139034 -1.8235207 4288085770
1.9209595 -1.0584106 -1.8409071 4288085770
0.62554932 -0.860322 -1.8188057 4288085770
1.7400513 -1.0438547 -1.8429976 4288085770
0.49856567 -0.85351467 -1.8219805 4288085770
1.5524292 -1.0262384 -1.8398085 4288085770
0.37362671 -0.84475517 -1.8232164 4288085770
1.3697205 -1.0086937 -1.8368063 4288085770
0.23208618 -0.83181286 -1.8167925 4288085770
1.1675415 -0.98494148 -1.8240185 4288085770
0.13195801 -0.82535458 -1.8239803 4288085770
0.99301147 -0.96552944 -1.8183079 4288085770
0.023956299 -0.81681442 -1.8278561 4288085770
0.83032227 -0.94826794 -1.8150606 4288085770
-0.10656738 -0.80302238 -1.8218403 4288085770
0.67675781 -0.93013668 -1.8111486 4288085770
0.55578613 -0.91739941 -1.8165045 4288085770
0.43289185 -0.90365791 -1.8187809 4288085770
0.309021 -0.88890362 -1.8210135 4288085770
0.17346191 -0.87003136 -1.8167725 4288085770
0.051818848 -0.8533411 -1.8140707 4288085770
-0.049133301 -0.83988857 -1.8191748 4288085770
-0.061737061 1.0504351 -1.7592878 4288085770
0.062591553 1.0637074 -1.761816 4288085770
0.18588257 1.0749884 -1.763319 4288085770
0.29736328 1.0843973 -1.7593927 4288085770
0.42974854 1.0955458 -1.7602339 4288085770
0.57406616 1.1075354 -1.762516 4288085770
0.72039795 1.1184921 -1.7638779 4288085770
0.86279297 1.1284895 -1.7630987 4288085770
0.0049133301 1.0364923 -1.7638321 4288085770
1.0310974 1.1401596 -1.7672729 4288085770
0.12719727 1.042779 -1.7643328 4288085770
1.2350769 1.1563921 -1.7807512 4288085770
0.24951172 1.0490599 -1.763833 4288085770
1.3984985 1.1660938 -1.7797556 4288085770
0.38372803 1.0551987 -1.7667799 4288085770
1.579834 1.1755619 -1.7814302 4288085770
0.52001953 1.0602913 -1.7678089 4288085770
1.7622681 1.1850033 -1.7811413 4288085770
0.66226196 1.0653038 -1.7690611 4288085770
1.949707 1.1923628 -1.7790546 4288085770
0.80453491 1.0693102 -1.7693205 4288085770
2.1630249 1.2023935 -1.7819138 4288085770
0.96084595 1.0731239 -1.7701015 4288085770
2.3823853 1.2113342 -1.7840042 4288085770
1.1408691 1.0796509 -1.7777519 4288085770
2.626709 1.2219391 -1.7880125 4288085770
1.3359375 1.0859804 -1.7869625 4288085770
2.8312378 1.225029 -1.7815876 4288085770
1.4982605 1.0876894 -1.7849808 4288085770
3.0776672 1.2315788 -1.7816982 4288085770
1.6547241 1.0864553 -1.7787981 4288085770
3.3470459 1.2388172 -1.783659 4288085770
1.8638306 1.0895691 -1.785552 4288085770
3.6463318 1.2476521 -1.7877235 4288085770
2.0779419 1.0916023 -1.7904978 4288085770
3.9228516 1.2507629 -1.7849741 4288085770
2.2842102 1.0907154 -1.7911692 4288085770
4.2412415 1.2563171 -1.786767 4288085770
2.5153198 1.0915155 -1.7967539 4288085770
4.5626831 1.2608166 -1.7866812 4288085770
2.7355652 1.0884295 -1.7969589 4288085770
4.9399719 1.2665749 -1.7926645 4288085770
2.9281006 1.0806646 -1.7871599 4288085770
5.2676086 1.2649422 -1.7858438 4288085770
3.1763 1.0761967 -1.788414 4288085770
5.644104 1.2646484 -1.7828341 4288085770
3.4474182 1.0724258 -1.7925177 4288085770
6.0436096 1.2630424 -1.7806892 4288085770
3.7137146 1.0646877 -1.7914639 4288085770
6.5229797 1.2643661 -1.7854948 4288085770
3.9909668 1.0567989 -1.7908192 4288085770
7.044281 1.2661114 -1.7918577 4288085770
4.2792053 1.0457544 -1.7896042 4288085770
7.6015625 1.2653561 -1.7985764 4288085770
4.6193237 1.0370293 -1.7953053 4288085770
8.1889648 1.2621689 -1.8034267 4288085770
4.9634399 1.0242243 -1.7971802 4288085770
8.8711853 1.2606926 -1.8137951 4288085770
5.3484192 1.0118752 -1.8035755 4288085770
9.5964966 1.2546024 -1.822793 4288085770
5.7037354 0.99287605 -1.7999048 4288085770
10.517395 1.2558861 -1.8480225 4288085770
6.0779724 0.97261524 -1.7969465 4288085770
11.989044 1.2818413 -1.9295855 4288085770
6.5070801 0.95162487 -1.7990351 4288085770
13.7005 1.3075027 -2.0200701 4288085770
6.9841003 0.92998695 -1.8049097 4288085770
7.4572144 0.90236092 -1.804678 4288085770
7.9633484 0.87127018 -1.8036957 4288085770
8.571167 0.83882046 -1.8125086 4288085770
9.2269592 0.80370522 -1.8221207 4288085770
10.007477 0.76491261 -1.8414001 4288085770
11.087158 0.72711945 -1.8888092 4288085770
12.543793 0.68828297 -1.9712563 4288085770
14.038757 0.63583946 -2.0422115 4288085770
1.1382751 -4.4005804 -0.48945045 4293729569
1.1260071 -4.400177 -0.52699757 4293729569
1.1087952 -4.3937073 -0.56432152 4293729569
1.108429 -4.3984632 -0.60334492 4293729569
1.1040955 -4.3991632 -0.64219475 4293729569
1.1047058 -4.4009275 -0.68223476 4293729569
1.1034241 -4.3996706 -0.72118282 4293729569
1.1021729 -4.395421 -0.75911522 4293729569
1.1098328 -4.3962803 -0.79940891 4293729569
1.1621704 -4.3881855 -0.44503117 4293729569
1.1046753 -4.3859768 -0.83715439 4293729569
1.1907043 -4.3973389 -0.4851532 4293729569
5.6526794 -7.6771379 -1.5817966 4293729569
1.2103577 -4.3983688 -0.52489281 4293729569
5.2084351 -7.3369598 -1.5740566 4293729569
1.2665405 -4.4238901 -0.56814861 4293729569
4.8372192 -7.0487628 -1.5733738 4293729569
1.2862854 -4.4219275 -0.60687065 4293729569
4.4612732 -6.7555304 -1.567481 4293729569
1.2892761 -4.4047413 -0.64387131 4293729569
4.1219482 -6.4878035 -1.5631161 4293729569
1.3465576 -4.4252691 -0.68813324 4293729569
1.2667542 -4.4217072 -1.0884295 4293729569
1.3684082 -4.4173431 -0.72589397 4293729569
1.2845154 -4.4137135 -1.1280394 4293729569
1.3525391 -4.4393682 -1.1767368 4293729569
1.3634949 -4.4232874 -1.2150402 4293729569
6.5376892 -7.913578 -1.5697632 4293729569
3.0263672 -5.5602722 -1.5923128 4293729569
1.5506592 -4.4358711 -0.89178276 4293729569
2.831604 -5.3905334 -1.5939589 4293729569
1.6209717 -4.451581 -0.93649578 4293729569
2.631073 -5.2157402 -1.5913572 4293729569
1.6222839 -4.4193974 -0.9693327 4293729569
1.5435486 -4.4317389 -1.3897867 4293729569
1.657196 -4.40765 -1.0075493 4293729569
1.6078796 -4.4413548 -1.4362392 4293729569
1.7660828 -4.4438715 -1.0568285 4293729569
1.6230164 -4.4163513 -1.4716368 4293729569
4.590271 -6.274272 -1.5716906 4293729569
1.6874084 -4.4219751 -1.517065 4293729569
4.3461914 -6.0568533 -1.5711975 4293729569
1.9760437 -4.5754137 -1.6157961 4293729569
1.9569397 -4.447773 -1.1819286 4293729569
1.8497925 -4.4486418 -1.6162672 4293729569
2.0334473 -4.4535799 -1.2248039 4293729569
1.7688293 -4.3534565 -1.62463 4293729569
3.7712402 -5.5157442 -1.5792856 4293729569
1.7076111 -4.2695236 -1.6367998 4293729569
2.2900391 -4.5225277 -1.3297729 4293729569
1.7654114 -4.2620878 -1.6768932 4293729569
2.3243408 -4.4948044 -1.3628578 4293729569
1.8438721 -4.2659044 -1.7228279 4293729569
3.349823 -5.0777588 -1.5917444 4293729569
1.9272156 -4.270792 -1.7689524 4293729569
2.4640198 -4.4782705 -1.4419203 4293729569
2.0205688 -4.2788076 -1.8164673 4293729569
2.5812378 -4.4956207 -1.489378 4293729569
2.105072 -4.2797146 -1.8616056 4288085770
2.9329529 -4.6499548 -1.5854378 4293729569
2.1375732 -4.2469845 -1.8915901 4288085770
2.9684753 -4.6112604 -1.6164942 4293729569
2.0600281 -4.1459026 -1.8910379 4288085770
2.8809509 -4.5000134 -1.6195068 4293729569
1.9727478 -4.0397091 -1.8860874 4288085770
2.8063049 -4.3979454 -1.6230545 4293729569
1.9140015 -3.9508781 -1.8873129 4288085770
2.7681274 -4.315341 -1.6340857 4293729569
1.852356 -3.8610277 -1.8854218 4288085770
2.8560791 -4.3043413 -1.6712675 4293729569
1.791748 -3.7711887 -1.8835697 4288085770
2.9756775 -4.3077545 -1.7137165 4293729569
1.7370605 -3.6854324 -1.8819666 4288085770
3.1159973 -4.3204269 -1.7609949 4293729569
1.6824646 -3.5996876 -1.8783636 4288085770
3.2416077 -4.3239202 -1.8036671 4293729569
1.6533813 -3.5292578 -1.8818111 4288085770
3.3721924 -4.3264837 -1.8465166 4293729569
1.6126404 -3.4517059 -1.8787756 4288085770
3.5057983 -4.3290873 -1.8894777 4288085770
1.5758362 -3.376195 -1.8779011 4288085770
3.5202332 -4.2671938 -1.9045925 4288085770
1.5292358 -3.2965794 -1.8716345 4288085770
3.4805298 -4.17663 -1.9055099 4288085770
1.4856567 -3.2180042 -1.8654881 4288085770
3.4241333 -4.0778666 -1.900754 4288085770
1.4813843 -3.1609163 -1.8699417 4288085770
3.3736877 -3.9841843 -1.8962517 4288085770
1.4525452 -3.0915337 -1.8664036 4288085770
3.3508911 -3.9048576 -1.8968687 4288085770
1.4434814 -3.0314045 -1.8666573 4288085770
3.3300171 -3.8255577 -1.8975592 4288085770
1.4226379 -2.9661369 -1.862442 4288085770
3.3052979 -3.745224 -1.8950987 4288085770
1.4185181 -2.9090681 -1.8639002 4288085770
3.263855 -3.6576834 -1.88797 4288085770
1.4164429 -2.8520403 -1.8634348 4288085770
3.2451477 -3.5804377 -1.8847513 4288085770
1.4104309 -2.7939701 -1.860816 4288085770
3.2383423 -3.5093498 -1.8830147 4288085770
1.4143066 -2.7400236 -1.8605919 4288085770
3.2482605 -3.4444733 -1.8849401 4288085770
1.4103394 -2.6829872 -1.8570547 4288085770
3.2424927 -3.3744106 -1.8812485 4288085770
1.4221191 -2.6331434 -1.8581495 4288085770
3.2554626 -3.3125877 -1.8813047 4288085770
1.4300232 -2.5812645 -1.8560877 4288085770
3.26651 -3.2477436 -1.880271 4288085770
1.4458923 -2.5324869 -1.8553391 4288085770
3.2993774 -3.1931868 -1.8821106 4288085770
1.4637146 -2.4837399 -1.8546648 4288085770
3.3055725 -3.1272993 -1.8768892 4288085770
1.4775696 -2.4349413 -1.8528442 4288085770
3.3552551 -3.0789623 -1.8813944 4288085770
1.5063171 -2.3913364 -1.8536062 4288085770
3.3743286 -3.0182476 -1.8776827 4288085770
1.5350647 -2.346736 -1.853364 4288085770
3.3994141 -2.9606133 -1.8742142 4288085770
1.5697632 -2.305213 -1.8543615 4288085770
3.460144 -2.9144382 -1.87714 4288085770
1.5995483 -2.2606344 -1.853157 4288085770
3.4990845 -2.8599901 -1.8752069 4288085770
1.6392822 -2.2191858 -1.8533411 4288085770
3.5490112 -2.8086901 -1.8736982 4288085770
1.6711426 -2.1746464 -1.8502131 4288085770
3.6088562 -2.7605228 -1.8735781 4288085770
1.7069702 -2.1321554 -1.8482447 4288085770
3.6627808 -2.7112837 -1.8712311 4288085770
1.7753601 -2.1000767 -1.8535528 4288085770
3.7256775 -2.663168 -1.8692236 4288085770
1.8230896 -2.059742 -1.8530397 4288085770
3.8033752 -2.6202393 -1.8707991 4288085770
1.8738708 -2.0204573 -1.8516455 4288085770
3.8713684 -2.5722046 -1.8669777 4288085770
1.9423828 -1.9863901 -1.8549442 4288085770
3.9640808 -2.532485 -1.8681269 4288085770
2.0040894 -1.949254 -1.8539677 4288085770
4.0568542 -2.4897728 -1.8682604 4288085770
2.0648193 -1.9121046 -1.8529549 4288085770
4.1496887 -2.4480724 -1.8663998 4288085770
2.127594 -1.8739882 -1.8510113 4288085770
4.2336121 -2.4032574 -1.8631907 4288085770
2.2219849 -1.8452702 -1.8563023 4288085770
4.3453674 -2.3648119 -1.8630495 4288085770
2.2897949 -1.8082285 -1.85355 4288085770
4.4492493 -2.3222752 -1.8595924 4288085770
2.3921814 -1.7786207 -1.8591299 4288085770
4.5640869 -2.2828817 -1.8575602 4288085770
2.5104675 -1.7532177 -1.8673248 4288085770
4.7008057 -2.2467766 -1.8583574 4288085770
2.5734863 -1.7111397 -1.8593626 4288085770
4.8395386 -2.2097044 -1.8582239 4288085770
2.6592407 -1.676343 -1.8572884 4288085770
4.9952087 -2.1768579 -1.8597431 4288085770
2.7539673 -1.6416712 -1.8555489 4288085770
5.1460266 -2.1389637 -1.8580484 4288085770
2.8468018 -1.6049843 -1.8517246 4288085770
5.3286133 -2.1084862 -1.8605776 4288085770
2.964386 -1.5746059 -1.853857 4288085770
5.4914856 -2.0707674 -1.8573284 4288085770
3.0820618 -1.5422468 -1.8529787 4288085770
5.6782227 -2.0383644 -1.8569965 4288085770
3.184906 -1.5067024 -1.8485298 4288085770
5.8601074 -2.0009117 -1.8534498 4288085770
3.3354187 -1.4787693 -1.8528957 4288085770
6.0688782 -1.9688158 -1.852932 4288085770
3.4621582 -1.4455452 -1.8503466 4288085770
6.3213501 -1.9422941 -1.8580675 4288085770
3.5999146 -1.4124727 -1.8482046 4288085770
6.5621033 -1.9116402 -1.8577404 4288085770
3.7575073 -1.3836536 -1.849824 4288085770
6.8129272 -1.8791294 -1.8567705 4288085770
3.9102478 -1.3507843 -1.848237 4288085770
7.0995789 -1.851099 -1.8591547 4288085770
4.0641174 -1.3169441 -1.8446827 4288085770
7.3744202 -1.8179274 -1.8570681 4288085770
4.2487183 -1.2874994 -1.8462954 4288085770
7.6931458 -1.7893534 -1.8576307 4288085770
4.4225464 -1.2539301 -1.8434801 4288085770
8.0527649 -1.7643251 -1.8617277 4288085770
4.6173096 -1.2216425 -1.8424473 4288085770
8.4304504 -1.7365551 -1.8644724 4288085770
4.8190918 -1.1894617 -1.839673 4288085770
8.8798828 -1.7167435 -1.8739185 4288085770
5.0348511 -1.1574602 -1.8394175 4288085770
9.40802 -1.701992 -1.889308 4288085770
5.2785645 -1.1268415 -1.8402023 4288085770
10.036896 -1.6945934 -1.9124641 4288085770
5.5402527 -1.0954676 -1.8416471 4288085770
10.76944 -1.6935911 -1.9434919 4288085770
5.8179321 -1.0653133 -1.843689 4288085770
11.571045 -1.6925449 -1.9750671 4288085770
6.1137085 -1.0324163 -1.8443794 4288085770
12.460571 -1.6936979 -2.009901 4288085770
6.4184875 -1.0006428 -1.8454094 4288085770
13.510651 -1.7040215 -2.0557241 4288085770
6.761261 -0.96739006 -1.8478327 4288085770
14.661926 -1.7107496 -2.1012573 4288085770
7.1012268 -0.932127 -1.8451366 4288085770
7.4750977 -0.89731503 -1.8456945 4288085770
7.8740845 -0.86086369 -1.8441677 4288085770
8.3597412 -0.82756233 -1.8518658 4288085770
8.8546448 -0.79041767 -1.8548746 4288085770
9.4802246 -0.75802326 -1.868742 4288085770
10.205475 -0.72696972 -1.8903027 4288085770
11.255676 -0.70823574 -1.9449482 4288085770
12.360229 -0.68329239 -1.9935541 4288085770
13.612732 -0.65437698 -2.0465956 4288085770
14.142212 1.0724907 -2.0369892 4288085770
13.068512 1.142025 -1.982213 4288085770
12.171448 1.2081795 -1.9389391 4288085770
11.297485 1.2649822 -1.8895597 4288085770
10.514282 1.3175659 -1.8465357 4288085770
9.8997498 1.3749008 -1.8186779 4288085770
9.5375671 1.4448948 -1.818017 4288085770
9.2392273 1.5140343 -1.8227053 4288085770
8.8960571 1.5777531 -1.8197765 4288085770
8.5560303 1.637392 -1.8119974 4288085770
8.2907715 1.7010555 -1.8129206 4288085770
8.0215454 1.7617645 -1.8117161 4288085770
7.7554321 1.8184109 -1.8066444 4288085770
7.5132446 1.8767395 -1.8044443 4288085770
7.315979 1.9374714 -1.8058796 4288085770
7.1118469 1.9962807 -1.8040714 4288085770
6.9076538 2.0510826 -1.8012838 4288085770
14.647491 3.2188187 -2.0466242 4288085770
6.7145081 2.1057243 -1.7969027 4288085770
13.964783 3.250061 -2.0124111 4288085770
6.5542908 2.1639404 -1.7977114 4288085770
13.371002 3.2871017 -1.9834309 4288085770
6.3572388 2.2146225 -1.7902069 4288085770
12.772278 3.3141899 -1.9503212 4288085770
6.1931152 2.2688675 -1.7858934 4288085770
12.203522 3.3388596 -1.9163246 4288085770
6.0449829 2.322897 -1.7831669 4288085770
11.721741 3.3743725 -1.89046 4288085770
5.9477539 2.3862629 -1.7872601 4288085770
11.346863 3.4234581 -1.8734455 4288085770
5.8136292 2.4410973 -1.7840452 4288085770
10.980988 3.4684162 -1.8557825 4288085770
5.7005005 2.4986515 -1.7825851 4288085770
10.735016 3.5357761 -1.8494015 4288085770
5.5724182 2.5513935 -1.7776022 4288085770
10.378204 3.5735893 -1.8271093 4288085770
5.4453735 2.6031208 -1.7716618 4288085770
10.178345 3.6433239 -1.8224039 4288085770
5.3522644 2.6603985 -1.7699404 4288085770
10.003418 3.7147236 -1.8186064 4288085770
5.2701721 2.7205257 -1.7686062 4288085770
9.8195496 3.7812271 -1.8115063 4288085770
5.1751709 2.7748165 -1.7638283 4288085770
9.672699 3.8572426 -1.8087139 4288085770
5.0881348 2.8319988 -1.7603273 4288085770
9.5349121 3.932127 -1.8042593 4288085770
5.0380554 2.896698 -1.7611446 4288085770
9.4440918 4.0173874 -1.8044729 4288085770
4.9800415 2.9594955 -1.7596807 4288085770
9.3413391 4.099802 -1.8022642 4288085770
4.9170227 3.0193558 -1.7570477 4288085770
9.2046814 4.1706429 -1.7928715 4288085770
4.9059753 3.0935383 -1.7622471 4288085770
9.0500183 4.2357254 -1.7808495 4288085770
4.8789978 3.1629181 -1.762887 4288085770
8.9273987 4.3073654 -1.769968 4288085770
4.8420715 3.2294254 -1.7611761 4288085770
9.0578003 4.452692 -1.7919769 4288085770
4.8530884 3.3113079 -1.7671452 4288085770
9.0622864 4.5626621 -1.7965527 4288085770
4.8650818 3.3931751 -1.7731504 4288085770
9.0227966 4.6592007 -1.7925882 4288085770
4.8662109 3.4711781 -1.7747755 4288085770
9.0633545 4.779686 -1.7994337 4288085770
4.853363 3.5463562 -1.7739038 4288085770
9.1440735 4.915638 -1.8086691 4288085770
4.8516235 3.6243782 -1.7724209 4288085770
9.1717834 5.0332699 -1.8090563 4288085770
4.8647766 3.7062149 -1.7744694 4288085770
9.2235413 5.1605873 -1.8122749 4288085770
4.8920593 3.7938595 -1.7770023 4288085770
9.3384705 5.312067 -1.821682 4288085770
4.9183655 3.8835087 -1.7774897 4288085770
9.378418 5.4365215 -1.8194818 4288085770
4.9337158 3.9672947 -1.7756052 4288085770
9.4824219 5.5851326 -1.8245029 4288085770
4.9691162 4.0598183 -1.7764101 4288085770
9.5675964 5.7299728 -1.8238535 4288085770
5.0364685 4.1649303 -1.7823238 4288085770
9.6687927 5.8806019 -1.8247595 4288085770
5.0700073 4.2564621 -1.7790642 4288085770
9.8702698 6.0719051 -1.8361273 4288085770
5.1235657 4.3597355 -1.7794781 4288085770
10.166992 6.3049526 -1.8577671 4288085770
5.170166 4.4580879 -1.7766628 4288085770
10.418762 6.5225754 -1.8708401 4288085770
5.297821 4.5923996 -1.7876329 4288085770
10.834015 6.8120441 -1.9015274 4288085770
5.377533 4.7063103 -1.7869501 4288085770
11.088196 7.0416107 -1.9096222 4288085770
5.4933777 4.8387566 -1.7924948 4288085770
11.377472 7.2877083 -1.9199171 4288085770
5.6282349 4.97995 -1.7996922 4288085770
11.837341 7.6125507 -1.947051 4288085770
5.7642212 5.1241188 -1.8049135 4288085770
12.329529 7.9569492 -1.9742641 4288085770
5.9193115 5.2780342 -1.8117838 4288085770
6.0274963 5.4125423 -1.8080339 4288085770
6.1677246 5.5626297 -1.8083792 4288085770
6.3291016 5.7244358 -1.8104372 4288085770
6.5205688 5.9028454 -1.8155127 4288085770
6.7152405 6.0851955 -1.8176804 4288085770
6.9511414 6.2900009 -1.8232431 4288085770
7.2381592 6.5221367 -1.8355389 4288085770
7.5083923 6.750473 -1.8412342 4288085770
7.7778015 6.9808044 -1.8428898 4288085770
8.0222473 7.2014465 -1.8386784 4288085770
8.3691711 7.4787369 -1.8449278 4288085770
8.8045349 7.8068562 -1.8591509 4288085770
14.553925 -0.39758873 -2.0787096 4288085770
12.917206 -0.4015131 -2.0112228 4288085770
11.404724 -0.40014458 -1.9422264 4288085770
10.087311 -0.39442158 -1.8772993 4288085770
9.2024231 -0.40042686 -1.8561621 4288085770
8.4793091 -0.40759373 -1.8459101 4288085770
7.8201904 -0.41262817 -1.8379755 4288085770
7.257843 -0.41895962 -1.836566 4288085770
14.234467 -0.79626751 -2.0726185 4288085770
6.7724304 -0.42431927 -1.8399496 4288085770
12.480865 -0.74764824 -1.9926643 4288085770
6.282196 -0.42763615 -1.8381481 4288085770
10.991943 -0.70259666 -1.9243479 4288085770
5.808197 -0.42718601 -1.8329172 4288085770
9.7626648 -0.66603661 -1.869503 4288085770
5.3622131 -0.42612553 -1.8267012 4288085770
8.914032 -0.64652538 -1.8515787 4288085770
4.973114 -0.42482376 -1.8245535 4288085770
8.217041 -0.63203239 -1.8461905 4288085770
4.6259155 -0.42507744 -1.8269358 4288085770
7.5611572 -0.61611176 -1.8382883 4288085770
4.2927551 -0.42353058 -1.8278208 4288085770
7.0111084 -0.60360527 -1.8372459 4288085770
3.9786377 -0.42123795 -1.8293953 4288085770
6.4980164 -0.59160614 -1.8365517 4288085770
3.6716614 -0.41706276 -1.8262177 4288085770
6.0379028 -0.57932091 -1.83778 4288085770
3.4015503 -0.41436481 -1.8293886 4288085770
5.5561829 -0.56378365 -1.8292055 4288085770
3.1424866 -0.40982437 -1.8309526 4288085770
5.1402893 -0.55011749 -1.827033 4288085770
2.8964233 -0.40546799 -1.8319902 4288085770
4.7692566 -0.53805161 -1.8274984 4288085770
2.6624146 -0.40026951 -1.8334618 4288085770
4.4243164 -0.52534485 -1.8279076 4288085770
2.4295349 -0.39409828 -1.8319674 4288085770
4.1003113 -0.51291752 -1.8290806 4288085770
2.199707 -0.38598442 -1.8275766 4288085770
3.7913818 -0.50070667 -1.8288021 4288085770
1.9868469 -0.3790884 -1.8258085 4288085770
3.5014343 -0.4877491 -1.8292093 4288085770
1.775116 -0.37022114 -1.8210716 4288085770
3.2404175 -0.47617531 -1.832674 4288085770
1.5872192 -0.36266518 -1.8202066 4288085770
2.9963989 -0.46483421 -1.8357592 4288085770
1.4162903 -0.35532856 -1.8219604 4288085770
2.7416382 -0.45036983 -1.8334351 4288085770
1.2444153 -0.34699154 -1.8206758 4288085770
2.4978943 -0.43606472 -1.8295135 4288085770
1.0795593 -0.33875084 -1.8196468 4288085770
2.2641907 -0.42188931 -1.8259563 4288085770
0.92074585 -0.32958889 -1.8188324 4288085770
2.0513611 -0.40899277 -1.8251667 4288085770
0.77386475 -0.32158566 -1.819458 4288085770
1.837677 -0.39409924 -1.8203335 4288085770
0.61914062 -0.31149864 -1.8147869 4288085770
1.6538391 -0.38159466 -1.8205976 4288085770
0.49023438 -0.30273342 -1.8170624 4288085770
1.4681091 -0.36707211 -1.8177834 4288085770
0.36828613 -0.29406166 -1.8195915 4288085770
1.2973022 -0.35374832 -1.8175173 4288085770
0.24246216 -0.28435135 -1.8189745 4288085770
1.1295776 -0.34046936 -1.815361 4288085770
0.1206665 -0.27469635 -1.8185034 4288085770
0.96981812 -0.32630157 -1.8134928 4288085770
0.0087890625 -0.26517105 -1.8193941 4288085770
0.83486938 -0.31445026 -1.8175373 4288085770
0.68029785 -0.29936504 -1.8118505 4288085770
0.55435181 -0.28763771 -1.8152237 4288085770
0.4206543 -0.27382374 -1.8133011 4288085770
0.29684448 -0.26013756 -1.8137426 4288085770
0.18789673 -0.24863815 -1.8177338 4288085770
0.064300537 -0.23397446 -1.8131742 4288085770
-0.047424316 -0.22045803 -1.8120546 4288085770
-0.033050537 1.7018375 -1.7521534 4288085770
0.092254639 1.7241611 -1.7585669 4288085770
0.20370483 1.7416439 -1.7574978 4288085770
0.3260498 1.7599907 -1.759819 4288085770
0.45544434 1.7792435 -1.7623901 4288085770
0.59185791 1.7994041 -1.7652092 4288085770
0.73922729 1.8204193 -1.7694178 4288085770
0.88461304 1.840456 -1.7725592 4288085770
-0.012023926 1.6365223 -1.7531252 4288085770
1.0340271 1.8594379 -1.774848 4288085770
0.12408447 1.6547089 -1.7629452 4288085770
1.1934509 1.8792839 -1.7774935 4288085770
0.22357178 1.6613369 -1.7574844 4288085770
1.3459167 1.8952122 -1.7769012 4288085770
0.35681152 1.6745472 -1.7622175 4288085770
1.5073853 1.9130268 -1.777626 4288085770
0.4682312 1.6820221 -1.759182 4288085770
1.6768188 1.9307308 -1.7786379 4288085770
0.61837769 1.6970139 -1.767518 4288085770
1.8631897 1.950222 -1.7832518 4288085770
0.77355957 1.711937 -1.775033 4288085770
2.0357361 1.9648724 -1.7803841 4288085770
0.91983032 1.7229633 -1.7782402 4288085770
2.2172241 1.9794044 -1.7788391 4288085770
1.0511475 1.7291737 -1.7769251 4288085770
2.4306946 1.9985332 -1.7824402 4288085770
1.221405 1.7418957 -1.7830019 4288085770
2.6500854 2.0175724 -1.7862358 4288085770
1.383606 1.7517109 -1.7867813 4288085770
2.8804932 2.0374622 -1.7904224 4288085770
1.5299683 1.7557144 -1.7850094 4288085770
3.1019897 2.0514622 -1.790308 4288085770
1.6684875 1.756815 -1.7789621 4288085770
3.3076172 2.0606499 -1.783637 4288085770
1.8496399 1.7643738 -1.7834301 4288085770
3.5192261 2.0687599 -1.7771864 4288085770
2.039856 1.7728138 -1.7882185 4288085770
3.7807007 2.0832233 -1.7785034 4288085770
2.2261047 1.7782974 -1.7908735 4288085770
4.0362854 2.0947533 -1.7766171 4288085770
2.3765564 1.7732258 -1.7822771 4288085770
4.3157654 2.1079674 -1.7765837 4288085770
2.5888062 1.7793655 -1.7868605 4288085770
4.6211853 2.1228428 -1.7804756 4288085770
2.7940369 1.7815914 -1.7892075 4288085770
4.9426575 2.1374969 -1.7829428 4288085770
2.9923096 1.7798977 -1.7873163 4288085770
5.3009949 2.1546745 -1.7907257 4288085770
3.1886292 1.7762241 -1.7843609 4288085770
5.6634216 2.1697788 -1.7946606 4288085770
3.4098816 1.7742271 -1.7852945 4288085770
6.0130005 2.1780396 -1.7931528 4288085770
3.6401367 1.7711086 -1.7855549 4288085770
6.4313354 2.1934032 -1.8010912 4288085770
3.8743591 1.7649345 -1.7849674 4288085770
6.8258972 2.200058 -1.8002033 4288085770
4.1265564 1.7595215 -1.7860231 4288085770
7.2324524 2.2055473 -1.7987471 4288085770
4.3777466 1.7521191 -1.7870483 4288085770
7.6579895 2.2087803 -1.796979 4288085770
4.6399536 1.7425652 -1.7864742 4288085770
8.1184998 2.2105427 -1.7964716 4288085770
4.9191284 1.7327881 -1.7875099 4288085770
8.6279297 2.2156582 -1.7997065 4288085770
5.229187 1.7226028 -1.7916584 4288085770
9.1385193 2.2137356 -1.7970037 4288085770
5.5582275 1.712162 -1.7964859 4288085770
9.7479248 2.2185135 -1.8038225 4288085770
5.8873291 1.6977139 -1.7993269 4288085770
10.575958 2.2454071 -1.8334112 4288085770
6.2432861 1.6819134 -1.8051376 4288085770
11.703522 2.2983475 -1.8906593 4288085770
6.6242065 1.6647778 -1.8118496 4288085770
13.146729 2.3741131 -1.9751511 4288085770
6.9882507 1.6428509 -1.8129692 4288085770
14.574188 2.4320354 -2.0441313 4288085770
7.3633118 1.6157742 -1.8134975 4288085770
7.7622681 1.5873795 -1.8158903 4288085770
8.2210693 1.560194 -1.8234262 4288085770
8.6450195 1.5234547 -1.82374 4288085770
9.1158752 1.4850903 -1.8267431 4288085770
9.5498352 1.4392033 -1.8234444 4288085770
10.107452 1.3956871 -1.8325768 4288085770
10.946289 1.3654728 -1.8737574 4288085770
11.993652 1.3375053 -1.9334116 4288085770
13.018219 1.2958126 -1.9832878 4288085770
14.176453 1.2473354 -2.0409861 4288085770
8.1625061 -4.9652634 -0.34996986 4293729569
7.9933472 -4.9999132 -0.37002182 4293729569
7.9624023 -5.0884209 -0.39420223 4293729569
5.1149902 -4.5536165 -0.49239063 4293729569
4.9413147 -4.5492048 -0.51315212 4293729569
4.7984314 -4.5552034 -0.53605175 4293729569
4.5672913 -4.5160246 -0.55364037 4293729569
4.4373474 -4.5251932 -0.57801437 4293729569
4.1388245 -4.5130129 -0.62528038 4293729569
4.0674438 -4.5439587 -0.65482521 4293729569
3.8890381 -4.5174818 -0.67634487 4293729569
3.7998352 -4.5341902 -0.70520592 4293729569
3.5264587 -4.511344 -0.75433445 4293729569
3.3244019 -4.5184412 -0.81112099 4293729569
3.0909119 -4.498127 -0.86368847 4293729569
3.0038147 -4.5028572 -0.8945837 4293729569
8.0141296 -7.5025353 -1.5790749 4293729569
2.8739929 -4.5003252 -0.50064278 4293729569
2.8238525 -4.5012455 -0.95413208 4293729569
2.7279358 -4.4938622 -0.98367119 4293729569
2.6998291 -4.4907637 -0.56837559 4293729569
6.6033325 -6.8964458 -1.5855169 4293729569
2.5589905 -4.4863958 -1.0445957 4293729569
2.5406189 -4.4834042 -0.63665009 4293729569
2.4612427 -4.4719887 -1.0730457 4293729569
2.4724426 -4.4833746 -0.67221069 4293729569
5.4394226 -6.377677 -1.5970936 4293729569
2.2895508 -4.45049 -1.132823 4293729569
2.3055725 -4.4569187 -0.73814583 4293729569
2.2865906 -4.4893188 -1.1768475 4293729569
2.2859497 -4.4805326 -0.77851963 4293729569
2.2087402 -4.4781771 -1.2070198 4293729569
2.2138977 -4.46945 -0.81390381 4293729569
4.0184937 -5.6854992 -1.5878811 4293729569
3.7154541 -5.5334101 -1.5865173 4293729569
7.0580139 -7.6766925 -1.5669546 4293729569
2.0317078 -4.4466696 -0.91929913 4293729569
1.9793091 -4.468667 -1.3447666 4293729569
2.0190735 -4.4673748 -0.9609127 4293729569
2.8192444 -5.0583582 -1.566823 4293729569
1.9522095 -4.44837 -0.99445343 4293729569
2.6133728 -4.9535551 -1.5740967 4293729569
1.9356079 -4.4630184 -1.0369053 4293729569
2.0523376 -4.6071959 -1.4998417 4293729569
4.9096985 -6.4705973 -1.5820293 4293729569
1.8074341 -4.4679079 -1.4926023 4293729569
4.4980469 -6.2250547 -1.5744743 4293729569
1.8291931 -4.5070477 -1.5445108 4293729569
4.1418457 -6.0132456 -1.5720167 4293729569
1.6690979 -4.4208622 -1.5524855 4293729569
1.7661438 -4.431282 -1.1857195 4293729569
1.6349182 -4.4172926 -1.5892467 4293729569
1.7605286 -4.4430771 -1.2295551 4293729569
1.5869446 -4.4025402 -1.6244783 4293729569
1.7352905 -4.43962 -1.2686357 4293729569
1.4231567 -4.3053255 -1.6262836 4293729569
1.6874695 -4.4188709 -1.3028498 4293729569
1.3233337 -4.2509222 -1.6445217 4293729569
1.6662292 -4.4144678 -1.3420706 4293729569
1.2971802 -4.2444611 -1.6815605 4293729569
1.6578064 -4.4162264 -1.3847685 4293729569
1.2809448 -4.2441254 -1.720973 4293729569
1.648468 -4.4169798 -1.4254293 4293729569
1.2676086 -4.2438259 -1.7614908 4293729569
1.6381836 -4.4137163 -1.4670439 4293729569
1.2593384 -4.2445984 -1.8011904 4293729569
1.6387634 -4.4156008 -1.5090628 4293729569
1.2588501 -4.2484636 -1.8451815 4288085770
1.6462402 -4.4215717 -1.5533428 4293729569
1.2230835 -4.2258902 -1.8768187 4288085770
1.6439209 -4.418417 -1.5952406 4293729569
1.0913696 -4.1351099 -1.876791 4288085770
1.5778198 -4.3694496 -1.6197023 4293729569
0.95187378 -4.0362406 -1.8724575 4288085770
1.4478455 -4.2756748 -1.62673 4293729569
0.82028198 -3.9414778 -1.8684216 4288085770
1.4290161 -4.2543182 -1.6609755 4293729569
0.68884277 -3.8447218 -1.8623838 4288085770
1.4357605 -4.2502918 -1.7011929 4293729569
0.57220459 -3.7561569 -1.858901 4288085770
1.4542847 -4.2514114 -1.7458496 4293729569
0.45852661 -3.6696329 -1.8555346 4288085770
1.4797974 -4.2556229 -1.7907629 4293729569
0.34692383 -3.5821428 -1.8502369 4288085770
1.4955444 -4.2507143 -1.8322964 4288085770
0.2354126 -3.49366 -1.8429394 4288085770
1.5171814 -4.2488813 -1.8750525 4288085770
0.14648438 -3.4204655 -1.8415022 4288085770
1.412262 -4.160449 -1.8799915 4288085770
0.05279541 -3.3412142 -1.8368711 4288085770
1.2849121 -4.0547476 -1.8740692 4288085770
-0.019348145 -3.2772398 -1.8380651 4288085770
1.1752319 -3.9602709 -1.8728199 4288085770
-0.099212646 -3.206172 -1.8349571 4288085770
1.0647278 -3.8647909 -1.868535 4288085770
0.96502686 -3.7744513 -1.8666544 4288085770
0.86450195 -3.6841078 -1.861742 4288085770
0.77185059 -3.597868 -1.8581266 4288085770
0.67434692 -3.5075712 -1.8513241 4288085770
0.5965271 -3.4295282 -1.8492661 4288085770
0.53448486 -3.3606853 -1.8508015 4288085770
0.4597168 -3.2836895 -1.8468561 4288085770
0.3928833 -3.209795 -1.844203 4288085770
0.3182373 -3.1328106 -1.8362617 4288085770
0.26821899 -3.0701361 -1.8362455 4288085770
0.22601318 -3.0105648 -1.8375225 4288085770
0.17999268 -2.9499454 -1.8366566 4288085770
0.13397217 -2.8883305 -1.8347883 4288085770
0.093933105 -2.8307981 -1.8321457 4288085770
0.054840088 -2.7722769 -1.8305359 4288085770
0.023742676 -2.7188606 -1.8292265 4288085770
-0.008392334 -2.6644316 -1.827877 4288085770
-0.033569336 -2.6150961 -1.8267927 4288085770
-0.06072998 -2.5627365 -1.8246288 4288085770
-0.089752197 -2.5093584 -1.8203936 4288085770
-0.10891724 -2.4621038 -1.8185301 4288085770
-0.12612915 -2.414875 -1.8177357 4288085770
-0.13153076 -2.3747978 -1.8193874 4288085770
-0.11022949 -1.9510889 -1.8134918 4288085770
-0.095611572 -1.9172869 -1.812871 4288085770
-0.07901001 -1.8845129 -1.8123245 4288085770
-0.05456543 -1.8548355 -1.8140678 4288085770
-0.028015137 -1.8251915 -1.8148842 4288085770
-0.015258789 -1.7893772 -1.8101912 4288085770
0.029937744 -1.7679672 -1.8166981 4288085770
0.08404541 -1.7476673 -1.8265257 4288085770
0.12347412 -1.7221909 -1.8288126 4288085770
0.15698242 -1.6936426 -1.8288794 4288085770
0.19946289 -1.6672096 -1.8302708 4288085770
0.24484253 -1.6428137 -1.8327732 4288085770
0.28338623 -1.6153336 -1.8320198 4288085770
0.33184814 -1.5899801 -1.8336258 4288085770
0.38430786 -1.5656805 -1.8353748 4288085770
0.43380737 -1.5413475 -1.8350201 4288085770
0.47836304 -1.5139513 -1.8334789 4288085770
0.53582764 -1.4907207 -1.8344097 4288085770
0.58740234 -1.4654198 -1.8321228 4288085770
0.64889526 -1.441246 -1.8321905 4288085770
0.71035767 -1.4190722 -1.8322649 4288085770
0.76602173 -1.3928318 -1.8281164 4288085770
0.83349609 -1.3697357 -1.8283997 4288085770
-0.11483765 -1.118989 -1.8300743 4288085770
0.90893555 -1.3487473 -1.8289709 4288085770
-0.057403564 -1.0977621 -1.8300123 4288085770
0.98443604 -1.3267641 -1.8285398 4288085770
-0.0048217773 -1.0754728 -1.8277731 4288085770
1.0767212 -1.3089914 -1.8327169 4288085770
0.065490723 -1.0574131 -1.8301773 4288085770
1.1680908 -1.2892122 -1.8348541 4288085770
0.11618042 -1.0341101 -1.8248653 4288085770
1.2466431 -1.2672729 -1.8325281 4288085770
0.18362427 -1.0140162 -1.8241587 4288085770
1.3470154 -1.2486143 -1.8349876 4288085770
0.25009155 -0.9939127 -1.8234167 4288085770
1.4415283 -1.2288857 -1.8342314 4288085770
0.32162476 -0.97387791 -1.8218527 4288085770
1.545929 -1.2092829 -1.8358259 4288085770
0.40390015 -0.95697403 -1.8246822 4288085770
1.6572876 -1.1917706 -1.8376741 4288085770
0.48931885 -0.93912029 -1.8256168 4288085770
1.799408 -1.1786547 -1.8466234 4288085770
0.57177734 -0.920228 -1.8254414 4288085770
1.9326172 -1.1634283 -1.8512516 4288085770
0.64437866 -0.89821625 -1.8209076 4288085770
2.0412598 -1.1418962 -1.8469839 4288085770
0.77334595 -0.88791466 -1.832408 4288085770
2.1667786 -1.1225824 -1.8463211 4288085770
0.8125 -0.85848808 -1.8146591 4288085770
2.3081665 -1.1054726 -1.8482256 4288085770
0.92184448 -0.84195137 -1.817441 4288085770
2.4447327 -1.0863104 -1.8459501 4288085770
1.0282288 -0.82537365 -1.8181162 4288085770
2.5932312 -1.0683031 -1.8460999 4288085770
1.1791382 -0.81436443 -1.8313875 4288085770
2.7457581 -1.0503511 -1.8443899 4288085770
1.3005066 -0.79798508 -1.8335915 4288085770
2.9023438 -1.0314579 -1.8418198 4288085770
1.3972778 -0.7763052 -1.8259039 4288085770
3.0777893 -1.0148106 -1.8419218 4288085770
1.5593262 -0.76444912 -1.8365612 4288085770
3.2573242 -0.99621677 -1.8411617 4288085770
1.6650391 -0.74388695 -1.8291931 4288085770
3.4508362 -0.97981358 -1.8408985 4288085770
1.8123779 -0.72785568 -1.8323116 4288085770
3.641449 -0.96137524 -1.8375244 4288085770
1.9914856 -0.71523285 -1.8415623 4288085770
3.8599243 -0.94630337 -1.8381433 4288085770
2.1389771 -0.69821262 -1.8406792 4288085770
4.0795288 -0.92825317 -1.8357906 4288085770
2.2895508 -0.68023682 -1.8378992 4288085770
4.3299255 -0.91460228 -1.8375387 4288085770
2.4678955 -0.66461945 -1.8411083 4288085770
4.5776062 -0.89693069 -1.8341722 4288085770
2.6611938 -0.65019989 -1.8448486 4288085770
4.8441467 -0.88150311 -1.8334789 4288085770
2.8209839 -0.63036251 -1.8373814 4288085770
5.1655579 -0.86879635 -1.8377275 4288085770
3.0055847 -0.61184216 -1.834796 4288085770
5.4661865 -0.85282898 -1.8352299 4288085770
3.1992188 -0.59344482 -1.8315258 4288085770
5.8285522 -0.84167194 -1.8399229 4288085770
3.4316406 -0.57855415 -1.8336363 4288085770
6.2140503 -0.82882881 -1.8424225 4288085770
3.6681519 -0.56172371 -1.8338814 4288085770
6.6026611 -0.81503105 -1.8420238 4288085770
3.9126587 -0.54499817 -1.8334084 4288085770
7.0401611 -0.80188656 -1.8443489 4288085770
4.1712341 -0.52746487 -1.8324251 4288085770
7.480896 -0.78679371 -1.8417759 4288085770
4.4508057 -0.51120949 -1.8321838 4288085770
8.0132446 -0.77790546 -1.8484526 4288085770
4.7503967 -0.49422359 -1.831645 4288085770
8.6177063 -0.76897621 -1.8566637 4288085770
5.0630493 -0.47641373 -1.8295593 4288085770
9.2731628 -0.7597332 -1.8636656 4288085770
5.4205017 -0.46119118 -1.8330612 4288085770
10.092072 -0.75863743 -1.8864517 4288085770
5.8189697 -0.44551182 -1.8380032 4288085770
11.318665 -0.77690029 -1.9476671 4288085770
6.2633362 -0.43144321 -1.8455648 4288085770
12.659363 -0.79469299 -2.0078888 4288085770
6.6731262 -0.41193771 -1.8418827 4288085770
14.142273 -0.81138897 -2.0671005 4288085770
7.1378784 -0.39416027 -1.8411388 4288085770
7.6545105 -0.3770752 -1.8422232 4288085770
8.2810059 -0.36143398 -1.8511772 4288085770
8.9286499 -0.3440876 -1.8558636 4288085770
9.6890869 -0.32823372 -1.8685236 4288085770
10.808472 -0.32109261 -1.9148521 4288085770
12.247223 -0.31917095 -1.9834356 4288085770
13.860046 -0.31456852 -2.0541248 4288085770
13.582947 -0.13151741 -2.031703 4288085770
11.791168 -0.11109829 -1.9431343 4288085770
10.332794 -0.093029976 -1.8758354 4288085770
9.3213196 -0.082779884 -1.84865 4288085770
8.5313721 -0.074419022 -1.838953 4288085770
7.8354187 -0.066290855 -1.8314314 4288085770
7.23526 -0.058414459 -1.8301487 4288085770
13.914764 -0.20386505 -2.0386868 4288085770
6.7060852 -0.050462723 -1.8312616 4288085770
12.119965 -0.16639614 -1.9570198 4288085770
6.2120361 -0.041977882 -1.8315601 4288085770
10.562134 -0.1320343 -1.8793583 4288085770
5.7231445 -0.032567024 -1.8260298 4288085770
9.5119019 -0.10828114 -1.8498583 4288085770
5.2583618 -0.022475243 -1.8183117 4288085770
8.6612549 -0.088131905 -1.8341055 4288085770
4.8693237 -0.013367653 -1.8191566 4288085770
7.9692993 -0.071053505 -1.8297176 4288085770
4.4775085 -0.0032310486 -1.8139057 4288085770
7.3224792 -0.053570747 -1.8228512 4288085770
4.1505127 0.0050601959 -1.814846 4288085770
6.8072815 -0.038803101 -1.8274345 4288085770
3.8563843 0.014925957 -1.8198957 4288085770
6.3103027 -0.02327919 -1.8266315 4288085770
3.563446 0.024769783 -1.8199844 4288085770
5.8334351 -0.007021904 -1.8245049 4288085770
3.2884827 0.034380913 -1.821682 4288085770
5.3657532 0.008105278 -1.8156891 4288085770
3.015625 0.044955254 -1.8194475 4288085770
4.9678345 0.023327827 -1.8152304 4288085770
2.7885742 0.053939819 -1.8237648 4288085770
4.5909729 0.038271904 -1.8134813 4288085770
2.5814514 0.06366539 -1.8307543 4288085770
4.2570496 0.052652359 -1.8141851 4288085770
2.3288574 0.074967384 -1.8222008 4288085770
3.9450989 0.066747665 -1.8156309 4288085770
2.0922546 0.087064743 -1.8151875 4288085770
3.6452637 0.080680847 -1.8144846 4288085770
1.8735657 0.097921371 -1.8087826 4288085770
3.3623962 0.095391273 -1.8139105 4288085770
1.6886597 0.10834789 -1.8095198 4288085770
3.1124878 0.10867119 -1.8154516 4288085770
1.5178223 0.1195879 -1.81073 4288085770
2.8696289 0.12285709 -1.8162289 4288085770
1.3370667 0.12995434 -1.8076067 4288085770
2.6596375 0.13561821 -1.8211184 4288085770
1.1693115 0.14114952 -1.8049212 4288085770
2.4467163 0.14941025 -1.8229094 4288085770
1.0145264 0.15217686 -1.8036737 4288085770
2.2001953 0.16263199 -1.8125629 4288085770
0.86972046 0.1640749 -1.8037624 4288085770
1.9865417 0.17642593 -1.8073254 4288085770
0.72787476 0.17493439 -1.8039551 4288085770
1.7937927 0.18995094 -1.8047953 4288085770
0.59606934 0.18566227 -1.8034849 4288085770
1.6160278 0.2032795 -1.803771 4288085770
0.46530151 0.19637203 -1.8020496 4288085770
1.4512329 0.21744156 -1.8041849 4288085770
0.36523438 0.20769119 -1.8096533 4288085770
1.2795715 0.23068428 -1.799366 4288085770
0.23855591 0.21934414 -1.8063545 4288085770
1.1218567 0.24374866 -1.797019 4288085770
0.11590576 0.23094749 -1.8021908 4288085770
0.993927 0.25742912 -1.8016787 4288085770
0.021972656 0.24318218 -1.8069992 4288085770
0.84820557 0.27133465 -1.7987356 4288085770
-0.09463501 0.25470448 -1.8020401 4288085770
0.70956421 0.28414822 -1.7950325 4288085770
0.5769043 0.29788113 -1.7915287 4288085770
0.47988892 0.31116104 -1.7992344 4288085770
0.33840942 0.32400227 -1.7894344 4288085770
0.24151611 0.33727646 -1.7931433 4288085770
0.1496582 0.35148239 -1.7970171 4288085770
0.045898438 0.36483955 -1.7964926 4288085770
-0.043914795 0.37801552 -1.7974386 4288085770
0.0078735352 2.4701214 -1.7280226 4288085770
0.13040161 2.5095253 -1.7340546 4288085770
0.24105835 2.5420799 -1.7336969 4288085770
0.35565186 2.5755806 -1.7344694 4288085770
0.48226929 2.6119308 -1.73664 4288085770
0.59490967 2.6404514 -1.7333508 4288085770
0.71759033 2.6718483 -1.7313948 4288085770
0.85818481 2.7100105 -1.7350283 4288085770
0.00054931641 2.395195 -1.736824 4288085770
0.99090576 2.7422791 -1.7334042 4288085770
0.1020813 2.4168663 -1.7351751 4288085770
1.1465149 2.7822514 -1.7375364 4288085770
0.22650146 2.4452438 -1.740284 4288085770
1.2921753 2.8163433 -1.7373419 4288085770
0.34490967 2.4706993 -1.7431946 4288085770
1.4488525 2.8533001 -1.7385111 4288085770
0.47442627 2.4990063 -1.7464705 4288085770
1.594574 2.8833923 -1.7343216 4288085770
0.58694458 2.5185356 -1.7441883 4288085770
1.7762146 2.9260235 -1.739316 4288085770
0.71838379 2.5438194 -1.7465334 4288085770
1.9458923 2.9618092 -1.7399187 4288085770
0.82995605 2.5583553 -1.7412224 4288085770
2.1276245 2.9984341 -1.7399216 4288085770
0.95645142 2.5786991 -1.7394066 4288085770
2.2984009 3.0302029 -1.7365618 4288085770
1.145752 2.6212406 -1.755662 4288085770
2.5180359 3.0773354 -1.7428188 4288085770
1.2653198 2.6336689 -1.748621 4288085770
2.7267456 3.1176147 -1.7457151 4288085770
1.4217834 2.6596279 -1.7517967 4288085770
2.9274902 3.151989 -1.7433519 4288085770
1.5632935 2.6767769 -1.7494812 4288085770
3.1672363 3.1978645 -1.7482758 4288085770
1.7098083 2.693861 -1.7473326 4288085770
3.4179077 3.2445965 -1.7535639 4288085770
1.8772583 2.7166729 -1.749876 4288085770
3.65271 3.2825298 -1.7533283 4288085770
2.0368042 2.73559 -1.7491579 4288085770
3.9344482 3.3338585 -1.7616444 4288085770
2.2112427 2.7563095 -1.7499361 4288085770
4.2211914 3.3831215 -1.7671299 4288085770
2.3667603 2.7682724 -1.7460918 4288085770
4.5109253 3.4293442 -1.7727146 4288085770
2.5671692 2.7926617 -1.7507305 4288085770
4.8217468 3.4792919 -1.777998 4288085770
2.7506409 2.8092613 -1.7508116 4288085770
5.1325073 3.5242367 -1.7812853 4288085770
2.933075 2.8228779 -1.7498608 4288085770
5.5072937 3.5863571 -1.793685 4288085770
3.120575 2.8364258 -1.7470789 4288085770
5.8291321 3.6271572 -1.7943401 4288085770
3.3170471 2.8488598 -1.7465944 4288085770
6.1459961 3.6630192 -1.7918358 4288085770
3.5284729 2.8640976 -1.7476072 4288085770
6.5088196 3.7072849 -1.7948513 4288085770
3.7598572 2.8820763 -1.7512817 4288085770
6.8817139 3.7484207 -1.7962055 4288085770
3.9962158 2.897995 -1.7551231 4288085770
7.2745972 3.7932949 -1.7982187 4288085770
4.2285767 2.9109631 -1.756835 4288085770
7.6624451 3.8292313 -1.7970734 4288085770
4.4599915 2.9189339 -1.755518 4288085770
8.0963135 3.8735695 -1.8004522 4288085770
4.7373047 2.9363232 -1.7627201 4288085770
8.5002747 3.9042931 -1.7958441 4288085770
5.0146179 2.9507046 -1.7679262 4288085770
9.0351257 3.9633236 -1.8065672 4288085770
5.303894 2.9639339 -1.7745304 4288085770
9.6419983 4.0334206 -1.8236771 4288085770
5.5772095 2.9693642 -1.77561 4288085770
10.315857 4.1146488 -1.8460045 4288085770
5.8654785 2.9756012 -1.7791853 4288085770
11.074768 4.2067699 -1.8741493 4288085770
6.1328125 2.9721107 -1.777072 4288085770
12.080597 4.3486958 -1.926466 4288085770
6.4550476 2.9779091 -1.7827778 4288085770
13.304474 4.5257912 -1.9970045 4288085770
6.7472839 2.9710884 -1.781497 4288085770
14.58844 4.7021027 -2.0655403 4288085770
7.0435486 2.9632206 -1.7803488 4288085770
7.3607178 2.9550762 -1.7808981 4288085770
7.7208557 2.9513798 -1.786871 4288085770
8.0400085 2.9352112 -1.7854919 4288085770
8.3960876 2.9205647 -1.7883406 4288085770
8.7242126 2.8962746 -1.7852659 4288085770
9.1121826 2.8772125 -1.7891798 4288085770
9.5341187 2.8617134 -1.7972193 4288085770
10.026917 2.8502884 -1.8116131 4288085770
10.658508 2.8560734 -1.8426113 4288085770
11.272125 2.8500862 -1.8680201 4288085770
11.982513 2.8508453 -1.9036436 4288085770
12.920593 2.874651 -1.9618235 4288085770
13.83963 2.8837032 -2.0153809 4288085770
14.580902 2.8560524 -2.0450535 4288085770
14.51532 -4.9994278 -0.88777733 4293729569
14.002869 -4.9111214 -1.803174 4293729569
13.898041 -4.9663677 -0.9012394 4293729569
13.46405 -4.8961029 -1.7962475 4293729569
13.324646 -4.9388819 -0.91716576 4293729569
12.715759 -4.8163662 -1.7662954 4293729569
12.774231 -4.9106941 -0.93285561 4293729569
12.063049 -4.7518711 -1.7435379 4293729569
12.243958 -4.8787689 -0.94820976 4293729569
11.428406 -4.6826105 -1.7213745 4293729569
11.646118 -4.8199673 -0.95829678 4293729569
10.880341 -4.6324739 -1.7071085 4293729569
11.301056 -4.8294525 -0.9838438 4293729569
10.427673 -4.6035776 -1.7030344 4293729569
10.818848 -4.7911539 -0.99979115 4293729569
10.006958 -4.577095 -1.701025 4293729569
10.49588 -4.7969275 -1.0250683 4293729569
9.6408997 -4.5633221 -1.7048445 4293729569
10.03775 -4.7519455 -1.0398092 4293729569
9.1817017 -4.5123405 -1.6955318 4293729569
9.7527466 -4.7602129 -1.0663509 4293729569
8.8664246 -4.505228 -1.7040472 4293729569
9.4319458 -4.7530165 -1.0906897 4293729569
8.5572205 -4.4951944 -1.7117605 4293729569
9.1202698 -4.7419367 -1.1143274 4293729569
8.276886 -4.4885359 -1.7234373 4293729569
8.7966614 -4.7237043 -1.1375628 4293729569
8.0194092 -4.4881725 -1.7368793 4293729569
8.4901123 -4.7046947 -1.1593637 4293729569
7.7381897 -4.4755011 -1.7475224 4293729569
8.2550659 -4.7086124 -1.1885633 4293729569
7.4847717 -4.4681921 -1.761095 4293729569
7.9714355 -4.6919012 -1.2121305 4293729569
7.2394104 -4.4609871 -1.7749338 4293729569
7.7078247 -4.6764517 -1.2363605 4293729569
7.0098877 -4.455987 -1.7913046 4293729569
7.4670105 -4.6672955 -1.2633553 4293729569
6.7765503 -4.4449377 -1.8055391 4293729569
7.2123413 -4.6499605 -1.2888842 4293729569
6.558075 -4.4370823 -1.8222733 4293729569
7.0282898 -4.6545439 -1.3197765 4293729569
6.3555908 -4.4314346 -1.840539 4293729569
6.7609558 -4.623045 -1.3408699 4293729569
6.15802 -4.4258509 -1.8589706 4288085770
6.6116028 -4.6370802 -1.375927 4293729569
5.9536743 -4.4131784 -1.8751688 4288085770
7.6196594 -5.1401253 -1.5628901 4293729569
5.776947 -4.4108639 -1.8972979 4288085770
6.8886719 -4.905612 -1.5243912 4293729569
5.5954285 -4.4014883 -1.9172592 4288085770
6.0154114 -4.5982609 -1.4580965 4293729569
5.358551 -4.3673973 -1.9263563 4288085770
5.9217224 -4.6260166 -1.5010157 4293729569
