# .PCD v0.7 - Point Cloud Data file format
VERSION 0.7
FIELDS x y z rgb
SIZE 4 4 4 4
TYPE F F F U
COUNT 1 1 1 1
WIDTH 1115
HEIGHT 1
VIEWPOINT 0 0 0 1 0 0 0
POINTS 1115
DATA ascii
9.1339417 0.7373631 -1.4660482 4288085770
10.132843 0.77951694 -1.4217234 4288085770
11.27478 0.82566667 -1.371995 4288085770
10.561218 2.4431884 -0.98508739 4293729569
9.6509705 2.4670591 -0.92952347 4293729569
8.6174927 2.463891 -0.86668587 4293729569
7.9141846 2.4879236 -0.8202734 4293729569
7.337738 2.5191288 -0.77943802 4293729569
7.1429749 2.5978775 -0.75631046 4293729569
7.0519104 2.689301 -0.73572254 4293729569
7.0235901 2.7903261 -0.71713924 4293729569
7.0430908 2.8986049 -0.69931602 4293729569
7.0834961 3.0114632 -0.68087769 4293729569
7.1557922 3.1291935 -0.6619463 4293729569
7.3076172 3.2649999 -0.6445055 4293729569
7.4275818 3.396049 -0.6245575 4293729569
7.5396118 3.5259974 -0.6014843 4293729569
7.6913757 3.6659856 -0.57919312 4293729569
8.176239 3.8806348 -0.56409931 4293729569
7.9779358 3.9477692 -0.52749538 4293729569
8.0928345 4.0860486 -0.49775314 4293729569
8.177948 4.2166228 -0.46541691 4293729569
12.021667 0.90259576 -1.3510666 4288085770
10.727478 0.87545681 -1.396677 4288085770
9.6021729 0.85382056 -1.4422417 4288085770
8.5830078 0.83436728 -1.4779806 4288085770
7.6427917 0.81820369 -1.5086555 4288085770
6.7527161 0.80372 -1.5299025 4288085770
5.9775696 0.79235983 -1.5494585 4288085770
12.270447 1.0300481 -1.3313284 4288085770
5.3204041 0.78398442 -1.573348 4288085770
10.920197 1.0053983 -1.3774462 4288085770
4.7182312 0.77723408 -1.5928669 4288085770
9.8217773 0.98842907 -1.4244604 4288085770
4.2049866 0.77370644 -1.6164284 4288085770
8.8504028 0.97404528 -1.4658833 4288085770
3.751709 0.77175307 -1.6406698 4288085770
7.8981628 0.96060157 -1.4955292 4288085770
3.3074646 0.77025366 -1.6590176 4288085770
7.0079956 0.94707775 -1.5178118 4288085770
2.9560852 0.77189898 -1.6864529 4288085770
6.2457581 0.93887091 -1.5426188 4288085770
2.6556702 0.77584505 -1.7154989 4288085770
5.5595398 0.93184304 -1.5632544 4288085770
2.2884216 0.77651072 -1.7307243 4288085770
4.9413452 0.92666984 -1.5826635 4288085770
1.9213257 0.77739859 -1.7399521 4288085770
4.4000549 0.92447901 -1.6039791 4288085770
1.5581665 0.77853632 -1.7452288 4288085770
3.9247437 0.92405534 -1.6250458 4288085770
1.2649231 0.78225183 -1.7583313 4288085770
3.4694214 0.92522812 -1.6443777 4288085770
0.95980835 0.78491259 -1.7642641 4288085770
3.1020508 0.92856216 -1.6687031 4288085770
0.6277771 0.78615689 -1.7618618 4288085770
2.8035583 0.93455839 -1.6978455 4288085770
0.36660767 0.79100513 -1.767333 4288085770
2.4442444 0.93839359 -1.7142696 4288085770
0.13140869 0.79542732 -1.7760592 4288085770
2.1239319 0.94325447 -1.7311344 4288085770
-0.12963867 0.79949808 -1.7754965 4288085770
1.7727661 0.94563174 -1.7385817 4288085770
-0.35876465 0.80433226 -1.777297 4288085770
1.4656067 0.94912815 -1.7475252 4288085770
-0.57791138 0.80942869 -1.7792101 4288085770
1.1793213 0.95409918 -1.7587452 4288085770
-0.76309204 0.81623316 -1.786541 4288085770
0.84631348 0.95635557 -1.7553654 4288085770
-0.94229126 0.82326937 -1.7919416 4288085770
0.59011841 0.96126056 -1.7628908 4288085770
-1.1085205 0.83060884 -1.7984886 4288085770
0.32595825 0.96613908 -1.7653294 4288085770
-1.291626 0.83675933 -1.7978115 4288085770
0.082794189 0.97153306 -1.7690039 4288085770
-1.4487915 0.8444097 -1.8024616 4288085770
-0.15328979 0.97622085 -1.7697248 4288085770
-1.5999451 0.85228968 -1.8051815 4288085770
-0.35946655 0.98258591 -1.773819 4288085770
-1.7461243 0.85929871 -1.8079233 4288085770
-0.56460571 0.98904896 -1.7759256 4288085770
-1.8843079 0.86751962 -1.810791 4288085770
-0.74386597 0.99708247 -1.7813635 4288085770
-2.0254517 0.87577128 -1.810627 4288085770
-0.90808105 1.0054741 -1.7879696 4288085770
-2.1376648 0.88460064 -1.8157873 4288085770
-1.0722656 1.0140114 -1.7905769 4288085770
-2.2538757 0.89436007 -1.8199396 4288085770
-1.2294617 1.0216599 -1.795228 4288085770
-2.3591614 0.90437031 -1.8252182 4288085770
-1.3866577 1.0304534 -1.7959185 4288085770
-2.4613953 0.91446066 -1.8305273 4288085770
-1.5278931 1.0395575 -1.7997875 4288085770
-2.5735474 0.9234724 -1.8306923 4288085770
-1.6451721 1.0501435 -1.8079615 4288085770
-1.788269 1.0583797 -1.8067751 4288085770
-1.9125061 1.0680025 -1.8088379 4288085770
-2.0436401 1.0765522 -1.8077879 4288085770
-2.1598511 1.0864201 -1.8089428 4288085770
-2.263092 1.0975573 -1.8122787 4288085770
-2.3603516 1.1088128 -1.8166828 4288085770
-2.4605408 1.1191032 -1.8180189 4288085770
-2.5538025 1.1305373 -1.8204708 4288085770
-2.6469727 1.141011 -1.8218842 4288085770
-2.6918945 3.4333558 -1.8031321 4288085770
-2.5999146 3.4800425 -1.7977905 4288085770
-2.4548035 3.5556445 -1.8070698 4288085770
-2.348999 3.6076534 -1.8030701 4288085770
-2.2135925 3.6752212 -1.8059483 4288085770
-2.070282 3.7449961 -1.8089914 4288085770
-1.9445801 3.8035269 -1.8054352 4288085770
-1.778595 3.8827844 -1.8120651 4288085770
-1.6242065 3.9529192 -1.8132334 4288085770
-2.6805115 3.3825192 -1.8043661 4288085770
-1.4541016 4.0304308 -1.8158398 4288085770
-2.5341492 3.4471188 -1.8142567 4288085770
-1.2465515 4.1266308 -1.8275242 4288085770
-2.4377747 3.4810348 -1.8054914 4288085770
-1.1342163 4.1662893 -1.8101273 4288085770
-2.3128967 3.5304377 -1.8045959 4288085770
-0.94616699 4.2463078 -1.8120108 4288085770
-2.1820374 3.5799646 -1.8047657 4288085770
-0.7442627 4.3326511 -1.8152704 4288085770
-2.0511169 3.6285274 -1.8039017 4288085770
-0.56192017 4.4047413 -1.8107996 4288085770
-1.9073486 3.6823919 -1.8043661 4288085770
-0.40499878 4.4594197 -1.7984209 4288085770
-1.7634583 3.7333322 -1.802722 4288085770
-0.20080566 4.5380445 -1.7954168 4288085770
-1.606781 3.7894962 -1.8044062 4288085770
0.035888672 4.6323733 -1.7973299 4288085770
-1.4303589 3.8540707 -1.8096056 4288085770
0.25604248 4.7124534 -1.7935448 4288085770
-1.2862549 3.8981605 -1.8037119 4288085770
0.44277954 4.7739863 -1.779727 4288085770
-1.0909424 3.9671926 -1.8102722 4288085770
0.67889404 4.8565226 -1.7751961 4288085770
-0.93490601 4.0135999 -1.8045864 4288085770
0.96435547 4.9621983 -1.7760315 4288085770
-0.75418091 4.0694685 -1.8045092 4288085770
1.2124939 5.044138 -1.769598 4288085770
-0.59008789 4.1141386 -1.7978401 4288085770
1.513031 5.1492853 -1.7685738 4288085770
-0.37765503 4.1807294 -1.8014917 4288085770
1.8018188 5.2442718 -1.7630548 4288085770
-0.20846558 4.2225909 -1.7927809 4288085770
2.1144409 5.3468471 -1.7590609 4288085770
-0.0057067871 4.2791128 -1.7909584 4288085770
2.4439087 5.4538631 -1.7554073 4288085770
0.18435669 4.3254867 -1.7836313 4288085770
2.8001709 5.5695448 -1.7533493 4288085770
0.4079895 4.3855195 -1.7831583 4288085770
3.1566162 5.6793776 -1.7470789 4288085770
0.61590576 4.4362864 -1.7781801 4288085770
3.5289917 5.7915564 -1.743062 4288085770
0.87036133 4.503089 -1.7792778 4288085770
3.8975525 5.8978181 -1.7337856 4288085770
1.075592 4.5449018 -1.7709408 4288085770
4.3068542 6.0161085 -1.7263746 4288085770
1.2868042 4.5869021 -1.7616739 4288085770
4.7270813 6.1356878 -1.7191267 4288085770
1.506073 4.6271534 -1.7514267 4288085770
5.1465759 6.2473559 -1.70858 4288085770
1.7766724 4.6894565 -1.7505293 4288085770
5.6403503 6.3848982 -1.7017555 4288085770
2.071167 4.7563839 -1.7500496 4288085770
6.128418 6.5133271 -1.6935387 4288085770
2.2976379 4.7898641 -1.7386303 4288085770
6.6097412 6.6337295 -1.6809549 4288085770
2.5834351 4.8456755 -1.7346525 4288085770
7.1139832 6.7557678 -1.6676731 4288085770
2.880249 4.9017782 -1.7308006 4288085770
7.6609802 6.8889642 -1.6542435 4288085770
3.1406555 4.9381137 -1.7208414 4288085770
8.2052612 7.0121632 -1.6384211 4288085770
3.4624329 4.9958687 -1.7173119 4288085770
8.7596741 7.1317048 -1.6205683 4288085770
3.7428589 5.0317645 -1.7065449 4288085770
9.4162292 7.2838087 -1.6079769 4288085770
4.0540161 5.0763588 -1.6994219 4288085770
10.036469 7.4121838 -1.5881338 4288085770
4.3673096 5.1170783 -1.6901779 4288085770
10.685638 7.5432806 -1.5696955 4288085770
4.6965942 5.1581836 -1.6821165 4288085770
11.362854 7.6742258 -1.548543 4288085770
5.0259705 5.1953292 -1.6729107 4288085770
12.018494 7.789753 -1.5226002 4288085770
5.3554993 5.2264795 -1.6634903 4288085770
5.6881104 5.255785 -1.6520319 4288085770
6.0456543 5.2876744 -1.6429291 4288085770
6.3943787 5.3123665 -1.6324749 4288085770
6.7264709 5.3257394 -1.6184273 4288085770
7.0824585 5.3416967 -1.6057281 4288085770
7.4543762 5.3590059 -1.5952454 4288085770
7.8443298 5.3767471 -1.585969 4288085770
8.2185364 5.3841534 -1.5741501 4288085770
8.5880432 5.3815107 -1.5599146 4288085770
8.9923706 5.3856726 -1.5492935 4288085770
9.319458 5.3620329 -1.5308447 4288085770
9.6893311 5.3453684 -1.5171022 4288085770
10.065247 5.3259001 -1.5023212 4288085770
10.423492 5.294971 -1.4869375 4288085770
6.6679382 4.1834145 -1.164856 4293729569
6.5480347 4.0485706 -1.1236553 4293729569
6.4707031 3.9276969 -1.0874166 4293729569
6.4698486 3.8256083 -1.0586662 4293729569
6.5344849 3.7400541 -1.036212 4293729569
8.0895996 4.0931354 -0.36589146 4293729569
6.5683594 3.6467278 -1.0121508 4293729569
6.5386353 3.5377746 -0.98585129 4293729569
6.4373169 3.4140167 -0.95626068 4293729569
6.458252 3.3172445 -0.93493938 4293729569
6.4572754 3.2148643 -0.91418552 4293729569
6.4682007 3.1157215 -0.89567757 4293729569
6.5010681 3.0200794 -0.87952709 4293729569
6.5517578 2.9288347 -0.86572838 4293729569
6.6234131 2.8380675 -0.85416698 4293729569
6.6930542 2.7482104 -0.84361839 4293729569
6.791626 2.6610401 -0.83547211 4293729569
6.9389954 2.5790424 -0.83102989 4293729569
7.3374023 2.5322676 -0.84051323 4293729569
7.8385925 2.4930463 -0.8553524 4293729569
8.5312805 2.4705629 -0.88082027 4293729569
9.4604492 2.4669595 -0.91846275 4293729569
10.538452 2.4690518 -0.96388054 4293729569
12.376129 -0.39677668 -1.3192282 4288085770
12.114319 -0.52445221 -1.3348532 4288085770
11.790253 -0.64162445 -1.3462048 4288085770
11.475067 -0.75563574 -1.359766 4288085770
11.143768 -0.86403656 -1.3723612 4288085770
10.823334 -0.96818924 -1.3862238 4288085770
10.518799 -1.0689616 -1.4013805 4288085770
10.219177 -1.1656418 -1.417737 4288085770
9.8923645 -1.2559295 -1.4310379 4288085770
9.530365 -1.337111 -1.4433002 4288085770
9.1732178 -1.4151282 -1.4547281 4288085770
8.8781433 -1.4946575 -1.4707556 4288085770
8.5267944 -1.5635614 -1.4835758 4288085770
8.1532593 -1.6239076 -1.4924707 4288085770
7.7474365 -1.6750326 -1.4993639 4288085770
7.3866882 -1.7270432 -1.5086956 4288085770
7.0047302 -1.7705078 -1.5151157 4288085770
6.6898804 -1.8193874 -1.5270472 4288085770
6.3388062 -1.8591118 -1.5359268 4288085770
6.0076294 -1.8953171 -1.545145 4288085770
12.258179 -2.9680362 -1.3046341 4288085770
5.6994324 -1.9319878 -1.5565891 4288085770
11.580109 -2.9799442 -1.3271046 4288085770
5.3931885 -1.9645743 -1.5672016 4288085770
10.94693 -2.9886379 -1.3491631 4288085770
5.0747986 -1.9914083 -1.5758924 4288085770
10.344757 -2.9954786 -1.3706131 4288085770
4.8044739 -2.0231228 -1.5889158 4288085770
9.7745056 -3.0004816 -1.3924656 4288085770
4.5119629 -2.0443158 -1.5990849 4288085770
9.2111511 -2.9991984 -1.4116163 4288085770
4.24646 -2.0688334 -1.6104174 4288085770
8.7039185 -3.0025096 -1.4331903 4288085770
4.0039673 -2.0948553 -1.6249418 4288085770
8.1753235 -2.9922423 -1.4510317 4288085770
3.7172546 -2.1067901 -1.6325054 4288085770
7.6968994 -2.9866543 -1.4692297 4288085770
3.4685364 -2.1228681 -1.6443214 4288085770
7.2414551 -2.9795022 -1.4887257 4288085770
3.2348938 -2.1405869 -1.6572371 4288085770
6.789856 -2.9671392 -1.5054512 4288085770
3.0031433 -2.1541872 -1.6683226 4288085770
6.4206238 -2.9688239 -1.528533 4288085770
2.7893677 -2.1684194 -1.6825743 4288085770
5.9938965 -2.9507384 -1.543726 4288085770
2.5323486 -2.1695042 -1.6888447 4288085770
5.6384583 -2.9439549 -1.5642605 4288085770
2.3013916 -2.1740127 -1.6982641 4288085770
5.2176208 -2.9175358 -1.574811 4288085770
2.0372314 -2.1671796 -1.7017441 4288085770
4.754364 -2.8740206 -1.5795345 4288085770
1.7960205 -2.1617799 -1.7064142 4288085770
4.4006042 -2.8518724 -1.5916376 4288085770
1.5859375 -2.1617045 -1.7152205 4288085770
4.0809937 -2.8359694 -1.6078739 4288085770
1.3768311 -2.1585674 -1.7231455 4288085770
3.7774048 -2.8196464 -1.6242952 4288085770
1.1565857 -2.1506176 -1.7281294 4288085770
3.4324036 -2.787127 -1.632863 4288085770
0.95941162 -2.1462049 -1.7372293 4288085770
3.1497803 -2.7691808 -1.647562 4288085770
0.75411987 -2.1358252 -1.7414551 4288085770
2.8670044 -2.7462049 -1.6614418 4288085770
0.55886841 -2.1262541 -1.7477589 4288085770
2.5791931 -2.7192168 -1.6714096 4288085770
0.37963867 -2.1193337 -1.7561369 4288085770
2.262085 -2.678822 -1.6765518 4288085770
0.16308594 -2.097074 -1.7556734 4288085770
1.9861145 -2.646452 -1.6848392 4288085770
-0.032348633 -2.0803657 -1.7582312 4288085770
1.7263184 -2.6176929 -1.6941643 4288085770
-0.18457031 -2.0738087 -1.7688818 4288085770
1.4814453 -2.588541 -1.7036619 4288085770
-0.36804199 -2.0547142 -1.7696514 4288085770
1.2466431 -2.5601263 -1.7132368 4288085770
-0.4961853 -2.0526671 -1.7843933 4288085770
1.0167236 -2.5295444 -1.7219439 4288085770
-0.66363525 -2.0342231 -1.7873077 4288085770
0.7928772 -2.498734 -1.7287197 4288085770
-0.81503296 -2.0195012 -1.7942591 4288085770
0.58206177 -2.4696498 -1.7375708 4288085770
-0.95843506 -2.0065689 -1.8012304 4288085770
0.38122559 -2.4413404 -1.7474995 4288085770
-1.1159363 -1.9858665 -1.8043327 4288085770
0.17132568 -2.4070902 -1.7525425 4288085770
-1.2563477 -1.9687839 -1.8094826 4288085770
-0.02053833 -2.3764734 -1.7606487 4288085770
-1.3887939 -1.9525285 -1.8156881 4288085770
-0.20236206 -2.3455567 -1.767868 4288085770
-1.5444641 -1.9256339 -1.815032 4288085770
-0.37414551 -2.3174114 -1.7760954 4288085770
-1.665863 -1.9101233 -1.8223267 4288085770
-0.52178955 -2.295774 -1.7883406 4288085770
-1.7771912 -1.8973851 -1.8306274 4288085770
-0.69873047 -2.2605858 -1.7917652 4288085770
-1.8926392 -1.880682 -1.8370285 4288085770
-0.86660767 -2.2271948 -1.7962208 4288085770
-2.0262451 -1.8552437 -1.8375511 4288085770
-1.0194092 -2.1965151 -1.8037357 4288085770
-2.1568909 -1.8297276 -1.8381081 4288085770
-1.1914368 -2.1570539 -1.8033648 4288085770
-2.2794495 -1.8049974 -1.8387194 4288085770
-1.3352051 -2.1260648 -1.8089848 4288085770
-2.3889771 -1.7830334 -1.842371 4288085770
-1.4679871 -2.0978217 -1.8156233 4288085770
-2.5005493 -1.7600508 -1.8440371 4288085770
-1.6047668 -2.0666504 -1.8213243 4288085770
-1.7315674 -2.0372148 -1.8270674 4288085770
-1.8512573 -2.0095921 -1.832819 4288085770
-1.9750671 -1.9780397 -1.8376684 4288085770
-2.1100159 -1.9405689 -1.8366146 4288085770
-2.2297974 -1.9078426 -1.8395462 4288085770
-2.3556824 -1.8711314 -1.8385563 4288085770
-2.4725037 -1.8361821 -1.8375988 4288085770
-2.5682373 -1.8089294 -1.8435907 4288085770
-2.6220093 0.35496283 -1.8263083 4288085770
-2.5272522 0.36962605 -1.8228636 4288085770
-2.4233704 0.38353133 -1.8194847 4288085770
-2.3065796 0.39766479 -1.8192577 4288085770
-2.1987305 0.412745 -1.8139648 4288085770
-2.0819092 0.42802429 -1.8097773 4288085770
-1.9550781 0.44249654 -1.8076677 4288085770
-1.8113098 0.45734143 -1.8077583 4288085770
-1.6914368 0.47184658 -1.7995729 4288085770
-2.5312195 0.47620201 -1.833746 4288085770
-1.5336304 0.48709702 -1.7988281 4288085770
-2.4313354 0.48914552 -1.8262901 4288085770
-1.395752 0.50203729 -1.7918539 4288085770
-2.3293762 0.50114226 -1.8188219 4288085770
-1.2339172 0.51546645 -1.7890873 4288085770
-2.1955566 0.51369023 -1.8197222 4288085770
-1.0661011 0.53108764 -1.7854624 4288085770
-2.054718 0.52645946 -1.819706 4288085770
-0.88522339 0.54705215 -1.7819891 4288085770
-1.9487305 0.53870749 -1.8082876 4288085770
-0.70339966 0.562114 -1.7764969 4288085770
-1.7998962 0.55168486 -1.8083668 4288085770
-0.50256348 0.57760596 -1.7732239 4288085770
-1.6529846 0.56375861 -1.804388 4288085770
-0.27178955 0.59480906 -1.7723379 4288085770
-1.5100403 0.57583356 -1.7973661 4288085770
-0.036956787 0.61115837 -1.7704639 4288085770
-1.3441162 0.5883708 -1.79461 4288085770
0.22583008 0.62820506 -1.7699184 4288085770
-1.1652527 0.6012125 -1.7930069 4288085770
0.46969604 0.64497089 -1.763155 4288085770
-0.96939087 0.61446285 -1.7926025 4288085770
0.7723999 0.66406822 -1.7631149 4288085770
-0.7795105 0.62770295 -1.7881308 4288085770
1.1211243 0.68319702 -1.7685757 4288085770
-0.59054565 0.64002633 -1.7806149 4288085770
1.3651428 0.6993978 -1.7497883 4288085770
-0.37063599 0.65298152 -1.7784595 4288085770
1.6680603 0.71693349 -1.7376881 4288085770
-0.15963745 0.66492033 -1.7701674 4288085770
2.0299072 0.73583889 -1.7312765 4288085770
0.097259521 0.67781496 -1.7694101 4288085770
2.3978577 0.75404787 -1.7209034 4288085770
0.381073 0.69238067 -1.7700062 4288085770
2.7548218 0.77322054 -1.7034445 4288085770
0.61517334 0.70410633 -1.7569532 4288085770
3.0520325 0.78825235 -1.6731834 4288085770
0.97695923 0.71943521 -1.7664232 4288085770
3.4081726 0.80472851 -1.6466141 4288085770
1.2679443 0.73258686 -1.7560387 4288085770
3.847168 0.82420301 -1.6260509 4293729569
1.5720215 0.74408102 -1.7457371 4288085770
4.3172607 0.84356618 -1.6038179 4288085770
1.9180298 0.75764251 -1.7369652 4288085770
4.8562927 0.86474609 -1.5823956 4288085770
2.2930603 0.77100587 -1.7274971 4288085770
5.4833069 0.88820028 -1.5630083 4288085770
2.6622009 0.783391 -1.7129288 4288085770
6.1354065 0.91049647 -1.538846 4288085770
2.9745789 0.79179001 -1.6835947 4288085770
6.918396 0.93723464 -1.5162621 4288085770
3.3288879 0.8022182 -1.6567888 4288085770
7.8174133 0.96609688 -1.4930048 4288085770
3.7551575 0.81239772 -1.6347551 4288085770
8.7694702 0.99556923 -1.4643431 4288085770
4.240387 0.82405424 -1.6154146 4288085770
9.7517395 1.0243056 -1.4229736 4288085770
4.7477417 0.83550858 -1.5903015 4288085770
10.870026 1.0548363 -1.3771372 4288085770
5.3639832 0.84764934 -1.5713959 4288085770
12.176422 1.0884571 -1.3294439 4288085770
6.0053406 0.86062908 -1.5477896 4288085770
6.7626648 0.87366152 -1.5254393 4288085770
7.6480103 0.88898706 -1.5065594 4288085770
8.5485229 0.90114737 -1.4757223 4288085770
9.5401611 0.91395545 -1.4388924 4288085770
10.619995 0.92437172 -1.394927 4288085770
11.88382 0.93677258 -1.3490219 4288085770
7.761261 -4.9853835 -0.60706234 4293729569
7.737793 -4.8683953 -0.64907169 4293729569
7.8111572 -4.7829547 -0.69402981 4293729569
12.352997 -5.8683019 -1.021059 4293729569
11.912323 -5.5896668 -1.0452175 4293729569
11.533356 -5.3363643 -1.0681515 4293729569
11.205933 -5.1036992 -1.0909166 4293729569
10.881714 -4.8758416 -1.1105404 4293729569
10.538483 -4.6473413 -1.1259689 4293729569
10.2659 -4.4419742 -1.1413555 4293729569
10.034729 -4.2515111 -1.1566658 4293729569
9.8619995 -4.0775771 -1.1740351 4293729569
9.9449768 -3.9713902 -1.2058411 4293729569
10.443359 -3.9610562 -1.2618628 4293729569
10.966675 -3.9501376 -1.3201895 4288085770
10.904633 -3.800281 -1.3379326 4288085770
10.774261 -3.6359792 -1.348423 4288085770
10.633972 -3.4748673 -1.3566866 4288085770
10.488708 -3.3128142 -1.3629246 4288085770
10.39975 -3.1623116 -1.3703794 4288085770
10.281738 -3.0084672 -1.3746233 4288085770
10.253143 -2.8724055 -1.383235 4288085770
10.200531 -2.7338719 -1.3886623 4288085770
10.238373 -2.6120934 -1.3985033 4288085770
10.256073 -2.4857383 -1.4052811 4288085770
10.260742 -2.3556585 -1.4100447 4288085770
10.248383 -2.2249537 -1.4126368 4288085770
10.252075 -2.0957541 -1.4133549 4288085770
10.204651 -1.9597263 -1.408741 4288085770
10.255554 -1.8373194 -1.4107418 4288085770
10.305481 -1.7148666 -1.4107332 4288085770
10.371399 -1.5929561 -1.4098845 4288085770
10.430359 -1.4691591 -1.4070225 4288085770
10.498291 -1.3450899 -1.4032717 4288085770
10.583344 -1.2245684 -1.3995838 4288085770
10.673309 -1.1018481 -1.3940315 4288085770
10.805389 -0.98208618 -1.3908443 4288085770
10.92337 -0.85855865 -1.3836336 4288085770
11.089478 -0.73679638 -1.3778992 4288085770
11.229431 -0.61061764 -1.36903 4288085770
11.361389 -0.48357916 -1.358098 4288085770
11.556366 -0.35691547 -1.3488626 4288085770
11.845367 -0.23084688 -1.3426647 4288085770
12.054291 -0.10071278 -1.3307114 4288085770
12.360168 0.0309062 -1.3219023 4288085770
11.341583 0.99070954 -1.3671436 4288085770
10.281281 1.0047317 -1.4123354 4288085770
9.3031616 1.0181313 -1.4524546 4288085770
8.3851624 1.0294349 -1.4841938 4288085770
7.4993896 1.0389385 -1.5062342 4288085770
6.7276306 1.0495198 -1.5276413 4288085770
6.0379944 1.0593731 -1.5469742 4288085770
12.315643 1.4369442 -1.3184662 4288085770
5.4591675 1.0730441 -1.5707397 4288085770
11.143677 1.4369528 -1.3638477 4288085770
4.8815002 1.0849898 -1.58745 4288085770
10.096771 1.4384372 -1.4057331 4288085770
4.3878784 1.0971544 -1.6051474 4288085770
9.2069092 1.4432707 -1.4435673 4288085770
3.9382324 1.1114783 -1.6234312 4293729569
8.3612061 1.4465172 -1.4748516 4288085770
3.5245972 1.1248209 -1.6401014 4288085770
7.5795593 1.4496641 -1.5008745 4288085770
3.1459656 1.139158 -1.6552134 4288085770
6.8690186 1.4538267 -1.5237589 4288085770
2.8721008 1.1588714 -1.6827459 4288085770
6.2124939 1.4575195 -1.5442533 4288085770
2.5614624 1.1749666 -1.6997118 4288085770
5.6489258 1.4646966 -1.5649567 4288085770
2.2389832 1.1879597 -1.7104244 4288085770
5.1642761 1.4759219 -1.5877247 4288085770
1.9783325 1.205339 -1.7290182 4288085770
4.6508484 1.4816694 -1.6019545 4288085770
1.7067871 1.2196751 -1.7403736 4288085770
4.2083435 1.4902899 -1.6171131 4288085770
1.4293823 1.2319996 -1.7475834 4288085770
3.7779236 1.4983311 -1.6293907 4293729569
1.1958313 1.2483375 -1.7594509 4288085770
3.370575 1.5050862 -1.6388884 4293729569
0.87380981 1.2530115 -1.7508564 4288085770
3.0579529 1.5190947 -1.6567554 4288085770
0.67422485 1.2702482 -1.7631493 4288085770
2.7653198 1.5346291 -1.6749086 4288085770
0.45089722 1.2821736 -1.7659721 4288085770
2.4788208 1.5475025 -1.6880341 4288085770
0.24151611 1.2954311 -1.7700052 4288085770
2.2052917 1.5617177 -1.7013588 4288085770
0.046173096 1.3090596 -1.7742138 4288085770
1.9637146 1.5767391 -1.7160873 4288085770
-0.15612793 1.320611 -1.7752647 4288085770
1.7171936 1.5907724 -1.7267189 4288085770
-0.34936523 1.3314342 -1.7753954 4288085770
1.4628601 1.6017396 -1.7331457 4288085770
-0.50378418 1.346108 -1.7811193 4288085770
1.2175598 1.6130149 -1.7376862 4288085770
-0.65817261 1.3608148 -1.7858438 4288085770
0.95935059 1.6201267 -1.7369251 4288085770
-0.81549072 1.3745534 -1.7874956 4288085770
0.75299072 1.6334219 -1.7429934 4288085770
-0.95581055 1.3887317 -1.7903614 4288085770
0.56759644 1.6472096 -1.7503166 4288085770
-1.083252 1.4041159 -1.7964201 4288085770
0.38815308 1.6621504 -1.7577505 4288085770
-1.2245178 1.4173818 -1.7952347 4288085770
0.20584106 1.6741929 -1.760046 4288085770
-1.356781 1.4298146 -1.7961264 4288085770
0.040435791 1.6885767 -1.7656221 4288085770
-1.4920044 1.4423087 -1.792984 4288085770
-0.13287354 1.7008924 -1.7670307 4288085770
-1.5914612 1.4594312 -1.7994299 4288085770
-0.29220581 1.7145417 -1.7696495 4288085770
-1.718689 1.4721372 -1.7963858 4288085770
-0.44152832 1.7284539 -1.7723951 4288085770
-1.8309326 1.4851692 -1.7955313 4288085770
-0.58682251 1.7415407 -1.7731581 4288085770
-1.9402161 1.4982777 -1.7947159 4288085770
-0.73013306 1.7546835 -1.7739449 4288085770
-2.0256348 1.5158758 -1.7983389 4288085770
-0.83566284 1.773608 -1.7813845 4288085770
-2.1140137 1.5324275 -1.8008919 4288085770
-0.94116211 1.7925727 -1.7878227 4288085770
-2.201355 1.5480468 -1.8024216 4288085770
-1.0495605 1.8095629 -1.7911568 4288085770
-2.2837219 1.5637946 -1.8040142 4288085770
-1.1698608 1.8233466 -1.791235 4288085770
-2.3561401 1.5817342 -1.8078012 4288085770
-1.2831726 1.8383482 -1.7904358 4288085770
-2.4285583 1.5997086 -1.8105907 4288085770
-1.385498 1.8535719 -1.7917757 4288085770
-2.4989624 1.6177733 -1.8124046 4288085770
-1.4957886 1.8676858 -1.7899818 4288085770
-2.5742493 1.6327775 -1.8120508 4288085770
-1.5812073 1.8863196 -1.7926397 4288085770
-2.6445923 1.6498778 -1.8128309 4288085770
-1.6725464 1.9028659 -1.7931547 4288085770
-1.7589417 1.9195411 -1.7937317 4288085770
-1.8433228 1.9373074 -1.7933693 4288085770
-1.9315796 1.9520397 -1.7908535 4288085770
-1.9981079 1.9731696 -1.7938223 4288085770
-2.062561 1.9933524 -1.7967815 4288085770
-2.1398926 2.0103755 -1.7944727 4288085770
-2.208252 2.0285962 -1.793313 4288085770
-2.2578735 2.053138 -1.7976007 4288085770
-2.3192749 2.0725076 -1.7975636 4288085770
-2.3628845 2.0972407 -1.8009281 4288085770
-2.4153442 2.1188126 -1.8020735 4288085770
-2.4529724 2.1446681 -1.8065462 4288085770
-2.5004883 2.1674044 -1.8067923 4288085770
-2.5450134 2.1902189 -1.8070755 4288085770
-2.5786133 2.2162173 -1.8105984 4288085770
-2.6152039 2.2412043 -1.8120527 4288085770
-2.6566772 2.264137 -1.8113728 4288085770
-2.6863403 2.2922728 -1.8140202 4288085770
-2.7188416 3.4447401 -1.8042173 4288085770
-2.6762085 3.5019171 -1.8047314 4288085770
-2.6266785 3.5632749 -1.8054733 4288085770
-2.5801697 3.6235878 -1.8051453 4288085770
-2.5256958 3.6871104 -1.8050213 4288085770
-2.4761047 3.7475746 -1.8027296 4288085770
-2.3931885 3.8295979 -1.8105974 4288085770
-2.2740173 3.9342945 -1.8276987 4288085770
-2.2086792 4.0031738 -1.8258896 4288085770
-2.1373901 4.0762081 -1.824297 4288085770
-2.033783 4.1688461 -1.830781 4288085770
-1.9438782 4.2532997 -1.8318119 4288085770
-1.8646851 4.3296471 -1.8274279 4288085770
-1.7667847 4.4163461 -1.82763 4288085770
-1.6591187 4.5103006 -1.8282032 4288085770
-1.5415649 4.6094804 -1.8300781 4288085770
-2.688446 3.907186 -1.8258286 4288085770
-1.4612122 4.6830683 -1.8196039 4288085770
-2.5649719 4.005136 -1.8387365 4288085770
-1.3553162 4.7721887 -1.8139811 4288085770
-2.4816895 4.0755248 -1.8361912 4288085770
-1.2209778 4.87888 -1.8143167 4288085770
-2.3786316 4.156291 -1.8382444 4288085770
-1.0973511 4.9774652 -1.8092375 4288085770
-2.2736511 4.2381449 -1.8393612 4288085770
-0.92175293 5.1110635 -1.8160105 4288085770
-2.166626 4.3201203 -1.8385029 4288085770
-0.77352905 5.2242622 -1.8127346 4288085770
-2.039978 4.4144692 -1.8423157 4288085770
-0.59777832 5.3550749 -1.8134079 4288085770
-1.920166 4.5027819 -1.8418322 4288085770
-0.40631104 5.4952307 -1.816596 4288085770
-1.8364563 4.5634995 -1.8299437 4288085770
-0.20004272 5.6438136 -1.8192539 4288085770
-1.6861267 4.6694365 -1.8354425 4288085770
0.020965576 5.8007441 -1.8233814 4288085770
-1.5768433 4.7447553 -1.8263712 4288085770
0.26364136 5.9702482 -1.828207 4288085770
-1.4488525 4.8314934 -1.8199234 4288085770
0.51229858 6.1420102 -1.8301802 4288085770
-1.2875061 4.9388628 -1.8216 4288085770
0.77383423 6.3201499 -1.8315277 4288085770
-1.1260986 5.0443072 -1.821209 4288085770
1.0697632 6.5190868 -1.8370152 4288085770
-0.96661377 5.1478014 -1.8177242 4288085770
1.3677979 6.7162199 -1.8384628 4288085770
-0.78640747 5.2617741 -1.8168545 4288085770
1.7012024 6.9352121 -1.8430986 4288085770
-0.59146118 5.3830619 -1.8184175 4288085770
2.0474854 7.1606107 -1.8461094 4288085770
-0.37680054 5.5168347 -1.8216524 4288085770
2.4165039 7.3967128 -1.8467636 4288085770
-0.14337158 5.6590996 -1.825407 4288085770
2.8180847 7.6506376 -1.8494282 4288085770
0.088165283 5.7984223 -1.8260336 4288085770
3.1972351 7.8852158 -1.8441439 4288085770
0.35122681 5.9554653 -1.8306589 4288085770
3.6707764 8.1790667 -1.8480625 4288085770
0.60848999 6.1044984 -1.8309307 4288085770
4.1229248 8.4526711 -1.8420105 4288085770
0.89825439 6.2722802 -1.8352499 4288085770
1.1832886 6.4320822 -1.8352261 4288085770
1.4870911 6.6013737 -1.8357573 4288085770
1.8233948 6.7875233 -1.8372679 4288085770
2.1451721 6.9593925 -1.8351011 4288085770
2.4994507 7.1481209 -1.8339119 4288085770
2.8824158 7.3496017 -1.8335094 4288085770
3.3078003 7.5731277 -1.8363848 4288085770
3.712738 7.7773647 -1.8313351 4288085770
4.118927 7.9757376 -1.8230906 4288085770
4.5822144 8.2044754 -1.8205929 4288085770
5.0339966 8.4191561 -1.8104582 4288085770
5.5144958 8.6445942 -1.8010406 4293729569
9.7466736 2.6842258 -0.33660126 4293729569
12.084198 0.41984153 -1.3437185 4288085770
11.379852 0.30323553 -1.3602915 4288085770
10.797394 0.19164181 -1.3844891 4288085770
10.248718 0.088008404 -1.4073668 4288085770
9.7098389 -0.0072979927 -1.4286518 4288085770
9.191925 -0.098053455 -1.4503431 4288085770
8.7026978 -0.17994595 -1.4696875 4288085770
8.2234497 -0.25857639 -1.4892626 4288085770
7.6789856 -0.32662201 -1.4994316 4288085770
7.1894531 -0.3913188 -1.5133715 4288085770
6.7498169 -0.45169878 -1.5280523 4288085770
6.3000488 -0.50624275 -1.5398169 4288085770
5.8981934 -0.55755663 -1.5532656 4288085770
12.090363 -1.007678 -1.3516893 4288085770
5.4952393 -0.60486555 -1.5658388 4288085770
11.229004 -1.0527358 -1.3769217 4288085770
5.1251526 -0.64830685 -1.5789404 4288085770
10.526703 -1.1007257 -1.4079399 4288085770
4.8020935 -0.6926055 -1.5955687 4288085770
9.8913269 -1.1459088 -1.4388485 4288085770
4.5229797 -0.7358489 -1.6157589 4288085770
9.2488098 -1.1821127 -1.4649849 4288085770
4.2418518 -0.77711153 -1.6349945 4288085770
8.6131592 -1.2119951 -1.487422 4288085770
3.9736023 -0.81503391 -1.6545 4288085770
7.9613037 -1.2311039 -1.5040407 4288085770
3.7113037 -0.84972858 -1.6721859 4288085770
7.3313904 -1.24546 -1.5160837 4288085770
3.4669495 -0.88298702 -1.6911383 4288085770
6.7764587 -1.2619686 -1.5329437 4288085770
3.2426147 -0.91678238 -1.7123089 4288085770
6.2395325 -1.2739 -1.5471725 4288085770
3.0211792 -0.94643497 -1.7316589 4288085770
5.7585449 -1.2853532 -1.5620852 4288085770
2.7706604 -0.97068357 -1.7458506 4288085770
5.3005371 -1.2951622 -1.5763245 4288085770
2.4579468 -0.98319721 -1.7487078 4288085770
4.916626 -1.3091841 -1.5962982 4288085770
2.2453613 -1.0055127 -1.7654181 4288085770
4.5667114 -1.3233428 -1.6176701 4288085770
2.0367432 -1.0266895 -1.7812157 4288085770
4.2297058 -1.3350906 -1.6372814 4288085770
1.815033 -1.0420742 -1.7930565 4288085770
3.921814 -1.3481359 -1.6591902 4288085770
1.6183167 -1.0589032 -1.8081474 4282675967
3.612793 -1.3560419 -1.6762648 4288085770
1.4546204 -1.0779948 -1.8275509 4282675967
3.3327637 -1.3652825 -1.6966372 4288085770
1.2648621 -1.0926037 -1.8418007 4282675967
3.0948181 -1.3785477 -1.7213707 4288085770
0.69418335 -1.0386381 -1.7768869 4288085770
2.8337402 -1.3842559 -1.7410908 4288085770
0.4281311 -1.0325422 -1.7699423 4288085770
2.4763794 -1.3718886 -1.7422915 4288085770
0.23516846 -1.035964 -1.7765417 4288085770
2.2151794 -1.3713918 -1.7562237 4288085770
0.04019165 -1.0373664 -1.7811852 4288085770
1.9770203 -1.372355 -1.7723799 4288085770
-0.14883423 -1.0375805 -1.7849417 4288085770
1.7438049 -1.3711519 -1.7876701 4288085770
-0.32583618 -1.0375085 -1.7898493 4288085770
1.5437012 -1.3741765 -1.8062057 4288085770
-0.50488281 -1.0354233 -1.7928028 4288085770
1.3235168 -1.3705621 -1.8197317 4282675967
-0.67092896 -1.0340629 -1.7978859 4288085770
0.91363525 -1.3266239 -1.7933989 4288085770
-0.8480835 -1.0278258 -1.798008 4288085770
0.52572632 -1.283103 -1.7673111 4288085770
-0.98809814 -1.0278807 -1.8063507 4288085770
0.31942749 -1.2739143 -1.7751951 4288085770
-1.1522217 -1.0202985 -1.8066711 4288085770
0.08895874 -1.2560883 -1.7750893 4288085770
-1.2853088 -1.0191016 -1.8131418 4288085770
-0.10333252 -1.24546 -1.7811871 4288085770
-1.4344482 -1.0111589 -1.8146534 4288085770
-0.28765869 -1.2336221 -1.7874212 4288085770
-1.5706177 -1.0049405 -1.8182611 4288085770
-0.47506714 -1.218761 -1.7907238 4288085770
-1.7187805 -0.99486732 -1.8168554 4288085770
-0.66247559 -1.2028656 -1.7930622 4288085770
-1.8469543 -0.98743773 -1.8205996 4288085770
-0.82785034 -1.1894908 -1.7985744 4288085770
-1.9690857 -0.98084879 -1.8243847 4288085770
-0.99624634 -1.1740942 -1.8011217 4288085770
-2.0903015 -0.97220182 -1.8272533 4288085770
-1.1455383 -1.1612945 -1.8068027 4288085770
-2.2104797 -0.96349096 -1.8291349 4288085770
-1.2929688 -1.1474109 -1.8115473 4288085770
-2.3076172 -0.9583807 -1.8371687 4288085770
-1.4493103 -1.1306252 -1.8122816 4288085770
-2.4268494 -0.94654131 -1.8361692 4288085770
-1.5917358 -1.1145411 -1.8151598 4288085770
-2.5350952 -0.93651724 -1.8382387 4288085770
-1.7321472 -1.0973692 -1.8170986 4288085770
-1.864502 -1.0809836 -1.8191032 4288085770
-1.9969482 -1.0635657 -1.8201456 4288085770
-2.1102905 -1.0497813 -1.8252888 4288085770
-2.2166443 -1.0368447 -1.8314848 4288085770
-2.3260193 -1.0219202 -1.8357143 4288085770
-2.4394226 -1.0039997 -1.836997 4288085770
-2.5397949 -0.98883867 -1.841342 4288085770
-2.6308899 0.91051769 -1.824008 4288085770
-2.5181274 0.92552948 -1.8248539 4288085770
-2.4152832 0.93848753 -1.8195076 4288085770
-2.3034058 0.95264864 -1.8153086 4288085770
-2.1816101 0.96697021 -1.8142347 4288085770
-2.0617065 0.9803443 -1.8101025 4288085770
-1.9407959 0.99381447 -1.8039846 4288085770
-1.8020325 1.0086193 -1.8021288 4288085770
-2.5987854 0.94342422 -1.8224907 4288085770
-1.6462402 1.0248044 -1.8025198 4288085770
-2.4819336 0.95458198 -1.8222494 4288085770
-1.497406 1.0399449 -1.79879 4288085770
-2.36203 0.96588778 -1.8200474 4288085770
-1.3375549 1.0543439 -1.7961645 4288085770
-2.2569885 0.97500682 -1.8115892 4288085770
-1.1578064 1.0711651 -1.7968597 4288085770
-2.118103 0.98671269 -1.8126259 4288085770
-0.99591064 1.0847547 -1.7902288 4288085770
-1.985199 0.99736381 -1.8105545 4288085770
-0.81997681 1.0986817 -1.7847729 4288085770
-1.8522339 1.0070851 -1.8064489 4288085770
-0.62017822 1.1151383 -1.7826891 4288085770
-1.6903687 1.0193646 -1.8087769 4288085770
-0.40438843 1.1319828 -1.7818069 4288085770
-1.5364075 1.0296071 -1.8059378 4288085770
-0.18453979 1.1480384 -1.7779455 4288085770
-1.3694458 1.040204 -1.804266 4288085770
0.035339355 1.1632085 -1.7720499 4288085770
-1.2025146 1.0507917 -1.8015871 4288085770
0.29910278 1.1813254 -1.7717714 4288085770
-1.0394592 1.0594134 -1.7947912 4288085770
0.54504395 1.1961761 -1.7651653 4288085770
-0.87634277 1.0660727 -1.7869282 4288085770
0.79995728 1.2113328 -1.7566757 4288085770
-0.67245483 1.0775688 -1.7867174 4288085770
1.1396179 1.2333212 -1.7614269 4288085770
-0.47537231 1.0860569 -1.7813168 4288085770
1.4176636 1.2471945 -1.7501602 4288085770
-0.2225647 1.0986767 -1.7867231 4288085770
1.7445374 1.2642574 -1.7425823 4288085770
-0.015411377 1.1055374 -1.7783833 4288085770
2.0326843 1.2756059 -1.7253428 4288085770
0.2355957 1.1153517 -1.7766628 4288085770
2.3348999 1.2873945 -1.7062807 4288085770
0.45678711 1.1206865 -1.7654333 4288085770
2.6900024 1.3014488 -1.6919222 4288085770
0.71392822 1.1278372 -1.7586899 4288085770
2.9953918 1.3085647 -1.6657295 4288085770
1.0447998 1.1405594 -1.7640152 4288085770
3.3765564 1.3214803 -1.6466351 4288085770
1.3330078 1.1466012 -1.7555971 4288085770
3.8326721 1.3372786 -1.6315231 4288085770
1.6322021 1.1519358 -1.747283 4288085770
4.3417358 1.3544779 -1.6170816 4288085770
1.9534912 1.1569214 -1.737215 4288085770
4.8718872 1.370306 -1.6008387 4288085770
2.2479248 1.1574404 -1.7196712 4288085770
5.4381104 1.385227 -1.5809851 4288085770
2.5833435 1.1589742 -1.7046452 4288085770
6.0344238 1.4001179 -1.5564795 4288085770
2.908905 1.1584206 -1.6844254 4288085770
6.7485657 1.4189918 -1.5375013 4288085770
3.2235718 1.1537166 -1.6599331 4288085770
7.5357971 1.4379056 -1.5163794 4288085770
3.6500244 1.1546979 -1.6449556 4288085770
8.3322754 1.4524086 -1.4852057 4288085770
4.0667419 1.1506267 -1.6236839 4288085770
9.2537231 1.4702575 -1.4546146 4288085770
4.5643005 1.149529 -1.6084671 4288085770
10.161499 1.4801233 -1.4125786 4288085770
5.085968 1.1461701 -1.5904551 4288085770
11.289124 1.4977789 -1.3743944 4288085770
5.6467285 1.1409519 -1.5698338 4288085770
6.2685547 1.1353879 -1.5489168 4288085770
6.9793701 1.1291449 -1.5300236 4288085770
7.7573242 1.1207519 -1.50984 4288085770
8.6203918 1.1097512 -1.4865646 4288085770
9.4807739 1.0930243 -1.4530497 4288085770
10.416351 1.0704632 -1.4152117 4288085770
11.492065 1.0466857 -1.3769741 4288085770
1.4578552 -5.2037015 -0.43066216 4293729569
1.4563293 -5.1643615 -0.47902966 4293729569
0.65402222 -4.6367354 -0.48687744 4293729569
0.60586548 -4.5703301 -0.52662849 4293729569
0.60540771 -4.5297236 -0.56804657 4293729569
0.59631348 -4.4405913 -0.64705563 4293729569
0.58255005 -4.3882051 -0.6847229 4293729569
0.57992554 -4.3405175 -0.72235584 4293729569
0.78231812 -4.4089513 -0.775383 4293729569
0.82330322 -4.3842053 -0.81573391 4293729569
1.1755676 -4.530189 -0.88384247 4293729569
1.8592834 -4.8535676 -0.98571587 4293729569
4.4275208 -6.198648 -1.2774277 4293729569
4.1300354 -5.9609733 -1.2931595 4293729569
3.8670349 -5.7434468 -1.3106003 4293729569
3.6305237 -5.5421472 -1.3257895 4293729569
3.4519043 -5.3734422 -1.3445282 4293729569
3.2672119 -5.2027926 -1.3602629 4293729569
3.1069031 -5.0465293 -1.3767862 4293729569
7.7228088 -7.1824632 -1.1176796 4293729569
2.9386292 -4.8873076 -1.3883133 4293729569
7.4308777 -6.9329848 -1.1438866 4293729569
2.8057556 -4.7462773 -1.4036293 4293729569
7.1552734 -6.6930041 -1.1679544 4293729569
2.6972656 -4.6186337 -1.4197674 4293729569
6.846344 -6.4427037 -1.1859884 4293729569
2.5705872 -4.4833026 -1.4309559 4293729569
6.5759888 -6.2104106 -1.2048483 4293729569
2.4672852 -4.3603835 -1.4429884 4293729569
6.3482666 -6.001946 -1.2223835 4293729569
2.368988 -4.2393298 -1.4550142 4293729569
6.1267395 -5.7992482 -1.2377892 4293729569
2.2566528 -4.1145148 -1.463006 4293729569
5.9346619 -5.6127667 -1.2529783 4293729569
2.1706848 -4.0020308 -1.4718761 4293729569
5.708313 -5.4150252 -1.263155 4293729569
2.2130432 -3.9477439 -1.4982471 4293729569
5.5113831 -5.2314668 -1.2721834 4293729569
2.3462524 -3.9304461 -1.5364065 4293729569
5.3832703 -5.0792117 -1.284936 4293729569
2.5603027 -3.9464049 -1.5863647 4293729569
5.2501526 -4.9270539 -1.2966242 4293729569
2.7671814 -3.9554448 -1.6344757 4288085770
5.1362915 -4.7843099 -1.3072138 4293729569
2.7518616 -3.8702512 -1.6482334 4288085770
5.0174561 -4.6397052 -1.3168106 4293729569
2.6698914 -3.7574573 -1.6511612 4288085770
4.9269714 -4.5103126 -1.3252134 4293729569
2.6556396 -3.6731658 -1.6628971 4288085770
4.8556824 -4.3874764 -1.3356123 4293729569
2.5798645 -3.5641041 -1.6627636 4288085770
4.7764282 -4.2637477 -1.342947 4293729569
2.4890137 -3.4513416 -1.6595821 4288085770
4.7314758 -4.1531425 -1.3512297 4293729569
2.4455566 -3.3575201 -1.662302 4288085770
4.6886292 -4.0444474 -1.35847 4293729569
2.4011841 -3.2636905 -1.6640091 4288085770
4.7254639 -3.9649024 -1.3736343 4293729569
2.3729248 -3.1754656 -1.6667118 4288085770
4.9246216 -3.9395509 -1.4038286 4293729569
2.3568115 -3.0939512 -1.6703243 4288085770
5.1872559 -3.9347129 -1.4400549 4293729569
2.3266296 -3.0067101 -1.670969 4288085770
5.5384827 -3.9527612 -1.4835243 4293729569
2.3075256 -2.9231715 -1.6716127 4288085770
5.7626038 -3.9257455 -1.5140619 4288085770
2.3106689 -2.8491111 -1.6741905 4288085770
5.776123 -3.8294482 -1.5185242 4288085770
2.3328857 -2.7796111 -1.678833 4288085770
5.7543945 -3.7229867 -1.5199251 4288085770
2.3339539 -2.7035713 -1.6804552 4288085770
5.7921143 -3.6330466 -1.5244474 4288085770
2.3572388 -2.633975 -1.6831112 4288085770
5.8056641 -3.5366478 -1.5259104 4288085770
2.3764343 -2.5634537 -1.6847515 4288085770
5.8434143 -3.4476705 -1.529398 4288085770
2.4198608 -2.4993548 -1.6884518 4288085770
5.8871765 -3.359467 -1.5309277 4288085770
2.4431458 -2.4296908 -1.6891079 4288085770
5.9189148 -3.2674828 -1.5294476 4288085770
2.4946289 -2.3673458 -1.6918411 4288085770
5.9627075 -3.1792092 -1.5289764 4288085770
2.5269775 -2.2993712 -1.6905413 4288085770
6.0346985 -3.0962229 -1.5296507 4288085770
2.5783997 -2.235992 -1.6923084 4288085770
6.1569214 -3.0260015 -1.5334721 4288085770
2.6469421 -2.1761942 -1.6951504 4288085770
6.2660828 -2.9500599 -1.5353336 4288085770
2.7003784 -2.111661 -1.6939764 4288085770
6.3118896 -2.8595309 -1.5289593 4288085770
2.7810059 -2.0545053 -1.6958656 4288085770
6.4170227 -2.7815952 -1.5278416 4288085770
2.8525391 -1.9925261 -1.6958132 4288085770
6.5572815 -2.7097607 -1.5279217 4288085770
2.9100037 -1.9278173 -1.6926889 4288085770
6.6684265 -2.6305637 -1.5239124 4288085770
2.9884949 -1.8655849 -1.6907263 4288085770
6.8458252 -2.5627418 -1.5242825 4288085770
3.0811462 -1.8070436 -1.6907978 4288085770
7.0292358 -2.4957275 -1.523694 4288085770
3.140625 -1.7401471 -1.6837683 4288085770
7.186554 -2.4222698 -1.5190191 4288085770
3.2352295 -1.6814857 -1.6818666 4288085770
7.3437805 -2.3467813 -1.5134153 4288085770
3.3208618 -1.6189275 -1.6759901 4288085770
7.5301514 -2.2734857 -1.5070686 4288085770
3.4344788 -1.5607624 -1.6742907 4288085770
7.7415466 -2.2015605 -1.5019655 4288085770
3.5591125 -1.5012708 -1.6717615 4288085770
7.9549255 -2.1295128 -1.4948864 4288085770
3.6888123 -1.4436102 -1.6682272 4288085770
8.1943359 -2.0588098 -1.4890642 4288085770
3.8365173 -1.3875399 -1.6668482 4288085770
8.4568176 -1.9884272 -1.4814949 4288085770
3.9450989 -1.3222375 -1.6573267 4288085770
8.7562866 -1.9190941 -1.475317 4288085770
4.0787048 -1.2603717 -1.6509781 4288085770
9.0447388 -1.8459539 -1.4661388 4288085770
4.2313843 -1.2000017 -1.6448002 4288085770
9.3129883 -1.7661815 -1.4519529 4288085770
4.3639526 -1.1350303 -1.6345434 4288085770
9.6204224 -1.689404 -1.4391146 4288085770
4.5075684 -1.0707631 -1.6243887 4288085770
10.029968 -1.6200485 -1.4312029 4288085770
4.6701355 -1.0059943 -1.6144714 4288085770
10.359283 -1.5375228 -1.4138107 4288085770
4.8327637 -0.94019127 -1.6035872 4288085770
10.749603 -1.4574084 -1.3980408 4288085770
5.0213623 -0.87569952 -1.5929594 4288085770
11.168976 -1.3754582 -1.3806667 4288085770
5.2489929 -0.81227207 -1.5857468 4288085770
11.682434 -1.2970443 -1.3652573 4288085770
5.4595642 -0.74516249 -1.5744591 4288085770
12.214874 -1.2160602 -1.3481531 4288085770
5.7182312 -0.67984486 -1.5656652 4288085770
5.9818115 -0.61336374 -1.5559692 4288085770
6.2663574 -0.54425812 -1.5446024 4288085770
6.6098938 -0.47568893 -1.5368986 4288085770
6.9444275 -0.40325928 -1.5262213 4288085770
7.3248291 -0.32857895 -1.5151501 4288085770
7.7521973 -0.25068569 -1.5057297 4288085770
8.22052 -0.17063904 -1.4948549 4288085770
8.6748047 -0.085831642 -1.4799767 4288085770
9.1559143 0.0058226585 -1.4616385 4288085770
9.6560669 0.098050117 -1.4415388 4288085770
10.175049 0.19794559 -1.416914 4288085770
10.769012 0.30079556 -1.3942537 4288085770
11.452698 0.41515803 -1.3690214 4288085770
12.273285 0.53305197 -1.3484888 4288085770
12.024536 1.1092801 -1.3473177 4288085770
11.005463 1.1597114 -1.3824339 4288085770
10.106567 1.206501 -1.4137907 4288085770
9.3477478 1.2530761 -1.4447346 4288085770
8.6550903 1.2965071 -1.4733238 4288085770
7.9716797 1.3344517 -1.4938297 4288085770
7.3442993 1.3719518 -1.5129566 4288085770
6.7520752 1.4064841 -1.5293827 4288085770
6.2318115 1.4409285 -1.5466261 4288085770
5.7835693 1.4772499 -1.5657511 4288085770
11.904663 2.0539372 -1.3446178 4288085770
5.365387 1.5124688 -1.582181 4288085770
11.001465 2.0756524 -1.3740816 4288085770
4.9463501 1.5437999 -1.5944662 4288085770
10.22522 2.1018021 -1.4031391 4288085770
4.5523987 1.5728648 -1.6049614 4288085770
9.5718994 2.1312475 -1.4327059 4288085770
4.1944275 1.6028831 -1.6158981 4288085770
8.9178467 2.1549084 -1.4550657 4288085770
3.8575134 1.6324956 -1.6260576 4293729569
8.3776245 2.1865249 -1.4809866 4288085770
3.5585632 1.663115 -1.6366854 4293729569
7.8534851 2.2137008 -1.502944 4288085770
3.2447815 1.6894746 -1.6429987 4293729569
7.3554688 2.2396688 -1.5221548 4288085770
3.0107727 1.7217507 -1.6564226 4293729569
6.8895569 2.2645895 -1.5386925 4288085770
2.7679138 1.7509251 -1.6656389 4293729569
6.4396973 2.2870386 -1.55233 4288085770
2.559906 1.7839255 -1.6783819 4288085770
6.019928 2.3103516 -1.5643349 4288085770
2.3798218 1.8195977 -1.6935339 4288085770
5.6678772 2.3403606 -1.5803413 4288085770
2.1918945 1.8521962 -1.7044897 4288085770
5.2961121 2.3630481 -1.5898724 4288085770
1.9880981 1.8805077 -1.7111206 4288085770
4.9742737 2.3899958 -1.6021137 4288085770
1.7943115 1.9081216 -1.7168398 4288085770
4.6325989 2.411582 -1.6089487 4288085770
1.6364136 1.9405487 -1.7271309 4288085770
4.3338013 2.4362736 -1.6173763 4288085770
1.4517212 1.9665034 -1.7298956 4288085770
4.0680237 2.4618402 -1.6262083 4288085770
1.2909851 1.9949925 -1.7360201 4288085770
3.8192444 2.4888942 -1.6342831 4288085770
1.1342468 2.0226521 -1.7401619 4288085770
3.5983276 2.5196185 -1.6447992 4288085770
0.96063232 2.0460007 -1.7399654 4288085770
3.3636169 2.5451093 -1.6509809 4288085770
0.81002808 2.0718901 -1.7421141 4288085770
3.1726685 2.577662 -1.6608982 4288085770
0.69015503 2.1034653 -1.7488089 4288085770
3.0046082 2.612787 -1.6721649 4288085770
0.54852295 2.1296606 -1.7490683 4288085770
2.7989197 2.6391499 -1.675704 4288085770
0.42385864 2.1572416 -1.7515707 4288085770
2.6052551 2.6648312 -1.6793566 4288085770
0.30014038 2.1848793 -1.7530851 4288085770
2.4472961 2.6983593 -1.6866817 4288085770
0.19540405 2.2149534 -1.756897 4288085770
2.2637329 2.7234097 -1.6874247 4288085770
0.062896729 2.2374916 -1.754137 4288085770
2.1118774 2.7542012 -1.6917248 4288085770
-0.011016846 2.272285 -1.7614603 4288085770
1.9830017 2.7875662 -1.6973724 4288085770
-0.11962891 2.2983894 -1.761095 4288085770
1.8372498 2.8175879 -1.6997137 4288085770
-0.22323608 2.3246627 -1.7597876 4288085770
1.6955261 2.8457127 -1.7020397 4288085770
-0.29907227 2.35847 -1.7650547 4288085770
1.5915222 2.8837378 -1.708127 4288085770
-0.40362549 2.3827827 -1.761672 4288085770
1.4836121 2.9197259 -1.7121 4288085770
-0.46847534 2.4169159 -1.7660732 4288085770
1.3807068 2.9558504 -1.7161331 4288085770
-0.54718018 2.4468141 -1.7661743 4288085770
1.2579956 2.9846151 -1.7146931 4288085770
-0.62884521 2.4756694 -1.7652035 4288085770
1.1382751 3.0144262 -1.7143221 4288085770
-0.69464111 2.5088773 -1.7665634 4288085770
1.0236511 3.0434709 -1.7109804 4288085770
-0.75253296 2.5432625 -1.7690516 4288085770
0.95455933 3.0854552 -1.7165966 4288085770
-0.79354858 2.5829923 -1.7749128 4288085770
0.86273193 3.1200032 -1.7166996 4288085770
-0.85223389 2.6154549 -1.7743235 4288085770
0.76794434 3.1525424 -1.7147036 4293729569
-0.91101074 2.6479156 -1.773735 4288085770
0.69702148 3.1916461 -1.7151976 4293729569
-0.9460144 2.6878388 -1.7786703 4288085770
0.62411499 3.2296972 -1.7156343 4293729569
-0.99191284 2.7246084 -1.7793741 4288085770
0.56109619 3.2710102 -1.7162933 4293729569
-1.0426941 2.7592816 -1.7789488 4288085770
0.52478027 3.3208976 -1.7215462 4288085770
-1.0825806 2.7962403 -1.7787256 4288085770
0.45892334 3.3592348 -1.7190695 4293729569
-1.129425 2.8310509 -1.7773504 4288085770
0.40884399 3.4028912 -1.7199535 4293729569
-1.1662598 2.8680937 -1.7771626 4288085770
0.37268066 3.4508801 -1.7221422 4293729569
-1.188324 2.9114609 -1.7793589 4288085770
0.3621521 3.509419 -1.7289772 4288085770
-1.2015076 2.9579968 -1.783761 4288085770
0.34176636 3.5647941 -1.7325916 4288085770
-1.227478 2.9993253 -1.7838421 4288085770
0.3125 3.616034 -1.7329655 4288085770
-1.253479 3.0416865 -1.7829552 4288085770
0.30102539 3.6746795 -1.7357903 4288085770
-1.2784424 3.0830774 -1.7820482 4288085770
0.28759766 3.7322698 -1.7385569 4288085770
-1.3092957 3.1214123 -1.7779694 4288085770
0.28207397 3.7920732 -1.7414885 4288085770
-1.3184814 3.1691513 -1.7794552 4288085770
0.28051758 3.8550124 -1.7435684 4288085770
-1.3374634 3.2117324 -1.7776546 4288085770
0.28585815 3.9201035 -1.7467995 4288085770
-1.3377075 3.2627094 -1.7793512 4288085770
0.29812622 3.9893756 -1.7502489 4288085770
-1.349823 3.3094711 -1.7777691 4288085770
0.32717896 4.0660253 -1.7561369 4288085770
-1.3500366 3.3605175 -1.7774649 4288085770
0.34143066 4.1364155 -1.7576447 4288085770
-1.3433838 3.4156771 -1.779377 4288085770
0.35861206 4.2078853 -1.759223 4288085770
-1.3377075 3.4698772 -1.7792473 4288085770
0.39251709 4.2897296 -1.7633381 4288085770
-1.3211975 3.5302987 -1.7814484 4288085770
0.44714355 4.3820553 -1.7700415 4288085770
-1.3086243 3.5886796 -1.7815351 4288085770
0.47717285 4.4618969 -1.7710419 4288085770
-1.2891541 3.6512122 -1.7828388 4288085770
0.50524902 4.5407524 -1.7699852 4288085770
-1.2608337 3.7179437 -1.7853861 4288085770
0.5411377 4.6248159 -1.7691956 4288085770
-1.211792 3.795125 -1.7915182 4288085770
0.58004761 4.709959 -1.7684717 4288085770
-1.1667786 3.8722308 -1.7966032 4288085770
0.61206055 4.7920179 -1.7645655 4288085770
-1.1089172 3.9546134 -1.8040104 4288085770
0.67947388 4.8938484 -1.7667255 4288085770
