# .PCD v0.7 - Point Cloud Data file format
VERSION 0.7
FIELDS x y z rgb
SIZE 4 4 4 4
TYPE F F F U
COUNT 1 1 1 1
WIDTH 1111
HEIGHT 1
VIEWPOINT 0 0 0 1 0 0 0
POINTS 1111
DATA ascii
0.18063354 4.522645 -1.7063447 4288085770
-1.2251587 3.7827301 -1.7207576 4288085770
0.27420044 4.6221714 -1.7062956 4288085770
-1.1794739 3.8449612 -1.715695 4288085770
0.36676025 4.7206841 -1.705268 4288085770
-1.1087646 3.9223566 -1.7161361 4288085770
0.48629761 4.8353672 -1.7077068 4288085770
-1.0541077 3.9886389 -1.7109023 4288085770
0.60183716 4.9480152 -1.7072228 4288085770
-0.97439575 4.0710859 -1.7111675 4288085770
0.74630737 5.0788479 -1.7111627 4288085770
-0.89874268 4.1495018 -1.7095197 4288085770
0.88778687 5.207654 -1.7131623 4288085770
-0.81509399 4.2339592 -1.7067086 4288085770
1.051178 5.3515854 -1.7157191 4288085770
-0.70346069 4.3356066 -1.7113413 4288085770
1.2025146 5.4864283 -1.7135226 4288085770
-0.61785889 4.4190674 -1.7075013 4288085770
1.3848877 5.6404696 -1.7167102 4288085770
-0.47924805 4.5378799 -1.7145957 4288085770
1.5601501 5.7914467 -1.7140318 4288085770
-0.35766602 4.6445694 -1.7160362 4288085770
1.7694092 5.9626389 -1.7166821 4288085770
-0.25613403 4.7361135 -1.7098876 4288085770
1.9855652 6.1388607 -1.7171913 4288085770
-0.11962891 4.8508854 -1.7110361 4288085770
2.2017212 6.3130703 -1.7147106 4288085770
0.046875 4.9848461 -1.7165862 4288085770
2.4667664 6.5205765 -1.7172436 4288085770
0.20333862 5.1117373 -1.7183398 4288085770
2.7727966 6.7543411 -1.7249581 4288085770
0.35879517 5.2356033 -1.7161249 4288085770
3.0886841 6.9951439 -1.7284719 4288085770
0.5581665 5.3887529 -1.7220269 4288085770
3.443512 7.2601795 -1.7352115 4288085770
0.74255371 5.5317888 -1.7212313 4288085770
3.7642517 7.5009727 -1.7306427 4288085770
0.93682861 5.678875 -1.7192479 4288085770
4.1588745 7.7902126 -1.7325929 4288085770
1.1491394 5.8360767 -1.7199119 4288085770
4.6303101 8.1309185 -1.7409986 4288085770
1.3783569 6.0043659 -1.7192358 4288085770
1.6295166 6.1857891 -1.720127 4288085770
1.9026489 6.3793392 -1.7225882 4288085770
2.2006836 6.5890369 -1.7255508 4288085770
2.5226746 6.8118687 -1.7280461 4288085770
2.8995667 7.0700378 -1.7364444 4288085770
3.2713928 7.3221512 -1.7399563 4288085770
3.6501465 7.5742855 -1.7383515 4288085770
4.0927734 7.8678055 -1.7424687 4288085770
4.5873413 8.1926327 -1.7495593 4288085770
11.689453 -1.5874586 -2.0344839 4288085770
10.481445 -1.5494604 -1.9907089 4288085770
9.3804321 -1.508853 -1.948114 4288085770
8.243103 -1.4535151 -1.8910586 4288085770
7.2118835 -1.399559 -1.8382167 4288085770
6.5746155 -1.3842039 -1.8269116 4288085770
6.0396118 -1.3762293 -1.8249155 4288085770
5.5415649 -1.3680439 -1.8232933 4288085770
5.0675049 -1.3567324 -1.8202516 4288085770
12.040314 -2.3544612 -2.0643291 4288085770
4.6013489 -1.3413897 -1.8140548 4288085770
10.554382 -2.2191086 -2.0007739 4288085770
4.1913147 -1.3307104 -1.8119334 4288085770
9.2967529 -2.1034212 -1.9484574 4288085770
3.7852478 -1.31602 -1.8077253 4288085770
8.0709534 -1.9806023 -1.8855661 4288085770
3.4111328 -1.3021479 -1.8039795 4288085770
7.088623 -1.8853292 -1.8416964 4288085770
3.078125 -1.2900295 -1.8035499 4288085770
6.4512939 -1.8379469 -1.8352371 4288085770
2.7541199 -1.2778597 -1.802967 4288085770
5.8830872 -1.7971563 -1.8336431 4288085770
2.4531555 -1.2665548 -1.8039993 4288085770
5.3267517 -1.7513256 -1.8258222 4288085770
2.1500854 -1.2512789 -1.8010474 4288085770
4.8616638 -1.7169342 -1.8285168 4288085770
1.8449707 -1.2320271 -1.7951103 4288085770
4.3894043 -1.6776152 -1.8243073 4288085770
1.5799255 -1.2165327 -1.7935146 4288085770
3.9270935 -1.6352577 -1.8159138 4288085770
1.3178406 -1.2000284 -1.7898637 4288085770
3.5229187 -1.5995474 -1.8135713 4288085770
1.0728455 -1.1844206 -1.7879289 4288085770
3.139679 -1.5627279 -1.808869 4288085770
0.86190796 -1.1726017 -1.7904376 4288085770
2.7975769 -1.5316591 -1.8085004 4288085770
0.62680054 -1.1539536 -1.7853204 4288085770
2.4744568 -1.5014849 -1.8078154 4288085770
0.415802 -1.1381569 -1.7828101 4288085770
2.1683655 -1.4702168 -1.8068372 4288085770
0.24090576 -1.1271191 -1.7887133 4288085770
1.867218 -1.4389296 -1.8037752 4288085770
0.063934326 -1.1141119 -1.7906421 4288085770
1.5709839 -1.4046268 -1.7976145 4288085770
-0.12808228 -1.0962105 -1.7878004 4288085770
1.3139343 -1.3770771 -1.7978257 4288085770
-0.2980957 -1.0811739 -1.7876011 4288085770
1.066803 -1.3484812 -1.7958635 4288085770
-0.49627686 -1.0583372 -1.7778381 4288085770
0.82669067 -1.3198509 -1.7927824 4288085770
-0.66433716 -1.0403023 -1.7745908 4288085770
0.60760498 -1.2930899 -1.7923559 4288085770
-0.76300049 -1.0367937 -1.7902452 4288085770
0.39855957 -1.2672739 -1.7917639 4288085770
-0.96533203 -1.0080166 -1.7725221 4288085770
0.17236328 -1.2355843 -1.7844323 4288085770
-1.1063232 -0.99181747 -1.7718264 4288085770
0.017456055 -1.2174263 -1.7919644 4288085770
-1.2362976 -0.9775486 -1.7729543 4288085770
-0.19979858 -1.1846962 -1.7824754 4288085770
-1.366333 -0.96128845 -1.7720731 4288085770
-0.36880493 -1.1606522 -1.782216 4288085770
-0.54797363 -1.1326885 -1.7771074 4288085770
-0.70401001 -1.1095724 -1.7766331 4288085770
-0.85906982 -1.0854616 -1.7741371 4288085770
-1.006134 -1.0613012 -1.7725052 4288085770
-1.1451721 -1.0380964 -1.7707435 4288085770
-1.2772217 -1.0158463 -1.7698673 4288085770
-1.4002075 -0.99453926 -1.7708436 4288085770
-1.6238403 0.92728233 -1.7373387 4288085770
-1.5168457 0.94185543 -1.7334942 4288085770
-1.3977661 0.95751286 -1.7334443 4288085770
-1.2807922 0.97113895 -1.7294384 4288085770
-1.1467285 0.98789024 -1.7311343 4288085770
-1.0036316 1.0036831 -1.7316853 4288085770
-0.8555603 1.0205107 -1.7331482 4288085770
-0.71954346 1.0342388 -1.7278265 4288085770
-1.591095 0.9624157 -1.737672 4288085770
-0.5635376 1.0510979 -1.7271577 4288085770
-1.4700317 0.9740839 -1.7376081 4288085770
-0.39346313 1.0670414 -1.7272605 4288085770
-1.3409424 0.98679543 -1.7374064 4288085770
-0.21240234 1.0850477 -1.7281708 4288085770
-1.2178955 0.99746323 -1.7343148 4288085770
-0.027313232 1.1010733 -1.7280244 4288085770
-1.0788269 1.0082293 -1.7339572 4288085770
0.15567017 1.1170683 -1.7239121 4288085770
-0.92770386 1.0210724 -1.7353894 4288085770
0.38082886 1.136342 -1.7290856 4288085770
-0.75958252 1.0340195 -1.7395386 4288085770
0.6088562 1.1556063 -1.7292095 4288085770
-0.62161255 1.0437508 -1.7322041 4288085770
0.85696411 1.1749945 -1.7320017 4288085770
-0.46154785 1.0536232 -1.7295023 4288085770
1.1140747 1.1944294 -1.7336437 4288085770
-0.27142334 1.0666952 -1.7332865 4288085770
1.3961792 1.2150154 -1.737866 4288085770
-0.084320068 1.0787334 -1.7341267 4288085770
1.6682129 1.2335148 -1.7352654 4288085770
0.095733643 1.0877113 -1.7300977 4288085770
1.9852905 1.25529 -1.7389017 4288085770
0.3359375 1.1030807 -1.738041 4288085770
2.2973328 1.2740126 -1.736636 4288085770
0.53497314 1.1121588 -1.7326971 4288085770
2.6444092 1.295948 -1.7377747 4288085770
0.77108765 1.1234779 -1.7347275 4288085770
3.0004272 1.3159094 -1.7347738 4288085770
1.0151672 1.1348314 -1.7346257 4288085770
3.3894958 1.3370647 -1.73322 4288085770
1.281311 1.1463146 -1.7361575 4288085770
3.8476257 1.3626366 -1.7384988 4288085770
1.5474243 1.1567898 -1.7356957 4288085770
4.324707 1.3882999 -1.7414635 4288085770
1.8345032 1.1663723 -1.7338895 4288085770
4.8097229 1.4109755 -1.7373108 4288085770
2.1536255 1.1781511 -1.7355417 4288085770
5.4249268 1.4424419 -1.7469567 4288085770
2.494812 1.1890612 -1.7388326 4288085770
6.0299988 1.4698057 -1.7467908 4288085770
2.8960571 1.2033262 -1.7471043 4288085770
6.7691956 1.5049601 -1.7563568 4288085770
3.2460938 1.2102404 -1.7412697 4288085770
7.8909607 1.5674171 -1.8034581 4288085770
3.6221313 1.2173052 -1.736003 4288085770
9.1326904 1.6355553 -1.8525418 4288085770
4.0743713 1.2288361 -1.7404541 4288085770
10.635651 1.7152004 -1.9132408 4288085770
4.5565491 1.2375202 -1.7414209 4288085770
12.195374 1.7911005 -1.9610161 4288085770
5.0957642 1.2485352 -1.7454315 4288085770
5.6929932 1.2598753 -1.7504793 4288085770
6.3813477 1.2727547 -1.7620097 4288085770
7.1246338 1.283927 -1.7706374 4288085770
8.2615967 1.316473 -1.8186396 4288085770
9.6547546 1.3585205 -1.8833495 4288085770
11.142853 1.3940563 -1.9395183 4288085770
12.99527 1.4397154 -2.0156002 4288085770
0.13998413 -4.2595634 -0.39868569 4293729569
0.18478394 -4.2641439 -0.43798983 4293729569
0.17230225 -4.228055 -0.47404087 4293729569
0.28643799 -4.273231 -0.51840103 4293729569
0.48599243 -4.3025928 -0.6403228 4293729569
0.54977417 -4.3060656 -0.68031204 4293729569
0.55126953 -4.2689052 -0.71512973 4293729569
0.60601807 -4.2634354 -0.75322568 4293729569
0.70697021 -4.284687 -0.7966913 4293729569
0.81439209 -4.2749362 -0.39483678 4293729569
0.88269043 -4.3033562 -0.87893951 4293729569
0.9859314 -4.2836695 -0.46810651 4293729569
0.96047974 -4.3017521 -0.91867793 4293729569
1.1339722 -4.3216739 -0.50888205 4293729569
5.3757324 -6.8818021 -1.4926661 4293729569
1.2176514 -4.3190603 -0.54351938 4293729569
1.1331177 -4.3054428 -0.99990857 4293729569
1.2188721 -4.3028002 -1.0385126 4293729569
1.413147 -4.3236632 -0.61638057 4293729569
4.4206848 -6.0910668 -1.4966327 4293729569
1.4867554 -4.3081093 -0.65012252 4293729569
1.474823 -4.3409901 -1.1285456 4293729569
1.6557617 -4.3460002 -0.69055688 4293729569
3.9245605 -5.6608052 -1.4987613 4293729569
1.7453918 -4.3373594 -0.72406948 4293729569
1.6643372 -4.3316026 -1.2064425 4293729569
1.7791748 -4.3337884 -1.2475957 4293729569
2.0019836 -4.3526249 -0.7969867 4293729569
1.9603271 -4.3705668 -1.2978295 4293729569
2.6120605 -4.6544261 -1.4195441 4293729569
2.2675171 -4.3628473 -0.86873615 4293729569
2.1777954 -4.3560228 -1.3762485 4293729569
2.4343872 -4.3817582 -0.90711915 4293729569
2.3488464 -4.3788705 -1.4235827 4293729569
2.5238953 -4.3581319 -0.93756545 4293729569
2.6857605 -4.4816823 -1.4975876 4293729569
2.7118225 -4.3819194 -0.97762907 4293729569
2.6748047 -4.403667 -1.5154194 4293729569
8.0390625 -6.9249177 -1.558663 4293729569
2.5792542 -4.2841902 -1.517435 4293729569
3.0444031 -4.3987679 -1.0503193 4293729569
2.5692444 -4.2081847 -1.5322601 4293729569
3.1991272 -4.3977642 -1.0848101 4293729569
2.7029114 -4.1992812 -1.5700558 4293729569
3.3839111 -4.4075837 -1.1218613 4293729569
2.8647766 -4.2012076 -1.6114448 4293729569
3.6631165 -4.4578428 -1.1675631 4293729569
3.0547485 -4.2149611 -1.6564313 4293729569
3.7323303 -4.4093647 -1.1902267 4293729569
3.2265625 -4.2168317 -1.6976579 4293729569
3.9803162 -4.4388165 -1.2313408 4293729569
3.4235229 -4.2275486 -1.7425174 4293729569
4.1730652 -4.4406004 -1.2662271 4293729569
3.6203918 -4.2332687 -1.7863544 4293729569
4.4340515 -4.4679832 -1.3071216 4293729569
3.8313904 -4.2429051 -1.8319813 4288085770
5.5326538 -4.8433018 -1.4459983 4293729569
3.9708862 -4.2179985 -1.8636109 4288085770
3.9525146 -4.126092 -1.8664972 4288085770
5.1454773 -4.4955826 -1.4167196 4293729569
3.8939819 -4.017447 -1.8609596 4288085770
5.5207825 -4.5522871 -1.4678923 4293729569
3.890686 -3.9324594 -1.863633 4288085770
5.5696716 -4.4779749 -1.4787682 4293729569
3.8652344 -3.8386159 -1.8616246 4288085770
5.9308472 -4.5197787 -1.5251032 4293729569
3.8689575 -3.7565942 -1.8631972 4288085770
5.9736328 -4.4385147 -1.5330464 4293729569
3.8525391 -3.6657047 -1.8600558 4288085770
6.0696411 -4.3759418 -1.5442113 4293729569
3.854187 -3.5837088 -1.858662 4288085770
6.2941284 -4.3575959 -1.5704838 4293729569
3.8548279 -3.5007272 -1.8562723 4288085770
6.6129456 -4.3706827 -1.6063772 4293729569
3.8554382 -3.4177508 -1.8518909 4288085770
6.9046326 -4.3689399 -1.6376446 4293729569
3.8941956 -3.3485355 -1.8539535 4288085770
7.2373962 -4.3769593 -1.6712896 4293729569
3.901825 -3.2685242 -1.8484727 4288085770
7.6323547 -4.3996096 -1.7109922 4293729569
3.950592 -3.2022629 -1.8483862 4288085770
8.0362549 -4.4212103 -1.7505451 4293729569
3.9973145 -3.1340175 -1.8473233 4288085770
8.4742737 -4.4466224 -1.7905632 4293729569
4.0229797 -3.0599041 -1.8425761 4288085770
8.9533081 -4.4787917 -1.8339447 4293729569
4.0766602 -2.9936247 -1.8404089 4288085770
9.451416 -4.5098538 -1.8780144 4293729569
4.141449 -2.9312811 -1.8390802 4288085770
9.9513855 -4.5349236 -1.9180266 4293729569
4.215271 -2.8688841 -1.8386055 4288085770
10.499481 -4.5657144 -1.9612838 4293729569
4.3131104 -2.8143454 -1.8397759 4288085770
11.093628 -4.603241 -2.0068264 4288085770
4.3898315 -2.7519455 -1.8362533 4288085770
11.711731 -4.6366425 -2.050961 4288085770
4.4866638 -2.6944227 -1.8354276 4288085770
12.355927 -4.6718926 -2.096683 4288085770
4.5714111 -2.633985 -1.8307844 4288085770
12.989899 -4.6952257 -2.1365166 4288085770
4.7052612 -2.5842466 -1.8323928 4288085770
4.828125 -2.529583 -1.8311583 4288085770
4.9579468 -2.4768853 -1.8288194 4288085770
5.0897522 -2.4221778 -1.8264393 4288085770
5.2515869 -2.3722968 -1.8255934 4288085770
5.4435425 -2.3272347 -1.828282 4288085770
5.6083374 -2.2743511 -1.8243757 4288085770
5.8052673 -2.228272 -1.8249797 4288085770
5.9971008 -2.1772375 -1.8216439 4288085770
6.2922058 -2.1435781 -1.8307132 4288085770
6.5752258 -2.104003 -1.8359512 4288085770
6.8953247 -2.0692129 -1.8436111 4288085770
7.25354 -2.0362005 -1.8536621 4288085770
7.6697693 -2.008853 -1.8677982 4288085770
8.2073364 -1.9957809 -1.8940333 4288085770
8.8761902 -1.9939299 -1.9321929 4288085770
9.430542 -1.9687986 -1.9511026 4288085770
10.112183 -1.9549217 -1.9800013 4288085770
10.818726 -1.9359121 -2.0074739 4288085770
11.605347 -1.9174576 -2.0366516 4288085770
12.730652 -1.9289961 -2.0964794 4288085770
9.8737488 1.96838 -1.6111795 4293729569
9.3937683 2.0178261 -1.6255392 4293729569
9.6247253 2.0786591 -0.87753212 4293729569
9.1740723 2.0917931 -1.6626879 4293729569
7.8274841 1.9716711 -0.83235252 4293729569
8.2304077 2.0794563 -1.619625 4293729569
7.9069519 2.0713482 -0.88766992 4293729569
7.7523193 2.1138458 -1.6190184 4293729569
7.4771729 2.1081057 -0.91029251 4293729569
6.8636169 2.0887718 -1.5681421 4293729569
7.0163574 2.1356678 -0.92644513 4293729569
6.6017151 2.1394138 -1.5840539 4293729569
6.6765442 2.1749086 -0.94763649 4293729569
6.5910645 2.2225475 -1.6278638 4293729569
6.4507751 2.2267942 -0.97397459 4293729569
7.2102356 2.4024706 -1.7503215 4288085770
6.4560852 2.3120012 -1.0145227 4293729569
6.8200684 2.4323168 -1.7453455 4288085770
6.3123169 2.3743458 -1.043521 4293729569
6.4639282 2.4623518 -1.7408315 4288085770
6.338623 2.4636698 -1.0847195 4293729569
6.1307373 2.4945145 -1.736945 4288085770
6.1707764 2.5198526 -1.1071237 4293729569
5.8075867 2.5227251 -1.730918 4288085770
6.0609436 2.5853729 -1.1345719 4293729569
5.5434875 2.55828 -1.7309276 4288085770
6.0311584 2.6643457 -1.1656994 4293729569
5.2953491 2.5939188 -1.7296845 4288085770
6.0203552 2.7474346 -1.1995088 4293729569
5.0271912 2.6234255 -1.7237831 4288085770
5.9814758 2.825345 -1.2277831 4293729569
4.8111267 2.6602449 -1.7240294 4288085770
6.0107117 2.9176579 -1.2629207 4293729569
4.5779419 2.6909456 -1.7185706 4288085770
5.9657898 2.9955225 -1.2882901 4293729569
4.4008484 2.7319851 -1.720183 4288085770
6.0379333 3.0990801 -1.3257006 4293729569
4.2387695 2.7741013 -1.7215534 4288085770
6.0360718 3.1871939 -1.3543462 4293729569
4.0375671 2.8049726 -1.7155892 4288085770
6.0621643 3.2834721 -1.3855139 4293729569
3.8834534 2.8461294 -1.7158374 4288085770
6.1212463 3.3879347 -1.4181257 4293729569
3.7483521 2.890399 -1.7177712 4288085770
6.1523132 3.4862347 -1.4482054 4293729569
3.5932312 2.9255314 -1.7140619 4288085770
6.3054199 3.6162491 -1.4892234 4293729569
3.4700928 2.9678535 -1.7138165 4288085770
8.5827332 4.3059492 -1.7793077 4288085770
3.382019 3.019393 -1.7189778 4288085770
8.2634888 4.331151 -1.7672287 4288085770
3.2548523 3.059679 -1.715804 4288085770
7.9332275 4.3492804 -1.7523547 4288085770
3.1316528 3.0989838 -1.7115718 4288085770
7.6590271 4.3797398 -1.7425424 4288085770
3.0415344 3.1474924 -1.7127777 4288085770
7.4537964 4.4255924 -1.7375752 4288085770
2.9584351 3.1960344 -1.7128733 4288085770
7.2025146 4.4551706 -1.726405 4288085770
2.8592529 3.2394762 -1.7102438 4288085770
7.1012878 4.5276327 -1.7306808 4288085770
2.7930908 3.2921143 -1.7110537 4288085770
6.9440613 4.5827522 -1.7269152 4288085770
2.7389526 3.3468208 -1.7126647 4288085770
6.8848267 4.6664524 -1.7334799 4288085770
2.6687927 3.3974285 -1.7115461 4288085770
6.7845764 4.7369041 -1.733749 4288085770
2.6035767 3.4480572 -1.7093493 4288085770
6.6992798 4.8104334 -1.7337681 4288085770
2.5674133 3.507865 -1.7116541 4288085770
6.6370239 4.8910999 -1.7363931 4288085770
2.5132141 3.561553 -1.7092699 4288085770
6.6047363 4.9819384 -1.7405006 4288085770
2.4799805 3.6233664 -1.7095188 4288085770
6.5653992 5.0727262 -1.7427188 4288085770
2.4548035 3.6852293 -1.7106413 4288085770
6.5350342 5.1625595 -1.7437993 4288085770
2.4425964 3.7531691 -1.7135321 4288085770
6.5046692 5.2533875 -1.7438759 4288085770
2.4003296 3.8099127 -1.7089454 4288085770
6.4963074 5.353344 -1.7455653 4288085770
2.3981628 3.8819056 -1.7116612 4288085770
6.4708557 5.4451847 -1.7425593 4288085770
2.3808899 3.9467974 -1.7096442 4288085770
6.4904785 5.5562954 -1.7447585 4288085770
2.3996277 4.0269089 -1.7129937 4288085770
6.473999 5.6521807 -1.7405928 4288085770
2.3983459 4.0998945 -1.7126898 4288085770
6.5054932 5.7693453 -1.7405769 4288085770
2.4040833 4.1749134 -1.7112662 4288085770
6.5209961 5.8794098 -1.7378448 4288085770
2.4147644 4.2529573 -1.709751 4288085770
6.5864563 6.0117645 -1.7392265 4288085770
2.4404602 4.3360968 -1.7109772 4288085770
6.6458435 6.1420784 -1.7387127 4288085770
2.479126 4.427309 -1.7129627 4288085770
6.7302551 6.2835369 -1.7397562 4288085770
2.5087585 4.5134554 -1.7111133 4288085770
6.9065857 6.4685345 -1.7501589 4288085770
2.5523987 4.6066914 -1.7120115 4288085770
7.0078735 6.6200752 -1.748891 4288085770
2.5880432 4.6968651 -1.7090498 4288085770
7.1611633 6.7989197 -1.7526842 4288085770
2.6766052 4.8143635 -1.7141331 4288085770
7.3753357 7.0101204 -1.7623743 4288085770
2.762146 4.9308405 -1.718268 4288085770
7.5534363 7.2060871 -1.7636994 4288085770
2.8437195 5.0452843 -1.7194752 4288085770
7.6465759 7.3625374 -1.7525364 4288085770
2.9512024 5.1748791 -1.7232066 4288085770
7.9395142 7.6201744 -1.76378 4288085770
3.0567017 5.3044596 -1.7259697 4288085770
8.3563232 7.9455395 -1.7867736 4288085770
3.1711426 5.439085 -1.7285694 4288085770
8.8379822 8.3082714 -1.8135794 4288085770
3.2775879 5.5716515 -1.7273046 4288085770
3.3849487 5.7052193 -1.7250205 4288085770
3.5243225 5.8569698 -1.7251521 4288085770
3.6645813 6.0117188 -1.7232555 4288085770
3.8258667 6.1785908 -1.7239753 4288085770
3.9850769 6.345438 -1.7207276 4288085770
4.1961975 6.5435963 -1.7245239 4288085770
4.4322815 6.7588844 -1.7278513 4288085770
4.6982727 6.993351 -1.7336234 4288085770
4.9631958 7.2297916 -1.7354027 4288085770
5.2180481 7.4621582 -1.7323595 4288085770
5.5677795 7.7540855 -1.7395591 4288085770
5.9573975 8.0732346 -1.7480093 4288085770
12.210083 -0.66047668 -2.0362663 4288085770
10.57782 -0.6355772 -1.968196 4288085770
9.1947021 -0.6122942 -1.909309 4288085770
7.9536743 -0.58723831 -1.8522323 4288085770
6.895813 -0.56615067 -1.8053635 4288085770
6.2488098 -0.56565189 -1.8022975 4288085770
5.6257324 -0.5600462 -1.7948388 4288085770
5.0706787 -0.55605507 -1.7913426 4288085770
11.862762 -1.0505152 -2.0186419 4288085770
4.5606689 -0.55182076 -1.7881538 4288085770
10.303406 -0.98317909 -1.9592363 4288085770
4.1036987 -0.54629421 -1.7861456 4288085770
8.9121094 -0.91793156 -1.901261 4288085770
3.6626282 -0.54068851 -1.7828904 4288085770
7.580658 -0.84941101 -1.832348 4288085770
3.2506409 -0.53292847 -1.7791799 4288085770
6.7190857 -0.81315231 -1.8103918 4288085770
2.8846436 -0.52691078 -1.7777709 4288085770
6.0559692 -0.78874397 -1.8064519 4288085770
2.541687 -0.51976204 -1.7780036 4288085770
5.415741 -0.76223564 -1.7971488 4288085770
2.2227173 -0.513484 -1.7778717 4288085770
4.8405457 -0.73736858 -1.7898566 4288085770
1.8726196 -0.50141811 -1.7681872 4288085770
4.365509 -0.71792507 -1.7910551 4288085770
-0.45892334 -0.40638447 -1.7728695 4288085770
-0.61083984 -0.39118576 -1.7756373 4288085770
-0.76486206 -0.37601852 -1.7744433 4288085770
-0.91687012 -0.35983944 -1.7732066 4288085770
-1.0367432 -0.34646034 -1.7783848 4288085770
-1.0776367 1.6451273 -1.7352937 4288085770
-0.94165039 1.6668348 -1.7346877 4288085770
-0.79159546 1.6916313 -1.7368087 4288085770
-0.64553833 1.7133932 -1.7360183 4288085770
-0.51766968 1.7300138 -1.7265862 4288085770
-0.3626709 1.7528219 -1.7256261 4288085770
-0.17858887 1.7797956 -1.7281123 4288085770
-1.1253662 1.5948896 -1.7484523 4288085770
0.0094604492 1.8057938 -1.7305294 4288085770
-1.0023804 1.608511 -1.7441252 4288085770
0.21255493 1.8338737 -1.7336613 4288085770
-0.87536621 1.6211567 -1.7407295 4288085770
0.41159058 1.8599186 -1.7338771 4288085770
-0.74334717 1.6338263 -1.7362424 4288085770
0.64065552 1.8901424 -1.7385207 4288085770
-0.59432983 1.6495962 -1.7344273 4288085770
0.87271118 1.9193697 -1.7411152 4288085770
-0.43426514 1.665432 -1.7344095 4288085770
1.1318359 1.9517546 -1.7461978 4288085770
-0.2762146 1.6792555 -1.7334386 4288085770
1.3908997 1.9831295 -1.7492856 4288085770
-0.097106934 1.6971998 -1.7350618 4288085770
1.6549377 2.0125227 -1.7502919 4288085770
0.082977295 1.7131424 -1.7346765 4288085770
1.8998413 2.0357752 -1.7436799 4288085770
0.27404785 1.7291451 -1.7350892 4288085770
2.1748047 2.063201 -1.7404948 4288085770
0.48416138 1.7472639 -1.7391423 4288085770
2.467804 2.0917273 -1.7379748 4288085770
0.69827271 1.7643919 -1.7401272 4288085770
2.7687988 2.1182852 -1.7333177 4288085770
0.95352173 1.787775 -1.7493268 4288085770
3.1067505 2.1490545 -1.7319602 4288085770
1.1795959 1.8029575 -1.7491018 4288085770
3.4747925 2.1829891 -1.7320358 4288085770
1.422699 1.8182335 -1.7495641 4288085770
3.8738098 2.2180843 -1.7315375 4288085770
1.6496887 1.8283958 -1.7433463 4288085770
4.2687378 2.2491369 -1.7271334 4288085770
1.9127502 1.8437748 -1.7434415 4288085770
4.7488098 2.2916842 -1.7321109 4288085770
2.1627808 1.8530598 -1.7378064 4288085770
5.2668762 2.3354244 -1.7353851 4288085770
2.4628906 1.8686352 -1.738221 4288085770
5.8219299 2.3813601 -1.7389694 4288085770
2.7639771 1.8812084 -1.7366332 4288085770
6.4079285 2.4254465 -1.7399946 4288085770
3.1101074 1.898036 -1.7391979 4288085770
7.0379639 2.4717607 -1.7402018 4288085770
3.4391785 1.9087439 -1.7351059 4288085770
6.7283936 2.3685646 -1.6233882 4293729569
3.8153076 1.923727 -1.7371293 4288085770
6.2366638 2.2393293 -1.4900469 4293729569
4.1884155 1.9336739 -1.7342333 4288085770
6.2957764 2.1933098 -1.422186 4293729569
4.6296082 1.9500084 -1.7380573 4288085770
6.4099731 2.152606 -1.360288 4293729569
5.1037598 1.9655151 -1.7412795 4288085770
6.5863037 2.1202612 -1.3042082 4293729569
5.6080017 1.9821873 -1.745946 4288085770
6.8496399 2.0953999 -1.2534953 4293729569
6.1231689 1.9918909 -1.7454454 4288085770
7.1279907 2.0706158 -1.2025064 4293729569
6.727417 2.0091 -1.7522739 4288085770
7.5455017 2.0576048 -1.1599067 4293729569
7.3727112 2.0255213 -1.7583543 4288085770
7.9409485 2.038455 -1.1127421 4293729569
8.3274231 2.0707207 -1.7956163 4288085770
8.3743286 2.0205078 -1.0658745 4293729569
9.289032 2.1059027 -1.8218015 4288085770
8.9038086 2.0060701 -1.0202271 4293729569
9.4122314 2.0422087 -1.7518536 4293729569
9.7384338 2.0183058 -0.98784864 4293729569
9.6436157 1.9871368 -1.6928786 4293729569
13.346008 2.2679462 -1.9685811 4288085770
0.55767822 -4.2833543 -0.5115875 4293729569
0.50646973 -4.2824564 -0.54852831 4293729569
0.48239136 -4.2964029 -0.58804691 4293729569
0.29550171 -4.2528877 -0.69727552 4293729569
0.30654907 -4.2826405 -0.73923075 4293729569
0.26431274 -4.2746859 -0.77797306 4293729569
0.2119751 -4.2598023 -0.81286538 4293729569
0.20391846 -4.2706571 -0.85407698 4293729569
0.19717407 -4.2464299 -0.48702061 4293729569
4.8365784 -7.4235005 -1.4830495 4293729569
0.20510864 -4.2632074 -0.52696919 4293729569
4.3159485 -7.0922194 -1.4849409 4293729569
0.22412109 -4.284914 -0.56974041 4293729569
3.8404236 -6.7877064 -1.4861394 4293729569
0.19992065 -4.2758613 -0.60914862 4293729569
3.4151611 -6.5129137 -1.4905661 4293729569
0.18774414 -4.272747 -0.64836776 4293729569
3.0118713 -6.2490234 -1.4916435 4293729569
0.19165039 -4.2785358 -0.69033706 4293729569
2.6547852 -6.0128756 -1.4960133 4293729569
2.3197327 -5.7886233 -1.4980379 4293729569
2.0087585 -5.5782361 -1.5016907 4293729569
1.7088013 -5.3728085 -1.5021664 4293729569
0.20718384 -4.283711 -0.85412872 4293729569
1.4227905 -5.1743178 -1.50042 4293729569
0.21200562 -4.2804995 -0.89503753 4293729569
1.1911316 -5.0115085 -1.5058566 4293729569
0.22891235 -4.2832217 -0.93675578 4293729569
0.96646118 -4.8516784 -1.508181 4293729569
0.22161865 -4.2690916 -0.9738313 4293729569
0.21334839 -4.2509661 -1.0109063 4293729569
0.13903809 -4.2673974 -1.4264134 4293729569
0.2845459 -4.2853723 -1.0597907 4293729569
0.38064575 -4.4197164 -1.5167733 4293729569
0.2963562 -4.2771292 -1.0995485 4293729569
0.23129272 -4.3044705 -1.5239412 4293729569
0.30609131 -4.2649069 -1.1373245 4293729569
0.082855225 -4.1882229 -1.5300862 4293729569
2.2747498 -5.5479326 -1.4987751 4293729569
-0.037414551 -4.0898204 -1.5378052 4293729569
2.0098267 -5.3453188 -1.4996239 4293729569
-0.034667969 -4.0736394 -1.5746893 4293729569
1.7669678 -5.1575856 -1.5011431 4293729569
0.0012512207 -4.0752592 -1.6170558 4293729569
0.71350098 -4.4407907 -1.3528231 4293729569
0.032104492 -4.073904 -1.6595007 4293729569
0.54592896 -4.304656 -1.3562201 4293729569
0.074066162 -4.076488 -1.702763 4293729569
0.53146362 -4.2655869 -1.3883065 4293729569
0.10992432 -4.074111 -1.7441117 4293729569
0.57122803 -4.2592001 -1.4275645 4293729569
0.16696167 -4.0815992 -1.7911245 4288085770
0.64431763 -4.2726045 -1.4743148 4293729569
0.21490479 -4.0821514 -1.8342692 4288085770
0.70227051 -4.274106 -1.5172824 4293729569
0.21841431 -4.05199 -1.8660699 4288085770
0.58691406 -4.1656833 -1.523863 4293729569
0.11297607 -3.9505444 -1.8665022 4288085770
0.54806519 -4.1047964 -1.5442845 4293729569
0.007598877 -3.8501081 -1.8649391 4288085770
0.61495972 -4.1062574 -1.5860885 4293729569
-0.10397339 -3.7437234 -1.8594571 4288085770
0.68289185 -4.1077108 -1.6278745 4293729569
-0.19540405 -3.6512151 -1.8576766 4288085770
0.75073242 -4.1071758 -1.667652 4293729569
-0.28375244 -3.559691 -1.855846 4288085770
0.82263184 -4.1066108 -1.7093562 4293729569
-0.36920166 -3.4701605 -1.8519703 4288085770
0.90655518 -4.1099739 -1.7528614 4293729569
-0.44656372 -3.3845806 -1.8499678 4288085770
0.99856567 -4.1172943 -1.7962393 4288085770
-0.52600098 -3.2990251 -1.8450016 4288085770
1.088501 -4.1206279 -1.8396353 4288085770
-0.59231567 -3.2193875 -1.842827 4288085770
1.1219788 -4.0893269 -1.8678879 4288085770
-0.65466309 -3.1427302 -1.8405937 4288085770
1.0506287 -3.9966922 -1.8707434 4288085770
-0.7119751 -3.0700459 -1.8382879 4288085770
0.95007324 -3.8892536 -1.8640574 4288085770
-0.77536011 -2.992413 -1.8320686 4288085770
0.8706665 -3.7936835 -1.8620449 4288085770
-0.82568359 -2.9226975 -1.8286494 4288085770
0.80227661 -3.7040577 -1.8598603 4288085770
-0.87496948 -2.8539767 -1.8252171 4288085770
0.74798584 -3.622345 -1.8604587 4288085770
-0.91015625 -2.793169 -1.824567 4288085770
0.68460083 -3.5356913 -1.8581971 4288085770
-0.95449829 -2.726428 -1.820053 4288085770
0.63226318 -3.4559827 -1.8557688 4288085770
-0.9836731 -2.6685905 -1.8193082 4288085770
0.58694458 -3.378233 -1.8542227 4288085770
-0.99475098 -2.6196356 -1.8232774 4288085770
0.53555298 -3.2985287 -1.8497761 4288085770
-1.0280151 -2.5588374 -1.818592 4288085770
0.50030518 -3.227725 -1.8480805 4288085770
-1.0401611 -2.509902 -1.81958 4288085770
0.46603394 -3.1569195 -1.8463668 4288085770
-1.0613403 -2.4560318 -1.8167082 4288085770
0.42263794 -3.0831776 -1.8408033 4288085770
-1.0634155 -2.411036 -1.8195332 4288085770
0.39736938 -3.0173292 -1.8379499 4288085770
-1.0786133 -2.3601346 -1.8165671 4288085770
0.38314819 -2.9574146 -1.8369242 4288085770
-1.0806885 -2.3151479 -1.8173922 4288085770
0.36190796 -2.8935456 -1.8340071 4288085770
-1.0838318 -2.2701712 -1.8172354 4288085770
0.34765625 -2.8336401 -1.8309819 4288085770
-1.0839233 -2.2251835 -1.8160247 4288085770
0.35150146 -2.7816229 -1.8316671 4288085770
-1.1072693 -2.1703529 -1.8071855 4288085770
0.34329224 -2.7236862 -1.8285421 4288085770
-1.0831909 -2.1362081 -1.8125895 4288085770
0.35617065 -2.6746235 -1.8290776 4288085770
-1.0742798 -2.0961647 -1.8132387 4288085770
0.35595703 -2.6216455 -1.8258313 4288085770
-1.0764771 -2.0502062 -1.8080601 4288085770
0.36682129 -2.5715976 -1.8253986 4288085770
-1.0575256 -2.0141058 -1.8095459 4288085770
0.39175415 -2.5274668 -1.8267397 4288085770
-1.0325317 -1.9789705 -1.8119279 4288085770
0.40457153 -2.479423 -1.8232809 4288085770
-1.0095825 -1.9438553 -1.8123466 4288085770
0.42440796 -2.4333324 -1.8217043 4288085770
-1.0057678 -1.9008665 -1.8070732 4288085770
0.45635986 -2.3921709 -1.8219324 4288085770
-0.96469116 -1.8726387 -1.8111972 4288085770
0.49224854 -2.3509898 -1.8220884 4288085770
-0.94277954 -1.8365374 -1.8096296 4288085770
0.5291748 -2.3108068 -1.821231 4288085770
-0.9078064 -1.8043547 -1.8108448 4288085770
0.57110596 -2.2725935 -1.8212928 4288085770
-0.86477661 -1.7751226 -1.813928 4288085770
0.60897827 -2.2314157 -1.8184131 4288085770
-0.83990479 -1.7390108 -1.8113071 4288085770
0.66394043 -2.1961312 -1.8192531 4288085770
-0.7979126 -1.7087984 -1.8114043 4288085770
0.71786499 -2.1598577 -1.8191065 4288085770
-0.75292969 -1.6795645 -1.8124522 4288085770
0.76980591 -2.1236029 -1.8169967 4288085770
-0.70187378 -1.6512957 -1.8143955 4288085770
0.83273315 -2.0882816 -1.8166918 4288085770
-0.67004395 -1.6161575 -1.8096527 4288085770
0.90475464 -2.0569057 -1.8182422 4288085770
-0.60894775 -1.5898266 -1.8134242 4288085770
0.97872925 -2.0245285 -1.8177525 4288085770
-0.55700684 -1.5605679 -1.8123459 4288085770
1.0375671 -1.9872484 -1.8135115 4288085770
-0.50704956 -1.5313244 -1.8103043 4288085770
1.1316223 -1.9607525 -1.8156871 4288085770
-0.43701172 -1.5059509 -1.8129181 4288085770
1.2196045 -1.9292994 -1.8159486 4288085770
-0.38409424 -1.4756966 -1.8098179 4288085770
1.2994995 -1.8969049 -1.8123506 4288085770
-0.31607056 -1.4493446 -1.8104635 4288085770
1.3904419 -1.8654461 -1.810558 4288085770
-0.25717163 -1.4190636 -1.806255 4288085770
1.5155334 -1.8427773 -1.8151907 4288085770
-0.18716431 -1.3927059 -1.8058652 4288085770
1.6245117 -1.8152208 -1.8140908 4288085770
-0.097106934 -1.3692331 -1.8081263 4288085770
1.7405396 -1.7876225 -1.8138641 4288085770
-0.032226562 -1.33992 -1.8038136 4288085770
1.8665161 -1.7609758 -1.8134619 4288085770
0.055786133 -1.3144665 -1.8041028 4288085770
2.0126343 -1.7382088 -1.8157147 4288085770
0.15484619 -1.2919512 -1.8052062 4288085770
2.1486206 -1.712513 -1.8141361 4288085770
0.24987793 -1.2674608 -1.8053731 4288085770
2.3046265 -1.6887007 -1.815204 4288085770
0.33779907 -1.2400255 -1.8016537 4288085770
2.4556274 -1.663928 -1.8133589 4288085770
0.44384766 -1.2164803 -1.8016268 4288085770
2.6176147 -1.6390953 -1.8123153 4288085770
0.5397644 -1.1900043 -1.7977675 4288085770
2.7846375 -1.6142406 -1.8101801 4288085770
0.690979 -1.1741829 -1.805962 4288085770
2.9847107 -1.5951929 -1.812476 4288085770
0.7979126 -1.1476507 -1.8019036 4288085770
3.1877747 -1.5741396 -1.812708 4288085770
0.9078064 -1.1211081 -1.7967919 4288085770
3.408844 -1.5539894 -1.81362 4288085770
1.059906 -1.1013069 -1.7999512 4288085770
3.6358948 -1.5328178 -1.8124186 4288085770
1.1918945 -1.0766411 -1.7964498 4288085770
3.8919678 -1.5154781 -1.8147107 4288085770
1.3469238 -1.0548382 -1.7965463 4288085770
4.1661377 -1.4980412 -1.8176767 4288085770
1.5119629 -1.0329809 -1.7974616 4288085770
4.4411926 -1.4786186 -1.8166169 4288085770
1.6820068 -1.0111008 -1.7972871 4288085770
4.735199 -1.4590988 -1.815214 4288085770
1.8540039 -0.98822212 -1.7950727 4288085770
5.0663757 -1.4433699 -1.8171588 4288085770
2.0561218 -0.96915913 -1.7983321 4288085770
5.4235229 -1.4275026 -1.8196343 4288085770
2.2672119 -0.94805908 -1.799421 4288085770
5.7835693 -1.409646 -1.8170475 4288085770
2.4681702 -0.92403603 -1.7956775 4288085770
6.2047424 -1.3964396 -1.8203791 4288085770
2.6942139 -0.90286446 -1.7954956 4288085770
6.6047668 -1.3773823 -1.816065 4288085770
2.9393005 -0.8815918 -1.7959694 4288085770
7.0940247 -1.365818 -1.8201765 4288085770
3.1853027 -0.85832787 -1.7934176 4288085770
7.8398743 -1.379797 -1.8497759 4288085770
3.4773865 -0.83979988 -1.7960557 4288085770
8.8513489 -1.4172716 -1.9046918 4288085770
3.7775269 -0.81823444 -1.797536 4288085770
9.8054199 -1.4391317 -1.9415694 4288085770
4.0845032 -0.7956543 -1.7948862 4288085770
10.844482 -1.4585543 -1.9769021 4288085770
4.4245911 -0.77288723 -1.794639 4288085770
11.955444 -1.4756193 -2.0089245 4288085770
4.798645 -0.75094509 -1.7947816 4288085770
13.720825 -1.5440168 -2.0953779 4288085770
5.2138062 -0.72977638 -1.7971877 4288085770
5.6549072 -0.70748043 -1.7981194 4288085770
6.1560669 -0.68685627 -1.8019749 4288085770
6.6842041 -0.66409969 -1.8043343 4288085770
7.3435974 -0.6466074 -1.81735 4288085770
8.3186035 -0.64333153 -1.8597375 4288085770
9.4779663 -0.6450367 -1.9148237 4288085770
10.673065 -0.63860989 -1.9582254 4288085770
12.169556 -0.63653088 -2.0192099 4288085770
9.4665833 2.0241375 -0.94514596 4293729569
8.5340271 2.0291805 -0.91769636 4293729569
7.9767151 2.0672531 -0.90942371 4293729569
7.4944153 2.1077204 -0.90280759 4293729569
7.1181946 2.1567564 -0.90026605 4293729569
6.7589722 2.2008705 -0.89544499 4293729569
6.5898438 2.2710228 -0.90212476 4293729569
6.4546509 2.3443499 -0.90918553 4293729569
6.3275146 2.4167137 -0.91510904 4293729569
8.1288757 2.7352772 -0.33150792 4293729569
6.2163696 2.4901619 -0.92074215 4293729569
8.1776733 2.8475876 -0.34511793 4293729569
6.1622009 2.5719156 -0.92932427 4293729569
8.0595703 2.9310217 -0.35583031 4293729569
6.098999 2.6526127 -0.93607128 4293729569
7.9533386 3.015502 -0.36332464 4293729569
6.0608215 2.7374458 -0.94335425 4293729569
7.9911499 3.1267424 -0.37413609 4293729569
6.0466309 2.8264046 -0.95119202 4293729569
7.9698486 3.227663 -0.38204443 4293729569
6.030426 2.9143467 -0.9580704 4293729569
8.0315552 3.3450184 -0.39040089 4293729569
6.0212097 3.0053186 -0.96381032 4293729569
7.9393005 3.4315472 -0.39363778 4293729569
6.0516968 3.197525 -0.97637141 4293729569
6.0724182 3.2956448 -0.9805454 4293729569
6.1091309 3.3988533 -0.98541129 4293729569
6.2378235 3.5245638 -0.9965378 4293729569
6.3554382 3.6512089 -1.0048567 4293729569
13.313263 -0.037135124 -2.0384436 4288085770
11.31662 -0.026741028 -1.9603382 4288085770
9.7504578 -0.019037247 -1.9037129 4288085770
8.3192139 -0.0086584091 -1.8437096 4288085770
7.0791321 0.0017223358 -1.7883605 4288085770
6.3600769 0.0040235519 -1.7869405 4288085770
5.6759644 0.0074853897 -1.7809016 4288085770
5.0628662 0.012307167 -1.7746123 4288085770
11.882446 -0.13780594 -1.9830915 4288085770
4.5278625 0.016557693 -1.7739598 4288085770
10.126923 -0.10612488 -1.9146498 4288085770
4.0679626 0.020212173 -1.7779962 4288085770
8.6847229 -0.078774452 -1.8597482 4288085770
3.5918884 0.026745796 -1.7732986 4288085770
7.3353577 -0.051996231 -1.7952207 4288085770
3.1799011 0.032623291 -1.7724837 4288085770
6.5351257 -0.036143303 -1.7861496 4288085770
2.8119812 0.0377388 -1.7739009 4288085770
5.8138428 -0.020894051 -1.7756983 4288085770
2.4529419 0.04488945 -1.7731515 4288085770
5.2218628 -0.0089244843 -1.7770029 4288085770
2.1149902 0.052142143 -1.7710329 4288085770
4.6546631 0.0051345825 -1.7708606 4288085770
1.8150024 0.058600426 -1.7712528 4288085770
4.1776733 0.017692566 -1.772149 4288085770
1.5270081 0.066113472 -1.7702576 4288085770
3.7146301 0.030309677 -1.7711922 4288085770
1.2389832 0.074614525 -1.7662576 4288085770
3.3036804 0.042203903 -1.7723275 4288085770
1.0181885 0.081507683 -1.7730912 4288085770
2.9116516 0.055178642 -1.7701257 4288085770
0.75509644 0.091125488 -1.7666482 4288085770
2.5576477 0.067358971 -1.7702621 4288085770
0.52911377 0.098956108 -1.765565 4288085770
2.2356567 0.078709602 -1.770842 4288085770
0.32113647 0.1078825 -1.7651616 4288085770
1.9276733 0.091126442 -1.7711715 4288085770
0.13824463 0.11595917 -1.7693242 4288085770
1.6416626 0.10365009 -1.7701162 4288085770
-0.047637939 0.12400246 -1.769539 4288085770
1.3736572 0.11526966 -1.769749 4288085770
-0.21759033 0.13313389 -1.7714695 4288085770
1.1166382 0.12693977 -1.7681895 4288085770
-0.40258789 0.14216328 -1.7676622 4288085770
0.86160278 0.13960743 -1.7635897 4288085770
-0.55551147 0.15138245 -1.7692939 4288085770
0.6315918 0.15241814 -1.7625519 4288085770
-0.71548462 0.16154957 -1.7680432 4288085770
0.41659546 0.16430092 -1.7602555 4288085770
-0.85238647 0.17085457 -1.7703944 4288085770
0.22866821 0.17534256 -1.7624906 4288085770
-0.98532104 0.18017387 -1.7716752 4288085770
0.055755615 0.18746471 -1.7654582 4288085770
-1.1203003 0.18947315 -1.7709912 4288085770
-0.13024902 0.1994915 -1.7626532 4288085770
-0.29821777 0.21162701 -1.7625328 4288085770
-0.44815063 0.2228632 -1.7651013 4288085770
-0.59710693 0.23510075 -1.7656478 4288085770
-0.75411987 0.24727058 -1.7613348 4288085770
-0.88305664 0.25860977 -1.762535 4288085770
-1.000946 0.27101707 -1.7665378 4288085770
-1.1208801 0.28240299 -1.7675806 4288085770
-1.1465149 2.3813105 -1.7213534 4288085770
-1.0185547 2.4169569 -1.7219702 4288085770
-0.88555908 2.4526243 -1.721501 4288085770
-0.75366211 2.4872808 -1.7200543 4288085770
-0.59863281 2.5280771 -1.7231795 4288085770
-0.44967651 2.5658236 -1.7224241 4288085770
-0.30075073 2.6015644 -1.719679 4288085770
-0.1418457 2.6393604 -1.7187511 4288085770
-1.1472168 2.3062611 -1.7237576 4288085770
0.028106689 2.6792107 -1.7176234 4288085770
-0.97802734 2.348177 -1.7366341 4288085770
0.20605469 2.7191067 -1.7173573 4288085770
-0.85906982 2.3697538 -1.7324754 4288085770
0.39099121 2.7610397 -1.716961 4288085770
-0.72305298 2.3964319 -1.7309974 4288085770
0.57791138 2.800972 -1.7145401 4288085770
-0.58206177 2.4221392 -1.7304384 4288085770
0.7878418 2.8470421 -1.7166923 4288085770
-0.44107056 2.4468365 -1.7278849 4288085770
1.0208435 2.897233 -1.719427 4288085770
-0.30010986 2.4695292 -1.7243408 4288085770
1.2437439 2.9433575 -1.7193555 4288085770
-0.13510132 2.4993658 -1.7253479 4288085770
1.4766541 2.9895277 -1.7181112 4288085770
0.024932861 2.5251694 -1.7244607 4288085770
1.7265625 3.0387945 -1.7185584 4288085770
0.19491577 2.5520191 -1.7233964 4288085770
2.0115662 3.0962515 -1.7223612 4288085770
0.38293457 2.5839796 -1.7259966 4288085770
2.286438 3.1476421 -1.7223669 4288085770
0.55392456 2.606823 -1.7219342 4288085770
2.563324 3.1970272 -1.719349 4288085770
0.75192261 2.6368227 -1.7223722 4288085770
2.8702087 3.2515755 -1.7187883 4288085770
0.95996094 2.6668787 -1.723636 4288085770
3.1981201 3.3092384 -1.7198499 4288085770
1.1719971 2.6959486 -1.7238368 4288085770
3.5400085 3.3679695 -1.7196652 4288085770
1.40802 2.7291546 -1.7266032 4288085770
3.9148865 3.4308681 -1.7198912 4288085770
1.617981 2.7521906 -1.7218686 4288085770
4.3077393 3.4968596 -1.7207917 4288085770
1.8760681 2.7865105 -1.7252499 4288085770
4.7506409 3.5711241 -1.7257894 4288085770
2.1220398 2.8147497 -1.7248687 4288085770
5.2145691 3.646492 -1.7294196 4288085770
2.3760681 2.8420258 -1.7233545 4288085770
5.7234192 3.7300949 -1.7352346 4288085770
2.6460571 2.8703852 -1.7225589 4288085770
6.3213806 3.8311825 -1.7474278 4288085770
2.9250793 2.8977871 -1.7206126 4288085770
6.7741089 3.8854246 -1.7373537 4288085770
3.2331543 2.9303532 -1.7231416 4288085770
6.5541687 3.7578382 -1.6397651 4293729569
3.5481873 2.9599466 -1.7235638 4288085770
6.2401733 3.6077414 -1.5349075 4293729569
3.8862 2.9906626 -1.7245845 4288085770
5.9672546 3.4698858 -1.437282 4293729569
4.222229 3.0183544 -1.7236546 4288085770
6.0006409 3.4107714 -1.3789912 4293729569
4.5852661 3.0471878 -1.7232541 4288085770
5.9039612 3.3179274 -1.3061079 4293729569
4.9613037 3.0760908 -1.7236286 4288085770
5.8463745 3.2353182 -1.2405015 4293729569
5.3953857 3.1123075 -1.7279671 4288085770
5.9017944 3.1803322 -1.1858104 4293729569
5.7794189 3.1332293 -1.7242435 4288085770
5.9553223 3.1223421 -1.1321679 4293729569
6.2875671 3.1758423 -1.7332748 4288085770
5.8807678 3.035656 -1.0688735 4293729569
6.7646484 3.2052641 -1.7349063 4288085770
7.2216797 3.2245522 -1.7299322 4288085770
5.9618225 2.9095516 -0.96308482 4293729569
6.0647278 2.9057293 -1.5304238 4293729569
6.0593872 2.8578129 -0.91565263 4293729569
5.8670349 2.7913475 -1.4523863 4293729569
6.2730103 2.8256969 -0.8751241 4293729569
5.8415833 2.7119446 -1.3962096 4293729569
6.5296936 2.7998161 -0.83782256 4293729569
5.8702393 2.6438532 -1.3480459 4293729569
6.9493713 2.8007994 -0.80857956 4293729569
5.9078979 2.5768127 -1.3007213 4293729569
7.039978 2.7370176 -0.7593261 4293729569
5.9345703 2.5067158 -1.2536014 4293729569
5.9602051 2.4356155 -1.206504 4293729569
5.980896 2.3624954 -1.1605016 4293729569
6.146698 2.3111649 -1.1268924 4293729569
7.8025513 2.5260105 -0.58119977 4293729569
7.8151855 2.4408197 -0.5293957 4293729569
6.3082886 2.1785946 -1.0477511 4293729569
7.8009033 2.349494 -0.47808623 4293729569
6.5332336 2.1305962 -1.0201074 4293729569
8.1335754 2.3059826 -0.43756127 4293729569
6.9442749 2.1036015 -1.0051533 4293729569
8.7312622 2.2918377 -0.40232456 4293729569
7.4374084 2.0810394 -0.99376357 4293729569
7.9495544 2.0545721 -0.9820658 4293729569
8.5807495 2.03473 -0.97528327 4293729569
9.2199707 2.0079193 -0.96639812 4293729569
8.7621155 -4.5861201 -0.54369724 4293729569
8.3905334 -4.5728879 -0.56903541 4293729569
8.0941162 -4.5802703 -0.59618056 4293729569
7.7636414 -4.571825 -0.62283504 4293729569
7.4570923 -4.5672603 -0.6490947 4293729569
6.7798767 -4.5184627 -0.69952476 4293729569
6.5414734 -4.5245414 -0.72866428 4293729569
6.2720032 -4.5137815 -0.75625646 4293729569
5.997467 -4.4990525 -0.78291523 4293729569
5.7098083 -4.4723983 -0.80774105 4293729569
5.5666809 -4.4999695 -0.84234631 4293729569
5.3081055 -4.4791608 -0.86870062 4293729569
4.9644775 -4.496614 -0.9327122 4293729569
4.6968079 -4.4608598 -0.95714939 4293729569
4.5433655 -4.4471889 -0.41163504 4293729569
4.510376 -4.4556699 -0.98733795 4293729569
4.3309937 -4.4260988 -0.44819415 4293729569
4.1446838 -4.4138689 -0.48634768 4293729569
4.1595764 -4.4451675 -1.0493361 4293729569
3.958313 -4.3986449 -0.52348757 4293729569
3.9781189 -4.4339514 -1.0794095 4293729569
3.8943481 -4.4357786 -0.56577837 4293729569
8.1330261 -6.4157658 -1.5626768 4293729569
3.7200317 -4.4214902 -0.60371506 4293729569
3.6533203 -4.4193158 -1.141939 4293729569
3.4487 -4.3882327 -1.1683127 4293729569
3.405426 -4.3987427 -0.67903221 4293729569
3.3736572 -4.415432 -1.2087451 4293729569
3.2021484 -4.3941755 -1.2365979 4293729569
3.0957031 -4.3669744 -0.75322044 4293729569
3.0597534 -4.3837514 -1.2690033 4293729569
3.0508118 -4.401 -0.79816854 4293729569
3.8217773 -4.822206 -1.4220608 4293729569
2.8482056 -4.3934956 -1.341704 4293729569
2.7932129 -4.3799605 -0.87451279 4293729569
2.7610779 -4.4047637 -1.3802658 4293729569
2.697998 -4.3832579 -0.9151746 4293729569
2.576355 -4.3635912 -1.4042476 4293729569
8.818573 -7.5973139 -1.5856968 4293729569
2.5776062 -4.4163542 -1.4554931 4293729569
2.4422913 -4.3492217 -0.98842299 4293729569
2.5980225 -4.4779949 -1.5124539 4293729569
6.4845886 -6.5285187 -1.4936196 4293729569
2.3398132 -4.3902612 -1.5214702 4293729569
2.2749023 -4.3507042 -1.0693263 4293729569
2.0564575 -4.2846766 -1.5258311 4293729569
2.186676 -4.3479729 -1.1088392 4293729569
1.8021545 -4.1919384 -1.5317544 4293729569
4.8021851 -5.8069835 -1.5010456 4293729569
1.6444397 -4.1476402 -1.5532562 4293729569
2.005127 -4.3295398 -1.1868883 4293729569
1.5701599 -4.1468487 -1.5905372 4293729569
1.954071 -4.3396001 -1.2308253 4293729569
1.4898376 -4.1411014 -1.6248981 4293729569
2.752594 -4.8197975 -1.400468 4293729569
1.4155273 -4.1363139 -1.6611601 4293729569
3.0385132 -5.0188913 -1.5025431 4293729569
1.3442383 -4.1315131 -1.6973704 4293729569
1.7886963 -4.3518558 -1.359758 4293729569
1.2739563 -4.1267056 -1.7335633 4293729569
1.6983337 -4.3321495 -1.3962244 4293729569
1.2187195 -4.1268106 -1.7725219 4293729569
1.7608643 -4.3975468 -1.4594821 4293729569
1.1564941 -4.1219544 -1.810577 4288085770
1.7872009 -4.4411578 -1.516255 4293729569
1.104248 -4.1210432 -1.8494796 4288085770
1.5307617 -4.3194294 -1.5220731 4293729569
0.98654175 -4.0795374 -1.8723069 4288085770
1.2782898 -4.1966953 -1.5248188 4293729569
0.77407837 -3.9796281 -1.8694743 4288085770
1.1243591 -4.1293864 -1.5441426 4293729569
0.57366943 -3.8836532 -1.8674539 4288085770
1.0801392 -4.1234269 -1.584884 4293729569
0.35906982 -3.7767816 -1.8586217 4288085770
1.0449524 -4.1204233 -1.6254848 4293729569
0.18273926 -3.6896787 -1.8582314 4288085770
1.0097351 -4.1164141 -1.6670808 4293729569
0.0053100586 -3.6005945 -1.8548483 4288085770
0.98464966 -4.1163402 -1.7115234 4293729569
-0.16003418 -3.5164413 -1.8532816 4288085770
0.95947266 -4.1152768 -1.7539617 4293729569
-0.3274231 -3.4283113 -1.8487307 4288085770
0.93832397 -4.1131892 -1.7973262 4288085770
-0.48382568 -3.3441272 -1.84401 4288085770
0.92019653 -4.1110806 -1.8416399 4288085770
-0.62615967 -3.267859 -1.842086 4288085770
0.83755493 -4.0703773 -1.8688704 4288085770
-0.77661133 -3.1836548 -1.8352619 4288085770
0.64001465 -3.9573965 -1.8647166 4288085770
-0.90588379 -3.1113219 -1.8331333 4288085770
0.44949341 -3.8463821 -1.860453 4288085770
-1.0301514 -3.0399599 -1.8319229 4288085770
0.27301025 -3.7422938 -1.8569809 4288085770
0.1206665 -3.6510658 -1.8571576 4288085770
-0.046844482 -3.5489454 -1.8505408 4288085770
-0.19729614 -3.4557233 -1.8476743 4288085770
-0.34069824 -3.365469 -1.843701 4288085770
-0.48214722 -3.2742157 -1.8376895 4288085770
-0.60147095 -3.1958327 -1.8353604 4288085770
-0.72689819 -3.1124954 -1.8301114 4288085770
-0.84527588 -3.0311222 -1.8247515 4288085770
-0.94754028 -2.95965 -1.8231632 4288085770
-1.052887 -2.8852077 -1.8186129 4288085770
-1.1330261 -2.8246069 -1.8206984 4288085770
-1.0823669 -0.79693699 -1.7764777 4288085770
-1.0063171 -0.779562 -1.7761072 4288085770
-0.92227173 -0.76314259 -1.7766064 4288085770
-0.82717896 -0.74766064 -1.778922 4288085770
-0.74819946 -0.72928619 -1.7754978 4288085770
-0.65209961 -0.71380806 -1.7757975 4288085770
-0.56008911 -0.69635963 -1.7741565 4288085770
-0.45202637 -0.68181801 -1.7752577 4288085770
-0.35705566 -0.66436577 -1.7715665 4288085770
-0.23797607 -0.64976788 -1.7724806 4288085770
-0.12289429 -0.63420105 -1.7714587 4288085770
0.0021362305 -0.61858082 -1.7712675 4288085770
-1.0866089 -0.44701099 -1.7799491 4288085770
0.12420654 -0.60298824 -1.7681276 4288085770
-0.99462891 -0.43156815 -1.7773181 4288085770
0.25723267 -0.58733273 -1.766801 4288085770
-0.91171265 -0.41418362 -1.7718323 4288085770
0.4083252 -0.57357311 -1.7681779 4288085770
-0.78851318 -0.40155315 -1.7756871 4288085770
0.55633545 -0.55784416 -1.7665969 4288085770
-0.68652344 -0.38605976 -1.7728869 4288085770
0.72949219 -0.54497147 -1.7686049 4288085770
-0.56442261 -0.37244987 -1.7737559 4288085770
0.93270874 -0.5349226 -1.7761165 4288085770
-0.43533325 -0.35879803 -1.7755059 4288085770
1.1137695 -0.52102566 -1.7749852 4288085770
-0.3112793 -0.34319305 -1.773333 4288085770
1.3108826 -0.50803375 -1.7765871 4288085770
-0.17321777 -0.32950306 -1.7739311 4288085770
1.5350647 -0.49590015 -1.7797352 4288085770
-0.027099609 -0.31577301 -1.7743932 4288085770
1.7521362 -0.48182011 -1.7789935 4288085770
0.11993408 -0.30104637 -1.7728344 4288085770
1.9832153 -0.46866512 -1.779019 4288085770
0.27801514 -0.28726482 -1.7720941 4288085770
2.2102051 -0.45255566 -1.7741011 4288085770
0.4430542 -0.27244663 -1.7712313 4288085770
2.4883728 -0.44115448 -1.7763385 4288085770
0.59802246 -0.25669956 -1.7655343 4288085770
2.77948 -0.42869473 -1.777352 4288085770
0.81021118 -0.24461937 -1.7698866 4288085770
3.0785828 -0.415205 -1.7762259 4288085770
1.0092773 -0.2306242 -1.7704512 4288085770
3.4317627 -0.40441513 -1.781197 4288085770
1.2485046 -0.21840382 -1.7763458 4288085770
3.7457275 -0.38788414 -1.7728051 4288085770
1.4685364 -0.20430851 -1.7755562 4288085770
4.1800537 -0.37966537 -1.7824157 4288085770
1.7015991 -0.19015217 -1.7735461 4288085770
4.5950928 -0.36659336 -1.7813286 4288085770
1.9797974 -0.17674446 -1.7777761 4288085770
