# .PCD v0.7 - Point Cloud Data file format
VERSION 0.7
FIELDS x y z rgb
SIZE 4 4 4 4
TYPE F F F U
COUNT 1 1 1 1
WIDTH 1120
HEIGHT 1
VIEWPOINT 0 0 0 1 0 0 0
POINTS 1120
DATA ascii
7.9675407 -0.10455894 -1.8342297 4288085770
9.8405571 -0.13773346 -1.843585 4288085770
7.7146378 -0.11753327 -1.836491 4288085770
9.467659 -0.15269756 -1.844961 4288085770
7.4507446 -0.13052487 -1.8307624 4288085770
9.1177635 -0.16766894 -1.8443159 4288085770
7.2118492 -0.1435101 -1.8290105 4288085770
8.7938766 -0.18264103 -1.8446468 4288085770
7.0249786 -0.15748149 -1.8362131 4288085770
8.4689903 -0.19762641 -1.8389786 4288085770
19.338039 -0.49264383 -1.8916699 4288085770
19.421082 -0.5035966 -1.9176186 4288085770
6.8320961 -0.17046326 -1.838419 4288085770
8.2001114 -0.21260059 -1.8412589 4288085770
18.018185 -0.51048827 -1.9039222 4288085770
18.039188 -0.52154261 -1.8809279 4288085770
6.6482277 -0.18444669 -1.8406187 4288085770
7.9642487 -0.22856975 -1.8475108 4288085770
16.894295 -0.51737577 -1.9049695 4288085770
17.038357 -0.55344039 -1.8849188 4288085770
6.4863663 -0.19842368 -1.8467983 4288085770
15.829399 -0.52028501 -1.8989534 4288085770
7.6783752 -0.24256688 -1.8388041 4288085770
14.897491 -0.52120292 -1.8948106 4288085770
6.3015022 -0.2114206 -1.8429964 4288085770
7.4174995 -0.25556409 -1.8310722 4288085770
16.127529 -0.58335662 -1.8848224 4288085770
14.062584 -0.52013093 -1.890574 4288085770
6.1376419 -0.22441083 -1.8431753 4288085770
13.338676 -0.5190596 -1.8912355 4288085770
7.20364 -0.27054924 -1.8313016 4288085770
15.235699 -0.60929012 -1.8776991 4288085770
12.667759 -0.51499748 -1.8898417 4288085770
5.9897881 -0.23839879 -1.8453416 4288085770
7.0207901 -0.28552926 -1.8355023 4288085770
12.020836 -0.5089488 -1.8834211 4288085770
4.9908333 -0.19928348 -1.8511692 4288085770
19.057854 -0.82159984 -1.9226731 4288085770
14.466881 -0.63622642 -1.875465 4288085770
11.443909 -0.50290275 -1.8789364 4288085770
5.107914 -0.21430027 -1.8510952 4288085770
17.651924 -0.79048598 -1.9098924 4288085770
5.8389359 -0.2513932 -1.8445083 4288085770
6.8329506 -0.30151361 -1.8377098 4288085770
10.929977 -0.49585432 -1.8783914 4288085770
5.2209892 -0.22832346 -1.8480226 4288085770
16.522999 -0.76637924 -1.9068733 4288085770
10.47105 -0.48980707 -1.8797985 4288085770
5.3440552 -0.24234241 -1.846941 4288085770
15.468063 -0.74029297 -1.8977816 4288085770
13.821068 -0.66416436 -1.8781202 4288085770
5.6900902 -0.26439244 -1.8416733 4288085770
10.008106 -0.48077458 -1.8742023 4288085770
6.6471062 -0.31550705 -1.8359109 4288085770
5.488121 -0.25735241 -1.8508425 4288085770
14.560131 -0.71721143 -1.893562 4288085770
9.591156 -0.47174186 -1.870564 4288085770
4.95718 -0.23731017 -1.8462836 4288085770
5.6281853 -0.27237082 -1.8507475 4288085770
13.780197 -0.69612956 -1.8952295 4288085770
9.1832047 -0.46171886 -1.8629152 4288085770
5.108242 -0.25130701 -1.8561763 4288085770
5.7892456 -0.28838247 -1.8546355 4288085770
13.041248 -0.67406714 -1.8898571 4288085770
8.8242531 -0.45168984 -1.8602214 4288085770
5.5402451 -0.27739644 -1.8368388 4288085770
13.196251 -0.68812013 -1.8737465 4288085770
5.2272758 -0.2623288 -1.8530917 4288085770
6.4812622 -0.33049381 -1.8380959 4288085770
5.9372978 -0.30340344 -1.8535333 4288085770
12.369297 -0.65201157 -1.8844231 4288085770
8.4822922 -0.44166452 -1.856512 4288085770
5.3603172 -0.27434534 -1.8529966 4288085770
8.1683197 -0.43063956 -1.8537747 4288085770
6.1043434 -0.31841969 -1.8554138 4288085770
5.4983444 -0.28536355 -1.8518947 4288085770
11.743347 -0.63096094 -1.8789493 4288085770
7.8893547 -0.42060918 -1.8550079 4288085770
5.6493759 -0.29737699 -1.8537832 4288085770
6.2733803 -0.33344221 -1.8542924 4288085770
11.188381 -0.60991263 -1.8754104 4288085770
7.6353874 -0.41157943 -1.8572201 4288085770
5.8083992 -0.30939323 -1.8546643 4288085770
7.3554001 -0.39856565 -1.8504473 4288085770
18.885418 -1.0546231 -1.9213578 4288085770
5.9794273 -0.32240623 -1.8575367 4288085770
6.4514198 -0.34946567 -1.8531651 4288085770
5.4224205 -0.2913866 -1.8399773 4288085770
10.701427 -0.59186095 -1.8768159 4288085770
7.143425 -0.38953316 -1.8556211 4288085770
6.1384277 -0.33243006 -1.8544135 4288085770
6.920433 -0.37851202 -1.8548006 4288085770
6.7044373 -0.36649162 -1.8539714 4288085770
6.3314476 -0.34544307 -1.8582659 4288085770
6.5054398 -0.35547006 -1.854129 4288085770
6.3174286 -0.34548759 -1.8372787 4288085770
6.6314507 -0.36449087 -1.8510337 4288085770
10.240456 -0.57281774 -1.8751954 4288085770
12.630451 -0.713076 -1.8723209 4288085770
6.8374786 -0.38051236 -1.8518809 4288085770
9.8084831 -0.55377954 -1.8725483 4288085770
18.705463 -1.0726521 -1.9015633 4288085770
7.0545006 -0.39653248 -1.8537178 4288085770
9.4065018 -0.53474671 -1.8688738 4288085770
9.0315132 -0.51571608 -1.8651744 4288085770
7.2605095 -0.41156626 -1.8485627 4288085770
7.4985237 -0.42759281 -1.8483807 4288085770
8.6795311 -0.49769032 -1.8604563 4288085770
7.7725296 -0.44461107 -1.8531679 4288085770
8.0605316 -0.46263337 -1.8569447 4288085770
8.3625374 -0.48066127 -1.8587085 4288085770
5.3045921 -0.30538118 -1.8411156 4288085770
17.756611 -1.0685327 -1.9144237 4288085770
6.1636047 -0.3604787 -1.8384523 4288085770
18.93961 -1.1436641 -1.9115088 4288085770
12.099648 -0.73604208 -1.8678584 4288085770
17.617653 -1.0845658 -1.894587 4288085770
5.2007751 -0.32037115 -1.8452431 4288085770
6.0257797 -0.37546909 -1.8406112 4288085770
16.806808 -1.0834454 -1.9143274 4288085770
11.639854 -0.76100761 -1.8673351 4288085770
18.013851 -1.1896055 -1.9014603 4288085770
16.714867 -1.1044775 -1.8974587 4288085770
5.0739479 -0.33237839 -1.8403851 4288085770
5.8889618 -0.39046466 -1.8407692 4288085770
15.909996 -1.0903721 -1.9101642 4288085770
11.225067 -0.78597331 -1.8687704 4288085770
15.868065 -1.1194082 -1.8942678 4288085770
4.9731369 -0.3463757 -1.8415076 4288085770
17.281116 -1.2405411 -1.9032458 4288085770
5.7631454 -0.40545678 -1.8429167 4288085770
15.064175 -1.0943081 -1.9039472 4288085770
10.805279 -0.80695164 -1.8642009 4288085770
15.106277 -1.1353484 -1.8910007 4288085770
5.6283302 -0.41945928 -1.8400702 4288085770
14.297359 -1.0962504 -1.8986533 4288085770
16.60638 -1.2884876 -1.9029708 4288085770
10.464493 -0.83192337 -1.8665681 4288085770
14.434486 -1.1522933 -1.889653 4288085770
5.5125237 -0.43445504 -1.8412086 4288085770
13.625534 -1.0971934 -1.8972698 4288085770
15.990646 -1.3344404 -1.902637 4288085770
5.3957214 -0.44945574 -1.8403478 4288085770
12.973709 -1.095145 -1.8928611 4288085770
10.14072 -0.85589951 -1.8679169 4288085770
13.797703 -1.1682515 -1.8842709 4288085770
12.39888 -1.0930974 -1.8913816 4288085770
5.2699203 -0.46246618 -1.8344907 4288085770
15.404911 -1.3774048 -1.8982686 4288085770
9.818943 -0.87788248 -1.8662593 4288085770
13.261932 -1.1892054 -1.8858072 4288085770
18.916962 -1.7076696 -1.9487956 4288085770
11.850048 -1.0880592 -1.8868718 4288085770
5.1751289 -0.47845876 -1.8386115 4288085770
17.668118 -1.6575801 -1.9338254 4288085770
9.5121727 -0.8988713 -1.8625858 4288085770
12.753162 -1.2081665 -1.8853141 4288085770
14.890182 -1.4203682 -1.8978345 4288085770
11.358212 -1.0830179 -1.8863095 4288085770
16.631275 -1.6184914 -1.9286857 4288085770
5.0753403 -0.49345958 -1.8387346 4288085770
10.871365 -1.0749856 -1.8817359 4288085770
12.284393 -1.227132 -1.8847841 4288085770
9.2364082 -0.92185736 -1.8618878 4288085770
15.671429 -1.5784147 -1.921473 4288085770
14.413456 -1.4633381 -1.8963655 4288085770
10.459522 -1.0699457 -1.8841002 4288085770
4.9865532 -0.50845718 -1.8408477 4288085770
14.793583 -1.5403471 -1.9141898 4288085770
11.839634 -1.2451068 -1.8812295 4288085770
8.9896545 -0.94584036 -1.8641653 4288085770
10.071678 -1.0639105 -1.8854402 4288085770
18.773678 -2.0006969 -1.9515804 4288085770
14.03373 -1.5072826 -1.9108096 4288085770
13.982735 -1.5073106 -1.8958561 4288085770
9.6598244 -1.0518873 -1.8797889 4288085770
11.465874 -1.2670764 -1.8836187 4288085770
13.340881 -1.4752251 -1.9073704 4288085770
8.7379036 -0.96783412 -1.8614429 4288085770
9.2959671 -1.0418627 -1.877098 4288085770
17.913933 -2.0106311 -1.9473873 4288085770
12.689018 -1.4421711 -1.9038914 4288085770
13.619022 -1.5532799 -1.9002898 4288085770
8.9601059 -1.0318365 -1.8763815 4288085770
11.107121 -1.2880518 -1.8839918 4288085770
8.5201492 -0.99082232 -1.8626915 4288085770
12.090157 -1.4111258 -1.8993684 4288085770
17.11319 -2.0185671 -1.9451354 4288085770
8.6392403 -1.0208137 -1.8746489 4288085770
11.560295 -1.3830781 -1.8987888 4288085770
13.258305 -1.5962557 -1.9017133 4288085770
8.3343697 -1.0087945 -1.8718997 4288085770
10.777367 -1.3090304 -1.8843381 4288085770
8.3144035 -1.0138141 -1.8629287 4288085770
11.037418 -1.352042 -1.8931961 4288085770
16.372444 -2.0225067 -1.9438193 4288085770
8.0495033 -0.9977752 -1.8701342 4288085770
10.60355 -1.3279953 -1.8965379 4288085770
7.7836227 -0.98575741 -1.8683492 4288085770
12.929596 -1.6402352 -1.9031097 4288085770
10.479622 -1.3320086 -1.8866593 4288085770
8.1076508 -1.0348127 -1.8601624 4288085770
10.181671 -1.3019584 -1.8958642 4288085770
15.65469 -2.0204573 -1.9384687 4288085770
7.5097351 -0.97074741 -1.8625648 4288085770
9.7797852 -1.275928 -1.8931723 4288085770
7.2628479 -0.95773339 -1.85976 4288085770
10.18388 -1.3529935 -1.8859742 4288085770
9.3818932 -1.246904 -1.8874698 4288085770
12.598881 -1.6792231 -1.9004965 4288085770
7.9159126 -1.0568087 -1.8593842 4288085770
7.0349541 -0.94471896 -1.8579383 4288085770
14.986938 -2.0174086 -1.9350696 4288085770
9.0340004 -1.2218789 -1.8847307 4288085770
19.113949 -2.5837622 -1.9775641 4288085770
6.8200645 -0.93270409 -1.8571068 4288085770
8.6740952 -1.1928624 -1.8769937 4288085770
9.9271469 -1.3769743 -1.8892597 4288085770
6.625164 -0.92068577 -1.8582569 4288085770
7.7391777 -1.0798066 -1.8585944 4288085770
8.3672028 -1.1698371 -1.8762217 4288085770
12.338181 -1.7262015 -1.9058366 4288085770
14.370182 -2.0123627 -1.9326193 4288085770
6.4342575 -0.90767002 -1.8584014 4288085770
8.0832939 -1.1468154 -1.8744287 4288085770
18.392231 -2.6067262 -1.9672717 4288085770
6.2443542 -0.89466131 -1.8555449 4288085770
7.7753792 -1.1188089 -1.8646466 4288085770
9.6584053 -1.3969688 -1.8855472 4288085770
6.0754471 -0.88264352 -1.8576715 4288085770
7.56744 -1.1008049 -1.8577955 4288085770
13.778419 -2.0033212 -1.9291372 4288085770
7.5314598 -1.0977843 -1.8658215 4288085770
12.046471 -1.7651937 -1.9031868 4288085770
5.9075279 -0.86963165 -1.856795 4288085770
7.2655373 -1.0727754 -1.8590077 4288085770
5.7496071 -0.8566187 -1.8569093 4288085770
17.825527 -2.6436851 -1.9668685 4288085770
7.0346146 -1.0507586 -1.8571687 4288085770
5.5866814 -0.84161127 -1.8540238 4288085770
6.8116798 -1.0277463 -1.8533202 4288085770
9.4086647 -1.4169611 -1.8838171 4288085770
13.232662 -1.9952826 -1.9266151 4288085770
7.4147148 -1.124802 -1.8589855 4288085770
5.4397545 -0.82860118 -1.8531282 4288085770
6.6257477 -1.0097233 -1.8564491 4288085770
5.2948151 -0.8145957 -1.8502287 4288085770
11.794773 -1.808182 -1.9045093 4288085770
6.4368172 -0.99070603 -1.8565786 4288085770
5.1778793 -0.80357528 -1.8553102 4288085770
6.2518806 -0.97069347 -1.8547022 4288085770
17.308826 -2.6836476 -1.9674261 4288085770
5.0459328 -0.7895658 -1.8543988 4288085770
6.0779305 -0.95067722 -1.8548157 4288085770
12.725899 -1.9862436 -1.926055 4288085770
9.1909332 -1.4399526 -1.8840642 4288085770
4.9219933 -0.77655739 -1.8534826 4288085770
5.9169846 -0.93266231 -1.8549221 4288085770
7.2849884 -1.149794 -1.8631569 4288085770
5.7590294 -0.91364956 -1.8540233 4288085770
5.6090736 -0.89563751 -1.8531197 4288085770
5.4620972 -0.87562728 -1.8512089 4288085770
5.324131 -0.85761392 -1.8512944 4288085770
11.572083 -1.8541691 -1.9078116 4288085770
5.1831589 -0.83861089 -1.8463804 4288085770
5.0681801 -0.82259274 -1.8494495 4288085770
12.239136 -1.9742086 -1.9244697 4288085770
4.948204 -0.80558324 -1.848521 4288085770
16.838127 -2.7236171 -1.9669411 4288085770
18.81813 -3.0477657 -1.997856 4288085770
8.9882088 -1.4639418 -1.8862996 4288085770
7.1262627 -1.1708008 -1.8593456 4288085770
11.776363 -1.9601799 -1.920858 4288085770
11.376389 -1.9011573 -1.9120913 4288085770
17.693348 -2.9546976 -1.9796721 4288085770
8.7734909 -1.4849432 -1.882539 4288085770
16.392433 -2.7655897 -1.9664373 4288085770
6.9955406 -1.1938021 -1.8595128 4288085770
11.324585 -1.9431543 -1.9162296 4288085770
16.799576 -2.8896241 -1.9753397 4288085770
11.168697 -1.9451504 -1.9133749 4288085770
8.569767 -1.5049431 -1.8797661 4288085770
15.952732 -2.801569 -1.9629142 4288085770
6.8668289 -1.2168039 -1.859678 4288085770
10.933815 -1.9321227 -1.9175586 4288085770
15.973801 -2.8255553 -1.9719476 4288085770
10.991013 -1.9921426 -1.9166373 4288085770
10.565037 -1.9190902 -1.9198633 4288085770
8.3970451 -1.5289422 -1.8789735 4288085770
15.192013 -2.7604976 -1.965513 4288085770
6.7361221 -1.2388123 -1.8568428 4288085770
15.603046 -2.8505454 -1.9653375 4288085770
10.195251 -1.9020685 -1.9171599 4288085770
14.495224 -2.7034397 -1.9630187 4288085770
8.2253304 -1.5519419 -1.8781775 4288085770
10.803318 -2.0341423 -1.9158976 4288085770
6.6364098 -1.264809 -1.8609879 4288085770
15.281357 -2.8985248 -1.9677329 4288085770
9.8624687 -1.8880421 -1.9184294 4288085770
13.821434 -2.6423934 -1.9564945 4288085770
19.573391 -3.7418766 -2.0246909 4288085770
8.0566139 -1.572946 -1.8753743 4288085770
10.653633 -2.0831356 -1.9201385 4288085770
9.4826736 -1.8610356 -1.9077129 4288085770
13.20364 -2.58535 -1.950928 4288085770
6.5267105 -1.2888111 -1.8621376 4288085770
14.981667 -2.9475064 -1.9701099 4288085770
19.483715 -3.8688769 -2.0300486 4288085770
9.1338768 -1.8360283 -1.8989724 4288085770
12.632843 -2.5323076 -1.9473276 4288085770
7.9129105 -1.5989445 -1.876559 4288085770
10.491951 -2.1271362 -1.920379 4288085770
6.4160004 -1.3108218 -1.8592834 4288085770
14.701973 -2.9964926 -1.9714684 4288085770
12.071037 -2.4742768 -1.9387079 4288085770
8.8380852 -1.8190074 -1.8992014 4288085770
19.432037 -4.0028791 -2.0363867 4288085770
19.536034 -4.0258975 -2.0333431 4288085770
7.7791977 -1.6239438 -1.8777325 4288085770
11.589233 -2.4272408 -1.9360396 4288085770
6.3192978 -1.3348254 -1.8604209 4288085770
8.5522766 -1.7989933 -1.8964148 4288085770
10.349262 -2.1731343 -1.9226063 4288085770
14.425282 -3.0434833 -1.9708194 4288085770
18.829334 -4.0048337 -2.0359349 4288085770
11.132431 -2.380208 -1.9333487 4288085770
8.2864761 -1.780977 -1.8956143 4288085770
19.346363 -4.1318893 -2.037744 4288085770
7.6464958 -1.6489458 -1.8779047 4288085770
6.2245941 -1.3588315 -1.8605565 4288085770
10.222576 -2.2201343 -1.9248211 4288085770
10.714619 -2.3371744 -1.9326311 4288085770
8.0216675 -1.7599649 -1.8928062 4288085770
14.168598 -3.0924764 -1.9701562 4288085770
18.046616 -3.9557862 -2.0265336 4288085770
7.518795 -1.6739488 -1.878072 4288085770
19.326675 -4.2698975 -2.043061 4288085770
10.311802 -2.2931466 -1.9298978 4288085770
7.7748604 -1.7409526 -1.8909862 4288085770
6.1338997 -1.3828384 -1.8606881 4288085770
10.0839 -2.26614 -1.924044 4288085770
13.935917 -3.1434698 -1.9704752 4288085770
9.9389839 -2.2521176 -1.9291437 4288085770
17.325901 -3.9117365 -2.0210867 4288085770
7.5290451 -1.7189443 -1.8871586 4288085770
7.3990936 -1.6989543 -1.8772321 4288085770
19.320004 -4.414907 -2.0483809 4288085770
9.5641594 -2.2061009 -1.9223806 4288085770
6.0532074 -1.4078418 -1.8628128 4288085770
7.309227 -1.6999321 -1.8863144 4288085770
9.9582214 -2.3121448 -1.9242549 4288085770
16.687183 -3.8746877 -2.0195808 4288085770
13.727234 -3.1984639 -1.9717809 4288085770
9.1993256 -2.1590874 -1.9146061 4288085770
7.3044014 -1.72895 -1.88238 4288085770
7.0894089 -1.6789262 -1.8824652 4288085770
19.311314 -4.5579228 -2.0506971 4288085770
5.9655113 -1.4308534 -1.8609391 4288085770
8.861496 -2.1150742 -1.9078137 4288085770
9.821537 -2.3541548 -1.9214669 4288085770
6.8865852 -1.6599131 -1.8826053 4288085770
15.999462 -3.8186517 -2.0090771 4288085770
13.548553 -3.2574573 -1.9750677 4288085770
8.5466537 -2.0730612 -1.9020048 4288085770
7.1937027 -1.754957 -1.8815337 4288085770
6.6977577 -1.6419039 -1.881735 4288085770
19.379631 -4.7189341 -2.0589831 4288085770
5.8998337 -1.4598531 -1.8660583 4288085770
8.2878227 -2.0420372 -1.9041697 4288085770
15.424744 -3.7816072 -2.0085127 4288085770
9.695858 -2.397166 -1.9186708 4288085770
6.5009155 -1.6188992 -1.877861 4288085770
13.383873 -3.3174539 -1.9773436 4288085770
8.0229721 -2.0060201 -1.9023286 4288085770
7.0850182 -1.7809647 -1.8806852 4288085770
6.312088 -1.5978961 -1.873984 4288085770
14.850018 -3.73457 -2.0039263 4288085770
19.445957 -4.8819485 -2.0662742 4288085770
5.8251457 -1.4848619 -1.8661771 4288085770
7.7561378 -1.9690082 -1.8984873 4288085770
9.58918 -2.4441748 -1.9178658 4288085770
6.153244 -1.5808825 -1.8760889 4288085770
13.228195 -3.3794494 -1.9806154 4288085770
7.5182838 -1.934994 -1.8966266 4288085770
6.9813232 -1.8059746 -1.8788301 4288085770
5.9794044 -1.5598805 -1.8721983 4288085770
14.280293 -3.683538 -1.9973258 4288085770
7.2704277 -1.8969891 -1.8897659 4288085770
5.7584572 -1.5108674 -1.8682903 4288085770
19.563274 -5.0609632 -2.0755537 4288085770
5.8335533 -1.5428679 -1.8742913 4288085770
9.4985085 -2.4941819 -1.9190526 4288085770
7.0455627 -1.8619802 -1.8858911 4288085770
13.062519 -3.4374528 -1.9798869 4288085770
6.8956299 -1.8339778 -1.8809648 4288085770
13.724567 -3.6285114 -1.9887043 4288085770
5.6797142 -1.5238634 -1.8723871 4288085770
6.8376999 -1.8299708 -1.8830075 4288085770
5.6917686 -1.5358769 -1.8684014 4288085770
5.5418549 -1.5068537 -1.8734727 4288085770
6.6398354 -1.7989603 -1.8811171 4288085770
9.4028358 -2.5431921 -1.9182414 4288085770
13.26384 -3.5904737 -1.9900336 4288085770
12.928848 -3.5014534 -1.9821423 4288085770
6.8109398 -1.8619857 -1.8810985 4288085770
6.4529648 -1.7689526 -1.878219 4288085770
5.3969955 -1.4858513 -1.8705564 4288085770
5.6290932 -1.5628855 -1.8695132 4288085770
6.2860985 -1.7429368 -1.8803114 4288085770
5.263134 -1.467846 -1.8696363 4288085770
12.777107 -3.5384498 -1.983356 4288085770
6.1152191 -1.7139306 -1.8774012 4288085770
9.3241615 -2.5942001 -1.9194192 4288085770
5.1412735 -1.4508375 -1.8707078 4288085770
6.7402496 -1.8929887 -1.8842257 4288085770
12.805172 -3.5664544 -1.9843905 4288085770
5.9553375 -1.6869192 -1.8774854 4288085770
5.0214005 -1.4328285 -1.8717753 4288085770
5.57341 -1.5898924 -1.8716183 4288085770
19.3092 -5.4259858 -2.0815613 4288085770
5.8014488 -1.659912 -1.875564 4288085770
19.502182 -5.4880772 -2.0495214 4288085770
12.315372 -3.4884243 -1.97866 4288085770
4.8995247 -1.4138281 -1.8688425 4288085770
9.271492 -2.6522026 -1.9245882 4288085770
5.6535568 -1.6329033 -1.8746375 4288085770
6.6615601 -1.920995 -1.8853537 4288085770
12.707489 -3.6364546 -1.9886258 4288085770
5.5176659 -1.6078956 -1.8737046 4288085770
18.466469 -5.2989006 -2.085041 4288085770
5.5197258 -1.6168993 -1.8737214 4288085770
11.888634 -3.4414001 -1.974939 4288085770
5.3877678 -1.5838844 -1.8747683 4288085770
18.99646 -5.4931726 -1.9879825 4293729569
5.2568665 -1.5588791 -1.872831 4288085770
9.202816 -2.7042112 -1.9257584 4288085770
6.5828743 -1.9480077 -1.8834792 4288085770
17.581726 -5.1498332 -2.0775106 4288085770
12.600811 -3.7034602 -1.9898623 4288085770
5.1279564 -1.5328736 -1.8708894 4288085770
11.487892 -3.3963761 -1.9721985 4288085770
5.0040512 -1.507869 -1.868946 4288085770
5.4500389 -1.6389153 -1.870828 4288085770
18.728741 -5.5592494 -1.948361 4293729569
4.8981323 -1.485859 -1.8699927 4288085770
16.731983 -5.0007763 -2.0669484 4288085770
9.14814 -2.7602198 -1.9279244 4288085770
6.5131912 -1.9780154 -1.8846029 4288085770
11.082153 -3.3463583 -1.9664516 4288085770
12.519135 -3.7754636 -1.9930869 4288085770
5.4033661 -1.6679237 -1.8729289 4288085770
15.918236 -4.8517294 -2.053354 4288085770
18.599033 -5.6633124 -1.9216968 4293729569
10.71241 -3.3003378 -1.963681 4288085770
6.4395065 -2.0050287 -1.8827237 4288085770
9.1124687 -2.8212242 -1.9330838 4288085770
12.43346 -3.8474698 -1.9953146 4288085770
19.633408 -6.0662827 -1.0566314 4293729569
15.169479 -4.7116866 -2.0407207 4288085770
5.3426857 -1.6919389 -1.8710312 4288085770
10.35466 -3.2523217 -1.9588952 4288085770
18.585323 -5.8013668 -1.9050015 4293729569
6.3718147 -2.0330405 -1.8818408 4288085770
9.0648003 -2.8792334 -1.9352472 4288085770
14.50172 -4.5876422 -2.0330491 4288085770
12.356785 -3.9224763 -1.9975401 4288085770
19.614697 -6.2103424 -1.036953 4293729569
10.018906 -3.207304 -1.9560962 4288085770
5.2960052 -1.7189488 -1.8721275 4288085770
18.734627 -5.9914131 -1.9012712 4293729569
13.857964 -4.4636068 -2.0223558 4288085770
6.3171349 -2.0650477 -1.8839549 4288085770
9.0241318 -2.9392416 -1.9384084 4288085770
9.694149 -3.1612921 -1.9512849 4288085770
12.289104 -3.9974856 -1.9987575 4288085770
5.2613335 -1.749954 -1.8762213 4288085770
13.279194 -4.3525691 -2.0156322 4288085770
18.892918 -6.1864605 -1.8975432 4293729569
6.2594528 -2.0950589 -1.8840671 4288085770
9.3853912 -3.1172776 -1.9484636 4288085770
8.9754562 -2.9962573 -1.9375699 4288085770
12.231434 -4.0764952 -2.0009739 4288085770
12.744434 -4.2495356 -2.009886 4288085770
5.2186584 -1.7779648 -1.8773159 4288085770
19.108212 -6.4025087 -1.8958086 4293729569
9.0816345 -3.070267 -1.9436313 4288085770
6.2237587 -2.1310611 -1.8891723 4288085770
12.237667 -4.1485038 -2.0041194 4288085770
8.9427834 -3.0572681 -1.9397254 4288085770
12.186756 -4.1585035 -2.004185 4288085770
8.8118706 -3.0302515 -1.9427836 4288085770
5.1699715 -1.8029809 -1.8754091 4288085770
19.345509 -6.6295581 -1.8950772 4293729569
11.764889 -4.0524755 -1.9983329 4288085770
6.1490707 -2.1540849 -1.8822845 4288085770
8.5321007 -2.9842434 -1.9379317 4288085770
8.9151154 -3.1202774 -1.9428805 4288085770
12.165077 -4.2485118 -2.0083921 4288085770
11.313114 -3.9594512 -1.991534 4288085770
5.1272964 -1.829994 -1.8755012 4288085770
8.2843361 -2.9452322 -1.9360666 4288085770
6.1133804 -2.1890898 -1.8863873 4288085770
10.903336 -3.8754253 -1.9877167 4288085770
8.8914375 -3.1832895 -1.9450319 4288085770
12.134399 -4.3345232 -2.0105982 4288085770
5.0896149 -1.8580072 -1.8755908 4288085770
8.0295601 -2.901226 -1.9311967 4288085770
10.49155 -3.7854075 -1.9798888 4288085770
6.0746956 -2.2230983 -1.8884906 4288085770
7.7927818 -2.85922 -1.9273151 4288085770
8.8627625 -3.2453051 -1.9451852 4288085770
10.136765 -3.710381 -1.9790418 4288085770
12.114716 -4.4235339 -2.0138009 4288085770
5.0549316 -1.8860184 -1.8766775 4288085770
6.0240059 -2.2531142 -1.8865955 4288085770
7.557003 -2.8162158 -1.9224304 4288085770
9.7719688 -3.6283655 -1.9721889 4288085770
8.8670845 -3.3183112 -1.9513324 4288085770
12.101028 -4.5155473 -2.0160038 4288085770
5.0222588 -1.9160304 -1.8777664 4288085770
9.4551811 -3.5593448 -1.9703209 4288085770
7.3492241 -2.7802064 -1.9215357 4288085770
5.9813156 -2.2841287 -1.8856956 4288085770
9.1303711 -3.4833336 -1.9634451 4288085770
7.1264305 -2.7352071 -1.9146352 4288085770
8.8644066 -3.3903213 -1.9554833 4288085770
12.109356 -4.6165571 -2.0212064 4288085770
4.9885674 -1.9430432 -1.8778501 4288085770
5.9556351 -2.3221347 -1.8897952 4288085770
8.8335686 -3.4143205 -1.9585594 4288085770
6.9376411 -2.7001989 -1.9137259 4288085770
8.8487282 -3.4563384 -1.9556327 4288085770
8.5257645 -3.338315 -1.9496686 4288085770
12.123672 -4.7205677 -2.0264094 4288085770
4.9528885 -1.9710613 -1.8759371 4288085770
6.7408447 -2.660198 -1.9088128 4288085770
5.9069328 -2.3501544 -1.8858939 4288085770
8.2519493 -3.2713089 -1.9427667 4288085770
6.5620499 -2.6241927 -1.9068924 4288085770
8.864048 -3.5343461 -1.9617801 4288085770
12.142986 -4.8255806 -2.0306098 4288085770
4.9222069 -1.9990728 -1.8770198 4288085770
8.001133 -3.2102962 -1.9398574 4288085770
5.8772392 -2.3841658 -1.8869884 4288085770
6.3782425 -2.5841951 -1.900968 4288085770
7.7513123 -3.1462898 -1.9339404 4288085770
8.8363609 -3.5963697 -1.9579312 4288085770
6.2174377 -2.5511889 -1.9000379 4288085770
12.207302 -4.948586 -2.040808 4288085770
4.8965225 -2.0290847 -1.8781021 4288085770
7.5214844 -3.0882816 -1.9300188 4288085770
5.8445435 -2.4171808 -1.8860832 4288085770
6.0646362 -2.5201821 -1.900105 4288085770
7.2956581 -3.0292752 -1.9250915 4288085770
8.8506813 -3.6743813 -1.9620787 4288085770
12.266617 -5.0715938 -2.0500104 4288085770
13.707748 -5.6616678 -1.14298 4293729569
13.840332 -5.7186761 -0.67098182 4293729569
4.8808365 -2.0630941 -1.8811839 4288085770
5.8898163 -2.4771905 -1.8911663 4288085770
5.8218422 -2.4541907 -1.8881774 4288085770
7.0948296 -2.9782658 -1.923159 4288085770
13.679321 -5.7241859 -0.42513141 4293729569
5.7410011 -2.4441876 -1.8892257 4288085770
6.8889847 -2.9212627 -1.9172183 4288085770
13.749035 -5.7800493 -0.020185266 4293729569
8.863987 -3.7513947 -1.9652247 4288085770
13.625008 -5.7307525 -1.1061935 4293729569
13.751656 -5.784596 -0.71219426 4293729569
12.253914 -5.1646214 -2.0452123 4288085770
4.858139 -2.0921056 -1.8822613 4288085770
5.8121567 -2.4971962 -1.8932728 4288085770
5.6161766 -2.417176 -1.8922766 4288085770
6.6971436 -2.8692579 -1.9132757 4288085770
13.60358 -5.7972679 -0.38934699 4293729569
6.5073051 -2.816257 -1.9073296 4288085770
5.4743538 -2.3831801 -1.8873279 4288085770
13.702347 -5.8609676 -0.063392051 4293729569
13.724976 -5.8755112 -0.75840437 4293729569
13.618267 -5.8318381 -1.0734073 4293729569
8.8833084 -3.8334088 -1.9683758 4288085770
12.054203 -5.1796927 -2.0094149 4288085770
4.8324585 -2.1221223 -1.8813431 4288085770
5.7874565 -2.5322099 -1.8933642 4288085770
6.3444519 -2.7712481 -1.9063764 4288085770
5.3325233 -2.3471832 -1.8823749 4288085770
13.578842 -5.8913536 -0.35456145 4293729569
6.1786003 -2.7242455 -1.9024216 4288085770
13.720657 -5.966887 -0.10959399 4293729569
13.784298 -6.002429 -0.80861419 4293729569
13.634518 -5.9409227 -1.0416172 4293729569
5.2277031 -2.3261702 -1.8874208 4288085770
8.9136162 -3.9184198 -1.9735233 4288085770
11.81448 -5.1737757 -1.9656084 4293729569
4.8097687 -2.1521363 -1.8814223 4288085770
6.0377426 -2.6852345 -1.9034617 4288085770
5.7687531 -2.5692217 -1.8944546 4288085770
5.10886 -2.2961688 -1.8854604 4288085770
13.59309 -6.0004454 -0.31877288 4293729569
5.8908806 -2.6422286 -1.9014988 4288085770
5.0020218 -2.2701607 -1.8874977 4288085770
5.7460098 -2.5992274 -1.8975341 4288085770
8.9169235 -3.993443 -1.9716731 4288085770
11.660755 -5.1998386 -1.935793 4293729569
4.7850685 -2.1801543 -1.879499 4288085770
5.7570419 -2.6092305 -1.897545 4288085770
5.607132 -2.5562239 -1.8945644 4288085770
4.8941803 -2.2431583 -1.8865339 4288085770
5.4742622 -2.5152235 -1.8905935 4288085770
4.7843285 -2.21316 -1.8835655 4288085770
8.9552269 -4.0824542 -1.9768214 4288085770
11.627045 -5.2778778 -1.9239811 4293729569
5.7463379 -2.6492434 -1.8986344 4288085770
4.7773781 -2.2161617 -1.8835773 4288085770
5.3553772 -2.4782162 -1.8906188 4288085770
4.7054825 -2.1961436 -1.8905972 4288085770
5.2314949 -2.4392161 -1.8866444 4288085770
5.1175957 -2.4012146 -1.8836633 4288085770
5.7366257 -2.689254 -1.9007227 4288085770
8.9775238 -4.1644745 -1.976969 4288085770
11.511322 -5.3189387 -1.8971633 4293729569
4.7626762 -2.2481742 -1.8846533 4288085770
5.0066948 -2.3642132 -1.8806818 4288085770
4.9117928 -2.333205 -1.8816988 4288085770
4.8178902 -2.3021989 -1.8817151 4288085770
5.7209091 -2.72627 -1.8998102 4288085770
4.7549667 -2.2821829 -1.8877275 4288085770
9.0378227 -4.2654819 -1.9851223 4288085770
11.511608 -5.410975 -1.8883501 4293729569
4.720974 -2.2681966 -1.8797278 4288085770
4.6440582 -2.2421851 -1.8827398 4288085770
5.7111855 -2.7652822 -1.9008961 4288085770
4.7402649 -2.3141975 -1.8878032 4288085770
9.0831223 -4.3584962 -1.9892725 4288085770
11.555889 -5.5230036 -1.8855401 4293729569
5.716465 -2.8112898 -1.9049838 4288085770
4.7195511 -2.3422191 -1.883876 4288085770
11.60017 -5.6350369 -1.8807299 4293729569
9.1354141 -4.4585137 -1.9924303 4288085770
5.7077446 -2.8513043 -1.9050709 4288085770
4.7188416 -2.3792267 -1.8879498 4288085770
11.658443 -5.7530661 -1.8779197 4293729569
9.1987038 -4.5605254 -1.9985828 4288085770
5.7110062 -2.8943152 -1.9071537 4288085770
4.7011261 -2.408246 -1.8850219 4288085770
11.739723 -5.8860974 -1.8761201 4293729569
9.2499886 -4.6595445 -2.0007393 4288085770
5.7082787 -2.9363298 -1.9072397 4288085770
4.7043991 -2.4462533 -1.8890944 4288085770
11.793999 -6.0061359 -1.8693167 4293729569
9.3302765 -4.7735562 -2.0079014 4288085770
5.7155418 -2.9823413 -1.9093249 4288085770
4.6996803 -2.4812682 -1.8891673 4288085770
11.880257 -6.1401687 -1.8665146 4293729569
9.4145508 -4.8895698 -2.0140641 4288085770
5.7197952 -3.0253537 -1.9104067 4288085770
4.6959419 -2.5142817 -1.8892354 4288085770
11.868511 -6.2252231 -1.8476957 4293729569
9.531826 -5.022573 -2.0272331 4288085770
5.7300491 -3.0713649 -1.9124895 4288085770
4.6952133 -2.5502946 -1.8903068 4288085770
12.019768 -6.3952489 -1.8519111 4293729569
9.495079 -5.0766282 -2.006372 4288085770
5.739296 -3.1173778 -1.913573 4288085770
4.6954689 -2.5853066 -1.8913754 4288085770
12.313026 -6.6402512 -1.8751582 4293729569
9.3463211 -5.0717182 -1.9624853 4288085770
5.7585373 -3.167387 -1.916656 4288085770
4.6947327 -2.6203208 -1.8914447 4288085770
12.468277 -6.8162832 -1.8763819 4293729569
9.2205582 -5.0747995 -1.9235955 4293729569
5.7707787 -3.2133999 -1.9177369 4288085770
4.6939812 -2.6543365 -1.8905119 4288085770
5.7950096 -3.265409 -1.9208198 4288085770
9.1647911 -5.1128616 -1.8977175 4293729569
4.7122231 -2.6973414 -1.8955815 4288085770
5.8102379 -3.3124237 -1.9209001 4288085770
9.1530342 -5.1749129 -1.8798507 4293729569
4.7214661 -2.736352 -1.8976502 4288085770
5.8214455 -3.3554435 -1.9179757 4288085770
9.1352654 -5.231966 -1.8599787 4293729569
4.7207031 -2.769371 -1.8947154 4288085770
5.8556671 -3.4124513 -1.92206 4288085770
9.1604996 -5.3130102 -1.8471189 4293729569
5.8868675 -3.4654603 -1.9251388 4288085770
4.7289238 -2.8053861 -1.8937789 4288085770
9.2507324 -5.4310355 -1.8472788 4293729569
5.930069 -3.5254664 -1.9302217 4288085770
4.7531509 -2.8513913 -1.8988494 4288085770
5.9542618 -3.5744843 -1.9282984 4288085770
9.3809586 -5.571054 -1.8524497 4293729569
11.515862 -6.8252726 -1.8721877 4293729569
4.7583618 -2.8854077 -1.8969114 4288085770
5.9974518 -3.6344919 -1.9323813 4288085770
11.111073 -6.6532459 -1.8671782 4293729569
9.5201912 -5.7190738 -1.8576288 4293729569
4.7825699 -2.9294157 -1.8999778 4288085770
6.049633 -3.6974978 -1.9374627 4288085770
10.518265 -6.3632703 -1.8260887 4293729569
4.8017769 -2.9704249 -1.9020422 4288085770
9.6144028 -5.840107 -1.8537914 4293729569
6.092804 -3.7555108 -1.9385414 4288085770
10.187466 -6.2222428 -1.8250796 4293729569
4.8359718 -3.0194273 -1.9081103 4288085770
9.7146111 -5.9651399 -1.8499569 4293729569
6.1449699 -3.8185182 -1.9426228 4288085770
9.9016647 -6.1032104 -1.8290772 4293729569
4.8571587 -3.0604405 -1.9081732 4288085770
6.184124 -3.8725362 -1.940697 4288085770
9.7858086 -6.0721836 -1.8391101 4293729569
9.724865 -6.0471582 -1.8491104 4293729569
4.8823395 -3.1034515 -1.9092367 4288085770
6.2432823 -3.9385457 -1.9437786 4288085770
9.4110413 -5.9021425 -1.8430791 4293729569
9.8850021 -6.1962218 -1.8322742 4293729569
6.3024216 -4.0025549 -1.9468564 4288085770
4.9105072 -3.146462 -1.9102976 4288085770
9.0962105 -5.7531338 -1.8330405 4293729569
6.3705559 -4.0715628 -1.9509366 4288085770
10.037193 -6.3522501 -1.8334582 4293729569
4.9416733 -3.1914706 -1.9123603 4288085770
8.8053741 -5.6141233 -1.8250021 4293729569
6.4406853 -4.1415744 -1.9530172 4288085770
4.9738312 -3.2364817 -1.9134221 4288085770
10.237377 -6.539269 -1.8416644 4293729569
6.5138054 -4.2125821 -1.9570973 4288085770
8.3065109 -5.3401828 -1.7708659 4293729569
5.0129852 -3.2854886 -1.9164861 4288085770
6.5929184 -4.286592 -1.9601785 4288085770
8.1436691 -5.2731485 -1.7818656 4293729569
10.554565 -6.8002677 -1.8669215 4293729569
6.6600227 -4.3516102 -1.9582521 4288085770
5.0441208 -3.3275023 -1.9155428 4288085770
10.484669 -6.7902775 -1.8609583 4293729569
7.9948235 -5.2121134 -1.7938654 4293729569
6.7501183 -4.4306188 -1.9623342 4288085770
10.137779 -6.5992556 -1.8538629 4293729569
5.0852547 -3.3755107 -1.9176034 4288085770
7.8839798 -5.174068 -1.8128798 4293729569
6.8382034 -4.5066309 -1.964412 4288085770
9.7518845 -6.3802528 -1.8347436 4293729569
5.1323814 -3.426517 -1.9206649 4288085770
6.934288 -4.5876412 -1.9674934 4288085770
9.4539757 -6.212234 -1.8286536 4293729569
7.809124 -5.1550121 -1.8389026 4293729569
7.0653572 -4.6886406 -1.977586 4288085770
9.2010727 -6.0712094 -1.8275803 4293729569
5.1805 -3.4775257 -1.9227257 4288085770
7.6912613 -5.1069736 -1.8539029 4293729569
7.207428 -4.7966375 -1.9896835 4288085770
7.3604889 -4.9096351 -2.0017819 4288085770
8.2791824 -5.5082974 -1.7332169 4293729569
5.2296066 -3.5275335 -1.9247839 4288085770
7.5853844 -5.0639324 -1.8709033 4293729569
7.4415245 -4.9746618 -1.9948442 4288085770
8.1202583 -5.4182644 -1.7411679 4293729569
7.4445419 -4.986722 -1.9668652 4288085770
8.0063171 -5.3542242 -1.7551339 4293729569
5.2767105 -3.5765452 -1.9248415 4288085770
7.8773689 -5.2791882 -1.7660903 4293729569
7.4995117 -5.0318861 -1.8909092 4293729569
7.4345512 -4.9897904 -1.9338791 4288085770
7.4315491 -4.9938579 -1.9018892 4293729569
7.8064232 -5.2401385 -1.7870706 4293729569
7.723465 -5.1900945 -1.8040392 4293729569
7.4955521 -5.0408988 -1.8859298 4293729569
7.6264954 -5.1290569 -1.8169974 4293729569
7.5355453 -5.0699492 -1.8639547 4293729569
7.5665283 -5.0920072 -1.8379729 4293729569
7.4076233 -4.9928474 -1.9069062 4293729569
5.3368073 -3.6325517 -1.9279026 4288085770
7.3647346 -4.9847879 -1.9359248 4288085770
5.397892 -3.6875577 -1.9309609 4288085770
7.3288345 -4.9787278 -1.9649414 4288085770
5.4599686 -3.7435675 -1.9320204 4288085770
7.2899323 -4.9696703 -1.9929547 4288085770
5.5330391 -3.8045726 -1.9360809 4288085770
7.1840134 -4.9136424 -2.0019298 4288085770
5.5970917 -3.8575816 -1.9371332 4288085770
7.0150642 -4.8126431 -1.9928671 4288085770
5.6611404 -3.9105945 -1.9361854 4288085770
7.7544327 -5.3175454 -0.13125886 4293729569
6.8411179 -4.7066517 -1.9797987 4288085770
5.7551842 -3.9815941 -1.943249 4288085770
6.6901588 -4.6136537 -1.9707375 4288085770
5.8392181 -4.0456004 -1.9463067 4288085770
6.5621986 -4.5346484 -1.9666851 4288085770
5.9232407 -4.1066098 -1.9473586 4288085770
6.4482307 -4.4626374 -1.9656352 4288085770
6.0172501 -4.1736164 -1.9504147 4288085770
6.3262482 -4.3836341 -1.9605782 4288085770
6.120266 -4.2456193 -1.9554729 4288085770
6.2152634 -4.3106289 -1.9565243 4288085770
7.6985931 -5.3134837 -0.16129526 4293729569
7.7310944 -5.3453975 -0.69533294 4293729569
7.7265854 -5.3624396 -1.1653705 4293729569
7.6547546 -5.3164229 -0.19133572 4293729569
7.6761932 -5.3384647 -0.66236275 4293729569
7.6419029 -5.3373637 -0.22238663 4293729569
7.6696815 -5.3545108 -1.1304001 4293729569
7.6462746 -5.3455291 -0.63140005 4293729569
7.6170464 -5.3493004 -0.25442949 4293729569
7.6327667 -5.3585801 -1.097437 4293729569
7.6313553 -5.3615918 -0.60244286 4293729569
7.6091805 -5.3702416 -0.28547639 4293729569
7.604847 -5.3656478 -1.0654726 4293729569
7.6134262 -5.3736572 -0.57148039 4293729569
7.5903015 -5.3811803 -0.31651253 4293729569
7.6014938 -5.3887224 -0.54151881 4293729569
7.5969276 -5.3857112 -1.0365177 4293729569
7.5855446 -5.3967867 -0.51054698 4293729569
7.6004181 -5.4111209 -0.34856266 4293729569
7.5839882 -5.3987751 -1.0065533 4293729569
7.5785904 -5.4098487 -0.48157766 4293729569
7.5835304 -5.4200592 -0.37959331 4293729569
7.5800514 -5.41784 -0.9765932 4293729569
7.5806313 -5.428916 -0.45061287 4293729569
7.5776291 -5.4339962 -0.41162497 4293729569
7.565094 -5.4249053 -0.94561857 4293729569
7.5492897 -5.4168096 -0.011613023 4293729569
7.5696602 -5.4349804 -0.41963321 4293729569
7.5563698 -5.434751 -0.041642275 4293729569
7.5617256 -5.4399323 -0.44364905 4293729569
7.5641403 -5.441968 -0.91665226 4293729569
7.5706825 -5.4480457 -0.38865757 4293729569
7.5584373 -5.4466887 -0.073663823 4293729569
7.5676956 -5.4561105 -0.35767546 4293729569
7.5728111 -5.4628711 -0.47568482 4293729569
7.5621681 -5.4550333 -0.88567901 4293729569
7.5575027 -5.4546242 -0.10567999 4293729569
7.5696983 -5.4651737 -0.32769135 4293729569
7.5575562 -5.4615602 -0.13769345 4293729569
7.5637016 -5.4682417 -0.2947019 4293729569
7.5568848 -5.4638081 -0.50669914 4293729569
7.5636024 -5.4704971 -0.16970608 4293729569
7.5581894 -5.4650989 -0.85470152 4293729569
7.5656853 -5.4723053 -0.26370814 4293729569
7.5626411 -5.472434 -0.20071065 4293729569
7.5636673 -5.4733686 -0.23271172 4293729569
7.5529594 -5.471745 -0.53871781 4293729569
7.5462074 -5.4671631 -0.82371485 4293729569
7.5562134 -5.4822273 -0.7937361 4293729569
7.5530205 -5.4806814 -0.5707351 4293729569
7.5560722 -5.4886155 -0.60374808 4293729569
7.5462112 -5.4822946 -0.76074398 4293729569
7.5441971 -5.4843583 -0.72974938 4293729569
7.5511169 -5.4895506 -0.63575387 4293729569
7.5461769 -5.4884233 -0.69775563 4293729569
7.5431519 -5.4864869 -0.66675419 4293729569
11.088379 7.7703457 -1.7163694 4288085770
10.730366 7.4964304 -1.7016685 4288085770
10.547405 7.343482 -1.7118317 4288085770
10.312443 7.1525421 -1.7120368 4288085770
10.087486 6.9665976 -1.7102357 4288085770
9.8605385 6.7786522 -1.7074364 4288085770
9.6465988 6.598702 -1.7036281 4288085770
9.4516754 6.4317474 -1.7008047 4288085770
9.2807579 6.2797885 -1.7009639 4288085770
9.1108513 6.1278262 -1.6991229 4288085770
8.9709625 5.9948583 -1.7002598 4288085770
8.8360786 5.8648901 -1.7023931 4288085770
5.0935402 3.3659177 -1.7282288 4288085770
5.1715546 3.4168973 -1.7301705 4288085770
5.0245285 3.3199353 -1.727281 4288085770
4.9665337 3.2799525 -1.7293259 4288085770
5.2525864 3.4678769 -1.7331115 4288085770
8.7152061 5.7429152 -1.7045169 4288085770
4.9045334 3.2369676 -1.728374 4288085770
5.3326225 3.5168548 -1.7340543 4288085770
4.8345528 3.1869831 -1.7244296 4288085770
5.4216728 3.5698295 -1.7359918 4288085770
4.7825775 3.1469955 -1.7254728 4288085770
5.512722 3.6238041 -1.7379282 4288085770
4.7336121 3.1090083 -1.726514 4288085770
5.6067886 3.6767759 -1.7378643 4288085770
8.6033401 5.6269388 -1.7076336 4288085770
4.686657 3.0700183 -1.7265551 4288085770
5.6998558 3.7287488 -1.7378016 4288085770
4.6417084 3.0320272 -1.7265953 4288085770
5.7869339 3.7737193 -1.7347457 4288085770
4.6037788 2.997036 -1.7286313 4288085770
5.9250259 3.8516846 -1.744652 4288085770
8.5014877 5.5159607 -1.7107443 4288085770
4.5688477 2.9640441 -1.7316648 4288085770
6.040123 3.9116502 -1.7455777 4288085770
12.198288 7.8539524 -1.725046 4288085770
4.537941 2.9310489 -1.7336975 4288085770
6.1142197 3.9436193 -1.734535 4288085770
8.396637 5.4039822 -1.7128563 4288085770
4.5010223 2.8950548 -1.7337339 4288085770
6.3863487 4.1005321 -1.7213479 4288085770
6.2023239 3.9825845 -1.7254834 4288085770
6.2983398 4.0435581 -1.7244133 4288085770
6.4953766 4.1695018 -1.7202684 4288085770
6.5913963 4.2294726 -1.7161989 4288085770
6.218338 3.990582 -1.7294734 4288085770
6.7034378 4.2964396 -1.7141201 4288085770
6.1373444 3.9346051 -1.7325361 4288085770
6.8334885 4.3734026 -1.7150292 4288085770
6.0443573 3.8696284 -1.7316087 4288085770
11.881386 7.5880251 -1.7153286 4288085770
6.9565353 4.4453669 -1.712944 4288085770
5.9613762 3.8106494 -1.7316742 4288085770
4.4701195 2.8610587 -1.7347673 4288085770
6.3324471 4.0465455 -1.7274024 4288085770
8.2867966 5.2870016 -1.711973 4288085770
7.0886078 4.5203266 -1.7108541 4288085770
5.894413 3.7596679 -1.7347296 4288085770
7.2476807 4.6102824 -1.7127461 4288085770
5.8184509 3.7026858 -1.7347919 4288085770
6.4615669 4.1085048 -1.7263234 4288085770
4.4392242 2.8260627 -1.7358015 4288085770
7.4017639 4.6952381 -1.7126433 4288085770
11.649513 7.3770781 -1.714548 4288085770
5.7545052 3.6507001 -1.7358471 4288085770
8.1739578 5.1680231 -1.7100921 4288085770
7.5778618 4.7911878 -1.7155268 4288085770
6.5806885 4.1624646 -1.7222526 4288085770
5.6945572 3.6017156 -1.7378995 4288085770
4.4113426 2.7920637 -1.7358341 4288085770
7.7129555 4.8591428 -1.7074417 4288085770
5.6296272 3.5467286 -1.7369573 4288085770
6.7138367 4.2214198 -1.719175 4288085770
11.501667 7.2191143 -1.7237059 4288085770
7.8820534 4.9470897 -1.7043328 4288085770
4.3864708 2.7590652 -1.7368649 4288085770
5.5686989 3.494741 -1.7370118 4288085770
8.0841293 5.0640378 -1.7111937 4288085770
8.0831757 5.0520315 -1.7052033 4288085770
6.860981 4.2883735 -1.7190875 4288085770
5.5087776 3.4427524 -1.7360661 4288085770
4.3706093 2.7310653 -1.7408899 4288085770
11.259808 7.0031662 -1.7179313 4288085770
8.2943077 5.1599693 -1.7060689 4288085770
5.4438629 3.3857622 -1.7311255 4288085770
6.9871292 4.3393283 -1.7120173 4288085770
7.9853058 4.9550543 -1.7093016 4288085770
8.5064392 5.2659073 -1.7059358 4288085770
4.3517532 2.7000642 -1.7429178 4288085770
5.3879662 3.3327708 -1.7291796 4288085770
7.139286 4.4042788 -1.7089303 4288085770
11.044956 6.8042121 -1.7131368 4288085770
8.7295799 5.3758402 -1.7047971 4288085770
4.3338966 2.6700635 -1.7449446 4288085770
5.3340683 3.2817793 -1.7272315 4288085770
7.9144974 4.8620634 -1.7113899 4288085770
8.9527206 5.4837728 -1.7026598 4288085770
7.3364677 4.4932199 -1.7138138 4288085770
10.870117 6.631249 -1.7123125 4288085770
5.2921906 3.2357845 -1.7272766 4288085770
4.311058 2.6350608 -1.7429764 4288085770
9.2078781 5.6066957 -1.7015035 4288085770
7.8637009 4.7810707 -1.7174643 4288085770
7.5316505 4.5791612 -1.7177002 4288085770
5.2533112 3.1917882 -1.7273194 4288085770
9.4680443 5.7286167 -1.6993467 4288085770
4.3022194 2.6090579 -1.7469978 4288085770
10.690289 6.4552875 -1.7104914 4288085770
7.701828 4.6461043 -1.7126071 4288085770
5.2124481 3.1447921 -1.7263649 4288085770
7.8109055 4.6990776 -1.7225398 4288085770
9.7412186 5.8555331 -1.6971827 4288085770
4.2903938 2.5800538 -1.7490224 4288085770
7.9010201 4.7280407 -1.7124956 4288085770
5.1815834 3.104795 -1.7284024 4288085770
10.520466 6.2863207 -1.7076626 4288085770
10.0574 6.0044398 -1.6989915 4288085770
7.7321129 4.6000857 -1.7196345 4288085770
4.2775764 2.5490494 -1.7500484 4288085770
5.1457329 3.0597959 -1.7264452 4288085770
8.091217 4.8009772 -1.708393 4288085770
10.388596 6.1573434 -1.6997936 4288085770
10.384651 6.1383471 -1.707809 4288085770
5.1208916 3.0207968 -1.7284806 4288085770
4.2667656 2.5190434 -1.7510731 4288085770
10.737797 6.3172393 -1.6995859 4288085770
8.2994194 4.8819108 -1.7062799 4288085770
7.6783257 4.5170908 -1.7227108 4288085770
10.247845 5.9903712 -1.7069556 4288085770
11.150017 6.5081215 -1.7053392 4288085770
5.094059 2.9797955 -1.7285178 4288085770
8.5386276 4.978838 -1.7081469 4288085770
4.2619591 2.4920368 -1.7530941 4288085770
7.6215515 4.4310951 -1.7237899 4288085770
11.587242 6.7079968 -1.7110796 4288085770
5.0692291 2.9397936 -1.7285539 4288085770
10.13105 5.8543916 -1.7080882 4288085770
8.7678452 5.064764 -1.7050251 4288085770
4.2551651 2.4630294 -1.754117 4288085770
12.023472 6.9018688 -1.7128248 4288085770
7.5407715 4.3321013 -1.7178848 4288085770
5.0474052 2.9007907 -1.7285881 4288085770
9.0380783 5.1706815 -1.7078775 4288085770
10.021263 5.7224102 -1.7092155 4288085770
4.246376 2.4320221 -1.754142 4288085770
12.544724 7.137722 -1.721517 4288085770
5.025589 2.8607879 -1.7286233 4288085770
7.5050087 4.2591028 -1.7229486 4288085770
9.3113022 5.2755957 -1.7087302 4288085770
4.2565994 2.4110126 -1.7611544 4288085770
12.969952 7.3145905 -1.7132779 4288085770
9.938488 5.6054239 -1.7133248 4288085770
5.0247955 2.8317819 -1.7336447 4288085770
9.5875397 5.3775101 -1.7075844 4288085770
7.489254 4.1960983 -1.7299997 4288085770
13.510216 7.5464334 -1.7139686 4288085770
4.2458229 2.3780036 -1.7591811 4288085770
9.8547096 5.4894352 -1.7154332 4288085770
5.0099945 2.7947769 -1.7346758 4288085770
9.8867836 5.4874187 -1.7074268 4288085770
14.150486 7.8292522 -1.7235961 4288085770
7.4645081 4.1270943 -1.7340575 4288085770
4.2510452 2.3539934 -1.7621969 4288085770
4.9931984 2.7557697 -1.7327085 4288085770
9.7639389 5.3694472 -1.7165464 4288085770
10.192036 5.5953221 -1.7062693 4288085770
4.2572899 2.3289828 -1.7662133 4288085770
7.4287605 4.0530925 -1.7361218 4288085770
4.9884071 2.7237625 -1.735733 4288085770
10.522289 5.7132196 -1.7050978 4288085770
9.6891823 5.2574563 -1.7186494 4288085770
3.6023788 1.9551748 -1.8016578 4288085770
3.6374092 1.9711617 -1.7976367 4288085770
3.6834564 1.9921473 -1.7986093 4288085770
4.264534 2.3039708 -1.7692294 4288085770
4.9806328 2.6877546 -1.7367612 4288085770
7.4210129 3.9950857 -1.7431668 4288085770
3.7215004 2.0081329 -1.7935876 4288085770
10.867546 5.8341131 -1.7049204 4288085770
3.7755508 2.0331168 -1.7955551 4288085770
9.6234245 5.152462 -1.7207445 4288085770
3.8206139 2.0510998 -1.7925299 4288085770
3.8686829 2.0700817 -1.7895033 4288085770
4.9768562 2.6547456 -1.7377861 4288085770
4.2687759 2.2779589 -1.7712467 4288085770
3.9227562 2.0920644 -1.7894731 4288085770
11.253815 5.9719968 -1.70672 4288085770
7.4052773 3.9310789 -1.7472183 4288085770
3.9738312 2.1110444 -1.7854456 4288085770
9.5386658 5.0374699 -1.7188519 4288085770
4.0159187 2.1240239 -1.7774249 4288085770
4.9790955 2.623735 -1.7408079 4288085770
4.2690315 2.2479463 -1.770268 4288085770
4.0800018 2.149003 -1.7773898 4288085770
11.656094 6.1118755 -1.709514 4288085770
7.4025497 3.8740702 -1.7542609 4288085770
4.1450996 2.1729803 -1.777355 4288085770
9.4679184 4.9294758 -1.7179503 4288085770
4.2162209 2.1979566 -1.7783178 4288085770
4.1282158 2.1509762 -1.7723751 4288085770
4.972332 2.5877247 -1.7398355 4288085770
4.0882187 2.1299901 -1.7764008 4288085770
4.173233 2.1729617 -1.7693472 4288085770
4.0482216 2.1080022 -1.7794273 4288085770
4.2282448 2.2009468 -1.7693125 4288085770
4.0052338 2.0840135 -1.7804559 4288085770
12.104378 6.2687416 -1.7132837 4288085770
4.2742767 2.2219305 -1.765285 4288085770
4.2762871 2.2219334 -1.7722846 4288085770
3.977253 2.0670242 -1.7874757 4288085770
4.3232994 2.2449136 -1.7612554 4288085770
3.9362831 2.0420337 -1.7865045 4288085770
4.38834 2.2748947 -1.7622164 4288085770
4.2683258 2.2129331 -1.7712929 4288085770
3.9083176 2.0240426 -1.7915249 4288085770
4.4473877 2.3008757 -1.7601818 4288085770
7.3718185 3.8020644 -1.7533218 4288085770
5.1341324 1.0120639 -1.7940155 4288085770
4.5671616 0.90004218 -1.798069 4288085770
5.2431679 1.0290655 -1.7910061 4288085770
4.6632271 0.91204274 -1.7970616 4288085770
5.3542252 1.0440663 -1.7879974 4288085770
7.5332146 1.4611429 -1.8197948 4288085770
5.5902214 1.0890745 -1.7829756 4288085770
9.283226 1.791201 -1.8026333 4288085770
5.4742699 1.0610679 -1.7849876 4288085770
4.7622833 0.92504346 -1.7960539 4288085770
16.780212 3.2104578 -1.7879409 4288085770
16.503223 3.1544485 -1.7859672 4288085770
4.9013138 0.9480468 -1.7970418 4288085770
11.259274 2.153265 -1.776454 4288085770
5.6033211 1.0790693 -1.7839774 4288085770
4.8663445 0.93804371 -1.7950456 4288085770
11.607349 2.1992726 -1.7754273 4288085770
5.7513885 1.0990711 -1.7859656 4288085770
4.9794121 0.95204437 -1.7960371 4288085770
5.8914452 1.1180729 -1.7849545 4288085770
5.0994911 0.96604407 -1.7980281 4288085770
5.6765022 1.0710629 -1.781976 4288085770
6.0545158 1.1390747 -1.7879421 4288085770
7.6525116 1.4341303 -1.8187966 4288085770
17.380463 3.2304602 -1.7899116 4288085770
9.447525 1.7611889 -1.7986345 4288085770
11.666519 2.1682634 -1.7764335 4288085770
5.2185707 0.97904408 -1.7980194 4288085770
4.9665871 0.93103516 -1.7950426 4288085770
6.214592 1.1580764 -1.78793 4288085770
17.171543 3.1634469 -1.7919388 4288085770
5.3426476 0.9930445 -1.7980102 4288085770
6.390667 1.1800784 -1.7909167 4288085770
11.784676 2.1492572 -1.7744339 4288085770
5.4687386 1.0050446 -1.7970015 4288085770
6.5727463 1.2020806 -1.7929031 4288085770
18.350704 3.3124733 -1.795851 4288085770
5.7757759 1.0550522 -1.7849753 4288085770
12.099773 2.1812615 -1.7774123 4288085770
5.5938225 1.0170437 -1.7939929 4288085770
7.7648125 1.4041167 -1.8137996 4288085770
6.7688332 1.2240824 -1.7958889 4288085770
9.6398201 1.7351774 -1.7986335 4288085770
5.0498734 0.91502345 -1.7980427 4288085770
5.7229233 1.0280429 -1.7899843 4288085770
6.9629173 1.2460841 -1.7958748 4288085770
17.601864 3.1204362 -1.7959342 4288085770
19.537952 3.4204931 -1.8127744 4288085770
5.8700218 1.0410429 -1.7899746 4288085770
7.1860123 1.2700866 -1.799859 4288085770
12.029003 2.1092443 -1.7824348 4288085770
5.8750458 1.0380415 -1.7859751 4288085770
12.571022 2.1972609 -1.781389 4288085770
