# .PCD v0.7 - Point Cloud Data file format
VERSION 0.7
FIELDS x y z rgb
SIZE 4 4 4 4
TYPE F F F U
COUNT 1 1 1 1
WIDTH 1129
HEIGHT 1
VIEWPOINT 0 0 0 1 0 0 0
POINTS 1129
DATA ascii
4.8700638 -2.7429979 -1.8707862 4288085770
7.5210648 -3.6606431 -1.875392 4288085770
1.6984406 -1.6586083 -1.8699825 4288085770
1.4340973 -1.5706681 -1.854404 4288085770
12.550758 -5.4175568 -1.771981 4293729569
1.5734558 -1.6291398 -1.8681264 4288085770
2.35569 -1.9047191 -1.8548079 4288085770
8.0402832 -3.8885264 -1.8963125 4288085770
1.4574738 -1.6016326 -1.866261 4288085770
4.8427582 -2.8011293 -1.8705237 4288085770
11.770332 -5.2408838 -1.76385 4293729569
7.4898376 -3.7378035 -1.8770435 4288085770
1.3444901 -1.5741122 -1.8643951 4288085770
1.4026642 -1.5998245 -1.8562732 4288085770
7.6563568 -3.8251812 -1.8946323 4288085770
2.3102264 -1.9339212 -1.8536777 4288085770
11.236229 -5.1422672 -1.7793434 4293729569
4.8154526 -2.8582664 -1.8712656 4288085770
7.4616089 -3.8159416 -1.8766901 4288085770
7.2724152 -3.7578199 -1.8899703 4288085770
1.3692169 -1.627985 -1.8571465 4288085770
2.2677917 -1.965116 -1.8535383 4288085770
10.762207 -5.0594072 -1.7977598 4293729569
6.9144821 -3.6943567 -1.8872879 4288085770
4.7851334 -2.9154017 -1.8690071 4288085770
7.4353867 -3.8930757 -1.8773408 4288085770
1.3297806 -1.6541569 -1.8550293 4288085770
10.345222 -4.9893198 -1.8201127 4293729569
2.2323685 -1.9982808 -1.853389 4288085770
6.5685501 -3.6308362 -1.8836045 4288085770
4.7388 -2.9665909 -1.8637767 4288085770
9.981308 -4.9350195 -1.8453891 4293729569
7.4271851 -3.9781373 -1.8789532 4288085770
1.30233 -1.6832913 -1.8558977 4288085770
2.1979218 -2.0304456 -1.854244 4288085770
6.2416153 -3.5682335 -1.879915 4288085770
9.723526 -4.9143257 -1.8835039 4288085770
4.7275085 -3.0286584 -1.8644934 4288085770
7.414978 -4.0612059 -1.8785746 4288085770
1.2618713 -1.7074623 -1.8527892 4288085770
5.9567184 -3.5184786 -1.8821635 4288085770
2.1564713 -2.0596259 -1.852113 4288085770
9.4457016 -4.8836937 -1.9166653 4288085770
5.6818466 -3.469681 -1.8844066 4288085770
4.7102127 -3.0897424 -1.863215 4288085770
7.415802 -4.1502285 -1.8801677 4288085770
1.2374344 -1.7375838 -1.853652 4288085770
8.9745483 -4.7737408 -1.9192026 4288085770
2.1170197 -2.0897927 -1.8489769 4288085770
5.4259644 -3.4228008 -1.8866394 4288085770
8.4602737 -4.6399126 -1.9098518 4288085770
4.712944 -3.1587598 -1.8658981 4288085770
7.4176254 -4.2402372 -1.8797553 4288085770
1.1979599 -1.7607448 -1.8495476 4288085770
2.0765533 -2.1179585 -1.8448498 4288085770
5.1570358 -3.3679616 -1.8859088 4288085770
7.9659882 -4.5059919 -1.8994999 4288085770
7.429451 -4.3332119 -1.8813283 4288085770
4.7086792 -3.2257974 -1.8665907 4288085770
1.1675034 -1.7878772 -1.8474245 4288085770
4.8841019 -3.3081148 -1.8802016 4288085770
2.0441055 -2.1490996 -1.8427083 4288085770
7.550827 -4.4007769 -1.8980105 4288085770
7.1486511 -4.2934904 -1.8935294 4288085770
4.6211548 -3.2492247 -1.8744888 4288085770
7.4633179 -4.4351015 -1.8848586 4288085770
4.6923676 -3.285862 -1.8623159 4288085770
1.1430511 -1.8159889 -1.8462961 4288085770
2.017662 -2.1822248 -1.8425572 4288085770
6.771492 -4.1920996 -1.8900194 4288085770
4.3852234 -3.1962378 -1.8727472 4288085770
4.7061005 -3.3588319 -1.8649793 4288085770
7.506218 -4.5429544 -1.8883603 4288085770
1.1095886 -1.8411294 -1.8431814 4288085770
1.9992218 -2.2183201 -1.8433919 4288085770
6.4233704 -4.0995941 -1.8884664 4288085770
4.1583176 -3.1462066 -1.8699911 4288085770
6.0972672 -4.0109949 -1.886894 4288085770
3.9323578 -3.0911613 -1.8652577 4288085770
7.5631256 -4.6567497 -1.8928335 4288085770
4.7208481 -3.4327922 -1.8666379 4288085770
1.984787 -2.2554035 -1.845221 4288085770
1.0911407 -1.8712199 -1.8430433 4288085770
5.7911682 -3.9273129 -1.8862972 4288085770
3.7354736 -3.0480201 -1.8664675 4288085770
1.9713516 -2.2924774 -1.8460505 4288085770
7.6069946 -4.763587 -1.8943391 4288085770
1.0716705 -1.8993139 -1.8429141 4288085770
4.7265778 -3.5027766 -1.8653147 4288085770
5.4960785 -3.8445783 -1.8846955 4288085770
3.5215073 -2.9929175 -1.8607333 4288085770
9.2987747 -5.550355 -0.055595845 4293729569
5.21698 -3.7647746 -1.8830791 4288085770
9.084549 -5.4885025 -0.9189027 4293729569
1.9528885 -2.3265626 -1.8448935 4288085770
7.5607147 -4.8327332 -1.8800228 4288085770
1.0441971 -1.9254233 -1.838794 4288085770
3.3336105 -2.9477229 -1.8589518 4288085770
4.750351 -3.5817034 -1.867949 4288085770
4.9629364 -3.6938784 -1.8844199 4288085770
9.2444305 -5.6163654 -0.0072941333 4293729569
9.0981979 -5.5614977 -0.31455874 4293729569
3.1386566 -2.896543 -1.8541982 4288085770
9.013176 -5.5480423 -0.96363264 4293729569
4.6938171 -3.6120114 -1.8788121 4288085770
1.934433 -2.3616481 -1.8437319 4288085770
1.0327225 -1.9564879 -1.8396504 4288085770
7.3711395 -4.8353758 -1.8420203 4288085770
4.774086 -3.65962 -1.8685875 4288085770
9.2030869 -5.6843204 0.041017652 4293729569
2.9827652 -2.8602297 -1.8563738 4288085770
9.0157852 -5.6120882 -0.36033028 4293729569
4.4387283 -3.5340889 -1.8741851 4288085770
8.9808807 -5.6244307 -1.0112822 4293729569
1.9249725 -2.3987038 -1.8445601 4288085770
1.0172653 -1.9865651 -1.8395114 4288085770
2.8148499 -2.8169479 -1.8545818 4288085770
7.1915741 -4.8399706 -1.8030081 4293729569
4.2206802 -3.4700315 -1.8744919 4288085770
4.7998428 -3.7385283 -1.8692214 4288085770
8.9984741 -5.6914139 -0.40896529 4293729569
9.0196838 -5.7305412 -1.0647905 4293729569
2.6619263 -2.7776163 -1.8557711 4288085770
3.9956131 -3.3999846 -1.8708267 4288085770
1.9145279 -2.435755 -1.8433888 4288085770
1.0178223 -2.0235975 -1.8443391 4288085770
7.1151962 -4.8892097 -1.7817838 4293729569
4.8226013 -3.8174443 -1.8688548 4288085770
9.0402832 -5.7974968 -0.45947325 4293729569
3.7805328 -3.3318989 -1.8681519 4288085770
2.5130234 -2.7392573 -1.8549552 4288085770
3.5854797 -3.2697322 -1.8664486 4288085770
1.9000397 -2.4698174 -1.8412309 4288085770
2.3740997 -2.7028649 -1.8561299 4288085770
0.99533844 -2.049685 -1.8402183 4288085770
7.0838928 -4.9582853 -1.7664652 4293729569
4.8633652 -3.9032972 -1.8714552 4288085770
3.3944168 -3.2075431 -1.863745 4288085770
2.2281723 -2.661483 -1.8533275 4288085770
1.9056015 -2.5138235 -1.845026 4288085770
3.1983337 -3.1413605 -1.8580601 4288085770
0.97081757 -2.0737705 -1.8341067 4288085770
7.0706253 -5.0352926 -1.7531087 4293729569
2.0902328 -2.6210711 -1.8515205 4288085770
4.9051514 -3.9911411 -1.8730457 4288085770
3.033287 -3.087074 -1.8583188 4288085770
1.892128 -2.5478771 -1.8418679 4288085770
1.9522781 -2.579649 -1.8477178 4288085770
2.8772736 -3.0357437 -1.857563 4288085770
0.96033478 -2.1038256 -1.8339667 4288085770
7.1395111 -5.1520014 -1.7505641 4293729569
4.9379044 -4.0750093 -1.8716547 4288085770
2.7182007 -2.9804158 -1.854826 4288085770
1.8283463 -2.5431817 -1.8468919 4288085770
1.8876495 -2.5859015 -1.8406906 4288085770
2.5661545 -2.927058 -1.8520796 4288085770
1.715416 -2.5106766 -1.8480468 4288085770
0.95585632 -2.1368549 -1.8338127 4288085770
2.4301071 -2.8796458 -1.8523047 4288085770
7.2424774 -5.2865944 -1.7539351 4293729569
4.9927063 -4.1698017 -1.8742118 4288085770
1.5884552 -2.469202 -1.8432438 4288085770
2.293045 -2.8292277 -1.8505437 4288085770
1.8901825 -2.6269004 -1.8404994 4288085770
1.4875183 -2.4396446 -1.8443844 4288085770
2.1680145 -2.7847683 -1.850755 4288085770
0.94536591 -2.1668994 -1.8316724 4288085770
7.2452316 -5.3715267 -1.7395399 4293729569
5.0444946 -4.2636032 -1.8757734 4288085770
2.0499649 -2.7412777 -1.8509612 4288085770
1.3725433 -2.4011228 -1.8405674 4288085770
1.9017181 -2.6718755 -1.8432889 4288085770
1.9198914 -2.6908145 -1.8462002 4288085770
1.2806091 -2.3725317 -1.8427031 4288085770
0.94988251 -2.2029049 -1.8345039 4288085770
1.8048096 -2.6453011 -1.8444157 4288085770
7.3602066 -5.5130587 -1.7408772 4293729569
5.1093063 -4.3633518 -1.8783066 4288085770
1.6977539 -2.6037536 -1.8426123 4288085770
1.9132462 -2.7158449 -1.8450832 4288085770
1.1706238 -2.3339779 -1.8368857 4288085770
1.5987091 -2.5651863 -1.8437951 4288085770
1.0836716 -2.3053653 -1.8390214 4288085770
0.94438934 -2.2349329 -1.833354 4288085770
1.4996338 -2.5246034 -1.8419869 4288085770
7.4711914 -5.6536016 -1.7412188 4293729569
1.4065704 -2.4859998 -1.8411694 4288085770
1.9247818 -2.7608151 -1.8468726 4288085770
5.1851349 -4.4700651 -1.8828065 4288085770
0.98769379 -2.2717662 -1.8361804 4288085770
1.314476 -2.4463871 -1.8393567 4288085770
1.2294083 -2.4097486 -1.8385298 4288085770
0.89570618 -2.2381494 -1.8333395 4288085770
1.1453094 -2.3721054 -1.8377078 4288085770
0.94487762 -2.26794 -1.833199 4288085770
1.074234 -2.3404164 -1.8388574 4288085770
0.97809601 -2.2947855 -1.8300726 4288085770
0.81172943 -2.2075033 -1.8314846 4288085770
1.934288 -2.8027835 -1.8466759 4288085770
7.5280457 -5.7673273 -1.7316866 4293729569
0.90699005 -2.2610865 -1.8292317 4288085770
0.84288788 -2.2303665 -1.8303769 4288085770
5.286026 -4.5906839 -1.8902409 4288085770
0.95539093 -2.3069236 -1.8370161 4288085770
1.9508057 -2.8487265 -1.8474603 4288085770
7.5848999 -5.8810425 -1.7201543 4293729569
5.3368073 -4.6854696 -1.8877966 4288085770
0.96490479 -2.3449016 -1.8388376 4288085770
1.9642944 -2.8916771 -1.8472586 4288085770
7.7870712 -6.0722446 -1.7302558 4293729569
8.7864838 -6.6259661 -1.7276447 4293729569
5.3595047 -4.7643404 -1.8784273 4288085770
0.9543457 -2.3709309 -1.8337152 4288085770
1.9888077 -2.9405959 -1.850029 4288085770
8.3500671 -6.4608421 -1.7274265 4293729569
7.9401398 -6.2396078 -1.7304699 4293729569
5.2789383 -4.7845392 -1.8463337 4288085770
0.97384644 -2.4128802 -1.8385179 4288085770
2.0123215 -2.9895134 -1.851799 4288085770
7.9948349 -6.3374176 -1.7370112 4293729569
8.0801544 -6.3990107 -1.7277212 4293729569
5.141243 -4.771924 -1.8023946 4293729569
2.03582 -3.037421 -1.8515735 4288085770
0.97730255 -2.4458692 -1.8373625 4288085770
7.6716232 -6.223856 -1.7465489 4293729569
8.2542648 -6.5792828 -1.7278738 4293729569
2.059288 -3.0843282 -1.8513527 4288085770
5.0736923 -4.7970772 -1.7722769 4293729569
0.98375702 -2.4798448 -1.8362024 4288085770
7.3333664 -6.0983438 -1.7531426 4293729569
2.0907822 -3.1352105 -1.8531132 4288085770
0.99621582 -2.5167992 -1.8360283 4288085770
5.0933304 -4.8689442 -1.7599392 4293729569
7.0030975 -5.971777 -1.7557406 4293729569
2.1292725 -3.1890681 -1.8558595 4288085770
1.0046539 -2.5507658 -1.834868 4288085770
6.6266708 -5.8123684 -1.750493 4293729569
5.0778732 -4.9199181 -1.7386994 4293729569
2.1607361 -3.2389407 -1.8556244 4288085770
6.3635101 -5.7155428 -1.7589502 4293729569
1.0251007 -2.5906954 -1.8366795 4288085770
5.1305847 -5.0106592 -1.7292724 4293729569
2.1952057 -3.2897999 -1.8553846 4288085770
6.0321503 -5.5729342 -1.7526226 4293729569
1.0445251 -2.6296239 -1.8374958 4288085770
2.228653 -3.3396587 -1.8541493 4288085770
5.2414322 -5.1352043 -1.7306857 4293729569
5.7017746 -5.4273119 -1.7443092 4293729569
1.0569382 -2.663568 -1.8353353 4288085770
2.2831345 -3.4004517 -1.8578627 4288085770
5.3873596 -5.2806292 -1.7380006 4293729569
5.4104614 -5.2995462 -1.7409112 4293729569
2.3315887 -3.4572601 -1.8595948 4288085770
1.0833817 -2.7064717 -1.8371327 4288085770
5.0419159 -5.1200113 -1.7177572 4293729569
2.3790283 -3.512063 -1.8593361 4288085770
5.5162277 -5.4160976 -1.739362 4293729569
1.1027756 -2.7433903 -1.835958 4288085770
4.7265015 -4.970295 -1.7034624 4293729569
2.4354858 -3.5728374 -1.8610494 4288085770
1.1371994 -2.7882683 -1.839746 4288085770
5.7062531 -5.5903587 -1.7515407 4293729569
7.4448318 -6.6570177 -1.7655144 4293729569
2.4919281 -3.6326063 -1.8617673 4288085770
4.5624313 -4.9070568 -1.7147601 4293729569
7.0761948 -6.4705801 -1.7623928 4293729569
1.1645966 -2.8291576 -1.8395526 4288085770
2.5583801 -3.6973367 -1.8634617 4288085770
5.7699432 -5.6860371 -1.739089 4293729569
4.3883286 -4.8358469 -1.7230952 4293729569
6.7035217 -6.2761354 -1.7543085 4293729569
1.190979 -2.8680451 -1.8383689 4288085770
2.6248016 -3.7600622 -1.8641658 4288085770
6.3859711 -6.1124887 -1.7530794 4293729569
4.2793655 -4.8024168 -1.7432523 4293729569
5.8847656 -5.8145304 -1.7334828 4293729569
2.6912231 -3.8227873 -1.8648698 4288085770
1.2363815 -2.9178808 -1.8431332 4288085770
6.0934525 -5.9607344 -1.7517941 4293729569
4.1653824 -4.7629995 -1.7614377 4293729569
2.7616425 -3.8874905 -1.8645644 4288085770
5.762825 -5.7810984 -1.7416399 4293729569
1.2657394 -2.9567556 -1.8419495 4288085770
6.1329346 -6.0265665 -1.750483 4293729569
2.8400574 -3.955164 -1.8652451 4288085770
4.0624084 -4.7285385 -1.7805996 4293729569
5.5304108 -5.659111 -1.7452142 4293729569
2.9154663 -4.0208406 -1.863935 4288085770
1.3141403 -3.0075779 -1.8467093 4288085770
5.210762 -5.4794064 -1.7310605 4293729569
4.0346069 -4.7398357 -1.8155463 4293729569
6.2868271 -6.1789179 -1.7497642 4293729569
2.9988708 -4.0894871 -1.8636112 4288085770
4.870018 -5.2817478 -1.7079914 4293729569
1.3575058 -3.0544021 -1.8474879 4288085770
3.0802536 -4.1561365 -1.8622966 4288085770
4.5733643 -5.10993 -1.6908002 4293729569
3.9877472 -4.7371931 -1.8465583 4288085770
3.1646042 -4.2217684 -1.859987 4288085770
4.3709717 -4.9957886 -1.6893377 4293729569
1.3998566 -3.0992303 -1.8482759 4288085770
6.4868546 -6.3611002 -1.754905 4293729569
3.2690201 -4.300334 -1.8616164 4288085770
3.9067841 -4.7106485 -1.8676832 4288085770
4.2397308 -4.9244108 -1.701674 4293729569
3.435585 -4.4177036 -1.8770633 4288085770
4.1355438 -4.8679276 -1.71594 4293729569
3.5820694 -4.5201235 -1.8855805 4288085770
4.0363541 -4.8124266 -1.7312014 4293729569
1.444191 -3.1440444 -1.8480642 4288085770
3.8207703 -4.6781139 -1.8868361 4288085770
3.7064819 -4.6066027 -1.8871729 4288085770
3.9692307 -4.7758179 -1.7523739 4293729569
3.8950653 -4.7322245 -1.7705793 4293729569
3.805809 -4.6761494 -1.8808448 4288085770
3.8509521 -4.7068529 -1.8597 4288085770
3.8650131 -4.7164822 -1.7966537 4293729569
3.8610001 -4.7146616 -1.8296628 4293729569
6.7059174 -6.5562067 -1.7609844 4293729569
3.6675644 -4.5997725 -1.8872044 4288085770
1.4975433 -3.1948299 -1.8498244 4288085770
1.5528793 -3.2446067 -1.8515892 4288085770
3.5083237 -4.5164471 -1.8855965 4288085770
3.3269882 -4.4151754 -1.8760729 4288085770
1.6062088 -3.2933869 -1.8523586 4288085770
3.1446533 -4.3118935 -1.8635588 4288085770
1.6695175 -3.3461289 -1.8541098 4288085770
3.0094147 -4.2354641 -1.8619184 4288085770
1.7388382 -3.4018495 -1.8568468 4288085770
2.8861923 -4.165988 -1.8612454 4288085770
1.8071518 -3.4565742 -1.8595884 4288085770
2.7799911 -4.1054535 -1.8635304 4288085770
1.8804626 -3.513273 -1.861321 4288085770
2.6727676 -4.0419178 -1.8648295 4288085770
1.9527359 -3.5669701 -1.8620675 4288085770
2.5625153 -3.9743803 -1.8631475 4288085770
2.0260162 -3.6206586 -1.8618143 4288085770
2.4673004 -3.9157929 -1.8644235 4288085770
2.1032791 -3.6763344 -1.8625517 4288085770
2.3710632 -3.8552003 -1.8637087 4288085770
2.1875458 -3.7339745 -1.8622801 4288085770
2.2838287 -3.798583 -1.8659754 4288085770
7.7642136 8.096323 -1.8444333 4288085770
7.4802322 7.8633003 -1.8372376 4288085770
7.2221909 7.6483746 -1.8302238 4288085770
6.9890976 7.4495201 -1.8263772 4288085770
6.7590103 7.2526903 -1.8205512 4288085770
6.5538788 7.0709391 -1.8168864 4288085770
6.3278122 6.8761492 -1.8070841 4288085770
6.1426468 6.7074785 -1.8025541 4288085770
5.9585037 6.5388155 -1.7970273 4288085770
5.8774261 3.7327409 -1.79422 4288085770
0.92053223 1.9424584 -1.7814236 4288085770
6.7074966 3.9592333 -1.8177698 4288085770
-0.21269989 1.54538 -1.7844758 4288085770
6.1824646 3.7699528 -1.7940009 4288085770
0.95153809 1.9455533 -1.7955678 4288085770
1.0305176 1.969936 -1.7849741 4288085770
11.137085 5.4660883 -1.7999072 4288085770
0.51833344 1.7906529 -1.7822866 4288085770
1.1305313 1.9933847 -1.7834711 4288085770
0.60739899 1.8090465 -1.7827234 4288085770
10.003296 5.0220461 -1.7868423 4288085770
7.0576019 4.0127759 -1.8204386 4288085770
1.2385559 2.0178623 -1.7840059 4288085770
1.8435593 2.2234933 -1.8091662 4288085770
-0.19226837 1.5274622 -1.7845235 4288085770
4.0113068 2.9571366 -1.8254802 4288085770
0.69450378 1.8254387 -1.7801466 4288085770
6.1902313 3.6939733 -1.79285 4288085770
11.808815 5.6030684 -1.8011923 4288085770
0.99905396 1.9237442 -1.7987249 4288085770
1.3535843 2.043371 -1.784574 4288085770
0.795578 1.8448817 -1.7816389 4288085770
1.4805832 2.0729239 -1.7882049 4288085770
7.4795914 4.0846167 -1.8304687 4288085770
-0.16684723 1.5115644 -1.785598 4288085770
10.056099 4.9322443 -1.7918551 4288085770
1.9000626 2.1997242 -1.8123579 4288085770
12.521507 5.7472315 -1.8026748 4288085770
0.90266418 1.8653479 -1.7841599 4288085770
1.6195602 2.1045239 -1.7938931 4288085770
6.2876053 3.6572714 -1.8341897 4288085770
4.0589447 2.9103305 -1.8265762 4288085770
6.1790619 3.6109233 -1.7865989 4288085770
1.031601 1.89689 -1.7948041 4288085770
1.752594 2.1331093 -1.7955477 4288085770
1.0077667 1.8838114 -1.7846675 4288085770
7.8776627 4.1443682 -1.8343637 4288085770
-0.150383 1.4926407 -1.7816257 4288085770
1.8946152 2.1627314 -1.7982447 4288085770
13.288193 5.8976345 -1.8034096 4288085770
1.1337967 1.9093505 -1.7912843 4288085770
10.125893 4.8465185 -1.7969532 4288085770
1.9515915 2.1729414 -1.8125205 4288085770
6.3273544 3.5904422 -1.8302021 4288085770
2.0396347 2.1923692 -1.7999549 4288085770
4.1075745 2.864532 -1.8266795 4288085770
6.1748581 3.5318983 -1.7823887 4288085770
1.0840988 1.8761036 -1.7979858 4288085770
1.2478943 1.9288528 -1.7918341 4288085770
8.3046951 4.2082396 -1.8413963 4288085770
2.2046356 2.2270873 -1.8047652 4288085770
14.159744 6.0714922 -1.8086629 4288085770
-0.12992859 1.4737291 -1.7796714 4288085770
1.3710022 1.9493896 -1.7944257 4288085770
2.0041199 2.1461661 -1.8116877 4288085770
10.195679 4.7607956 -1.8010514 4288085770
2.3826141 2.2648535 -1.81264 4288085770
6.3960342 3.533736 -1.8283668 4288085770
4.1721802 2.8217952 -1.8298607 4288085770
8.7318039 4.2651224 -1.8444123 4288085770
6.2205582 3.4680786 -1.7844353 4288085770
1.4781418 1.9648762 -1.7899351 4288085770
1.1216354 1.8502645 -1.7960896 4288085770
2.5576172 2.2996185 -1.8164945 4288085770
15.019402 6.2313118 -1.8078294 4288085770
-0.10547638 1.4568349 -1.7777393 4288085770
1.6102448 1.9864554 -1.7915692 4288085770
2.7436295 2.3354294 -1.8213999 4288085770
2.0616455 2.1204097 -1.8118794 4288085770
10.260506 4.6710587 -1.8021183 4288085770
9.2008591 4.3291836 -1.8496301 4288085770
6.4577332 3.4739988 -1.8264935 4288085770
4.2338028 2.7790515 -1.8310289 4288085770
1.7643051 2.0131149 -1.7993119 4288085770
16.038864 6.4278183 -1.8157878 4288085770
1.1671448 1.8274596 -1.7952359 4288085770
6.2183838 3.3880711 -1.7772319 4288085770
2.9446106 2.3753002 -1.8283808 4288085770
-0.078041077 1.4399481 -1.7778206 4288085770
1.9133987 2.036763 -1.8030257 4288085770
3.1326675 2.4081304 -1.829288 4288085770
2.1261368 2.0966792 -1.8141067 4288085770
9.6689529 4.3872461 -1.8528292 4288085770
10.355293 4.5894451 -1.8063369 4288085770
6.5593719 3.4244273 -1.8288207 4288085770
4.2914352 2.7332954 -1.8301723 4288085770
-0.048591614 1.4230704 -1.7779107 4288085770
3.3267288 2.4409907 -1.8292217 4288085770
2.0635071 2.0594184 -1.8057415 4288085770
1.2266464 1.8067006 -1.7994487 4288085770
6.2661057 3.3232627 -1.7782855 4288085770
3.5307693 2.4758945 -1.8292041 4288085770
2.2216034 2.0831101 -1.808495 4288085770
10.101158 4.4281702 -1.8478291 4288085770
2.1856689 2.0699348 -1.8133051 4288085770
10.47802 4.5169544 -1.8117011 4288085770
-0.012168884 1.4082174 -1.7800367 4288085770
6.6410599 3.3677781 -1.8270435 4288085770
3.7308655 2.5067892 -1.8261597 4288085770
4.3829956 2.6976697 -1.8364899 4288085770
1.267189 1.780881 -1.7955661 4288085770
6.3197937 3.2614806 -1.7793727 4288085770
2.3897171 2.1068385 -1.8132927 4288085770
10.521416 4.4610481 -1.8407569 4288085770
3.9220047 2.5326557 -1.8190634 4288085770
2.267128 2.0502703 -1.8186173 4288085770
2.5708008 2.1336231 -1.819155 4288085770
0.015296936 1.3903368 -1.7781157 4288085770
10.563828 4.4313107 -1.8128712 4288085770
6.7377167 3.3161926 -1.8263445 4288085770
1.3286591 1.7611346 -1.7987905 4288085770
4.1261292 2.5605788 -1.8120294 4288085770
4.4925385 2.6651175 -1.8448942 4288085770
6.395462 3.2047901 -1.7825692 4288085770
2.7708664 2.1634817 -1.8281081 4288085770
10.985657 4.4981165 -1.8348885 4288085770
2.3356476 2.0255628 -1.8188605 4288085770
4.3522186 2.5925884 -1.8091018 4288085770
0.05871582 1.376509 -1.782275 4288085770
2.9560089 2.1862912 -1.8309784 4288085770
10.612724 4.3345251 -1.8058522 4288085770
6.8703232 3.2727559 -1.8298235 4288085770
1.3851776 1.7383746 -1.7989857 4288085770
4.560173 2.6204057 -1.844085 4288085770
4.5993118 2.6276875 -1.8072741 4288085770
6.4611664 3.1440647 -1.7827122 4288085770
11.4729 4.5342827 -1.8301191 4288085770
3.1471405 2.2101305 -1.8328776 4288085770
2.4161301 2.0029025 -1.8211613 4288085770
0.092155457 1.3596511 -1.781383 4288085770
4.8593979 2.6638436 -1.8055065 4288085770
10.698547 4.2478952 -1.8020205 4288085770
1.4496689 1.7176436 -1.8012209 4288085770
3.3532639 2.2350299 -1.8368456 4288085770
6.9899673 3.2242692 -1.8302336 4288085770
4.6487579 2.5807784 -1.84638 4288085770
11.988129 4.5725737 -1.8254783 4288085770
6.5318604 3.0843577 -1.78388 4288085770
5.1424713 2.703099 -1.8048472 4288085770
2.5076065 1.9822848 -1.8255155 4288085770
0.1315918 1.3438145 -1.7825201 4288085770
3.5534286 2.2559133 -1.8367774 4288085770
5.4365387 2.743402 -1.8042388 4288085770
10.79937 4.1643286 -1.7992628 4288085770
1.4962234 1.6908538 -1.7963626 4288085770
12.529366 4.6109743 -1.8219523 4288085770
7.1235886 3.1788416 -1.8317127 4288085770
4.7213974 2.535094 -1.8435907 4288085770
6.6245041 3.0307429 -1.787159 4288085770
3.7406464 2.2707541 -1.8316376 4288085770
0.1720047 1.3289822 -1.783664 4288085770
2.5771484 1.9555897 -1.8227582 4288085770
5.7306595 2.778717 -1.7996187 4288085770
3.9538269 2.2906954 -1.8316247 4288085770
10.920158 4.0858517 -1.7966051 4288085770
13.124573 4.6546087 -1.8206766 4288085770
1.5726929 1.6721697 -1.8006558 4288085770
7.278183 3.1365042 -1.8342917 4288085770
6.052742 2.8191469 -1.7981341 4288085770
4.8000412 2.4904361 -1.8408303 4288085770
0.21645355 1.3131642 -1.7858231 4288085770
6.7161865 2.9751294 -1.7884295 4288085770
2.6786041 1.9360137 -1.8281593 4288085770
4.1630249 2.3076272 -1.8285868 4288085770
6.428772 2.8688006 -1.801909 4288085770
13.765747 4.7024364 -1.822613 4288085770
1.6272202 1.6474121 -1.7968378 4288085770
11.071907 4.0135059 -1.7960989 4288085770
7.4447708 3.0962169 -1.8379288 4288085770
0.26786804 1.2993748 -1.7890179 4288085770
4.3772583 2.3225868 -1.8235667 4288085770
4.9046173 2.4528792 -1.8432014 4288085770
6.8318176 2.9246128 -1.7928176 4288085770
6.7908554 2.9114065 -1.8006058 4288085770
2.7760849 1.914428 -1.8305378 4288085770
14.440926 4.7494097 -1.8256977 4288085770
4.6104736 2.3396232 -1.8206348 4288085770
1.6967163 1.6257093 -1.7970932 4288085770
7.1759415 2.9561169 -1.7984087 4288085770
11.236664 3.9412162 -1.7956505 4288085770
0.31428528 1.284569 -1.7901883 4288085770
7.6263504 3.0569921 -1.8426344 4288085770
5.0151901 2.4153485 -1.8455989 4288085770
2.8665848 1.890817 -1.8308809 4288085770
6.9424591 2.8720798 -1.7951796 4288085770
4.8706665 2.3597682 -1.8218293 4288085770
7.6279602 3.0111029 -1.8035314 4288085770
15.152122 4.794549 -1.8269362 4288085770
1.7901688 1.6080954 -1.8034639 4288085770
0.36569977 1.2697822 -1.7923808 4288085770
11.430367 3.8770533 -1.7963493 4288085770
7.8059387 3.016768 -1.8443291 4288085770
5.1219025 2.3758881 -1.8179748 4288085770
5.1267853 2.3758276 -1.8459964 4288085770
2.9740677 1.8692762 -1.8333037 4288085770
8.1269302 3.0722909 -1.8108754 4288085770
7.0721054 2.8206277 -1.7986276 4288085770
15.878334 4.8337507 -1.8292272 4288085770
0.41216278 1.2529814 -1.7915466 4288085770
1.8736572 1.587448 -1.8057835 4288085770
5.3881454 2.3910699 -1.8151841 4288085770
8.6299515 3.1295078 -1.8142276 4288085770
11.639099 3.8099585 -1.7961073 4288085770
8.013504 2.9796612 -1.8481548 4288085770
3.0915222 1.8497729 -1.8377755 4288085770
5.2543564 2.3393693 -1.8494718 4288085770
7.2157364 2.7722347 -1.8031447 4288085770
5.6573868 2.405268 -1.8114042 4288085770
0.46057892 1.2371873 -1.7917235 4288085770
9.1859512 3.1919525 -1.8198256 4288085770
1.9501495 1.565779 -1.8050699 4288085770
8.2640076 2.9507308 -1.8571892 4288085770
11.851822 3.7438846 -1.7948856 4288085770
3.2049942 1.828261 -1.8392248 4288085770
5.3779373 2.3009012 -1.849925 4288085770
5.9556274 2.4215884 -1.8097572 4288085770
9.7749329 3.2565429 -1.8255742 4288085770
7.3623657 2.7228572 -1.8066728 4288085770
0.5110321 1.2204047 -1.7909071 4288085770
2.0435944 1.5471733 -1.8084383 4288085770
10.305069 3.3019085 -1.8180172 4288085770
6.2998123 2.4440939 -1.8143275 4288085770
3.32547 1.8067766 -1.8417053 4288085770
8.5345154 2.9218876 -1.866312 4288085770
12.082542 3.679893 -1.7927487 4288085770
5.502533 2.2614431 -1.8483803 4288085770
0.56942749 1.205649 -1.7931306 4288085770
7.5279617 2.677562 -1.8112946 4288085770
2.1300735 1.5255455 -1.808769 4288085770
0.33698273 1.1457014 -1.7619641 4288085770
0.47177124 1.1732376 -1.7836237 4288085770
10.810318 3.3331864 -1.8023171 4288085770
6.6440506 2.461611 -1.8148861 4288085770
0.54774475 1.1875862 -1.7799926 4288085770
0.64567566 1.2060112 -1.783468 4288085770
0.73165131 1.2214001 -1.7808836 4288085770
3.429985 1.7812393 -1.8381059 4288085770
8.7810745 2.8859529 -1.8703125 4288085770
0.82961273 1.2388337 -1.7813568 4288085770
12.364212 3.6231179 -1.7938533 4288085770
0.92060089 1.2542453 -1.7787945 4288085770
5.6401215 2.223037 -1.8488955 4288085770
1.0385361 1.2747552 -1.7833633 4288085770
0.62086487 1.1888738 -1.7913187 4288085770
0.5059967 1.1643666 -1.7897542 4288085770
1.1395416 1.2902101 -1.7808452 4288085770
7.7115631 2.6323395 -1.817996 4288085770
0.59201813 1.1767557 -1.7871628 4288085770
11.479347 3.394146 -1.8024094 4288085770
1.2554932 1.3097225 -1.7814026 4288085770
7.0342331 2.4853137 -1.8216617 4288085770
2.2285614 1.5049667 -1.8101549 4288085770
0.68803406 1.1901793 -1.7876184 4288085770
1.3675079 1.3262231 -1.7799358 4288085770
0.79006958 1.2036289 -1.7881 4288085770
1.4984818 1.3457961 -1.7825596 4288085770
3.5534592 1.7587768 -1.8375971 4288085770
9.0546112 2.8521373 -1.8744371 4288085770
1.6244888 1.3643588 -1.7811592 4288085770
0.87911987 1.2150365 -1.78352 4288085770
12.658905 3.5644031 -1.7940111 4288085770
0.68227386 1.1741339 -1.7925553 4288085770
5.7807007 2.1846473 -1.848424 4288085770
1.758461 1.3839508 -1.7817965 4288085770
12.203407 3.4563506 -1.8017468 4288085770
7.4434204 2.5081024 -1.8275192 4288085770
0.99515533 1.2295392 -1.787066 4288085770
1.9014587 1.4035822 -1.7824733 4288085770
7.9031754 2.5861583 -1.8227303 4288085770
2.3300018 1.4853996 -1.8125567 4288085770
1.1081772 1.2440379 -1.7875988 4288085770
2.0654449 1.4262947 -1.7872503 4288085770
1.2252274 1.2575539 -1.788147 4288085770
3.690918 1.7373705 -1.8391528 4288085770
2.2254486 1.4469975 -1.7890048 4288085770
0.73972321 1.1573848 -1.7907701 4288085770
9.363121 2.8234677 -1.8817282 4288085770
13.027374 3.5309823 -1.8065543 4288085770
1.3512573 1.2721035 -1.7907374 4288085770
7.8766251 2.5299969 -1.8334799 4288085770
12.988556 3.5108397 -1.7953353 4288085770
2.3804703 1.4666878 -1.787735 4288085770
5.9542313 2.1513915 -1.8521101 4288085770
1.4583511 1.2825954 -1.7842345 4288085770
2.5614624 1.4894779 -1.7915869 4288085770
2.4145203 1.4607736 -1.8088715 4288085770
8.1087418 2.5430331 -1.8295336 4288085770
1.5894165 1.296173 -1.7848449 4288085770
3.8014374 1.7108678 -1.8325775 4288085770
2.7514648 1.5123104 -1.7944789 4288085770
13.899368 3.6038306 -1.8095689 4288085770
0.80511475 1.1426625 -1.7920246 4288085770
8.3178558 2.5479283 -1.8384669 4288085770
1.7274857 1.3097811 -1.785486 4288085770
9.681633 2.7918472 -1.8870561 4288085770
2.9464798 1.5351679 -1.7963927 4288085770
13.346207 3.4584029 -1.7957854 4288085770
6.1267929 2.1151366 -1.8537848 4288085770
1.8725357 1.3244201 -1.7861602 4288085770
3.1524887 1.559074 -1.7983577 4288085770
2.529953 1.4422679 -1.8113375 4288085770
8.2903976 2.4908211 -1.8292103 4288085770
14.818375 3.6758924 -1.8107886 4288085770
3.9628601 1.6925589 -1.8372462 4288085770
2.0266113 1.3390955 -1.7878747 4288085770
3.3715057 1.5830345 -1.8013799 4288085770
8.7631149 2.5618861 -1.840462 4288085770
0.86554718 1.1259273 -1.7902522 4288085770
10.004173 2.7582507 -1.8903975 4288085770
2.1837006 1.3527871 -1.7885997 4288085770
3.6045303 1.6080562 -1.8044665 4288085770
13.722862 3.4050493 -1.7963176 4288085770
6.3203278 2.081969 -1.8575592 4288085770
2.6464005 1.4227663 -1.8138053 4288085770
2.349762 1.3675162 -1.7903669 4288085770
3.8315735 1.6300633 -1.8035197 4288085770
15.76944 3.743108 -1.807138 4288085770
9.2903137 2.5841858 -1.8498383 4288085770
4.0973663 1.6671591 -1.8317792 4288085770
8.5219879 2.4458163 -1.8341241 4288085770
0.93894196 1.1112403 -1.7915423 4288085770
4.0806198 1.6541641 -1.8036747 4288085770
2.5248718 1.3812867 -1.7911716 4288085770
10.312767 2.7176087 -1.8876605 4288085770
4.3436584 1.6793238 -1.8048937 4288085770
2.7259216 1.398155 -1.7980983 4288085770
6.5308533 2.0488734 -1.8624091 4288085770
2.7618561 1.4022667 -1.8142664 4288085770
14.142509 3.3538885 -1.7960441 4288085770
9.7726288 2.5913138 -1.8489802 4288085770
1.0193405 1.0965787 -1.7948632 4288085770
4.2498398 1.6438305 -1.8293967 4288085770
4.6356812 1.7066029 -1.8092456 4288085770
2.9200134 1.4130062 -1.799989 4288085770
8.7715988 2.3998866 -1.8401153 4288085770
4.9397202 1.73394 -1.8116505 4288085770
10.616402 2.6729555 -1.8808923 4288085770
3.0991669 1.4228088 -1.7958021 4288085770
2.8783188 1.3807768 -1.8127298 4288085770
10.199051 2.584223 -1.8378422 4288085770
6.7443924 2.0137963 -1.8652673 4288085770
1.0917282 1.0818927 -1.7941484 4288085770
14.589172 3.3008513 -1.7938859 4288085770
4.4182892 1.6235666 -1.8290918 4288085770
5.2547836 1.7593318 -1.8120995 4288085770
3.3212433 1.4387748 -1.8008194 4288085770
9.0421753 2.3560534 -1.8452036 4288085770
5.6048126 1.7888688 -1.8157122 4288085770
3.5523453 1.4537861 -1.8038738 4288085770
10.886086 2.620172 -1.8669553 4288085770
3.0087662 1.3603394 -1.8142574 4288085770
10.55761 2.5598619 -1.8153644 4288085770
1.1791153 1.0672618 -1.7975001 4288085770
6.9919052 1.9828606 -1.8712852 4288085770
4.6157227 1.6044191 -1.8329172 4288085770
5.9698715 1.817475 -1.8183892 4288085770
15.064819 3.2499402 -1.7928603 4288085770
3.784462 1.4678041 -1.8059304 4288085770
9.3247604 2.3112731 -1.8503432 4288085770
6.3688965 1.8482277 -1.8222206 4288085770
4.0186081 1.4788401 -1.8049889 4288085770
1.2575073 1.0516028 -1.7968099 4288085770
3.1551819 1.3419672 -1.8178601 4288085770
11.060013 2.5530913 -1.809562 4288085770
11.241676 2.5797467 -1.8614261 4288085770
4.8201294 1.5863053 -1.8357759 4288085770
7.2424316 1.9489466 -1.8743095 4288085770
6.7789612 1.8780349 -1.8240986 4288085770
15.612457 3.2023456 -1.7921598 4288085770
4.2757416 1.4919686 -1.8071535 4288085770
9.6333466 2.2666035 -1.8565974 4288085770
7.2869186 1.91824 -1.8384326 4288085770
1.3448944 1.036978 -1.7981615 4288085770
3.291626 1.3205656 -1.8164117 4288085770
11.630379 2.5506079 -1.8080695 4288085770
4.5478897 1.5041654 -1.8083823 4288085770
11.71019 2.5507953 -1.8644221 4288085770
5.0275497 1.5672098 -1.8366456 4288085770
7.5239334 1.9181577 -1.8814778 4288085770
7.7759705 1.9513917 -1.8416667 4288085770
4.8300476 1.5154061 -1.8096528 4288085770
1.4402695 1.0223876 -1.7995486 4288085770
3.4410477 1.3012155 -1.8170257 4288085770
9.8840103 2.2117069 -1.8525724 4288085770
12.27475 2.549439 -1.8109059 4288085770
8.3050156 1.9857174 -1.8460793 4288085770
5.2479782 1.5471728 -1.8375704 4288085770
12.221695 2.5220337 -1.8676081 4288085770
5.1302109 1.526726 -1.8110027 4288085770
7.8224258 1.8864465 -1.8877187 4288085770
8.9040146 2.0253372 -1.855813 4288085770
1.5276489 1.0067717 -1.7978981 4288085770
0.85910034 0.91079217 -1.8017251 4288085770
5.4503555 1.5381315 -1.8134413 4288085770
3.6014786 1.2809107 -1.8186855 4288085770
12.929146 2.5413187 -1.8117702 4288085770
5.4893723 1.5292246 -1.8395925 4288085770
10.11573 2.1507432 -1.8424492 4288085770
9.5160751 2.0610304 -1.8595948 4288085770
12.755196 2.493372 -1.8698912 4288085770
5.7945404 1.5486448 -1.8149834 4288085770
8.1029663 1.849673 -1.8878686 4288085770
1.6200485 0.99017686 -1.796267 4288085770
0.93148804 0.89511263 -1.7990084 4288085770
3.7878723 1.2637117 -1.8234673 4288085770
10.076248 2.0835347 -1.8491168 4288085770
5.7507782 1.5113617 -1.8427031 4288085770
13.641556 2.5324512 -1.8138885 4288085770
6.1377411 1.5561594 -1.8145139 4288085770
10.342476 2.0857654 -1.8292949 4288085770
13.355682 2.4660056 -1.8724725 4288085770
1.7353897 0.97666627 -1.8007448 4288085770
10.525604 2.087606 -1.8181062 4288085770
1.0218582 0.8814978 -1.8013756 4288085770
8.419487 1.8150492 -1.8911822 4288085770
6.4999542 1.5627604 -1.8131263 4288085770
3.968277 1.2434953 -1.8252156 4288085770
6.0062027 1.4914902 -1.8397825 4288085770
14.405952 2.5218086 -1.8172317 4288085770
11.162811 2.1094542 -1.8059659 4288085770
1.8467407 0.96314478 -1.8032045 4288085770
10.590202 2.0238812 -1.8162405 4288085770
14.038139 2.4429913 -1.8784254 4282675967
1.113205 0.86789078 -1.8027475 4288085770
6.9081573 1.5705515 -1.815944 4288085770
8.7859726 1.7826375 -1.8977213 4288085770
4.1596832 1.2243268 -1.8270149 4288085770
6.3245697 1.4758664 -1.8471494 4288085770
11.964897 2.1449931 -1.8075845 4288085770
1.9620819 0.94864297 -1.8046799 4288085770
15.137466 2.4960356 -1.8143942 4288085770
7.3783035 1.5825993 -1.8250451 4288085770
1.2125397 0.85531324 -1.8061566 4288085770
14.777588 2.4202313 -1.88363 4282675967
10.920853 1.968343 -1.8105667 4288085770
12.793037 2.1766627 -1.8033087 4288085770
4.3600922 1.2042011 -1.8278515 4288085770
9.1734543 1.7503181 -1.9043529 4288085770
6.6369629 1.458234 -1.8484852 4288085770
7.8625031 1.5917197 -1.8302007 4288085770
2.082428 0.93416333 -1.8061771 4288085770
1.303894 0.84071171 -1.805526 4288085770
15.985947 2.472764 -1.8170779 4288085770
13.770126 2.2159781 -1.8037071 4288085770
15.540092 2.3925891 -1.882925 4282675967
4.5904694 1.1861994 -1.8318255 4288085770
8.3537292 1.5958791 -1.8323758 4288085770
11.345467 1.9192009 -1.8113222 4288085770
7.0023041 1.4438214 -1.855062 4288085770
9.5939484 1.7171465 -1.9101284 4282675967
2.2027893 0.91869247 -1.8046722 4288085770
1.4042511 0.82614708 -1.8059351 4288085770
14.850212 2.2557464 -1.8045607 4288085770
8.949913 1.6054746 -1.8440261 4288085770
4.812851 1.1671674 -1.8337612 4288085770
7.3297195 1.423272 -1.850457 4288085770
2.3321304 0.90425515 -1.8052092 4288085770
11.802063 1.8691972 -1.8132167 4288085770
1.510582 0.81260592 -1.807373 4288085770
15.99234 2.2927985 -1.8016808 4288085770
10.004478 1.6789453 -1.9108479 4282675967
9.5401535 1.6080629 -1.8486338 4288085770
5.0901947 1.1503611 -1.8419452 4288085770
2.479454 0.889889 -1.8088257 4288085770
7.749054 1.4090939 -1.8582721 4288085770
1.615921 0.79806638 -1.8068039 4288085770
10.380051 1.6346126 -1.9033988 4288085770
12.294685 1.817354 -1.8142655 4288085770
10.099472 1.6025406 -1.8440859 4288085770
2.6277771 0.87552994 -1.8114467 4288085770
5.3295975 1.1284157 -1.8399491 4288085770
8.1884079 1.3940153 -1.8621733 4288085770
1.7332382 0.78457397 -1.8082905 4288085770
10.561943 1.5816383 -1.8220747 4288085770
10.747681 1.586261 -1.889905 4288085770
2.786087 0.86221778 -1.8131137 4288085770
12.824318 1.7636795 -1.8134732 4288085770
5.6099777 1.1086426 -1.8411388 4288085770
8.6817322 1.3801683 -1.8683155 4288085770
1.8545685 0.77009892 -1.8097923 4288085770
11.178322 1.5683746 -1.81476 4288085770
2.9503937 0.84793222 -1.8148053 4288085770
11.186295 1.5382135 -1.8797252 4288085770
5.9083481 1.0889456 -1.8434083 4288085770
9.1910706 1.3654009 -1.8715258 4288085770
1.9838867 0.75665945 -1.8113313 4288085770
13.385941 1.708149 -1.8118174 4288085770
11.936615 1.561704 -1.8190861 4288085770
3.1217194 0.83267993 -1.8155253 4288085770
2.1181793 0.74324179 -1.8128927 4288085770
6.2077255 1.0682646 -1.8416796 4288085770
9.7743912 1.3519505 -1.8780651 4288085770
11.802773 1.5019048 -1.8863566 4288085770
14.051514 1.6570652 -1.8146305 4288085770
3.3050232 0.81847817 -1.8173006 4288085770
12.703018 1.5450908 -1.8154244 4288085770
2.2524796 0.7298305 -1.812454 4288085770
6.555069 1.0487803 -1.8451653 4288085770
10.366737 1.3355567 -1.8786373 4288085770
3.4972992 0.80531609 -1.8191178 4288085770
12.416313 1.4596019 -1.8859611 4288085770
13.548416 1.5258216 -1.8131049 4288085770
2.4077759 0.71649927 -1.816108 4288085770
14.759148 1.6001701 -1.8156152 4288085770
6.9014511 1.0273089 -1.8426416 4288085770
10.952148 1.3141608 -1.8691669 4288085770
3.7015915 0.79120702 -1.8209856 4288085770
2.561058 0.70316875 -1.8167531 4288085770
13.114815 1.4186648 -1.8889432 4288085770
14.510811 1.5050554 -1.8152971 4288085770
11.696457 1.3014283 -1.8734174 4288085770
7.3307724 1.0091777 -1.8494918 4288085770
3.9338608 0.77821219 -1.8259795 4288085770
15.538765 1.5415958 -1.8159127 4288085770
2.7263489 0.68888754 -1.8184488 4288085770
13.898315 1.3770989 -1.8932984 4288085770
15.533241 1.4785579 -1.8157403 4288085770
12.490784 1.2869267 -1.873884 4288085770
7.7631073 0.98907048 -1.8523505 4288085770
4.1861191 0.76530242 -1.8320618 4288085770
2.8976212 0.67563307 -1.8201733 4288085770
4.4164047 0.75031948 -1.8300421 4288085770
13.406097 1.2739553 -1.8758869 4288085770
8.2814026 0.97132456 -1.8615932 4288085770
3.0778885 0.66242141 -1.8209374 4288085770
14.767838 1.3329136 -1.8970263 4288085770
4.6686935 0.73543006 -1.8291194 4288085770
14.407394 1.2613658 -1.87727 4288085770
8.7947311 0.95057434 -1.8648074 4288085770
3.2691422 0.64925516 -1.8227501 4288085770
5.1747208 0.74763715 -1.8383787 4288085770
5.4906693 0.7640478 -1.8338094 4288085770
4.8418045 0.72917485 -1.834868 4288085770
4.538887 0.7118386 -1.8334925 4288085770
5.8346329 0.78058177 -1.8293636 4288085770
4.2589874 0.69460368 -1.8322189 4288085770
6.2755203 0.80150193 -1.8393557 4288085770
3.9890823 0.67741263 -1.8309891 4288085770
6.6715012 0.81826776 -1.8341403 4288085770
3.7421799 0.66132611 -1.8288634 4288085770
7.1624298 0.83842248 -1.8393509 4288085770
4.9639206 0.72271007 -1.8353913 4288085770
15.761353 1.2862743 -1.9012949 4282675967
3.4943085 0.64424056 -1.8247311 4288085770
7.6923599 0.85874844 -1.844734 4288085770
3.3703537 0.63468444 -1.8271627 4288085770
3.1384201 0.62267059 -1.8231122 4288085770
3.5953064 0.64567637 -1.8281798 4288085770
3.8522644 0.65780306 -1.8313403 4288085770
2.9414825 0.61079562 -1.8242166 4288085770
3.2634354 0.62722951 -1.8206737 4288085770
4.1192093 0.66997397 -1.8345454 4288085770
2.7465515 0.59893548 -1.8233299 4288085770
8.2962875 0.88139218 -1.8534486 4288085770
3.4853897 0.63619316 -1.826673 4288085770
15.565674 1.2504612 -1.8813481 4288085770
2.5486374 0.5870738 -1.8184299 4288085770
4.3911896 0.68017536 -1.8347681 4288085770
9.3990173 0.93221021 -1.8734276 4288085770
3.058548 0.61132503 -1.8197339 4288085770
4.6791687 0.6914472 -1.8350635 4288085770
2.3787079 0.57531792 -1.8196537 4288085770
8.9272232 0.90316319 -1.8592801 4288085770
5.0121384 0.70290512 -1.8395579 4288085770
2.871666 0.59549302 -1.8208735 4288085770
2.2098236 0.56257766 -1.8168797 4288085770
9.6341782 0.92527157 -1.8644474 4288085770
5.2621765 0.70902067 -1.8356743 4288085770
5.3181763 0.71127003 -1.8349261 4288085770
2.0359344 0.54982132 -1.8120837 4288085770
2.6847916 0.57966709 -1.820013 4288085770
10.440086 0.95080215 -1.8750589 4288085770
5.651207 0.719751 -1.8314135 4288085770
1.8890381 0.53817201 -1.8114092 4288085770
3.7036362 0.62314594 -1.8286049 4288085770
2.5019379 0.56386471 -1.8171704 4288085770
6.0402222 0.72946137 -1.8341508 4288085770
1.7481308 0.52654672 -1.8117611 4288085770
11.281067 0.97350836 -1.8778181 4288085770
10.072296 0.91314662 -1.8833501 4288085770
2.343071 0.54915613 -1.8184361 4288085770
6.4522476 0.73828101 -1.8339875 4288085770
1.6142502 0.5139513 -1.8121421 4288085770
5.5534515 0.6943121 -1.8319237 4288085770
12.142105 0.99333209 -1.8706589 4288085770
6.9022751 0.74726224 -1.8359916 4288085770
1.489357 0.50239313 -1.813565 4288085770
2.181221 0.53343993 -1.8176863 4288085770
3.9378738 0.61016941 -1.8306074 4288085770
13.147102 1.0167756 -1.8691425 4288085770
7.4222946 0.7565397 -1.8423052 4288085770
1.3694916 0.48985949 -1.8140078 4288085770
2.017395 0.51772696 -1.812928 4288085770
10.784599 0.8922689 -1.8884404 4288085770
5.8787155 0.67975003 -1.8293233 4288085770
14.36409 1.0431346 -1.874567 4288085770
7.9953232 0.76504731 -1.8498504 4288085770
1.2426376 0.47730383 -1.8114195 4288085770
1.873558 0.5020901 -1.8122578 4288085770
4.1950989 0.59728503 -1.8357112 4288085770
15.6521 1.0678294 -1.8723004 4288085770
8.6183395 0.7737748 -1.8576167 4288085770
1.1297607 0.46580106 -1.8118956 4288085770
1.7357254 0.48748237 -1.8106167 4288085770
6.2709274 0.66746014 -1.8350234 4288085770
11.553909 0.87064487 -1.8927798 4288085770
9.2933884 0.78073406 -1.8646078 4288085770
4.4553146 0.58442587 -1.8368285 4288085770
1.6048889 0.47290301 -1.8100064 4288085770
10.084412 0.78818613 -1.8781114 4288085770
6.6681671 0.65320969 -1.8347409 4288085770
1.4860611 0.45837301 -1.8104494 4288085770
4.7365494 0.57165879 -1.8380384 4288085770
12.436211 0.84851599 -1.8986161 4288085770
10.907494 0.79280156 -1.883749 4288085770
1.3692322 0.44385195 -1.8109012 4288085770
7.1233749 0.64119989 -1.8397188 4288085770
11.784599 0.79566383 -1.886621 4288085770
5.0127869 0.55788183 -1.8352237 4288085770
1.2524261 0.42933956 -1.8083527 4288085770
13.417503 0.82582194 -1.904887 4288085770
12.806694 0.79715204 -1.8941283 4288085770
7.6105804 0.62733686 -1.8428338 4288085770
5.3209915 0.54524016 -1.8345525 4288085770
1.1416245 0.4148477 -1.807831 4288085770
13.931839 0.7951014 -1.8990812 4288085770
8.1767502 0.61680746 -1.8513043 4288085770
14.590775 0.80295885 -1.9170034 4282675967
5.6482239 0.53168452 -1.8329632 4288085770
15.205978 0.79170376 -1.9056878 4288085770
8.7999115 0.60552567 -1.8610241 4288085770
15.851074 0.77849853 -1.9224994 4282675967
6.0143967 0.52029228 -1.8345504 4288085770
9.4830704 0.59351087 -1.8700066 4288085770
6.4185944 0.50806403 -1.8373032 4288085770
10.325157 0.58516449 -1.890698 4288085770
6.8337784 0.4958964 -1.8361044 4288085770
11.161316 0.57382888 -1.898356 4288085770
7.3509064 0.4851487 -1.8453581 4288085770
1.2125778 0.35814077 -1.8080139 4288085770
12.054489 0.56176215 -1.9002633 4288085770
7.9130402 0.47459888 -1.8548107 4288085770
13.107635 0.55138505 -1.9078796 4288085770
1.3078156 0.34556702 -1.804405 4288085770
8.5191803 0.46324846 -1.8624554 4288085770
14.384712 0.54296798 -1.925487 4282675967
9.1853027 0.45316553 -1.8693671 4288085770
15.668884 0.53263694 -1.9241211 4282675967
1.4300308 0.33208874 -1.8089128 4288085770
10.024353 0.444803 -1.8910449 4288085770
10.901421 0.43562558 -1.906888 4288085770
1.5362625 0.31856045 -1.80635 4288085770
11.839516 0.42673725 -1.9160008 4288085770
12.878601 0.41829646 -1.9245594 4288085770
14.080666 0.41156742 -1.9358404 4282675967
15.399727 0.41942596 -1.9236703 4288085770
14.117737 0.40875858 -1.9259968 4288085770
12.941811 0.39558402 -1.9197848 4288085770
1.657486 0.30508944 -1.8068533 4288085770
11.893883 0.38297266 -1.9141383 4288085770
15.828789 0.40829706 -1.9305346 4288085770
15.287804 0.40390691 -1.9311409 4288085770
10.98497 0.36997277 -1.9091032 4288085770
10.025146 0.35579813 -1.8868406 4288085770
14.463936 0.38528013 -1.9264674 4288085770
9.1963196 0.34219405 -1.8671567 4288085770
13.213089 0.36278239 -1.9169035 4288085770
1.7966766 0.29268932 -1.8104382 4288085770
8.5154343 0.32920933 -1.8591266 4288085770
12.195221 0.34228703 -1.9163709 4288085770
7.8765793 0.31541494 -1.8492796 4288085770
11.247375 0.32311419 -1.9111497 4288085770
1.1678314 0.28092402 -1.8056402 4288085770
7.3256912 0.30299681 -1.8438234 4288085770
1.9378586 0.28030077 -1.8130319 4288085770
10.338562 0.30313954 -1.897099 4288085770
6.8248291 0.28979811 -1.8385859 4288085770
1.2909851 0.27045086 -1.8101592 4288085770
9.4548187 0.28330359 -1.8731587 4288085770
6.3799667 0.27583688 -1.8365934 4288085770
2.0850449 0.26693851 -1.8156495 4288085770
8.7370224 0.26516369 -1.8619537 4288085770
5.9701157 0.26202935 -1.8347557 4288085770
1.4141769 0.25798619 -1.8116734 4288085770
8.1102066 0.24741563 -1.8541508 4288085770
5.6132431 0.24844375 -1.8371518 4288085770
2.2332458 0.25258666 -1.8162696 4288085770
1.5373459 0.24752499 -1.812192 4288085770
7.5503922 0.22995926 -1.8476436 4288085770
5.2693939 0.23492411 -1.8366055 4288085770
2.380455 0.23923866 -1.8138876 4288085770
7.0345917 0.21269649 -1.841331 4288085770
4.9495468 0.2215098 -1.8361652 4288085770
1.6645203 0.23608388 -1.8117261 4288085770
2.5556183 0.22599721 -1.8176289 4288085770
6.5887756 0.19573002 -1.8393273 4288085770
4.6716919 0.20726877 -1.8399084 4288085770
1.794693 0.224656 -1.8112733 4288085770
2.7417831 0.21180376 -1.8214164 4288085770
4.3898621 0.1940216 -1.8396361 4288085770
6.1719742 0.17889403 -1.8364522 4288085770
1.9398499 0.21328869 -1.812887 4288085770
2.9309464 0.19862677 -1.8242195 4288085770
2.103981 0.20199612 -1.817584 4288085770
4.1250458 0.17985192 -1.8384366 4288085770
5.7971649 0.16223687 -1.8357623 4288085770
15.762428 0.056940347 -1.9264207 4288085770
3.1081085 0.18541467 -1.8209693 4288085770
2.2721024 0.1907213 -1.8222988 4288085770
3.8632355 0.16670448 -1.8342531 4288085770
5.4643478 0.14575623 -1.838258 4288085770
3.3352585 0.170399 -1.8259356 4288085770
14.708641 0.02726084 -1.9337087 4288085770
2.4262466 0.18040863 -1.8189542 4288085770
14.436714 0.027104732 -1.9185102 4288085770
13.469772 0.01981478 -1.9252334 4288085770
3.5594025 0.15737605 -1.8288929 4288085770
2.6113663 0.16921151 -1.8227439 4288085770
3.6124496 0.15260831 -1.8291156 4288085770
5.1525421 0.12937069 -1.8398464 4288085770
12.459839 0.013344929 -1.9287691 4288085770
13.251015 -0.00010278821 -1.907223 4288085770
2.7844925 0.1589794 -1.820483 4288085770
3.7985382 0.14341909 -1.8319142 4288085770
11.406952 0.012742167 -1.9131291 4288085770
2.9965897 0.14789551 -1.8263919 4288085770
4.0716553 0.1286031 -1.8380833 4288085770
3.4036407 0.13867927 -1.8301637 4288085770
4.863739 0.11308621 -1.8415365 4288085770
10.513054 0.011824278 -1.9031889 4288085770
3.1977005 0.13778372 -1.8252544 4288085770
4.34478 0.11479591 -1.8412545 4288085770
12.326263 -0.027199641 -1.9100859 4288085770
9.6191711 0.01493923 -1.8822582 4288085770
3.4307861 0.12679523 -1.830256 4288085770
4.6179123 0.10100066 -1.8404257 4288085770
8.8442459 0.019566985 -1.865855 4288085770
3.6688766 0.11683498 -1.8332818 4288085770
3.1788559 0.12569726 -1.8251436 4288085770
4.5959549 0.095891312 -1.8443174 4288085770
8.1862946 0.023688897 -1.8569658 4288085770
3.9189453 0.10693072 -1.8353605 4288085770
4.9020462 0.087259941 -1.8376455 4288085770
7.5833435 0.02905581 -1.847322 4288085770
4.2090073 0.09618751 -1.8426135 4288085770
11.361557 -0.051428296 -1.8977792 4288085770
5.2101746 0.073621511 -1.8359711 4288085770
15.178879 -0.1326797 -1.9274068 4288085770
7.0483551 0.03471078 -1.8419783 4288085770
4.4630966 0.087321199 -1.837712 4288085770
6.5703735 0.040616322 -1.8368864 4288085770
4.7591553 0.078625605 -1.8379962 4288085770
6.1503296 0.047760077 -1.8380527 4288085770
5.0752106 0.070015073 -1.8393686 4288085770
5.5342865 0.060056753 -1.8333676 4288085770
5.7533112 0.055016838 -1.8353207 4288085770
13.980812 -0.12098303 -1.9331563 4288085770
5.3892822 0.062412992 -1.8347342 4288085770
2.9910736 0.11186331 -1.8252847 4288085770
12.823792 -0.10607022 -1.927094 4288085770
5.9133911 0.045722265 -1.8350043 4288085770
4.3101959 0.080640212 -1.8390231 4288085770
11.742783 -0.089802265 -1.9143696 4288085770
6.3274689 0.031536184 -1.8387954 4288085770
6.7555542 0.018423593 -1.8386507 4288085770
10.780777 -0.074004561 -1.9001682 4288085770
7.2516403 0.0035980009 -1.8428016 4288085770
7.246048 0.004499305 -1.5237751 4293729569
10.533844 -0.074062832 -1.8890803 4288085770
9.1027756 -0.041314863 -1.8688519 4288085770
7.826683 -0.011899922 -1.8542988 4288085770
8.42173 -0.026289478 -1.858887 4288085770
2.8093033 0.097058922 -1.8244498 4288085770
4.0614319 0.064543515 -1.8368905 4288085770
9.6891861 -0.093733475 -1.8673134 4288085770
2.6245346 0.084246941 -1.8216066 4288085770
3.8256607 0.049504105 -1.8348169 4288085770
