# .PCD v0.7 - Point Cloud Data file format
VERSION 0.7
FIELDS x y z rgb
SIZE 4 4 4 4
TYPE F F F U
COUNT 1 1 1 1
WIDTH 1107
HEIGHT 1
VIEWPOINT 0 0 0 1 0 0 0
POINTS 1107
DATA ascii
-1.4201965 1.7086582 -1.767971 4288085770
-2.738678 1.4812489 -1.7936115 4288085770
-1.5481567 1.7234278 -1.768774 4288085770
-2.825592 1.4970913 -1.7939034 4288085770
-1.6590271 1.7412128 -1.7719631 4288085770
-2.9156189 1.5119371 -1.792305 4288085770
-1.7800598 1.7550068 -1.7705059 4288085770
-2.9996033 1.5277853 -1.7924862 4288085770
-1.8718567 1.7748203 -1.7749996 4288085770
-3.0775452 1.5446444 -1.79245 4288085770
-1.9859314 1.7896309 -1.7722855 4288085770
-2.0818481 1.8074512 -1.7739201 4288085770
-2.1858826 1.8222752 -1.7718372 4288085770
-2.2717896 1.841114 -1.7731056 4288085770
-2.3587646 1.8579607 -1.7724037 4288085770
-2.442749 1.8758106 -1.7725945 4288085770
-2.5075378 1.8976765 -1.7761002 4288085770
-2.5855103 1.9155397 -1.7750683 4288085770
-2.648407 1.9374123 -1.7775021 4288085770
-2.7052612 1.9603004 -1.7797165 4288085770
-2.7712402 1.9791813 -1.7792473 4288085770
-2.8453674 1.9950724 -1.7740612 4288085770
-2.8830872 2.0219717 -1.780592 4288085770
-2.9532166 2.0388689 -1.7752628 4288085770
-3.0010986 2.0617762 -1.7761459 4288085770
-3.0490723 2.0846872 -1.7760315 4288085770
-3.1051331 2.1036034 -1.772192 4288085770
-3.0930176 3.4115877 -1.7391205 4288085770
-3.0572205 3.4586754 -1.7320251 4288085770
-2.9891357 3.5247822 -1.7338333 4288085770
-2.9180603 3.5919008 -1.7335377 4288085770
-2.8510742 3.6560192 -1.7323742 4288085770
-2.7366333 3.7481632 -1.7426052 4288085770
-2.6678162 3.8123035 -1.7373714 4288085770
-2.5787659 3.8884563 -1.7364559 4288085770
-2.4857178 3.9666138 -1.7364044 4288085770
-2.38974 4.0447874 -1.7342396 4288085770
-2.2786865 4.1319752 -1.7345676 4288085770
-2.1425171 4.2341833 -1.7390404 4288085770
-2.0396729 4.3143835 -1.7336311 4288085770
-1.9157104 4.4076099 -1.7305107 4288085770
-3.1083374 3.7474213 -1.7533836 4288085770
-1.7827759 4.5038481 -1.7280693 4288085770
-3.0275269 3.8065853 -1.7466869 4288085770
-1.6478882 4.6010933 -1.7245636 4288085770
-2.906311 3.8927679 -1.7516365 4288085770
-1.4898376 4.7123652 -1.7242737 4288085770
-2.8124695 3.9589567 -1.7454948 4288085770
-1.3218384 4.8276567 -1.7236347 4288085770
-2.6944275 4.0391607 -1.7445335 4288085770
-1.1307678 4.9559765 -1.7252102 4288085770
-2.5754395 4.118371 -1.742527 4288085770
-0.95892334 5.0702991 -1.7194233 4288085770
-2.4373474 4.2085981 -1.7438736 4288085770
-0.73580933 5.2166653 -1.7229061 4288085770
-2.2871704 4.3058434 -1.7468109 4288085770
-0.49768066 5.3690624 -1.7258625 4288085770
-2.1734619 4.37708 -1.7369614 4288085770
-0.23953247 5.5334892 -1.7301388 4288085770
-2.0144043 4.4763498 -1.7375793 4288085770
0.019439697 5.6959372 -1.7293739 4288085770
-1.8513794 4.575633 -1.7370491 4288085770
0.27124023 5.8513947 -1.7248383 4288085770
-1.7076111 4.6599216 -1.7281551 4288085770
0.53405762 6.0108738 -1.7189178 4288085770
-1.5245667 4.7692347 -1.7279358 4288085770
0.82284546 6.1843996 -1.7131062 4288085770
-1.3255005 4.8845739 -1.728159 4288085770
1.1396484 6.3729706 -1.708334 4288085770
-1.121521 5.0009346 -1.7262039 4288085770
1.3840027 6.5124817 -1.6889954 4288085770
-0.90551758 5.1233091 -1.7258358 4288085770
1.7789612 6.7421646 -1.6895428 4288085770
-0.65435791 5.2647257 -1.7292652 4288085770
2.1787415 6.9728794 -1.6849155 4288085770
-0.39019775 5.4111662 -1.7322407 4288085770
2.6256714 7.2276602 -1.68367 4288085770
-0.10903931 5.5646362 -1.7356243 4288085770
3.0542908 7.4664469 -1.6740208 4288085770
0.15484619 5.7051115 -1.7315807 4288085770
3.5499878 7.7423363 -1.6680775 4288085770
0.43170166 5.8486128 -1.7260723 4288085770
4.1438904 8.0723705 -1.6677799 4288085770
0.72857666 6.0011454 -1.7218704 4288085770
1.0253601 6.1496983 -1.7136517 4288085770
1.3461304 6.3082857 -1.7065983 4288085770
1.659729 6.4588833 -1.6947689 4288085770
1.9722595 6.6044941 -1.6799583 4288085770
2.4475098 6.8422861 -1.6866035 4288085770
2.8873291 7.0530729 -1.6814213 4288085770
3.36026 7.2779093 -1.6780872 4288085770
3.8138428 7.4837551 -1.6653748 4288085770
4.3726807 7.7437458 -1.6610451 4288085770
4.9795837 8.0248146 -1.6580505 4288085770
5.6243896 8.3179607 -1.6527195 4288085770
11.58255 -2.2160945 -1.575367 4288085770
10.936523 -2.2413845 -1.6089725 4288085770
10.348602 -2.2695765 -1.6434345 4288085770
9.7093201 -2.2818203 -1.6698437 4288085770
9.0498047 -2.2830744 -1.6910419 4288085770
8.4523315 -2.2842231 -1.7129669 4288085770
7.8446045 -2.2773647 -1.7292976 4288085770
7.2558594 -2.2664642 -1.7439518 4288085770
6.7713928 -2.2654071 -1.7637386 4288085770
6.3099976 -2.2633162 -1.784687 4288085770
5.6744995 -2.2224107 -1.7811756 4288085770
11.483124 -3.3414874 -1.6040401 4288085770
5.0880737 -2.1844258 -1.7788544 4288085770
10.830475 -3.3178468 -1.650116 4288085770
4.5155334 -2.1414013 -1.7730427 4288085770
10.125366 -3.275249 -1.6861935 4288085770
4.0997009 -2.1241794 -1.7833786 4288085770
9.4100342 -3.2226434 -1.7166862 4288085770
3.6324768 -2.0909944 -1.7826653 4288085770
8.694397 -3.1610007 -1.7392254 4288085770
3.1751404 -2.0537863 -1.7806034 4288085770
7.9815979 -3.0933385 -1.7586842 4288085770
2.7982178 -2.0314798 -1.7875328 4288085770
7.3087769 -3.0265894 -1.7746735 4288085770
2.451355 -2.0091228 -1.7943649 4288085770
6.7080688 -2.9667273 -1.7929859 4288085770
2.0791626 -1.9777751 -1.7941551 4288085770
6.174469 -2.9167542 -1.8127956 4288085770
1.7420349 -1.9493756 -1.7956505 4288085770
5.5340576 -2.8348837 -1.8146534 4282675967
1.4512634 -1.9289236 -1.8034134 4288085770
4.8018799 -2.7240839 -1.7979908 4288085770
1.206665 -1.9154172 -1.8164577 4288085770
4.2193909 -2.6420908 -1.795723 4288085770
0.94186401 -1.8949203 -1.8242683 4288085770
3.6768188 -2.5650182 -1.7909641 4288085770
0.69204712 -1.8743958 -1.8315296 4288085770
3.1592712 -2.4868984 -1.7852936 4288085770
0.44018555 -1.8508654 -1.8368797 4288085770
2.723114 -2.4256763 -1.7885666 4288085770
0.20834351 -1.8303065 -1.8434811 4288085770
2.3582153 -2.3773584 -1.7971745 4288085770
-0.017486572 -1.807735 -1.8498707 4288085770
1.9901733 -2.3260269 -1.8019104 4288085770
-0.26861572 -1.7771697 -1.8482208 4288085770
1.6179504 -2.2676792 -1.8018246 4288085770
-0.48251343 -1.7525721 -1.8531837 4288085770
1.3443604 -2.2332277 -1.8160267 4288085770
-0.70654297 -1.7239695 -1.853529 4288085770
1.0736694 -2.1967578 -1.8271275 4288085770
-0.91159058 -1.6963358 -1.8541756 4288085770
0.80282593 -2.1572728 -1.835247 4288085770
-1.0974426 -1.673687 -1.8591003 4288085770
0.52590942 -2.1127853 -1.8406086 4288085770
-1.3197632 -1.6370487 -1.852417 4288085770
0.25482178 -2.0672727 -1.8427582 4288085770
-1.4987793 -1.6113701 -1.8531017 4288085770
0.00079345703 -2.0237331 -1.8452759 4288085770
-1.6666565 -1.5876827 -1.856369 4288085770
-0.23721313 -1.9821658 -1.8481941 4288085770
-1.8356934 -1.5609894 -1.8576908 4288085770
-0.47125244 -1.9405875 -1.849968 4288085770
-2.0068054 -1.5322809 -1.8550968 4288085770
-0.69021606 -1.8999901 -1.8531857 4288085770
-2.1769409 -1.5015712 -1.8524761 4288085770
-0.90325928 -1.8593717 -1.8541851 4288085770
-2.3046875 -1.4828315 -1.8592529 4288085770
-1.1123352 -1.81774 -1.854044 4288085770
-2.4699707 -1.4500918 -1.852457 4288085770
-1.3093872 -1.7780952 -1.8554516 4288085770
-2.6109924 -1.424345 -1.8527489 4288085770
-1.5075684 -1.7364345 -1.8529072 4288085770
-2.7459412 -1.3985858 -1.8528175 4288085770
-1.6784973 -1.700748 -1.8553429 4288085770
-1.8565979 -1.6610575 -1.8540516 4288085770
-2.0145569 -1.6273489 -1.8560028 4288085770
-2.1847534 -1.5876331 -1.8524227 4288085770
-2.3297119 -1.5538979 -1.8538952 4288085770
-2.4717102 -1.5201573 -1.8552589 4288085770
-2.6148376 -1.4854002 -1.8526649 4288085770
-2.7488403 -1.4516387 -1.8527336 4288085770
-2.827301 0.64272308 -1.8162003 4288085770
-2.7203674 0.65593338 -1.8093662 4288085770
-2.5881958 0.66915894 -1.8086128 4288085770
-2.4530945 0.68340302 -1.8057575 4288085770
-2.3169861 0.69764614 -1.8028641 4288085770
-2.1669006 0.71191216 -1.8004608 4288085770
-2.0127869 0.72618675 -1.7979107 4288085770
-1.8304443 0.74148369 -1.8003426 4288085770
-2.8487549 0.71568108 -1.8073788 4288085770
-1.6522522 0.75679398 -1.7989216 4288085770
-2.7014465 0.72791767 -1.81007 4288085770
-1.4246826 0.77314091 -1.8077126 4288085770
-2.5673218 0.73915863 -1.8072376 4288085770
-1.2760315 0.78546047 -1.7933464 4288085770
-2.4262085 0.75040531 -1.805151 4288085770
-1.041626 0.80184364 -1.7968845 4288085770
-2.2215271 0.76469517 -1.8177662 4288085770
-0.83459473 0.81622314 -1.7914047 4288085770
-2.0562744 0.77597523 -1.8177986 4288085770
-0.58526611 0.83264542 -1.7923985 4288085770
-1.8871765 0.78727722 -1.8146915 4288085770
-0.34213257 0.84807968 -1.7886124 4288085770
-1.7504272 0.79556847 -1.8017426 4288085770
-0.094085693 0.86352825 -1.7826424 4288085770
-1.545105 0.80790615 -1.8043232 4288085770
0.20617676 0.8810482 -1.7817841 4288085770
-1.3439026 0.81925678 -1.8030453 4288085770
0.50128174 0.89657593 -1.7771015 4288085770
-1.1468201 0.8296175 -1.7979126 4288085770
0.83554077 0.91415882 -1.7750034 4288085770
-0.92770386 0.84000397 -1.7949772 4288085770
1.1706543 0.93076324 -1.7688656 4288085770
-0.68746948 0.85142136 -1.7932796 4288085770
1.5760498 0.95045757 -1.7691879 4288085770
-0.43725586 0.86185932 -1.7912121 4288085770
1.9550781 0.96714973 -1.7604504 4288085770
-0.18719482 0.87131596 -1.7851448 4288085770
2.3651428 0.98389626 -1.7515831 4288085770
0.1020813 0.88281918 -1.7836609 4288085770
2.8262939 1.0027246 -1.7438641 4288085770
0.4112854 0.89335728 -1.7814426 4288085770
3.3153076 1.0206184 -1.7331219 4288085770
0.74154663 0.90493393 -1.7794666 4288085770
3.8363037 1.0395699 -1.7212219 4288085770
1.0777283 0.91453457 -1.7742596 4288085770
4.4777222 1.0616913 -1.7179508 4288085770
1.4519653 0.92519379 -1.7706738 4288085770
5.0996094 1.080842 -1.7013702 4288085770
1.8612366 0.93490982 -1.7678089 4288085770
5.7564392 1.1000633 -1.6825142 4288085770
2.26828 0.9436512 -1.759016 4288085770
6.5093384 1.1204529 -1.6631641 4288085770
2.7073669 0.95244694 -1.7500553 4288085770
7.3713989 1.1430216 -1.6458473 4288085770
3.1844482 0.96031761 -1.7397079 4288085770
8.230896 1.1626577 -1.6136036 4288085770
3.6974792 0.96725464 -1.7280445 4288085770
9.0840759 1.1783228 -1.572567 4288085770
4.2997437 0.97632408 -1.7211399 4288085770
10.184662 1.1993847 -1.5385399 4288085770
4.9700928 0.9855032 -1.7157593 4288085770
11.306793 1.2185421 -1.4917164 4288085770
5.6130066 0.98969936 -1.6973457 4288085770
6.3771057 0.99508572 -1.6825275 4288085770
7.1509399 0.9985199 -1.6613388 4288085770
7.9534912 0.99705029 -1.6300755 4288085770
8.7737732 0.99264622 -1.5921516 4288085770
9.6850281 0.98641682 -1.5499001 4288085770
10.949005 0.98572636 -1.5228329 4288085770
0.86499023 -4.2420411 -0.49138641 4293729569
1.2293091 -4.291779 -0.56602097 4293729569
1.4029236 -4.3076582 -0.60268974 4293729569
1.7550964 -4.3324051 -0.67487907 4293729569
1.9296265 -4.3402786 -0.71055031 4293729569
4.1203613 -5.2511163 -0.19954491 4293729569
4.1729126 -5.2931943 -0.87190437 4293729569
4.1755066 -5.1841698 -0.22989464 4293729569
2.2466125 -4.331069 -0.7791729 4293729569
2.5466003 -4.3857622 -0.82208443 4293729569
2.7160339 -4.3776364 -0.85601616 4293729569
2.9718628 -4.4023895 -0.89566803 4293729569
3.2115479 -4.4171581 -0.93295097 4293729569
3.4793091 -4.4408884 -0.97217369 4293729569
9.1393738 -6.6472635 -1.4150429 4293729569
9.0096436 -6.4615645 -1.4306431 4293729569
8.8416748 -6.2639103 -1.4416771 4293729569
8.6636353 -6.0632544 -1.449091 4293729569
8.5707703 -5.8984718 -1.4602489 4293729569
8.4567871 -5.7277098 -1.4682007 4293729569
8.3055725 -5.5449843 -1.4705524 4293729569
8.2597351 -5.4031124 -1.4799004 4293729569
8.1495361 -5.2282963 -0.62814713 4293729569
8.0983276 -5.2203836 -1.4776173 4293729569
8.255127 -5.1391935 -0.64376259 4293729569
8.1206665 -5.1024051 -1.4893837 4293729569
8.2564697 -5.0232687 -1.5088615 4293729569
8.2867432 -4.9082623 -1.5173264 4293729569
8.3349915 -4.7962246 -1.526125 4293729569
11.561035 -5.6552095 -0.78674126 4293729569
8.4363708 -4.7011061 -1.5369186 4293729569
8.4785461 -4.5860624 -1.5419483 4293729569
8.7153625 -4.5287485 -1.560667 4293729569
10.415009 -4.884038 -0.75389671 4293729569
9.2775879 -4.5590019 -1.606205 4293729569
9.8919067 -4.5961742 -1.6538239 4293729569
10.16275 -4.5317926 -1.6703453 4288085770
10.115082 -4.3798208 -1.6577892 4288085770
10.282318 -4.2845583 -1.6621971 4288085770
10.455505 -4.189281 -1.6653919 4288085770
10.559296 -4.0750833 -1.660181 4288085770
10.674072 -3.9618592 -1.6535645 4288085770
10.7948 -3.8506246 -1.6467266 4288085770
10.98877 -3.75528 -1.6431618 4288085770
11.146454 -3.6469693 -1.6339703 4288085770
11.296082 -3.5376668 -1.6230717 4288085770
11.446594 -3.4263473 -1.6091499 4288085770
11.668304 -3.3249221 -1.5986042 4288085770
11.8508 -3.2165427 -1.5835114 4288085770
11.285248 1.4764595 -1.4785557 4288085770
10.489258 1.5228958 -1.5193653 4288085770
9.5664978 1.554203 -1.5406322 4288085770
8.8381042 1.5918131 -1.568964 4288085770
8.2438965 1.6336393 -1.6005058 4288085770
7.5932312 1.6654253 -1.6200142 4288085770
7.0216675 1.6983423 -1.6396904 4288085770
6.4458618 1.726284 -1.6534901 4288085770
5.8919678 1.751277 -1.6634903 4288085770
5.3680115 1.774334 -1.6714001 4288085770
11.278778 2.4316673 -1.4234524 4293729569
4.9382019 1.8035364 -1.6829681 4288085770
10.598755 2.4643116 -1.4620285 4288085770
4.5545349 1.8328056 -1.6968842 4288085770
9.9636536 2.4940567 -1.4959755 4288085770
4.1565857 1.8570862 -1.7032795 4288085770
9.3484192 2.5208521 -1.5261936 4288085770
3.7817078 1.8814058 -1.7098522 4288085770
8.6556702 2.5325804 -1.5421104 4288085770
3.4257202 1.9047651 -1.7147369 4288085770
8.0419617 2.5474386 -1.5592041 4288085770
3.1158752 1.9301929 -1.721981 4288085770
7.4722595 2.5633812 -1.5747261 4288085770
2.8048706 1.9536371 -1.7252522 4288085770
6.988678 2.5854626 -1.5921898 4288085770
2.5159302 1.9771147 -1.7297325 4288085770
6.5410156 2.6086159 -1.6073685 4288085770
2.2630615 2.0026445 -1.7359314 4288085770
2.8840027 2.1238317 -1.2809582 4293729569
2.0292358 2.029211 -1.7414532 4288085770
2.6234741 2.1483107 -1.2954311 4293729569
1.762085 2.0477524 -1.7401237 4288085770
2.248291 2.1516685 -1.2939034 4293729569
1.5411072 2.0713587 -1.7421665 4288085770
1.9734802 2.1671553 -1.3008404 4293729569
1.3301392 2.0949764 -1.7448502 4288085770
1.7407532 2.1887045 -1.3102989 4293729569
1.1352234 2.1196203 -1.7479649 4288085770
1.4356079 2.1941843 -1.3082695 4293729569
0.94827271 2.1442852 -1.7497921 4288085770
1.1947021 2.2087479 -1.311985 4293729569
0.75115967 2.1649494 -1.747961 4288085770
0.95672607 2.2213249 -1.3135834 4293729569
0.60842896 2.1956635 -1.7552338 4288085770
0.66940308 2.2218599 -1.3058872 4293729569
0.43334961 2.2173653 -1.7536163 4288085770
0.4694519 2.2375021 -1.308136 4293729569
0.28942871 2.2441025 -1.7559109 4288085770
0.26037598 2.2481432 -1.3066864 4293729569
0.14437866 2.2688465 -1.7562199 4288085770
0.030090332 2.2527733 -1.2999535 4293729569
0.0034179688 2.2935982 -1.756403 4288085770
-0.12686157 2.2714891 -1.3016815 4293729569
-0.32510376 2.2722149 -1.7160625 4288085770
-0.27978516 2.2892151 -1.3032589 4293729569
-0.47528076 2.2899771 -1.710537 4288085770
-0.47106934 2.2959127 -1.296154 4293729569
-0.49154663 2.3398523 -1.7303829 4288085770
-0.62713623 2.3096495 -1.2938232 4293729569
-0.50375366 2.3917294 -1.7510929 4288085770
-0.80441284 2.3153715 -1.286211 4293729569
-0.55032349 2.4335909 -1.7629795 4288085770
-0.88711548 2.3451977 -1.2923336 4293729569
-0.66036987 2.4594021 -1.7610569 4288085770
-0.91262817 2.3890829 -1.3064766 4293729569
-0.75131226 2.4882402 -1.7614651 4288085770
-0.9602356 2.4279499 -1.3163834 4293729569
-0.84838867 2.5150709 -1.7600822 4288085770
-0.95251465 2.4818687 -1.3353882 4293729569
-0.93338013 2.5449247 -1.7592812 4288085770
-0.98306274 2.5257587 -1.3467121 4293729569
-1.0052795 2.5767879 -1.7610188 4288085770
-1.0448303 2.5596228 -1.3520985 4293729569
-1.0964355 2.6026478 -1.7564163 4288085770
-1.0503235 2.6095457 -1.3655529 4293729569
-1.1371765 2.6435404 -1.7630863 4288085770
-1.0799561 2.6534443 -1.3748417 4293729569
-1.2364197 2.664403 -1.7547455 4288085770
-1.1066589 2.6963549 -1.3830185 4293729569
-1.3196106 2.6902828 -1.7488556 4288085770
-1.1202698 2.7442827 -1.3927517 4293729569
-1.3634338 2.7281828 -1.7526188 4288085770
-1.1268616 2.7952166 -1.4032478 4293729569
-1.4335632 2.7560778 -1.7482719 4288085770
-1.0227051 2.8842487 -1.4339714 4293729569
-1.4815369 2.7919941 -1.7471714 4288085770
-1.0263367 2.9371939 -1.4433708 4293729569
-1.5326233 2.8259106 -1.7451706 4288085770
-1.0380859 2.9881372 -1.4500484 4293729569
-1.5745544 2.8628292 -1.7458572 4288085770
-1.1695862 2.9939766 -1.4347858 4293729569
-1.6256409 2.8957558 -1.7418518 4288085770
-1.1773376 3.0439301 -1.4403172 4293729569
-1.6798096 2.9266834 -1.7359447 4288085770
-1.2173462 3.0828571 -1.4399452 4293729569
-1.7410583 2.9546089 -1.7282772 4288085770
-1.2271423 3.1328135 -1.4445457 4293729569
-1.744812 3.0035706 -1.7336559 4288085770
-1.1494141 3.2178535 -1.4641914 4293729569
-1.776886 3.0425234 -1.7309971 4288085770
-1.1251221 3.2818499 -1.472641 4293729569
-1.796875 3.0844889 -1.7299232 4288085770
-1.1339417 3.3338165 -1.4752159 4293729569
-1.8148499 3.1284533 -1.7297859 4288085770
-1.1056824 3.4008274 -1.4825382 4293729569
-1.8358765 3.1704226 -1.727747 4288085770
-1.0693665 3.4708424 -1.4915886 4293729569
-1.848938 3.2154036 -1.7254353 4288085770
-1.0410767 3.5388584 -1.4979153 4293729569
-1.8539124 3.2633934 -1.7248516 4288085770
-1.0400696 3.5948572 -1.4971542 4293729569
-1.849823 3.3173857 -1.7269726 4288085770
-1.089447 3.6288185 -1.4860878 4293729569
-1.849823 3.3683882 -1.7252235 4288085770
-1.0482178 3.7038555 -1.4919815 4293729569
-1.8609314 3.4143839 -1.7208481 4288085770
-1.0019836 3.7809067 -1.4977074 4293729569
-1.8317261 3.4784107 -1.7251186 4288085770
-0.95275879 3.8599586 -1.503336 4293729569
-1.8338318 3.5284176 -1.7214375 4288085770
-0.90161133 3.9400253 -1.506897 4293729569
-1.8067322 3.5914488 -1.7237778 4288085770
-0.25662231 4.3155918 -1.6236801 4293729569
-1.766571 3.6614904 -1.7286873 4288085770
0.25238037 4.6320562 -1.7120342 4288085770
-1.7203674 3.7365484 -1.7324028 4288085770
0.275177 4.7081213 -1.7055874 4288085770
-1.6923523 3.80159 -1.7327194 4288085770
0.31503296 4.7931995 -1.7025757 4288085770
-1.6502991 3.8736525 -1.7335663 4288085770
0.38504028 4.8943138 -1.7025642 4288085770
-1.6475525 3.9256935 -1.7247219 4288085770
0.45495605 4.9954367 -1.7015553 4288085770
-1.5995483 4.0007696 -1.7253704 4288085770
0.54702759 5.1085844 -1.7028122 4288085770
-1.5374146 4.0848608 -1.7275581 4288085770
0.65103149 5.230751 -1.7046833 4288085770
-1.4894409 4.160944 -1.7262135 4288085770
0.75097656 5.3499212 -1.7036877 4288085770
-1.4294739 4.2450428 -1.7264767 4288085770
0.87094116 5.4821243 -1.7040367 4288085770
-1.359436 4.334157 -1.7264061 4288085770
0.9928894 5.6153345 -1.7033195 4288085770
-1.2874756 4.424283 -1.7252693 4288085770
1.1238098 5.7555609 -1.7023163 4288085770
-1.244751 4.4983912 -1.7171001 4288085770
1.2314758 5.8817825 -1.6940727 4288085770
-1.1547241 4.5995417 -1.7173691 4288085770
1.3843384 6.0360479 -1.6923504 4288085770
-1.0536804 4.7067003 -1.7192783 4288085770
1.5361328 6.1903276 -1.6876659 4288085770
-0.96582031 4.8078651 -1.7156239 4288085770
1.6958618 6.3486223 -1.6827145 4288085770
-0.85379028 4.9230499 -1.716177 4288085770
1.81427 6.4838963 -1.6671276 4288085770
-0.73883057 5.0402489 -1.7156315 4288085770
1.9728699 6.6432123 -1.6572208 4288085770
-0.60586548 5.1694736 -1.7155037 4288085770
2.3041382 6.9107265 -1.6686668 4288085770
-0.44979858 5.3127251 -1.7186165 4288085770
2.572937 7.1411896 -1.6681633 4288085770
-0.27563477 5.4679937 -1.7241421 4288085770
2.8366089 7.3686705 -1.661829 4288085770
-0.10464478 5.6222849 -1.7247734 4288085770
3.1433716 7.6262112 -1.6590977 4288085770
0.073303223 5.7805853 -1.7251778 4288085770
3.4900818 7.9098167 -1.6570644 4288085770
0.23504639 5.927887 -1.7191029 4288085770
3.8758545 8.2204857 -1.6557636 4288085770
0.42086792 6.091218 -1.7162476 4288085770
0.62362671 6.265583 -1.7118397 4288085770
0.8263855 6.4399557 -1.7064323 4288085770
1.0228882 6.6093454 -1.6942196 4288085770
1.3319092 6.8548603 -1.6983585 4288085770
1.6146545 7.0813618 -1.6943417 4288085770
1.9223938 7.3249083 -1.6905136 4288085770
2.2088318 7.5524559 -1.6783657 4288085770
2.6197205 7.8651505 -1.6811886 4288085770
3.0424805 8.184885 -1.6796169 4288085770
10.942719 -0.96776152 -1.5614491 4288085770
10.089539 -0.98839808 -1.594553 4288085770
9.3786316 -1.0138183 -1.6336117 4288085770
8.6604614 -1.0302138 -1.664959 4288085770
7.9611206 -1.0415554 -1.6916599 4288085770
6.6263123 -1.0501094 -1.738327 4288085770
5.9593201 -1.0435686 -1.7474079 4288085770
11.784668 -1.6413531 -1.556654 4288085770
5.3182373 -1.0349545 -1.7525978 4288085770
10.850739 -1.6225471 -1.6010265 4288085770
4.7060547 -1.0232649 -1.7547989 4288085770
9.9355164 -1.5966592 -1.6367798 4288085770
4.1710815 -1.013433 -1.7613297 4288085770
9.1001587 -1.5715842 -1.6687641 4288085770
3.6509094 -1.0005479 -1.7633591 4288085770
8.3549194 -1.5493231 -1.7016258 4288085770
3.2402039 -0.99648142 -1.7755775 4288085770
7.6635742 -1.5259252 -1.7296314 4288085770
2.8635559 -0.99234152 -1.7876225 4288085770
6.9489136 -1.4935369 -1.7494717 4288085770
2.419342 -0.9762845 -1.7870388 4288085770
6.2469788 -1.4570909 -1.762888 4288085770
2.0192261 -0.96213961 -1.7879276 4288085770
5.5316772 -1.4136209 -1.7657814 4288085770
1.6693115 -0.95090961 -1.7930717 4288085770
4.827179 -1.3651037 -1.7633247 4288085770
1.3394165 -0.93963957 -1.7985249 4288085770
4.2058105 -1.3224158 -1.7619705 4288085770
1.0849304 -0.93626022 -1.8143482 4288085770
3.6525879 -1.2846012 -1.7642441 4288085770
0.81216431 -0.92688322 -1.8228226 4288085770
3.2047729 -1.2566047 -1.7748451 4288085770
0.50402832 -0.91053438 -1.8215408 4288085770
2.8080444 -1.2335105 -1.7876625 4288085770
0.24111938 -0.89811659 -1.8256874 4288085770
2.4050903 -1.2054029 -1.7947102 4288085770
-0.004699707 -0.88666773 -1.8312359 4288085770
1.9909668 -1.1722846 -1.7951622 4288085770
-0.24768066 -0.87220049 -1.8337002 4288085770
1.5887146 -1.1381364 -1.7942066 4288085770
-0.4786377 -0.85870838 -1.8367443 4288085770
1.3182373 -1.1217937 -1.8106384 4288085770
-0.70361328 -0.84419489 -1.8375835 4288085770
1.0314941 -1.1014585 -1.82164 4288085770
-0.91958618 -0.82866478 -1.839119 4288085770
0.72955322 -1.0751195 -1.8251934 4288085770
-1.1316528 -0.81211567 -1.8385201 4288085770
0.45266724 -1.051743 -1.8318672 4288085770
-1.3023987 -0.80151606 -1.8454762 4288085770
0.15551758 -1.0223689 -1.8302612 4288085770
-1.4953918 -0.78492928 -1.8452206 4288085770
-0.085357666 -0.99991035 -1.8356857 4288085770
-1.7138062 -0.76335096 -1.8358555 4288085770
-0.34249878 -0.97245502 -1.8346901 4288085770
-1.9110718 -0.74274111 -1.8287601 4288085770
-0.55526733 -0.95194674 -1.8421383 4288085770
-2.0548706 -0.73007584 -1.8337917 4288085770
-0.79141235 -0.9254384 -1.8394146 4288085770
-2.2098694 -0.71541166 -1.8342152 4288085770
-1.0125122 -0.89991045 -1.8391666 4288085770
-2.3840942 -0.69575214 -1.8273201 4288085770
-1.1932983 -0.88032913 -1.8455067 4288085770
-2.5200195 -0.68105841 -1.8300858 4288085770
-1.4237366 -0.85077524 -1.8355904 4288085770
-1.6076965 -0.82717133 -1.8360538 4288085770
-1.8039551 -0.80056667 -1.830946 4288085770
-1.9770508 -0.77793026 -1.8290272 4288085770
-2.1299744 -0.75726652 -1.8304062 4288085770
-2.2881165 -0.73359489 -1.8279743 4288085770
-2.4432068 -0.71091557 -1.8254337 4288085770
-2.5740662 -0.69121122 -1.8280487 4288085770
-2.4909363 1.3064203 -1.784132 4288085770
-2.3366699 1.326726 -1.7870026 4288085770
-2.1865234 1.3460417 -1.7860069 4288085770
-2.0314331 1.3653679 -1.7848434 4288085770
-1.8753052 1.383709 -1.781641 4288085770
-1.7112122 1.4020605 -1.7791691 4288085770
-1.5371399 1.4214344 -1.7763615 4288085770
-2.5518494 1.2902155 -1.7912636 4288085770
-1.3329163 1.4438553 -1.7775497 4288085770
-2.4016113 1.305521 -1.7922478 4288085770
-1.1428223 1.4632673 -1.7742004 4288085770
-2.2524414 1.3198309 -1.7922649 4288085770
-0.93566895 1.4837074 -1.7722797 4288085770
-2.1083984 1.331152 -1.7874432 4288085770
-0.71047974 1.5051842 -1.770752 4288085770
-1.9533386 1.3434896 -1.7842503 4288085770
-0.43203735 1.5337324 -1.7784519 4288085770
-1.7599487 1.3608646 -1.7897835 4288085770
-0.18588257 1.5562601 -1.775219 4288085770
-1.6120605 1.3702135 -1.7808208 4288085770
0.033966064 1.572773 -1.7638474 4288085770
-1.4097595 1.385622 -1.7830448 4288085770
0.33526611 1.5993938 -1.7657642 4288085770
-1.2055054 1.4010439 -1.7842007 4288085770
0.62936401 1.623023 -1.7629089 4288085770
-1.010437 1.4124718 -1.7796497 4288085770
0.93652344 1.6466875 -1.7586136 4288085770
-0.80938721 1.423912 -1.7748947 4288085770
1.272644 1.6714134 -1.7543392 4288085770
-0.56811523 1.4394121 -1.7757969 4288085770
1.6398621 1.6981878 -1.7530231 4288085770
-0.33599854 1.4509144 -1.7719936 4288085770
2.0722656 1.7310848 -1.7555275 4288085770
-0.076782227 1.4644594 -1.7712784 4288085770
2.4542847 1.7549276 -1.7466946 4288085770
0.17935181 1.4760189 -1.7666607 4288085770
2.860199 1.7788286 -1.7360535 4288085770
0.43936157 1.4855928 -1.759901 4288085770
3.3051758 1.803812 -1.7260914 4288085770
0.75265503 1.500246 -1.7603607 4288085770
3.8113403 1.8339043 -1.7200813 4288085770
1.0738525 1.5129328 -1.7575455 4288085770
4.3514099 1.8630896 -1.7099171 4288085770
1.4311829 1.5276785 -1.7585163 4288085770
4.8631287 1.8862514 -1.6916866 4288085770
1.7752686 1.5384283 -1.751915 4288085770
5.4761353 1.914607 -1.6780453 4288085770
2.2087097 1.5553217 -1.7553177 4288085770
6.1731262 1.949132 -1.6655903 4288085770
2.6047974 1.564188 -1.7479458 4288085770
6.8559265 1.975666 -1.6455746 4288085770
3.0118713 1.5720835 -1.7391987 4288085770
7.5896301 2.0033255 -1.6218414 4288085770
3.4508972 1.5790548 -1.7293644 4288085770
8.3752136 2.029109 -1.5943413 4288085770
3.9250183 1.5860872 -1.7193508 4288085770
9.2036743 2.0520039 -1.5613842 4288085770
4.4602051 1.5942469 -1.7122631 4288085770
10.088013 2.0750484 -1.5235233 4288085770
4.9861145 1.5984163 -1.698473 4288085770
11.033203 2.0942478 -1.4805775 4288085770
5.5631104 1.6006994 -1.6839428 4288085770
12.16745 2.1218443 -1.4372673 4288085770
6.2342834 1.6051626 -1.6732349 4288085770
6.9142151 1.6056767 -1.6562119 4288085770
7.605011 1.6012325 -1.6347961 4288085770
8.3597717 1.5939398 -1.6102009 4288085770
9.0992126 1.5786591 -1.576088 4288085770
9.9778748 1.5656538 -1.5462704 4288085770
10.882324 1.544733 -1.5095425 4288085770
11.889832 1.5230389 -1.4713211 4288085770
-1.6453857 -4.1339102 -0.52083397 4293729569
-1.5088501 -4.1686096 -0.72032166 4293729569
-1.5176086 -4.1458035 -0.75576591 4293729569
-1.434845 -4.1828508 -0.80086708 4293729569
-1.4274902 -4.1660185 -0.83774567 4293729569
-1.4282227 -4.1421943 -0.8729248 4293729569
-1.3736572 -4.1542835 -0.9140873 4293729569
-1.2689514 -4.1532884 -0.54338455 4293729569
-1.2889099 -4.1833267 -0.95915794 4293729569
2.8458557 -6.9103646 -1.5291443 4293729569
-1.1169128 -4.1903582 -0.62220764 4293729569
2.5386353 -6.6570759 -1.5416698 4293729569
-1.0986328 -4.1674914 -0.65674973 4293729569
-1.104126 -4.2135587 -1.0849724 4293729569
-1.0241699 -4.1795192 -0.69424438 4293729569
-1.0959167 -4.1837096 -1.1188812 4293729569
-1.0253601 -4.1937661 -1.1605186 4293729569
-0.88223267 -4.1935983 -0.77051735 4293729569
1.3739014 -5.6956291 -1.5583515 4293729569
-0.8460083 -4.1756849 -0.80343056 4293729569
-0.84689331 -4.2298284 -1.2494736 4293729569
-0.78067017 -4.1747255 -0.83929443 4293729569
-0.77734375 -4.2318821 -1.290184 4293729569
0.72894287 -5.1290483 -1.5677128 4293729569
-0.57647705 -4.2096896 -0.91938972 4293729569
0.15670776 -4.7209558 -1.5047855 4293729569
-0.51217651 -4.200727 -0.95432472 4293729569
-0.090148926 -4.5174246 -1.4930286 4293729569
4.0922852 -6.9047022 -1.5098152 4293729569
-0.38046265 -4.2899294 -1.4698315 4293729569
-0.25387573 -4.2545934 -1.0375271 4293729569
-0.23944092 -4.323884 -1.5210075 4293729569
3.5436401 -6.4209375 -1.5245419 4293729569
0.021484375 -4.4246898 -1.5938683 4293729569
-0.035888672 -4.2735138 -1.1142406 4293729569
-0.082489014 -4.3069415 -1.5999317 4293729569
0.011260986 -4.244566 -1.1448441 4293729569
-0.22692871 -4.1672301 -1.5954494 4293729569
0.18411255 -4.2844238 -1.18993 4293729569
-0.27255249 -4.085393 -1.6083946 4293729569
0.27438354 -4.2754025 -1.223999 4293729569
-0.16802979 -4.0883727 -1.6489353 4293729569
2.625 -5.5060863 -1.5637932 4293729569
-0.049377441 -4.0963302 -1.690979 4293729569
0.54647827 -4.3022122 -1.3018703 4293729569
0.068237305 -4.1012897 -1.7330742 4293729569
0.70315552 -4.3220873 -1.3435917 4293729569
0.18783569 -4.1052384 -1.774107 4293729569
0.82751465 -4.3219981 -1.3784809 4293729569
0.33459473 -4.1211567 -1.820179 4288085770
0.4682312 -4.1270843 -1.8627357 4288085770
1.0591431 -4.3058443 -1.4459133 4293729569
0.50604248 -4.0801158 -1.8847351 4288085770
1.3565369 -4.3865042 -1.5046539 4293729569
0.42575073 -3.9732718 -1.880949 4288085770
1.6399231 -4.4561825 -1.560915 4293729569
0.39886475 -3.8933587 -1.8862534 4288085770
1.6352539 -4.3792524 -1.5724735 4293729569
0.27914429 -3.7675462 -1.87187 4288085770
1.609436 -4.292346 -1.5797806 4293729569
0.23706055 -3.6806397 -1.8717136 4288085770
1.6127625 -4.2184033 -1.5920582 4293729569
0.20904541 -3.5997109 -1.8730602 4288085770
1.705658 -4.1853232 -1.6151524 4293729569
0.17996216 -3.5197792 -1.8734379 4288085770
1.8901062 -4.1931124 -1.6510067 4293729569
0.13473511 -3.4318547 -1.8683891 4288085770
2.0906982 -4.2048779 -1.6893044 4293729569
0.11065674 -3.3559074 -1.8675785 4288085770
2.3032227 -4.2206159 -1.7271843 4293729569
0.099639893 -3.2849388 -1.8683071 4288085770
2.5308228 -4.2373295 -1.7665577 4293729569
0.081512451 -3.2109685 -1.8652897 4288085770
2.7281799 -4.2380791 -1.8000164 4288085770
0.06942749 -3.1399922 -1.8640537 4288085770
2.7915955 -4.1790047 -1.8112183 4288085770
0.078460693 -3.0779843 -1.8650703 4288085770
2.7684021 -4.0850458 -1.8084698 4288085770
0.0753479 -3.010983 -1.8625183 4288085770
2.7502136 -3.9930692 -1.8045406 4288085770
0.07220459 -2.9439778 -1.8589649 4288085770
2.7460022 -3.9070621 -1.8001213 4288085770
0.10131836 -2.8909326 -1.8612709 4288085770
2.7951355 -3.8409801 -1.8038292 4288085770
0.11828613 -2.8308959 -1.860014 4288085770
2.8260803 -3.7689185 -1.8031712 4288085770
0.16143799 -2.7818289 -1.8638325 4288085770
2.8509827 -3.6928582 -1.8007317 4288085770
0.18637085 -2.7267742 -1.8622875 4288085770
2.8959656 -3.6257634 -1.7995796 4288085770
0.19519043 -2.6637335 -1.8563156 4288085770
2.9399109 -3.5566649 -1.7974739 4288085770
0.24731445 -2.6176343 -1.8578205 4288085770
3.0048828 -3.4955297 -1.796627 4288085770
0.28427124 -2.5655522 -1.8558598 4288085770
3.085968 -3.4383664 -1.7972279 4288085770
0.33834839 -2.5174451 -1.8563099 4288085770
3.177063 -3.3851852 -1.7984753 4288085770
0.38531494 -2.4683404 -1.854002 4288085770
3.2771301 -3.3339782 -1.7984142 4288085770
0.44836426 -2.4242272 -1.8541298 4288085770
3.3942871 -3.2857614 -1.8007622 4288085770
0.50534058 -2.3771005 -1.8514729 4288085770
3.5093384 -3.2355213 -1.80019 4288085770
0.55426025 -2.3269815 -1.8470974 4288085770
3.6324463 -3.1882672 -1.8003349 4288085770
0.63833618 -2.2858129 -1.8475113 4288085770
3.7684937 -3.1409793 -1.7990494 4288085770
0.72341919 -2.2446351 -1.8468895 4288085770
3.9316711 -3.1006494 -1.8008289 4288085770
0.7822876 -2.1954889 -1.8411789 4288085770
4.1078796 -3.0632896 -1.8021584 4288085770
0.85113525 -2.1493201 -1.8351192 4288085770
4.295105 -3.0259089 -1.8041229 4288085770
0.94714355 -2.1081138 -1.8331356 4288085770
4.5083618 -2.9944792 -1.8071918 4288085770
1.0411072 -2.0669031 -1.8292179 4288085770
4.7246399 -2.9600368 -1.8091736 4288085770
1.1511841 -2.0286684 -1.8277493 4288085770
4.9538269 -2.9275618 -1.8097191 4288085770
1.2330017 -1.9834657 -1.8202553 4288085770
5.2191467 -2.900023 -1.813036 4282675967
1.3288879 -1.9392352 -1.8132896 4288085770
5.5105286 -2.8774338 -1.8174667 4282675967
1.4518738 -1.9009628 -1.8093929 4288085770
5.7797241 -2.8458676 -1.8166752 4282675967
1.5828857 -1.8646765 -1.8062191 4288085770
6.0769958 -2.8182464 -1.8169289 4282675967
1.7389832 -1.8313479 -1.8051968 4288085770
6.3278503 -2.7756791 -1.8078003 4288085770
1.907135 -1.8000021 -1.8057671 4288085770
6.5666504 -2.730124 -1.7960854 4288085770
2.1004028 -1.7726073 -1.8074837 4288085770
6.8575134 -2.6914687 -1.7866039 4288085770
2.2835083 -1.7402229 -1.8065586 4288085770
7.1613464 -2.6507812 -1.7756996 4288085770
2.4856567 -1.7087932 -1.8049965 4288085770
7.4621582 -2.6080894 -1.7629089 4288085770
2.6998596 -1.6783466 -1.8050289 4288085770
7.8079529 -2.5693011 -1.7496014 4288085770
2.8967896 -1.6429062 -1.7986622 4288085770
8.2068787 -2.5374165 -1.7394943 4288085770
3.1168518 -1.6084275 -1.7945175 4288085770
8.62677 -2.504478 -1.7276936 4288085770
3.3347168 -1.5719342 -1.7864552 4288085770
9.0354614 -2.466537 -1.710289 4288085770
3.5767822 -1.5384049 -1.7815762 4288085770
9.3486938 -2.408741 -1.6811523 4288085770
3.8488159 -1.5058136 -1.7766933 4288085770
9.846405 -2.375607 -1.6627579 4288085770
4.1871338 -1.4821129 -1.7785683 4288085770
10.361084 -2.3394294 -1.6428204 4288085770
4.5223389 -1.4534016 -1.7765694 4288085770
10.959839 -2.3100805 -1.6240501 4288085770
4.8775024 -1.4236441 -1.7739124 4288085770
11.487152 -2.2648258 -1.5937328 4288085770
5.3069458 -1.4017615 -1.77775 4288085770
12.287231 -2.2510729 -1.579195 4288085770
5.7532654 -1.3768253 -1.778038 4288085770
6.168335 -1.3439221 -1.7714024 4288085770
6.6555176 -1.3128748 -1.7663612 4288085770
7.1023865 -1.2738752 -1.7536983 4288085770
7.578186 -1.2338014 -1.7380753 4288085770
8.0317688 -1.1877484 -1.7172203 4288085770
8.5614319 -1.1435366 -1.6968269 4288085770
9.0879211 -1.095314 -1.6725578 4288085770
9.6442566 -1.0419989 -1.6423187 4288085770
10.281677 -0.99152422 -1.6143703 4288085770
10.983093 -0.93990278 -1.584301 4288085770
11.913971 -0.896842 -1.5635643 4288085770
12.072723 2.4286613 -1.4167957 4288085770
11.525146 2.4993906 -1.4391117 4288085770
11.007477 2.5681887 -1.4594364 4288085770
10.575989 2.6421576 -1.4829636 4288085770
10.179413 2.7152128 -1.5033398 4288085770
9.6955261 2.7721319 -1.514492 4288085770
9.3048096 2.837224 -1.5296364 4288085770
8.9069519 2.8963223 -1.5409775 4288085770
8.4899292 2.9474096 -1.5459061 4288085770
2.7222595 2.1274633 -1.0705318 4293729569
2.671875 2.192255 -1.0905247 4293729569
2.0205383 2.1530476 -1.0536518 4293729569
1.716217 2.1684351 -1.045702 4293729569
2.4697876 2.3261766 -0.6015625 4293729569
1.4068604 2.1788216 -1.0358887 4293729569
2.1048279 2.3283873 -0.60353851 4293729569
1.1505737 2.1943035 -1.0293655 4293729569
1.7487793 2.3286238 -0.6042099 4293729569
0.89523315 2.2078028 -1.0197983 4293729569
1.5419312 2.3551502 -0.6101284 4293729569
0.66598511 2.2243452 -1.012392 4293729569
1.1987915 2.3504324 -0.6073513 4293729569
0.48382568 2.246973 -1.0084763 4293729569
1.1300964 2.4002304 -0.61786079 4293729569
0.25747681 2.2575388 -0.99794388 4293729569
1.1946716 2.4812803 -0.63516617 4293729569
0.061187744 2.2721577 -0.98944664 4293729569
2.2180481 2.7860994 -0.70720291 4293729569
-0.10699463 2.2898264 -0.98304939 4293729569
0.38787842 2.4186716 -0.61128235 4293729569
-0.21603394 2.3225965 -0.98178864 4293729569
0.33810425 2.4685278 -0.61817169 4293729569
-0.41940308 2.3292198 -0.96948242 4293729569
0.85543823 2.6614246 -0.65921211 4293729569
-0.54162598 2.353981 -0.9636116 4293729569
0.80859375 2.7152929 -0.6650238 4293729569
-0.64968872 2.380765 -0.960289 4293729569
0.85394287 2.7923317 -0.67593193 4293729569
-0.68560791 2.426672 -0.96269798 4293729569
1.5185242 3.0434914 -0.72644615 4293729569
-0.74761963 2.4645386 -0.9619236 4293729569
0.1789856 2.7310314 -0.64573288 4293729569
-0.79458618 2.5064297 -0.962677 4293729569
2.2513428 3.399745 -0.78725815 4293729569
-0.84359741 2.5463247 -0.96148682 4293729569
2.1983948 3.4616184 -0.78930855 4293729569
-0.91268921 2.5801916 -0.95792007 4293729569
2.0491943 3.4933271 -0.78335381 4293729569
-0.89852905 2.6401911 -0.96276474 4293729569
0.12039185 2.9608288 -0.65782356 4293729569
-0.95159912 2.6780901 -0.95969391 4293729569
1.0142517 3.3114262 -0.71932983 4293729569
-0.918396 2.7441244 -0.96594238 4293729569
0.98919678 3.3723736 -0.71845818 4293729569
-0.96652222 2.7830381 -0.9617157 4293729569
0.97515869 3.4363394 -0.71824265 4293729569
-0.98757935 2.829998 -0.95964241 4293729569
0.97512817 3.5053377 -0.71759033 4293729569
-0.94537354 2.9000587 -0.96461678 4293729569
0.15139771 3.2828617 -0.65943909 4293729569
-0.96353149 2.9490337 -0.96045876 4293729569
1.1592407 3.7086849 -0.72458649 4293729569
-0.96356201 3.0030375 -0.9587326 4293729569
1.0649109 3.7445269 -0.7148571 4293729569
-0.97366333 3.0540285 -0.95532036 4293729569
0.38748169 3.5593224 -0.66510391 4293729569
-0.95068359 3.1190729 -0.95489693 4293729569
0.16693115 3.5409441 -0.64522934 4293729569
-0.96386719 3.1690712 -0.94857979 4293729569
0.21276855 3.6220531 -0.64213562 4293729569
-0.94396973 3.23312 -0.94625092 4293729569
0.36380005 3.7453575 -0.64480972 4293729569
-0.93713379 3.2901573 -0.94031143 4293729569
0.31838989 3.7913122 -0.63252449 4293729569
-0.89117432 3.3652563 -0.93918419 4293729569
-0.88842773 3.4222946 -0.93137932 4293729569
-0.87469482 3.4853535 -0.92424202 4293729569
-0.81976318 3.5654774 -0.92184639 4293729569
-0.79605103 3.6325607 -0.91340637 4293729569
-0.72619629 3.7197237 -0.90955353 4293729569
-0.6413269 3.8159151 -0.90625763 4293729569
-0.54647827 3.9171305 -0.90265846 4293729569
6.4589233 7.3305826 -1.6165829 4288085770
6.6853943 7.5511017 -1.6082668 4288085770
6.9539185 7.7966976 -1.6026974 4288085770
7.2624512 8.0653744 -1.5979347 4288085770
11.517365 -0.2663908 -1.546505 4288085770
10.386078 -0.28098202 -1.582098 4288085770
9.4820862 -0.29711103 -1.6223316 4288085770
8.6460266 -0.3100791 -1.6593742 4288085770
7.8657837 -0.31890726 -1.6916256 4288085770
7.1003418 -0.32466125 -1.7154102 4288085770
6.3174133 -0.32239723 -1.7277851 4288085770
5.5813904 -0.31901073 -1.7356453 4288085770
11.107391 -0.58538151 -1.5615063 4288085770
4.9506226 -0.31742144 -1.7480907 4288085770
10.036194 -0.57086611 -1.6012859 4288085770
4.3677979 -0.31372356 -1.7589931 4288085770
9.1592102 -0.56094837 -1.6437607 4288085770
3.7857056 -0.3059845 -1.7618847 4288085770
8.3039551 -0.54594803 -1.6785469 4288085770
3.2838135 -0.30110168 -1.7701702 4288085770
7.5276794 -0.53176117 -1.7097702 4288085770
2.8892822 -0.29903555 -1.7879734 4288085770
6.7018738 -0.5106101 -1.7266197 4288085770
2.4494019 -0.29201078 -1.79426 4288085770
5.8917236 -0.4863739 -1.7329693 4288085770
1.9831543 -0.28099155 -1.790411 4288085770
5.1938171 -0.46492147 -1.7436771 4288085770
1.6323853 -0.27479267 -1.7998085 4288085770
4.5819397 -0.44528437 -1.7545872 4288085770
1.2935486 -0.26755476 -1.8068237 4288085770
3.9728699 -0.42361307 -1.7594166 4288085770
0.96463013 -0.25928688 -1.8115215 4288085770
3.4639893 -0.40575218 -1.7689857 4288085770
0.66177368 -0.2499609 -1.8163815 4288085770
3.0253296 -0.38976192 -1.7832756 4288085770
0.38696289 -0.24258709 -1.8233223 4288085770
2.6025391 -0.37372208 -1.7940483 4288085770
0.12615967 -0.23418236 -1.8298168 4288085770
2.1303101 -0.35172319 -1.7914429 4288085770
-0.15188599 -0.22278214 -1.8298779 4288085770
1.741333 -0.3345809 -1.7961254 4288085770
-0.40893555 -0.21233177 -1.8292561 4288085770
1.4045715 -0.31834984 -1.8051147 4288085770
-0.6217041 -0.20282555 -1.8361969 4288085770
1.0836792 -0.3030715 -1.8115826 4288085770
-0.85272217 -0.19232178 -1.8357315 4288085770
0.77484131 -0.28676128 -1.8166656 4288085770
-1.0667725 -0.18078136 -1.8347225 4288085770
0.4899292 -0.27140617 -1.8229713 4288085770
-1.2778015 -0.16923046 -1.8336124 4288085770
0.20895386 -0.25402164 -1.8251553 4288085770
-1.4667358 -0.15864658 -1.8347855 4288085770
-0.047943115 -0.23859692 -1.8295498 4288085770
-1.6557617 -0.14705086 -1.8339653 4288085770
-0.32409668 -0.22017288 -1.8255787 4288085770
-1.8217163 -0.13642025 -1.8353939 4288085770
-0.54794312 -0.20467758 -1.8299065 4288085770
-2.0007629 -0.12379169 -1.8322525 4288085770
-0.78503418 -0.18818378 -1.8286629 4288085770
-2.1557617 -0.11312866 -1.8323269 4288085770
-1.005127 -0.17165089 -1.8268681 4288085770
-2.3107605 -0.10046101 -1.8314095 4288085770
-1.1950073 -0.15708256 -1.8310909 4288085770
-2.443573 -0.089773178 -1.8357658 4288085770
-1.3919983 -0.14050674 -1.8305492 4288085770
-1.5881348 -0.12391853 -1.82798 4288085770
-1.7661743 -0.10829449 -1.825819 4288085770
-1.9220581 -0.093642235 -1.8279419 4288085770
-2.0548096 -0.080963135 -1.8343086 4288085770
-2.2179565 -0.064299583 -1.8306694 4288085770
-2.3690186 -0.048613548 -1.8276367 4288085770
-2.525238 1.9875507 -1.7840557 4288085770
-2.4052429 2.0118237 -1.7793331 4288085770
-2.2752075 2.0371103 -1.7762947 4288085770
-2.1341248 2.0644169 -1.7739105 4288085770
-1.9910889 2.0917282 -1.7714672 4288085770
-1.848053 2.1170473 -1.7670116 4288085770
-1.6919861 2.1443872 -1.7641506 4288085770
-1.489624 2.1837816 -1.7708664 4288085770
-2.4879761 1.9365635 -1.7877197 4288085770
-1.2883606 2.2201872 -1.7746029 4288085770
-2.3639832 1.953845 -1.7828388 4288085770
-1.1022339 2.251586 -1.7728004 4288085770
-2.2258606 1.9741411 -1.7815189 4288085770
-0.88803101 2.2880259 -1.7751217 4288085770
-2.0776978 1.9944477 -1.7818794 4288085770
-0.66479492 2.3254862 -1.7771606 4288085770
-1.9013367 2.0217905 -1.7873726 4288085770
-0.65206909 2.3047333 -1.7306442 4288085770
-1.7966614 2.0280838 -1.7720528 4288085770
-0.62133789 2.2890072 -1.6865768 4288085770
-1.6314697 2.0494308 -1.7718735 4288085770
-0.42037964 2.315465 -1.6792736 4293729569
-1.4391785 2.0758142 -1.7758522 4288085770
-0.41671753 2.2907009 -1.6310291 4293729569
-1.2529907 2.0981998 -1.7770042 4288085770
-0.32455444 2.286046 -1.5990524 4293729569
-1.0698547 2.1185913 -1.7752457 4288085770
-0.26361084 2.2733612 -1.5600338 4293729569
-0.8656311 2.1420183 -1.7758274 4288085770
-0.099090576 2.2838097 -1.5388165 4293729569
-0.63430786 2.1694832 -1.7805634 4288085770
0.004119873 2.2781773 -1.5074825 4293729569
-0.42919922 2.1879301 -1.777092 4288085770
0.070037842 2.2625065 -1.4672947 4293729569
-0.22213745 2.205389 -1.7725525 4288085770
0.20330811 2.2609205 -1.4390163 4293729569
0.015014648 2.2278957 -1.7710781 4288085770
0.34860229 2.2603655 -1.4103584 4293729569
0.25918579 2.2484179 -1.7693653 4288085770
0.47381592 2.2537823 -1.3783188 4293729569
0.50424194 2.2669582 -1.7646198 4288085770
0.56777954 2.2381668 -1.3392296 4293729569
0.77340698 2.2885342 -1.763113 4288085770
0.65878296 2.2215395 -1.3012333 4293729569
1.0303955 2.3031092 -1.7559643 4288085770
0.77584839 2.2079554 -1.2654152 4293729569
1.3306274 2.3247509 -1.7544651 4288085770
0.92306519 2.1994228 -1.2326603 4293729569
1.6277161 2.3423986 -1.7500496 4288085770
1.0983582 2.1949358 -1.2030258 4293729569
1.9498291 2.3621006 -1.745842 4288085770
1.2254028 2.1783791 -1.1658783 4293729569
2.2487793 2.3727751 -1.7363319 4288085770
1.4517517 2.1789894 -1.1386337 4293729569
2.102478 2.2968512 -1.6556339 4288085770
1.6228943 2.166522 -1.1030941 4293729569
2.0536194 2.2380571 -1.5909061 4293729569
1.8521729 2.1631498 -1.0727386 4293729569
2.0289612 2.1852827 -1.5324326 4293729569
2.0663757 2.1537619 -1.0398331 4293729569
2.2444458 2.1738596 -1.5064831 4293729569
2.2363586 2.1343088 -1.0002975 4293729569
2.4508057 2.1574345 -1.4778023 4293729569
2.5688477 2.1391363 -0.97467995 4293729569
2.6330872 2.1349659 -1.4468613 4293729569
10.347595 3.3440857 -1.5166378 4288085770
5.038147 2.4659491 -1.6805706 4288085770
11.208069 3.3880663 -1.4853115 4288085770
5.506134 2.4710035 -1.6676273 4288085770
11.968048 3.4049101 -1.4380684 4288085770
6.051239 2.4821997 -1.6592484 4288085770
6.5480652 2.48034 -1.6413498 4288085770
7.0608521 2.4745274 -1.6209202 4288085770
7.6286926 2.4698172 -1.6027374 4288085770
8.2485962 2.46422 -1.5848866 4288085770
8.9205322 2.4597301 -1.567379 4288085770
9.5682678 2.4432249 -1.5425835 4288085770
10.202789 2.4187174 -1.5121727 4288085770
10.82019 2.3841972 -1.4772625 4288085770
11.523682 2.3498526 -1.4435997 4288085770
12.327301 2.3167143 -1.4117413 4288085770
4.1221924 -5.2106943 -0.030626297 4293729569
4.0897522 -5.2839661 -0.070360184 4293729569
0.37426758 -4.2279558 -0.48427582 4293729569
0.29354858 -4.2363129 -0.52084732 4293729569
0.19473267 -4.2317019 -0.55605507 4293729569
0.017181396 -4.2284384 -0.62680244 4293729569
-0.067565918 -4.2248039 -0.66355705 4293729569
-0.23916626 -4.2125254 -0.73415565 4293729569
-0.33700562 -4.1959133 -0.76939011 4293729569
-0.3163147 -4.2490959 -0.81451988 4293729569
-0.50201416 -4.212841 -0.88367844 4293729569
-0.58886719 -4.1942029 -0.91856956 4293729569
-0.59509277 -4.188333 -0.53160667 4293729569
-0.58422852 -4.2314177 -0.96328735 4293729569
-0.63668823 -4.1926255 -0.57195091 4293729569
3.631897 -6.9112201 -1.5206795 4293729569
3.1555481 -6.6592875 -1.5310688 4293729569
-0.7644043 -4.2103662 -1.0752392 4293729569
-0.76855469 -4.1885133 -0.69228745 4293729569
-0.77182007 -4.232605 -1.1194115 4293729569
-0.76193237 -4.2157187 -0.73599052 4293729569
-0.84164429 -4.2139277 -1.153759 4293729569
-0.84274292 -4.1850762 -0.77274704 4293729569
-0.84909058 -4.2321644 -1.1979504 4293729569
-0.84924316 -4.201303 -0.81491661 4293729569
1.1526489 -5.5557127 -1.5621891 4293729569
-0.84466553 -4.2215137 -0.85871887 4293729569
0.8163147 -5.3624487 -1.5658321 4293729569
0.52410889 -5.1941042 -1.5719528 4293729569
3.9599609 -7.3705511 -1.5123081 4293729569
0.243927 -5.0307322 -1.5776672 4293729569
3.4434509 -7.054698 -1.5222721 4293729569
-0.55957031 -4.5169697 -1.481636 4293729569
2.960907 -6.7577653 -1.5300636 4293729569
-1.016571 -4.2287531 -1.4425392 4293729569
2.5556335 -6.5056877 -1.5421829 4293729569
-1.0401611 -4.225009 -1.4833488 4293729569
2.1773987 -6.2685499 -1.5533714 4293729569
-0.82879639 -4.3740005 -1.5719833 4293729569
1.6983032 -5.9615288 -1.5450878 4293729569
-0.92001343 -4.3213277 -1.5981693 4293729569
1.3781128 -5.7552576 -1.5542793 4293729569
-1.1090698 -4.2007561 -1.6027756 4293729569
1.0698547 -5.5539551 -1.5620651 4293729569
-1.269989 -4.0961461 -1.611412 4293729569
0.76550293 -5.3536215 -1.5657196 4293729569
-1.3502502 -4.0444374 -1.6352406 4293729569
0.48721313 -5.1672363 -1.569479 4293729569
-1.3598633 -4.037662 -1.675621 4293729569
0.23901367 -4.9987946 -1.5751934 4293729569
-1.3422546 -4.0468516 -1.7210579 4293729569
-0.17053223 -4.7235374 -1.5485287 4293729569
-1.3448486 -4.0410595 -1.7612095 4293729569
-1.32724 -4.0462503 -1.8066692 4293729569
-0.79257202 -4.2957096 -1.5163593 4293729569
-1.3218079 -4.042449 -1.8485546 4288085770
-0.60360718 -4.4056988 -1.5948906 4293729569
-1.3113098 -4.0396428 -1.8912792 4288085770
-0.80395508 -4.2611246 -1.5939674 4293729569
-1.4110413 -3.9609156 -1.9028473 4288085770
-0.95794678 -4.1444879 -1.6004391 4293729569
-1.5361023 -3.8641987 -1.905302 4288085770
-1.0706482 -4.0547905 -1.6124725 4293729569
-1.6571655 -3.7694707 -1.9076176 4288085770
-1.0462341 -4.0499458 -1.6537609 4293729569
-1.8117371 -3.6517539 -1.8971004 4288085770
-1.0015869 -4.0570798 -1.6993542 4293729569
-1.9289246 -3.5569987 -1.8952904 4288085770
-0.96408081 -4.0572214 -1.7432079 4293729569
-2.0370789 -3.4672327 -1.8951721 4288085770
-0.90734863 -4.0673366 -1.7904015 4293729569
-2.1422424 -3.3784513 -1.892952 4288085770
-0.86184692 -4.0684605 -1.8339958 4293729569
-2.2333679 -3.2986512 -1.8932419 4288085770
-0.82641602 -4.0615902 -1.8749466 4288085770
-2.3163757 -3.221837 -1.8942642 4288085770
-0.87689209 -3.9987907 -1.8928776 4288085770
-2.3984985 -3.146018 -1.894249 4288085770
-0.97988892 -3.9030328 -1.8966293 4288085770
-2.4887085 -3.0641913 -1.8895187 4288085770
-1.0951233 -3.8002739 -1.8947964 4288085770
-2.554718 -2.997344 -1.8909492 4288085770
-1.2184753 -3.6925087 -1.8882408 4288085770
-1.3014832 -3.6077061 -1.8913021 4288085770
-1.3895874 -3.5188985 -1.8915405 4288085770
-1.475708 -3.4320836 -1.8907089 4288085770
-1.5558472 -3.3472538 -1.8896751 4288085770
-1.6330261 -3.2654119 -1.8875313 4288085770
