# .PCD v0.7 - Point Cloud Data file format
VERSION 0.7
FIELDS x y z rgb
SIZE 4 4 4 4
TYPE F F F U
COUNT 1 1 1 1
WIDTH 1115
HEIGHT 1
VIEWPOINT 0 0 0 1 0 0 0
POINTS 1115
DATA ascii
6.5727043 -0.32869148 -1.8475304 4288085770
5.4456749 -0.2736308 -1.8529506 4288085770
6.3157005 -0.31791079 -1.8474565 4288085770
5.6517067 -0.28545469 -1.8534172 4288085770
6.0857124 -0.30709708 -1.8501763 4288085770
5.8607101 -0.29628265 -1.8518579 4288085770
12.195118 -0.61292088 -1.846559 4288085770
5.9896965 -0.30419034 -1.8468997 4288085770
10.217068 -0.5165686 -1.856338 4288085770
6.14468 -0.31608391 -1.8397565 4288085770
6.2187347 -0.3199994 -1.8462045 4288085770
9.7050514 -0.49700886 -1.8551819 4288085770
6.4637718 -0.33579504 -1.845387 4288085770
9.1990051 -0.47645736 -1.8499768 4288085770
6.7278061 -0.35257524 -1.8444278 4288085770
13.223484 -0.68696678 -1.871959 4288085770
8.740963 -0.45686257 -1.8454082 4288085770
8.3279228 -0.4382236 -1.8424993 4288085770
6.9777985 -0.36838341 -1.8385723 4288085770
7.2848473 -0.38511378 -1.8412845 4288085770
7.9458961 -0.41955227 -1.8413532 4288085770
7.6008606 -0.40185034 -1.8399279 4288085770
7.6487999 -0.40483755 -1.8315718 4288085770
5.9488831 -0.33124661 -1.8433049 4288085770
11.57729 -0.63547158 -1.842356 4288085770
12.464577 -0.6856268 -1.8697515 4288085770
17.787834 -0.97516739 -1.8520825 4288085770
7.3820267 -0.4220559 -1.8366692 4288085770
11.744644 -0.68026042 -1.8652325 4288085770
5.7560692 -0.34641689 -1.8438301 4288085770
11.03849 -0.65794337 -1.8415489 4288085770
16.68103 -0.99011552 -1.8535886 4288085770
7.0881615 -0.43532991 -1.8319597 4288085770
11.116734 -0.67580462 -1.8640137 4288085770
17.193478 -1.0715911 -1.8829548 4288085770
5.5782852 -0.36256832 -1.8462441 4288085770
10.57386 -0.67226148 -1.8671486 4288085770
10.557716 -0.68136096 -1.8423023 4288085770
15.69323 -1.0049655 -1.8541851 4288085770
6.8583794 -0.45252109 -1.8357744 4288085770
16.037548 -1.0415738 -1.8846817 4288085770
10.838497 1.6941808 -1.7664471 4288085770
5.4322357 0.98040164 -1.7832952 4288085770
7.4347115 1.2350436 -1.77913 4288085770
4.3196602 0.82582045 -1.7862713 4288085770
6.4890213 1.1058301 -1.7788918 4288085770
5.6373138 0.99287879 -1.7839546 4288085770
8.6115494 1.3718487 -1.7869093 4288085770
3.5879631 0.72616529 -1.7935014 4288085770
17.695786 2.5326538 -1.7346001 4288085770
7.7777824 1.2598585 -1.7818551 4288085770
16.798267 2.3997464 -1.7591009 4288085770
18.482876 2.6117525 -1.7682021 4288085770
5.8563919 1.0053793 -1.783529 4288085770
8.1568527 1.2877635 -1.7853374 4288085770
11.175095 1.662841 -1.7890563 4288085770
6.10149 1.019971 -1.7869294 4288085770
4.4419518 0.81211638 -1.7896438 4288085770
6.6763458 1.0852557 -1.7799253 4288085770
8.5349007 1.313634 -1.7848418 4288085770
3.6942749 0.71344054 -1.7989633 4288085770
8.8998528 1.3534957 -1.7863126 4288085770
6.3115349 1.0283874 -1.7785907 4288085770
18.761166 2.5462317 -1.7500408 4288085770
8.9069366 1.3354503 -1.7794149 4288085770
17.554646 2.3774929 -1.7606993 4288085770
6.5586128 1.0399433 -1.7770033 4288085770
4.559227 0.79737711 -1.7900548 4288085770
11.55851 1.6297485 -1.7940016 4288085770
9.3320007 1.3604192 -1.7776415 4288085770
6.8886681 1.0667545 -1.7827907 4288085770
3.7785225 0.69859469 -1.7955749 4288085770
9.1981506 1.3331579 -1.7846713 4288085770
6.8327255 1.0515839 -1.7782512 4288085770
9.8400879 1.3916317 -1.782316 4288085770
7.1278305 1.0642718 -1.7793636 4288085770
18.602077 2.3810601 -1.7803283 4288085770
4.6834984 0.78265417 -1.7904232 4288085770
10.391193 1.4249576 -1.7887125 4288085770
3.884819 0.68485427 -1.7990444 4288085770
7.0799637 1.0441579 -1.7798154 4288085770
11.967926 1.5957149 -1.7987967 4288085770
9.5144348 1.3128453 -1.7809203 4288085770
7.4139252 1.0739077 -1.7765551 4288085770
10.951271 1.4542559 -1.7890868 4288085770
4.8097763 0.76693511 -1.790787 4288085770
7.7500496 1.0856961 -1.7784262 4288085770
3.9840813 0.6700666 -1.7985647 4288085770
11.572357 1.486709 -1.7910662 4288085770
7.2932587 1.0226189 -1.7776988 4288085770
9.8667221 1.2956468 -1.780926 4288085770
12.394318 1.561704 -1.8014882 4288085770
8.1282082 1.099619 -1.7850261 4288085770
4.951046 0.75326681 -1.7930436 4288085770
12.24044 1.5192596 -1.7917597 4288085770
4.0973587 0.65633428 -1.8009915 4288085770
8.5033379 1.1104885 -1.7856681 4288085770
7.532547 1.0031558 -1.7774074 4288085770
10.299046 1.2826775 -1.7864134 4288085770
13.028553 1.5581306 -1.7976761 4288085770
12.852707 1.525766 -1.8040009 4288085770
5.1003151 0.73861694 -1.7952597 4288085770
8.9034805 1.1204211 -1.7871664 4288085770
4.20261 0.64054441 -1.7984834 4288085770
13.793629 1.589878 -1.7947879 4288085770
7.821888 0.98586953 -1.784796 4288085770
10.714325 1.2656218 -1.786036 4288085770
9.2635727 1.1231753 -1.7779639 4288085770
5.2385635 0.72190201 -1.7925584 4288085770
14.687717 1.6269497 -1.7950757 4288085770
13.31308 1.4857935 -1.801533 4288085770
4.3108444 0.62576234 -1.7959485 4288085770
9.7067184 1.1301814 -1.7762241 4288085770
8.0771523 0.96441925 -1.7814231 4288085770
15.702824 1.6683275 -1.7985959 4288085770
11.185623 1.2487096 -1.787318 4288085770
5.4078293 0.70830572 -1.7956445 4288085770
10.16885 1.1352144 -1.7723854 4288085770
4.4511223 0.61311579 -1.801203 4288085770
13.869473 1.4500855 -1.8044493 4288085770
16.759892 1.7057368 -1.7938929 4288085770
8.4164886 0.94826257 -1.7904992 4288085770
11.720913 1.2369748 -1.7921705 4288085770
10.691025 1.1414315 -1.7741735 4288085770
5.564064 0.69264066 -1.7938256 4288085770
4.5963936 0.60048139 -1.8064268 4288085770
17.968979 1.7455066 -1.7902493 4288085770
11.309227 1.1509126 -1.7813535 4288085770
14.478874 1.413514 -1.8090508 4288085770
8.7117538 0.92590344 -1.786891 4288085770
12.299202 1.223322 -1.7947774 4288085770
5.7423058 0.67804134 -1.7938647 4288085770
4.7316399 0.58578455 -1.8067274 4288085770
11.956425 1.1574365 -1.7853813 4288085770
5.9235382 0.66344929 -1.7938857 4288085770
12.929489 1.2087866 -1.797076 4288085770
9.0820656 0.90678585 -1.7918024 4288085770
15.196301 1.379228 -1.8179796 4288085770
4.8748703 0.57210588 -1.8069715 4288085770
12.644623 1.161045 -1.7881837 4288085770
6.1287842 0.64892757 -1.7957606 4288085770
13.639767 1.1964413 -1.7998719 4288085770
9.4583435 0.8866502 -1.7926853 4288085770
5.0200996 0.55742443 -1.806211 4288085770
13.389832 1.1627823 -1.7906554 4288085770
16.001717 1.3451499 -1.8273726 4288085770
6.3179817 0.63331449 -1.7907407 4288085770
5.1753235 0.54276574 -1.8053901 4288085770
14.392021 1.1831681 -1.7994204 4288085770
9.8966522 0.86870301 -1.7991748 4288085770
14.193043 1.1616427 -1.7917979 4288085770
6.541214 0.61782563 -1.7915137 4288085770
16.782104 1.302951 -1.8289814 4288085770
5.3435555 0.52815235 -1.8064897 4288085770
15.382359 1.1795784 -1.815449 4288085770
15.19133 1.1650482 -1.8047223 4288085770
10.348938 0.84876478 -1.8025949 4288085770
6.7744331 0.60335219 -1.791218 4288085770
5.516758 0.51453555 -1.8055511 4288085770
17.679493 1.2590171 -1.8298943 4288085770
16.294624 1.164692 -1.81704 4288085770
16.456669 1.1741472 -1.826983 4288085770
10.80719 0.82679188 -1.7999947 4288085770
7.0256424 0.58892024 -1.7908127 4288085770
5.6949577 0.49992156 -1.8035896 4288085770
17.378872 1.1551965 -1.8175452 4288085770
17.572926 1.1647402 -1.8292935 4288085770
11.283424 0.80384481 -1.7952929 4288085770
7.3088684 0.57559264 -1.7942045 4288085770
5.9011879 0.48540294 -1.8054578 4288085770
7.3269768 0.56060421 -1.7912154 4288085770
7.6549416 0.57836604 -1.7910857 4288085770
8.0259285 0.59725606 -1.7946866 4288085770
7.010006 0.54185152 -1.7892861 4288085770
6.7390556 0.52624297 -1.792053 4288085770
8.4109116 0.61615467 -1.7952023 4288085770
6.4861336 0.5096823 -1.7957187 4288085770
8.8118782 0.63406515 -1.7926292 4288085770
6.2432022 0.49313653 -1.7983236 4288085770
9.2308464 0.65200853 -1.7889466 4288085770
6.0122604 0.47761047 -1.7998476 4288085770
7.6150932 0.56131709 -1.7974646 4288085770
9.6968231 0.67106605 -1.7859702 4288085770
11.883705 0.78426647 -1.8008125 4288085770
5.7863274 0.46108687 -1.8003495 4288085770
5.8793411 0.46532178 -1.8027518 4288085770
5.6804008 0.45490885 -1.8090413 4288085770
6.1083183 0.47684991 -1.8022721 4288085770
10.205799 0.69022059 -1.7827325 4288085770
5.4764366 0.44344473 -1.8103693 4288085770
6.3312759 0.4873246 -1.7968369 4288085770
5.27145 0.4319545 -1.8087032 4288085770
6.5802422 0.49786592 -1.7922437 4288085770
5.0865021 0.41953313 -1.8099236 4288085770
5.6044464 0.44571817 -1.8075755 4288085770
6.0993729 0.47083509 -1.8033748 4288085770
10.790817 0.71159542 -1.7850163 4288085770
6.8632545 0.50853169 -1.7934434 4288085770
4.9265823 0.40819955 -1.8149841 4288085770
7.1612587 0.51922345 -1.7935522 4288085770
5.4135284 0.43028939 -1.8098562 4288085770
11.414806 0.73302674 -1.7830634 4288085770
4.750618 0.39577425 -1.8131499 4288085770
7.4972954 0.53103268 -1.7974215 4288085770
4.5916748 0.38441122 -1.8142045 4288085770
5.2236023 0.41483915 -1.8091311 4288085770
12.196877 0.7589196 -1.7931173 4288085770
7.9493179 0.54811358 -1.8015459 4288085770
7.834301 0.5407964 -1.7953012 4288085770
4.4277306 0.37100399 -1.8113055 4288085770
5.0506973 0.39945078 -1.8113029 4288085770
12.528976 0.76175833 -1.8020823 4288085770
8.1953163 0.55061412 -1.7930348 4288085770
12.980888 0.78273785 -1.7931752 4288085770
6.2985382 0.45624614 -1.7982855 4288085770
4.2747841 0.35863018 -1.8093319 4288085770
8.5673294 0.55944908 -1.7897098 4288085770
4.8807907 0.38305283 -1.8114643 4288085770
13.82589 0.80566978 -1.7898705 4288085770
4.1478691 0.34735465 -1.812192 4288085770
9.0153809 0.56950331 -1.7919142 4288085770
8.2755013 0.53384471 -1.799684 4288085770
4.724884 0.36869514 -1.8125248 4288085770
4.0199623 0.33506858 -1.8140662 4288085770
14.732868 0.82669485 -1.780205 4288085770
9.4604073 0.5775032 -1.7881534 4288085770
6.5407372 0.44281054 -1.7999268 4288085770
3.9030609 0.32382333 -1.8178654 4288085770
4.5679855 0.35332656 -1.8125992 4288085770
13.255253 0.74046564 -1.8068514 4288085770
15.928955 0.85754979 -1.7907095 4288085770
9.963459 0.58566558 -1.7880394 4288085770
3.7721443 0.31049013 -1.8147662 4288085770
4.4300995 0.33801627 -1.8145583 4288085770
8.635685 0.51966918 -1.7996154 4288085770
17.256023 0.8886708 -1.7964175 4288085770
10.529545 0.59400237 -1.7915421 4288085770
3.6582413 0.29822695 -1.8155553 4288085770
6.7889175 0.42836487 -1.7985392 4288085770
4.2751846 0.32262003 -1.810621 4288085770
11.166634 0.60250866 -1.7956133 4288085770
14.046528 0.71932113 -1.8112247 4288085770
9.0268707 0.50556397 -1.7993581 4288085770
4.1372948 0.30728602 -1.8095803 4288085770
11.770668 0.60685194 -1.7889173 4288085770
7.0681152 0.41502118 -1.8009548 4288085770
4.0164108 0.29300618 -1.8104281 4288085770
12.548786 0.61369288 -1.7941468 4288085770
9.4410477 0.49050295 -1.7979686 4288085770
14.909767 0.6953007 -1.8101842 4288085770
3.9045486 0.27876234 -1.8132212 4288085770
7.369297 0.40273654 -1.8042288 4288085770
13.379898 0.6186378 -1.7970695 4288085770
9.9022179 0.47655737 -1.7972856 4288085770
3.7836685 0.26345789 -1.8110774 4288085770
14.300011 0.62177622 -1.7984672 4288085770
15.812973 0.66831541 -1.8019245 4288085770
7.6544495 0.3883599 -1.8006158 4288085770
15.377163 0.62431073 -1.8039179 4288085770
10.426414 0.46379459 -1.8012106 4288085770
8.0176506 0.37523961 -1.8065205 4288085770
17.008274 0.6461513 -1.811856 4288085770
16.532291 0.62298119 -1.8039262 4288085770
10.983578 0.45007479 -1.8009434 4288085770
8.3587837 0.36199021 -1.8025589 4288085770
17.774399 0.61679363 -1.7964451 4288085770
11.604748 0.4375248 -1.8032787 4288085770
18.250515 0.61799908 -1.8095496 4288085770
8.7579575 0.34892845 -1.8052444 4288085770
12.303917 0.42415166 -1.8051472 4288085770
9.1711044 0.33486688 -1.8038526 4288085770
3.7954025 0.20349026 -1.8164926 4288085770
13.088085 0.41197944 -1.8074911 4288085770
9.643261 0.32197118 -1.8060939 4288085770
13.975258 0.39905727 -1.8112159 4288085770
3.9065895 0.18974161 -1.8169301 4288085770
10.149399 0.30913746 -1.8061285 4288085770
14.961418 0.3863523 -1.8133388 4288085770
10.696541 0.29640424 -1.8069134 4288085770
4.0247803 0.17602503 -1.819325 4288085770
16.044556 0.3738513 -1.8128717 4288085770
11.314678 0.28384089 -1.8082664 4288085770
17.26067 0.36162913 -1.8085957 4288085770
4.1469498 0.16229415 -1.8186955 4288085770
12.00983 0.27248383 -1.813143 4288085770
12.765968 0.26024985 -1.8156567 4288085770
4.3021812 0.14872515 -1.8288646 4288085770
13.636105 0.24929106 -1.8194687 4288085770
14.58823 0.23751009 -1.82179 4288085770
4.4383469 0.1350385 -1.8301547 4288085770
15.660332 0.22698259 -1.8213804 4288085770
16.849426 0.21571612 -1.8192651 4288085770
17.187351 0.21035492 -1.8012598 4288085770
18.759399 0.22104931 -1.8076439 4288085770
3.7834511 0.11950707 -1.8292527 4288085770
15.936386 0.20049953 -1.8069234 4288085770
14.812401 0.18989241 -1.8068235 4288085770
13.833431 0.17863774 -1.8088498 4288085770
18.360573 0.20627546 -1.8271832 4288085770
4.5735054 0.12033713 -1.8294573 4288085770
17.542423 0.19615698 -1.7992239 4288085770
12.957447 0.16759276 -1.80725 4288085770
12.161476 0.15573692 -1.8061721 4288085770
16.234482 0.17613041 -1.8003161 4288085770
11.477539 0.14417458 -1.8094127 4288085770
15.126575 0.15660465 -1.8061919 4288085770
3.8975945 0.10675025 -1.8276665 4288085770
10.805557 0.1315757 -1.8045893 4288085770
4.7156448 0.10664427 -1.8277092 4288085770
14.121662 0.13728869 -1.8084419 4288085770
10.232635 0.11825609 -1.8061714 4288085770
13.224735 0.11920965 -1.809027 4288085770
4.0277405 0.096062779 -1.829967 4288085770
9.7076874 0.10703003 -1.8054457 4288085770
4.8697891 0.09299469 -1.827888 4288085770
12.395786 0.10225344 -1.8051908 4288085770
9.2507858 0.09399724 -1.8093228 4288085770
11.704903 0.084680676 -1.8095231 4288085770
4.1578827 0.084367037 -1.8312752 4288085770
8.8108597 0.081971049 -1.8090885 4288085770
5.0279312 0.078346252 -1.8270507 4288085770
11.068996 0.067200899 -1.8095214 4288085770
8.3879242 0.068959475 -1.805759 4288085770
4.2980347 0.071701765 -1.8335307 4288085770
10.471085 0.049799442 -1.8082886 4288085770
8.007019 0.055066228 -1.8051825 4288085770
5.2221107 0.063835144 -1.8329942 4288085770
4.4461746 0.060063481 -1.8367295 4288085770
9.9451981 0.033584833 -1.8096101 4288085770
7.6591148 0.042255998 -1.805397 4288085770
5.3802071 0.050155759 -1.8281486 4288085770
4.5902901 0.048384547 -1.8359525 4288085770
9.4713326 0.016503096 -1.8126233 4288085770
7.3572464 0.028580904 -1.80934 4288085770
5.5603218 0.03554225 -1.8251772 4288085770
4.7614365 0.03580606 -1.8400195 4288085770
9.0344429 0.00048208237 -1.8124034 4288085770
7.0433426 0.015831232 -1.807348 4288085770
5.7384033 0.021901011 -1.8192101 4288085770
4.9175377 0.024146795 -1.8381693 4288085770
8.6255722 -0.015460014 -1.8140135 4288085770
6.7744789 0.002223134 -1.8100905 4288085770
5.9625473 0.0064349174 -1.821979 4288085770
5.0846291 0.012513161 -1.8362525 4288085770
8.2296791 -0.031412363 -1.8105447 4288085770
6.5296173 -0.011331201 -1.8126869 4288085770
6.1826591 -0.0080711842 -1.8207641 4288085770
5.279747 0.00099074841 -1.8401647 4288085770
17.817295 -0.17520225 -1.8135984 4288085770
6.4127502 -0.022562385 -1.8184884 4288085770
5.4488106 -0.010669827 -1.8342357 4288085770
17.573406 -0.18066251 -1.8271224 4288085770
7.8778038 -0.047249556 -1.8088083 4288085770
6.293766 -0.024857283 -1.8162286 4288085770
6.6368141 -0.037106276 -1.8112493 4288085770
5.6348763 -0.022275805 -1.8302031 4288085770
16.364517 -0.18537748 -1.8384902 4288085770
16.59449 -0.20098537 -1.8212228 4288085770
5.8319321 -0.032856107 -1.8260956 4288085770
15.203541 -0.18608582 -1.8365345 4288085770
6.9389572 -0.052362323 -1.8175433 4288085770
6.0789223 -0.038336277 -1.8196428 4288085770
7.5609512 -0.062975764 -1.810859 4288085770
6.0620193 -0.044322133 -1.8267951 4288085770
14.188572 -0.18543071 -1.8376827 4288085770
7.249073 -0.067623973 -1.8207891 4288085770
6.2600327 -0.054939389 -1.8176816 4288085770
13.290596 -0.18351001 -1.8381109 4288085770
15.480656 -0.2255609 -1.8231769 4288085770
7.5641747 -0.082889318 -1.8220041 4288085770
5.877079 -0.05177784 -1.8239779 4288085770
7.274128 -0.079618931 -1.8147357 4288085770
6.5231133 -0.066321969 -1.81918 4288085770
12.450592 -0.17948091 -1.8351707 4288085770
7.8772278 -0.097206473 -1.8172235 4288085770
6.780159 -0.076749325 -1.8167074 4288085770
11.717583 -0.17420048 -1.8325715 4288085770
7.075222 -0.087058425 -1.8180029 4288085770
11.065582 -0.16770434 -1.8334713 4288085770
8.2733459 -0.11324847 -1.8229537 4288085770
7.4012947 -0.097281337 -1.8211102 4288085770
10.456573 -0.16112638 -1.8321099 4288085770
14.521835 -0.24876118 -1.8271801 4288085770
7.7343407 -0.10751188 -1.8211749 4288085770
9.9125519 -0.15339249 -1.8313448 4288085770
8.6894569 -0.12925267 -1.8275626 4288085770
5.6982689 -0.066151738 -1.8301811 4288085770
8.1114044 -0.11761045 -1.8249719 4288085770
9.4035225 -0.14558661 -1.8293672 4288085770
6.9852638 -0.094305515 -1.8136082 4288085770
8.9565086 -0.13660824 -1.8310039 4288085770
18.198196 -0.33416826 -1.8385906 4288085770
8.5134583 -0.12766814 -1.8266165 4288085770
9.1295471 -0.14521766 -1.8300252 4288085770
16.794136 -0.31443256 -1.8369415 4288085770
9.6006241 -0.16111994 -1.8312998 4288085770
15.618122 -0.29712427 -1.84093 4288085770
10.094681 -0.17699361 -1.8294344 4288085770
14.549076 -0.27960479 -1.8402681 4288085770
10.679775 -0.19360524 -1.834023 4288085770
13.571003 -0.26089364 -1.8370447 4288085770
11.282814 -0.20922303 -1.8324947 4288085770
12.780991 -0.24467719 -1.8427022 4288085770
11.970886 -0.2266165 -1.8344655 4288085770
13.641003 -0.27080035 -1.8287013 4288085770
5.5014229 -0.07961452 -1.8304863 4288085770
6.7154083 -0.1099577 -1.8113732 4288085770
12.894207 -0.29350448 -1.8334153 4288085770
5.3055534 -0.093106627 -1.8267856 4288085770
6.4996033 -0.1254164 -1.8178098 4288085770
5.1367302 -0.10649014 -1.8289201 4288085770
6.2787857 -0.14091027 -1.8212769 4288085770
12.164356 -0.31423318 -1.8300102 4288085770
17.507038 -0.52193183 -1.8253152 4288085770
4.9688873 -0.11989534 -1.8280489 4288085770
6.0619621 -0.15641922 -1.8217199 4288085770
11.513519 -0.33376652 -1.8281164 4288085770
4.8130569 -0.13326609 -1.8281047 4288085770
16.357235 -0.5395664 -1.830431 4288085770
5.8711739 -0.17283803 -1.8260126 4288085770
10.926697 -0.35314763 -1.8268337 4288085770
4.6702576 -0.14758408 -1.8310897 4288085770
15.319424 -0.55696255 -1.832866 4288085770
5.6763573 -0.18829769 -1.8263221 4288085770
10.395878 -0.37239385 -1.8262105 4288085770
4.5314484 -0.16191673 -1.8310504 4288085770
14.367569 -0.57221121 -1.8287621 4288085770
5.4915314 -0.20274228 -1.8255622 4288085770
9.9451103 -0.39341176 -1.8311167 4288085770
4.3856087 -0.17428857 -1.8280375 4288085770
5.3167229 -0.2181651 -1.8247502 4288085770
13.548767 -0.58910304 -1.8308654 4288085770
9.5023079 -0.41245073 -1.8309584 4288085770
4.2447777 -0.18765783 -1.8240025 4288085770
5.1579323 -0.23352784 -1.8268404 4288085770
12.839989 -0.6067223 -1.8353078 4288085770
9.078495 -0.43047088 -1.8276763 4288085770
4.1119614 -0.20100135 -1.820919 4288085770
4.9831085 -0.24798262 -1.8220205 4288085770
12.164177 -0.62331402 -1.8335416 4288085770
17.994331 -0.93646163 -1.883749 4288085770
8.680687 -0.44843203 -1.8242364 4288085770
4.0001869 -0.21524996 -1.8237152 4288085770
4.8433113 -0.26230216 -1.823987 4288085770
11.525341 -0.63784534 -1.8285348 4288085770
8.3168755 -0.4663164 -1.8205898 4288085770
16.828518 -0.95120591 -1.8799381 4288085770
18.079662 -1.0223736 -1.872932 4288085770
3.8853836 -0.2285372 -1.8225224 4288085770
4.7125397 -0.27759421 -1.8269072 4288085770
10.987564 -0.65509313 -1.8299377 4288085770
7.9941025 -0.48507667 -1.8207018 4288085770
15.824738 -0.96452677 -1.8821337 4288085770
17.089962 -1.0677484 -1.865303 4288085770
4.5787544 -0.29291701 -1.8268456 4288085770
10.48579 -0.67225939 -1.8311217 4288085770
7.6973343 -0.50276983 -1.8216474 4288085770
14.851883 -0.97084808 -1.8750844 4288085770
4.4439621 -0.30725813 -1.8247824 4288085770
10.030003 -0.6893369 -1.8300259 4288085770
16.352367 -1.1194332 -1.8711977 4288085770
7.4095459 -0.52047437 -1.8185387 4288085770
14.010052 -0.97481585 -1.874222 4288085770
4.3201904 -0.32255894 -1.8246603 4288085770
9.6462822 -0.7091887 -1.8365166 4288085770
13.219208 -0.97668362 -1.8710332 4288085770
7.1678123 -0.54002023 -1.8221662 4288085770
15.638725 -1.1650946 -1.8728976 4288085770
4.1943855 -0.33589542 -1.8205342 4288085770
9.2545128 -0.72611386 -1.8360317 4288085770
12.534382 -0.97927105 -1.8722081 4288085770
6.9380798 -0.55953878 -1.8257208 4288085770
14.95607 -1.2087177 -1.8703933 4288085770
4.0836334 -0.35115939 -1.8213329 4288085770
11.846493 -0.97492743 -1.8653443 4288085770
8.8827286 -0.74200976 -1.8334172 4288085770
6.6892967 -0.57616317 -1.8213668 4288085770
11.245632 -0.97133929 -1.8639598 4288085770
3.9838753 -0.36639029 -1.8230646 4288085770
8.5579834 -0.75976741 -1.834533 4288085770
14.365444 -1.2530929 -1.8723371 4288085770
17.730419 -1.5480692 -1.9073365 4288085770
6.4775467 -0.59366488 -1.8217957 4288085770
10.713791 -0.96856225 -1.866163 4288085770
3.8911324 -0.38159758 -1.8257539 4288085770
16.536442 -1.5078702 -1.9032493 4288085770
8.2402229 -0.77652538 -1.8335981 4288085770
10.191914 -0.96280211 -1.863282 4288085770
13.813805 -1.2943952 -1.8720195 4288085770
6.288826 -0.61309093 -1.8251009 4288085770
15.441433 -1.4654695 -1.8955438 4288085770
9.7280426 -0.95688617 -1.8630478 4288085770
7.958477 -0.79419392 -1.8334525 4288085770
14.465439 -1.4267831 -1.8891473 4288085770
6.109108 -0.63250524 -1.8273513 4288085770
13.337189 -1.3385038 -1.8742697 4288085770
9.2841568 -0.94893217 -1.8616757 4288085770
18.478691 -1.8423581 -1.9141951 4288085770
13.597466 -1.3908285 -1.8851182 4288085770
7.7047577 -0.81276774 -1.8371446 4288085770
8.8412361 -0.9380151 -1.8552737 4288085770
5.927372 -0.64993906 -1.8275979 4288085770
12.822502 -1.3576468 -1.8825481 4288085770
17.542957 -1.855552 -1.9129763 4288085770
12.863541 -1.377637 -1.8724616 4288085770
8.4593468 -0.92890406 -1.8555167 4288085770
7.4329872 -0.82844526 -1.8329222 4288085770
12.11253 -1.3253253 -1.8785908 4288085770
5.7496338 -0.66738069 -1.82582 4288085770
8.0964355 -0.91877341 -1.8526359 4288085770
11.479588 -1.2957976 -1.8781896 4288085770
16.628189 -1.8617215 -1.9085734 4288085770
7.1842461 -0.84605598 -1.8305759 4288085770
7.770565 -0.91051155 -1.8555462 4288085770
12.440918 -1.4186313 -1.8733592 4288085770
10.88662 -1.2661946 -1.875545 4288085770
5.6029396 -0.68670464 -1.8298697 4288085770
7.4576645 -0.9002434 -1.8553612 4288085770
10.345673 -1.2384582 -1.8746004 4288085770
6.9454956 -0.86165124 -1.8271527 4288085770
15.85347 -1.8715098 -1.9113512 4288085770
7.1407356 -0.88800764 -1.8521845 4288085770
12.077328 -1.4624685 -1.8769219 4288085770
9.8447113 -1.2106301 -1.8734128 4288085770
5.4592323 -0.7060374 -1.8319013 4288085770
6.8347778 -0.8737697 -1.8459251 4288085770
9.3827553 -1.184714 -1.872004 4288085770
6.7467918 -0.88010901 -1.8295102 4288085770
15.081707 -1.8733225 -1.9100461 4288085770
6.5828819 -0.86434704 -1.8473773 4288085770
8.9467773 -1.1577539 -1.8684294 4288085770
5.3014946 -0.72244191 -1.8289938 4288085770
11.708714 -1.5023406 -1.8774829 4288085770
6.3429642 -0.85289609 -1.8487403 4288085770
8.5418015 -1.1317155 -1.8656743 4288085770
18.473228 -2.35532 -1.9393995 4288085770
6.1010323 -0.84046519 -1.8481073 4288085770
6.5650864 -0.89952826 -1.8317726 4288085770
14.348911 -1.8700614 -1.9064634 4288085770
8.1558151 -1.1056418 -1.8618035 4288085770
5.8821106 -0.82997471 -1.8483508 4288085770
5.1738052 -0.74173129 -1.831928 4288085770
7.8188553 -1.0824172 -1.862659 4288085770
11.372086 -1.5421478 -1.8768492 4288085770
5.656147 -0.81553024 -1.8446045 4288085770
7.4548302 -1.0543326 -1.8536386 4288085770
6.3763695 -0.9169873 -1.8310614 4288085770
17.718552 -2.3821061 -1.9371924 4288085770
13.684139 -1.8666145 -1.906467 4288085770
5.4642334 -0.80495441 -1.8476834 4288085770
7.1488495 -1.0310531 -1.8523059 4288085770
5.0340881 -0.75908732 -1.8299191 4288085770
5.2602654 -0.79045177 -1.8448033 4288085770
6.85186 -1.0077689 -1.8489182 4288085770
5.0743103 -0.77790105 -1.8428299 4288085770
11.072487 -1.5828476 -1.878998 4288085770
6.590889 -0.98637116 -1.8493278 4288085770
6.1826324 -0.93348968 -1.8263726 4288085770
13.027317 -1.8561882 -1.9013658 4288085770
4.9023552 -0.76529419 -1.8437712 4288085770
17.019878 -2.4097731 -1.9336534 4288085770
6.3228798 -0.96302837 -1.8447638 4288085770
4.7434158 -0.75364995 -1.8456416 4288085770
4.9023705 -0.77642572 -1.8278615 4288085770
6.0959167 -0.94353759 -1.8469827 4288085770
4.5864601 -0.74100882 -1.8464913 4288085770
5.8679276 -0.92307281 -1.8461995 4288085770
4.4254837 -0.72740006 -1.8443577 4288085770
6.0369606 -0.95380449 -1.831424 4288085770
12.454533 -1.8505239 -1.901794 4288085770
5.6569366 -0.90256071 -1.8463132 4288085770
10.811909 -1.6264358 -1.883934 4288085770
4.2774963 -0.71376121 -1.8421452 4288085770
5.4529495 -0.88304073 -1.8453925 4288085770
16.456268 -2.4460797 -1.9363656 4288085770
4.1355095 -0.70009291 -1.8418958 4288085770
4.7946968 -0.79566205 -1.8316741 4288085770
5.2589417 -0.86350572 -1.8434107 4288085770
4.0105515 -0.68836266 -1.8445592 4288085770
5.0829582 -0.84489799 -1.8453274 4288085770
3.8825684 -0.67566234 -1.8442326 4288085770
4.8929138 -0.82337654 -1.8403051 4288085770
11.907742 -1.8418084 -1.9010394 4288085770
5.8752403 -0.97121036 -1.8295486 4288085770
4.7289047 -0.80476499 -1.8391492 4288085770
4.5789032 -0.78709763 -1.8409157 4288085770
10.560322 -1.6680193 -1.8867991 4288085770
4.4339104 -0.77041888 -1.8426602 4288085770
4.2848701 -0.7517885 -1.8394127 4288085770
4.1438332 -0.73313141 -1.8371167 4288085770
4.6870117 -0.8149147 -1.8334866 4288085770
4.0158157 -0.71642137 -1.8377573 4288085770
3.8957787 -0.69970047 -1.8373499 4288085770
15.901627 -2.4793973 -1.934999 4288085770
11.389935 -1.8310345 -1.8990929 4288085770
5.7465858 -0.99248725 -1.8345046 4288085770
18.403961 -2.9013958 -1.9702518 4288085770
10.322739 -1.7105714 -1.8895867 4288085770
4.571312 -0.83221704 -1.8313317 4288085770
10.906109 -1.818175 -1.8979232 4288085770
15.41301 -2.5165417 -1.9362631 4288085770
17.223885 -2.8132346 -1.9566908 4288085770
5.6018829 -1.0108477 -1.8335338 4288085770
18.591591 -3.0550158 -1.9683592 4288085770
4.4766388 -0.8514325 -1.8340652 4288085770
10.474339 -1.8101587 -1.9014776 4288085770
10.092152 -1.7521156 -1.8913238 4288085770
16.244904 -2.7445323 -1.953069 4288085770
14.978424 -2.5575485 -1.9392307 4288085770
5.4782181 -1.0311292 -1.8364513 4288085770
18.312138 -3.1527009 -1.9678445 4288085770
10.036514 -1.7951944 -1.900012 4288085770
15.337929 -2.6776752 -1.9480257 4288085770
4.3729553 -0.86970055 -1.8328454 4288085770
9.897583 -1.7955542 -1.8958578 4288085770
14.566826 -2.5975111 -1.9410508 4288085770
5.3565445 -1.0514221 -1.8373566 4288085770
9.6336823 -1.7801425 -1.8993337 4288085770
14.512974 -2.6156077 -1.9455242 4288085770
4.266243 -0.88599873 -1.8286276 4288085770
18.138771 -3.2640758 -1.9757979 4288085770
9.7050095 -1.8379964 -1.8993714 4288085770
9.2468643 -1.7650545 -1.8985584 4288085770
5.2248306 -1.0677688 -1.8342905 4288085770
13.729984 -2.5514765 -1.9387517 4288085770
14.164207 -2.6344767 -1.9397914 4288085770
4.1795692 -0.90420413 -1.8303041 4288085770
8.8229294 -1.738143 -1.8859112 4288085770
17.907307 -3.3626595 -1.9739988 4288085770
13.020012 -2.4921641 -1.9335759 4288085770
5.1211815 -1.0889976 -1.8380942 4288085770
9.5344658 -1.8843818 -1.9037836 4288085770
13.766567 -2.6684542 -1.9354777 4288085770
8.4500427 -1.7160614 -1.8799944 4288085770
12.358044 -2.4347429 -1.9281242 4288085770
4.1059303 -0.92536533 -1.8339257 4288085770
17.792965 -3.4808855 -1.9836485 4288085770
5.0135002 -1.1082664 -1.8379061 4288085770
9.3368416 -1.9218822 -1.9012871 4288085770
8.1261978 -1.6988292 -1.8788197 4288085770
11.743065 -2.3782144 -1.9223952 4288085770
13.444981 -2.7112126 -1.9367743 4288085770
4.0352974 -0.94651198 -1.8385291 4288085770
7.8173561 -1.6815553 -1.8785536 4288085770
11.187126 -2.3275213 -1.9203558 4288085770
18.751057 -3.7886147 -1.9983311 4288085770
4.9108429 -1.128517 -1.8386958 4288085770
17.651546 -3.5902262 -1.9863899 4288085770
9.1542397 -1.9603409 -1.8997073 4288085770
13.135395 -2.7539523 -1.9369974 4288085770
10.691212 -2.2836766 -1.9200082 4288085770
3.9556351 -0.96471035 -1.8391631 4288085770
7.5345192 -1.6662145 -1.8791459 4288085770
4.8091736 -1.147773 -1.8384714 4288085770
17.8922 -3.7476697 -1.9912045 4288085770
10.186222 -2.230906 -1.912643 4288085770
17.547184 -3.7084608 -1.9919784 4288085770
7.258667 -1.648865 -1.8786793 4288085770
8.967617 -1.9978325 -1.895144 4288085770
12.878849 -2.8035331 -1.9419546 4288085770
3.8789711 -0.98391008 -1.8387866 4288085770
9.7553215 -2.189898 -1.9139245 4288085770
6.9737625 -1.6255745 -1.8732193 4288085770
4.7155037 -1.1670028 -1.8391981 4288085770
17.113388 -3.7115049 -1.9886317 4288085770
17.504875 -3.8385167 -2.002286 4288085770
9.3564072 -2.150825 -1.9140275 4288085770
8.805027 -2.0372386 -1.8944504 4288085770
6.7299232 -1.6091366 -1.8745663 4288085770
3.810318 -1.0030755 -1.8403616 4288085770
12.630287 -2.8511186 -1.9438467 4288085770
4.6368752 -1.1901839 -1.8418658 4288085770
16.408581 -3.6791563 -1.9876413 4288085770
8.9163895 -2.0989304 -1.9032755 4288085770
6.4890518 -1.5907148 -1.872879 4288085770
17.44252 -3.9636564 -2.0076747 4288085770
8.6624489 -2.0795918 -1.894659 4288085770
8.5184212 -2.0529015 -1.8973167 4288085770
6.2651901 -1.573239 -1.8730962 4288085770
12.402737 -2.9016495 -1.9466352 4288085770
4.5532227 -1.2103837 -1.8435395 4288085770
15.727772 -3.6427445 -1.987473 4288085770
8.1414299 -2.00684 -1.8892303 4288085770
6.0332909 -1.5518121 -1.8693302 4288085770
8.525856 -2.1209385 -1.8938231 4288085770
17.364147 -4.0858564 -2.0101357 4288085770
7.8215103 -1.9705877 -1.8888776 4288085770
12.171165 -2.9482045 -1.9474156 4288085770
15.047913 -3.5983691 -1.9822342 4288085770
5.8324394 -1.5352679 -1.8714159 4288085770
4.4755745 -1.2315699 -1.8451848 4288085770
7.5005455 -1.9303682 -1.8844988 4288085770
5.6135139 -1.5118263 -1.8655546 4288085770
8.3982887 -2.164258 -1.8939486 4288085770
17.344822 -4.2198915 -2.0163343 4288085770
7.2316551 -1.8999765 -1.8868845 4288085770
14.430092 -3.5588222 -1.980659 4288085770
4.3959274 -1.2527772 -1.8448424 4288085770
11.967628 -3.0006895 -1.949074 4288085770
5.424633 -1.49327 -1.8655512 4288085770
6.9537125 -1.8646357 -1.8852849 4288085770
5.2517815 -1.4776543 -1.8684745 4288085770
13.802197 -3.5083437 -1.9730563 4288085770
6.6767349 -1.8263236 -1.8796549 4288085770
8.2817307 -2.2085447 -1.8950148 4288085770
17.353512 -4.3608551 -2.0234187 4288085770
4.3172684 -1.2719812 -1.8444777 4288085770
11.762058 -3.0491941 -1.9487123 4288085770
5.0598526 -1.4551512 -1.8624575 4288085770
6.4207764 -1.7909483 -1.8759217 4288085770
4.9049835 -1.4394937 -1.8652713 4288085770
13.221329 -3.4607353 -1.9681916 4288085770
6.188839 -1.759503 -1.8740747 4288085770
4.2506294 -1.2941431 -1.8460641 4288085770
8.1651535 -2.2518468 -1.8940728 4288085770
17.351189 -4.4998679 -2.0275531 4288085770
4.7470818 -1.4208661 -1.8650794 4288085770
11.593536 -3.104584 -1.9521813 4288085770
5.9618759 -1.7260537 -1.8711812 4288085770
4.5911751 -1.4022497 -1.8628755 4288085770
12.696476 -3.4179759 -1.966027 4288085770
5.7549324 -1.6965436 -1.8701985 4288085770
4.1870041 -1.3162905 -1.8486319 4288085770
4.4382553 -1.3826258 -1.8606453 4288085770
8.0645943 -2.2970974 -1.8950496 4288085770
5.5710106 -1.6699495 -1.8730998 4288085770
17.438965 -4.6636162 -2.039341 4288085770
11.428986 -3.1579881 -1.95261 4288085770
12.177605 -3.3712268 -1.960794 4288085770
4.2933388 -1.3639843 -1.8583746 4288085770
5.3780556 -1.640415 -1.871032 4288085770
5.1960983 -1.6118553 -1.8689051 4288085770
4.1203499 -1.3364679 -1.8482018 4288085770
4.1624451 -1.3472793 -1.8600347 4288085770
7.9820557 -2.3462915 -1.8979487 4288085770
17.486679 -4.8165007 -2.0452828 4288085770
5.0351868 -1.5882094 -1.8716912 4288085770
11.29147 -3.2162995 -1.9569142 4288085770
4.0435448 -1.3315386 -1.8626297 4288085770
11.687744 -3.3253961 -1.9573929 4288085770
4.8541832 -1.5566781 -1.8655343 4288085770
3.9156303 -1.3138502 -1.8612638 4288085770
4.055687 -1.3566483 -1.8467598 4288085770
4.699234 -1.531041 -1.8652678 4288085770
18.433887 -5.1822505 -2.0614913 4288085770
3.7846832 -1.2931834 -1.8578918 4288085770
11.212852 -3.2755456 -1.9518685 4288085770
7.9015045 -2.3934884 -1.8998194 4288085770
17.589455 -4.9862309 -2.0550268 4288085770
4.5592957 -1.5073543 -1.8669257 4288085770
11.149925 -3.2716513 -1.9572186 4288085770
4.4103165 -1.4807187 -1.8646147 4288085770
3.9990616 -1.3787799 -1.8492849 4288085770
17.388649 -5.0117688 -2.0474472 4288085770
4.2793694 -1.4580194 -1.8652263 4288085770
10.773987 -3.2305984 -1.9481654 4288085770
4.1413765 -1.4313583 -1.8628485 4288085770
7.8229637 -2.4426818 -1.9016938 4288085770
17.76931 -5.1767406 -2.0704703 4288085770
11.035423 -3.3349113 -1.9614229 4288085770
4.0093994 -1.406684 -1.8604503 4288085770
16.460491 -4.8609772 -2.0388536 4288085770
3.884407 -1.3820014 -1.8570094 4288085770
3.939415 -1.3999496 -1.8478205 4288085770
10.361134 -3.1875772 -1.9463205 4288085770
7.7704659 -2.497777 -1.908458 4288085770
17.786961 -5.3267632 -2.0675693 4288085770
15.623375 -4.7239633 -2.0318196 4288085770
10.93293 -3.4001446 -1.96557 4288085770
9.9602432 -3.1405506 -1.9413707 4288085770
3.899807 -1.4250191 -1.853266 4288085770
11.991943 -3.7749405 -0.79211277 4293729569
14.848286 -4.5957942 -2.0264816 4288085770
7.6828804 -2.5420294 -1.9053466 4288085770
17.4161 -5.3660092 -2.0211267 4288085770
9.5943909 -3.0994146 -1.9402566 4288085770
10.827419 -3.4634004 -1.9677188 4288085770
3.8551979 -1.449116 -1.856734 4288085770
14.100166 -4.4655948 -2.0169637 4288085770
9.2194977 -3.0513291 -1.9351408 4288085770
7.6413803 -2.5991073 -1.9110596 4288085770
17.008152 -5.386385 -1.9687564 4293729569
10.736916 -3.528614 -1.9707925 4288085770
13.389038 -4.3373194 -2.0062375 4288085770
3.7985382 -1.4692864 -1.8542428 4288085770
8.8746262 -3.0081601 -1.9318831 4288085770
12.763977 -4.2258105 -2.0001252 4288085770
7.5988846 -2.6561885 -1.9167786 4288085770
16.72636 -5.4403677 -1.9298925 4293729569
10.653416 -3.5958114 -1.9738393 4288085770
3.7549286 -1.4933891 -1.8567045 4288085770
8.5367393 -2.961983 -1.9275591 4288085770
12.166904 -4.1162539 -1.9918597 4288085770
8.2378731 -2.9226937 -1.926054 4288085770
7.5463562 -2.7093225 -1.9185259 4288085770
16.640823 -5.5537686 -1.9083185 4293729569
10.573902 -3.6630082 -1.9758611 4288085770
11.607849 -4.0125957 -1.9854169 4288085770
7.9410057 -2.8823988 -1.9245386 4288085770
16.615322 -5.6819949 -1.8915312 4293729569
7.4977951 -2.7624536 -1.9192636 4288085770
11.088814 -3.9148378 -1.97979 4288085770
10.505398 -3.7321777 -1.977855 4288085770
7.6551208 -2.8410945 -1.9209509 4288085770
10.614792 -3.8239708 -1.9749444 4288085770
16.722015 -5.8558221 -1.8873141 4293729569
7.4572792 -2.8185508 -1.921979 4288085770
7.3722115 -2.79579 -1.9163117 4288085770
10.454929 -3.8092914 -1.9818039 4288085770
10.16177 -3.7350554 -1.9699864 4288085770
7.116333 -2.7574091 -1.9135644 4288085770
16.802654 -6.0207477 -1.8781819 4293729569
9.7507706 -3.6540298 -1.966836 4288085770
7.4087257 -2.8716893 -1.9217184 4288085770
10.395428 -3.8804407 -1.9837584 4288085770
6.8764648 -2.7199759 -1.9127269 4288085770
9.3417473 -3.5700307 -1.9596491 4288085770
16.951382 -6.2114816 -1.8738458 4293729569
7.3812103 -2.9307494 -1.9253781 4288085770
10.362961 -3.9605055 -1.988621 4288085770
6.6195412 -2.6746278 -1.9059281 4288085770
8.9707527 -3.4939146 -1.9562943 4288085770
6.4277229 -2.6480398 -1.910886 4288085770
8.5937157 -3.4118505 -1.9479275 4288085770
17.051029 -6.3873878 -1.8616872 4293729569
7.344677 -2.9868526 -1.9260685 4288085770
10.322475 -4.037612 -1.9905076 4288085770
6.1757545 -2.5987191 -1.8990238 4288085770
8.254715 -3.3386774 -1.9424012 4288085770
17.388985 -6.6485891 -1.8707733 4293729569
7.3361855 -3.0518541 -1.9316607 4288085770
5.9608498 -2.559252 -1.8950164 4288085770
7.9437523 -3.2724099 -1.9407604 4288085770
10.290989 -4.1166902 -1.9933555 4288085770
7.6447525 -3.2051377 -1.9360378 4288085770
5.7770004 -2.5286684 -1.8968925 4288085770
7.3126564 -3.1119208 -1.9333036 4288085770
10.275543 -4.2037249 -1.9971707 4288085770
7.347744 -3.1368771 -1.9292948 4288085770
5.5851059 -2.4931417 -1.8937767 4288085770
17.000774 -6.7655845 -1.8641148 4293729569
7.0727539 -3.072551 -1.9244497 4288085770
5.396183 -2.4546149 -1.8896177 4288085770
7.2791023 -3.1680326 -1.9319751 4288085770
10.26609 -4.291738 -2.0019567 4288085770
6.8217926 -3.0151472 -1.9225149 4288085770
5.209259 -2.4160919 -1.8844469 4288085770
16.053402 -6.5339222 -1.8430037 4293729569
6.5738068 -2.95576 -1.9175448 4288085770
7.2936478 -3.2419591 -1.9404991 4288085770
10.268642 -4.3837323 -2.005702 4288085770
5.0463829 -2.3854835 -1.883194 4288085770
6.3388176 -2.8983431 -1.9125118 4288085770
13.179008 -5.544292 -1.6064308 4293729569
4.8914948 -2.3538489 -1.8828835 4288085770
13.201843 -5.5960784 -1.3727057 4293729569
6.1208458 -2.8448722 -1.9094071 4288085770
13.146309 -5.6066546 -0.93210995 4293729569
7.2781181 -3.3050151 -1.941117 4288085770
10.257172 -4.4707727 -2.0074918 4288085770
4.7265739 -2.3182755 -1.8776023 4288085770
13.018654 -5.5813122 -1.6537211 4293729569
13.202785 -5.672874 -0.6332944 4293729569
5.9068527 -2.7904074 -1.9042699 4288085770
13.128139 -5.6775246 -1.3408275 4293729569
4.5846825 -2.2886114 -1.8772285 4288085770
13.037022 -5.6584978 -0.98720986 4293729569
5.7048759 -2.7388997 -1.9010835 4288085770
10.278744 -4.5697088 -2.0131776 4288085770
7.2505531 -3.3621216 -1.9387596 4288085770
12.958431 -5.6540308 -1.7106926 4293729569
13.125099 -5.7543216 -0.60244036 4293729569
4.4568138 -2.2628918 -1.8798018 4288085770
5.527935 -2.695313 -1.9008093 4288085770
12.986801 -5.7311764 -1.0461198 4293729569
13.123524 -5.7867851 -1.3127553 4293729569
5.3399315 -2.6437883 -1.8955369 4288085770
4.326931 -2.2351923 -1.8803709 4288085770
12.851131 -5.7058849 -1.7637801 4293729569
10.286289 -4.6646991 -2.0159156 4288085770
7.2560616 -3.4331069 -1.9423139 4288085770
13.127476 -5.8655815 -0.57234144 4293729569
5.1649513 -2.5972276 -1.8912258 4288085770
4.2050438 -2.2084665 -1.8818989 4288085770
12.97464 -5.8187313 -1.1099195 4293729569
13.181999 -5.9198575 -1.290493 4293729569
5.0069923 -2.5545967 -1.8908432 4288085770
12.626637 -5.7091179 -1.8021836 4293729569
4.0751228 -2.1777978 -1.8784432 4288085770
10.328899 -4.7745719 -2.023562 4288085770
7.269577 -3.5070667 -1.9468436 4288085770
4.8640556 -2.5169163 -1.8924093 4288085770
13.039581 -5.9370666 -1.1795011 4293729569
3.9662437 -2.1540344 -1.8809164 4288085770
4.701046 -2.470351 -1.8850248 4288085770
12.340015 -5.6815591 -1.8317132 4293729569
3.8483276 -2.1253223 -1.8794034 4288085770
10.393532 -4.8923802 -2.0331385 4288085770
4.5610619 -2.4296863 -1.883548 4288085770
7.2880936 -3.5830069 -1.9523585 4288085770
3.7374077 -2.0975945 -1.8778558 4288085770
4.4160652 -2.3870645 -1.8780859 4288085770
12.007278 -5.6291728 -1.85232 4293729569
4.2951088 -2.3523414 -1.8785417 4288085770
3.6344948 -2.0718327 -1.8782754 4288085770
10.460171 -5.0141912 -2.0417356 4288085770
7.2995872 -3.6559858 -1.9548919 4288085770
4.1811523 -2.3196025 -1.8789709 4288085770
11.646488 -5.5618811 -1.8689756 4293729569
4.0681915 -2.285861 -1.8793859 4288085770
3.9582176 -2.2521205 -1.8787825 4288085770
10.411568 -5.0854235 -2.0296202 4288085770
7.3231163 -3.7359152 -1.9604087 4288085770
11.225525 -5.4608307 -1.8717208 4293729569
3.8592644 -2.2223315 -1.881144 4288085770
3.7582893 -2.1905701 -1.880502 4288085770
3.6432419 -2.1508944 -1.87288 4288085770
10.204639 -5.0852199 -1.9908838 4288085770
10.858654 -5.3786044 -1.8812902 4293729569
3.5542526 -2.1210973 -1.8731804 4288085770
7.3366089 -3.8108978 -1.9619458 4288085770
10.377518 -5.2397971 -1.8700924 4293729569
10.001705 -5.0850143 -1.951123 4293729569
7.3601112 -3.8898497 -1.9644542 4288085770
10.110775 -5.1922688 -1.8893354 4293729569
9.9059792 -5.1304364 -1.9280822 4293729569
7.384613 -3.9707994 -1.9669724 4288085770
9.8420029 -5.139761 -1.9065497 4293729569
9.8342781 -5.184782 -1.9079678 4293729569
7.418129 -4.0557218 -1.970468 4288085770
9.5691872 -5.0812917 -1.9197395 4293729569
9.7605591 -5.2361388 -1.8868411 4293729569
9.3745155 -5.0555549 -1.944721 4293729569
12.820763 -6.7054486 -1.8641992 4293729569
7.4406128 -4.1356993 -1.9699903 4288085770
12.035122 -6.4064727 -1.8335457 4293729569
9.2239189 -5.0466561 -1.9775715 4288085770
9.7529831 -5.3192625 -1.8765709 4293729569
7.4891434 -4.2275715 -1.9754508 4288085770
11.53997 -6.239584 -1.8362026 4293729569
9.0602722 -5.0298252 -2.0054367 4288085770
9.703289 -5.3785491 -1.8573618 4293729569
7.5236397 -4.3135147 -1.9759479 4288085770
11.070824 -6.0786433 -1.8377497 4293729569
8.8124275 -4.9693146 -2.0164566 4288085770
10.710846 -5.9653659 -1.8510213 4293729569
9.7998924 -5.510323 -1.8618546 4293729569
7.5621185 -4.3994398 -1.9774201 4288085770
8.490387 -4.8681011 -2.0105951 4288085770
10.31477 -5.8292379 -1.8553257 4293729569
8.1552734 -4.753963 -1.9987073 4288085770
9.9135246 -5.652051 -1.8673248 4293729569
7.6036148 -4.4893665 -1.9779067 4288085770
9.8645325 -5.6603317 -1.8466914 4293729569
7.8261375 -4.6398344 -1.9837828 4288085770
9.9449806 -5.7540789 -1.8579702 4293729569
9.5074501 -5.533123 -1.8498306 4293729569
7.6771698 -4.5951748 -1.9843276 4288085770
7.5470886 -4.5455313 -1.9767153 4288085770
9.0611343 -5.3552699 -1.8330989 4293729569
10.081635 -5.9077396 -1.865397 4293729569
7.2890739 -4.4591575 -1.9725845 4288085770
7.7878151 -4.7208381 -1.9986846 4288085770
8.7991867 -5.2677784 -1.8449833 4293729569
7.0570831 -4.38271 -1.9703763 4288085770
10.136108 -6.0207076 -1.8569908 4293729569
8.606369 -5.2140555 -1.8667228 4293729569
7.9154816 -4.8554468 -2.0150111 4288085770
6.8280754 -4.3042703 -1.9661334 4288085770
8.3413658 -5.1186099 -1.8735604 4293729569
10.137466 -6.1048565 -1.8406725 4293729569
7.9950371 -4.9672489 -2.0204439 4288085770
8.1675491 -5.0688429 -1.8952162 4293729569
6.6120872 -4.2307863 -1.9638515 4288085770
3.2897491 -2.4528418 -1.8845689 4288085770
8.0007172 -5.0190682 -1.9158292 4293729569
10.248032 -6.248652 -1.8381763 4293729569
6.4000816 -4.1553001 -1.9605291 4288085770
7.8941231 -4.980772 -1.9851704 4288085770
3.3110161 -2.486789 -1.8867197 4288085770
7.8940201 -5.0010738 -1.947336 4293729569
6.1940651 -4.0808167 -1.955178 4288085770
10.464825 -6.451087 -1.8515122 4293729569
7.8073425 -4.9900179 -1.980777 4288085770
3.3262291 -2.51578 -1.8848662 4288085770
7.7761574 -4.9823556 -1.9469032 4293729569
5.9980431 -4.0083094 -1.9497821 4288085770
7.6875763 -4.9600835 -2.0082657 4288085770
3.348465 -2.5487397 -1.8850024 4288085770
10.802872 -6.7241125 -1.8826864 4293729569
5.8340912 -3.9506764 -1.9513128 4288085770
7.4544983 -4.8646178 -2.0079079 4288085770
7.6912766 -5.001811 -1.9155807 4293729569
3.3696823 -2.580709 -1.8841364 4288085770
5.6490517 -3.8791523 -1.9448578 4288085770
7.1692543 -4.7363853 -1.992599 4288085770
3.3999176 -2.6166344 -1.8862479 4288085770
10.985565 -6.912694 -1.8871157 4293729569
6.9120445 -4.6200657 -1.980217 4288085770
7.6083641 -5.0182772 -1.8822215 4293729569
5.4850502 -3.8165488 -1.9423475 4288085770
3.4321404 -2.6525626 -1.8873472 4288085770
6.6758728 -4.5136762 -1.970788 4288085770
3.4683647 -2.690474 -1.8894379 4288085770
5.3320694 -3.7589145 -1.9408109 4288085770
6.4647331 -4.4182072 -1.9642956 4288085770
7.5525284 -5.0496283 -1.855819 4293729569
3.5035667 -2.7263947 -1.8905187 4288085770
5.1700363 -3.6933298 -1.9352641 4288085770
6.2806435 -4.3356457 -1.9617443 4288085770
3.5488014 -2.7682693 -1.8945868 4288085770
6.1055565 -4.2560568 -1.9601622 4288085770
5.0230179 -3.6337042 -1.9306746 4288085770
7.5187225 -5.0909061 -1.8323634 4293729569
3.5859795 -2.8042004 -1.8936551 4288085770
5.9234238 -4.1705217 -1.9535742 4288085770
4.8910217 -3.5800123 -1.930042 4288085770
3.6291695 -2.8431025 -1.894711 4288085770
5.7663231 -4.0958991 -1.950923 4288085770
3.6843872 -2.8879461 -1.8997421 4288085770
5.6232567 -4.029222 -1.951251 4288085770
4.7610168 -3.5263243 -1.9283972 4288085770
7.4808922 -5.1292086 -1.8069074 4293729569
3.7235336 -2.9228792 -1.89779 4288085770
5.4681282 -3.9526176 -1.9455714 4288085770
3.7827225 -2.9677286 -1.9007967 4288085770
5.3270149 -3.8819661 -1.941855 4288085770
4.6329956 -3.4716468 -1.9247322 4288085770
3.8388939 -3.010592 -1.9028053 4288085770
5.1909027 -3.813303 -1.9381239 4288085770
3.9010582 -3.0554414 -1.9047935 4288085770
5.0667953 -3.7485971 -1.9363523 4288085770
7.5082207 -5.204257 -1.7953553 4293729569
4.5149994 -3.4219313 -1.9230466 4288085770
4.9446831 -3.6849022 -1.9325767 4288085770
3.9612198 -3.0993032 -1.905786 4288085770
4.827549 -3.6211953 -1.9287703 4288085770
4.0233498 -3.1421676 -1.9057579 4288085770
4.3909492 -3.3662601 -1.9173489 4288085770
4.1005173 -3.1929669 -1.909703 4288085770
4.7164307 -3.5614753 -1.9249601 4288085770
4.607296 -3.4997501 -1.9211211 4288085770
4.1746712 -3.2417808 -1.9126503 4288085770
4.2558022 -3.2915854 -1.9145627 4288085770
4.5141869 -3.4469657 -1.9202576 4288085770
4.4310875 -3.39815 -1.9203656 4288085770
4.3359375 -3.341393 -1.9164815 4288085770
4.2809219 -3.3165336 -1.9146144 4288085770
7.5355225 -5.2773275 -1.7807868 4293729569
4.1859245 -3.2747416 -1.915853 4288085770
4.0718575 -3.2200551 -1.9091022 4288085770
7.5377655 -5.3364859 -1.7622569 4293729569
3.9978943 -3.1871843 -1.9142859 4288085770
3.8998413 -3.1394377 -1.9104941 4288085770
3.8127937 -3.09565 -1.9086678 4288085770
7.503891 -5.3707929 -1.7347436 4293729569
3.7347717 -3.0568266 -1.9088271 4288085770
3.6476898 -3.0110617 -1.9039845 4288085770
3.574646 -2.9722338 -1.9031129 4288085770
3.0499191 -2.652462 -1.8956997 4288085770
3.4975739 -2.9304307 -1.9002416 4288085770
3.0879936 -2.6804028 -1.8926961 4288085770
3.4305229 -2.893589 -1.8993499 4288085770
3.1350861 -2.7122996 -1.8926699 4288085770
3.3614235 -2.8527665 -1.8964376 4288085770
7.4238892 -5.3752723 -1.698267 4293729569
3.2012405 -2.7550988 -1.8996165 4288085770
3.2523041 -2.7869937 -1.8985658 4288085770
3.3013573 -2.8179083 -1.8955193 4288085770
7.3347511 -5.3527064 -1.1565983 4293729569
7.4170609 -5.4234881 -1.6747022 4293729569
7.1571388 -5.2928905 -0.032134749 4293729569
7.1906052 -5.3113666 -1.1151383 4293729569
7.1736221 -5.3205705 -1.6073432 4293729569
7.1115532 -5.3107615 -0.063561231 4293729569
7.1366348 -5.3247471 -1.083576 4293729569
7.1206589 -5.3349495 -1.5757828 4293729569
7.1000137 -5.3495564 -0.094950959 4293729569
7.1006889 -5.3470726 -1.0539765 4293729569
7.0817108 -5.3562894 -1.5451939 4293729569
7.0854568 -5.3843498 -0.12732629 4293729569
7.0787621 -5.3763504 -1.0263488 4293729569
7.0527687 -5.3815908 -1.5165761 4293729569
7.074913 -5.4211264 -0.16069338 4293729569
7.0658417 -5.4096003 -0.99969846 4293729569
7.0258255 -5.4068875 -1.487946 4293729569
7.0793648 -5.4648767 -0.19302577 4293729569
7.058918 -5.4458432 -0.97203571 4293729569
7.004879 -5.4341707 -1.4592957 4293729569
7.109848 -5.5235529 -0.22732131 4293729569
7.0589943 -5.4840631 -0.94534642 4293729569
6.9899254 -5.463439 -1.4306247 4293729569
7.0740929 -5.5312419 -0.91963863 4293729569
7.1333275 -5.5782461 -0.26162699 4293729569
7.005043 -5.5105944 -1.4079168 4293729569
7.1392746 -5.6092777 -0.89787757 4293729569
7.0221367 -5.5577602 -1.3831966 4293729569
7.0532532 -5.6118789 -1.3604479 4293729569
10.340595 7.9994516 -1.6624842 4288085770
10.035126 7.7508583 -1.6587324 4288085770
9.7386436 7.5082645 -1.6528952 4288085770
9.5611038 7.3460045 -1.6629162 4288085770
9.3255882 7.1435547 -1.6615012 4288085770
9.1070633 6.9521418 -1.6609266 4288085770
4.2782097 3.6836481 -1.712369 4288085770
4.3581161 3.7367959 -1.7126074 4288085770
4.2403183 3.6566601 -1.7237439 4288085770
4.4250298 3.7798848 -1.7079802 4288085770
8.8955345 6.7647262 -1.6582901 4288085770
4.1224098 3.575335 -1.7088888 4288085770
4.4999504 3.8270016 -1.7052865 4288085770
4.046524 3.5201788 -1.7066469 4288085770
4.6168823 3.9002657 -1.7122061 4288085770
3.9786415 3.4700432 -1.7053311 4288085770
4.695816 3.9463744 -1.7075016 4288085770
