# .PCD v0.7 - Point Cloud Data file format
VERSION 0.7
FIELDS x y z rgb
SIZE 4 4 4 4
TYPE F F F U
COUNT 1 1 1 1
WIDTH 1122
HEIGHT 1
VIEWPOINT 0 0 0 1 0 0 0
POINTS 1122
DATA ascii
1.4819641 2.3775749 -1.7253342 4288085770
1.4338684 2.4072828 -1.7249823 4288085770
1.3768616 2.4339199 -1.7206049 4288085770
1.3447571 2.4677315 -1.7223043 4288085770
1.2977295 2.496439 -1.7199602 4288085770
1.251709 2.5251389 -1.7156229 4288085770
1.225647 2.5609837 -1.7163401 4288085770
1.1825867 2.5897045 -1.7120142 4288085770
1.1724548 2.6306591 -1.7157784 4288085770
1.1304321 2.6593742 -1.7094584 4288085770
1.1272583 2.7033768 -1.7142382 4288085770
1.1062012 2.7392368 -1.711978 4288085770
1.0890808 2.7771301 -1.7117262 4288085770
1.0888977 2.8231411 -1.7145119 4288085770
1.046936 2.848835 -1.7032042 4288085770
1.0577393 2.8989201 -1.7080202 4288085770
1.055603 2.9429035 -1.7078066 4288085770
1.0534973 2.9868832 -1.7065926 4288085770
1.0702515 3.0399971 -1.7094202 4288085770
1.0661316 3.0829487 -1.7052011 4288085770
1.078949 3.133028 -1.7060261 4288085770
1.0917969 3.1851006 -1.7058411 4288085770
1.1116028 3.2382202 -1.7056837 4288085770
1.1254272 3.2892952 -1.7045069 4288085770
1.1482239 3.3454227 -1.7033472 4288085770
1.1859436 3.4086609 -1.7062216 4288085770
1.2406006 3.4820175 -1.7121239 4288085770
1.301239 3.5584126 -1.719039 4288085770
1.3359985 3.6186104 -1.7169142 4288085770
1.3797607 3.6858692 -1.7167969 4288085770
1.418457 3.7510853 -1.713666 4288085770
1.4572449 3.8142986 -1.7095451 4288085770
1.5178833 3.8916645 -1.7104559 4288085770
1.5755615 3.9660015 -1.7083683 4288085770
1.6521912 4.0514698 -1.7103128 4288085770
1.7207947 4.1328773 -1.709239 4288085770
0.50759888 3.500639 -1.722785 4288085770
1.7785339 4.2061939 -1.7031555 4288085770
0.5663147 3.5679913 -1.7227335 4288085770
1.8601074 4.2946777 -1.7021084 4288085770
0.64590454 3.649498 -1.7297087 4288085770
1.9656677 4.3973236 -1.7051029 4288085770
0.70068359 3.7138062 -1.7256546 4288085770
2.0770874 4.5050087 -1.7080994 4288085770
0.74252319 3.7690144 -1.7165842 4288085770
2.1915894 4.6127052 -1.7101088 4288085770
0.81420898 3.8434391 -1.7155581 4288085770
2.3139954 4.7264462 -1.7111263 4288085770
0.89584351 3.923933 -1.716548 4288085770
2.4633484 4.8573704 -1.7171831 4288085770
0.97848511 4.004425 -1.7155428 4288085770
2.6305542 4.998415 -1.7252731 4288085770
1.0800171 4.0970497 -1.7195644 4288085770
2.8137512 5.1505547 -1.7333832 4288085770
1.1537476 4.1694527 -1.7115574 4288085770
3.0228271 5.3198719 -1.7465286 4288085770
1.2394104 4.2499466 -1.7065659 4288085770
3.2557373 5.5043354 -1.7597094 4288085770
1.3519592 4.3466225 -1.7076178 4288085770
3.495697 5.6938438 -1.7738981 4288085770
1.4764404 4.4513912 -1.7116871 4288085770
3.7416077 5.8853703 -1.7841053 4288085770
1.5999756 4.5541267 -1.7107601 4288085770
4.0462646 6.1173 -1.8043861 4288085770
1.6906433 4.6336212 -1.6997948 4288085770
4.3210754 6.3279991 -1.813633 4288085770
1.8569641 4.7626591 -1.7079372 4288085770
4.6894531 6.6023197 -1.8360004 4288085770
2.0163269 4.8876286 -1.7100677 4288085770
5.0628357 6.8786621 -1.8563805 4288085770
2.2016296 5.0277691 -1.7162418 4288085770
5.4661255 7.1741829 -1.8758068 4288085770
2.4077454 5.181057 -1.726449 4288085770
5.8295898 7.4414082 -1.8831863 4288085770
2.6636658 5.368681 -1.7447186 4288085770
6.3374329 7.8055954 -1.910759 4288085770
2.848999 5.5037842 -1.7419176 4288085770
6.8711548 8.1859303 -1.9363708 4288085770
3.1089783 5.6904049 -1.7542105 4288085770
3.4495239 5.9305782 -1.7806129 4288085770
3.7443542 6.1374054 -1.7919683 4288085770
4.0909729 6.3765793 -1.8104019 4288085770
4.4923706 6.6511078 -1.8339167 4288085770
4.8797913 6.9125214 -1.8514309 4288085770
5.3608704 7.2365494 -1.8790722 4288085770
5.7524109 7.4939442 -1.8866224 4288085770
6.2992859 7.8543739 -1.9153872 4288085770
6.8889771 8.2390652 -1.9452305 4288085770
15.397339 -1.6915197 -2.4688807 4288085770
14.043518 -1.658042 -2.3967028 4288085770
12.894745 -1.6292639 -2.3374605 4288085770
11.806885 -1.5961161 -2.2784672 4288085770
10.802979 -1.5614557 -2.2208414 4288085770
9.9491272 -1.5338287 -2.1759148 4288085770
9.15625 -1.5058241 -2.1332588 4288085770
8.4723816 -1.4831161 -2.1001101 4288085770
7.852478 -1.4610071 -2.0702505 4288085770
7.3145752 -1.4443617 -2.0487804 4288085770
14.600311 -2.4724426 -2.4509344 4288085770
6.804657 -1.4265509 -2.0264292 4288085770
13.173035 -2.3524561 -2.369031 4288085770
6.3597717 -1.4123106 -2.0123844 4288085770
11.924774 -2.2453308 -2.2989836 4288085770
5.8918457 -1.3902521 -1.9892006 4288085770
10.893585 -2.157815 -2.2459917 4288085770
5.460907 -1.3689642 -1.9671841 4288085770
9.9384155 -2.0738382 -2.1933546 4288085770
5.0820007 -1.3513279 -1.9524164 4288085770
9.1012268 -1.9991179 -2.1472855 4288085770
4.749054 -1.3383894 -1.942873 4288085770
8.3951111 -1.9385366 -2.1158638 4288085770
4.3891296 -1.3166552 -1.9241724 4288085770
7.7740173 -1.8864126 -2.0908594 4288085770
4.0752258 -1.2996159 -1.9116955 4288085770
7.1899414 -1.8340721 -2.0640182 4288085770
3.7772522 -1.2824745 -1.9002905 4288085770
6.6318359 -1.7805796 -2.0362892 4288085770
3.4803467 -1.2623415 -1.8858747 4288085770
6.1607971 -1.738513 -2.0189981 4288085770
3.2134094 -1.2450113 -1.8746071 4288085770
5.6856995 -1.691493 -1.996666 4288085770
2.9654236 -1.2285528 -1.8664265 4288085770
5.2436218 -1.6462727 -1.9744902 4288085770
2.73349 -1.2129974 -1.8583221 4288085770
4.8375549 -1.6038246 -1.9544878 4288085770
2.5135803 -1.1973648 -1.8512707 4288085770
4.4785156 -1.5660686 -1.9397154 4288085770
2.3085938 -1.1826315 -1.8462896 4288085770
4.135498 -1.5292206 -1.9240179 4288085770
2.0966492 -1.163969 -1.8352604 4288085770
3.8104858 -1.4932585 -1.9094057 4288085770
1.9137573 -1.1500931 -1.8323822 4288085770
3.5234375 -1.4620409 -1.8999834 4288085770
1.711792 -1.1303749 -1.8203907 4288085770
3.2073975 -1.4220514 -1.8793926 4288085770
1.5598145 -1.1192913 -1.8216629 4288085770
2.9603577 -1.3945847 -1.8721647 4288085770
1.3788452 -1.1004353 -1.8117695 4288085770
2.7353516 -1.368969 -1.8680449 4288085770
1.2509155 -1.0911951 -1.8161564 4288085770
2.5123291 -1.34235 -1.8619299 4288085770
1.0989685 -1.0751362 -1.8124065 4288085770
2.2553101 -1.3049984 -1.8426132 4288085770
0.96102905 -1.0619822 -1.8107309 4288085770
2.0693359 -1.2831326 -1.8416834 4288085770
0.81906128 -1.0448685 -1.8060188 4288085770
1.846283 -1.250555 -1.8265409 4288085770
0.70211792 -1.0335674 -1.8084459 4288085770
1.6683044 -1.2266588 -1.8216372 4288085770
0.57913208 -1.0193243 -1.8068314 4288085770
1.5032959 -1.2036705 -1.8197966 4288085770
1.3323059 -1.1787453 -1.8119202 4288085770
1.1903076 -1.1586084 -1.8121939 4288085770
1.0493164 -1.1374722 -1.8104687 4288085770
0.91229248 -1.1153183 -1.8077564 4288085770
0.77331543 -1.0931854 -1.8030348 4288085770
0.64428711 -1.0719824 -1.8003626 4288085770
0.53131104 -1.0526705 -1.8007698 4288085770
0.6010437 0.85615921 -1.7534924 4288085770
0.72509766 0.87091923 -1.7549868 4288085770
0.84713745 0.88465309 -1.7534761 4288085770
0.98217773 0.89947796 -1.7540197 4288085770
1.1311951 0.91539383 -1.7566204 4288085770
1.2722168 0.9292469 -1.7551956 4288085770
1.4422607 0.94530487 -1.7608919 4288085770
0.5397644 0.86877918 -1.757165 4288085770
1.6092834 0.9613409 -1.7625751 4288085770
0.6628418 0.87954044 -1.7576752 4288085770
1.788269 0.97744083 -1.7653131 4288085770
0.80487061 0.89142227 -1.7622633 4288085770
1.9693298 0.99254608 -1.7660637 4288085770
0.93994141 0.90224171 -1.7618265 4288085770
2.1613464 1.0077238 -1.7678642 4288085770
1.0750122 0.91105747 -1.760397 4288085770
2.3623962 1.0229454 -1.7677059 4288085770
1.2280579 0.92199612 -1.7620411 4288085770
2.6063538 1.0424728 -1.776721 4288085770
1.3771362 0.93089676 -1.7606754 4288085770
2.8303833 1.0588408 -1.7776623 4288085770
1.5581665 0.9430275 -1.7674398 4288085770
3.089386 1.0774517 -1.78475 4288085770
1.7222595 0.95202541 -1.7671432 4288085770
3.3643799 1.0951509 -1.789916 4288085770
1.9122925 0.96319485 -1.7699528 4288085770
3.682312 1.1171455 -1.8022547 4288085770
2.0983887 0.97233677 -1.7717533 4288085770
4.03125 1.1403389 -1.8167305 4288085770
2.2814636 0.98043537 -1.7685471 4288085770
4.4431458 1.1689539 -1.8394661 4288085770
2.5604248 0.99621868 -1.7867384 4288085770
4.8969421 1.1988344 -1.8643856 4288085770
2.7585144 1.0024052 -1.782608 4288085770
5.3718262 1.2278376 -1.8874044 4288085770
3.0385132 1.0161676 -1.7948141 4288085770
5.9096069 1.2612429 -1.9146891 4288085770
3.2636108 1.022522 -1.7908049 4288085770
6.4894104 1.2959127 -1.9441586 4288085770
3.568634 1.0344334 -1.8021336 4288085770
7.1261902 1.3319416 -1.9758797 4288085770
3.8916626 1.0464544 -1.8135424 4288085770
7.750061 1.3628416 -1.9955654 4288085770
4.2905884 1.0629835 -1.8352747 4288085770
8.4648743 1.3983231 -2.0216427 4288085770
4.7514648 1.0829325 -1.8652725 4288085770
9.3765259 1.4470959 -2.0675507 4288085770
5.1504822 1.0944204 -1.8770275 4288085770
10.527008 1.5094299 -2.135479 4288085770
5.6923523 1.1148777 -1.9103909 4288085770
11.638611 1.5624418 -2.1852751 4288085770
6.2452698 1.1333809 -1.9388132 4288085770
12.989075 1.626976 -2.2481003 4288085770
6.775238 1.1456938 -1.9561586 4288085770
14.702332 1.7108564 -2.3404827 4288085770
7.5030518 1.1693363 -2.000349 4288085770
8.0780945 1.1768961 -2.0109215 4288085770
8.8140259 1.1905184 -2.0391951 4288085770
9.8287048 1.2189884 -2.0996647 4288085770
10.893494 1.2437391 -2.1543779 4288085770
12.09024 1.2683172 -2.2136908 4288085770
13.487885 1.2951727 -2.283905 4288085770
15.331329 1.337925 -2.392067 4288085770
2.4143066 -4.4488602 -0.54854965 4293729569
2.4341431 -4.4345617 -0.58857918 4293729569
2.4640198 -4.4252062 -0.62767601 4293729569
2.4918823 -4.4128637 -0.66675091 4293729569
2.5589294 -4.4242649 -0.70911217 4293729569
2.7367554 -4.430624 -0.83396053 4293729569
2.8147583 -4.4399595 -0.8763628 4293729569
2.9947815 -4.4674559 -0.96631527 4293729569
2.9914856 -4.4193354 -0.99808979 4293729569
3.1654968 -4.4400692 -0.59297371 4293729569
3.076416 -4.4256268 -1.0405092 4293729569
3.2424622 -4.4364328 -0.63031387 4293729569
8.6011353 -7.6831245 -1.8473635 4293729569
3.3293762 -4.4367285 -0.66871738 4293729569
3.2423401 -4.4272385 -1.1242838 4293729569
7.6891785 -6.9788785 -1.8120546 4293729569
3.5444336 -4.4550629 -0.74679184 4293729569
3.4994202 -4.4722328 -1.2206697 4293729569
3.6054077 -4.4783907 -1.2641869 4293729569
3.7814331 -4.4762564 -0.82598019 4293729569
6.6645813 -6.1513295 -1.7756834 4293729569
3.8372803 -4.4487677 -0.85911751 4293729569
3.7651672 -4.4540615 -1.3428192 4293729569
4.0194397 -4.4894495 -0.90413857 4293729569
6.0569153 -5.6571989 -1.7447033 4293729569
4.1243591 -4.4826374 -0.94159412 4293729569
4.0361328 -4.480978 -1.4371901 4293729569
4.293457 -4.5084095 -0.98448849 4293729569
5.6058044 -5.2600451 -1.7278738 4293729569
4.3893127 -4.4936638 -1.0198679 4293729569
4.3401489 -4.5136623 -1.5357409 4293729569
4.5594177 -4.5154152 -1.0627499 4293729569
4.4309998 -4.4949379 -1.5730772 4293729569
4.6311951 -4.48384 -1.0929413 4293729569
4.6150513 -4.5215683 -1.6270437 4293729569
4.6817932 -4.4850149 -1.6591911 4293729569
5.0243835 -4.5380239 -1.1829948 4293729569
4.7535706 -4.4494352 -1.6903648 4293729569
5.2134399 -4.5576763 -1.2249537 4293729569
4.7060547 -4.3546867 -1.6997271 4293729569
5.29422 -4.522049 -1.2541695 4293729569
4.8309326 -4.3437443 -1.739255 4293729569
5.5343628 -4.560359 -1.3024464 4293729569
4.9898682 -4.3465729 -1.7830009 4293729569
5.7494507 -4.5818405 -1.3465338 4293729569
5.1638489 -4.3522949 -1.8298302 4293729569
9.8892822 -6.3898873 -1.9096165 4293729569
5.3497925 -4.36094 -1.8777256 4293729569
6.0612488 -4.5616121 -1.4168835 4293729569
5.5457764 -4.370513 -1.9276733 4293729569
6.3504028 -4.6046038 -1.4684086 4293729569
5.7397156 -4.3761082 -1.9755936 4293729569
6.5273438 -4.5953569 -1.5041847 4293729569
5.9606628 -4.3905182 -2.0276766 4288085770
6.8014221 -4.6244507 -1.5535774 4293729569
6.1596069 -4.3910856 -2.0745983 4288085770
7.0604553 -4.6436615 -1.5978584 4293729569
6.1712036 -4.3109722 -2.0842981 4288085770
7.2563782 -4.6322966 -1.6337137 4293729569
6.1257019 -4.2052631 -2.0816231 4288085770
7.523407 -4.6474562 -1.6780138 4293729569
6.0762024 -4.0995932 -2.0759277 4288085770
7.8675232 -4.6881027 -1.7307816 4293729569
6.0367126 -3.9988556 -2.0713015 4288085770
8.2887878 -4.7522297 -1.7940111 4293729569
6.0342712 -3.9128637 -2.0729113 4288085770
8.6559143 -4.7927265 -1.8488846 4293729569
6.0098572 -3.8190346 -2.0683851 4288085770
8.7715759 -4.7319365 -1.8661518 4293729569
5.9783936 -3.7232571 -2.0618172 4288085770
8.8121338 -4.6436596 -1.8719501 4293729569
5.9891052 -3.6441927 -2.0615187 4288085770
8.9628906 -4.5936441 -1.891427 4293729569
5.9806824 -3.5572672 -2.0560961 4288085770
9.1917114 -4.5681057 -1.920372 4293729569
6.0023499 -3.4821358 -2.0558653 4288085770
9.5227356 -4.5748854 -1.9609308 4293729569
5.9949646 -3.3962145 -2.0484524 4288085770
9.8917236 -4.5894098 -2.0066996 4293729569
6.0366821 -3.3269529 -2.0493412 4288085770
10.285767 -4.6077785 -2.0526018 4293729569
6.0693665 -3.2557564 -2.0481777 4288085770
10.719849 -4.6338806 -2.1027222 4293729569
6.1000671 -3.1825829 -2.0449972 4288085770
11.158905 -4.6539621 -2.1508398 4293729569
6.1638184 -3.1211853 -2.0460215 4288085770
11.639954 -4.6797638 -2.2031784 4293729569
6.2195129 -3.054842 -2.0459871 4288085770
12.138031 -4.7054672 -2.2545929 4293729569
6.2902832 -2.9924059 -2.0460386 4288085770
12.676086 -4.7359085 -2.3092146 4293729569
6.3730164 -2.9328918 -2.0471592 4288085770
13.260193 -4.7700548 -2.366065 4288085770
6.4677429 -2.8752985 -2.0493422 4288085770
13.823212 -4.7893534 -2.4177523 4288085770
6.5625305 -2.8167076 -2.0505228 4288085770
14.41925 -4.8104477 -2.4696016 4288085770
6.6482849 -2.7561874 -2.0486536 4288085770
14.948212 -4.8080072 -2.5100374 4288085770
6.8051147 -2.7121792 -2.0581846 4288085770
15.524139 -4.8112659 -2.5527143 4288085770
6.9299011 -2.6584005 -2.0605249 4288085770
7.0707092 -2.6085176 -2.0639572 4288085770
7.2355042 -2.5614719 -2.0705118 4288085770
7.3973389 -2.510458 -2.0740356 4288085770
7.5951538 -2.4682007 -2.0827646 4288085770
7.7679443 -2.4171276 -2.0843391 4288085770
7.9677734 -2.3688736 -2.0890512 4288085770
8.2636414 -2.3399639 -2.1082926 4288085770
8.5674744 -2.3070135 -2.1255541 4288085770
8.9343567 -2.2836418 -2.1501474 4288085770
9.2902222 -2.2523556 -2.1706562 4288085770
9.6680603 -2.2209377 -2.1902666 4288085770
10.032898 -2.1816168 -2.2057819 4288085770
10.529755 -2.1614084 -2.2379913 4288085770
11.036621 -2.1351547 -2.266222 4288085770
11.526428 -2.1010332 -2.2883387 4288085770
12.082245 -2.0704775 -2.3167772 4288085770
12.73407 -2.0462942 -2.3526869 4288085770
13.408905 -2.0189781 -2.3866901 4288085770
14.288696 -2.0063066 -2.4407063 4288085770
15.067505 -1.9723415 -2.4761629 4288085770
14.963715 2.2625008 -2.3470039 4288085770
13.927032 2.2687941 -2.2931681 4288085770
12.973358 2.2706041 -2.2397346 4288085770
12.1586 2.2803288 -2.1969128 4288085770
11.471741 2.2979031 -2.1656494 4288085770
10.766968 2.3053207 -2.1243467 4288085770
10.155151 2.3163519 -2.0904608 4288085770
9.576355 2.3265877 -2.0567303 4288085770
9.1064453 2.3475561 -2.0344582 4288085770
8.6835022 2.368825 -2.0144033 4288085770
8.2845459 2.3912477 -1.9954538 4288085770
7.943573 2.4170523 -1.9807596 4288085770
7.6535339 2.4492025 -1.9722748 4288085770
7.3315735 2.4721203 -1.9556808 4288085770
7.0655823 2.5014095 -1.9453192 4288085770
15.361816 4.1459789 -2.3336353 4288085770
6.8215332 2.5328484 -1.9370499 4288085770
14.777893 4.1622429 -2.3138561 4288085770
6.5625916 2.5581665 -1.9227371 4288085770
14.019379 4.135313 -2.2704554 4288085770
6.324585 2.5856247 -1.9105139 4288085770
13.296875 4.1075974 -2.224225 4288085770
6.0875854 2.6100807 -1.8963079 4288085770
12.745056 4.1110287 -2.1966496 4288085770
5.8805847 2.63974 -1.8862181 4288085770
12.316132 4.1322765 -2.1805687 4288085770
5.6745911 2.6663933 -1.8731461 4288085770
11.861267 4.1443329 -2.1574059 4288085770
5.4905701 2.6961956 -1.8621616 4288085770
11.439392 4.1585999 -2.1353874 4288085770
5.3085632 2.7240067 -1.8511953 4288085770
11.089447 4.1833401 -2.1186571 4288085770
5.1635132 2.75807 -1.8443747 4288085770
10.643707 4.1794186 -2.0876064 4288085770
5.0085144 2.7890549 -1.8345203 4288085770
10.344696 4.2114868 -2.0730791 4288085770
4.8624573 2.8200989 -1.824708 4288085770
10.068695 4.2447071 -2.0606556 4288085770
4.7283936 2.85322 -1.8159409 4288085770
9.8016663 4.2759724 -2.0462809 4288085770
4.6013794 2.886385 -1.8072071 4288085770
9.5975037 4.3236618 -2.0381269 4288085770
4.5012512 2.9267387 -1.8025665 4288085770
9.3684692 4.3611774 -2.0259018 4288085770
4.4061279 2.9661217 -1.7979546 4288085770
9.2132263 4.4171829 -2.0209379 4288085770
4.3230286 3.0095844 -1.7943792 4288085770
9.0679932 4.4752579 -2.0170126 4288085770
4.257843 3.057169 -1.7928696 4288085770
8.9208069 4.531311 -2.0110855 4288085770
4.1737366 3.0986176 -1.7872982 4288085770
8.8225098 4.6026897 -2.0093203 4288085770
4.1055908 3.1441708 -1.7827845 4288085770
8.6633606 4.6516476 -1.9983692 4288085770
4.0544128 3.1938438 -1.7813311 4288085770
8.5510864 4.7149181 -1.9925737 4288085770
3.9932861 3.2414398 -1.7768402 4288085770
8.4927063 4.7955551 -1.9929523 4288085770
3.9560547 3.2962036 -1.7764301 4288085770
8.4483032 4.8812866 -1.9943743 4288085770
3.9138489 3.3479271 -1.7740078 4288085770
8.3769531 4.9558182 -1.9897194 4288085770
3.8856201 3.4057484 -1.7736254 4288085770
8.3535156 5.0486813 -1.9912081 4288085770
3.8803101 3.4707241 -1.7763186 4288085770
8.3051453 5.1303577 -1.9866285 4288085770
3.8640442 3.5326195 -1.7759733 4288085770
8.3006287 5.2303371 -1.9881735 4288085770
3.8577881 3.5975819 -1.7766628 4288085770
8.288147 5.3262577 -1.9876995 4288085770
3.8454895 3.6604977 -1.7753325 4288085770
8.2657471 5.417099 -1.983201 4288085770
3.8471985 3.7285061 -1.7750444 4288085770
8.2522583 5.5129929 -1.9787226 4288085770
3.8538513 3.8005505 -1.7757616 4288085770
8.2817078 5.6271839 -1.9793644 4288085770
3.857605 3.8705673 -1.7744761 4288085770
8.422699 5.7891369 -1.9953146 4288085770
3.8692322 3.943634 -1.7732124 4288085770
8.4551086 5.9063301 -1.9929571 4288085770
3.874939 4.014658 -1.7709312 4288085770
8.5134583 6.0337009 -1.9936752 4288085770
3.9005737 4.0938168 -1.7707052 4288085770
8.5807495 6.1681175 -1.992404 4288085770
3.9501038 4.1851425 -1.774538 4288085770
8.6649475 6.3096485 -1.9931803 4288085770
4.0006409 4.2764683 -1.7773762 4288085770
8.8448792 6.4978352 -2.0061979 4288085770
4.0730896 4.3809471 -1.7832594 4288085770
9.0576172 6.706234 -2.0212822 4288085770
4.1276245 4.4772892 -1.7830944 4288085770
9.2623901 6.9115715 -2.032341 4288085770
4.1910706 4.5776939 -1.7849522 4288085770
9.4303284 7.1026402 -2.0362921 4288085770
4.3233032 4.713583 -1.7989759 4288085770
9.6091919 7.299778 -2.0392656 4288085770
4.4475403 4.8474102 -1.8099709 4288085770
9.9085999 7.5627422 -2.0585146 4288085770
4.6046448 5.0004597 -1.825037 4288085770
10.211975 7.8297062 -2.0727654 4288085770
4.7338562 5.1403027 -1.8330288 4288085770
10.595032 8.1432133 -2.0961819 4288085770
4.9049072 5.3034401 -1.848115 4288085770
5.0629883 5.4614716 -1.8571625 4288085770
5.2210693 5.6215038 -1.8662014 4288085770
5.3821411 5.7845325 -1.8712425 4288085770
5.5621643 5.9606991 -1.8793135 4288085770
5.7540894 6.1449318 -1.886405 4288085770
5.9599915 6.3382549 -1.8935223 4288085770
6.2116394 6.5608826 -1.9047232 4288085770
6.5459595 6.8350868 -1.9290857 4288085770
6.8294983 7.0829124 -1.9393272 4288085770
7.0751953 7.3094559 -1.9394836 4288085770
7.4573059 7.6199417 -1.9599113 4288085770
7.853302 7.9435101 -1.9783459 4288085770
14.918304 -0.74462795 -2.4262829 4288085770
13.294647 -0.72625637 -2.3348427 4288085770
11.958008 -0.71199131 -2.2627211 4288085770
10.803314 -0.69854069 -2.200429 4288085770
9.7425537 -0.68149376 -2.1385469 4288085770
8.8987732 -0.67198181 -2.099678 4288085770
8.1669617 -0.66273689 -2.0673199 4288085770
7.492157 -0.65412807 -2.0362234 4288085770
14.829987 -1.1791782 -2.431633 4288085770
6.8782959 -0.64312077 -2.0083914 4288085770
13.133026 -1.1063013 -2.3326359 4288085770
6.3504639 -0.63554192 -1.9869642 4288085770
11.794098 -1.0510502 -2.2613354 4288085770
5.8746033 -0.62761688 -1.9697723 4288085770
10.551147 -0.99420166 -2.1884651 4288085770
5.4017639 -0.61670208 -1.9465809 4288085770
9.5102234 -0.94701385 -2.1305485 4288085770
4.9928894 -0.60834694 -1.9316893 4288085770
8.6842346 -0.91138268 -2.0936546 4288085770
4.6070251 -0.5988512 -1.9158983 4288085770
7.9483032 -0.87916851 -2.0601826 4288085770
4.2151489 -0.58641434 -1.8950682 4288085770
7.2773743 -0.84753609 -2.0290089 4288085770
3.8772583 -0.57561111 -1.8804884 4288085770
6.6694031 -0.81849194 -2.0011292 4288085770
3.5723572 -0.56658745 -1.8690662 4288085770
6.1284485 -0.79200649 -1.9775648 4288085770
3.2644653 -0.55459785 -1.8536186 4288085770
5.648468 -0.76811409 -1.9592876 4288085770
2.9975586 -0.54532528 -1.844368 4288085770
5.206543 -0.7449789 -1.9421864 4288085770
2.7796326 -0.53870392 -1.8443489 4288085770
4.7735901 -0.72080135 -1.9211216 4288085770
2.5177612 -0.52641964 -1.8301086 4288085770
4.3756104 -0.69640064 -1.9012136 4288085770
2.2898254 -0.51590157 -1.8210287 4288085770
4.0236816 -0.67568684 -1.8865309 4288085770
2.0939331 -0.50715828 -1.8171024 4288085770
3.7407227 -0.66049004 -1.8831835 4288085770
1.9060059 -0.49836159 -1.8132124 4288085770
3.4267578 -0.63953876 -1.867671 4288085770
1.7261047 -0.48951817 -1.8093567 4288085770
3.1308594 -0.6194725 -1.8532438 4288085770
1.5631714 -0.48055553 -1.8075781 4288085770
2.8688965 -0.60117149 -1.8429785 4288085770
1.412262 -0.47251129 -1.8078585 4288085770
2.6399231 -0.58464432 -1.8368692 4288085770
1.2623291 -0.46346474 -1.8071384 4288085770
2.4059753 -0.5671587 -1.8287334 4288085770
1.1043701 -0.4524889 -1.8013744 4288085770
2.1610107 -0.54777813 -1.8125401 4288085770
0.97741699 -0.44428253 -1.8037624 4288085770
1.9840698 -0.53389645 -1.8126783 4288085770
0.84552002 -0.43513393 -1.8011236 4288085770
1.8051453 -0.51904297 -1.809804 4288085770
0.72460938 -0.42589378 -1.8025351 4288085770
1.6361694 -0.50511932 -1.8079777 4288085770
0.6116333 -0.41760063 -1.804986 4288085770
1.4911804 -0.49202919 -1.8102627 4288085770
1.3132324 -0.47519779 -1.8003836 4288085770
1.163269 -0.46016121 -1.7976398 4288085770
1.0393066 -0.44793701 -1.800024 4288085770
0.89639282 -0.43286228 -1.7953119 4288085770
0.77438354 -0.41863441 -1.7956972 4288085770
0.65542603 -0.40539265 -1.7951002 4288085770
0.55517578 1.4573107 -1.7372446 4288085770
0.66821289 1.4760208 -1.7366619 4288085770
0.78918457 1.4957895 -1.7371111 4288085770
0.9211731 1.516634 -1.739604 4288085770
1.0492249 1.5364418 -1.7390842 4288085770
1.1911926 1.5573502 -1.7416191 4288085770
1.341156 1.5793095 -1.7441874 4288085770
1.5041199 1.6033611 -1.7488031 4288085770
0.6072998 1.4286327 -1.7425652 4288085770
1.6700745 1.6264277 -1.7524366 4288085770
0.72433472 1.4423695 -1.7420216 4288085770
1.8490601 1.6505804 -1.757123 4288085770
0.85437012 1.4572029 -1.7445307 4288085770
2.0279846 1.6737242 -1.7598124 4288085770
0.9654541 1.4668846 -1.7399769 4288085770
2.2040405 1.6948385 -1.7594976 4288085770
1.1054688 1.4817829 -1.7425289 4288085770
2.4328918 1.7253408 -1.7713776 4288085770
1.2504883 1.4967089 -1.7451038 4288085770
2.5560608 1.7320395 -1.7528887 4288085770
1.3975525 1.5096483 -1.7466955 4288085770
2.7640686 1.7543669 -1.7547092 4288085770
1.5645447 1.5267239 -1.751358 4288085770
3.0219421 1.7850437 -1.7647152 4288085770
1.7196045 1.5387087 -1.7519884 4288085770
3.2439575 1.806448 -1.7636023 4288085770
1.8876343 1.5517759 -1.7526712 4288085770
3.5577698 1.8445063 -1.7798252 4288085770
2.0676575 1.5669298 -1.7564001 4288085770
3.9205322 1.8899097 -1.8032322 4288085770
2.2487183 1.5790854 -1.7581434 4288085770
4.2493896 1.9250517 -1.8165321 4288085770
2.4816589 1.6006174 -1.7710772 4288085770
4.5962219 1.9613075 -1.828907 4288085770
2.612854 1.6003819 -1.7556534 4288085770
5.0409241 2.0122442 -1.8556528 4288085770
2.8328857 1.6147938 -1.7595606 4288085770
5.5036621 2.0622921 -1.8814812 4288085770
3.0718689 1.6313419 -1.7675409 4288085770
5.9693909 2.1083393 -1.902339 4288085770
3.322876 1.646965 -1.774579 4288085770
6.4960632 2.1617947 -1.9284344 4288085770
3.6377869 1.6710415 -1.7928638 4288085770
7.06073 2.2164993 -1.9556923 4288085770
3.9776611 1.6972895 -1.814249 4288085770
7.5995178 2.2629881 -1.9718685 4288085770
4.2935791 1.7153435 -1.8255625 4288085770
8.2252197 2.3170652 -1.9953976 4288085770
4.641571 1.7356176 -1.8410082 4288085770
8.9438171 2.3807669 -2.0272951 4288085770
5.0543823 1.7643423 -1.8657045 4288085770
9.7743225 2.4552126 -2.0666409 4288085770
5.4802856 1.7891407 -1.8874741 4288085770
10.722717 2.539444 -2.1144657 4288085770
5.9281616 1.8140783 -1.9093399 4288085770
11.814026 2.6366215 -2.170866 4288085770
6.4349976 1.8434162 -1.9374466 4288085770
13.05423 2.7437725 -2.23388 4288085770
6.9528809 1.8678102 -1.9616241 4288085770
14.588135 2.8808975 -2.321063 4288085770
7.4588013 1.8870993 -1.9797668 4288085770
8.00177 1.9046326 -1.9990816 4288085770
8.6206665 1.9276743 -2.0247068 4288085770
9.3934021 1.9617615 -2.0659657 4288085770
10.174225 1.9898796 -2.1022825 4288085770
11.135895 2.0312176 -2.1553402 4288085770
12.09964 2.0615368 -2.2004538 4288085770
13.185364 2.0956612 -2.2520876 4288085770
14.477966 2.1381607 -2.3185968 4288085770
2.7333679 -4.4422483 -0.62190151 4293729569
2.5601501 -4.4209089 -0.73004818 4293729569
2.5361633 -4.4318962 -0.76998806 4293729569
2.4709778 -4.4131699 -0.80462074 4293729569
2.4741211 -4.4379768 -0.84673595 4293729569
2.4105835 -4.4156437 -0.54935169 4293729569
2.4075928 -4.4264889 -0.59138203 4293729569
2.2886963 -4.4013834 -1.0347614 4293729569
2.2806702 -4.4082623 -1.0767527 4293729569
2.2515564 -4.3982925 -1.1145811 4293729569
2.2073975 -4.3754301 -1.1492891 4293729569
2.1973572 -4.375329 -1.1892433 4293729569
2.1953125 -4.3771687 -1.2312393 4293729569
2.1872864 -4.3740559 -1.2711887 4293729569
2.1882019 -4.3748751 -1.3131933 4293729569
2.1851501 -4.3717299 -1.3531647 4293729569
2.1921082 -4.372508 -1.3961964 4293729569
7.1777649 -7.6641254 -1.7747297 4293729569
2.2010498 -4.3722763 -1.4382315 4293729569
6.6003723 -7.2579112 -1.7505054 4293729569
2.2149658 -4.3740082 -1.4812965 4293729569
6.1093445 -6.9081168 -1.7328949 4293729569
2.2520142 -4.3895721 -1.5295219 4293729569
5.6704712 -6.5929866 -1.7166576 4293729569
2.2408447 -4.370492 -1.56639 4293729569
2.4658203 -4.4295521 -1.2116108 4293729569
2.1443787 -4.2910404 -1.582633 4293729569
2.4677124 -4.4123831 -1.2495441 4293729569
2.0419006 -4.2056456 -1.5948267 4293729569
2.5106812 -4.4209204 -1.2947645 4293729569
2.0297241 -4.1805897 -1.6276655 4293729569
2.5626526 -4.4323969 -1.3410368 4293729569
2.0667114 -4.1861649 -1.6728487 4293729569
3.2789001 -4.8780851 -1.5180254 4293729569
2.1056824 -4.1907282 -1.7180347 4293729569
3.6218262 -5.0744486 -1.6253405 4293729569
2.1365967 -4.1883554 -1.7601566 4293729569
3.4039001 -4.9008636 -1.6196613 4293729569
2.1835632 -4.1948662 -1.806386 4293729569
2.7174377 -4.4256954 -1.5126734 4293729569
2.2255249 -4.1954126 -1.8505697 4293729569
2.7322388 -4.4044523 -1.548646 4293729569
2.2955322 -4.2127523 -1.9019461 4288085770
2.788208 -4.4069109 -1.5928974 4293729569
2.3384399 -4.2102995 -1.9451199 4288085770
2.6615601 -4.291708 -1.5958595 4293729569
2.2780457 -4.1386318 -1.9585524 4288085770
2.6272278 -4.233839 -1.617465 4293729569
2.1354675 -4.0135975 -1.945405 4288085770
2.6882019 -4.2352743 -1.6597338 4293729569
1.9968262 -3.8915443 -1.9312859 4288085770
2.7591553 -4.2396364 -1.7040586 4293729569
1.8803101 -3.783329 -1.9223213 4288085770
2.8271179 -4.2400217 -1.7473545 4293729569
1.789856 -3.6899242 -1.9185324 4288085770
2.9020386 -4.2423544 -1.7926884 4293729569
1.688385 -3.5906105 -1.9096718 4288085770
2.9759827 -4.2417021 -1.8360052 4293729569
1.6139832 -3.5080967 -1.908 4288085770
3.0649719 -4.2489452 -1.8814201 4293729569
1.5235596 -3.4157124 -1.8992157 4288085770
3.1528931 -4.2521935 -1.9268141 4288085770
1.472229 -3.3460331 -1.9016962 4288085770
3.2418823 -4.2544355 -1.972209 4288085770
1.4018555 -3.2645092 -1.8960457 4288085770
3.2195435 -4.191514 -1.9878445 4288085770
1.3314819 -3.1839886 -1.8893986 4288085770
3.1350098 -4.0910664 -1.9850521 4288085770
1.2701111 -3.1084013 -1.8848124 4288085770
3.0384521 -3.9847136 -1.9781828 4288085770
1.2178345 -3.037756 -1.8802853 4288085770
2.9519958 -3.8842974 -1.9713821 4288085770
1.17453 -2.9720421 -1.8788185 4288085770
2.8755188 -3.7898073 -1.96665 4288085770
1.1322632 -2.9073296 -1.8753605 4288085770
2.7950745 -3.6943598 -1.9578962 4288085770
1.0849915 -2.8406572 -1.869873 4288085770
2.6985779 -3.5900364 -1.9440365 4288085770
1.0507507 -2.7798882 -1.8674669 4288085770
2.6221619 -3.4975624 -1.9353132 4288085770
1.0184937 -2.7201109 -1.8640728 4288085770
2.5948486 -3.430728 -1.937911 4288085770
0.98721313 -2.662322 -1.8616915 4288085770
2.5314941 -3.3461752 -1.928278 4288085770
0.9760437 -2.61339 -1.8634357 4288085770
2.4951477 -3.2754192 -1.9258194 4288085770
0.94082642 -2.5526485 -1.8560247 4288085770
2.4498291 -3.1997385 -1.9193029 4288085770
0.9336853 -2.50669 -1.8577986 4288085770
2.4054871 -3.1240511 -1.9127893 4288085770
0.92147827 -2.4567747 -1.8565331 4288085770
2.3842163 -3.0611982 -1.91043 4288085770
0.90426636 -2.4048996 -1.8532381 4288085770
2.3589783 -2.9963808 -1.9060459 4288085770
0.90411377 -2.3609018 -1.8540506 4288085770
2.331665 -2.9305792 -1.9006481 4288085770
0.87893677 -2.3060999 -1.8457079 4288085770
2.3184204 -2.8716793 -1.8973398 4288085770
0.87573242 -2.2611275 -1.8445034 4288085770
2.3192444 -2.8186731 -1.898119 4288085770
0.88262939 -2.2200832 -1.8453588 4288085770
2.2989807 -2.7568359 -1.8907671 4288085770
0.86245728 -2.1682529 -1.836051 4288085770
2.316803 -2.7117109 -1.8936548 4288085770
0.88937378 -2.1360579 -1.8420315 4288085770
2.3135986 -2.6567516 -1.8894062 4288085770
0.89321899 -2.0940456 -1.8398685 4288085770
2.3234253 -2.608695 -1.8882456 4288085770
0.89608765 -2.0520477 -1.8357019 4288085770
2.3372192 -2.5606174 -1.8861008 4288085770
0.90997314 -2.0129652 -1.8345966 4288085770
2.3591003 -2.51548 -1.8860035 4288085770
0.93988037 -1.9817591 -1.8385935 4288085770
2.3829041 -2.4713297 -1.8859186 4288085770
0.95278931 -1.9426928 -1.8354816 4288085770
2.422821 -2.4340639 -1.8889341 4288085770
0.96768188 -1.9046125 -1.8323851 4288085770
2.4526672 -2.3918743 -1.8888836 4288085770
1.008606 -1.8763285 -1.8384418 4288085770
2.4815369 -2.3487015 -1.8868246 4288085770
1.0274963 -1.8392267 -1.8343649 4288085770
2.5284119 -2.3123932 -1.8888741 4288085770
1.0453796 -1.8011322 -1.8302803 4288085770
2.5692749 -2.2721386 -1.8878794 4288085770
1.077301 -1.7689304 -1.8302822 4288085770
2.6131592 -2.2338638 -1.8869066 4288085770
1.1132507 -1.7377033 -1.8303051 4288085770
2.6610718 -2.1965628 -1.8859558 4288085770
1.1601868 -1.7093973 -1.8323879 4288085770
2.7169495 -2.1612053 -1.8860474 4288085770
1.1881104 -1.6742373 -1.8283596 4288085770
2.7698975 -2.1248732 -1.8851223 4288085770
1.2360229 -1.6459274 -1.8294458 4288085770
2.8577881 -2.0982857 -1.8913898 4288085770
1.2879944 -1.617589 -1.8315506 4288085770
2.9317017 -2.0658045 -1.8935719 4288085770
1.3389282 -1.5892649 -1.8316498 4288085770
3.0106201 -2.0352964 -1.894783 4288085770
1.3928528 -1.5609169 -1.8327637 4288085770
3.0735474 -1.9999065 -1.8919058 4288085770
1.4438171 -1.5325966 -1.8318634 4288085770
3.1995239 -1.9810572 -1.9023714 4288085770
1.5027771 -1.504221 -1.8319979 4288085770
3.3064575 -1.9553518 -1.9077253 4288085770
1.5516968 -1.4739275 -1.8280802 4288085770
3.4124146 -1.9286613 -1.9110708 4288085770
1.6386414 -1.4523458 -1.8343649 4288085770
3.5363464 -1.9048376 -1.9185057 4288085770
1.699646 -1.4239655 -1.8325081 4288085770
3.6282654 -1.8732615 -1.9157705 4288085770
1.8115845 -1.4081984 -1.8449259 4288085770
3.7452393 -1.8455086 -1.9171591 4288085770
1.8675537 -1.3768673 -1.839035 4288085770
3.8641968 -1.8177471 -1.9175558 4288085770
1.9545288 -1.353302 -1.8413115 4288085770
4.0001526 -1.7938566 -1.9220428 4288085770
2.0285034 -1.3258419 -1.8385143 4288085770
4.1581116 -1.7728195 -1.9286385 4288085770
2.1114502 -1.2993155 -1.83776 4288085770
4.3410645 -1.7566023 -1.9393606 4288085770
2.1914062 -1.271821 -1.8339901 4288085770
4.5100403 -1.7345009 -1.9439983 4288085770
2.3594055 -1.2626638 -1.8536787 4288085770
4.7030334 -1.7162285 -1.9527578 4288085770
2.4393616 -1.2331781 -1.8478985 4288085770
4.9040222 -1.6979084 -1.9605503 4288085770
2.5653687 -1.2133493 -1.8533602 4288085770
5.1169739 -1.6785069 -1.9693909 4288085770
2.702301 -1.1934462 -1.859868 4288085770
5.3549805 -1.6639366 -1.98036 4288085770
2.8373108 -1.1715689 -1.8633604 4288085770
5.59198 -1.6453848 -1.988308 4288085770
2.97229 -1.1496944 -1.8658514 4288085770
5.8529358 -1.6296711 -1.9983711 4288085770
3.1012878 -1.1248722 -1.8653049 4288085770
6.1439514 -1.6157484 -2.0115728 4288085770
3.2672424 -1.1057777 -1.872942 4288085770
6.4439392 -1.6017752 -2.0238132 4288085770
3.4442444 -1.0876169 -1.879632 4288085770
6.7619019 -1.586688 -2.0351267 4288085770
3.6041565 -1.0635853 -1.8812218 4288085770
7.0608826 -1.5667496 -2.0403366 4288085770
3.7941895 -1.0443401 -1.8879633 4288085770
7.4309082 -1.5543194 -2.0538883 4288085770
3.9871521 -1.0230837 -1.8927078 4288085770
7.8548889 -1.5465174 -2.0736923 4288085770
4.2131042 -1.0045986 -1.9016085 4288085770
8.316925 -1.5394659 -2.0946636 4288085770
4.4580994 -0.9879837 -1.9125986 4288085770
8.8388977 -1.5340147 -2.1189022 4288085770
4.7370605 -0.97213078 -1.9277401 4288085770
9.3919373 -1.5293646 -2.1432791 4288085770
5.0020447 -0.95239353 -1.9368048 4288085770
10.056946 -1.533947 -2.1791811 4288085770
5.2819824 -0.93355656 -1.9469376 4288085770
10.801941 -1.5409966 -2.2194395 4288085770
5.5949402 -0.9145031 -1.9582119 4288085770
11.651978 -1.5513439 -2.2661676 4288085770
5.9269104 -0.89532185 -1.9705687 4288085770
12.621002 -1.5669003 -2.3194342 4288085770
6.2988892 -0.87786579 -1.9871063 4288085770
13.628998 -1.5792189 -2.369854 4288085770
6.6998596 -0.85922813 -2.0027647 4288085770
14.835022 -1.5992146 -2.4321671 4288085770
7.1358032 -0.84235191 -2.0215807 4288085770
7.6166992 -0.8241806 -2.0415878 4288085770
8.159668 -0.80759048 -2.0668707 4288085770
8.7815552 -0.79246902 -2.0975008 4288085770
9.4174805 -0.77427578 -2.1241798 4288085770
10.202362 -0.75906563 -2.1645155 4288085770
11.159241 -0.74869156 -2.2196198 4288085770
12.144073 -0.73315907 -2.2688217 4288085770
13.404816 -0.7227602 -2.3402424 4288085770
14.807587 -0.71043205 -2.4162693 4288085770
14.676514 -0.10873508 -2.3901472 4288085770
12.963043 -0.10412025 -2.295249 4288085770
11.570496 -0.10035706 -2.2220182 4288085770
10.353882 -0.095433235 -2.1566925 4288085770
9.3482056 -0.091090202 -2.1064625 4288085770
8.4984741 -0.086698532 -2.0680399 4288085770
7.7417297 -0.081693649 -2.0340967 4288085770
15.284027 -0.23869514 -2.4268894 4288085770
7.0549316 -0.076231956 -2.002512 4288085770
13.396454 -0.20925426 -2.3189754 4288085770
6.4511414 -0.070216179 -1.9753561 4288085770
11.897766 -0.18520069 -2.2391014 4288085770
5.932312 -0.06462574 -1.9556427 4288085770
10.618073 -0.16269588 -2.1703691 4288085770
5.4274902 -0.05796051 -1.9329948 4288085770
9.5573425 -0.14372635 -2.1157856 4288085770
4.9776611 -0.050931931 -1.912632 4288085770
8.7105103 -0.12731075 -2.0793238 4288085770
4.5518494 -0.04375267 -1.8913937 4288085770
7.8786926 -0.10982895 -2.0359316 4288085770
4.1619873 -0.036334991 -1.8723373 4288085770
7.2198181 -0.095158577 -2.0104513 4288085770
3.8111267 -0.028654099 -1.8564844 4288085770
6.5930176 -0.080307007 -1.9801359 4288085770
3.4792786 -0.020850182 -1.8407288 4288085770
6.0611267 -0.066804886 -1.9593182 4288085770
3.2053833 -0.01363945 -1.8332758 4288085770
5.557251 -0.054138184 -1.935648 4288085770
2.9235535 -0.0055084229 -1.8197775 4288085770
5.096405 -0.040185928 -1.9141951 4288085770
2.6886597 0.0019578934 -1.8135262 4288085770
4.6885376 -0.027873993 -1.8970261 4288085770
2.4866943 0.0086688995 -1.8144474 4288085770
4.3036804 -0.014415741 -1.8799696 4288085770
2.2208862 0.017875671 -1.7950268 4288085770
3.922821 -0.001958847 -1.8569374 4288085770
2.0519409 0.024802208 -1.7971201 4288085770
3.6059265 0.0099573135 -1.8452406 4288085770
1.875 0.032662392 -1.7961664 4288085770
3.3119812 0.022017479 -1.8326616 4288085770
1.7180786 0.040665627 -1.798315 4288085770
3.0210876 0.034081459 -1.8170977 4288085770
1.5421448 0.049510956 -1.7923622 4288085770
2.7921753 0.045606613 -1.8148584 4288085770
1.3872375 0.057507515 -1.7905216 4288085770
2.5532532 0.057029724 -1.8055677 4288085770
1.2362976 0.066526413 -1.7876978 4288085770
2.3522949 0.06772995 -1.8024769 4288085770
1.1133728 0.074755669 -1.7920227 4288085770
2.1414185 0.079340935 -1.7943296 4288085770
1.9584961 0.091147423 -1.7903261 4288085770
1.7944946 0.10209656 -1.7904263 4288085770
1.6355591 0.11306858 -1.7885513 4288085770
1.4916077 0.12414742 -1.789753 4288085770
1.3386841 0.13514423 -1.7849092 4288085770
1.1967468 0.14722061 -1.7821178 4288085770
1.0498352 0.15825176 -1.7763052 4288085770
1.0889587 2.3148861 -1.7314491 4288085770
1.2148743 2.3446894 -1.7309618 4288085770
1.3288574 2.3703928 -1.7254324 4288085770
1.4787598 2.4073687 -1.7290373 4288085770
1.6137085 2.437211 -1.724597 4288085770
1.7706299 2.4722214 -1.7262468 4288085770
1.9105835 2.5000954 -1.7218418 4288085770
2.0645142 2.5320683 -1.719491 4288085770
1.108429 2.2220192 -1.7409515 4288085770
2.2354431 2.5671597 -1.7192125 4288085770
1.2414246 2.2468739 -1.7415247 4288085770
2.4362488 2.6114769 -1.7250481 4288085770
1.4012756 2.2789364 -1.7502031 4288085770
2.6151733 2.6456146 -1.7238169 4288085770
1.5143433 2.2926226 -1.7427235 4288085770
2.7990723 2.6797829 -1.721611 4288085770
1.662323 2.3175783 -1.7443733 4288085770
3.0757141 2.7426357 -1.7387543 4288085770
1.7893982 2.3323603 -1.7379618 4288085770
3.3364563 2.7963524 -1.7488565 4288085770
1.9284058 2.3502283 -1.7335968 4288085770
3.64505 2.8634224 -1.7681465 4288085770
2.0724487 2.3681345 -1.7302589 4288085770
3.9487305 2.9264336 -1.7814293 4288085770
2.2314758 2.3891439 -1.7289839 4288085770
4.2644043 2.9885235 -1.7957773 4288085770
2.4403076 2.4235344 -1.7399054 4288085770
4.6000366 3.0537376 -1.8092165 4288085770
2.5973816 2.4395123 -1.7346439 4288085770
5.0015259 3.1364269 -1.8339148 4288085770
2.780365 2.4616833 -1.7344875 4288085770
5.4319763 3.222311 -1.8597498 4288085770
2.9753723 2.4849415 -1.7363892 4288085770
5.8913574 3.3123798 -1.8857155 4288085770
3.2062073 2.5164642 -1.7454376 4288085770
6.4047241 3.4138241 -1.9179087 4288085770
3.4810181 2.5582962 -1.7606668 4288085770
6.920105 3.5082531 -1.9441442 4288085770
3.743866 2.5940285 -1.7708626 4288085770
7.416626 3.5925255 -1.962327 4288085770
4.0107422 2.6267796 -1.7800922 4288085770
7.9670715 3.6861649 -1.9857473 4288085770
4.3215027 2.6688499 -1.7965078 4288085770
8.563385 3.7861137 -2.0113764 4288085770
4.65625 2.7140865 -1.8160324 4288085770
9.2296753 3.8995361 -2.0423069 4288085770
5.0329285 2.766613 -1.8397408 4288085770
9.9539185 4.0173378 -2.0745163 4288085770
5.4116516 2.8141384 -1.8604822 4288085770
10.789917 4.1579075 -2.1172009 4288085770
5.8293152 2.8679352 -1.885397 4288085770
11.714874 4.31106 -2.16329 4288085770
6.2460632 2.9167099 -1.9073296 4288085770
12.922272 4.5221634 -2.2375755 4288085770
6.7037354 2.9687634 -1.9324598 4288085770
14.252563 4.7500858 -2.3184204 4288085770
7.161438 3.0157967 -1.9536123 4288085770
15.581024 4.9619408 -2.3873301 4288085770
7.6521301 3.0670547 -1.9769173 4288085770
8.1239319 3.1061668 -1.9941778 4288085770
8.6246948 3.1464653 -2.0125847 4288085770
9.2373352 3.2045403 -2.0434895 4288085770
9.9039001 3.2639771 -2.0776672 4288085770
10.59552 3.3225765 -2.1109781 4288085770
11.439911 3.4022255 -2.1599846 4288085770
12.282379 3.4728413 -2.2040205 4288085770
13.214813 3.5480537 -2.2525043 4288085770
14.232147 3.6268387 -2.3064089 4288085770
15.56311 3.7507858 -2.3917322 4288085770
10.886353 -4.8177891 -0.87155342 4293729569
10.485229 -4.7923002 -0.88736057 4293729569
10.168213 -4.7892494 -0.90770531 4293729569
9.8081055 -4.7664909 -0.92473602 4293729569
9.525116 -4.767211 -0.94727421 4293729569
9.0757446 -4.7020569 -0.95764923 4293729569
8.8768311 -4.7242146 -0.98472118 4293729569
8.600769 -4.7138948 -1.0062437 4293729569
8.336731 -4.7034931 -1.0288296 4293729569
8.0776367 -4.6910601 -1.0514317 4293729569
7.8225708 -4.6765995 -1.0740442 4293729569
7.5383911 -4.6453457 -1.0924301 4293729569
7.1543579 -4.6505699 -1.1474667 4293729569
6.8551025 -4.6014233 -1.1636915 4293729569
6.5350952 -4.6132154 -1.2230883 4293729569
6.3847961 -4.5887003 -0.68118477 4293729569
6.3550415 -4.6062517 -1.250124 4293729569
6.244751 -4.5964336 -0.71849537 4293729569
12.506836 -7.4780126 -2.0521564 4293729569
6.1107483 -4.6031256 -0.75583267 4293729569
6.0178833 -4.5941687 -1.3063221 4293729569
5.8277893 -4.5732803 -1.3312435 4293729569
5.7614136 -4.571063 -0.82487679 4293729569
5.6957397 -4.5769892 -1.3625765 4293729569
5.558136 -4.5372353 -0.85466957 4293729569
5.5456848 -4.5698185 -1.392767 4293729569
5.4972839 -4.5694342 -0.89750099 4293729569
8.298645 -5.9750271 -1.8474731 4293729569
5.3009949 -4.5335569 -0.92832088 4293729569
5.1943359 -4.5218611 -1.4417267 4293729569
5.2240295 -4.5538645 -0.97001553 4293729569
7.1383667 -5.5547156 -1.7995348 4293729569
5.0097046 -4.5021219 -0.99666786 4293729569
4.9517517 -4.5272961 -1.0404835 4293729569
5.4326477 -4.8204288 -1.6393318 4293729569
4.6719666 -4.4846754 -1.562851 4293729569
4.681427 -4.4917259 -1.1089211 4293729569
4.6170349 -4.5088348 -1.6056776 4293729569
4.6224365 -4.508913 -1.1516943 4293729569
4.7224731 -4.6168242 -1.6787195 4293729569
4.5454102 -4.5162239 -1.1923285 4293729569
4.4599915 -4.5265017 -1.6819458 4293729569
9.0450134 -6.9651432 -1.8768711 4293729569
4.1243286 -4.392725 -1.6685925 4293729569
4.3631897 -4.5080471 -1.2693472 4293729569
3.8658142 -4.2973833 -1.669816 4293729569
4.2931519 -4.5133095 -1.3110085 4293729569
3.7727356 -4.2888422 -1.7012939 4293729569
6.9806824 -6.0278301 -1.7888794 4293729569
3.6806335 -4.2792873 -1.7337732 4293729569
4.093811 -4.4832659 -1.3828373 4293729569
3.6005554 -4.2736511 -1.767333 4293729569
4.015686 -4.476593 -1.421402 4293729569
3.5284729 -4.2719545 -1.8029518 4293729569
5.3665161 -5.2715664 -1.713048 4293729569
3.4563599 -4.2672586 -1.8385563 4293729569
4.556366 -4.8531809 -1.6259317 4293729569
3.3993225 -4.2694492 -1.8772697 4293729569
3.8153687 -4.4653349 -1.5423126 4293729569
3.3342285 -4.2647018 -1.9139109 4293729569
3.8033752 -4.4881887 -1.5913553 4293729569
3.2701416 -4.2599535 -1.9495564 4288085770
3.8214722 -4.5278111 -1.6486311 4293729569
3.1929932 -4.2443066 -1.9810848 4288085770
3.5387573 -4.3906603 -1.6425362 4293729569
3.0386353 -4.1812525 -1.9919958 4288085770
3.3020935 -4.2771854 -1.6427879 4293729569
2.8031006 -4.0668344 -1.9782495 4288085770
3.243988 -4.2653875 -1.6804333 4293729569
2.5845947 -3.9602919 -1.9676275 4288085770
3.1979065 -4.2595081 -1.7191677 4293729569
2.3580627 -3.8458338 -1.9499273 4288085770
3.1627808 -4.2565451 -1.760972 4293729569
2.1325378 -3.7293816 -1.9302235 4288085770
3.1266479 -4.2525902 -1.8017654 4293729569
1.9510803 -3.6365948 -1.9208574 4288085770
3.1015625 -4.252553 -1.8456345 4293729569
1.7876892 -3.5526733 -1.9156246 4288085770
3.0764465 -4.2515144 -1.8894997 4293729569
1.6172791 -3.462821 -1.9053278 4288085770
3.0523376 -4.2484751 -1.9323597 4288085770
1.4789429 -3.3897247 -1.9032745 4288085770
3.0281982 -4.2434311 -1.9742098 4288085770
1.3356018 -3.3116693 -1.897171 4288085770
2.895813 -4.172226 -1.9871931 4288085770
1.1982422 -3.2355833 -1.8911066 4288085770
2.6742249 -4.0437279 -1.9714527 4288085770
1.0719604 -3.164423 -1.8861227 4288085770
2.4525452 -3.914237 -1.9537048 4288085770
2.2489929 -3.7936287 -1.9370947 4288085770
2.0594177 -3.6799126 -1.9235868 4288085770
1.9020081 -3.5839672 -1.915328 4288085770
1.7485352 -3.4879999 -1.9060888 4288085770
1.6151123 -3.4038839 -1.9010077 4288085770
1.4817505 -3.3167791 -1.8939142 4288085770
1.3623657 -3.2385702 -1.8899326 4288085770
1.2480164 -3.1613369 -1.8839827 4288085770
1.1476746 -3.0909939 -1.8821373 4288085770
1.0383301 -3.0147333 -1.8752174 4288085770
1.0267944 -0.82436466 -1.8037596 4288085770
1.1027832 -0.8068819 -1.8030624 4288085770
1.1838074 -0.78936863 -1.8013926 4288085770
1.2778015 -0.77375412 -1.8037977 4288085770
1.3668518 -0.75618744 -1.8031673 4288085770
1.4668579 -0.74053669 -1.8046026 4288085770
1.5748596 -0.72483158 -1.8070774 4288085770
1.6809387 -0.70915318 -1.8065434 4288085770
1.7979431 -0.69338894 -1.8090639 4288085770
1.9139404 -0.67764759 -1.8085804 4288085770
2.0390015 -0.66283607 -1.8101473 4288085770
2.1740417 -0.64796162 -1.8117638 4288085770
1.0600281 -0.48518753 -1.8043098 4288085770
2.3590088 -0.63870335 -1.8256626 4288085770
1.1550598 -0.46958637 -1.8027191 4288085770
2.5010376 -0.6227932 -1.8253107 4288085770
1.2700806 -0.45483303 -1.805234 4288085770
2.7220154 -0.61528015 -1.8444014 4288085770
1.3821106 -0.44011402 -1.8057346 4288085770
2.8520813 -0.59548378 -1.835969 4288085770
1.5031128 -0.42532158 -1.80828 4288085770
3.0610657 -0.58508396 -1.8469849 4288085770
1.6161804 -0.40961266 -1.804781 4288085770
3.2800903 -0.57363033 -1.8560467 4288085770
1.7592163 -0.39566994 -1.8094435 4288085770
3.5281372 -0.56396675 -1.870265 4288085770
1.9042358 -0.38271904 -1.8131189 4288085770
3.7401428 -0.5495882 -1.8732767 4288085770
2.0412598 -0.36684704 -1.8117418 4288085770
3.9981384 -0.53688431 -1.8815308 4288085770
2.2262573 -0.35460472 -1.8226261 4288085770
4.3070984 -0.52780533 -1.9000616 4288085770
2.4392395 -0.34416199 -1.8376608 4288085770
4.6221313 -0.51870632 -1.9146242 4288085770
2.5603333 -0.32543659 -1.8261881 4288085770
4.9561157 -0.50847816 -1.9302778 4288085770
2.7453613 -0.31223106 -1.8290672 4288085770
5.302124 -0.49718761 -1.9429865 4288085770
2.9573669 -0.29882717 -1.8370829 4288085770
5.6851196 -0.48764038 -1.9588928 4288085770
3.1743774 -0.28540516 -1.842124 4288085770
6.1151123 -0.47777271 -1.9790373 4288085770
3.418396 -0.27278519 -1.8523064 4288085770
6.5530701 -0.46687984 -1.9932175 4288085770
3.6873779 -0.25999832 -1.8636169 4288085770
7.0680542 -0.45843887 -2.0178022 4288085770
3.9613647 -0.24718857 -1.8729515 4288085770
7.6200256 -0.44976997 -2.0405731 4288085770
4.3093567 -0.23683834 -1.8946743 4288085770
8.2589722 -0.44250202 -2.070796 4288085770
4.6523132 -0.22356033 -1.909359 4288085770
8.967926 -0.43477726 -2.1023722 4288085770
5.0322571 -0.21102047 -1.9282341 4288085770
9.7808228 -0.42834282 -2.1414852 4288085770
5.4412231 -0.19828796 -1.9472561 4288085770
10.787689 -0.42558098 -2.1966038 4288085770
5.8761902 -0.1853981 -1.9654102 4288085770
11.91452 -0.4230175 -2.2573357 4288085770
6.3211975 -0.17045879 -1.9796076 4288085770
13.246368 -0.42307663 -2.3291264 4288085770
6.8570862 -0.15688801 -2.0032721 4288085770
14.844086 -0.42534637 -2.4162807 4288085770
7.4380493 -0.14301777 -2.0281649 4288085770
8.1069641 -0.12955284 -2.0595093 4288085770
8.849823 -0.11458969 -2.0942221 4288085770
9.6986389 -0.099920273 -2.1344776 4288085770
10.73349 -0.085972786 -2.1896849 4288085770
11.914246 -0.071059227 -2.2506313 4288085770
13.349884 -0.0554142 -2.3288717 4288085770
15.14447 -0.040325165 -2.4339447 4288085770
15.42923 0.41631222 -2.4184771 4288085770
13.53183 0.41139793 -2.3112879 4288085770
12.073273 0.40950966 -2.237215 4288085770
10.775696 0.40968704 -2.1659136 4288085770
9.6651001 0.41013718 -2.1055193 4288085770
8.8043518 0.41332817 -2.0683231 4288085770
8.0465698 0.41721916 -2.0356236 4288085770
15.805969 0.58971691 -2.408433 4288085770
7.3617859 0.42159557 -2.0052776 4288085770
14.085449 0.58508968 -2.3291044 4288085770
6.7210083 0.42625141 -1.9731426 4288085770
12.534943 0.58056641 -2.2475996 4288085770
6.1771851 0.43158436 -1.9504766 4288085770
11.248322 0.57784557 -2.1833677 4288085770
5.6454163 0.4369688 -1.9218674 4288085770
10.085724 0.57593441 -2.1187344 4288085770
5.1915588 0.44290257 -1.9016342 4288085770
9.1660461 0.57770824 -2.0742607 4288085770
4.7707214 0.45005417 -1.882555 4288085770
8.3952942 0.58051968 -2.0435047 4288085770
4.3798828 0.45640087 -1.8626261 4288085770
