# .PCD v0.7 - Point Cloud Data file format
VERSION 0.7
FIELDS x y z rgb
SIZE 4 4 4 4
TYPE F F F U
COUNT 1 1 1 1
WIDTH 1127
HEIGHT 1
VIEWPOINT 0 0 0 1 0 0 0
POINTS 1127
DATA ascii
5.4343567 -1.2538328 -1.9285994 4288085770
7.7611694 -1.6538353 -2.0114145 4288085770
5.5704956 -1.2346001 -1.9322624 4288085770
7.9693298 -1.6344643 -2.0143242 4288085770
5.7096252 -1.2153568 -1.9348936 4288085770
8.2105103 -1.6200476 -2.0208654 4288085770
5.8527222 -1.1961012 -1.9364824 4288085770
8.50177 -1.6115751 -2.0358553 4288085770
6.007843 -1.1768265 -1.9389467 4288085770
8.7900085 -1.6000853 -2.0458899 4288085770
6.1790161 -1.1595354 -1.9442339 4288085770
9.1112671 -1.5905466 -2.0585699 4288085770
6.3541565 -1.1402264 -1.9474897 4288085770
9.45755 -1.5829678 -2.0729809 4288085770
6.5643616 -1.1268883 -1.9583492 4288085770
9.8549194 -1.5793228 -2.0938387 4288085770
6.753479 -1.1085491 -1.960453 4288085770
10.244171 -1.5726633 -2.1077929 4288085770
6.969635 -1.0911751 -1.9662695 4288085770
10.654449 -1.5639563 -2.1205387 4288085770
7.2108765 -1.0767727 -1.9758101 4288085770
11.095734 -1.5561953 -2.133954 4288085770
7.4650574 -1.0613441 -1.985219 4288085770
11.649139 -1.5582867 -2.1611509 4288085770
7.6921387 -1.040926 -1.9859352 4288085770
12.199554 -1.5563526 -2.1813993 4288085770
7.9873962 -1.0274296 -1.9969063 4288085770
12.82196 -1.5563021 -2.205883 4288085770
8.2886353 -1.0119095 -2.0058241 4288085770
13.550446 -1.5640898 -2.2382202 4288085770
8.6348877 -0.99833202 -2.0202608 4288085770
14.300934 -1.5678196 -2.2673473 4288085770
9.04422 -0.98866653 -2.0410204 4288085770
15.3638 -1.5961142 -2.329093 4288085770
9.4675903 -0.97897243 -2.0616331 4288085770
17.339081 -1.7042046 -2.5009279 4288085770
9.8878479 -0.96425629 -2.0762997 4288085770
10.378174 -0.95343876 -2.0972157 4288085770
10.883514 -0.9395771 -2.1149893 4288085770
11.455872 -0.92761517 -2.138051 4288085770
12.077271 -0.91555882 -2.1606016 4288085770
12.81073 -0.90633774 -2.1929655 4288085770
13.611237 -0.89699268 -2.2256279 4288085770
14.569885 -0.89040661 -2.2706223 4288085770
16.212433 -0.9169054 -2.3953094 4288085770
18.224335 -0.95083714 -2.5470972 4288085770
18.447113 2.844451 -1.1726942 4293729569
18.101898 -0.21085453 -2.5074453 4288085770
15.700958 -0.18324375 -2.325738 4288085770
14.164948 -0.16650772 -2.2289162 4288085770
13.04538 -0.15323734 -2.174715 4288085770
12.151093 -0.14266396 -2.1401405 4288085770
11.361847 -0.13192463 -2.110466 4288085770
10.653625 -0.1210537 -2.082942 4288085770
10.015442 -0.11107349 -2.0586796 4288085770
16.25119 -0.17652893 -2.3650227 4288085770
9.4352722 -0.10000134 -2.0368137 4288085770
14.392731 -0.14517879 -2.230648 4288085770
8.8850708 -0.088858604 -2.0106344 4288085770
13.331299 -0.12485981 -2.18787 4288085770
8.407959 -0.078613281 -1.9906845 4288085770
12.325806 -0.10540867 -2.1385012 4288085770
7.9938965 -0.068297386 -1.9790754 4288085770
11.541595 -0.087669373 -2.1108065 4288085770
7.6128845 -0.05892086 -1.9671154 4288085770
10.839355 -0.071795464 -2.0852423 4288085770
7.2588501 -0.048500061 -1.9558754 4288085770
10.209198 -0.055809975 -2.0629253 4288085770
6.9307861 -0.038040161 -1.9463644 4288085770
9.6099548 -0.039753914 -2.037282 4288085770
6.6228027 -0.027545929 -1.9366436 4288085770
9.0718079 -0.024603844 -2.0149956 4288085770
6.3408203 -0.018013954 -1.9286461 4288085770
8.5867004 -0.010378838 -1.9961481 4288085770
6.079834 -0.0074501038 -1.9224329 4288085770
8.1445618 0.0039205551 -1.9778509 4288085770
5.8137817 0.0031299591 -1.9102716 4288085770
7.7625122 0.017296791 -1.9659195 4288085770
5.6068726 0.013757706 -1.910491 4288085770
7.4075012 0.031710625 -1.9557095 4288085770
5.369873 0.02438736 -1.8990278 4288085770
7.0844727 0.044179916 -1.9461555 4288085770
5.1659241 0.035047531 -1.8932171 4288085770
6.7774658 0.057673454 -1.937438 4288085770
4.9709167 0.045724869 -1.887311 4288085770
6.4894409 0.071200371 -1.9285221 4288085770
4.7698975 0.056414604 -1.8764696 4288085770
6.2254639 0.083766937 -1.9203501 4288085770
4.6079712 0.066129684 -1.8752136 4288085770
5.9884644 0.096366882 -1.9148932 4288085770
4.4390259 0.076853752 -1.8690357 4288085770
5.753479 0.10898018 -1.9074163 4288085770
4.2820435 0.08759594 -1.8637323 4288085770
5.516449 0.12161255 -1.8959618 4288085770
4.143158 0.098347664 -1.8632412 4288085770
5.3165283 0.13427544 -1.891118 4288085770
4.0032043 0.10911083 -1.8597593 4288085770
5.1195068 0.14695454 -1.884244 4288085770
4.9325256 0.15865135 -1.8772593 4288085770
4.7605591 0.17137241 -1.8711233 4288085770
4.5935974 0.1841011 -1.864934 4288085770
4.4406433 0.19684601 -1.8605976 4288085770
4.2856445 0.208601 -1.8532791 4288085770
4.1457214 0.22136879 -1.8488073 4288085770
4.0037231 0.23314857 -1.8413515 4288085770
3.869751 0.24593735 -1.8348169 4288085770
3.5849609 2.3300133 -1.7818813 4288085770
3.7191162 2.3781967 -1.7907104 4288085770
3.8421936 2.4193935 -1.7926216 4288085770
3.9823303 2.467598 -1.7993889 4288085770
4.129425 2.5168104 -1.8060884 4288085770
4.272522 2.5630302 -1.8108149 4288085770
4.4306335 2.6142683 -1.8164082 4288085770
4.5957336 2.6655092 -1.8239288 4288085770
3.6032104 2.2938881 -1.8035307 4288085770
4.7758484 2.7217789 -1.8313169 4288085770
3.6831665 2.3090763 -1.7917681 4288085770
4.9579468 2.77705 -1.8386784 4288085770
3.8624268 2.3662825 -1.81217 4288085770
5.1480713 2.8343325 -1.8469677 4288085770
3.964447 2.388483 -1.8052101 4288085770
5.3501892 2.8936396 -1.8541403 4288085770
4.1125793 2.427701 -1.8118505 4288085770
5.5552979 2.9509573 -1.8602715 4288085770
4.2556763 2.4639225 -1.8155298 4288085770
5.7753601 3.013299 -1.8672705 4288085770
4.4198303 2.5061579 -1.8240175 4288085770
6.0075073 3.0766468 -1.8761501 4288085770
4.578949 2.5454035 -1.8285437 4288085770
6.2456055 3.1410179 -1.8829699 4288085770
4.7380371 2.5816603 -1.8310556 4288085770
6.4877014 3.2034035 -1.8877411 4288085770
4.9231873 2.6259336 -1.8393335 4288085770
6.7467651 3.2688179 -1.8933468 4288085770
5.0942688 2.6632023 -1.8427248 4288085770
7.0218811 3.3382473 -1.9008055 4288085770
5.3034363 2.7125025 -1.853776 4288085770
7.3389893 3.4207249 -1.913887 4288085770
5.5246582 2.7648163 -1.8667173 4288085770
7.6461182 3.4952049 -1.9220352 4288085770
5.7367554 2.8101349 -1.8747177 4288085770
7.9882202 3.5787334 -1.9338617 4288085770
5.9428711 2.8504629 -1.8787584 4288085770
8.3432922 3.6632843 -1.9445562 4288085770
6.1589355 2.8918152 -1.8816929 4288085770
8.7454224 3.7598953 -1.9598122 4288085770
6.3940735 2.9371796 -1.8884535 4288085770
9.173584 3.860548 -1.9758234 4288085770
6.6271973 2.97855 -1.893219 4288085770
9.6357422 3.969244 -1.9945164 4288085770
6.8883057 3.0269537 -1.9007235 4288085770
10.174957 4.098032 -2.0215006 4288085770
7.1754761 3.0813885 -1.9119854 4288085770
10.672089 4.2068062 -2.0368299 4288085770
7.4275513 3.1208038 -1.9135418 4288085770
11.271271 4.3427067 -2.0622225 4288085770
7.738739 3.175272 -1.9255524 4288085770
11.943481 4.4966946 -2.0949383 4288085770
8.0699463 3.2327709 -1.9383707 4288085770
12.679718 4.6617832 -2.1300392 4288085770
8.4190979 3.2932968 -1.952013 4288085770
13.525055 4.855011 -2.1751356 4288085770
8.7843018 3.3528481 -1.966486 4288085770
14.25415 5.001152 -2.1962194 4288085770
9.1674805 3.4144344 -1.9797792 4288085770
15.080322 5.1684265 -2.2243919 4288085770
9.5646667 3.4750366 -1.9939232 4288085770
16.513947 5.5064087 -2.3220367 4288085770
10.025909 3.5507164 -2.0154686 4288085770
18.337799 5.9438953 -2.4540825 4288085770
10.4711 3.6134014 -2.0301208 4288085770
10.955292 3.6841412 -2.0474024 4288085770
11.503601 3.7649555 -2.0720654 4288085770
12.028809 3.8327637 -2.0889053 4288085770
12.648102 3.9206829 -2.1168604 4288085770
13.272369 4.0016327 -2.1397305 4288085770
13.978638 4.0946884 -2.1697998 4288085770
14.693939 4.1807785 -2.1957426 4288085770
15.885651 4.3754101 -2.2792311 4288085770
17.370636 4.624403 -2.3919201 4288085770
18.135895 3.1946468 -1.5380812 4293729569
18.029541 3.0527782 -1.4695129 4293729569
17.979248 2.9189806 -1.4073982 4293729569
18.449585 2.4636345 -1.2193079 4293729569
18.419403 2.3298206 -1.1669827 4293729569
18.444275 2.1990862 -1.1180983 4293729569
15.210052 -5.0057898 -1.0354652 4293729569
14.817383 -5.0015731 -1.0585871 4293729569
14.378632 -4.9744129 -1.0772982 4293729569
14.028992 -4.9721317 -1.1019611 4293729569
13.619202 -4.9429245 -1.1213799 4293729569
13.19043 -4.9027376 -1.1380501 4293729569
12.908813 -4.906353 -1.1649742 4293729569
12.57312 -4.8880367 -1.1875677 4293729569
12.305542 -4.8896351 -1.2163553 4293729569
12.026886 -4.8822393 -1.242301 4293729569
11.74823 -4.8698387 -1.267271 4293729569
11.449554 -4.8464575 -1.2895031 4293729569
11.233948 -4.8499765 -1.3197384 4293729569
10.963318 -4.8295603 -1.3446636 4293729569
10.839081 -4.8218679 -0.74395752 4293729569
10.683594 -4.8001461 -1.3667259 4293729569
10.565491 -4.7915001 -0.77796173 4293729569
17.304504 -7.584074 -2.1923218 4293729569
10.434113 -4.81394 -0.82122803 4293729569
10.29245 -4.799118 -1.4278183 4293729569
10.125427 -4.76161 -0.85070229 4293729569
10.076813 -4.7856207 -1.4551344 4293729569
10.057098 -4.8059692 -0.89920616 4293729569
9.8822327 -4.7791014 -1.485199 4293729569
9.8205261 -4.7775383 -0.9328146 4293729569
12.541962 -6.0076771 -1.9005737 4293729569
9.6330261 -4.7660456 -0.97082996 4293729569
9.519104 -4.7660294 -1.5470572 4293729569
9.3334656 -4.7524853 -1.5750618 4293729569
9.2819824 -4.745018 -1.0465994 4293729569
10.520142 -5.358655 -1.8107834 4293729569
9.1144714 -4.7334852 -1.0834055 4293729569
9.0003052 -4.7343645 -1.6376295 4293729569
8.9780273 -4.7329197 -1.1238365 4293729569
8.8206787 -4.7148094 -1.6655998 4293729569
8.8465271 -4.7313452 -1.1642189 4293729569
8.8305054 -4.7830868 -1.7241745 4293729569
8.7451172 -4.8024464 -1.7669754 4293729569
8.5505066 -4.7082205 -1.2394247 4293729569
8.3518677 -4.6730576 -1.7557001 4293729569
13.431183 -7.1194005 -1.9229631 4293729569
8.0568848 -4.5865755 -1.7591934 4293729569
8.2604675 -4.6760778 -1.3126116 4293729569
7.7568054 -4.4910831 -1.7587843 4293729569
8.1619873 -4.6784515 -1.353631 4293729569
7.6171875 -4.4734631 -1.7873287 4293729569
8.0856018 -4.6908092 -1.3993721 4293729569
7.4986267 -4.4638271 -1.8196135 4293729569
10.451355 -5.9308882 -1.8147602 4293729569
7.420166 -4.4711552 -1.8584003 4293729569
7.8746338 -4.6795673 -1.4796333 4293729569
7.330658 -4.472497 -1.8963308 4293729569
7.2150879 -4.4578505 -1.9276094 4293729569
8.2622986 -4.9688153 -1.6602125 4293729569
7.1335754 -4.4581776 -1.9654608 4293729569
7.5972595 -4.665658 -1.6036043 4293729569
7.045105 -4.4535093 -2.0014095 4288085770
7.6141052 -4.7139282 -1.6632013 4293729569
6.9395142 -4.4378538 -2.0345888 4288085770
7.6419983 -4.7672033 -1.7276592 4293729569
6.7275391 -4.3632383 -2.0391598 4288085770
7.3388672 -4.6427155 -1.7274199 4293729569
6.4583435 -4.2526369 -2.0275002 4288085770
7.0367432 -4.5142107 -1.7241907 4293729569
6.1981201 -4.1440172 -2.0147362 4288085770
6.8458862 -4.4426146 -1.7405272 4293729569
5.9830627 -4.0573673 -2.0113964 4288085770
6.7854309 -4.4399261 -1.7821741 4293729569
5.7498474 -3.9567051 -1.9993124 4288085770
6.723999 -4.4342394 -1.8238468 4293729569
5.5477905 -3.8700218 -1.9938383 4288085770
6.6665344 -4.428545 -1.8654766 4293729569
5.3356018 -3.7763329 -1.9835014 4288085770
6.6291504 -4.4318361 -1.9108543 4293729569
5.1394653 -3.6876202 -1.9739733 4288085770
6.5837097 -4.4291306 -1.9543457 4288085770
4.9674072 -3.6108904 -1.9691381 4288085770
6.5422668 -4.4274235 -1.9987879 4288085770
4.7862549 -3.5261574 -1.9604349 4288085770
6.4335938 -4.3847351 -2.0241318 4288085770
4.6262207 -3.4513969 -1.9534645 4288085770
6.1994324 -4.2700939 -2.0161247 4288085770
4.4610901 -3.3716412 -1.94557 4288085770
5.9692078 -4.1544342 -2.0060825 4288085770
4.3291016 -3.3088655 -1.9452486 4288085770
5.7550659 -4.0457582 -1.997839 4288085770
4.1940613 -3.2420759 -1.940979 4288085770
5.552887 -3.941062 -1.9894505 4288085770
4.0559998 -3.1732883 -1.93575 4288085770
5.3607483 -3.8403521 -1.9819393 4288085770
3.9158936 -3.0994825 -1.9265661 4288085770
5.1836243 -3.7456198 -1.9752426 4288085770
3.803894 -3.0416679 -1.9250126 4288085770
5.0114746 -3.6518755 -1.9674892 4288085770
3.6808167 -2.9758425 -1.917613 4288085770
4.8544006 -3.5661192 -1.9625397 4288085770
3.573822 -2.9180164 -1.9150085 4288085770
4.7002869 -3.4793444 -1.954565 4288085770
4.5542297 -3.395565 -1.948493 4288085770
4.4100952 -3.3127699 -1.9403944 4288085770
4.2880554 -3.2399645 -1.9370184 4288085770
4.1699829 -3.1681452 -1.9325943 4288085770
4.0498962 -3.0943203 -1.9262028 4288085770
3.9398804 -3.0254879 -1.9216833 4288085770
3.8327942 -2.9566402 -1.9151306 4288085770
3.7337646 -2.8917942 -1.9114761 4288085770
3.6578064 -2.8389378 -1.9135237 4288085770
3.5577393 -2.7710619 -1.9038944 4288085770
4.1524048 -0.79337788 -1.869338 4288085770
4.2545166 -0.7782259 -1.8713503 4288085770
4.3696899 -0.76506901 -1.8762178 4288085770
4.4788208 -0.75090694 -1.8781538 4288085770
4.5939331 -0.73572922 -1.8790312 4288085770
4.7271118 -0.72354698 -1.8847075 4288085770
4.8552246 -0.70935822 -1.8874445 4288085770
5.0003967 -0.6961565 -1.8930016 4288085770
5.1455688 -0.68293762 -1.8955584 4288085770
5.2996826 -0.67071438 -1.9000158 4288085770
4.0961609 -0.51655293 -1.8732758 4288085770
5.4698792 -0.65847301 -1.9063082 4288085770
4.20224 -0.50238705 -1.8732433 4288085770
5.6540833 -0.64721489 -1.9134493 4288085770
4.3404541 -0.49119854 -1.8798628 4288085770
5.8743591 -0.63793278 -1.9282064 4288085770
4.4786377 -0.47900677 -1.8854866 4288085770
6.0404053 -0.62265778 -1.9255543 4288085770
4.6217957 -0.46580887 -1.8910646 4288085770
6.2796936 -0.61333561 -1.9381151 4288085770
4.7498779 -0.45259476 -1.8887968 4288085770
6.5048828 -0.60101414 -1.9458361 4288085770
4.8980103 -0.43937302 -1.8913231 4288085770
6.7310181 -0.58866882 -1.9495468 4288085770
5.1062927 -0.43013191 -1.9102049 4288085770
6.9842224 -0.57729435 -1.9559717 4288085770
5.2433472 -0.41488266 -1.9038553 4288085770
7.2634277 -0.56589317 -1.9651279 4288085770
5.4144897 -0.40162277 -1.9061422 4288085770
7.5386047 -0.55347538 -1.9703283 4288085770
5.6327515 -0.39133167 -1.9179258 4288085770
7.8477783 -0.54301739 -1.9781675 4288085770
5.8309021 -0.3790369 -1.9219265 4288085770
8.1920471 -0.53252506 -1.9906416 4288085770
6.0390625 -0.36672115 -1.9258242 4288085770
8.5582581 -0.52198601 -2.0008888 4288085770
6.2902832 -0.3563776 -1.9372663 4288085770
9.0006104 -0.51537323 -2.0213261 4288085770
6.5154419 -0.34303093 -1.939992 4288085770
9.4880066 -0.50769711 -2.044302 4288085770
6.7996826 -0.33162689 -1.9510946 4288085770
9.9993896 -0.49997425 -2.0650282 4288085770
7.0678101 -0.31921864 -1.955369 4288085770
10.551727 -0.49217987 -2.0853271 4288085770
7.3820801 -0.30776787 -1.9661617 4288085770
11.153107 -0.48432159 -2.108119 4288085770
7.6992798 -0.29629707 -1.9739227 4288085770
11.829529 -0.47735691 -2.1341267 4288085770
8.0524902 -0.28478622 -1.9853096 4288085770
12.590973 -0.47126579 -2.1632452 4288085770
8.4517822 -0.27421474 -2.0002146 4288085770
13.474487 -0.46600723 -2.1980934 4288085770
8.8990784 -0.26358223 -2.0176201 4288085770
14.500153 -0.46356583 -2.2434511 4288085770
9.3964844 -0.25288582 -2.039506 4288085770
16.278809 -0.48133278 -2.3768921 4288085770
9.9408264 -0.2431221 -2.0628996 4288085770
10.5242 -0.23228931 -2.0848932 4288085770
11.163574 -0.22136593 -2.1073055 4288085770
11.882019 -0.21033478 -2.1338978 4288085770
12.662445 -0.1992054 -2.1608458 4288085770
13.678101 -0.1908102 -2.2113371 4288085770
14.777771 -0.18126392 -2.2589626 4288085770
16.844696 -0.1826973 -2.4194918 4288085770
17.715851 0.4281292 -2.4743195 4288085770
15.565338 0.42069912 -2.3154001 4288085770
14.129517 0.42199993 -2.2295008 4288085770
13.050079 0.42768097 -2.1751204 4288085770
12.171753 0.43558121 -2.138773 4288085770
11.403564 0.44361591 -2.1073465 4288085770
10.750397 0.45277977 -2.084796 4288085770
10.130249 0.46199703 -2.0599194 4288085770
16.688385 0.72495651 -2.3794975 4288085770
9.5761108 0.47030258 -2.0363932 4288085770
14.686951 0.69572353 -2.2250385 4288085770
9.0830078 0.47967148 -2.0182705 4288085770
13.657593 0.69643402 -2.1831493 4288085770
8.6168823 0.48808956 -1.9978809 4288085770
12.772369 0.69831562 -2.1488504 4288085770
8.2108765 0.49856663 -1.9839087 4288085770
12.027161 0.70335865 -2.1241865 4288085770
7.8388062 0.5090847 -1.9716024 4288085770
11.271973 0.7054224 -2.0906124 4288085770
7.5048523 0.51964378 -1.962924 4288085770
10.686859 0.71266174 -2.0733862 4288085770
7.1898193 0.53023624 -1.9520588 4288085770
10.104706 0.7179327 -2.0491228 4288085770
6.8937988 0.53985405 -1.9420023 4288085770
9.5905762 0.72428036 -2.0291967 4288085770
6.6338196 0.5515089 -1.9356012 4288085770
9.1205139 0.73068142 -2.0118389 4288085770
6.3838806 0.56317329 -1.9301014 4288085770
8.6894226 0.7381382 -1.9941015 4288085770
6.1749573 0.5758791 -1.929203 4288085770
8.3074036 0.74664402 -1.9818869 4288085770
5.9550171 0.58758163 -1.9244089 4288085770
7.9353333 0.75417709 -1.9655704 4288085770
5.6989136 0.59529018 -1.904954 4288085770
7.6073303 0.76275444 -1.9548244 4288085770
5.5050049 0.60702705 -1.9009047 4288085770
7.3223877 0.7733717 -1.9486656 4288085770
5.3049927 0.61678219 -1.8899078 4288085770
7.0463562 0.78401089 -1.9404173 4288085770
5.1340332 0.62854862 -1.886632 4288085770
6.7914429 0.79467297 -1.9339638 4288085770
4.9610596 0.64032936 -1.8793774 4288085770
6.5664978 0.80636311 -1.9312191 4288085770
4.7980957 0.65012455 -1.8720169 4288085770
6.3214722 0.81506157 -1.9186592 4288085770
4.6551819 0.66292763 -1.8694706 4288085770
6.1105347 0.82677937 -1.9137774 4288085770
4.5222778 0.6757412 -1.8678265 4288085770
5.8985596 0.83751106 -1.9049025 4288085770
4.3833313 0.68756104 -1.862237 4288085770
5.7055359 0.84826183 -1.8978395 4288085770
4.2503662 0.69939137 -1.8565893 4288085770
5.5226135 0.85902596 -1.8906784 4288085770
4.1103516 0.70922565 -1.847003 4288085770
5.3496399 0.86980247 -1.8844204 4288085770
4.0124817 0.72307301 -1.8500185 4288085770
5.1816406 0.88058853 -1.8771124 4288085770
5.0317078 0.89338589 -1.8726311 4288085770
4.8887634 0.90519619 -1.868082 4288085770
4.750824 0.91701603 -1.8634825 4288085770
4.6288757 0.93085003 -1.860734 4288085770
4.5069275 0.94368935 -1.8569822 4288085770
4.3840027 0.95552826 -1.8522358 4288085770
4.2690735 0.96838188 -1.8474159 4288085770
4.1591187 0.98124027 -1.8425465 4288085770
4.0581665 0.9951067 -1.8385916 4288085770
4.1452026 3.3257942 -1.8205605 4288085770
4.2442017 3.3839397 -1.8158035 4288085770
4.3842773 3.4630985 -1.8227205 4288085770
4.536377 3.5482674 -1.831542 4288085770
4.6924744 3.634449 -1.8383284 4288085770
4.8545532 3.7216377 -1.8450594 4288085770
5.0296326 3.8158417 -1.8526878 4288085770
5.2046814 3.907053 -1.8583059 4288085770
5.40979 4.0132828 -1.8696823 4288085770
4.0532227 3.3016281 -1.8154135 4288085770
5.5917969 4.1045189 -1.871233 4288085770
4.1873169 3.3647976 -1.8173313 4288085770
5.7938843 4.2047672 -1.8766184 4288085770
4.3294067 3.4319706 -1.8211851 4288085770
6.0309448 4.3220463 -1.8867226 4288085770
4.4954834 3.5111561 -1.8308458 4288085770
6.2529602 4.4293232 -1.8919363 4288085770
4.6695862 3.59235 -1.8404369 4288085770
6.5000305 4.5476227 -1.8999462 4288085770
4.8276978 3.6625462 -1.8441448 4288085770
6.7400513 4.6579304 -1.9029951 4288085770
5.0267944 3.7537632 -1.8565264 4288085770
7.039093 4.799284 -1.9155779 4288085770
5.2128906 3.833992 -1.8619947 4288085770
7.3481445 4.9416561 -1.9270649 4288085770
5.4150085 3.9212265 -1.8703327 4288085770
7.6902161 5.0990582 -1.9422846 4288085770
5.5899963 3.9904633 -1.8688698 4288085770
8.0412903 5.256485 -1.9544153 4288085770
5.8040771 4.0787258 -1.8750935 4288085770
8.406311 5.4179325 -1.9654236 4288085770
6.0331726 4.1719971 -1.8831873 4288085770
8.8183594 5.6004257 -1.9810457 4288085770
6.2762756 4.2702885 -1.8921623 4288085770
9.2493591 5.7879505 -1.9954996 4288085770
6.5484009 4.3796024 -1.9048939 4288085770
9.6994324 5.9795017 -2.0097828 4288085770
6.7663879 4.4579048 -1.9020405 4288085770
10.235474 6.2111359 -2.0333662 4288085770
7.0664978 4.576252 -1.9165287 4288085770
10.833527 6.4688358 -2.0614357 4288085770
7.3796082 4.6966209 -1.9298964 4288085770
11.413574 6.7095451 -2.0816212 4288085770
7.705719 4.8200092 -1.9431477 4288085770
12.09259 6.993351 -2.1099911 4288085770
8.053833 4.9484196 -1.9572001 4288085770
12.782593 7.2751942 -2.1332455 4288085770
8.4169006 5.0808506 -1.9721203 4288085770
13.677704 7.6502323 -2.1788244 4288085770
8.7969666 5.2183094 -1.9858913 4288085770
9.2000732 5.3597927 -2.000452 4288085770
9.6401672 5.5143204 -2.0176964 4288085770
10.063263 5.6548424 -2.0290556 4288085770
10.550323 5.8204327 -2.0468779 4288085770
11.105499 6.0110779 -2.0731249 4288085770
11.666595 6.195755 -2.0932894 4288085770
12.31073 6.4125099 -2.122756 4288085770
12.957855 6.6202927 -2.1471605 4288085770
13.722015 6.8701878 -2.1825676 4288085770
14.524139 7.1291313 -2.2186346 4288085770
15.514404 7.4562626 -2.2731028 4288085770
18.883484 -4.8890018 -2.724659 4288085770
17.219757 -4.5927048 -2.586134 4288085770
15.716187 -4.3182316 -2.4579535 4288085770
14.596161 -4.125412 -2.3736954 4288085770
18.727997 -5.2488308 -2.0748224 4293729569
13.80365 -4.0063076 -2.3299408 4288085770
18.189423 -5.2186913 -2.1112413 4293729569
13.107208 -3.9031076 -2.2941799 4288085770
17.618774 -5.1725717 -2.1420336 4293729569
12.490906 -3.8138266 -2.2655811 4288085770
17.257385 -5.1772523 -2.1935787 4293729569
11.904663 -3.726512 -2.2386799 4288085770
16.981079 -5.2018461 -2.2522125 4293729569
11.406464 -3.6561146 -2.2208471 4288085770
15.643005 -4.9093418 -2.1754732 4293729569
10.900238 -3.5777092 -2.1981239 4288085770
15.09317 -4.839138 -2.1911507 4293729569
10.450104 -3.510253 -2.1818085 4288085770
14.73056 -4.8167591 -2.2268066 4293729569
10.009888 -3.4397745 -2.1634064 4288085770
14.427094 -4.80933 -2.2698269 4293729569
9.5937805 -3.3712711 -2.14676 4288085770
14.114594 -4.7959061 -2.3109579 4288085770
9.1755371 -3.2977514 -2.1251526 4288085770
13.664764 -4.7315693 -2.3266296 4288085770
8.8074341 -3.2351904 -2.1100121 4288085770
13.020508 -4.5993614 -2.308466 4288085770
8.4462891 -3.1696119 -2.0928135 4288085770
12.318024 -4.4401665 -2.272975 4288085770
8.1091614 -3.1080122 -2.0783653 4288085770
11.702667 -4.3018951 -2.2475481 4288085770
7.7669983 -3.0404034 -2.0599871 4288085770
11.146393 -4.177557 -2.2254896 4288085770
7.4668884 -2.9837589 -2.0471544 4288085770
10.621063 -4.05618 -2.204114 4288085770
7.1897888 -2.9310913 -2.0360813 4288085770
10.134888 -3.9437571 -2.1843224 4288085770
6.909729 -2.8744211 -2.0230513 4288085770
9.6545715 -3.8273144 -2.1614857 4288085770
6.6356201 -2.8147345 -2.0079756 4288085770
9.2424011 -3.7298126 -2.1469088 4288085770
6.397583 -2.767024 -1.9994984 4288085770
8.8111267 -3.6203032 -2.1235647 4288085770
6.187561 -2.7262945 -1.9957209 4288085770
8.4168701 -3.5207577 -2.1038189 4288085770
5.9394836 -2.667573 -1.9803858 4288085770
8.0346985 -3.4201918 -2.0829582 4288085770
5.7434692 -2.6278238 -1.9764662 4288085770
7.6954956 -3.3325901 -2.067626 4288085770
5.5394592 -2.5810671 -1.9676514 4288085770
7.3623352 -3.2429686 -2.049243 4288085770
5.3504639 -2.5383005 -1.9616747 4288085770
7.0621643 -3.1623211 -2.0354996 4288085770
5.1614075 -2.492527 -1.9537086 4288085770
6.7660217 -3.0806599 -2.0197229 4288085770
5.0044861 -2.4577398 -1.9533873 4288085770
6.4928589 -3.0039759 -2.0056992 4288085770
4.8304443 -2.4139462 -1.9452658 4288085770
6.2537842 -2.9382677 -1.9973001 4288085770
4.668457 -2.3731432 -1.9390163 4288085770
6.0267944 -2.8745461 -1.9897757 4288085770
4.5014038 -2.3283367 -1.9298306 4288085770
5.8146973 -2.8148069 -1.9830885 4288085770
4.3574524 -2.2905159 -1.9253922 4288085770
5.6106873 -2.7560577 -1.9763193 4288085770
4.2234802 -2.2556887 -1.9228439 4288085770
5.3965759 -2.690299 -1.9636745 4288085770
4.07547 -2.2128601 -1.914463 4288085770
5.2155762 -2.6355257 -1.9586639 4288085770
5.0405884 -2.5827436 -1.9535866 4288085770
4.8735962 -2.5299473 -1.9474306 4288085770
4.7165833 -2.4801483 -1.9441652 4288085770
4.5525208 -2.4263382 -1.9349833 4288085770
4.4005127 -2.3755178 -1.9276733 4288085770
4.2735596 -2.3326874 -1.9270859 4288085770
4.1455994 -2.2888536 -1.9245119 4288085770
4.1776733 -0.024260521 -1.8719387 4288085770
4.3138733 -0.011112213 -1.8776464 4288085770
4.4500122 0.0020437241 -1.8813553 4288085770
4.591156 0.015211105 -1.8840141 4288085770
4.7342834 0.028381348 -1.8866539 4288085770
4.8924255 0.041565895 -1.8901453 4288085770
5.055603 0.054759026 -1.8935881 4288085770
5.2538147 0.06797123 -1.9036837 4288085770
4.1455078 0.099628448 -1.8777447 4288085770
5.4289246 0.08118248 -1.9060078 4288085770
4.2515564 0.11078548 -1.8707418 4288085770
5.6661987 0.094421387 -1.9217186 4288085770
4.4137573 0.12195396 -1.880187 4288085770
5.8613586 0.1066637 -1.9228401 4288085770
4.5659485 0.13312817 -1.8847294 4288085770
6.0875244 0.11992455 -1.9296608 4288085770
4.7621765 0.14431858 -1.8998365 4288085770
6.3317566 0.13420486 -1.9373064 4288085770
4.8822327 0.15550804 -1.8886976 4288085770
6.5888977 0.14750195 -1.9448195 4288085770
5.102478 0.16672134 -1.9065685 4288085770
6.8641052 0.16182423 -1.9521599 4288085770
5.2766113 0.17793846 -1.9068937 4288085770
7.1532898 0.17616367 -1.9593611 4288085770
5.4898376 0.18917274 -1.9158344 4288085770
7.4735107 0.19053364 -1.9692564 4288085770
5.70401 0.20042324 -1.9217644 4288085770
7.8167725 0.20493507 -1.9789248 4288085770
5.9161682 0.21167755 -1.924716 4288085770
8.196991 0.22036934 -1.9922304 4288085770
6.1533508 0.22195435 -1.9304152 4288085770
8.59021 0.23483181 -2.0024061 4288085770
6.4185486 0.23325634 -1.9398422 4288085770
9.0555115 0.25035477 -2.0208721 4288085770
6.6947327 0.24457932 -1.9471607 4288085770
9.5658569 0.26693344 -2.0408983 4288085770
6.9839478 0.25492001 -1.9543476 4288085770
10.125183 0.28456688 -2.0624447 4288085770
7.3092041 0.2662878 -1.9661818 4288085770
10.751587 0.30227184 -2.0883284 4288085770
7.6404114 0.27767372 -1.9749565 4288085770
11.411926 0.32103062 -2.1108809 4288085770
8.0006104 0.2881012 -1.9834414 4288085770
12.191376 0.34090614 -2.1432619 4288085770
8.4229126 0.29957581 -2.0003176 4288085770
13.042847 0.36088657 -2.1729326 4288085770
8.8641663 0.31108665 -2.0140066 4288085770
14.170593 0.3861084 -2.2328939 4288085770
9.3865662 0.32366276 -2.0378981 4288085770
15.589539 0.4156189 -2.3159971 4288085770
9.9318848 0.33528042 -2.0585594 4288085770
17.595093 0.45468235 -2.4533443 4288085770
10.565308 0.34798622 -2.0863552 4288085770
11.22467 0.36074543 -2.1088943 4288085770
11.978088 0.37260151 -2.1375008 4288085770
12.814545 0.38555241 -2.1682901 4288085770
13.916229 0.40175533 -2.224472 4288085770
15.170044 0.41912174 -2.2881584 4288085770
17.332855 0.45028305 -2.4519215 4288085770
18.83963 1.1815853 -2.5446444 4282675967
16.796234 1.1447773 -2.3958282 4288085770
15.123077 1.1153049 -2.272356 4288085770
18.961792 1.4114046 -1.8543015 4293729569
13.917389 1.1041956 -2.1953087 4288085770
18.248291 1.4483881 -1.8995523 4293729569
13.041016 1.108326 -2.1540461 4288085770
17.670837 1.4905071 -1.9504709 4293729569
12.365936 1.1206188 -2.1328154 4288085770
17.090302 1.5286551 -1.9934034 4293729569
11.692688 1.1279449 -2.1025438 4288085770
16.725983 1.580987 -2.0532427 4293729569
11.091522 1.1363363 -2.0775623 4288085770
16.547791 1.6474657 -2.1312847 4293729569
10.629517 1.1528225 -2.0692263 4288085770
16.636871 1.7381353 -2.2397642 4293729569
10.095367 1.1593018 -2.0415697 4288085770
16.963257 1.8549604 -2.3789883 4288085770
9.6482544 1.1698475 -2.0230627 4288085770
15.282135 1.7715082 -2.2483854 4288085770
9.274231 1.1844444 -2.012846 4288085770
14.320709 1.7485733 -2.1998615 4288085770
8.8981628 1.1960592 -1.9976358 4288085770
13.530487 1.7387772 -2.166688 4288085770
8.5671692 1.2097082 -1.9869871 4288085770
12.839294 1.7310762 -2.1385374 4288085770
8.2361145 1.2213755 -1.972331 4288085770
12.186157 1.725421 -2.1100178 4288085770
7.9360657 1.2330656 -1.9603653 4288085770
11.601959 1.7208366 -2.0838156 4288085770
7.6510315 1.2457743 -1.9482546 4288085770
11.142944 1.7273407 -2.0724115 4288085770
7.4150696 1.2615147 -1.942668 4288085770
10.674866 1.7288589 -2.0540781 4288085770
7.1670837 1.2742615 -1.9321899 4288085770
10.27182 1.7354355 -2.0411167 4288085770
6.9671021 1.2920341 -1.9292536 4288085770
9.8858032 1.7430325 -2.0279922 4288085770
6.7571716 1.3068161 -1.9214039 4288085770
9.5558167 1.7536707 -2.0203209 4288085770
6.5561829 1.3216038 -1.9134665 4288085770
9.2388306 1.7633333 -2.0105171 4288085770
6.3802185 1.3384094 -1.9092865 4288085770
8.9057617 1.7680016 -1.9948521 4288085770
6.2263184 1.3572292 -1.907897 4288085770
8.6057129 1.7756958 -1.9818716 4288085770
6.0794067 1.3760548 -1.9074364 4288085770
8.3226929 1.783412 -1.9687223 4288085770
5.9324646 1.3938913 -1.9039736 4288085770
8.0686951 1.7941523 -1.9582958 4288085770
5.786499 1.4107323 -1.8994961 4288085770
7.8036499 1.8008938 -1.9439621 4288085770
5.6485291 1.4285803 -1.8959417 4288085770
7.5856628 1.8136663 -1.9361858 4288085770
5.5036011 1.4434376 -1.8874474 4288085770
7.3816833 1.8274498 -1.9292736 4288085770
5.3746338 1.4603014 -1.8828001 4288085770
7.1536255 1.834239 -1.9135733 4288085770
5.2416382 1.4751711 -1.875186 4288085770
6.9867249 1.8520498 -1.9103079 4288085770
5.146759 1.4970493 -1.8762197 4288085770
6.8177185 1.8668718 -1.9040508 4288085770
5.0288086 1.512928 -1.8704605 4288085770
6.6668091 1.885705 -1.9006319 4288085770
4.9408875 1.5348148 -1.8714266 4288085770
6.5258789 1.9045448 -1.8981123 4288085770
4.8369446 1.5527134 -1.8655348 4288085770
6.3929138 1.9243984 -1.8945179 4288085770
4.7369995 1.5706081 -1.8606033 4288085770
6.2599792 1.9432545 -1.8899193 4288085770
4.64505 1.5895128 -1.8565979 4288085770
6.1500854 1.9661188 -1.8901072 4288085770
4.5510559 1.6064243 -1.8496027 4288085770
6.0511475 1.9909925 -1.8911934 4288085770
4.4771729 1.6283331 -1.8494291 4288085770
5.9342346 2.0098705 -1.8864355 4288085770
4.4022217 1.6482525 -1.8462572 4288085770
5.8372803 2.0327597 -1.8844948 4288085770
4.3313293 1.6691732 -1.8440504 4288085770
5.7453918 2.0566502 -1.8835077 4288085770
4.2513733 1.6870966 -1.8379202 4288085770
5.6634521 2.0815487 -1.8834248 4288085770
4.1964722 1.7120228 -1.8395681 4288085770
5.555481 2.0994482 -1.8755741 4288085770
4.1275024 1.7319565 -1.8343363 4288085770
5.4595337 2.1203537 -1.8696156 4288085770
4.0705566 1.7548895 -1.8329983 4288085770
5.3825989 2.1452618 -1.8684835 4288085770
4.0116272 1.7778282 -1.8296795 4288085770
5.3226624 2.1751814 -1.8702021 4288085770
5.2146606 2.1890993 -1.8573351 4288085770
5.1738281 2.2230301 -1.8618803 4288085770
5.086792 2.2429571 -1.852829 4288085770
5.0228577 2.2688932 -1.8485708 4288085770
4.9649048 2.2958317 -1.8452587 4288085770
4.9099731 2.3237715 -1.8429184 4288085770
4.8650208 2.3537188 -1.8414888 4288085770
4.8261414 2.3866692 -1.8410101 4288085770
4.7872009 2.4176235 -1.8395233 4288085770
4.7412109 2.446579 -1.8360996 4288085770
4.7123108 2.4815397 -1.8355293 4288085770
4.6844177 2.5165024 -1.8349495 4288085770
4.6494446 2.5494738 -1.8304319 4288085770
4.6224976 2.5834427 -1.8288383 4288085770
4.6115723 2.6244183 -1.8301134 4288085770
4.594696 2.6633959 -1.8294401 4288085770
4.5767212 2.7013807 -1.8267727 4288085770
4.5597534 2.7393627 -1.8240948 4288085770
4.5508118 2.7803545 -1.8223505 4288085770
4.5629578 2.8323441 -1.8264408 4288085770
4.5529785 2.8723373 -1.8237009 4288085770
4.5590515 2.9193382 -1.8238306 4288085770
4.5831604 2.9753389 -1.8288174 4288085770
4.5862122 3.021347 -1.8259726 4288085770
4.6022949 3.0733547 -1.8270216 4288085770
4.622345 3.1283684 -1.8280439 4288085770
4.6584778 3.1903896 -1.8319349 4288085770
4.7125549 3.2634106 -1.8406897 4288085770
4.70755 3.3034382 -1.8299017 4288085770
4.7596741 3.3754654 -1.8366728 4288085770
4.8077393 3.4435005 -1.8404665 4288085770
4.8527832 3.5105419 -1.8412886 4288085770
4.8998413 3.5785904 -1.841094 4288085770
4.9639282 3.6566391 -1.8457689 4288085770
5.0209656 3.7296944 -1.8464947 4288085770
5.0930481 3.811758 -1.8501062 4288085770
5.1721191 3.8978233 -1.8546638 4288085770
5.249176 3.9829025 -1.8562393 4288085770
5.3222046 4.0649796 -1.8558407 4288085770
5.4132385 4.1580677 -1.8583078 4288085770
5.5072632 4.2521572 -1.8607483 4288085770
4.0397034 3.4636688 -1.8102427 4288085770
5.6282959 4.363266 -1.8669882 4288085770
4.1358337 3.5527248 -1.8216429 4288085770
5.7163391 4.4533749 -1.8634729 4288085770
4.1898499 3.6138077 -1.8153524 4288085770
5.8544006 4.5744934 -1.871583 4288085770
4.283905 3.7008839 -1.821764 4288085770
6.0014648 4.7016277 -1.8786268 4288085770
4.3759766 3.7849636 -1.8261852 4288085770
6.167511 4.8397713 -1.888525 4288085770
4.4820557 3.8780556 -1.8325033 4288085770
6.3255615 4.9719257 -1.8934813 4288085770
4.5800781 3.9651527 -1.8348761 4288085770
6.4995728 5.1150932 -1.9003201 4288085770
4.6991882 4.0662575 -1.8410969 4288085770
6.6745911 5.2572727 -1.9041452 4288085770
4.8252563 4.1693707 -1.8472548 4288085770
6.8515625 5.4004574 -1.9069557 4288085770
4.9413147 4.2664871 -1.8494892 4288085770
7.0395508 5.5506611 -1.9076843 4288085770
5.096405 4.3876209 -1.8594303 4288085770
7.2655334 5.7238846 -1.9151249 4288085770
5.2134094 4.4827557 -1.8576469 4288085770
7.5656128 5.9451447 -1.9350195 4288085770
5.3574219 4.5939045 -1.8596582 4288085770
7.7735291 6.1053867 -1.9315891 4288085770
5.5394897 4.7310658 -1.8703947 4288085770
8.0725098 6.3236847 -1.9414835 4288085770
5.7155457 4.8612347 -1.8771629 4288085770
8.4175415 6.5720043 -1.9590378 4288085770
5.9125977 5.0054169 -1.8857775 4288085770
8.7855225 6.8343601 -1.9744139 4288085770
6.1416626 5.1696243 -1.8991499 4288085770
9.2085266 7.131752 -1.9963894 4288085770
6.3326721 5.3048325 -1.9007912 4288085770
9.6134644 7.4141541 -2.0094852 4288085770
6.5516663 5.4580536 -1.9062262 4288085770
10.120453 7.7636318 -2.0338316 4288085770
6.7676392 5.6062889 -1.90767 4288085770
7.0266418 5.7825432 -1.9157972 4288085770
7.3256836 5.9838295 -1.928627 4288085770
7.594635 6.1611195 -1.9306602 4288085770
7.9596558 6.4004555 -1.9499836 4288085770
8.3266602 6.6378098 -1.9642801 4288085770
8.7337036 6.8991966 -1.9822741 4288085770
9.1707153 7.1766186 -2.0000343 4288085770
9.6256714 7.461071 -2.0156441 4288085770
10.17569 7.8045826 -2.0425415 4288085770
18.843781 -2.6163378 -2.6437702 4288085770
17.200531 -2.4896965 -2.5255327 4288085770
15.529022 -2.3410015 -2.3866615 4288085770
14.367157 -2.2509727 -2.3055172 4288085770
13.595917 -2.2087059 -2.2733212 4288085770
12.916718 -2.1733694 -2.2491875 4288085770
12.239441 -2.1310024 -2.2180614 4288085770
11.651276 -2.0955706 -2.1950264 4288085770
11.093079 -2.0601025 -2.1716948 4288085770
10.550873 -2.0206079 -2.1462212 4288085770
17.215393 -3.20578 -2.5276279 4288085770
10.082764 -1.9890642 -2.1289825 4288085770
15.44873 -2.965167 -2.384057 4288085770
9.6617126 -1.9614868 -2.1162634 4288085770
14.301941 -2.8221579 -2.3129721 4288085770
9.1995239 -1.922904 -2.0909929 4288085770
13.391418 -2.714983 -2.2654076 4288085770
8.8204651 -1.8932734 -2.0768661 4288085770
12.585999 -2.6187172 -2.224761 4288085770
8.4283142 -1.8586349 -2.0568876 4288085770
11.951813 -2.5493441 -2.2043142 4288085770
8.0923157 -1.8319721 -2.0463228 4288085770
11.307526 -2.4729462 -2.1749954 4288085770
7.7832947 -1.8062801 -2.0364876 4288085770
10.749329 -2.4064846 -2.1537857 4288085770
7.4752808 -1.7785797 -2.0246496 4288085770
10.239166 -2.3459816 -2.1350765 4288085770
7.1922302 -1.7528629 -2.0155563 4288085770
9.7871094 -2.293438 -2.1227627 4288085770
6.9161987 -1.7261305 -2.0043964 4288085770
9.328949 -2.2348738 -2.1035318 4288085770
6.6511536 -1.6983852 -1.9931345 4288085770
8.8887634 -2.1752815 -2.0821266 4288085770
6.4151611 -1.6746254 -1.9865665 4288085770
8.5046692 -2.125659 -2.0691271 4288085770
6.1952209 -1.6538572 -1.9818316 4288085770
8.1215515 -2.0720167 -2.0511341 4288085770
5.9671936 -1.6270761 -1.9721966 4288085770
7.7794495 -2.0243454 -2.0367107 4288085770
5.7692871 -1.6052856 -1.9682474 4288085770
7.4734192 -1.9826527 -2.0279074 4288085770
5.5973816 -1.589488 -1.9700155 4288085770
7.1964417 -1.9439411 -2.0218067 4288085770
5.3772888 -1.5586786 -1.9553185 4288085770
6.9073792 -1.9012184 -2.00984 4288085770
5.2384949 -1.5458641 -1.9617491 4288085770
6.6593628 -1.8654728 -2.0034389 4288085770
5.0374146 -1.516037 -1.9478598 4288085770
6.4083862 -1.8257189 -1.9940844 4288085770
4.8624268 -1.4912033 -1.9396935 4288085770
6.1873779 -1.7929544 -1.9904051 4288085770
4.6954651 -1.4673643 -1.9324446 4288085770
5.9623718 -1.7561741 -1.9817801 4288085770
4.5334473 -1.4425173 -1.9241495 4288085770
5.7453613 -1.7193851 -1.9730778 4288085770
4.3814392 -1.4186602 -1.9167519 4288085770
5.5333252 -1.6825819 -1.9623251 4288085770
5.3443604 -1.6497736 -1.9563284 4288085770
5.1613464 -1.6169519 -1.9492741 4288085770
4.9933777 -1.5871267 -1.9450579 4288085770
4.8244019 -1.5552912 -1.9378595 4288085770
4.6643982 -1.5244474 -1.9315681 4288085770
4.5054016 -1.4915962 -1.9232759 4288085770
4.3583984 -1.4617386 -1.916852 4288085770
4.073761 0.59246254 -1.8495693 4288085770
4.2069397 0.60757828 -1.8543243 4288085770
4.3540955 0.6247015 -1.8609524 4288085770
4.4982605 0.64083481 -1.8646059 4288085770
4.6413879 0.65697384 -1.8662691 4288085770
4.7945251 0.67211914 -1.8688297 4288085770
4.969696 0.68927479 -1.8751822 4288085770
5.1499023 0.7074337 -1.8814898 4288085770
4.120697 0.63944435 -1.8543434 4288085770
5.3500671 0.72560215 -1.8906002 4288085770
4.2618713 0.65156841 -1.8590088 4288085770
5.54422 0.74278545 -1.8947668 4288085770
4.4089966 0.6646986 -1.8636217 4288085770
5.7694092 0.7619772 -1.9046354 4288085770
4.5641785 0.67683887 -1.8681507 4288085770
6.0036621 0.78118038 -1.9144163 4288085770
4.7223511 0.68898392 -1.8726501 4288085770
6.244812 0.80040073 -1.9221277 4288085770
4.8825073 0.70113659 -1.8751316 4288085770
6.5040588 0.82063198 -1.9306688 4288085770
5.0716858 0.71429729 -1.8833303 4288085770
6.775238 0.83987522 -1.9400854 4288085770
5.2528381 0.72646904 -1.8866053 4288085770
7.0453796 0.8591404 -1.9435148 4288085770
5.4750671 0.74164581 -1.8994875 4288085770
7.3496094 0.87942505 -1.9516125 4288085770
5.6782532 0.75384045 -1.9035454 4288085770
7.6687622 0.89972687 -1.9585619 4288085770
5.9234619 0.76804161 -1.9161987 4288085770
8.0510864 0.9240551 -1.9759092 4288085770
6.172699 0.78225899 -1.9258127 4288085770
8.4362488 0.94741344 -1.9862232 4288085770
6.414856 0.794487 -1.931488 4288085770
8.8565369 0.97179604 -2.0001984 4288085770
6.6670532 0.80573273 -1.9350615 4288085770
9.3298035 0.99822235 -2.0166597 4288085770
6.9512329 0.81899357 -1.9433289 4288085770
9.867157 1.0286951 -2.0395088 4288085770
7.2584534 0.83127022 -1.9533653 4288085770
10.442474 1.0592089 -2.0609846 4288085770
7.5826721 0.84456921 -1.9622393 4288085770
11.066833 1.0907679 -2.0839834 4288085770
7.9359131 0.85889244 -1.9738321 4288085770
11.720154 1.1223736 -2.1036987 4288085770
8.3101807 0.87123203 -1.9852123 4288085770
12.549652 1.1630898 -2.1417189 4288085770
8.7414246 0.88661385 -2.0020418 4288085770
13.452148 1.2058887 -2.178031 4288085770
9.159668 0.8990097 -2.0119905 4288085770
14.486694 1.2537994 -2.2220659 4288085770
9.6569824 0.91445446 -2.0301723 4288085770
16.197998 1.3451071 -2.3446283 4288085770
10.21637 0.9319334 -2.0557556 4288085770
18.388672 1.4617662 -2.5055847 4282675967
10.798706 0.94646263 -2.0750999 4288085770
11.484131 0.96505451 -2.1064491 4288085770
12.210571 0.98270416 -2.1333914 4288085770
13.019989 1.0004244 -2.1645184 4288085770
14.009613 1.0232782 -2.2098989 4288085770
15.330505 1.0603466 -2.2890816 4288085770
17.465332 1.1329174 -2.4564161 4282675967
6.3560791 -4.59375 -0.65457535 4293729569
6.5372009 -4.6119099 -0.73674965 4293729569
6.6186829 -4.6119967 -0.77696133 4293729569
6.7977295 -4.6161537 -0.85721207 4293729569
6.8902893 -4.6152325 -0.89832115 4293729569
7.116394 -4.6313562 -0.98206329 4293729569
7.3113708 -4.6214838 -1.0592155 4293729569
7.5864868 -4.6465683 -1.1454449 4293729569
7.7940063 -4.6514816 -0.67937374 4293729569
13.517975 -7.7208471 -1.9491796 4293729569
7.9425354 -4.6614847 -0.71589279 4293729569
7.8225098 -4.6386671 -1.2251883 4293729569
8.1160278 -4.6814718 -0.7541256 4293729569
12.802368 -7.1325002 -1.9285526 4293729569
8.1793823 -4.6435289 -0.78266716 4293729569
8.1717224 -4.6787052 -1.318635 4293729569
8.3242798 -4.6827316 -1.3611364 4293729569
8.5755005 -4.694459 -0.86061287 4293729569
8.5038757 -4.6977396 -1.406332 4293729569
8.7780151 -4.7164154 -0.8985548 4293729569
11.718475 -6.1794739 -1.892005 4293729569
8.8329773 -4.7047691 -1.4921083 4293729569
9.1189575 -4.7203665 -0.96822739 4293729569
9.0105286 -4.7087717 -1.535368 4293729569
9.2924194 -4.7203379 -1.0025425 4293729569
9.2822571 -4.7537365 -1.5925426 4293729569
9.5369873 -4.7492599 -1.0420475 4293729569
10.98288 -5.4421349 -1.8651867 4293729569
9.7795105 -4.7721815 -1.0815964 4293729569
10.122345 -4.9635401 -1.7495184 4293729569
9.8619385 -4.7597008 -1.722887 4293729569
10.163422 -4.7640734 -1.1468983 4293729569
10.210785 -4.8216209 -1.7882433 4293729569
10.396912 -4.772995 -1.1835909 4293729569
10.609711 -4.8985224 -1.8610497 4293729569
10.678436 -4.7988768 -1.2227488 4293729569
10.607849 -4.8045702 -1.8704548 4293729569
10.984009 -4.8297462 -1.2646503 4293729569
10.539795 -4.6836338 -1.8676128 4293729569
11.235535 -4.8336401 -1.2991886 4293729569
10.629089 -4.6256323 -1.8879843 4293729569
11.527039 -4.8495092 -1.3372889 4293729569
10.854584 -4.6195841 -1.9298162 4293729569
11.780487 -4.8463898 -1.3688374 4293729569
11.149261 -4.6364956 -1.9798822 4293729569
12.125031 -4.8742189 -1.4103718 4293729569
11.458923 -4.6554031 -2.0317945 4293729569
12.388489 -4.8660898 -1.4418421 4293729569
11.782593 -4.673295 -2.0835733 4293729569
12.811127 -4.9128561 -1.4875402 4293729569
12.109222 -4.6881847 -2.1353359 4293729569
13.179657 -4.931654 -1.5268774 4293729569
12.454926 -4.7030611 -2.1889133 4293729569
13.516113 -4.9344597 -1.5605917 4293729569
12.831635 -4.7239189 -2.245163 4288085770
13.966736 -4.9712 -1.6060562 4293729569
13.16626 -4.7257843 -2.292901 4288085770
14.365295 -4.9839578 -1.6431274 4293729569
13.369537 -4.6796856 -2.317112 4288085770
14.812866 -5.0076814 -1.6836748 4293729569
13.512756 -4.6126108 -2.3319941 4288085770
15.298431 -5.0383716 -1.7258224 4293729569
13.573792 -4.5175524 -2.3307905 4288085770
15.676849 -5.0271187 -1.7551861 4293729569
13.667816 -4.4334793 -2.3342209 4288085770
16.360626 -5.1016726 -1.8122253 4293729569
13.824982 -4.3643732 -2.3449745 4288085770
16.854126 -5.1113324 -1.848382 4293729569
13.940094 -4.2842798 -2.3481836 4288085770
17.580933 -5.1808472 -1.906023 4293729569
14.048096 -4.197175 -2.3474894 4288085770
18.148468 -5.1944342 -1.9424419 4293729569
14.219238 -4.1280422 -2.3551073 4288085770
18.853149 -5.2379346 -1.9914045 4293729569
14.40036 -4.0608959 -2.3616199 4288085770
14.593506 -3.9927406 -2.3690195 4288085770
14.829681 -3.9345617 -2.3809605 4288085770
15.09494 -3.8813581 -2.3945971 4288085770
15.518341 -3.8610764 -2.4275589 4288085770
15.947784 -3.835783 -2.4594831 4288085770
16.456299 -3.8244457 -2.4995794 4288085770
17.000854 -3.8120785 -2.5413303 4288085770
17.614441 -3.8086634 -2.5883722 4288085770
18.364227 -3.8231716 -2.650013 4288085770
18.545135 1.4307823 -1.8267965 4293729569
17.780304 1.4859886 -1.841445 4293729569
17.193573 1.5473328 -1.8643923 4293729569
18.681976 1.7189188 -1.0866184 4293729569
16.566772 1.5986757 -1.8776884 4293729569
18.124512 1.7821827 -1.1352911 4293729569
16.320251 1.6782312 -1.9264107 4293729569
18.031219 1.8847895 -1.2076244 4293729569
16.247925 1.7738886 -1.9915113 4293729569
16.29071 1.8815985 -2.0695467 4293729569
16.181305 1.9742498 -2.1269951 4293729569
16.349152 2.098033 -2.2168827 4293729569
17.291656 2.252059 -1.4493322 4293729569
16.940552 2.2769756 -2.3638916 4288085770
17.055206 2.3346233 -1.498971 4293729569
15.841919 2.2492476 -2.2864342 4288085770
16.599548 2.3890676 -1.5276203 4293729569
14.922394 2.2336168 -2.2262897 4288085770
16.367004 2.4666605 -1.5711994 4293729569
14.311249 2.2501411 -2.2002878 4288085770
16.260529 2.5613403 -1.6226273 4293729569
13.71106 2.2626867 -2.1711626 4288085770
13.25 2.2883024 -2.156743 4288085770
16.210663 2.7748013 -1.7379999 4293729569
12.791901 2.308938 -2.1382742 4288085770
16.272308 2.8975868 -1.8019142 4293729569
12.334778 2.3255911 -2.1157789 4288085770
16.265839 3.0073442 -1.8574333 4293729569
11.959717 2.3502846 -2.1025219 4288085770
16.37851 3.1411629 -1.9248972 4293729569
11.595673 2.3720016 -2.0861454 4288085770
11.259613 2.3967314 -2.0725088 4288085770
10.972595 2.4254913 -2.0634146 4288085770
10.709595 2.4562712 -2.0550957 4288085770
10.445557 2.4840508 -2.0457735 4288085770
18.9617 4.2601795 -2.5004807 4282675967
10.178528 2.5078516 -2.0314646 4288085770
17.850037 4.1594791 -2.4138508 4288085770
9.9205322 2.5306578 -2.0180655 4288085770
16.897522 4.0798779 -2.340764 4288085770
9.7165222 2.5624866 -2.011178 4288085770
16.125122 4.0293713 -2.2850504 4288085770
9.4954834 2.5883188 -1.9994316 4288085770
15.512848 4.0059509 -2.244895 4288085770
9.3165283 2.6211672 -1.9933062 4288085770
14.942627 3.9855633 -2.207345 4288085770
9.1425171 2.654027 -1.9861326 4288085770
14.603546 4.0152817 -2.1957579 4288085770
8.9715576 2.6858921 -1.9779253 4288085770
14.262512 4.0390091 -2.1821671 4288085770
8.8165894 2.7187672 -1.9715681 4288085770
13.98349 4.0767651 -2.1750317 4288085770
8.6715698 2.7536469 -1.9651203 4288085770
13.661469 4.1005211 -2.1592569 4288085770
8.5316162 2.7885351 -1.9586258 4288085770
13.398438 4.1353092 -2.1489544 4288085770
8.4196472 2.8294353 -1.955884 4288085770
13.118408 4.1631012 -2.1337891 4288085770
8.330719 2.8763447 -1.9559431 4288085770
12.880341 4.1979179 -2.1222448 4288085770
8.2107544 2.9122524 -1.9492588 4288085770
12.684326 4.2437515 -2.1153374 4288085770
8.1128235 2.9541693 -1.945385 4288085770
12.518372 4.2976055 -2.1111727 4288085770
8.0168762 2.996088 -1.9414921 4288085770
12.404419 4.3654842 -2.1125603 4288085770
7.9338684 3.0410137 -1.9384851 4288085770
12.218414 4.4063454 -2.1025362 4288085770
7.8619385 3.0879498 -1.9363794 4288085770
12.112457 4.4742393 -2.1018476 4288085770
7.7909546 3.1348877 -1.9332647 4288085770
11.975464 4.5301266 -2.0954094 4288085770
7.7230225 3.1808338 -1.9291172 4288085770
11.879517 4.5960388 -2.0926151 4288085770
7.6820984 3.2377796 -1.9307518 4288085770
11.787537 4.664959 -2.0897942 4288085770
7.6361694 3.2897358 -1.9294147 4288085770
11.717529 4.7398891 -2.0887852 4288085770
7.6152344 3.3526955 -1.9328804 4288085770
11.63858 4.8098278 -2.0838432 4288085770
7.5632935 3.4026566 -1.9285936 4288085770
11.597626 4.8947754 -2.0845928 4288085770
7.550415 3.4676266 -1.9309902 4288085770
11.561646 4.9787388 -2.0842896 4288085770
7.5043945 3.5196018 -1.9256535 4288085770
11.516693 5.0617008 -2.0810719 4288085770
7.5074768 3.5905762 -1.9299202 4288085770
11.511719 5.1586819 -2.0825224 4288085770
7.4805298 3.649559 -1.9264269 4288085770
11.483734 5.2476559 -2.080163 4288085770
7.4615479 3.711544 -1.9238701 4288085770
11.470734 5.3416519 -2.0766802 4288085770
7.4776611 3.7875404 -1.9270315 4288085770
11.466705 5.4386501 -2.0741205 4288085770
7.4736938 3.856535 -1.9253569 4288085770
11.484772 5.5456638 -2.0723906 4288085770
7.4797668 3.9295368 -1.9246035 4288085770
11.513763 5.6586876 -2.0715771 4288085770
7.5048218 4.0105438 -1.9266968 4288085770
11.595825 5.7957249 -2.0783482 4288085770
7.5198669 4.0865536 -1.9258671 4288085770
11.629822 5.9117622 -2.0754995 4288085770
7.5448914 4.1685696 -1.9259653 4288085770
11.697815 6.0428181 -2.0753832 4288085770
7.6080017 4.2675934 -1.932765 4288085770
11.797852 6.1908836 -2.0790243 4288085770
7.6370239 4.3526211 -1.9308367 4288085770
11.946899 6.3629742 -2.0892906 4288085770
7.6690369 4.4376564 -1.9278793 4288085770
12.098938 6.5380783 -2.0965405 4288085770
7.7581482 4.5526962 -1.936492 4288085770
12.250916 6.717186 -2.1028042 4288085770
7.8362427 4.6627426 -1.9411926 4288085770
12.422974 6.906311 -2.1089182 4288085770
7.912262 4.7727947 -1.9439106 4288085770
12.588959 7.0964451 -2.1120939 4288085770
8.0122986 4.8958569 -1.9494495 4288085770
12.790894 7.3066044 -2.1170015 4288085770
8.1233826 5.0259266 -1.9559116 4288085770
