# .PCD v0.7 - Point Cloud Data file format
VERSION 0.7
FIELDS x y z rgb
SIZE 4 4 4 4
TYPE F F F U
COUNT 1 1 1 1
WIDTH 1128
HEIGHT 1
VIEWPOINT 0 0 0 1 0 0 0
POINTS 1128
DATA ascii
4.0781555 0.62008286 -1.7862425 4288085770
2.4005737 0.53570938 -1.7902269 4288085770
3.8413086 0.63401413 -1.78613 4288085770
2.224762 0.54838371 -1.7871609 4288085770
3.608429 0.64692688 -1.7850924 4288085770
2.0599976 0.56001091 -1.783289 4288085770
3.4055481 0.6607399 -1.788559 4288085770
1.9161072 0.57257843 -1.7837667 4288085770
3.1937561 0.6735611 -1.785881 4288085770
1.774292 0.58412552 -1.7822866 4288085770
2.9879456 0.68534851 -1.781311 4288085770
1.635498 0.59666443 -1.7808523 4288085770
2.8100891 0.69804192 -1.7812119 4288085770
1.5046997 0.60916519 -1.7785559 4288085770
2.636261 0.71172333 -1.7801771 4288085770
1.3937988 0.62261391 -1.7815924 4288085770
2.477417 0.72434616 -1.7804031 4288085770
1.2879028 0.63604355 -1.7847157 4288085770
2.3116455 0.73697662 -1.7765112 4288085770
1.1641541 0.64650345 -1.7795496 4288085770
2.1568298 0.74956512 -1.7728071 4288085770
1.0652771 0.65990067 -1.7817926 4288085770
2.0229797 0.76309967 -1.7744541 4288085770
0.95648193 0.67230606 -1.777873 4288085770
1.8901978 0.77561188 -1.7731256 4288085770
1.7643433 0.78909874 -1.7719107 4288085770
1.6395264 0.80258179 -1.7707129 4288085770
1.5187378 0.81604576 -1.7685843 4288085770
1.4039612 0.82847595 -1.765563 4288085770
1.2871704 0.84091568 -1.7615099 4288085770
1.2052612 0.85726166 -1.7670279 4288085770
1.116394 0.87161446 -1.7684374 4288085770
1.0295715 0.88595963 -1.7698822 4288085770
1.0018616 3.1374798 -1.7157116 4288085770
1.1341248 3.2070045 -1.7245388 4288085770
1.2614441 3.2715302 -1.7293062 4288085770
1.3588257 3.318121 -1.7236662 4288085770
1.4782104 3.3756447 -1.7223358 4288085770
1.6445007 3.4570522 -1.7336626 4288085770
1.816803 3.5394363 -1.7450819 4288085770
1.9541626 3.6008949 -1.7440252 4288085770
2.0955811 3.6633301 -1.7420292 4288085770
0.99075317 3.112505 -1.7204933 4288085770
2.2510071 3.7307281 -1.74224 4288085770
1.1130676 3.1620369 -1.7232485 4288085770
2.4383545 3.8140259 -1.7478971 4288085770
1.2553101 3.2215176 -1.7302847 4288085770
2.6277466 3.8963108 -1.7525921 4288085770
1.3696289 3.2650528 -1.7269354 4288085770
2.801178 3.9666271 -1.7510805 4288085770
1.5049438 3.3175354 -1.7288876 4288085770
2.9916687 4.0428848 -1.7508202 4288085770
1.676178 3.3869152 -1.7393513 4288085770
3.184082 4.1191311 -1.7495909 4288085770
1.8105774 3.433382 -1.7373152 4288085770
3.4095154 4.2092743 -1.7538357 4288085770
2.0007935 3.5077038 -1.7500629 4288085770
3.631012 4.2954178 -1.7550316 4288085770
2.1302185 3.5491676 -1.7439671 4288085770
3.8674622 4.3855114 -1.7574549 4288085770
2.2865601 3.6015549 -1.7432604 4288085770
4.0810242 4.4606514 -1.7515707 4288085770
2.5117493 3.686758 -1.7595272 4288085770
4.3165283 4.5437202 -1.7480078 4288085770
2.6721497 3.7361221 -1.7568998 4288085770
4.5760193 4.6357136 -1.7477942 4288085770
2.8435059 3.7884464 -1.7554359 4288085770
4.8905029 4.7515297 -1.7553682 4288085770
3.0148926 3.8387661 -1.7529821 4288085770
5.2110596 4.8673134 -1.7610378 4288085770
3.2052917 3.8950253 -1.7528105 4288085770
5.5116272 4.967144 -1.7604551 4288085770
3.4016418 3.952261 -1.7527304 4288085770
5.8761292 5.0957699 -1.7677813 4288085770
3.605011 4.0094681 -1.7517643 4288085770
6.2197571 5.2074375 -1.7678432 4288085770
3.8374023 4.0775871 -1.7562208 4288085770
6.709259 5.3846493 -1.7899809 4288085770
4.0457764 4.130764 -1.7533541 4288085770
7.164856 5.5389385 -1.8016691 4288085770
4.2721558 4.1888733 -1.7517567 4288085770
7.7983704 5.7716599 -1.836895 4288085770
4.4876099 4.2390156 -1.7470179 4288085770
8.4689026 6.0112324 -1.8716898 4288085770
4.7529602 4.3090038 -1.7509985 4288085770
9.1595154 6.2507153 -1.9028091 4288085770
5.0063782 4.3700218 -1.7508259 4288085770
9.9661255 6.5358028 -1.9456043 4288085770
5.2258301 4.4121265 -1.7421856 4293729569
10.805817 6.8237514 -1.9859228 4288085770
5.512207 4.4800301 -1.7445173 4293729569
11.527649 7.0470371 -2.0016155 4288085770
5.8225708 4.5538483 -1.7492113 4293729569
12.432434 7.3417053 -2.0359564 4288085770
6.1599731 4.6355705 -1.7553082 4293729569
13.620239 7.7434158 -2.0974073 4288085770
6.5422668 4.7311535 -1.7680712 4288085770
6.9806213 4.8445511 -1.7876635 4288085770
7.5168762 4.9916248 -1.8176937 4288085770
8.1090698 5.1525059 -1.853569 4288085770
8.6713562 5.2954712 -1.8820381 4288085770
9.2526855 5.4363556 -1.9088249 4288085770
9.8670044 5.5811062 -1.9351282 4288085770
10.419373 5.6940536 -1.9515676 4288085770
11.100708 5.847559 -1.9799166 4288085770
11.853027 6.016819 -2.0143452 4288085770
12.519379 6.1453457 -2.034564 4288085770
13.401703 6.3381367 -2.0759935 4288085770
14.483917 6.5872536 -2.1364136 4288085770
15.412231 6.7708569 -2.1746273 4288085770
15.361053 -3.6155128 -2.2871342 4288085770
14.444031 -3.5532131 -2.2430096 4288085770
13.469238 -3.4697466 -2.1878529 4288085770
12.54245 -3.3824606 -2.1334562 4288085770
11.761322 -3.3166628 -2.0935163 4288085770
11.132935 -3.2733755 -2.0691509 4288085770
10.51059 -3.2241268 -2.0418549 4288085770
9.9541321 -3.1820946 -2.0216608 4288085770
9.429657 -3.1421804 -2.0029917 4288085770
8.946106 -3.1044121 -1.9859962 4288085770
8.4297791 -3.0515528 -1.9624004 4288085770
15.625824 -4.9689856 -2.1985474 4293729569
7.9912109 -3.0119495 -1.9471226 4288085770
15.058655 -4.9367113 -2.2192268 4288085770
7.5626831 -2.9703894 -1.9310007 4288085770
14.496552 -4.8954716 -2.2369461 4288085770
7.2070007 -2.9420652 -1.9241161 4288085770
13.680328 -4.7774334 -2.219202 4288085770
6.8543396 -2.9107571 -1.9162674 4288085770
12.693726 -4.6018734 -2.1744375 4288085770
6.4429321 -2.858285 -1.8953714 4288085770
11.734192 -4.4204407 -2.125083 4288085770
6.0475159 -2.8048763 -1.8747301 4288085770
10.93927 -4.2765608 -2.0915651 4288085770
5.7080078 -2.7626467 -1.8610439 4288085770
10.239197 -4.1500082 -2.0656605 4288085770
5.4421997 -2.7386389 -1.8596344 4288085770
9.6080322 -4.0367107 -2.0419302 4288085770
5.2003174 -2.7187071 -1.8616314 4288085770
9.0088806 -3.9245272 -2.0197239 4288085770
4.9395752 -2.6907358 -1.8572855 4288085770
8.4017944 -3.8043394 -1.9923515 4288085770
4.6918335 -2.6628008 -1.8551502 4288085770
7.8725891 -3.7014179 -1.9713192 4288085770
4.4819336 -2.6429834 -1.8586645 4288085770
7.399231 -3.6106882 -1.9552469 4288085770
4.2462158 -2.6131058 -1.8547144 4288085770
6.9777527 -3.531127 -1.9450636 4288085770
4.0563354 -2.5943594 -1.8595572 4288085770
6.5115967 -3.4314585 -1.9220648 4288085770
3.8415527 -2.5655499 -1.8579512 4288085770
6.0614319 -3.3308592 -1.8973217 4288085770
3.6368103 -2.5367832 -1.8555079 4288085770
5.6929932 -3.2535143 -1.8850069 4288085770
3.4291077 -2.504014 -1.850997 4288085770
5.3804016 -3.1923485 -1.8796692 4288085770
3.2522583 -2.4803324 -1.8530273 4288085770
5.0927124 -3.1362562 -1.8787584 4288085770
3.0674438 -2.4516296 -1.8529072 4288085770
4.8120728 -3.0792036 -1.8749571 4288085770
2.9065857 -2.4290085 -1.8552017 4288085770
4.5603333 -3.0282469 -1.874651 4288085770
2.7179565 -2.3933172 -1.8499861 4288085770
4.2867737 -2.9672375 -1.8679466 4288085770
2.54422 -2.3616772 -1.8460312 4288085770
4.0540771 -2.9183559 -1.8669586 4288085770
2.3963623 -2.3370991 -1.8495264 4288085770
3.8183899 -2.8644724 -1.8638973 4288085770
2.2505493 -2.3115435 -1.8500509 4288085770
3.6047058 -2.8166685 -1.8622217 4288085770
2.0928345 -2.2789631 -1.8463488 4288085770
3.3880615 -2.7648573 -1.859478 4288085770
1.9540405 -2.252429 -1.8479815 4288085770
3.1834106 -2.7160969 -1.8559437 4288085770
1.8262024 -2.2279367 -1.8498011 4288085770
3.002655 -2.6734018 -1.8578224 4288085770
1.6775208 -2.1933956 -1.8452368 4288085770
2.8189392 -2.6277142 -1.8556414 4288085770
1.5517273 -2.1669216 -1.8450804 4288085770
2.6422119 -2.5830488 -1.8545761 4288085770
1.4339294 -2.1414642 -1.8470573 4288085770
2.4616089 -2.5333872 -1.8494253 4288085770
1.3002014 -2.107975 -1.8437386 4288085770
2.2978821 -2.4897699 -1.8485756 4288085770
1.1913452 -2.08356 -1.8448658 4288085770
2.1650391 -2.4562445 -1.8532715 4288085770
1.0676575 -2.0501127 -1.8407106 4288085770
2.0242615 -2.4187031 -1.8548212 4288085770
0.96087646 -2.0237045 -1.8418617 4288085770
1.8666077 -2.37113 -1.85005 4288085770
1.723938 -2.3296022 -1.8475504 4288085770
1.6021423 -2.2941322 -1.8494158 4288085770
1.477356 -2.2556562 -1.8502188 4288085770
1.3526611 -2.2161913 -1.8490191 4288085770
1.223999 -2.1737242 -1.8447409 4288085770
1.1062927 -2.1342907 -1.8426523 4288085770
0.99755859 -2.0978842 -1.8417244 4288085770
0.9543457 0.038545609 -1.7930489 4288085770
1.0635071 0.050144196 -1.7966871 4288085770
1.1706543 0.061735153 -1.7962933 4288085770
1.2758484 0.073324203 -1.7948666 4288085770
1.3652039 0.084936142 -1.7851915 4288085770
1.5023193 0.096437454 -1.7902651 4288085770
1.6195679 0.10796928 -1.786027 4288085770
1.7676392 0.118433 -1.791275 4288085770
1.9118652 0.12988663 -1.7914572 4288085770
1.0159302 0.16927147 -1.7932444 4288085770
2.0480957 0.14034462 -1.7875185 4288085770
1.144043 0.17880249 -1.7971869 4288085770
2.2152405 0.15172768 -1.7910576 4288085770
1.2442932 0.18838692 -1.7906904 4288085770
2.3874207 0.16208267 -1.7926798 4288085770
1.3634949 0.19692993 -1.7894974 4288085770
2.5635681 0.17342186 -1.7943583 4288085770
1.4877319 0.20543861 -1.7863808 4288085770
2.7427368 0.18373489 -1.793088 4288085770
1.6178894 0.21493912 -1.7853508 4288085770
2.9588623 0.19394684 -1.7993946 4288085770
1.7760315 0.22335815 -1.7897644 4288085770
3.1749878 0.20314598 -1.8027058 4288085770
1.9321899 0.23177719 -1.7921448 4288085770
3.3971558 0.21331024 -1.8041039 4288085770
2.0913696 0.24017334 -1.792572 4288085770
3.608429 0.22348595 -1.7993298 4288085770
2.2475586 0.24856567 -1.7899523 4288085770
3.8456421 0.23358154 -1.7979603 4288085770
2.4416504 0.25686073 -1.7959232 4288085770
4.0888672 0.24364471 -1.7946844 4288085770
2.653717 0.26509476 -1.803174 4288085770
4.341156 0.25366211 -1.7895479 4288085770
2.8409119 0.27337646 -1.8020353 4288085770
4.6283875 0.26257324 -1.7889595 4288085770
3.0451355 0.2806015 -1.8011656 4288085770
4.9565125 0.27235031 -1.7920065 4288085770
3.2583008 0.28779411 -1.8014345 4288085770
5.2867737 0.28209114 -1.790082 4288085770
3.4984741 0.29489136 -1.8031235 4288085770
5.671875 0.29066277 -1.7950182 4288085770
3.7346802 0.30098534 -1.8007545 4288085770
6.0621338 0.30018044 -1.7940273 4288085770
3.9769287 0.30805397 -1.7974749 4288085770
6.5481873 0.30939674 -1.8035288 4288085770
4.2271729 0.31307793 -1.7913256 4288085770
7.0742493 0.31846619 -1.8146534 4288085770
4.5193787 0.31896973 -1.7908268 4288085770
7.7550964 0.32903099 -1.8411798 4288085770
4.8544922 0.3247261 -1.7949953 4288085770
8.5289001 0.33926964 -1.8721533 4288085770
5.1787415 0.32948875 -1.7929974 4288085770
9.4435425 0.35002899 -1.9133139 4288085770
5.5608215 0.33407211 -1.7978992 4288085770
10.474152 0.36136627 -1.9572716 4288085770
5.9450378 0.33758545 -1.7958164 4288085770
11.738556 0.37386894 -2.0158405 4288085770
6.440033 0.34178734 -1.8094759 4288085770
13.093079 0.38602638 -2.0688267 4288085770
6.9361572 0.34494209 -1.8151541 4288085770
14.932098 0.39954567 -2.1573429 4288085770
7.5809937 0.34862328 -1.8381443 4288085770
8.3517456 0.35088348 -1.8710966 4288085770
9.2513733 0.35369492 -1.9110489 4288085770
10.318817 0.3569355 -1.9636068 4288085770
11.46637 0.35684776 -2.0104179 4288085770
12.838715 0.35697937 -2.0697203 4288085770
14.60675 0.35574913 -2.1551733 4288085770
8.9945984 -4.7616673 -0.61769676 4293729569
9.2750244 -4.7714758 -0.66491318 4293729569
9.6522522 -4.8126144 -0.71774006 4293729569
9.9705811 -4.8265448 -0.76854324 4293729569
10.314941 -4.8435736 -0.82073593 4293729569
10.722137 -4.8788109 -0.87596893 4293729569
11.104431 -4.8969574 -0.9307394 4293729569
11.493683 -4.9131241 -0.98660183 4293729569
11.934937 -4.9404736 -1.0442963 4293729569
12.401093 -4.9689093 -1.1033659 4293729569
12.775513 -4.9620323 -1.1568804 4293729569
13.296661 -4.9926567 -1.2187757 4293729569
13.924622 -5.0466347 -1.2893858 4293729569
14.503693 -5.0804501 -1.3561554 4293729569
15.200562 -5.1346569 -1.4317875 4293729569
15.799683 -5.1545372 -1.4997778 4293729569
14.057465 0.69969749 -2.1134567 4288085770
12.618408 0.71858788 -2.0482311 4288085770
11.475098 0.73850822 -2.0041323 4288085770
10.484741 0.75689888 -1.9641809 4288085770
9.5784302 0.77298355 -1.9244194 4288085770
8.6392822 0.78209877 -1.8682432 4288085770
7.901886 0.79457664 -1.8298655 4288085770
7.3053589 0.80962563 -1.8074417 4288085770
15.028931 1.2664089 -2.158473 4288085770
6.825592 0.82931519 -1.7976227 4288085770
13.34906 1.2440395 -2.0681505 4288085770
6.4038696 0.84880447 -1.7906179 4288085770
12.078857 1.2363453 -2.0094662 4288085770
6.0081482 0.86719322 -1.7819815 4288085770
11.193237 1.2444382 -1.9860535 4288085770
5.6733093 0.88639641 -1.7801914 4288085770
10.207886 1.2387581 -1.9373302 4288085770
5.3355713 0.90358353 -1.7733717 4288085770
9.3974609 1.2395172 -1.9020138 4288085770
5.0567322 0.92359543 -1.7733603 4288085770
8.5561523 1.2303085 -1.8523245 4288085770
4.7919006 0.94355392 -1.7735443 4288085770
7.8258057 1.2257366 -1.8101587 4288085770
4.5570679 0.96340942 -1.7751474 4288085770
7.2841797 1.2315884 -1.7885647 4293729569
4.3152466 0.98227501 -1.7736616 4288085770
6.8583984 1.2440891 -1.780549 4293729569
4.1213379 1.0030022 -1.7788324 4288085770
6.4786682 1.257431 -1.7741709 4293729569
3.8926392 1.0187969 -1.7725468 4288085770
6.0979004 1.2687569 -1.7637901 4293729569
3.6968079 1.0385036 -1.7727003 4288085770
5.8210449 1.2887726 -1.7668104 4293729569
3.5130005 1.0561638 -1.7720308 4288085770
5.5432129 1.3067837 -1.7678289 4288085770
3.3251953 1.0728226 -1.7683134 4288085770
5.2843628 1.3247185 -1.7681131 4288085770
3.1613464 1.0914097 -1.7679186 4288085770
5.0395203 1.3416023 -1.7675982 4288085770
3.0184937 1.1119442 -1.7718058 4288085770
4.7927246 1.3574753 -1.7640638 4288085770
2.8717041 1.1304722 -1.7716503 4288085770
4.5739136 1.3752632 -1.7639084 4288085770
2.7338562 1.1489716 -1.7726202 4288085770
4.3760681 1.3929806 -1.7640457 4288085770
2.6030273 1.1684475 -1.7736835 4288085770
4.1772461 1.4106922 -1.7631712 4288085770
2.4502869 1.1829567 -1.7654705 4288085770
4.0193787 1.4322853 -1.7678442 4288085770
2.3364563 1.2023773 -1.7677698 4288085770
3.8196106 1.4459686 -1.7609797 4288085770
2.2266235 1.2207775 -1.7691317 4288085770
3.6627808 1.4645348 -1.7616844 4288085770
2.1207581 1.2411633 -1.7705383 4288085770
3.4949951 1.4821301 -1.759244 4288085770
2.0169983 1.26054 -1.7709799 4288085770
3.348175 1.5006561 -1.7590923 4288085770
1.907196 1.2779198 -1.7683496 4288085770
3.2023926 1.5181694 -1.756958 4288085770
1.8123474 1.2972622 -1.7689171 4288085770
3.0665894 1.5366535 -1.7559595 4288085770
1.7106018 1.3136063 -1.7654037 4288085770
2.9467773 1.557085 -1.7561712 4288085770
1.6197815 1.3319263 -1.7640333 4288085770
2.8239746 1.5755215 -1.7553539 4288085770
1.5379944 1.3522167 -1.7637777 4288085770
2.7191162 1.5969105 -1.7577696 4288085770
1.4631348 1.3724918 -1.7656183 4288085770
2.6163025 1.6182785 -1.758214 4288085770
1.3853149 1.392767 -1.765419 4288085770
2.5144958 1.6396465 -1.7586746 4288085770
1.3085327 1.412035 -1.7642393 4288085770
2.4107056 1.6580067 -1.7561216 4288085770
1.2377625 1.431284 -1.7631426 4288085770
2.3099365 1.6763554 -1.7536135 4288085770
1.1759033 1.4525146 -1.7651606 4288085770
2.2061768 1.6947021 -1.7490635 4288085770
1.1091309 1.4727459 -1.7641153 4288085770
2.1303711 1.7179852 -1.7508736 4288085770
1.0523071 1.4949551 -1.7651978 4288085770
2.0395813 1.7372913 -1.7474995 4288085770
0.97955322 1.5121918 -1.7610865 4288085770
1.9598083 1.7585678 -1.7462664 4288085770
1.9069519 1.7857819 -1.7513742 4288085770
1.8321533 1.8060379 -1.749217 4288085770
1.7573853 1.8272858 -1.7460546 4288085770
1.6936035 1.8505077 -1.7450342 4288085770
1.6338196 1.8737202 -1.7450686 4288085770
1.592041 1.9018879 -1.7483253 4288085770
1.5322266 1.9240894 -1.7463665 4288085770
1.4764709 1.9472713 -1.7434578 4288085770
1.4326782 1.9744301 -1.7446928 4288085770
1.3829041 1.9975967 -1.7428675 4288085770
1.3361511 2.0227528 -1.7410736 4288085770
1.293396 2.0488949 -1.7393284 4288085770
1.2546082 2.0750237 -1.7376394 4288085770
1.2198486 2.1021385 -1.7370005 4288085770
1.183136 2.1292591 -1.7353344 4288085770
1.1543274 2.1583557 -1.734767 4288085770
1.1225891 2.1854515 -1.7321692 4288085770
1.0988464 2.215538 -1.732666 4288085770
1.0770569 2.2466106 -1.7321854 4288085770
1.0513306 2.2756844 -1.729661 4288085770
1.028595 2.3057594 -1.7281713 4288085770
1.0208435 2.3417873 -1.7298565 4288085770
1.0050964 2.374836 -1.7284489 4288085770
0.98736572 2.4068832 -1.726017 4288085770
0.98858643 2.4458866 -1.7288094 4288085770
0.97384644 2.4779186 -1.72542 4288085770
0.98706055 2.5228939 -1.7303448 4288085770
0.97442627 2.5549107 -1.7259836 4288085770
0.97964478 2.5958958 -1.7268209 4288085770
0.9848938 2.6368694 -1.7266569 4288085770
0.99017334 2.6778469 -1.7264938 4288085770
0.99749756 2.7188091 -1.7253571 4288085770
1.00177 2.7577744 -1.7221909 4288085770
1.0110779 2.7997322 -1.721077 4288085770
1.0343628 2.8486481 -1.7221165 4288085770
1.0376892 2.8876057 -1.7169361 4288085770
1.0600281 2.9355183 -1.7159672 4288085770
1.0942993 2.9894009 -1.7181301 4288085770
1.1256104 3.0412903 -1.7192621 4288085770
1.1509705 3.0901794 -1.7163286 4288085770
1.2002563 3.1520214 -1.7206526 4288085770
1.2515564 3.2148514 -1.7239981 4288085770
1.2938843 3.2726955 -1.724246 4288085770
1.3372803 3.3315258 -1.7225037 4288085770
1.384613 3.3913422 -1.720809 4288085770
1.467926 3.4720917 -1.7304935 4288085770
1.5332336 3.5418606 -1.7319899 4288085770
1.6066284 3.6166096 -1.735568 4288085770
1.6830139 3.6923409 -1.7371817 4288085770
1.7614136 3.7700634 -1.7388124 4288085770
1.8358154 3.8437862 -1.7374077 4288085770
1.9232178 3.9254723 -1.7381372 4288085770
2.0276489 4.0181141 -1.7420378 4288085770
2.1190796 4.0997753 -1.7408209 4288085770
0.96090698 3.4739017 -1.7344351 4288085770
2.2365112 4.1993694 -1.7448597 4288085770
1.0392456 3.5436172 -1.7351074 4288085770
2.3509827 4.2959614 -1.7458715 4288085770
1.1315918 3.6213074 -1.7399263 4288085770
2.483429 4.4025002 -1.7490759 4288085770
1.2020264 3.6830273 -1.7355318 4288085770
2.5959473 4.4960766 -1.7460766 4288085770
1.2954407 3.7596931 -1.7363682 4288085770
2.7564392 4.6185322 -1.7525721 4288085770
1.388855 3.8343506 -1.7362156 4288085770
2.8959351 4.7280293 -1.7528505 4288085770
1.4962158 3.9179783 -1.7392035 4288085770
3.0565186 4.8494549 -1.7543507 4288085770
1.6046448 4.001585 -1.7392044 4288085770
3.2190857 4.970871 -1.7548752 4288085770
1.7270508 4.0921593 -1.7423563 4288085770
3.4056702 5.1062145 -1.7576494 4288085770
1.8305359 4.1687622 -1.7383242 4288085770
3.6272583 5.263464 -1.7667809 4288085770
1.9829407 4.277256 -1.7467842 4288085770
3.8468933 5.418684 -1.7718773 4288085770
2.1543579 4.3966827 -1.7584267 4288085770
4.0655518 5.5709076 -1.7739878 4288085770
2.2768555 4.482214 -1.7535992 4288085770
4.2962341 5.7290764 -1.7742262 4288085770
2.4193726 4.5786819 -1.7509832 4288085770
4.5409851 5.8951969 -1.7746096 4288085770
2.6038513 4.7010574 -1.7587948 4288085770
4.8067322 6.0722523 -1.777216 4288085770
2.7643738 4.806469 -1.7573709 4288085770
5.0725098 6.2462826 -1.7748365 4288085770
2.9579163 4.9307957 -1.76229 4288085770
5.3823547 6.4481831 -1.7779007 4288085770
3.148468 5.0521183 -1.764183 4288085770
5.7432251 6.679924 -1.785491 4288085770
3.3630066 5.1853619 -1.7673349 4288085770
6.1071472 6.9106407 -1.7901249 4288085770
3.601593 5.3335457 -1.7757301 4288085770
6.5040894 7.1602402 -1.7950993 4288085770
3.8282166 5.4697285 -1.7760239 4288085770
6.9761963 7.4546051 -1.8068457 4288085770
4.0758667 5.6178532 -1.7795362 4288085770
7.7073364 7.9142303 -1.8551989 4288085770
4.3275452 5.764946 -1.7791052 4288085770
4.5942078 5.9179897 -1.7798424 4288085770
4.8839111 6.0829525 -1.7808228 4288085770
5.1616821 6.2359352 -1.7777023 4288085770
5.5224304 6.439682 -1.7864275 4288085770
5.8752441 6.6324253 -1.7890987 4288085770
6.2620544 6.8430672 -1.7951307 4288085770
6.7169495 7.0914955 -1.8068705 4288085770
7.2539062 7.3856678 -1.8264656 4288085770
7.9629211 7.7823448 -1.8688211 4288085770
15.758667 -1.8169918 -2.2723408 4288085770
14.413757 -1.7825708 -2.1996765 4288085770
13.243713 -1.7517214 -2.1373024 4288085770
12.301361 -1.7345743 -2.0959587 4288085770
11.440948 -1.7167044 -2.0576763 4288085770
10.737335 -1.7073202 -2.033474 4288085770
10.04483 -1.6919975 -2.0053892 4288085770
9.3813171 -1.6747751 -1.9776745 4288085770
8.79776 -1.6598139 -1.9550085 4288085770
8.2551575 -1.64499 -1.933877 4288085770
7.7545166 -1.6312981 -1.9163008 4288085770
14.675354 -2.7344151 -2.2244473 4288085770
7.2290344 -1.6075611 -1.8903503 4288085770
13.394562 -2.6211634 -2.1632519 4288085770
6.7774048 -1.5890512 -1.8713856 4288085770
12.317566 -2.5255728 -2.1147881 4288085770
6.3886719 -1.5767193 -1.861268 4288085770
11.373383 -2.4444075 -2.0761232 4288085770
5.9970398 -1.5604038 -1.8460951 4288085770
10.516205 -2.3665438 -2.0386038 4288085770
5.6533203 -1.5472317 -1.8365593 4288085770
9.7469177 -2.2959652 -2.0072622 4288085770
5.3624573 -1.540205 -1.8347397 4288085770
8.9917297 -2.2204723 -1.9690819 4288085770
5.0776062 -1.5322065 -1.8319969 4288085770
8.3762817 -2.1633949 -1.946806 4288085770
4.8147583 -1.5242786 -1.8305387 4288085770
7.816803 -2.1105127 -1.9252777 4288085770
4.5499573 -1.5123615 -1.8260345 4288085770
7.3063354 -2.0617809 -1.9084053 4288085770
4.3250427 -1.5065441 -1.8290815 4288085770
6.7918701 -2.0060682 -1.8854494 4288085770
4.117157 -1.5007896 -1.8323469 4288085770
6.3563232 -1.962595 -1.8705778 4288085770
3.9102478 -1.4930429 -1.8346176 4288085770
5.914856 -1.9131336 -1.8495998 4288085770
3.7033997 -1.4833069 -1.8348789 4288085770
5.5701294 -1.8799353 -1.8439579 4288085770
3.5025635 -1.4725914 -1.8352137 4288085770
5.2543945 -1.8508291 -1.8407125 4288085770
3.3127136 -1.461916 -1.8356924 4288085770
4.9616089 -1.8218021 -1.8377647 4288085770
3.1467896 -1.4553003 -1.8405018 4288085770
4.6958008 -1.7978487 -1.8391924 4288085770
2.9709167 -1.4436684 -1.8421574 4288085770
4.4200745 -1.7678928 -1.8344622 4288085770
2.7482605 -1.4199514 -1.8281488 4288085770
4.1882019 -1.7460537 -1.8373423 4288085770
2.5914001 -1.4083805 -1.8310518 4288085770
3.9573975 -1.7212334 -1.8372192 4288085770
2.4146423 -1.3917828 -1.8256721 4288085770
3.7445679 -1.6984673 -1.8393421 4288085770
2.2558289 -1.3762302 -1.8235312 4288085770
3.5367432 -1.6747227 -1.8405237 4288085770
2.1239014 -1.3667364 -1.8287687 4288085770
3.3439026 -1.6530247 -1.8429117 4288085770
1.9790955 -1.3522243 -1.8288145 4288085770
3.1560669 -1.6303463 -1.8453579 4288085770
1.8373108 -1.3377323 -1.8269005 4288085770
2.9264832 -1.594594 -1.8332005 4288085770
1.6974792 -1.3212471 -1.8250027 4288085770
2.7347412 -1.5679331 -1.8295803 4288085770
1.567627 -1.3067875 -1.8252439 4288085770
2.5619202 -1.5433226 -1.8292141 4288085770
1.4338684 -1.2883348 -1.821414 4288085770
2.401123 -1.5207539 -1.8290138 4288085770
1.3190002 -1.2749176 -1.8238544 4288085770
2.2483215 -1.498208 -1.829916 4288085770
1.2201233 -1.2645445 -1.828517 4288085770
2.0826111 -1.4706488 -1.8246279 4288085770
1.0993347 -1.2471361 -1.8248615 4288085770
1.9467163 -1.4501572 -1.8267612 4288085770
1.003418 -1.2347689 -1.830554 4288085770
1.7940369 -1.4236383 -1.8226471 4288085770
1.6681824 -1.4031811 -1.8249111 4288085770
1.5433655 -1.3817387 -1.8251829 4288085770
1.4165649 -1.3582954 -1.8244209 4288085770
1.29776 -1.3358793 -1.8237667 4288085770
1.1809692 -1.3134747 -1.8221378 4288085770
1.0721741 -1.2920885 -1.8226185 4288085770
0.97235107 -1.2717228 -1.8252201 4288085770
0.98553467 0.60943413 -1.7730026 4288085770
1.0977173 0.62203979 -1.7742863 4288085770
1.2228394 0.63560867 -1.7777214 4288085770
1.3270874 0.64621544 -1.7739153 4288085770
1.438324 0.65678978 -1.7691946 4288085770
1.5694885 0.66932869 -1.7707052 4288085770
1.7116394 0.68182945 -1.7723503 4288085770
1.8657837 0.69529915 -1.7761354 4288085770
1.0256042 0.65528107 -1.7770987 4288085770
2.0019836 0.70579529 -1.7727156 4288085770
1.1348267 0.66387177 -1.7743626 4288085770
2.1561584 0.7172451 -1.7735071 4288085770
1.2599792 0.67243767 -1.7768211 4288085770
2.3323059 0.72964096 -1.7775612 4288085770
1.3701782 0.68001747 -1.7721014 4288085770
2.5084839 0.74201584 -1.778614 4288085770
1.5003662 0.6875515 -1.7716236 4288085770
2.6846924 0.75338364 -1.7776699 4288085770
1.6494751 0.69704056 -1.7763662 4288085770
2.8738708 0.76470375 -1.7768841 4288085770
1.7876587 0.70454025 -1.7749834 4288085770
3.0910034 0.77795601 -1.7814264 4288085770
1.9478149 0.71298409 -1.7778635 4288085770
3.328125 0.7911377 -1.7862091 4288085770
2.111969 0.72140884 -1.7797899 4288085770
3.5423279 0.80236053 -1.7837219 4288085770
2.3259583 0.73272514 -1.7943058 4288085770
3.7765198 0.81352425 -1.7834768 4288085770
2.4472656 0.73521805 -1.7807398 4288085770
4.0117493 0.82367134 -1.7802467 4288085770
2.6723022 0.74547958 -1.7923927 4288085770
4.2460327 0.83179665 -1.7730141 4288085770
2.8445435 0.75084305 -1.7884274 4288085770
4.525238 0.84280014 -1.7723093 4288085770
3.0476685 0.75612068 -1.7888365 4288085770
4.8274231 0.85372925 -1.7728815 4288085770
3.2368774 0.76042175 -1.7840815 4288085770
5.1516113 0.86558151 -1.773715 4288085770
3.4650574 0.76661682 -1.7857857 4288085770
5.5027771 0.87634087 -1.7748775 4288085770
3.702179 0.77178192 -1.7876034 4288085770
5.8999023 0.88995361 -1.7795792 4288085770
3.9273987 0.77395248 -1.7822895 4288085770
6.3251038 0.901474 -1.784627 4288085770
4.173584 0.77705956 -1.7792225 4288085770
6.8052063 0.91481209 -1.7923279 4288085770
4.4357605 0.7781105 -1.7763586 4288085770
7.4151306 0.9347744 -1.8155613 4288085770
4.7289429 0.78106689 -1.7758579 4288085770
7.9513245 0.94589043 -1.818944 4288085770
5.0600891 0.78391266 -1.7798147 4288085770
8.9009399 0.9798336 -1.8762045 4288085770
5.413208 0.78567696 -1.78304 4288085770
9.963562 1.0143929 -1.9358177 4288085770
5.7853394 0.78737259 -1.7864933 4288085770
11.022339 1.04389 -1.9814043 4288085770
6.1515198 0.78505707 -1.7838917 4288085770
12.123169 1.0691986 -2.0195112 4288085770
6.6255493 0.78743935 -1.7955675 4288085770
13.605682 1.1093254 -2.0891418 4288085770
7.1375732 0.78767776 -1.8057089 4288085770
15.5 1.1601391 -2.184679 4288085770
7.7445374 0.78963089 -1.8249836 4288085770
8.5462341 0.79601479 -1.8665819 4288085770
9.5088501 0.80590057 -1.9210968 4288085770
10.400604 0.80491829 -1.9538078 4288085770
11.535217 0.80818558 -2.0064163 4288085770
12.679932 0.80435562 -2.0471754 4288085770
14.338165 0.8089447 -2.1320705 4288085770
3.3318481 -4.4890909 -0.51612186 4293729569
3.5079346 -4.4833746 -0.63687801 4293729569
3.5866089 -4.4895487 -0.67770576 4293729569
3.6304016 -4.4715881 -0.71607113 4293729569
3.7230835 -4.4818153 -0.75806046 4293729569
3.8904419 -4.4862013 -0.84078503 4293729569
4.8874207 -4.9917278 -0.47022629 4293729569
3.9851074 -4.491437 -0.88277435 4293729569
4.8943787 -4.9356251 -0.50604916 4293729569
4.6547546 -4.8297939 -0.99112225 4293729569
4.43573 -4.6137171 -0.51092911 4293729569
4.2671204 -4.5482569 -0.97590828 4293729569
4.4108582 -4.5415068 -0.54035568 4293729569
4.9068909 -4.8564882 -1.0848169 4293729569
4.5405273 -4.5559006 -0.57874489 4293729569
4.4346313 -4.5296564 -1.0555401 4293729569
5.0544739 -4.8158064 -1.1641464 4293729569
4.7380371 -4.5434513 -0.65071201 4293729569
4.6888733 -4.5493774 -1.1442289 4293729569
4.7049255 -4.4953384 -1.1731548 4293729569
5.0224304 -4.5663414 -0.72772598 4293729569
4.9611511 -4.5681686 -1.2341003 4293729569
5.157135 -4.5697546 -0.76612186 4293729569
7.3765869 -5.7767477 -1.6011591 4293729569
5.2928467 -4.5711813 -0.80252075 4293729569
5.2224426 -4.5709286 -1.3207912 4293729569
5.4764709 -4.5947886 -0.84350681 4293729569
6.8558044 -5.3386736 -1.5838995 4293729569
5.6990967 -4.671463 -1.4371185 4293729569
5.7929077 -4.6078129 -0.91980743 4293729569
6.1188354 -4.8048725 -1.5230064 4293729569
5.9884949 -4.6274672 -0.96090031 4293729569
6.0263672 -4.6814709 -1.52952 4293729569
6.0794678 -4.5947304 -0.99168873 4293729569
5.9927368 -4.5882835 -1.543767 4293729569
6.0836487 -4.5545359 -1.5775518 4293729569
6.4807434 -4.62609 -1.0719423 4293729569
6.0131531 -4.4432306 -1.5823421 4293729569
6.6924133 -4.6408148 -1.1121778 4293729569
6.0981445 -4.4034739 -1.6120424 4293729569
6.9240417 -4.6606207 -1.1526413 4293729569
6.3525391 -4.4383125 -1.6688042 4293729569
7.1875916 -4.6915417 -1.1974792 4293729569
6.572113 -4.4540348 -1.7181253 4293729569
12.697266 -6.9809256 -1.8149929 4293729569
6.7687683 -4.4556808 -1.7631512 4293729569
12.391571 -6.7227182 -1.8017273 4293729569
7.0023193 -4.4694576 -1.8136082 4293729569
7.7829285 -4.6786032 -1.3045301 4293729569
7.2339172 -4.4792337 -1.8620281 4293729569
8.0794983 -4.7076588 -1.3497 4293729569
7.4775085 -4.4900513 -1.9125748 4288085770
11.851501 -6.1215525 -1.7885628 4293729569
7.7241211 -4.4988852 -1.9621439 4288085770
8.5759277 -4.714426 -1.4258213 4293729569
7.8182373 -4.4431953 -1.9838667 4288085770
8.9822998 -4.7719002 -1.4802408 4293729569
7.8007507 -4.3431158 -1.9872513 4288085770
9.2650146 -4.7779217 -1.5191669 4293729569
7.7523499 -4.2309361 -1.9832659 4288085770
9.5836487 -4.792079 -1.5614958 4293729569
7.7408752 -4.1338921 -1.9837255 4288085770
10.004089 -4.8386173 -1.6140118 4293729569
7.7094727 -4.0297842 -1.9789505 4288085770
10.594086 -4.9397821 -1.685503 4293729569
7.6880493 -3.9307146 -1.9752989 4288085770
11.082397 -4.9965811 -1.7427588 4293729569
7.6646423 -3.8306446 -1.9696226 4288085770
11.05307 -4.8694782 -1.738904 4293729569
7.6541748 -3.7356234 -1.9651022 4288085770
11.515564 -4.9081955 -1.789814 4293729569
7.6497498 -3.6446257 -1.960659 4288085770
11.678833 -4.8428173 -1.8042011 4293729569
7.6682129 -3.5597162 -1.9584789 4288085770
11.912933 -4.7967062 -1.8254004 4293729569
7.6777649 -3.471776 -1.9541941 4288085770
12.276733 -4.7890759 -1.860096 4293729569
7.6962891 -3.388875 -1.9490213 4288085770
12.738373 -4.8048172 -1.9038973 4293729569
7.7647095 -3.319149 -1.9524193 4288085770
13.262939 -4.8317986 -1.9523916 4293729569
7.8241272 -3.2454023 -1.9517088 4288085770
13.835419 -4.8659658 -2.0034084 4293729569
7.8796082 -3.1716442 -1.9489546 4288085770
14.42691 -4.8972139 -2.0546074 4293729569
7.9390259 -3.0989046 -1.9462452 4288085770
15.075378 -4.9356842 -2.1084204 4293729569
8.0503845 -3.0383492 -1.9511242 4288085770
15.778778 -4.9793673 -2.1658201 4293729569
8.1407776 -2.970727 -1.9507551 4288085770
8.2590942 -2.9102077 -1.9537058 4288085770
8.3735352 -2.8476849 -1.9536057 4288085770
8.5238342 -2.7932882 -1.9589071 4288085770
8.6661987 -2.7338743 -1.9601059 4288085770
8.8365173 -2.6805592 -1.9656172 4288085770
9.0217896 -2.6263084 -1.9702787 4288085770
9.2500305 -2.5802145 -1.9804163 4288085770
9.3875427 -2.5128107 -1.9735289 4288085770
9.6247864 -2.4637604 -1.9817438 4288085770
9.9379272 -2.4269924 -1.9977903 4288085770
10.366791 -2.4066486 -2.0280943 4288085770
10.714996 -2.3670311 -2.0424862 4288085770
11.09314 -2.3275299 -2.059186 4288085770
11.506256 -2.2901611 -2.0782509 4288085770
11.929413 -2.2478466 -2.0943995 4288085770
12.424469 -2.210804 -2.1163054 4288085770
12.914673 -2.1667624 -2.1331301 4288085770
13.5466 -2.137248 -2.1644688 4288085770
14.211609 -2.1058731 -2.195137 4288085770
14.952515 -2.0747938 -2.2295837 4288085770
15.886292 -2.0554495 -2.280057 4288085770
15.931854 1.3793793 -2.1925383 4288085770
14.630554 1.405489 -2.1352892 4288085770
13.283356 1.4137211 -2.0586843 4288085770
12.294952 1.4345932 -2.0133781 4288085770
11.607361 1.4703388 -1.9968204 4288085770
10.880798 1.4951973 -1.9679451 4288085770
10.116333 1.5101719 -1.926755 4288085770
9.4907837 1.5316238 -1.8988361 4288085770
8.8642273 1.5460529 -1.8639364 4288085770
8.3486633 1.5650673 -1.8390541 4288085770
7.8960571 1.5868435 -1.8197489 4288085770
7.4184265 1.6006927 -1.7922421 4288085770
15.783875 2.6657963 -2.1559896 4288085770
7.053772 1.6231213 -1.7767553 4293729569
14.694336 2.6430664 -2.1059246 4288085770
6.7380676 1.6493702 -1.7677116 4293729569
13.665802 2.6180782 -2.0534372 4288085770
6.5223083 1.6862602 -1.7715578 4293729569
12.888153 2.6161423 -2.0232 4288085770
6.3385315 1.7260246 -1.7786922 4288085770
12.195496 2.6178684 -1.995738 4288085770
6.1037903 1.7559662 -1.7753887 4288085770
11.565826 2.6213455 -1.9708595 4288085770
5.9140625 1.7897358 -1.7764921 4288085770
11.016144 2.6305122 -1.9507036 4288085770
5.7123108 1.8205471 -1.7744942 4288085770
10.407562 2.6248798 -1.9180593 4288085770
5.5205688 1.8513107 -1.7715902 4288085770
9.8878784 2.6279106 -1.8932095 4288085770
5.3637695 1.885952 -1.7739973 4288085770
9.3862305 2.6268559 -1.8655434 4288085770
5.2070312 1.9195881 -1.7744112 4288085770
8.9235229 2.6286507 -1.8402319 4288085770
5.0233154 1.9463062 -1.7676001 4288085770
8.5469055 2.6411247 -1.823679 4288085770
4.8786011 1.9788895 -1.7671289 4288085770
8.1392212 2.6427002 -1.7998791 4288085770
4.7458496 2.0124245 -1.767766 4288085770
7.818512 2.6579494 -1.7838373 4288085770
4.6240845 2.046917 -1.7685013 4288085770
7.5548096 2.6819935 -1.7762928 4293729569
4.5003662 2.0804119 -1.7672243 4288085770
7.2801208 2.7010651 -1.7636662 4293729569
4.3956299 2.1168365 -1.7691135 4288085770
7.0154419 2.7180882 -1.7491398 4293729569
4.2928467 2.1522522 -1.7700233 4288085770
6.8147278 2.7478828 -1.7441607 4293729569
4.1721497 2.1817245 -1.76579 4288085770
6.6569519 2.7855206 -1.7445517 4293729569
4.0864258 2.2190704 -1.7668514 4288085770
6.4922791 2.8191738 -1.7408924 4293729569
3.9916992 2.2534466 -1.7658424 4288085770
6.3155518 2.8478661 -1.7341413 4293729569
3.9109497 2.2917728 -1.7669487 4288085770
6.1858215 2.8873882 -1.7337866 4293729569
3.8152466 2.3241425 -1.7629375 4288085770
6.0961304 2.9367657 -1.7397671 4293729569
3.7624817 2.3663673 -1.7682896 4288085770
5.9764099 2.9772396 -1.7375021 4293729569
3.6567993 2.3947678 -1.7602015 4288085770
5.8527222 3.0137272 -1.7342167 4293729569
3.5890503 2.4320316 -1.7594337 4288085770
5.7510071 3.0571327 -1.7331085 4293729569
3.5153503 2.4673176 -1.7566175 4288085770
5.6542969 3.0995178 -1.7320509 4293729569
3.4806519 2.5134678 -1.7611237 4288085770
5.5996399 3.1547451 -1.7363367 4293729569
3.4109497 2.5487309 -1.7573452 4288085770
5.5619202 3.2139206 -1.7437639 4293729569
3.3562317 2.5879402 -1.7556906 4288085770
5.5202637 3.273098 -1.7481565 4293729569
3.3215027 2.6340847 -1.7581987 4288085770
5.4515991 3.3223667 -1.7473345 4293729569
3.2688599 2.6722832 -1.7555676 4288085770
5.3959045 3.3755894 -1.7476196 4288085770
3.2001648 2.7055302 -1.7478075 4288085770
5.353241 3.4317608 -1.7490139 4288085770
3.1624756 2.7486725 -1.7462988 4288085770
5.2986145 3.4839706 -1.7473125 4288085770
3.1238098 2.7908154 -1.743784 4288085770
5.2489624 3.537159 -1.7446527 4293729569
3.0990906 2.8379116 -1.74438 4288085770
5.2143555 3.595293 -1.7441158 4293729569
3.0714417 2.8840122 -1.7429533 4288085770
5.2017212 3.6623497 -1.7477493 4288085770
3.041748 2.9281178 -1.7405157 4288085770
5.1750793 3.7224464 -1.7462788 4288085770
3.0270691 2.9781704 -1.7401953 4288085770
5.1474915 3.7835464 -1.7447958 4293729569
3.0254211 3.0341816 -1.7429733 4288085770
5.1418762 3.8515625 -1.7444906 4293729569
3.0307312 3.0921631 -1.746809 4288085770
5.149292 3.9255352 -1.7472849 4288085770
3.0170898 3.1432056 -1.7444944 4288085770
5.1377258 3.9925709 -1.7449293 4288085770
3.0454407 3.2111053 -1.7515068 4288085770
5.1311035 4.0605793 -1.7416153 4293729569
3.0287781 3.2601547 -1.7471714 4288085770
5.1545715 4.1424828 -1.7435293 4293729569
3.0331726 3.3181267 -1.7459984 4288085770
5.1850281 4.2263565 -1.7454996 4288085770
3.0465088 3.3800678 -1.7468939 4288085770
5.213501 4.310236 -1.7454529 4293729569
3.0689087 3.4459763 -1.7488575 4288085770
5.2079773 4.3792267 -1.7381458 4293729569
3.0932922 3.5138721 -1.7498331 4288085770
5.2424622 4.4670792 -1.7371397 4293729569
3.1047058 3.5748119 -1.747715 4288085770
5.3329773 4.5807323 -1.7455568 4293729569
3.1431274 3.6506557 -1.7497911 4288085770
5.4094849 4.6904278 -1.7498579 4293729569
3.1715393 3.7205315 -1.7487965 4288085770
5.4760437 4.7951527 -1.7500858 4293729569
3.2129517 3.7973614 -1.7508974 4288085770
5.5766296 4.9167538 -1.7555656 4293729569
3.2564087 3.8751793 -1.7510128 4288085770
5.6602173 5.0314121 -1.7569141 4293729569
3.3148193 3.960947 -1.7542372 4288085770
5.7728577 5.1619587 -1.7604723 4293729569
3.3432922 4.0318031 -1.7482395 4288085770
5.898468 5.2994614 -1.7661247 4288085770
3.40979 4.1225376 -1.7515192 4288085770
6.0081177 5.4310112 -1.7666512 4288085770
3.4742737 4.2132702 -1.7517815 4288085770
6.1358032 5.5724888 -1.7683077 4288085770
3.5487976 4.309967 -1.7541151 4288085770
6.2775879 5.7239113 -1.7700577 4288085770
3.6203003 4.4056644 -1.7524233 4288085770
6.4443359 5.8892384 -1.7739887 4288085770
3.6808472 4.4944 -1.7486563 4288085770
6.5921021 6.0456276 -1.7727747 4288085770
3.7883911 4.6099644 -1.752224 4288085770
6.8199463 6.2487297 -1.7831287 4288085770
3.8979492 4.7275257 -1.7558022 4288085770
7.1169434 6.4925766 -1.8009691 4288085770
4.0135803 4.8510551 -1.7584152 4288085770
7.4850159 6.7811565 -1.827301 4288085770
4.1261597 4.9715939 -1.7590084 4288085770
7.8421021 7.0677662 -1.8475389 4288085770
4.2818604 5.1189766 -1.7659035 4288085770
8.0951843 7.2957325 -1.848032 4288085770
4.4465332 5.2723236 -1.7728586 4288085770
8.5565186 7.6499424 -1.8769808 4288085770
4.5992432 5.4197044 -1.7757225 4288085770
9.0259094 8.0131054 -1.899971 4288085770
4.7339783 5.5571346 -1.7714577 4288085770
4.9017639 5.714447 -1.7714252 4288085770
5.0865479 5.8826962 -1.7735062 4288085770
5.2984009 6.0698376 -1.7767687 4288085770
5.5103149 6.2559662 -1.7760344 4288085770
5.7762756 6.4789066 -1.7846632 4288085770
6.0553284 6.7107849 -1.7903767 4288085770
6.3293762 6.9396687 -1.7910547 4288085770
6.6585083 7.2053452 -1.7981052 4288085770
7.0688171 7.5257244 -1.8147001 4288085770
7.6744385 7.9783916 -1.8566084 4288085770
16.136597 -0.96699333 -2.2515907 4288085770
14.371521 -0.93910599 -2.1585503 4288085770
12.99118 -0.92169857 -2.0937977 4288085770
11.860718 -0.90925026 -2.0471764 4288085770
10.842255 -0.89625359 -2.0025043 4288085770
9.9946289 -0.88690662 -1.9712896 4288085770
9.2180176 -0.87684631 -1.9416752 4288085770
8.5004272 -0.86302757 -1.9115524 4288085770
7.8118896 -0.84733772 -1.8776731 4288085770
14.928955 -1.4893293 -2.1954403 4288085770
7.2551575 -0.83813477 -1.8599262 4288085770
13.286133 -1.4009142 -2.1102991 4288085770
6.7633972 -0.83018875 -1.8447323 4288085770
12.037872 -1.3390083 -2.0565662 4288085770
6.2956848 -0.82034302 -1.8287392 4288085770
10.970551 -1.2848082 -2.0123835 4288085770
5.8979187 -0.81375694 -1.8203468 4288085770
10.056122 -1.2382011 -1.9775162 4288085770
5.5430603 -0.80833054 -1.8163204 4288085770
9.2226868 -1.1939192 -1.9443426 4288085770
5.2202148 -0.80402565 -1.8155689 4288085770
8.4492493 -1.1498852 -1.9096785 4288085770
4.918335 -0.79881191 -1.8139915 4288085770
7.791687 -1.1132946 -1.8840132 4288085770
4.6315002 -0.79366016 -1.8115435 4288085770
7.2221069 -1.0810461 -1.8641033 4288085770
4.3866272 -0.78965664 -1.8154526 4288085770
6.6984253 -1.0509768 -1.8465881 4288085770
4.145752 -0.78567505 -1.8183966 4288085770
6.2098389 -1.0210505 -1.8293715 4288085770
3.9328003 -0.78179932 -1.8245764 4288085770
5.8141174 -0.99946785 -1.8229589 4288085770
3.6879883 -0.77282047 -1.8204746 4288085770
5.4503479 -0.98000908 -1.8178253 4288085770
3.4711609 -0.76494694 -1.8196135 4288085770
5.1165466 -0.95966625 -1.8149414 4288085770
3.2553101 -0.75608253 -1.8177586 4288085770
4.8147278 -0.94244576 -1.8143368 4288085770
3.0614929 -0.74830055 -1.8180914 4288085770
4.519928 -0.92426491 -1.8107901 4288085770
2.8776245 -0.74055481 -1.8195114 4288085770
4.2640991 -0.90822601 -1.8125772 4288085770
2.6957703 -0.73082352 -1.8189411 4288085770
4.0402222 -0.89630318 -1.8186464 4288085770
2.5129395 -0.72009754 -1.815362 4288085770
3.8093567 -0.8803606 -1.8216457 4288085770
2.3431396 -0.71041965 -1.8138952 4288085770
3.5945435 -0.86549187 -1.8227835 4288085770
2.1793213 -0.69976711 -1.8114777 4288085770
3.3667908 -0.84758091 -1.8198061 4288085770
2.0294495 -0.69016266 -1.8121815 4288085770
3.1559753 -0.82973099 -1.8189726 4288085770
1.8866272 -0.67958546 -1.8129396 4288085770
2.9491882 -0.81190968 -1.8151741 4288085770
1.7368164 -0.66799641 -1.8086395 4288085770
2.7663574 -0.79617119 -1.8155823 4288085770
1.6099854 -0.6584816 -1.8105364 4288085770
2.5845947 -0.77844715 -1.812994 4288085770
1.4831238 -0.64797401 -1.8104315 4288085770
2.4157715 -0.7627697 -1.812521 4288085770
2.2499695 -0.74610615 -1.810071 4288085770
2.0961609 -0.72949028 -1.8097229 4288085770
1.9473572 -0.71389484 -1.8084202 4288085770
1.8075562 -0.69833374 -1.8081932 4288085770
1.6637573 -0.68076611 -1.8049278 4288085770
1.553894 -0.6683073 -1.8109617 4288085770
1.537262 1.2667351 -1.7666063 4288085770
1.66745 1.2831993 -1.7675476 4288085770
1.798645 1.2986565 -1.7664995 4288085770
1.9498291 1.3170414 -1.7695951 4288085770
2.0940247 1.3334484 -1.7696419 4288085770
2.2362671 1.3478565 -1.7676783 4288085770
2.3615112 1.3583088 -1.7575932 4288085770
1.4739075 1.223959 -1.7701139 4288085770
2.5057373 1.3716965 -1.7516451 4288085770
1.6130371 1.2363949 -1.7741337 4288085770
2.6999207 1.3909168 -1.7570658 4288085770
1.7402344 1.2458668 -1.772068 4288085770
2.8781128 1.4071808 -1.7563696 4288085770
1.8704224 1.2543259 -1.7700281 4288085770
3.0563354 1.4214401 -1.7536774 4288085770
2.0245667 1.2667007 -1.7741594 4288085770
3.2734985 1.4415607 -1.757267 4288085770
2.1767273 1.2770786 -1.775281 4288085770
3.5206604 1.4645748 -1.7670774 4288085770
2.3169556 1.2834854 -1.7703209 4288085770
3.7658691 1.4855862 -1.7728777 4288085770
2.4671021 1.289856 -1.7674351 4288085770
4.0230408 1.506546 -1.7777672 4288085770
2.616333 1.2962322 -1.7635422 4288085770
4.274231 1.5245228 -1.7796173 4288085770
2.7894897 1.3045177 -1.762826 4288085770
4.5504456 1.5433998 -1.7826548 4288085770
2.9586487 1.3098145 -1.760087 4288085770
4.7996521 1.5563622 -1.7775011 4288085770
3.1468201 1.3170433 -1.7604866 4288085770
5.1278381 1.5790386 -1.7849226 4288085770
3.3379822 1.3232479 -1.7579098 4288085770
5.4250488 1.5948124 -1.7821226 4288085770
3.5751038 1.3342972 -1.7656698 4288085770
5.7662659 1.6144257 -1.7846479 4288085770
3.7872925 1.339426 -1.7652559 4288085770
6.1084595 1.6310234 -1.7851858 4288085770
4.0124512 1.3444977 -1.7639389 4288085770
6.4636841 1.6465588 -1.7818251 4288085770
4.2845764 1.3544064 -1.771966 4288085770
6.7999573 1.6561546 -1.7723351 4293729569
4.5297241 1.3583965 -1.7708015 4288085770
7.3070984 1.684124 -1.7860947 4293729569
4.8028564 1.3622818 -1.7728491 4288085770
8.0231323 1.7363186 -1.8263788 4288085770
5.0720215 1.3641739 -1.7708702 4288085770
8.7382202 1.7804928 -1.8586731 4288085770
5.3901367 1.368885 -1.7752552 4288085770
9.6052856 1.83708 -1.9020872 4288085770
5.715271 1.3715591 -1.7776966 4288085770
10.536346 1.8944149 -1.947979 4288085770
6.0503845 1.3721905 -1.7792177 4288085770
11.550446 1.9524021 -1.991497 4288085770
6.4564819 1.3765545 -1.7882681 4288085770
12.544525 1.9994373 -2.0228853 4288085770
6.7716675 1.3682365 -1.778657 4293729569
13.978516 2.0827961 -2.0935144 4288085770
7.2477417 1.3733292 -1.7922316 4288085770
15.50351 2.1627674 -2.1588354 4288085770
7.9187012 1.392704 -1.8312464 4288085770
8.5556641 1.4031792 -1.8580217 4288085770
9.3645325 1.4220104 -1.9030771 4288085770
10.164459 1.4328461 -1.9390812 4288085770
11.15332 1.4519672 -1.9914913 4288085770
11.952332 1.445755 -2.0095234 4288085770
13.055176 1.4533958 -2.0578194 4288085770
14.54483 1.4765549 -2.1389961 4288085770
15.983551 1.4818707 -2.2018242 4288085770
2.9291992 -4.4508057 -0.47121239 4293729569
2.9110107 -4.4616232 -0.51008797 4293729569
2.8046265 -4.4498825 -0.6212225 4293729569
2.7954102 -4.459734 -0.66116047 4293729569
2.7872314 -4.4695892 -0.70110512 4293729569
2.735199 -4.4452829 -0.73564053 4293729569
2.716095 -4.4430981 -0.77447319 4293729569
2.7178345 -4.4539909 -0.81549168 4293729569
2.7146912 -4.4588652 -0.85645866 4293729569
2.7184448 -4.4667654 -0.89748383 4293729569
2.714325 -4.4666386 -0.93742847 4293729569
2.7649536 -4.4599047 -0.57574081 4293729569
2.7181091 -4.4715395 -0.9784441 4293729569
2.7807312 -4.4678555 -0.61684799 4293729569
2.7139893 -4.4674139 -1.0183764 4293729569
2.7875671 -4.4677753 -0.65586948 4293729569
2.7108459 -4.4622898 -1.0583134 4293729569
2.8034058 -4.4717264 -0.69696617 4293729569
2.7067261 -4.4551668 -1.0972376 4293729569
2.7962952 -4.4575911 -0.73584843 4293729569
2.7215576 -4.4591084 -1.139327 4293729569
2.7982178 -4.4484921 -0.77380848 4293729569
2.7243958 -4.4530134 -1.1783028 4293729569
2.7830811 -4.4831161 -1.2277775 4293729569
2.8058777 -4.4860888 -1.2709198 4293729569
2.8556213 -4.5071564 -1.3193035 4293729569
7.5093079 -7.6304388 -1.5780134 4293729569
4.042511 -5.3192072 -1.5969658 4293729569
2.9772034 -4.4886379 -0.98504639 4293729569
3.833313 -5.1513548 -1.5979776 4293729569
2.9791565 -4.4675446 -1.0219717 4293729569
3.0409241 -4.4846849 -1.0654202 4293729569
2.9788818 -4.5131884 -1.4930687 4293729569
3.0608215 -4.4716578 -1.1044922 4293729569
3.3462524 -4.7403526 -1.61127 4293729569
5.617981 -6.1587944 -1.5602493 4293729569
3.2018738 -4.6147566 -1.6148653 4293729569
5.395813 -5.9698687 -1.5681057 4293729569
3.0395813 -4.4751081 -1.6112947 4293729569
3.2441101 -4.5040407 -1.2367744 4293729569
2.8872375 -4.3424988 -1.6088142 4293729569
2.8534546 -4.2872992 -1.6323872 4293729569
3.3189392 -4.4831324 -1.3141727 4293729569
2.9012451 -4.286377 -1.6746883 4293729569
4.6099548 -5.2816229 -1.5874596 4293729569
2.9710388 -4.2985296 -1.7221804 4293729569
4.0104065 -4.8504076 -1.5079927 4293729569
3.0238647 -4.296629 -1.764513 4293729569
3.5283508 -4.4996271 -1.4445829 4293729569
3.0996399 -4.3068027 -1.8130388 4293729569
3.5653076 -4.4806786 -1.480751 4293729569
3.1574707 -4.3039255 -1.8544016 4288085770
3.6421204 -4.4848747 -1.5232639 4293729569
3.2312622 -4.3090982 -1.900898 4288085770
3.9141541 -4.6077518 -1.6064758 4293729569
3.2373657 -4.27005 -1.9277945 4288085770
3.7878113 -4.4812422 -1.6061964 4293729569
3.1419067 -4.1656733 -1.9257965 4288085770
3.6734314 -4.3627777 -1.6070242 4293729569
3.0465088 -4.0613003 -1.9218006 4288085770
3.6875 -4.3217649 -1.6329679 4293729569
2.9042969 -3.9277792 -1.9033966 4288085770
3.7793579 -4.3260221 -1.6755829 4293729569
2.8168335 -3.8294411 -1.8984747 4288085770
3.8821411 -4.3333225 -1.7192802 4293729569
2.7583008 -3.747201 -1.9008007 4288085770
3.9849548 -4.3396215 -1.7629728 4293729569
2.6947632 -3.6629515 -1.899087 4288085770
4.0927734 -4.3459406 -1.8067026 4293729569
2.6173401 -3.5706606 -1.8922548 4288085770
4.2025757 -4.3502684 -1.8504362 4288085770
2.5667725 -3.4934616 -1.8916521 4288085770
4.3173828 -4.3556166 -1.894207 4288085770
2.5042725 -3.4102278 -1.8859501 4288085770
4.406311 -4.3438797 -1.930747 4288085770
2.4477539 -3.3310156 -1.8813019 4288085770
4.3507996 -4.2526531 -1.9330626 4288085770
2.4131775 -3.2638798 -1.8818407 4288085770
4.24646 -4.1352644 -1.9219646 4288085770
2.3686218 -3.1907139 -1.878293 4288085770
4.1600952 -4.0279427 -1.913022 4288085770
2.3429871 -3.1286125 -1.8789072 4288085770
4.0816956 -3.926651 -1.9051514 4288085770
2.2974548 -3.0554523 -1.8723545 4288085770
4.0292053 -3.8374519 -1.901494 4288085770
2.2688599 -2.9913464 -1.8699436 4288085770
3.9846802 -3.7542839 -1.8989115 4288085770
2.24823 -2.9312696 -1.8695993 4288085770
3.9321899 -3.6680918 -1.8932638 4288085770
2.2305908 -2.8732071 -1.8682833 4288085770
3.8956604 -3.5889559 -1.890748 4288085770
2.2189636 -2.8181667 -1.8680162 4288085770
3.8561707 -3.5088158 -1.8852091 4288085770
2.2063293 -2.7631245 -1.8667421 4288085770
3.8246155 -3.4337053 -1.8807392 4288085770
2.1867065 -2.7040663 -1.8614092 4288085770
3.8190308 -3.3696852 -1.8814783 4288085770
2.1691284 -2.6470127 -1.8570957 4288085770
3.7954407 -3.2986097 -1.8770771 4288085770
2.1803894 -2.603056 -1.8600187 4288085770
3.7878113 -3.2345867 -1.8758039 4288085770
2.1588135 -2.5429945 -1.8526697 4288085770
3.7762451 -3.1695576 -1.871501 4288085770
2.1820679 -2.5040808 -1.8576889 4288085770
3.7856445 -3.1126032 -1.8713646 4288085770
