# .PCD v0.7 - Point Cloud Data file format
VERSION 0.7
FIELDS x y z rgb
SIZE 4 4 4 4
TYPE F F F U
COUNT 1 1 1 1
WIDTH 1120
HEIGHT 1
VIEWPOINT 0 0 0 1 0 0 0
POINTS 1120
DATA ascii
1.3280029 0.54906273 -1.8215322 4288085770
2.8217773 0.63199425 -1.8242474 4288085770
1.1523132 0.5637598 -1.81884 4288085770
2.5939026 0.64851856 -1.8242979 4288085770
0.99743652 0.57916355 -1.8200464 4288085770
2.3631592 0.66506577 -1.8212204 4288085770
0.84466553 0.59452057 -1.8193407 4288085770
2.1593018 0.68222427 -1.8223009 4288085770
0.69891357 0.6097641 -1.8179379 4288085770
1.9476929 0.69746304 -1.8170547 4288085770
0.57003784 0.62477207 -1.8202677 4288085770
1.743103 0.71258545 -1.8111134 4288085770
0.41555786 0.6391077 -1.8124905 4288085770
1.563324 0.72935772 -1.8102331 4288085770
0.28292847 0.65313721 -1.80966 4288085770
1.3827209 0.74411678 -1.8053293 4288085770
0.15524292 0.66809082 -1.8070383 4288085770
1.230835 0.76047897 -1.8076572 4288085770
0.017791748 0.68116283 -1.7990036 4288085770
1.0859985 0.77772331 -1.8082819 4288085770
-0.075164795 0.69763184 -1.803874 4288085770
0.93334961 0.79306412 -1.8055792 4288085770
-0.19961548 0.71050358 -1.796402 4288085770
0.79464722 0.80819321 -1.8034811 4288085770
-0.30136108 0.72507191 -1.7959023 4288085770
0.65600586 0.82331371 -1.8003845 4288085770
-0.40496826 0.73964787 -1.7923203 4288085770
0.53424072 0.8391943 -1.8000126 4288085770
-0.4967041 0.75406361 -1.7922525 4288085770
0.40267944 0.85419559 -1.7952213 4288085770
-0.58734131 0.7694521 -1.7902241 4288085770
0.27215576 0.8691721 -1.7894735 4288085770
0.15155029 0.88300705 -1.7851639 4288085770
0.033081055 0.89779377 -1.7789354 4288085770
-0.078491211 0.91147518 -1.773016 4288085770
-0.17715454 0.92699242 -1.7716398 4288085770
-0.25204468 0.94518089 -1.7762756 4288085770
-0.34466553 0.9605875 -1.7731609 4288085770
-0.425354 0.97683716 -1.7735548 4288085770
-0.51593018 0.99220848 -1.7695284 4288085770
1.5719604 4.148037 -1.7517347 4288085770
1.7693787 4.2280216 -1.7545681 4288085770
0.4536438 3.5691319 -1.7432051 4288085770
1.9598389 4.3000889 -1.754159 4288085770
0.61151123 3.6267471 -1.7495203 4288085770
2.2092285 4.4023399 -1.7660561 4288085770
0.80633545 3.7028656 -1.7652855 4282675967
2.4347229 4.4879017 -1.7700481 4288085770
0.93942261 3.7437744 -1.759655 4288085770
2.6183167 4.5480175 -1.7614269 4288085770
1.0983887 3.7953453 -1.7620583 4288085770
2.8508911 4.632452 -1.7627268 4288085770
1.2544556 3.8429375 -1.761364 4288085770
3.1375427 4.7401142 -1.772172 4288085770
1.4165344 3.8904247 -1.7589273 4288085770
3.393219 4.8271847 -1.7724409 4288085770
1.5856323 3.9408245 -1.758769 4288085770
3.68396 4.9287548 -1.7781029 4288085770
1.7697144 3.9950027 -1.7602262 4288085770
4.028717 5.0535564 -1.7919092 4288085770
1.9717102 4.0559311 -1.7654018 4288085770
4.3785706 5.1762638 -1.8039446 4288085770
2.1967163 4.1245346 -1.7745066 4288085770
4.7095337 5.2842026 -1.8072767 4288085770
2.4098206 4.1842823 -1.778163 4288085770
5.0715027 5.4026928 -1.8148584 4288085770
2.6059875 4.2322502 -1.7761793 4288085770
5.4315491 5.5161839 -1.8183908 4288085770
2.7931213 4.2733326 -1.7708588 4288085770
5.7976379 5.6255665 -1.8202114 4288085770
3.024231 4.3307991 -1.7743025 4288085770
6.1897888 5.7425613 -1.8230915 4288085770
3.2453918 4.382391 -1.7733622 4288085770
6.6309814 5.8778496 -1.8329363 4288085770
3.4785461 4.4348068 -1.7739286 4288085770
7.0883484 6.0118675 -1.8394775 4288085770
3.7236633 4.4900513 -1.7759886 4288085770
7.5737305 6.1534672 -1.8481636 4288085770
3.9918213 4.5509529 -1.7799911 4288085770
8.0672302 6.2909184 -1.8532228 4288085770
4.3129272 4.6311092 -1.7931223 4288085770
8.5647278 6.4232941 -1.8564901 4288085770
4.5960999 4.6907768 -1.7967758 4288085770
9.1044006 6.5670261 -1.8604755 4288085770
4.8842773 4.747366 -1.7996664 4288085770
9.6851196 6.7201538 -1.8681488 4288085770
5.1914978 4.8086643 -1.8033361 4288085770
10.374146 6.9096794 -1.8841858 4288085770
5.5415649 4.8833618 -1.8147488 4288085770
11.248535 7.1664982 -1.9196625 4288085770
5.8997498 4.9549141 -1.8235264 4288085770
12.346466 7.4990177 -1.974143 4288085770
6.2519226 5.0195503 -1.8310966 4288085770
13.567841 7.8676872 -2.0346327 4288085770
6.5700989 5.065649 -1.8303461 4288085770
6.9472961 5.1288891 -1.836997 4288085770
7.286438 5.1726723 -1.837163 4288085770
7.6455688 5.219162 -1.8391628 4288085770
8.0016479 5.2596817 -1.8390779 4288085770
8.3997498 5.3085899 -1.84373 4288085770
8.7458191 5.3342285 -1.839324 4288085770
9.1468201 5.3740768 -1.8421688 4288085770
9.5638428 5.4136848 -1.8456993 4288085770
10.037842 5.4644566 -1.8545885 4288085770
10.676941 5.5628242 -1.8821955 4288085770
11.365967 5.6664524 -1.9139032 4288085770
12.189117 5.8051186 -1.9590921 4288085770
12.868073 5.8858585 -1.9845381 4288085770
13.555908 5.9584541 -2.0094252 4288085770
14.249786 6.0259457 -2.0326061 4288085770
13.944611 -2.0749311 -2.0885792 4288085770
13.321228 -2.1254969 -2.0682888 4288085770
12.614502 -2.1548576 -2.0372581 4288085770
11.938904 -2.1786957 -2.0065174 4288085770
11.306213 -2.2011652 -1.9796038 4288085770
10.710449 -2.2201834 -1.9552479 4288085770
10.211334 -2.2456141 -1.9410839 4288085770
9.6845398 -2.2606649 -1.9206505 4288085770
9.1361084 -2.2644129 -1.8961992 4288085770
8.7039795 -2.2818451 -1.8858433 4288085770
8.3444519 -2.3073368 -1.8836641 4288085770
7.980072 -2.3257627 -1.8802204 4288085770
7.6724243 -2.3500214 -1.8822546 4288085770
7.3757019 -2.3744297 -1.8867588 4288085770
7.0582886 -2.389555 -1.8863029 4288085770
6.756897 -2.4029217 -1.8865185 4288085770
13.308411 -3.8893127 -2.0955362 4288085770
6.4585571 -2.4133348 -1.8868408 4288085770
12.365723 -3.7910919 -2.0564165 4288085770
6.183197 -2.4240942 -1.8881502 4288085770
11.544525 -3.7086744 -2.0266237 4288085770
5.8860168 -2.4275398 -1.8864679 4288085770
10.827911 -3.64081 -2.0044241 4288085770
5.6395569 -2.4377193 -1.8910122 4288085770
10.051971 -3.5491114 -1.9714947 4288085770
5.365387 -2.4385118 -1.890295 4288085770
9.3508301 -3.4685335 -1.942853 4288085770
5.0943298 -2.4373569 -1.8886938 4288085770
8.8264465 -3.4235229 -1.9350691 4288085770
4.8382263 -2.4354219 -1.8887272 4288085770
8.3320923 -3.378973 -1.9275713 4288085770
4.5990601 -2.4347248 -1.8914957 4288085770
7.8645935 -3.3358202 -1.9222383 4288085770
4.3470764 -2.4278669 -1.8896675 4288085770
7.4369812 -3.2982607 -1.9196548 4288085770
4.1100464 -2.422224 -1.8894882 4288085770
7.0561523 -3.2663994 -1.9201231 4288085770
3.9037781 -2.4210176 -1.8946629 4288085770
6.65271 -3.2232275 -1.9155283 4288085770
3.6857605 -2.413662 -1.8952837 4288085770
6.3008728 -3.1918039 -1.9172392 4288085770
3.4688416 -2.4033308 -1.894928 4288085770
5.9423523 -3.1513081 -1.9145889 4288085770
3.2618408 -2.3941422 -1.8960066 4288085770
5.6028748 -3.1131058 -1.9117699 4288085770
3.0638733 -2.38309 -1.8974562 4288085770
5.2772827 -3.0751085 -1.9105492 4288085770
2.8521423 -2.3668528 -1.8952732 4288085770
4.9439392 -3.0310135 -1.9059458 4288085770
2.6375732 -2.3465939 -1.8899364 4288085770
4.6483765 -2.9934807 -1.9040117 4288085770
2.4408264 -2.3285809 -1.888382 4288085770
4.3687439 -2.9571743 -1.9047718 4288085770
2.2472229 -2.3096304 -1.8849506 4288085770
4.0952148 -2.9199753 -1.9037828 4288085770
2.0545959 -2.2886963 -1.8815479 4288085770
3.8355713 -2.8839779 -1.9043999 4288085770
1.8700562 -2.2668886 -1.8774834 4288085770
3.5791931 -2.8450575 -1.9011288 4288085770
1.7131042 -2.2524538 -1.8806629 4288085770
3.3464966 -2.8114672 -1.9029179 4288085770
1.5336609 -2.2277308 -1.8757906 4288085770
3.098175 -2.7686768 -1.8989611 4288085770
1.3582153 -2.2020769 -1.8700829 4288085770
2.8816223 -2.7343416 -1.8994312 4288085770
1.1946411 -2.1795874 -1.8669109 4288085770
2.6473083 -2.6917706 -1.8950758 4288085770
1.0341492 -2.1551495 -1.8628531 4288085770
2.4102478 -2.6441793 -1.887558 4288085770
0.90219116 -2.1400928 -1.8670979 4288085770
2.2156677 -2.6101837 -1.8879719 4288085770
0.73999023 -2.1096582 -1.8589153 4288085770
2.0083618 -2.5680265 -1.8837738 4288085770
0.58465576 -2.0813217 -1.8520451 4288085770
1.8150635 -2.5290813 -1.8801985 4288085770
0.44216919 -2.0561571 -1.848753 4288085770
1.6326599 -2.491291 -1.8781004 4288085770
0.32830811 -2.0393867 -1.8517551 4288085770
1.4405212 -2.4483852 -1.871542 4288085770
0.19085693 -2.0123062 -1.847662 4288085770
1.2632446 -2.4076872 -1.8676395 4288085770
0.061431885 -1.9863443 -1.8439207 4288085770
1.092926 -2.3690948 -1.8640509 4288085770
-0.064025879 -1.9604425 -1.8403502 4288085770
0.94140625 -2.3347635 -1.8643017 4288085770
-0.19042969 -1.9325352 -1.835722 4288085770
0.79492188 -2.3015146 -1.8637762 4288085770
-0.29315186 -1.9129467 -1.8371773 4288085770
0.64361572 -2.263217 -1.8600025 4288085770
-0.40270996 -1.8892784 -1.8353052 4288085770
0.4737854 -2.216691 -1.8483639 4288085770
-0.51611328 -1.8615665 -1.8312349 4288085770
0.34036255 -2.1816463 -1.8473806 4288085770
-0.62255859 -1.8359518 -1.8284788 4288085770
0.21969604 -2.1527805 -1.8489971 4288085770
0.080596924 -2.1126881 -1.8427267 4288085770
-0.052581787 -2.0736856 -1.8367195 4288085770
-0.17489624 -2.0378313 -1.8332043 4288085770
-0.29412842 -2.0020304 -1.8288174 4288085770
-0.40454102 -1.9683485 -1.8268299 4288085770
-0.50021362 -1.9408579 -1.829525 4288085770
-0.60357666 -1.9072914 -1.8268385 4288085770
-0.58401489 0.1381855 -1.8030949 4288085770
-0.48071289 0.14863014 -1.8063869 4288085770
-0.36361694 0.15787792 -1.8122787 4288085770
-0.27011108 0.1684227 -1.8091478 4288085770
-0.1567688 0.17869759 -1.8108664 4288085770
-0.024627686 0.18772507 -1.8173962 4288085770
0.10952759 0.19771481 -1.8230028 4288085770
0.25265503 0.20657253 -1.829999 4288085770
0.39486694 0.21442699 -1.8339643 4288085770
-0.50119019 0.25192738 -1.8055782 4288085770
0.50854492 0.22362709 -1.8266945 4288085770
-0.38995361 0.26024342 -1.8082228 4288085770
0.63809204 0.23261547 -1.8231039 4288085770
-0.26278687 0.26833534 -1.8135481 4288085770
0.79147339 0.2412796 -1.8245296 4288085770
-0.14251709 0.27550793 -1.8155842 4288085770
0.95480347 0.24979019 -1.8263807 4288085770
-0.0014343262 0.28240108 -1.8225098 4288085770
1.1142578 0.25834751 -1.8260632 4288085770
0.10516357 0.28971672 -1.8159571 4288085770
1.2965698 0.26657677 -1.828722 4288085770
0.25827026 0.29643059 -1.8233929 4288085770
1.4779968 0.27379322 -1.8283482 4288085770
0.42529297 0.30294323 -1.8324223 4288085770
1.6931763 0.28155518 -1.8354063 4288085770
0.55682373 0.3088932 -1.827939 4288085770
1.8847046 0.28859997 -1.8324594 4288085770
0.74371338 0.3151207 -1.839817 4288085770
2.1061401 0.29522133 -1.8337851 4288085770
0.86456299 0.32017803 -1.827878 4288085770
2.3206787 0.30192089 -1.8318157 4288085770
1.0220032 0.32574844 -1.8254986 4288085770
2.5680237 0.30815315 -1.8342457 4288085770
1.2210693 0.33076477 -1.8338966 4288085770
2.8304443 0.31415462 -1.8363161 4288085770
1.4014893 0.33500004 -1.8335018 4288085770
3.099884 0.3190403 -1.8376904 4288085770
1.5878906 0.33913803 -1.8323612 4288085770
3.3664856 0.32393074 -1.8339396 4288085770
1.7824097 0.34213829 -1.8295708 4288085770
3.6829529 0.32809925 -1.8353138 4288085770
2.0185852 0.34556866 -1.8355532 4288085770
4.0055542 0.33215332 -1.8339443 4288085770
2.2369995 0.34821796 -1.8347797 4288085770
4.355011 0.33581066 -1.8347216 4288085770
2.4744263 0.349576 -1.8338232 4288085770
4.7166748 0.33825684 -1.8320189 4288085770
2.7546082 0.35133362 -1.8396845 4288085770
5.1044006 0.33929539 -1.8284321 4288085770
3.02005 0.3522644 -1.8389177 4288085770
5.5568237 0.34039688 -1.8315964 4288085770
3.3074646 0.35186958 -1.8390951 4288085770
6.0533142 0.34083176 -1.8356314 4288085770
3.6019897 0.35034275 -1.8365793 4288085770
6.627594 0.34012699 -1.8459797 4288085770
3.9263611 0.34838295 -1.8373346 4288085770
7.1991577 0.33839798 -1.8482122 4288085770
4.2648926 0.34518909 -1.8356981 4288085770
7.7691345 0.33462906 -1.8413839 4288085770
4.6433105 0.34140873 -1.8367586 4288085770
8.4717407 0.32990837 -1.8451958 4288085770
5.0317993 0.33645248 -1.8352537 4288085770
9.2433777 0.32313442 -1.8489494 4288085770
5.4572449 0.32995129 -1.8363285 4288085770
10.167694 0.31410599 -1.863203 4288085770
5.9604797 0.32230186 -1.8427153 4288085770
11.482025 0.30336952 -1.9100332 4288085770
6.4957581 0.31215668 -1.8484793 4288085770
13.416779 0.28853512 -2.0072441 4288085770
7.0850525 0.30018902 -1.8545465 4288085770
7.6298523 0.28680325 -1.8477249 4288085770
8.3013 0.26955128 -1.8503122 4288085770
9.0517273 0.250103 -1.8542662 4288085770
9.9458618 0.22752762 -1.8673449 4288085770
11.154114 0.198349 -1.9058151 4288085770
12.914886 0.16108513 -1.9908094 4288085770
4.8894043 -4.5537186 -0.57085133 4293729569
5.0695801 -4.5640717 -0.61855698 4293729569
5.2408447 -4.5652933 -0.66580677 4293729569
5.5043945 -4.6058712 -0.71929264 4293729569
5.8482361 -4.595335 -0.81272602 4293729569
6.0206909 -4.5865803 -0.8589344 4293729569
6.2913818 -4.614254 -0.91360378 4293729569
6.5205078 -4.6213236 -0.9643364 4293729569
6.815094 -4.6503448 -1.0210218 4293729569
7.0373535 -4.6473122 -1.0713758 4293729569
8.4527283 -5.0965366 -0.5133667 4293729569
7.1923523 -4.613308 -1.1146164 4293729569
8.50177 -5.0099974 -0.54667377 4293729569
7.5703735 -4.6615267 -1.179987 4293729569
7.8335571 -4.6577997 -0.54442406 4293729569
7.8146973 -4.65382 -1.2312241 4293729569
8.103302 -4.6565704 -0.58477592 4293729569
8.2604065 -4.7160292 -1.3015661 4293729569
8.4634399 -4.683672 -0.63118553 4293729569
8.5088501 -4.7003813 -1.3529034 4293729569
8.8068237 -4.6985397 -0.67477894 4293729569
8.8565063 -4.7161684 -1.4137001 4293729569
9.2218628 -4.7324648 -0.72255707 4293729569
10.899719 -5.3053198 -1.6570511 4293729569
9.5991821 -4.7478266 -0.76857948 4293729569
9.5888672 -4.7442837 -1.537817 4293729569
9.969696 -4.7560949 -0.81325054 4293729569
9.8862915 -4.7273626 -1.591198 4293729569
10.494293 -4.8076305 -0.86779118 4293729569
10.030121 -4.6562357 -1.6276236 4293729569
10.828247 -4.7923698 -0.90870953 4293729569
10.234467 -4.6049948 -1.6687737 4293729569
11.306427 -4.8162374 -0.95804501 4293729569
10.617493 -4.6013203 -1.7288742 4293729569
11.817505 -4.8425856 -1.0097847 4293729569
11.105743 -4.6241531 -1.800642 4293729569
12.21637 -4.8282871 -1.0534382 4293729569
11.624847 -4.6504259 -1.8757391 4293729569
12.97226 -4.911252 -1.1189804 4293729569
12.194733 -4.6814365 -1.9550152 4293729569
13.584229 -4.9410973 -1.1749897 4293729569
12.789581 -4.7118006 -2.0373325 4288085770
14.296783 -4.98843 -1.2363834 4293729569
13.261566 -4.6984272 -2.1030827 4288085770
13.334839 -4.5763702 -2.1210613 4288085770
13.215698 -4.4055939 -2.1134939 4288085770
13.164062 -4.2527876 -2.1129313 4288085770
13.078796 -4.0935221 -2.1058903 4288085770
12.959808 -3.9287977 -2.0923786 4288085770
12.901428 -3.7789412 -2.0855503 4288085770
12.872864 -3.6375275 -2.0800514 4288085770
12.831421 -3.4929399 -2.0719824 4288085770
12.872528 -3.3655558 -2.0705395 4288085770
12.903717 -3.2380314 -2.0676746 4288085770
12.913116 -3.1052103 -2.0608435 4288085770
13.038818 -2.9940653 -2.0651026 4288085770
13.124908 -2.8743658 -2.063612 4288085770
13.22403 -2.7548771 -2.0606699 4288085770
13.218842 -2.6189041 -2.045186 4288085770
13.645142 -2.5461092 -2.0764313 4288085770
14.062622 -2.4691992 -2.1052628 4288085770
14.638947 0.2443428 -2.0513229 4288085770
12.757843 0.30659866 -1.9632816 4288085770
11.194244 0.36008835 -1.890398 4288085770
10.126343 0.40828323 -1.8599977 4288085770
9.2440796 0.45270252 -1.8402805 4288085770
8.5623474 0.49516487 -1.8368483 4288085770
7.9078064 0.53416252 -1.8275604 4288085770
7.3669434 0.57249451 -1.8289661 4288085770
6.8661804 0.60718155 -1.8270502 4288085770
13.200806 0.81689644 -1.9650393 4288085770
6.4004211 0.64133358 -1.8255825 4288085770
11.339874 0.82966042 -1.8552418 4288085770
5.9378052 0.67341042 -1.8202572 4288085770
10.377411 0.86230278 -1.8343287 4288085770
5.5579834 0.70526791 -1.8223467 4288085770
9.5129395 0.89244843 -1.8154707 4288085770
5.1674194 0.73422718 -1.8160143 4288085770
8.7654114 0.92082787 -1.8004427 4288085770
4.8167114 0.76360703 -1.8143215 4288085770
8.2581482 0.95670605 -1.8102627 4288085770
4.5039978 0.79140854 -1.8132076 4288085770
7.619751 0.98138714 -1.792757 4288085770
4.2202148 0.81879044 -1.8152885 4288085770
7.2683105 1.0189524 -1.8129816 4288085770
3.9405212 0.84507656 -1.8135462 4288085770
6.7935791 1.0452137 -1.8082094 4288085770
3.6867676 0.87098122 -1.8138762 4288085770
6.418457 1.0760393 -1.8155088 4288085770
3.453949 0.89757729 -1.8160648 4288085770
6.0197449 1.1031513 -1.8128595 4288085770
3.2262573 0.92308426 -1.8164701 4288085770
5.6838074 1.1313486 -1.8167906 4288085770
3.0046082 0.94748306 -1.8151321 4288085770
5.2833252 1.1524134 -1.8051138 4288085770
2.817749 0.97338581 -1.8192205 4288085770
4.9447327 1.1755724 -1.7989712 4288085770
2.5992737 0.99569702 -1.8130274 4288085770
4.6688538 1.2018414 -1.8023891 4288085770
2.3887939 1.0168791 -1.8061724 4288085770
4.394165 1.2270603 -1.8018618 4288085770
2.2180786 1.0405111 -1.806941 4288085770
4.1453552 1.2518911 -1.8024063 4288085770
2.0623474 1.0639153 -1.8083277 4288085770
3.8926697 1.2737541 -1.7998123 4288085770
1.9076538 1.0872984 -1.8087559 4288085770
3.664978 1.2982531 -1.7992268 4288085770
1.7540283 1.1096468 -1.8072367 4288085770
3.4463501 1.3205967 -1.7970295 4288085770
1.5915833 1.1290903 -1.800374 4288085770
3.2684326 1.3463745 -1.8024864 4288085770
1.4519958 1.1502199 -1.7984419 4288085770
3.0727844 1.3693714 -1.8012314 4288085770
1.3193359 1.1722546 -1.7977886 4288085770
2.8881226 1.3932037 -1.8004227 4288085770
1.1858215 1.1932783 -1.7941055 4288085770
2.7095337 1.415926 -1.7978697 4288085770
1.0533142 1.2132778 -1.7894716 4288085770
2.5349426 1.4365864 -1.7944994 4288085770
0.94070435 1.2350025 -1.7886457 4288085770
2.3604126 1.4562263 -1.7891388 4288085770
0.82119751 1.2547989 -1.7835503 4288085770
2.2167358 1.480442 -1.7900143 4288085770
0.71853638 1.276372 -1.7831364 4288085770
2.0811462 1.503521 -1.7892294 4288085770
0.6229248 1.2978401 -1.7830114 4288085770
1.964325 1.5293484 -1.7931995 4288085770
0.51846313 1.3184128 -1.7785282 4288085770
1.8476562 1.5541573 -1.7951813 4288085770
0.4050293 1.3350906 -1.7707052 4288085770
1.7359619 1.5798893 -1.7973604 4288085770
0.32342529 1.3583469 -1.7711439 4288085770
1.6184082 1.6026821 -1.7953205 4288085770
0.24578857 1.3805466 -1.7717533 4288085770
1.4909058 1.6226063 -1.7908936 4288085770
0.17016602 1.4037151 -1.772438 4288085770
1.3734131 1.6433716 -1.7858706 4288085770
0.093597412 1.4248791 -1.7710981 4288085770
1.2917175 1.67066 -1.7902727 4288085770
0.017059326 1.4470367 -1.7687531 4288085770
1.1991272 1.6950855 -1.790246 4288085770
-0.06237793 1.4662228 -1.7643089 4288085770
1.0996399 1.7175884 -1.7869501 4288085770
1.0081482 1.7399712 -1.7839842 4288085770
0.91662598 1.7623539 -1.7810183 4288085770
0.83609009 1.7865791 -1.7794886 4288085770
0.76055908 1.811739 -1.7791576 4288085770
0.68603516 1.8358669 -1.7768764 4288085770
0.6076355 1.8590355 -1.7724409 4288085770
0.5411377 1.8830509 -1.7714901 4288085770
0.47662354 1.9080257 -1.7696133 4288085770
0.40820312 1.932045 -1.7655821 4288085770
0.35372925 1.9588795 -1.7651014 4288085770
0.30026245 1.9856892 -1.7636623 4288085770
0.2487793 2.0124702 -1.7623062 4288085770
0.20330811 2.0401649 -1.7611942 4288085770
0.15789795 2.0678558 -1.7600794 4288085770
0.12237549 2.0984135 -1.7613516 4288085770
0.07800293 2.1260719 -1.7582808 4288085770
0.034637451 2.1527138 -1.7552586 4288085770
0.014099121 2.1880627 -1.7591066 4288085770
-0.043151855 2.208868 -1.7495584 4288085770
-0.047729492 3.262764 -1.7180128 4288085770
5.9029846 7.4621391 -1.849041 4288085770
6.4129639 7.7324982 -1.8655863 4288085770
6.9391785 8.0065823 -1.8787603 4288085770
14.174408 -0.92790699 -2.0452204 4288085770
13.167267 -0.97480202 -2.0114069 4288085770
12.122925 -1.0032434 -1.9638958 4288085770
11.200256 -1.0324507 -1.9273787 4288085770
10.365601 -1.0559826 -1.8934155 4288085770
9.6824951 -1.0837135 -1.8737001 4288085770
9.1398621 -1.1154776 -1.8677778 4288085770
8.6103516 -1.1434546 -1.8603592 4288085770
8.1139221 -1.1679316 -1.8532639 4288085770
7.7061768 -1.1956825 -1.8558311 4288085770
7.3253174 -1.2218218 -1.8614883 4288085770
14.72171 -2.132884 -2.1082697 4288085770
6.9258423 -1.2417421 -1.8593225 4288085770
13.349976 -2.0674162 -2.0485334 4288085770
6.550354 -1.2590094 -1.8591175 4288085770
12.094208 -2.0016966 -1.99154 4288085770
6.1879578 -1.2734814 -1.8584213 4288085770
11.034973 -1.9488811 -1.9467096 4288085770
5.8227844 -1.283946 -1.8535728 4288085770
10.079559 -1.8986101 -1.9071541 4288085770
5.5093384 -1.2971411 -1.8558702 4288085770
9.334259 -1.8693933 -1.8863945 4288085770
5.1979675 -1.3073769 -1.8572273 4288085770
8.706543 -1.8488932 -1.8755293 4288085770
4.9115906 -1.3169851 -1.859601 4288085770
8.1605225 -1.8345795 -1.8720675 4288085770
4.6302185 -1.3256769 -1.8611708 4288085770
7.6535034 -1.8198576 -1.8691978 4288085770
4.3529663 -1.3304396 -1.8618755 4288085770
7.1934204 -1.8068361 -1.8682652 4288085770
4.0977478 -1.3355303 -1.8634844 4288085770
6.7632751 -1.7952652 -1.8685751 4288085770
3.8445435 -1.3386593 -1.8641605 4288085770
6.3501892 -1.7809448 -1.8695593 4288085770
3.603363 -1.3409672 -1.8653212 4288085770
5.9374084 -1.7616806 -1.8645048 4288085770
3.3831177 -1.3435707 -1.8693419 4288085770
5.6001892 -1.7524948 -1.868639 4288085770
3.1421814 -1.3399153 -1.8664551 4288085770
5.2264709 -1.731822 -1.8641701 4288085770
2.9329834 -1.3397017 -1.8689032 4288085770
4.8974915 -1.7167912 -1.8645868 4288085770
2.7140808 -1.3353748 -1.8669119 4288085770
4.5914001 -1.7020969 -1.8669434 4288085770
2.5070801 -1.3302202 -1.8664026 4288085770
4.292572 -1.6855345 -1.8665762 4288085770
2.3071594 -1.3251772 -1.8651819 4288085770
4.0046997 -1.6681452 -1.8656511 4288085770
2.1112671 -1.3181963 -1.864109 4288085770
3.7466125 -1.6541672 -1.8699789 4288085770
1.9134827 -1.3092117 -1.8599396 4288085770
3.4966431 -1.6383333 -1.8716202 4288085770
1.7434998 -1.3036098 -1.8609409 4288085770
3.2448425 -1.620492 -1.8711643 4288085770
1.5578308 -1.2918129 -1.8562403 4288085770
3.0129395 -1.6039391 -1.8725367 4288085770
1.3889465 -1.2832422 -1.8552589 4288085770
2.7643433 -1.5811777 -1.8681669 4288085770
1.2546692 -1.2801313 -1.8627481 4288085770
2.5574341 -1.5649967 -1.8705645 4288085770
1.0791931 -1.2655125 -1.8554354 4288085770
2.365448 -1.5500307 -1.8745852 4288085770
0.96575928 -1.2646961 -1.8658018 4288085770
2.188324 -1.5372705 -1.8812351 4288085770
0.77859497 -1.2439547 -1.8519526 4288085770
1.9451904 -1.5066671 -1.8680115 4288085770
0.64370728 -1.2338839 -1.8533487 4288085770
1.7683411 -1.4889545 -1.8696251 4288085770
0.50003052 -1.2207241 -1.8493547 4288085770
1.5600586 -1.4618444 -1.8608589 4288085770
0.38696289 -1.2139559 -1.8546753 4288085770
1.3814697 -1.4411478 -1.8573694 4288085770
0.26113892 -1.2020378 -1.8544245 4288085770
1.2038879 -1.4184647 -1.8539047 4288085770
0.17175293 -1.1995802 -1.8657589 4288085770
1.0540771 -1.4011621 -1.8556261 4288085770
0.012695312 -1.1762762 -1.8510332 4288085770
0.89450073 -1.3797483 -1.8529072 4288085770
-0.11190796 -1.1614084 -1.8468037 4288085770
0.73599243 -1.3573675 -1.8482227 4288085770
0.60513306 -1.3403482 -1.8507233 4288085770
0.46160889 -1.318182 -1.8476534 4288085770
0.34661865 -1.3033848 -1.8528252 4288085770
0.24551392 -1.2907763 -1.8605871 4288085770
0.1277771 -1.2719707 -1.8616047 4288085770
-0.020385742 -1.2437954 -1.8512859 4288085770
-0.058135986 0.73825741 -1.788866 4288085770
0.066162109 0.74838543 -1.7908335 4288085770
0.19155884 0.75747776 -1.7908525 4288085770
0.33477783 0.76734352 -1.7955952 4288085770
0.4909668 0.77902412 -1.8018513 4288085770
0.62643433 0.78694153 -1.7992897 4288085770
0.77383423 0.79570103 -1.7992067 4288085770
0.93710327 0.80424881 -1.8027773 4288085770
0.020874023 0.75710487 -1.795867 4288085770
1.1064148 0.81369114 -1.8045855 4288085770
0.14718628 0.76218414 -1.7959595 4288085770
1.2659302 0.8202467 -1.8020144 4288085770
0.28439331 0.76712036 -1.7985029 4288085770
1.4760437 0.83012676 -1.8104858 4288085770
0.43661499 0.7738533 -1.8036394 4288085770
1.6833496 0.83901501 -1.8148451 4288085770
0.59570312 0.77848148 -1.8090792 4288085770
1.8658447 0.84421062 -1.8112249 4288085770
0.73809814 0.78229523 -1.8068371 4288085770
2.0852051 0.85190296 -1.814085 4288085770
0.88052368 0.78410053 -1.8036156 4288085770
2.2966919 0.85766697 -1.8116417 4288085770
1.0577087 0.78845406 -1.8087912 4288085770
2.5281067 0.86315441 -1.8120127 4288085770
1.2478027 0.79161739 -1.8145075 4288085770
2.780426 0.86934948 -1.8152313 4288085770
1.4092712 0.79212284 -1.8100719 4288085770
3.0358887 0.87346363 -1.8145943 4288085770
1.6074524 0.79414558 -1.8141251 4288085770
3.2964478 0.87647343 -1.8111734 4288085770
1.797821 0.79424191 -1.8128729 4288085770
3.5849304 0.88008785 -1.8108854 4288085770
2.0120544 0.79501152 -1.8155918 4288085770
3.8943481 0.88339329 -1.8114548 4288085770
2.2193909 0.79284477 -1.8140516 4288085770
4.2158813 0.88550091 -1.8105268 4288085770
2.4407349 0.79047298 -1.8130856 4288085770
4.563324 0.88622379 -1.8106689 4288085770
2.684967 0.78878975 -1.8160486 4288085770
4.9348145 0.88758183 -1.8107853 4288085770
2.9402161 0.78592205 -1.8174706 4288085770
5.3322754 0.88655663 -1.8119812 4288085770
3.1945496 0.7800436 -1.8158808 4288085770
5.7727356 0.88588428 -1.8139277 4288085770
3.4698486 0.77486134 -1.8161392 4288085770
6.2402039 0.88379192 -1.8149862 4288085770
3.7612 0.76742554 -1.8150721 4288085770
6.7188721 0.87849331 -1.8115263 4288085770
4.0804443 0.75859451 -1.8171549 4288085770
7.2673035 0.87419415 -1.8149061 4288085770
4.3968201 0.74876118 -1.8141289 4288085770
7.8319092 0.86560154 -1.8129797 4288085770
4.7421265 0.73751831 -1.8142958 4288085770
8.4884033 0.85866642 -1.8167858 4288085770
5.1113281 0.72391701 -1.8154593 4288085770
9.2397461 0.84933472 -1.8254833 4288085770
5.5444641 0.71039104 -1.8212309 4288085770
10.090057 0.83851814 -1.8362293 4288085770
5.9786377 0.69281101 -1.8230801 4288085770
11.052277 0.82605362 -1.8525524 4288085770
6.4408264 0.6738081 -1.8250837 4288085770
12.828278 0.83194065 -1.9479237 4288085770
6.9380493 0.65226936 -1.8265371 4288085770
14.882202 0.83266449 -2.0496731 4288085770
7.4633179 0.62728596 -1.8261642 4288085770
7.9967041 0.59714222 -1.821167 4288085770
8.6636658 0.56608582 -1.8296309 4288085770
9.4145813 0.53077221 -1.8395567 4288085770
10.271301 0.49089622 -1.8548403 4288085770
11.373352 0.44647789 -1.8901787 4288085770
13.009857 0.39738083 -1.9743748 4288085770
14.799469 0.33492851 -2.0549307 4288085770
1.3687439 -4.4039755 -0.55978394 4293729569
1.5267944 -4.4281969 -0.68658066 4293729569
1.5338135 -4.3999567 -0.72362614 4293729569
1.6128845 -4.4197435 -0.76808357 4293729569
1.7951355 -4.4303255 -0.89472961 4293729569
1.9130249 -4.4307203 -0.50919056 4293729569
1.8812866 -4.4462042 -0.94043541 4293729569
1.9806213 -4.4313831 -0.54798603 4293729569
6.0005798 -7.0518069 -1.5864162 4293729569
2.0631104 -4.4372559 -0.58843899 4293729569
2.0457153 -4.4648571 -1.0303984 4293729569
2.1397095 -4.4390497 -0.62761211 4293729569
2.131958 -4.4737358 -1.0760393 4293729569
2.1915894 -4.4234896 -0.66460419 4293729569
2.1404114 -4.4315596 -1.1079969 4293729569
2.2642212 -4.4589663 -1.1583529 4293729569
2.4487 -4.4785633 -0.75269413 4293729569
4.6363525 -5.8589735 -1.5901241 4293729569
2.5431824 -4.4816122 -0.79360771 4293729569
2.4527893 -4.4699678 -1.2492189 4293729569
2.5343323 -4.4648056 -1.2915258 4293729569
2.7274475 -4.4786549 -0.87314796 4293729569
4.109375 -5.3398151 -1.6025581 4293729569
2.7460632 -4.4316568 -0.90246773 4293729569
3.4236145 -4.8712721 -1.5079308 4293729569
2.9888916 -4.5117979 -0.96019459 4293729569
3.5751953 -4.8960381 -1.5643959 4293729569
3.0668945 -4.4946375 -0.99623013 4293729569
3.022583 -4.516367 -1.4860802 4293729569
3.2475891 -4.532917 -1.0450068 4293729569
3.2945862 -4.6057758 -1.5621004 4293729569
3.3227234 -4.5097237 -1.0798635 4293729569
3.5212097 -4.6675615 -1.6309948 4293729569
3.4571838 -4.5173569 -1.1224461 4293729569
3.4347229 -4.551178 -1.6373272 4293729569
3.5926514 -4.5220137 -1.1640396 4293729569
3.3620911 -4.4439993 -1.6443138 4293729569
3.7479553 -4.5349541 -1.2075243 4293729569
3.300354 -4.3439903 -1.650815 4293729569
3.8302307 -4.5078812 -1.2406311 4293729569
3.3903198 -4.3239937 -1.6883106 4293729569
4.0300903 -4.5384407 -1.2901068 4293729569
3.5276184 -4.3266277 -1.7349625 4293729569
6.1112976 -5.511898 -1.6217251 4293729569
3.6907043 -4.3386145 -1.7857571 4293729569
4.399353 -4.5741549 -1.3825626 4293729569
3.84198 -4.3414536 -1.8329792 4293729569
5.0656433 -4.8221273 -1.5022297 4293729569
4.0150452 -4.3525848 -1.8841724 4288085770
4.626709 -4.5289316 -1.451417 4293729569
4.1369019 -4.3360481 -1.9239979 4288085770
4.9987793 -4.6258755 -1.5245762 4293729569
4.0991821 -4.2424202 -1.9285345 4288085770
5.4213562 -4.7385149 -1.6049528 4293729569
4.0349121 -4.135458 -1.9258528 4288085770
5.4597778 -4.6709061 -1.6238546 4293729569
3.9490356 -4.0192242 -1.9171934 4288085770
5.4221191 -4.5672598 -1.6302948 4293729569
3.9025879 -3.9235258 -1.9153481 4288085770
5.4093018 -4.4759808 -1.6378679 4293729569
3.8443909 -3.8226805 -1.9099693 4288085770
5.4645996 -4.414629 -1.6565199 4293729569
3.8088684 -3.7321434 -1.9086189 4288085770
5.6652832 -4.414278 -1.6967077 4293729569
3.774353 -3.6436291 -1.9063272 4288085770
5.8829041 -4.4161673 -1.7386074 4293729569
3.7606201 -3.5634031 -1.9069681 4288085770
6.1133728 -4.4222355 -1.782074 4293729569
3.7242432 -3.4748907 -1.901597 4288085770
6.370636 -4.434679 -1.8286953 4293729569
3.7066345 -3.3946362 -1.8990755 4288085770
6.6251221 -4.4410982 -1.8731403 4288085770
3.704895 -3.3196058 -1.8982525 4288085770
6.8934937 -4.4497137 -1.9191723 4288085770
3.7139893 -3.2507162 -1.89993 4288085770
7.0591736 -4.415947 -1.9465885 4288085770
3.7261047 -3.18188 -1.900732 4288085770
7.0924072 -4.3313999 -1.9500952 4288085770
3.7214661 -3.1078367 -1.8967962 4288085770
7.0693665 -4.2240906 -1.9440737 4288085770
3.7326965 -3.0380058 -1.8955498 4288085770
7.0275879 -4.1125517 -1.9322453 4288085770
3.7409668 -2.969141 -1.8931894 4288085770
7.0322876 -4.0176525 -1.9274778 4288085770
3.7808838 -2.9097157 -1.8952169 4288085770
7.0686951 -3.9341888 -1.9271164 4288085770
3.8099976 -2.8471479 -1.8947678 4288085770
7.0982971 -3.8476543 -1.9234428 4288085770
3.8372192 -2.7825737 -1.8922205 4288085770
7.1199951 -3.7580242 -1.9174175 4288085770
3.8762207 -2.7241526 -1.8922157 4288085770
7.1932068 -3.6861019 -1.9186668 4288085770
3.9172974 -2.664772 -1.8912849 4288085770
7.2437134 -3.6068869 -1.914916 4288085770
3.9643555 -2.6064787 -1.8906088 4288085770
7.3200378 -3.533041 -1.913271 4288085770
3.9996338 -2.5440502 -1.8854065 4288085770
7.3914795 -3.4581318 -1.9104128 4288085770
4.0704956 -2.4930887 -1.8877707 4288085770
7.4867554 -3.3905725 -1.9085979 4288085770
4.1157227 -2.4338064 -1.8830032 4288085770
7.5959778 -3.3242111 -1.9083624 4288085770
4.1708984 -2.3766603 -1.8796635 4288085770
7.67453 -3.2494459 -1.9017906 4288085770
4.2428894 -2.3237448 -1.8790512 4288085770
7.7958069 -3.1852789 -1.9000645 4288085770
4.3070374 -2.2687416 -1.8750944 4288085770
7.9349365 -3.1243658 -1.9000978 4288085770
4.4058838 -2.2212086 -1.8766289 4288085770
8.0851135 -3.0646286 -1.8995876 4288085770
4.5107117 -2.1747608 -1.8794127 4288085770
8.2453308 -3.0050449 -1.8984861 4288085770
4.6037903 -2.1231737 -1.8776646 4288085770
8.3976135 -2.9433661 -1.8950396 4288085770
4.6948242 -2.0715685 -1.874836 4288085770
8.5867615 -2.8872175 -1.8941479 4288085770
4.7939758 -2.0200882 -1.8713331 4288085770
8.7660522 -2.8279343 -1.8918209 4288085770
4.908905 -1.9728231 -1.8705177 4288085770
9.0029907 -2.7794685 -1.894949 4288085770
5.0407715 -1.9277973 -1.8714132 4288085770
9.2441101 -2.7270937 -1.8952045 4288085770
5.1737671 -1.879797 -1.8713226 4288085770
9.5558167 -2.6877193 -1.902462 4288085770
5.3207092 -1.834012 -1.87082 4288085770
9.9251709 -2.6561537 -1.9161463 4288085770
5.4587708 -1.7851057 -1.8689232 4288085770
10.362366 -2.6305656 -1.9346476 4288085770
5.6217346 -1.738555 -1.8690634 4288085770
10.811554 -2.6041622 -1.9526262 4288085770
5.7996216 -1.6952229 -1.8698416 4288085770
11.11499 -2.5467682 -1.9483528 4288085770
5.9657593 -1.6457472 -1.8670769 4288085770
11.586578 -2.5127611 -1.9601583 4288085770
6.1647034 -1.6017351 -1.8677015 4288085770
12.178589 -2.4924545 -1.9839993 4288085770
6.377655 -1.5559282 -1.8688774 4288085770
13.007446 -2.5025063 -2.0307837 4288085770
6.5906982 -1.509141 -1.8680449 4288085770
13.912354 -2.511692 -2.0786457 4288085770
6.8197632 -1.4615898 -1.8678532 4288085770
14.809723 -2.5088339 -2.119072 4288085770
7.0708008 -1.4153719 -1.867568 4288085770
7.328949 -1.3662663 -1.8665409 4288085770
7.6119995 -1.3185167 -1.8675375 4288085770
7.8833618 -1.2656412 -1.8630037 4288085770
8.1895752 -1.2142706 -1.8609018 4288085770
8.5625305 -1.1678419 -1.8655643 4288085770
8.9874878 -1.1201763 -1.8723249 4288085770
9.3768311 -1.0660439 -1.8715668 4288085770
9.9135742 -1.0199995 -1.8848858 4288085770
10.52713 -0.97605419 -1.9043474 4288085770
11.271362 -0.93297958 -1.9341297 4288085770
12.172272 -0.89415932 -1.9753227 4288085770
13.090576 -0.84466934 -2.0091057 4288085770
14.206482 -0.79801941 -2.0569468 4288085770
13.570404 0.61764812 -1.9983301 4288085770
12.139343 0.68533325 -1.9217043 4288085770
11.009491 0.74672985 -1.8673363 4288085770
10.189819 0.80675411 -1.8405361 4288085770
9.5726318 0.86792183 -1.8309174 4288085770
8.8699951 0.91817951 -1.8029509 4288085770
8.5022278 0.97882271 -1.8144293 4288085770
8.000061 1.0292482 -1.8035736 4288085770
7.5647278 1.0797205 -1.7974224 4288085770
7.229187 1.1317997 -1.8012896 4288085770
6.87677 1.1790628 -1.7985249 4288085770
14.092773 1.7560177 -2.0007706 4288085770
6.5304565 1.2242031 -1.7930279 4288085770
12.786621 1.7628765 -1.9298687 4288085770
6.2598877 1.2723055 -1.7965651 4288085770
11.662323 1.7701035 -1.8683167 4288085770
5.9804077 1.316494 -1.7957821 4288085770
10.711731 1.7828484 -1.8187304 4288085770
5.723938 1.3613586 -1.7969198 4288085770
10.154327 1.825119 -1.8097334 4288085770
5.4893799 1.4048996 -1.7989607 4288085770
9.785553 1.8807545 -1.8192215 4288085770
5.3217163 1.4535198 -1.808651 4288085770
9.2782593 1.9162369 -1.8063202 4288085770
5.0733948 1.4921932 -1.8031826 4288085770
8.8917542 1.9610252 -1.8052044 4288085770
4.848999 1.5305138 -1.798687 4288085770
8.5661316 2.0089474 -1.8085165 4288085770
4.6794128 1.57411 -1.8033524 4288085770
8.1966858 2.048439 -1.8031445 4288085770
4.4750977 1.6101284 -1.7986898 4288085770
7.8951721 2.092968 -1.8034668 4288085770
4.3155823 1.6515465 -1.8007822 4288085770
7.6156311 2.1381779 -1.8046684 4288085770
4.1412048 1.6901379 -1.7983055 4288085770
7.3331909 2.1814098 -1.803771 4288085770
4.0106201 1.7331562 -1.8035517 4288085770
7.0717468 2.2223129 -1.8017483 4288085770
3.8502808 1.7705345 -1.8006516 4288085770
6.8053894 2.2622662 -1.7975359 4288085770
3.7168274 1.8105507 -1.8018112 4288085770
6.5839539 2.3055878 -1.7971039 4288085770
3.5923767 1.8504257 -1.8023367 4288085770
6.3834839 2.349617 -1.7985106 4288085770
3.4958191 1.8939362 -1.8079529 4288085770
6.1810608 2.3916378 -1.7968607 4288085770
3.365509 1.9308662 -1.8052702 4288085770
5.9677734 2.4297886 -1.7918081 4288085770
3.2481079 1.9686203 -1.8041019 4288085770
5.7804565 2.4705696 -1.7887783 4288085770
3.1297607 2.0063629 -1.8008947 4288085770
5.5961304 2.5102959 -1.7848825 4288085770
3.0254211 2.0439148 -1.7992544 4288085770
5.4099426 2.54702 -1.7779379 4288085770
2.9211426 2.0814514 -1.7966156 4288085770
5.2516174 2.587368 -1.7750845 4288085770
2.8188477 2.1179543 -1.7930679 4288085770
5.0823975 2.6238346 -1.7678308 4288085770
2.7334595 2.1572361 -1.7931767 4288085770
4.9660034 2.6716022 -1.7695932 4288085770
2.657074 2.198391 -1.7936277 4288085770
4.850708 2.7173328 -1.7694178 4288085770
2.5887451 2.2404289 -1.7943926 4288085770
4.7225037 2.7592239 -1.7657623 4288085770
2.5263367 2.2833881 -1.7963896 4288085770
4.6362 2.8105412 -1.7676983 4288085770
2.4311829 2.3167439 -1.7891607 4288085770
4.5250244 2.8541851 -1.7647095 4288085770
2.3658447 2.3577137 -1.7880583 4288085770
4.4098511 2.8948498 -1.7585917 4288085770
2.2837219 2.3938789 -1.7813253 4288085770
4.3345947 2.9459972 -1.7599754 4288085770
2.2174683 2.4318409 -1.7782154 4288085770
4.2823486 3.0038319 -1.7642145 4288085770
2.142334 2.4689045 -1.7717552 4288085770
4.2271729 3.0596886 -1.7663555 4288085770
2.1199646 2.5193005 -1.7772875 4288085770
4.1659851 3.1126099 -1.7662868 4288085770
2.0737305 2.5629845 -1.7759247 4288085770
4.0918579 3.1617012 -1.7637329 4288085770
2.0046692 2.598938 -1.7677193 4288085770
4.0288086 3.2136192 -1.7605963 4288085770
1.9703979 2.6444588 -1.7678194 4288085770
3.995697 3.2741432 -1.7625751 4288085770
1.940155 2.6919174 -1.7680616 4288085770
3.9705811 3.3365612 -1.7658567 4288085770
1.9069824 2.7394085 -1.7671833 4288085770
3.944519 3.3999825 -1.7680883 4288085770
1.8709106 2.7839146 -1.763217 4288085770
3.9404602 3.4701061 -1.7731371 4288085770
1.837738 2.8293839 -1.7603607 4288085770
3.9154968 3.5334778 -1.7724104 4288085770
1.8046875 2.8738441 -1.7565155 4288085770
3.9025269 3.5987015 -1.774147 4288085770
1.7875671 2.9240932 -1.7552538 4288085770
3.8627014 3.6562386 -1.7678804 4288085770
1.7715149 2.9753151 -1.7530222 4288085770
3.8787537 3.7350674 -1.7736416 4288085770
1.7404785 3.0207233 -1.7472486 4288085770
3.8669128 3.80023 -1.7714224 4288085770
1.7235107 3.0699368 -1.743 4288085770
3.8721008 3.8751659 -1.7717829 4288085770
1.7284546 3.1288853 -1.7445316 4288085770
3.8753662 3.9471092 -1.7700968 4288085770
1.7313843 3.1868515 -1.7449932 4288085770
3.863678 4.0152359 -1.7648468 4288085770
1.7483826 3.2506275 -1.7469587 4288085770
3.8859863 4.0959129 -1.7648335 4288085770
1.753418 3.3095417 -1.7454929 4288085770
3.9223022 4.1834068 -1.767312 4288085770
1.8073425 3.3898525 -1.7557707 4288085770
3.9757385 4.2786636 -1.7713938 4288085770
1.8692627 3.4740543 -1.7673302 4288085770
4.0112 4.3661385 -1.770833 4288085770
1.9044189 3.5475655 -1.7699175 4288085770
4.0357056 4.4497375 -1.7668705 4288085770
1.9355774 3.6191216 -1.7713633 4288085770
4.1022644 4.5517788 -1.7694044 4288085770
1.9567871 3.6867905 -1.7694502 4288085770
4.1889343 4.6655521 -1.7746201 4288085770
1.98703 3.7583294 -1.7678585 4288085770
4.2835999 4.7822189 -1.7811279 4288085770
2.0522461 3.847435 -1.7744884 4288085770
4.3793945 4.9018383 -1.7846441 4288085770
2.0935974 3.9258118 -1.7732677 4288085770
4.4822693 5.0253525 -1.7884035 4288085770
2.1279907 4.0002708 -1.7698059 4288085770
4.5911865 5.1527805 -1.7923613 4288085770
2.1764221 4.0815315 -1.7678366 4288085770
4.7132568 5.2890072 -1.7957506 4288085770
2.2218933 4.1618309 -1.7647572 4288085770
4.8273926 5.4213257 -1.7968597 4288085770
2.2634583 4.2401543 -1.7585382 4288085770
4.9425964 5.5556107 -1.7959881 4288085770
2.3489685 4.3419266 -1.7628403 4288085770
5.0719299 5.6986904 -1.7955885 4288085770
2.4525757 4.455452 -1.7687426 4288085770
5.2254028 5.8544273 -1.7970219 4288085770
2.504303 4.5396061 -1.7608662 4288085770
5.4211121 6.0365982 -1.8038664 4288085770
2.5740662 4.6345291 -1.7565994 4288085770
5.6048584 6.211895 -1.8063002 4288085770
2.6728516 4.7450714 -1.7573328 4288085770
5.8408203 6.4174881 -1.8155088 4288085770
2.7757874 4.8595333 -1.7561874 4288085770
6.1060181 6.6426563 -1.8256769 4288085770
2.9277954 5.002367 -1.7647123 4288085770
6.3774414 6.8727131 -1.8340378 4288085770
3.0778503 5.1442051 -1.7711687 4288085770
6.6570435 7.1116314 -1.8406267 4288085770
3.2130127 5.2792091 -1.7720928 4288085770
6.9047546 7.3329182 -1.8371153 4288085770
3.3552856 5.4191017 -1.7722511 4288085770
7.2669067 7.6226692 -1.8494701 4288085770
3.5157471 5.569725 -1.7730179 4288085770
7.6493835 7.9281006 -1.860465 4288085770
3.6972351 5.7330666 -1.7764959 4288085770
3.8889465 5.9042492 -1.7792931 4288085770
4.1277771 6.1048088 -1.78967 4288085770
4.3768616 6.3131943 -1.797368 4288085770
4.6641846 6.5460529 -1.8093367 4288085770
4.9747314 6.7945614 -1.8210659 4288085770
5.280365 7.0411091 -1.8296127 4288085770
5.5862732 7.2885914 -1.8321543 4288085770
5.989624 7.5987778 -1.8489332 4288085770
6.380188 7.9030609 -1.857254 4288085770
13.591217 -0.50202847 -2.0128269 4288085770
12.23291 -0.5222683 -1.9614067 4288085770
10.834534 -0.52812767 -1.8901958 4288085770
9.9454346 -0.54806423 -1.86866 4288085770
9.1860962 -0.56684113 -1.8563375 4288085770
8.5594788 -0.58550453 -1.8533564 4288085770
7.9490662 -0.60144615 -1.8469934 4288085770
7.4424133 -0.61685181 -1.8488026 4288085770
14.454315 -1.1236229 -2.0536251 4288085770
6.954895 -0.63055515 -1.8493595 4288085770
12.874176 -1.0796633 -1.9905472 4288085770
6.5014038 -0.64176369 -1.8502579 4288085770
11.404297 -1.0313835 -1.9248505 4288085770
6.0392151 -0.64791393 -1.8447418 4288085770
10.303314 -1.002306 -1.8882275 4288085770
5.6021729 -0.65244961 -1.8382177 4288085770
9.3501587 -0.9763689 -1.8585892 4288085770
5.2416992 -0.66001987 -1.8418159 4288085770
8.6698914 -0.96621609 -1.8561239 4288085770
4.878479 -0.66459465 -1.8412657 4288085770
8.0089111 -0.95241165 -1.8483896 4288085770
4.5521545 -0.66869545 -1.8431959 4288085770
7.4665833 -0.94427681 -1.8504963 4288085770
4.2428894 -0.67105484 -1.8447905 4288085770
6.9523315 -0.93556786 -1.8517246 4288085770
3.9486694 -0.67364407 -1.8459921 4288085770
6.4562378 -0.92416954 -1.8496494 4288085770
3.6813354 -0.67560005 -1.8502722 4288085770
5.9793396 -0.91009617 -1.8443136 4288085770
3.406311 -0.67350006 -1.8491907 4288085770
5.5602722 -0.89882374 -1.8443365 4288085770
3.1709595 -0.67492199 -1.8547506 4288085770
5.1681824 -0.88695908 -1.8444405 4288085770
2.9159851 -0.6721344 -1.8524656 4288085770
4.8081055 -0.8755579 -1.8458338 4288085770
2.6730652 -0.66752434 -1.8506441 4288085770
4.4739685 -0.86553288 -1.8482895 4288085770
2.4440308 -0.66311359 -1.8493872 4288085770
4.1648865 -0.85488224 -1.8507442 4288085770
2.2350159 -0.65897274 -1.8509369 4288085770
3.8558655 -0.84225464 -1.8511782 4288085770
2.0191956 -0.65279865 -1.8461866 4288085770
3.5679321 -0.82995701 -1.850461 4288085770
1.7955627 -0.6435442 -1.8380842 4288085770
3.3059082 -0.81801319 -1.8527927 4288085770
1.600769 -0.63666439 -1.8351698 4288085770
3.0668335 -0.80738926 -1.8570623 4288085770
1.4297791 -0.63009834 -1.8362217 4288085770
2.8140259 -0.79363441 -1.8547401 4288085770
1.2687378 -0.62466335 -1.8386869 4288085770
2.5889893 -0.78124046 -1.8575544 4288085770
1.1028442 -0.61719322 -1.8379307 4288085770
2.3423767 -0.76461792 -1.8514452 4288085770
0.95385742 -0.61094666 -1.8398714 4288085770
2.120636 -0.75033474 -1.8483639 4288085770
0.82669067 -0.60596943 -1.8467064 4288085770
1.9088745 -0.73519897 -1.8456755 4288085770
0.6729126 -0.59670734 -1.8434162 4288085770
1.6864624 -0.71697235 -1.8365164 4288085770
0.52224731 -0.58650303 -1.8392372 4288085770
1.4858704 -0.70103073 -1.8312635 4288085770
0.37258911 -0.5763216 -1.8340998 4288085770
1.33078 -0.68964958 -1.8369026 4288085770
0.26834106 -0.57067108 -1.8428507 4288085770
1.1777954 -0.67832279 -1.8406258 4288085770
0.1602478 -0.56399441 -1.8484325 4288085770
1.0219421 -0.66398621 -1.841197 4288085770
-0.00390625 -0.54771423 -1.8326321 4288085770
0.86322021 -0.64962959 -1.8396482 4288085770
0.72332764 -0.63652802 -1.8408756 4288085770
0.57467651 -0.62133789 -1.8377218 4288085770
0.44085693 -0.60733318 -1.8381815 4288085770
0.30325317 -0.59131718 -1.8344612 4288085770
0.18347168 -0.57752514 -1.834486 4288085770
0.056793213 -0.56265736 -1.8322201 4288085770
-0.066802979 -0.54685688 -1.8280659 4288085770
-0.077758789 1.3342838 -1.7655373 4288085770
0.041625977 1.3485165 -1.7671404 4288085770
0.15411377 1.3608112 -1.7654867 4288085770
0.28439331 1.3748932 -1.7685299 4288085770
0.42575073 1.3908272 -1.7729931 4288085770
0.55514526 1.4018764 -1.7720327 4288085770
0.69555664 1.4147911 -1.7734919 4288085770
0.84991455 1.4295158 -1.7764883 4288085770
-0.0284729 1.2925262 -1.7679501 4288085770
1.0012817 1.4412689 -1.7783995 4288085770
0.1076355 1.3035727 -1.7752657 4288085770
1.180542 1.4576664 -1.7853765 4288085770
0.22695923 1.3097906 -1.77596 4288085770
1.3598328 1.4720383 -1.7903757 4288085770
0.34832764 1.315958 -1.7747355 4288085770
1.5173645 1.480648 -1.7875662 4288085770
0.48065186 1.3219891 -1.7759514 4288085770
1.6997681 1.4929295 -1.7887125 4288085770
0.62384033 1.3288841 -1.7795963 4288085770
1.9050903 1.5069141 -1.7937584 4288085770
0.76412964 1.333786 -1.7801447 4288085770
2.1014709 1.5179939 -1.7954779 4288085770
0.90350342 1.3376923 -1.7796669 4288085770
2.2880554 1.525156 -1.7918463 4288085770
1.067688 1.3442841 -1.7841549 4288085770
2.5064087 1.5359173 -1.7944498 4288085770
1.2249451 1.3479424 -1.7853985 4288085770
2.7477722 1.5483551 -1.798955 4288085770
1.4090881 1.3542557 -1.791688 4288085770
2.9732666 1.5559559 -1.796876 4288085770
1.569397 1.3548489 -1.7910881 4288085770
3.2177124 1.5643158 -1.7985497 4288085770
1.759552 1.3590508 -1.7956438 4288085770
3.4831543 1.5733566 -1.8000555 4288085770
1.9537659 1.3611832 -1.7993832 4288085770
3.8023071 1.5867043 -1.810667 4288085770
2.1598816 1.3631554 -1.8046045 4288085770
4.0489502 1.5889416 -1.8044939 4288085770
2.3482361 1.3613148 -1.803153 4288085770
4.3434448 1.5935268 -1.8042116 4288085770
2.5554504 1.3592262 -1.8044624 4288085770
4.651947 1.5979004 -1.8034925 4288085770
2.7865906 1.3588123 -1.808712 4288085770
4.9914246 1.6018257 -1.804019 4288085770
3.0148315 1.3544178 -1.8108892 4288085770
5.3458557 1.6055317 -1.8051481 4288085770
3.2380981 1.3480492 -1.8088894 4288085770
5.7104187 1.6070595 -1.8037043 4288085770
3.4326172 1.336031 -1.7997999 4288085770
6.1187744 1.6099968 -1.8080006 4288085770
3.6878052 1.3282204 -1.801095 4288085770
6.5811157 1.6151619 -1.8154325 4288085770
3.9510193 1.3192863 -1.8017254 4288085770
7.0594482 1.6170731 -1.8215418 4288085770
4.2391357 1.3110104 -1.8053455 4288085770
7.5628357 1.6166 -1.8266802 4288085770
4.5383301 1.299552 -1.8074455 4288085770
8.056366 1.6111984 -1.8254786 4288085770
4.8285522 1.2841911 -1.8062305 4288085770
8.6257935 1.6067181 -1.8293056 4288085770
5.1456909 1.2684488 -1.8070984 4288085770
9.2203064 1.5978317 -1.8301859 4288085770
5.488739 1.2503443 -1.8100338 4288085770
9.8607788 1.587265 -1.8319254 4288085770
5.8060303 1.2265205 -1.8039999 4288085770
10.474518 1.5679951 -1.8246889 4288085770
6.1512756 1.2023134 -1.8010883 4288085770
11.691711 1.5894604 -1.8831654 4288085770
6.5144958 1.1758347 -1.797924 4288085770
13.261322 1.6239662 -1.9686069 4288085770
6.9394836 1.1485081 -1.8012457 4288085770
14.878235 1.6446419 -2.0430937 4288085770
7.379425 1.117938 -1.8032064 4288085770
7.7946472 1.0806599 -1.7982483 4288085770
8.3293457 1.0467634 -1.8080454 4288085770
8.8752136 1.0046368 -1.8123789 4288085770
9.520752 0.96313477 -1.826704 4288085770
10.084625 0.9096756 -1.8258915 4288085770
10.953644 0.86101723 -1.8562536 4288085770
12.038025 0.8113575 -1.9062595 4288085770
13.485443 0.75763512 -1.9878626 4288085770
1.7942505 -4.4506435 -0.56718159 4293729569
1.599884 -4.392065 -0.62475491 4293729569
1.5989685 -4.4246035 -0.66415405 4293729569
1.5349121 -4.4122734 -0.69647503 4293729569
1.5271301 -4.4367085 -0.73549938 4293729569
1.3470764 -4.3908758 -0.83383656 4293729569
1.3531494 -4.4184904 -0.87545681 4293729569
1.3894958 -4.4312782 -0.51475143 4293729569
5.7597961 -7.5634747 -1.5977011 4293729569
1.3403931 -4.4131289 -0.55060005 4293729569
1.2766113 -4.4045143 -0.9472971 4293729569
1.3298035 -4.4205122 -0.59030437 4293729569
1.2739258 -4.4200001 -0.98841476 4293729569
1.2975769 -4.4105949 -0.62792873 4293729569
1.2347412 -4.4080029 -1.023737 4293729569
1.2732849 -4.4048023 -0.66492081 4293729569
4.1384583 -6.5101757 -1.5880184 4293729569
1.2756042 -4.4153614 -0.70618153 4293729569
3.8193665 -6.2973623 -1.588665 4293729569
1.2789307 -4.4249363 -0.74746799 4293729569
3.555542 -6.120306 -1.5959606 4293729569
1.2645874 -4.4202766 -0.78587246 4293729569
3.3027039 -5.9474316 -1.6017466 4293729569
1.2561951 -4.4177017 -0.82454109 4293729569
3.0617676 -5.7807293 -1.6080828 4293729569
1.25177 -4.4151735 -0.86436844 4293729569
2.8465881 -5.6294003 -1.6156397 4293729569
1.2542419 -4.4167461 -0.9045229 4293729569
2.6256714 -5.4720364 -1.6188869 4293729569
