# .PCD v0.7 - Point Cloud Data file format
VERSION 0.7
FIELDS x y z rgb
SIZE 4 4 4 4
TYPE F F F U
COUNT 1 1 1 1
WIDTH 1115
HEIGHT 1
VIEWPOINT 0 0 0 1 0 0 0
POINTS 1115
DATA ascii
12.780643 1.4358939 -1.84745 4288085770
9.6757822 1.0866623 -1.8394232 4288085770
7.1878934 0.80767334 -1.8154014 4288085770
10.968727 1.2251751 -1.8454351 4288085770
6.1439428 0.67825854 -1.8153939 4288085770
16.449501 1.798349 -1.8704885 4288085770
15.483543 1.6809701 -1.9064813 4288085770
11.389724 1.2293398 -1.8434447 4288085770
7.3608961 0.79173982 -1.8164077 4288085770
13.354643 1.4281207 -1.8654647 4288085770
9.9167891 1.0597547 -1.8354323 4288085770
17.20249 1.8146428 -1.8505042 4288085770
6.2729468 0.66130769 -1.8153991 4288085770
11.84272 1.2325171 -1.8414549 4288085770
7.5568995 0.77681589 -1.8204139 4288085770
15.941561 1.6301478 -1.9054991 4288085770
18.068483 1.8359817 -1.8345221 4288085770
13.993644 1.4213732 -1.8844807 4288085770
10.200797 1.0348648 -1.8364424 4288085770
6.3909521 0.64335167 -1.8104039 4288085770
12.342718 1.2347132 -1.8414664 4288085770
7.738904 0.75988567 -1.8184204 4288085770
19.213463 1.875433 -1.8355442 4288085770
14.717642 1.41866 -1.9084984 4288085770
16.454578 1.5793476 -1.9065182 4288085770
10.540804 1.0139978 -1.8434529 4288085770
12.941711 1.2429496 -1.8504795 4288085770
6.5429554 0.62841034 -1.8134093 4288085770
7.9319091 0.74295974 -1.8164271 4288085770
13.643704 1.2542276 -1.8684947 4288085770
15.446642 1.4089478 -1.9245172 4288085770
6.6919594 0.61246717 -1.8124148 4288085770
10.890808 0.99113417 -1.8474644 4288085770
16.911598 1.5195239 -1.8965372 4288085770
8.1589136 0.72804809 -1.8204342 4288085770
14.459697 1.2675513 -1.8925126 4288085770
6.852963 0.59652901 -1.8134205 4288085770
16.109648 1.3882074 -1.9235358 4288085770
11.261815 0.96727908 -1.8524764 4288085770
8.3909159 0.71213794 -1.8204418 4288085770
17.408619 1.4587159 -1.8865573 4288085770
15.338689 1.2788996 -1.915532 4288085770
7.0379667 0.58260095 -1.8184266 4288085770
16.722658 1.3584456 -1.9095545 4288085770
11.621824 0.94041884 -1.8494884 4288085770
8.622921 0.69522762 -1.8184494 4288085770
16.098692 1.2721981 -1.9165512 4288085770
7.2079706 0.56666613 -1.8164327 4288085770
17.989643 1.4009417 -1.8795792 4288085770
17.390669 1.3277054 -1.8945746 4288085770
8.8929253 0.6803329 -1.8214577 4288085770
12.019832 0.91257358 -1.8475015 4288085770
7.3589711 0.56172442 -1.8124369 4288085770
6.9189844 0.52854979 -1.8084308 4288085770
7.1349783 0.54463553 -1.8104339 4288085770
7.6049638 0.57882214 -1.8154404 4288085770
6.7149911 0.51146865 -1.8054281 4288085770
7.842958 0.59491611 -1.8144439 4288085770
6.5299973 0.49539527 -1.8054258 4288085770
8.1039515 0.61201918 -1.814448 4288085770
6.3430037 0.47932056 -1.8014237 4288085770
8.377944 0.62912738 -1.8134522 4288085770
16.754698 1.2494532 -1.8985701 4288085770
6.1870089 0.464259 -1.8044217 4288085770
8.6629381 0.64523971 -1.8114569 4288085770
7.3999743 0.55074036 -1.8174392 4288085770
6.0660143 0.45221123 -1.8074205 4288085770
5.9020185 0.44014594 -1.804418 4288085770
6.0330153 0.44919786 -1.80542 4288085770
5.7600226 0.42909005 -1.8074161 4288085770
6.2310095 0.46327648 -1.8074228 4288085770
5.6320271 0.41903976 -1.8114145 4288085770
6.3910046 0.47433934 -1.8044251 4288085770
9.0169296 0.66538024 -1.8174626 4288085770
5.500031 0.40798771 -1.8134128 4288085770
6.5740004 0.48541173 -1.8054281 4288085770
5.8790202 0.4341366 -1.8044183 4288085770
5.3750353 0.3959381 -1.8144113 4288085770
9.3759212 0.68452239 -1.8214686 4288085770
6.7759953 0.4964917 -1.8074315 4288085770
5.252039 0.38488939 -1.8154098 4288085770
9.203928 0.66745484 -1.8284668 4288085770
6.9879909 0.5085758 -1.8104348 4288085770
18.819653 1.3552682 -1.8926054 4288085770
5.7450256 0.41908345 -1.807417 4288085770
9.7609148 0.70367479 -1.8254753 4288085770
5.1270442 0.37283939 -1.8134084 4288085770
18.256674 1.3060447 -1.8895985 4288085770
7.2119856 0.51966441 -1.8134388 4288085770
5.6030312 0.4040266 -1.8054156 4288085770
12.44484 0.88573909 -1.8455153 4288085770
10.183905 0.72484243 -1.8304825 4288085770
5.0100479 0.36079264 -1.8124071 4288085770
7.4339809 0.52975178 -1.8124428 4288085770
5.4770365 0.38997647 -1.8064145 4288085770
17.495705 1.2247418 -1.8825911 4288085770
7.6819763 0.54084992 -1.814447 4288085770
7.6109776 0.53582251 -1.820446 4288085770
10.660893 0.74703181 -1.8394911 4288085770
5.3670411 0.37593287 -1.8104136 4288085770
7.9469709 0.55195463 -1.8174518 4288085770
11.182885 0.77023888 -1.8485005 4288085770
9.5519304 0.6545918 -1.8374766 4288085770
5.2440462 0.36188367 -1.8094124 4288085770
8.2299671 0.56206632 -1.8194574 4288085770
11.666877 0.78742909 -1.8435098 4288085770
19.322678 1.2934645 -1.8966259 4288085770
8.4969645 0.570171 -1.8154626 4288085770
5.1340508 0.34783971 -1.8104116 4288085770
12.941848 0.85993361 -1.8485307 4288085770
19.585674 1.2955674 -1.889632 4288085770
12.199868 0.80663884 -1.84052 4288085770
7.8279824 0.51990664 -1.8214533 4288085770
18.411711 1.2051014 -1.879616 4288085770
8.8119583 0.58029532 -1.8174689 4288085770
5.0290556 0.33379766 -1.8114109 4288085770
12.769861 0.8248632 -1.8365313 4288085770
9.8859339 0.63972235 -1.8394867 4288085770
5.0110574 0.32679078 -1.8174113 4288085770
9.1779537 0.5914402 -1.824476 4288085770
13.46985 0.84813988 -1.841545 4288085770
9.5539484 0.6005888 -1.8284838 4288085770
8.0589867 0.50499654 -1.8234608 4288085770
13.498856 0.83515215 -1.8535473 4288085770
14.416835 0.88251686 -1.8685632 4288085770
9.9349451 0.60873902 -1.8304919 4288085770
19.466719 1.1835159 -1.8806443 4288085770
10.245938 0.62486339 -1.8424973 4288085770
5.0980611 0.31282333 -1.815415 4288085770
15.44782 0.91792691 -1.8945832 4288085770
10.340941 0.61589873 -1.8295007 4288085770
8.2989902 0.48908982 -1.8234683 4288085770
16.392811 0.94229996 -1.8976027 4288085770
10.835936 0.62509477 -1.8395113 4288085770
14.180861 0.81342137 -1.8685666 4288085770
10.652942 0.61002314 -1.8475089 4288085770
5.2000647 0.29886213 -1.8164192 4288085770
11.334932 0.63229179 -1.8445222 4288085770
17.229805 0.95562732 -1.8766211 4288085770
8.5619955 0.47319236 -1.8254768 4288085770
11.869929 0.63850272 -1.8465344 4288085770
11.094945 0.59619689 -1.8535213 4288085770
18.355795 0.97807097 -1.8736454 4288085770
14.952867 0.79172623 -1.8855882 4288085770
5.3000684 0.28490001 -1.8154231 4288085770
12.366928 0.63869703 -1.8375461 4288085770
8.8539982 0.4583067 -1.8294858 4288085770
19.684782 1.0055957 -1.8766737 4288085770
11.53095 0.58036757 -1.8525339 4288085770
12.956924 0.63992894 -1.8355602 4288085770
5.4040723 0.27093944 -1.8144274 4288085770
15.711875 0.76302469 -1.8916103 4288085770
9.1580029 0.44242546 -1.831495 4288085770
13.667923 0.64320958 -1.8415769 4288085770
12.038954 0.56556714 -1.855548 4288085770
5.5140758 0.25698131 -1.8134316 4288085770
9.4290075 0.42452994 -1.8225037 4288085770
14.550919 0.64955986 -1.8615974 4288085770
16.480888 0.72932577 -1.8866334 4288085770
12.544959 0.54876494 -1.8525625 4288085770
5.6290793 0.24302521 -1.8124361 4288085770
15.514915 0.65294158 -1.8786203 4288085770
9.7810135 0.40966812 -1.8265142 4288085770
13.115964 0.53298891 -1.8505783 4288085770
17.266901 0.69363284 -1.8766574 4288085770
16.435917 0.6483041 -1.8786433 4288085770
5.0400939 0.20279184 -1.819427 4288085770
5.7520833 0.22807243 -1.8134408 4288085770
10.161016 0.39481708 -1.8285253 4288085770
13.784966 0.5192523 -1.8545964 4288085770
17.327921 0.63565338 -1.8646667 4288085770
18.31291 0.66104472 -1.8826872 4288085770
5.1430964 0.18983117 -1.8194312 4288085770
10.563022 0.3789748 -1.830537 4288085770
5.8690877 0.21411684 -1.8094454 4288085770
14.589971 0.50757051 -1.8676176 4288085770
18.524923 0.62612557 -1.8696971 4288085770
11.016026 0.36415291 -1.83455 4288085770
5.2581 0.17787558 -1.8214353 4288085770
19.502922 0.62751341 -1.8897206 4288085770
6.0190907 0.2001752 -1.8134507 4288085770
15.528972 0.49694207 -1.8846416 4288085770
19.834927 0.61264181 -1.8727306 4288085770
11.509029 0.34834695 -1.839564 4288085770
5.369103 0.16491798 -1.8204396 4288085770
16.37998 0.48027632 -1.8796647 4288085770
6.1510944 0.18622568 -1.8104554 4288085770
12.016036 0.3315458 -1.8385786 4288085770
17.372984 0.46466681 -1.8766909 4288085770
5.4871068 0.15196317 -1.8194439 4288085770
6.2990994 0.1722829 -1.8104608 4288085770
12.580041 0.31576738 -1.8385943 4288085770
18.603989 0.45115259 -1.8837225 4288085770
5.6031098 0.14000762 -1.8174481 4288085770
6.4631028 0.15734652 -1.8114668 4288085770
13.236046 0.30002585 -1.8436123 4288085770
19.921991 0.43667182 -1.8827567 4288085770
5.7251143 0.12705427 -1.8144526 4288085770
6.6421065 0.14341648 -1.8154728 4288085770
13.920051 0.28329486 -1.843631 4288085770
5.8651166 0.11510858 -1.8154575 4288085770
6.824111 0.12948735 -1.816479 4288085770
14.791056 0.2686393 -1.8566544 4288085770
15.72306 0.25300714 -1.8636792 4288085770
6.0161209 0.10216732 -1.8174628 4288085770
7.0011153 0.11555593 -1.8144848 4288085770
17.479057 0.26369902 -1.8537204 4288085770
18.744049 0.2811988 -1.8547491 4288085770
16.332064 0.24524519 -1.847695 4288085770
15.285069 0.22683054 -1.839672 4288085770
14.378078 0.20847127 -1.8326522 4288085770
16.794065 0.23643035 -1.8747075 4288085770
13.579085 0.19115508 -1.8296353 4288085770
6.1591244 0.090222552 -1.8154677 4288085770
12.623092 0.1737766 -1.8236141 4288085770
12.007094 0.16553304 -1.8216002 4288085770
13.320088 0.18205228 -1.8276299 4288085770
12.847092 0.17486492 -1.8236194 4288085770
11.443098 0.15630993 -1.8195877 4288085770
14.077085 0.18935144 -1.8296475 4288085770
7.2071195 0.10063638 -1.816492 4288085770
10.938102 0.14711034 -1.8195766 4288085770
15.004081 0.19771883 -1.841669 4288085770
12.214097 0.15861447 -1.8226062 4288085770
10.457106 0.13691957 -1.8145661 4288085770
15.992079 0.20310953 -1.8476924 4288085770
17.909073 0.21886963 -1.874737 4288085770
10.029109 0.12675028 -1.8145571 4288085770
17.147078 0.20756635 -1.8557198 4288085770
11.638103 0.14238623 -1.8195943 4288085770
9.6231136 0.11658943 -1.8125486 4288085770
18.367075 0.2100479 -1.8567494 4288085770
6.3211279 0.077285603 -1.8164732 4288085770
11.122109 0.12618184 -1.818584 4288085770
7.4331236 0.086725086 -1.8204992 4288085770
9.2621164 0.10544658 -1.8135412 4288085770
19.794073 0.21161142 -1.8597839 4288085770
19.173079 0.20136794 -1.8757702 4288085770
10.654115 0.1109965 -1.8185744 4288085770
8.9641209 0.094329402 -1.8215355 4288085770
6.4921312 0.065352306 -1.8174789 4288085770
8.6331253 0.083197758 -1.8175287 4288085770
10.20512 0.094818249 -1.8155656 4288085770
7.6581287 0.071813032 -1.8215066 4288085770
8.3441286 0.072083145 -1.8175231 4288085770
9.8041248 0.079659298 -1.8155578 4288085770
6.6691351 0.053421274 -1.8174847 4288085770
8.0501328 0.059966117 -1.8145175 4288085770
7.902133 0.057908684 -1.8235142 4288085770
9.4501305 0.064519107 -1.8175511 4288085770
7.7981362 0.048866048 -1.8145127 4288085770
6.866138 0.041498438 -1.8194911 4288085770
9.1131353 0.049385443 -1.818545 4288085770
8.1571388 0.043008432 -1.8235223 4288085770
7.5571399 0.036770336 -1.8155086 4288085770
8.7911415 0.034257419 -1.817539 4288085770
7.0641422 0.029575922 -1.8204973 4288085770
8.441143 0.028120019 -1.8265312 4288085770
7.3331437 0.02568125 -1.8155046 4288085770
8.4801464 0.019133478 -1.8145332 4288085770
7.2741461 0.017658047 -1.820504 4288085770
7.1121478 0.013593003 -1.8135005 4288085770
8.7281485 0.014232539 -1.82654 4288085770
7.5071497 0.0067498237 -1.8245112 4288085770
8.199151 0.0050215051 -1.8125283 4288085770
9.0531521 -0.00063960254 -1.8295498 4288085770
6.903152 0.0015095845 -1.8124969 4288085770
7.7371535 -0.0051603243 -1.8225182 4288085770
7.9461551 -0.010079041 -1.8145239 4288085770
9.3701572 -0.015515439 -1.8275595 4288085770
6.7061553 -0.010569267 -1.8104936 4288085770
8.0021582 -0.017055899 -1.8265263 4288085770
9.7461624 -0.030367248 -1.8315707 4288085770
7.69416 -0.024179768 -1.8115197 4288085770
8.2731619 -0.027949493 -1.8265344 4288085770
6.5191588 -0.022644192 -1.8084906 4288085770
10.126168 -0.04521801 -1.830582 4288085770
8.5631657 -0.039835498 -1.8275429 4288085770
7.4801641 -0.039264753 -1.8155162 4288085770
10.558173 -0.060047857 -1.8325944 4288085770
8.8711691 -0.05071453 -1.8265519 4288085770
6.3561625 -0.0347092 -1.8104881 4288085770
19.852205 -0.14537621 -1.8668336 4288085770
11.029177 -0.075862296 -1.8346082 4288085770
9.2221737 -0.062576018 -1.830562 4288085770
9.5901766 -0.073430941 -1.8325725 4288085770
7.2511692 -0.053356607 -1.8115125 4288085770
11.536183 -0.091662481 -1.8366226 4288085770
19.570213 -0.16948536 -1.89183 4288085770
6.2121658 -0.046766378 -1.8154861 4288085770
9.9721804 -0.083280496 -1.8325831 4288085770
18.418213 -0.16394375 -1.8618009 4288085770
12.096189 -0.10744183 -1.8376384 4288085770
18.107212 -0.16806448 -1.8807939 4288085770
10.405185 -0.094109461 -1.8365953 4288085770
16.861212 -0.16455761 -1.871763 4288085770
12.734195 -0.12318982 -1.8426563 4288085770
10.841187 -0.10393801 -1.8336072 4288085770
15.786208 -0.15998268 -1.8667359 4288085770
11.362192 -0.1137321 -1.8376211 4288085770
14.826206 -0.15336253 -1.8597115 4288085770
17.156218 -0.18044375 -1.8537722 4288085770
11.905195 -0.12251782 -1.8386357 4288085770
13.435203 -0.13991296 -1.8476757 4288085770
7.0481734 -0.068437934 -1.8105093 4288085770
13.941204 -0.14671309 -1.849689 4288085770
13.204201 -0.13900432 -1.8466698 4288085770
12.521198 -0.13127445 -1.841652 4288085770
6.0411696 -0.058835462 -1.8104835 4288085770
14.206208 -0.15560851 -1.8516965 4288085770
15.090214 -0.17325908 -1.8587205 4288085770
16.083221 -0.19086659 -1.8657475 4288085770
17.204227 -0.20842361 -1.8717772 4288085770
18.506233 -0.22690895 -1.8798116 4288085770
16.077225 -0.19787124 -1.8487481 4288085770
6.8641782 -0.082511388 -1.8125066 4288085770
5.9021735 -0.071891062 -1.8134816 4288085770
15.119228 -0.21525098 -1.843727 4288085770
6.6821818 -0.09658432 -1.8125039 4288085770
5.7421775 -0.083956137 -1.8064792 4288085770
14.271235 -0.23058727 -1.8387082 4288085770
6.5001864 -0.11165786 -1.8085012 4288085770
13.521239 -0.24788477 -1.8356919 4288085770
5.6351805 -0.096998543 -1.8144779 4288085770
19.034292 -0.38570759 -1.862846 4288085770
12.820246 -0.26316339 -1.8286768 4288085770
6.3451905 -0.1257201 -1.8094991 4288085770
5.5111837 -0.10904838 -1.8164765 4288085770
17.721296 -0.39922789 -1.8548155 4288085770
12.23225 -0.27939644 -1.8296646 4288085770
6.1921949 -0.13978158 -1.8104972 4288085770
5.3951879 -0.12209529 -1.8174752 4288085770
16.625303 -0.41366202 -1.8517904 4288085770
11.669255 -0.29562032 -1.8256527 4288085770
6.0541987 -0.15383717 -1.8114954 4288085770
5.2811904 -0.13514143 -1.8184739 4288085770
15.638307 -0.42905328 -1.8477682 4288085770
11.196259 -0.31180811 -1.8266432 4288085770
5.9192023 -0.16789162 -1.8124939 4288085770
5.1711941 -0.14718607 -1.8184726 4288085770
14.77931 -0.44339389 -1.844749 4288085770
10.742265 -0.32798851 -1.8266342 4288085770
5.7852068 -0.18194598 -1.8114922 4288085770
13.980315 -0.45771137 -1.8377311 4288085770
10.338271 -0.34514919 -1.8276262 4288085770
13.28632 -0.47298697 -1.8347161 4288085770
5.6522102 -0.19600011 -1.8094904 4288085770
9.975275 -0.36129338 -1.8306193 4288085770
12.666324 -0.48723337 -1.8317025 4288085770
5.5332146 -0.2100485 -1.8094893 4288085770
9.6222801 -0.37743407 -1.8306127 4288085770
19.719448 -0.81044555 -1.9039201 4288085770
19.635454 -0.81948173 -1.881919 4288085770
12.116328 -0.50245178 -1.8316909 4288085770
9.2742844 -0.39257342 -1.825606 4288085770
5.4342179 -0.22508846 -1.8144885 4288085770
18.401451 -0.82296908 -1.889889 4288085770
11.613332 -0.51865172 -1.8316805 4288085770
8.9802885 -0.40869051 -1.8286006 4288085770
18.577467 -0.86390221 -1.8778991 4288085770
5.3292217 -0.23913127 -1.8154877 4288085770
11.164337 -0.53483033 -1.8326715 4288085770
17.263453 -0.83442092 -1.8808626 4288085770
8.6902933 -0.42480671 -1.8265957 4288085770
5.2292252 -0.25317198 -1.8174869 4288085770
17.557478 -0.90130854 -1.8668787 4288085770
10.758341 -0.55099171 -1.8356634 4288085770
16.260454 -0.84181905 -1.8738387 4288085770
8.4132967 -0.43991789 -1.8235905 4288085770
10.371346 -0.56714594 -1.8356558 4288085770
15.376455 -0.8481698 -1.8698176 4288085770
16.728493 -0.94163847 -1.8638635 4288085770
8.1723013 -0.45601431 -1.8255866 4288085770
14.579455 -0.85248613 -1.8667983 4288085770
9.9943504 -0.58229673 -1.8326485 4288085770
7.9183049 -0.47111672 -1.820582 4288085770
15.973503 -0.97893929 -1.8598499 4288085770
13.849454 -0.85377598 -1.8627805 4288085770
9.6713543 -0.59942555 -1.8346426 4288085770
7.710309 -0.48720002 -1.8235788 4288085770
13.191453 -0.85403705 -1.8607639 4288085770
9.3343582 -0.61356091 -1.8286359 4288085770
15.308517 -1.0162045 -1.8578382 4288085770
12.542449 -0.85029531 -1.8527474 4288085770
7.5003138 -0.50328493 -1.8215755 4288085770
18.874632 -1.3227967 -1.9029678 4288085770
9.0523615 -0.6296736 -1.8306309 4288085770
11.989447 -0.84751463 -1.852733 4288085770
14.713527 -1.0534416 -1.8588283 4288085770
7.3143172 -0.51935971 -1.8235729 4288085770
17.560616 -1.2813182 -1.8839296 4288085770
11.492445 -0.84471202 -1.8527203 4288085770
8.766366 -0.64478862 -1.8266257 4288085770
16.492601 -1.249741 -1.8788986 4288085770
7.1233211 -0.534437 -1.8215699 4288085770
11.037441 -0.84189236 -1.8547084 4288085770
14.139537 -1.086671 -1.8548185 4288085770
19.900713 -1.5353948 -1.9230218 4288085770
8.5133705 -0.65989029 -1.8256212 4288085770
15.57259 -1.2211051 -1.8768719 4288085770
10.626439 -0.83905494 -1.8596977 4288085770
6.9613256 -0.55150235 -1.8245679 4288085770
14.731576 -1.1944379 -1.8748474 4288085770
10.199434 -0.83122468 -1.856686 4288085770
18.831717 -1.5508202 -1.9119972 4288085770
13.623548 -1.1198776 -1.8508098 4288085770
8.2723732 -0.67598712 -1.8256171 4288085770
13.939564 -1.1657518 -1.8688238 4288085770
9.8014288 -0.82238293 -1.8536747 4288085770
6.7913294 -0.56657159 -1.8215655 4288085770
13.243552 -1.1390275 -1.8668028 4288085770
9.4014235 -0.81054258 -1.844663 4288085770
8.0563793 -0.69307411 -1.8266138 4288085770
17.833717 -1.5612173 -1.9019736 4288085770
13.182558 -1.1550539 -1.8528033 4288085770
12.590541 -1.1122863 -1.8607829 4288085770
6.6303334 -0.58263713 -1.8205633 4288085770
19.707794 -1.7594827 -1.8860471 4288085770
9.0704203 -0.80267394 -1.8446536 4288085770
19.6738 -1.7674979 -1.8730472 4288085770
12.00453 -1.0865188 -1.8567647 4288085770
8.7644138 -0.79379535 -1.8456447 4288085770
7.8383813 -0.70916224 -1.8246102 4288085770
16.952721 -1.570568 -1.8959529 4288085770
11.48252 -1.0637252 -1.8567486 4288085770
12.742569 -1.1872305 -1.8497965 4288085770
8.4684095 -0.78491294 -1.8456359 4288085770
6.4813371 -0.59869778 -1.8205615 4288085770
18.48979 -1.7529691 -1.8550156 4288085770
11.048512 -1.0468962 -1.8647354 4288085770
8.1794043 -0.77402782 -1.8426272 4288085770
7.648385 -0.72623909 -1.8256075 4288085770
18.214792 -1.754086 -1.7880089 4293729569
10.5755 -1.0220839 -1.8597201 4288085770
7.9053988 -0.76213706 -1.8396187 4288085770
16.163719 -1.5788817 -1.8919343 4288085770
6.3443403 -0.61475372 -1.8215598 4288085770
10.14249 -0.99825561 -1.8557061 4288085770
12.338576 -1.2183926 -1.8477905 4288085770
7.6573935 -0.75123549 -1.8386108 4288085770
17.44879 -1.7503853 -1.8279892 4288085770
7.4633894 -0.74231374 -1.8266047 4288085770
9.7374811 -0.97541642 -1.8516928 4288085770
7.4123883 -0.74033296 -1.8356032 4288085770
9.3694706 -0.95356238 -1.8486806 4288085770
7.1943831 -0.72941935 -1.8365961 4288085770
17.3158 -1.7794485 -1.7489897 4293729569
15.389717 -1.5801902 -1.8839148 4288085770
6.214344 -0.63080668 -1.8225584 4288085770
7.0003786 -0.71949589 -1.8405899 4288085770
9.027462 -0.93269777 -1.8476692 4288085770
11.949585 -1.2485493 -1.8427845 4288085770
7.282393 -0.75838745 -1.8246022 4288085770
6.7943726 -0.70757806 -1.8375831 4288085770
8.6924524 -0.90983105 -1.8416576 4288085770
16.569788 -1.7567368 -1.8089679 4288085770
6.588367 -0.69366026 -1.831576 4288085770
8.4104443 -0.89194238 -1.8436481 4288085770
14.729715 -1.5854524 -1.883899 4288085770
6.0923491 -0.64785671 -1.8245574 4288085770
6.4093623 -0.68273115 -1.8325698 4288085770
8.1364374 -0.87305081 -1.8426386 4288085770
6.239357 -0.67079842 -1.832564 4288085770
16.614809 -1.814731 -1.7229769 4293729569
7.8494267 -0.85016489 -1.8366284 4288085770
6.0733514 -0.65886426 -1.8315582 4288085770
7.1043963 -0.77346003 -1.8215994 4288085770
7.6094193 -0.83225989 -1.83662 4288085770
11.618595 -1.2806824 -1.8427802 4288085770
5.9143457 -0.64692748 -1.8305525 4288085770
7.3814111 -0.81435001 -1.8366116 4288085770
15.820787 -1.7680361 -1.7959507 4293729569
5.7643414 -0.63498688 -1.8295472 4288085770
7.1524034 -0.79444075 -1.8336033 4288085770
5.6183352 -0.6220448 -1.8275417 4288085770
14.106711 -1.5857004 -1.8828834 4288085770
5.9613523 -0.66291082 -1.8215557 4288085770
6.9463959 -0.77652216 -1.8325956 4288085770
5.492331 -0.61109424 -1.8305371 4288085770
6.7513885 -0.75859916 -1.8325882 4288085770
5.3673267 -0.60014343 -1.8325323 4288085770
5.2433209 -0.58719254 -1.8315276 4288085770
6.5603809 -0.74067485 -1.8295811 4288085770
6.3803735 -0.72274601 -1.8285742 4288085770
5.247323 -0.59319174 -1.8265284 4288085770
6.9564013 -0.79152024 -1.8235978 4288085770
6.2083669 -0.70581412 -1.8265675 4288085770
5.3703289 -0.6091435 -1.8275336 4288085770
5.483335 -0.62309957 -1.8235383 4288085770
6.0553608 -0.68987429 -1.8275615 4288085770
5.8973541 -0.67193663 -1.8255552 4288085770
5.618341 -0.64004648 -1.8255438 4288085770
5.7533474 -0.65599346 -1.8255495 4288085770
16.16083 -1.8739142 -1.7179732 4293729569
11.283603 -1.3108178 -1.8387756 4288085770
13.51571 -1.5829359 -1.878868 4288085770
15.169791 -1.7842966 -1.7869362 4293729569
5.8463559 -0.67995834 -1.8215548 4288085770
17.139898 -2.0375488 -1.5670195 4293729569
6.8134046 -0.80857849 -1.8255961 4288085770
12.987706 -1.5811459 -1.8788542 4288085770
10.990613 -1.3419361 -1.8377721 4288085770
15.668844 -1.9211129 -1.704967 4293729569
5.7323585 -0.69500542 -1.8205535 4288085770
16.673901 -2.0597289 -1.6160107 4293729569
14.513791 -1.7925599 -1.7699208 4293729569
17.289942 -2.1545072 -1.4470387 4293729569
6.6724091 -0.82563627 -1.8255945 4288085770
12.452702 -1.5733593 -1.8738396 4288085770
16.370913 -2.0958433 -1.6780078 4293729569
5.631362 -0.71204722 -1.8215531 4288085770
10.718622 -1.3730463 -1.8367691 4288085770
15.338864 -1.9842461 -1.706967 4293729569
13.941793 -1.8057895 -1.7569081 4293729569
6.5314116 -0.84169424 -1.8235928 4288085770
16.886961 -2.2106667 -1.471036 4293729569
17.035978 -2.2336519 -1.1030427 4293729569
11.972695 -1.5675504 -1.8728267 4288085770
17.006004 -2.2447536 -0.34804308 4293729569
16.992985 -2.2526672 -1.1210443 4293729569
15.773905 -2.0900774 -1.7049921 4293729569
17.081003 -2.2666838 -0.68904805 4293729569
5.5443664 -0.73008323 -1.8265529 4288085770
10.489632 -1.4071389 -1.8397677 4288085770
17.007025 -2.3017595 -0.30905065 4293729569
6.405416 -0.85874593 -1.8235916 4288085770
11.485689 -1.5547452 -1.8658124 4288085770
13.441795 -1.8229904 -1.7478976 4293729569
15.12789 -2.0593317 -1.7179714 4293729569
15.194897 -2.0803041 -1.7309759 4293729569
16.735987 -2.297724 -1.5180436 4293729569
16.946026 -2.3357401 -0.68805379 4293729569
16.913015 -2.336705 -1.0980532 4293729569
16.93004 -2.3487911 -0.31105492 4293729569
16.952032 -2.3547316 -0.74205637 4293729569
5.4503703 -0.74712241 -1.8275524 4288085770
16.923019 -2.3576949 -1.1540562 4293729569
11.111685 -1.5528935 -1.8728025 4288085770
6.2814193 -0.87479734 -1.8225904 4288085770
10.290643 -1.4452195 -1.8467674 4288085770
14.538883 -2.0525632 -1.7419555 4293729569
12.989801 -1.8411723 -1.7398882 4293729569
16.925064 -2.4117959 -0.30806312 4293729569
14.783907 -2.1134717 -1.7119699 4293729569
16.767027 -2.4087081 -1.5830591 4293729569
5.359374 -0.76316047 -1.8285519 4288085770
10.711679 -1.5430532 -1.8707911 4288085770
16.915068 -2.4517541 -0.70806831 4293729569
16.937067 -2.4587348 -0.80206984 4293729569
16.925058 -2.4587042 -1.1000696 4293729569
16.915083 -2.4608057 -0.27206933 4293729569
13.769862 -2.0018687 -1.7319293 4293729569
16.956062 -2.4786813 -1.192073 4293729569
6.1664233 -0.89184475 -1.8225893 4288085770
10.116654 -1.48329 -1.8547679 4288085770
12.648809 -1.8713092 -1.7428836 4293729569
10.331673 -1.5322045 -1.8697798 4288085770
16.99011 -2.5417745 -0.30808195 4293729569
16.601053 -2.4867711 -1.6290652 4293729569
13.105844 -1.9601324 -1.7279069 4293729569
5.2763777 -0.78019524 -1.8295517 4288085770
14.55793 -2.1815634 -1.7169729 4293729569
17.074112 -2.5826759 -0.8710897 4293729569
6.0594273 -0.90988922 -1.8235886 4288085770
9.9686651 -1.5193495 -1.8677688 4288085770
9.9286652 -1.5193666 -1.8587675 4288085770
12.513826 -1.9213673 -1.7258865 4293729569
12.222811 -1.8854815 -1.7298744 4293729569
5.1863804 -0.79623318 -1.8285511 4288085770
16.319071 -2.5458817 -1.6650658 4293729569
14.29395 -2.2416708 -1.7149742 4293729569
9.6156578 -1.5044907 -1.8627574 4288085770
5.9614315 -0.92792988 -1.8255881 4288085770
11.962809 -1.884586 -1.7238674 4293729569
9.7166719 -1.5484533 -1.8557657 4288085770
11.745809 -1.8856748 -1.704862 4293729569
9.2866488 -1.4896219 -1.8607469 4288085770
11.506797 -1.8577663 -1.730852 4293729569
16.000086 -2.5940063 -1.6960641 4293729569
5.8624358 -0.94597113 -1.8265877 4288085770
14.169977 -2.3217225 -1.7269814 4293729569
9.0086432 -1.4797326 -1.8637384 4288085770
11.108786 -1.8359233 -1.739839 4293729569
9.5346832 -1.5805278 -1.855765 4288085770
11.36081 -1.8958312 -1.6898532 4293729569
15.55409 -2.617183 -1.7140557 4293729569
5.7574391 -0.96201527 -1.8235868 4288085770
8.7026348 -1.4628552 -1.8577281 4288085770
10.631767 -1.7961134 -1.7328215 4293729569
13.881995 -2.3738403 -1.7179809 4293729569
8.4366274 -1.4499617 -1.8577195 4288085770
9.3556919 -1.6126014 -1.8547645 4288085770
10.368762 -1.7892154 -1.7568136 4293729569
10.924806 -1.8950087 -1.6638418 4293729569
15.125094 -2.636353 -1.7300472 4293729569
5.6704416 -0.98005176 -1.8255866 4288085770
8.1586189 -1.432073 -1.8527099 4288085770
10.123758 -1.7833104 -1.7818065 4288085770
13.705017 -2.4409134 -1.7199849 4293729569
9.2017012 -1.6476648 -1.8567648 4288085770
7.9016089 -1.4151759 -1.8487009 4288085770
9.9337559 -1.7843832 -1.8128016 4288085770
14.647092 -2.6415427 -1.7400355 4293729569
10.646811 -1.9161218 -1.6568372 4293729569
5.5794458 -0.99608994 -1.824586 4288085770
9.768754 -1.7874455 -1.8467976 4288085770
7.6806021 -1.4022642 -1.8496932 4288085770
13.506036 -2.5019956 -1.7169876 4293729569
9.0487099 -1.6797282 -1.8567648 4288085770
14.04808 -2.6177819 -1.7320168 4293729569
5.5044498 -1.0161219 -1.8265862 4288085770
9.548748 -1.7795309 -1.8687909 4288085770
10.419819 -1.9442141 -1.6568348 4293729569
7.474596 -1.3903464 -1.8526862 4288085770
9.2277346 -1.7496582 -1.8687785 4288085770
7.2445865 -1.3714386 -1.8476777 4288085770
13.468065 -2.5880141 -1.721998 4293729569
5.4224534 -1.0321567 -1.8255858 4288085770
13.326056 -2.5640702 -1.713991 4293729569
8.9117203 -1.7147847 -1.8587656 4288085770
8.927722 -1.7207774 -1.8687668 4288085770
7.0525789 -1.3575152 -1.8496708 4288085770
10.215827 -1.9752975 -1.6578333 4293729569
8.6617088 -1.6958828 -1.8727565 4282675967
6.8685722 -1.3445888 -1.850664 4288085770
12.957055 -2.5672178 -1.7179818 4293729569
5.3524575 -1.0521866 -1.8285863 4288085770
8.3386936 -1.6570121 -1.861743 4288085770
10.64789 -2.1231627 -1.3898637 4293729569
8.8257322 -1.7588204 -1.8697689 4288085770
6.6725636 -1.3266674 -1.8476564 4288085770
10.035835 -2.0083711 -1.6588329 4293729569
8.0646791 -1.6261215 -1.8577317 4288085770
6.4915557 -1.3097398 -1.8456492 4288085770
5.2774611 -1.0692186 -1.8275862 4288085770
7.804666 -1.5952252 -1.8527209 4288085770
6.3175473 -1.2938097 -1.8436426 4288085770
10.628913 -2.1951721 -1.4008723 4293729569
8.6767406 -1.7888827 -1.8657687 4288085770
9.8868475 -2.0454321 -1.6648335 4293729569
7.5676537 -1.5673198 -1.8507106 4288085770
6.1655402 -1.2798704 -1.8456366 4288085770
10.503911 -2.2012112 -1.4978698 4293729569
10.490929 -2.2002869 -0.89886922 4293729569
18.689583 -3.9349751 -1.7383097 4293729569
7.346642 -1.5404077 -1.8497014 4288085770
5.2084641 -1.0872482 -1.8285865 4288085770
6.0095329 -1.2639327 -1.8446305 4288085770
7.1296296 -1.5134943 -1.8466922 4288085770
8.4637432 -1.8029717 -1.8467647 4288085770
10.457926 -2.2362437 -1.391873 4293729569
9.7638597 -2.0874829 -1.6728356 4293729569
10.641977 -2.2783184 -0.14488287 4293729569
5.8465238 -1.2449983 -1.8396236 4288085770
10.528957 -2.2673044 -0.64787859 4293729569
10.487944 -2.2592747 -1.0358766 4293729569
10.371921 -2.2342622 -1.5308707 4293729569
6.9306183 -1.4875734 -1.8456833 4288085770
10.49296 -2.2703204 -0.6348781 4293729569
10.592982 -2.2933383 -0.15188348 4293729569
5.7035165 -1.2290556 -1.8386174 4288085770
10.464952 -2.2712998 -0.90687752 4293729569
6.750608 -1.4646449 -1.8466756 4288085770
5.569509 -1.2141094 -1.838612 4288085770
6.5755978 -1.4417144 -1.8476679 4288085770
8.2017403 -1.8050814 -1.8147577 4288085770
9.6188698 -2.1235428 -1.6758362 4293729569
10.434958 -2.3062928 -1.0808812 4293729569
10.391946 -2.2972732 -1.3938792 4293729569
10.243928 -2.2643108 -1.563871 4293729569
10.521993 -2.329371 -0.13088618 4293729569
5.4455018 -1.2001588 -1.8406067 4288085770
10.458977 -2.3263328 -0.66988438 4293729569
6.3925867 -1.4147875 -1.8426596 4288085770
10.504 -2.3483737 -0.17688814 4293729569
10.457982 -2.3383393 -0.62188578 4293729569
10.427974 -2.3393168 -0.91488528 4293729569
5.3244958 -1.1862071 -1.8416015 4288085770
6.2175756 -1.3898579 -1.8386515 4288085770
10.407973 -2.3573008 -1.1288871 4293729569
5.2034883 -1.1702553 -1.8405961 4288085770
10.127935 -2.2963552 -1.5988718 4293729569
6.0685663 -1.3689166 -1.8406447 4288085770
7.9537373 -1.8051854 -1.783751 4288085770
9.4868793 -2.1605976 -1.6778374 4293729569
10.369969 -2.368284 -1.4018875 4293729569
10.488017 -2.3973889 -0.11789393 4293729569
5.9175558 -1.3449769 -1.8386376 4288085770
10.429998 -2.3933444 -0.6958921 4293729569
10.479022 -2.4143834 -0.20289588 4293729569
5.7775459 -1.3240324 -1.8396311 4288085770
10.439006 -2.4093518 -0.6078943 4293729569
10.424998 -2.4143202 -0.92389476 4293729569
10.410992 -2.4152961 -1.1818945 4293729569
9.9649391 -2.3144183 -1.6258699 4293729569
5.6325364 -1.3000904 -1.835624 4288085770
5.4935265 -1.277146 -1.8326173 4288085770
7.7317371 -1.8102788 -1.7557455 4293729569
9.3698921 -2.199646 -1.6828392 4293729569
5.3695173 -1.2561952 -1.8326113 4288085770
10.505046 -2.4773879 -0.10290457 4293729569
10.372995 -2.4462855 -1.4118975 4293729569
10.448025 -2.4713376 -0.72590256 4293729569
5.2645102 -1.2392365 -1.8366063 4288085770
10.492045 -2.4893782 -0.2309058 4293729569
10.40801 -2.4712932 -1.2359016 4293729569
10.490037 -2.4963367 -0.59690684 4293729569
9.7829409 -2.3274899 -1.6488667 4293729569
5.1465011 -1.2182834 -1.8356003 4288085770
10.47403 -2.5043032 -0.93590748 4293729569
7.5687394 -1.8263479 -1.739743 4293729569
9.2469025 -2.2366974 -1.6848406 4293729569
10.456031 -2.5392704 -1.2949115 4293729569
10.425025 -2.5362673 -1.4269104 4293729569
9.5769386 -2.3305709 -1.6668614 4293729569
13.204308 -3.2821498 -1.7000809 4293729569
9.3599348 -2.3286567 -1.6818552 4293729569
7.4707475 -1.8563898 -1.737744 4293729569
9.1289129 -2.273747 -1.6858419 4293729569
12.207221 -3.0645442 -1.6760261 4293729569
12.588269 -3.1943944 -1.6900529 4293729569
9.1489305 -2.3257401 -1.6958491 4293729569
7.3847561 -1.8894267 -1.7367456 4293729569
9.040925 -2.3177841 -1.6918452 4293729569
12.169249 -3.1465623 -1.6790357 4293729569
12.011233 -3.1086245 -1.6780264 4293729569
8.9199228 -2.3148315 -1.7048414 4293729569
11.454198 -3.0228465 -1.6650004 4293729569
8.9439354 -2.3568251 -1.6938474 4293729569
7.3047652 -1.9224614 -1.7367474 4293729569
8.6939144 -2.3009214 -1.7128334 4293729569
12.138278 -3.2305782 -1.6810454 4293729569
10.977167 -2.9510362 -1.6569782 4293729569
8.4699059 -2.2860105 -1.7188252 4293729569
8.8559504 -2.3998625 -1.6978502 4293729569
7.1907706 -1.9455103 -1.7267472 4293729569
12.129308 -3.3195846 -1.6850566 4293729569
10.576142 -2.8951955 -1.6589602 4293729569
8.2768984 -2.276087 -1.7298187 4293729569
10.169116 -2.8333576 -1.6539413 4293729569
8.7759628 -2.4428968 -1.7008533 4293729569
7.0807767 -1.9685578 -1.7167468 4293729569
8.0968914 -2.267158 -1.7418125 4293729569
12.115338 -3.4085941 -1.6870676 4293729569
9.8640976 -2.7964783 -1.663928 4293729569
7.9048824 -2.2532349 -1.7508054 4293729569
8.687974 -2.4829347 -1.701856 4293729569
7.0397878 -2.0095766 -1.7227507 4293729569
9.6370888 -2.7775667 -1.6829195 4293729569
12.130372 -3.5045912 -1.6910803 4293729569
7.6548672 -2.2203357 -1.7437941 4293729569
9.3680725 -2.7436728 -1.6929076 4293729569
8.613986 -2.5269668 -1.7038594 4293729569
6.989799 -2.0485988 -1.7257538 4293729569
7.4278531 -2.1904268 -1.7397839 4293729569
12.139404 -3.5985913 -1.6940925 4293729569
9.0510511 -2.6937993 -1.6918926 4293729569
7.2158399 -2.1625123 -1.7377745 4293729569
8.5339985 -2.5670016 -1.7038621 4293729569
6.9428105 -2.0876205 -1.7287574 4293729569
8.8030338 -2.6588974 -1.6998812 4293729569
12.158439 -3.6975873 -1.6971058 4293729569
7.0088267 -2.1335957 -1.7337648 4293729569
8.5610189 -2.6239929 -1.70787 4293729569
8.4790144 -2.6150255 -1.7078664 4293729569
6.8698182 -2.1186526 -1.7237589 4293729569
6.8068123 -2.1036773 -1.7297554 4293729569
12.178473 -3.7965829 -1.6991187 4293729569
8.3520041 -2.5970752 -1.7198607 4293729569
6.6227999 -2.0777512 -1.7277468 4293729569
8.192997 -2.5831373 -1.7388543 4293729569
8.4190273 -2.6600525 -1.7098705 4293729569
6.8458314 -2.1626644 -1.7307637 4293729569
12.223511 -3.9045687 -1.7041337 4293729569
6.4417868 -2.0508239 -1.7247382 4293729569
7.9949822 -2.5542152 -1.748845 4293729569
8.368042 -2.7080753 -1.7128749 4293729569
6.2727747 -2.0248926 -1.72273 4293729569
7.7629638 -2.5133076 -1.7488334 4293729569
6.7728395 -2.1926973 -1.7247652 4293729569
7.5569477 -2.4773893 -1.7528229 4288085770
6.1277642 -2.00495 -1.7257234 4293729569
8.3170557 -2.7550988 -1.7148794 4293729569
6.72685 -2.2297184 -1.7247684 4293729569
7.3089247 -2.4254887 -1.7448095 4293729569
5.9787521 -1.9810104 -1.725716 4293729569
7.0689034 -2.3725853 -1.7337958 4293729569
5.8337412 -1.9580687 -1.7257087 4293729569
8.2480688 -2.796129 -1.7118822 4293729569
6.6908612 -2.2697353 -1.725772 4293729569
6.8588839 -2.3286695 -1.7297844 4293729569
5.6897302 -1.9341269 -1.7237016 4293729569
6.6728678 -2.2897439 -1.7277741 4293729569
5.5597191 -1.9121794 -1.724695 4293729569
8.1710777 -2.8321636 -1.7058846 4293729569
6.4708476 -2.2448254 -1.7197624 4293729569
6.6628737 -2.3127494 -1.7287765 4293729569
5.4467101 -1.8952247 -1.7286894 4293729569
6.2898297 -2.2038982 -1.7147521 4293729569
5.3527036 -1.8842617 -1.7386853 4293729569
8.0950871 -2.8671968 -1.6998866 4293729569
6.1078119 -2.1609714 -1.7077414 4293729569
6.6038814 -2.3427763 -1.7227783 4293729569
5.2436938 -1.8653055 -1.7416797 4293729569
5.9768 -2.1350234 -1.7127342 4293729569
5.1326847 -1.8453504 -1.7426739 4293729569
5.8327856 -2.103081 -1.712726 4293729569
8.0090971 -2.899235 -1.6908879 4293729569
6.5828953 -2.3877876 -1.7257831 4293729569
5.6927714 -2.0701368 -1.7117178 4293729569
5.0296755 -1.8273916 -1.7456684 4293729569
5.5417557 -2.0331979 -1.7057087 4293729569
4.9466686 -1.8154243 -1.7536644 4288085770
7.9971147 -2.9572425 -1.6968948 4293729569
6.5259027 -2.4178138 -1.7197851 4293729569
5.377737 -1.9892646 -1.6936984 4293729569
4.8876643 -1.8104471 -1.769662 4288085770
5.2617245 -1.9613109 -1.6936915 4293729569
4.8396621 -1.8094651 -1.7886603 4288085770
5.1527128 -1.9353542 -1.695685 4293729569
7.9791331 -3.0132523 -1.6999012 4293729569
6.4999146 -2.458827 -1.7197891 4293729569
5.0847063 -1.9243803 -1.7096815 4293729569
5.0177002 -1.912406 -1.7226779 4293729569
7.9591489 -3.0672634 -1.7019073 4293729569
4.9456925 -1.8974338 -1.7336739 4293729569
6.4659262 -2.4978437 -1.717793 4293729569
4.8516817 -1.8724712 -1.7356679 4293729569
4.7576714 -1.8475088 -1.735662 4293729569
7.9361663 -3.1202753 -1.702913 4293729569
6.4499397 -2.5418532 -1.7197976 4293729569
7.9241838 -3.1762834 -1.7049196 4293729569
6.3819451 -2.5648842 -1.7067983 4293729569
7.9082012 -3.2322922 -1.7059258 4293729569
9.6514826 -3.9556124 -1.7160667 4288085770
6.3849611 -2.6168857 -1.7128046 4293729569
9.3574562 -3.8927302 -1.7160504 4288085770
7.9122224 -3.2962937 -1.7099339 4293729569
6.3919783 -2.6708853 -1.7188112 4293729569
9.0934315 -3.8378353 -1.7180357 4288085770
7.9092422 -3.3562977 -1.711941 4293729569
6.3739905 -2.7138958 -1.717816 4293729569
8.832406 -3.7809393 -1.719021 4288085770
7.8902588 -3.4103088 -1.709947 4293729569
8.5593767 -3.7130482 -1.7150044 4293729569
6.3360004 -2.7479143 -1.7108188 4293729569
8.3383541 -3.6651363 -1.7189918 4293729569
7.9052815 -3.4783056 -1.7139559 4293729569
6.3510184 -2.8049109 -1.716826 4293729569
8.1143303 -3.6132259 -1.7199786 4293729569
7.9193039 -3.546303 -1.7169645 4293729569
6.335032 -2.8479204 -1.7148305 4293729569
7.8903074 -3.5583153 -1.7189651 4293729569
7.9203238 -3.6083059 -1.716972 4293729569
7.6762834 -3.5054009 -1.7189519 4293729569
6.3060417 -2.8839357 -1.707834 4293729569
7.472261 -3.4534826 -1.7189393 4293729569
7.9423485 -3.6803 -1.7199813 4288085770
6.2880545 -2.9259458 -1.7048384 4293729569
7.2642365 -3.3965662 -1.7159258 4293729569
7.9583707 -3.7492969 -1.7219903 4288085770
7.0812144 -3.3486392 -1.7159142 4293729569
6.2960711 -2.978946 -1.705845 4293729569
7.9723926 -3.8162942 -1.7219988 4288085770
6.8961926 -3.2987134 -1.7149024 4293729569
6.3080888 -3.0339439 -1.7088519 4293729569
6.726172 -3.2507815 -1.7138913 4293729569
8.2254601 -3.995199 -1.7190284 4288085770
7.9924169 -3.8872895 -1.7220081 4288085770
6.5561504 -3.2028499 -1.71288 4293729569
6.3161054 -3.0879436 -1.7098585 4293729569
8.0084305 -3.9252849 -1.7210132 4288085770
8.0104408 -3.9572856 -1.7210171 4288085770
6.3821278 -3.14992 -1.7078681 4293729569
7.7944012 -3.85537 -1.722998 4288085770
6.3231215 -3.1389437 -1.709865 4293729569
7.5723691 -3.7784581 -1.7199817 4288085770
6.2411098 -3.1109765 -1.7108588 4293729569
7.3733401 -3.7095373 -1.718967 4288085770
6.093091 -3.066036 -1.7088486 4293729569
6.3271384 -3.1899455 -1.707871 4293729569
7.1773119 -3.640615 -1.7179524 4293729569
5.9610734 -3.0280886 -1.7108397 4293729569
6.9802809 -3.5676937 -1.7129372 4293729569
6.3541589 -3.2519376 -1.7118794 4293729569
4.647831 -2.3766398 -1.3677191 4293729569
6.8082557 -3.5067623 -1.7129244 4293729569
4.4597993 -2.2997177 -1.3417037 4293729569
4.5308213 -2.3407102 -1.1727108 4293729569
4.4938126 -2.3247197 -1.2127076 4293729569
4.4297981 -2.3037288 -1.361703 4293729569
4.4708128 -2.3257332 -1.1847069 4293729569
4.5758429 -2.3847167 -0.97671735 4293729569
4.4438119 -2.3267426 -1.203706 4293729569
4.398797 -2.3067398 -1.3807024 4293729569
4.4488139 -2.3347418 -1.1977072 4293729569
4.4218106 -2.3297498 -1.2247057 4293729569
4.4748325 -2.3627613 -0.95071125 4293729569
4.3697953 -2.3097506 -1.3997016 4293729569
4.397809 -2.3317583 -1.2447051 4293729569
4.4078155 -2.345762 -1.183707 4293729569
4.3467951 -2.3147583 -1.4207014 4293729569
4.378808 -2.3357644 -1.2657049 4293729569
4.5148668 -2.4128075 -0.43671823 4293729569
4.4288321 -2.3697834 -0.93671048 4293729569
4.3688083 -2.3427665 -1.2887053 4293729569
4.327795 -2.3217645 -1.4427015 4293729569
4.3468075 -2.3427739 -1.3077044 4293729569
4.378819 -2.362777 -1.171708 4293729569
4.3067946 -2.3267715 -1.4637014 4293729569
4.4398603 -2.4028411 -0.4167144 4293729569
4.3368077 -2.3487759 -1.3297048 4293729569
4.4038363 -2.3877969 -0.92571157 4293729569
4.2797933 -2.3277812 -1.4827005 4293729569
4.326807 -2.3537779 -1.3527052 4293729569
4.4388738 -2.4208708 -0.17571628 4293729569
4.319808 -2.3597786 -1.3757055 4293729569
4.467885 -2.4418707 -0.084719688 4293729569
4.3608241 -2.3837874 -1.1627096 4293729569
4.2647934 -2.3347852 -1.5047008 4293729569
4.409863 -2.4158571 -0.4017148 4293729569
4.3108077 -2.3637803 -1.3977056 4293729569
4.3838415 -2.4068079 -0.91571301 4293729569
4.2938061 -2.3637855 -1.4157051 4293729569
4.2297893 -2.3297985 -1.519699 4293729569
4.2828045 -2.3637881 -1.4367046 4293729569
4.3928733 -2.4258928 -0.15971519 4293729569
4.4018788 -2.4358966 -0.098716617 4293729569
4.3488312 -2.4077954 -1.1547118 4293729569
4.2708044 -2.3647912 -1.4557042 4293729569
4.195785 -2.324811 -1.5346969 4293729569
4.3798661 -2.4288726 -0.38571516 4293729569
4.2568011 -2.3617949 -1.4747034 4293729569
4.0087433 -2.2258744 -1.6196792 4293729569
4.361845 -2.4248202 -0.90471423 4293729569
4.2448006 -2.3607976 -1.4937028 4293729569
4.0377512 -2.2468641 -1.6146826 4293729569
4.2307973 -2.3568015 -1.510702 4293729569
4.1617808 -2.3188238 -1.5486952 4293729569
4.0577574 -2.2618575 -1.6056849 4293729569
4.2047925 -2.3458107 -1.5236998 4293729569
4.1837873 -2.3358171 -1.5376978 4293729569
4.3668766 -2.4399068 -0.14471582 4293729569
4.0857639 -2.280848 -1.5986881 4293729569
4.0997686 -2.289844 -1.5856895 4293729569
4.1507807 -2.3188293 -1.5456947 4293729569
4.1157727 -2.2998395 -1.5726914 4293729569
4.1257753 -2.3058376 -1.5566924 4293729569
4.3758817 -2.4499073 -0.11371727 4293729569
4.1307774 -2.312835 -1.5636934 4293729569
4.3378377 -2.431803 -1.1467142 4293729569
4.3608708 -2.4468844 -0.36971653 4293729569
4.3518519 -2.4488275 -0.89671665 4293729569
4.1127763 -2.3138409 -1.5816928 4293729569
4.345881 -2.4569192 -0.12971696 4293729569
4.0837712 -2.3078513 -1.5966911 4293729569
4.3458834 -2.4629195 -0.12871765 4293729569
4.3498769 -2.4688921 -0.35571861 4293729569
4.3398471 -2.4638054 -1.1417178 4293729569
4.0607686 -2.303859 -1.6126897 4293729569
4.3458591 -2.4738331 -0.88771921 4293729569
4.020762 -2.2898743 -1.6216868 4293729569
4.3318872 -2.4779284 -0.11471883 4293729569
3.9847555 -2.2768879 -1.6306839 4293729569
4.3338881 -2.4839244 -0.14471957 4293729569
4.3368831 -2.4889009 -0.34072036 4293729569
4.3378553 -2.4928093 -1.134721 4293729569
4.3428674 -2.5008371 -0.87972212 4293729569
4.318893 -2.4979372 -0.099720597 4293729569
4.3198924 -2.5039303 -0.15972133 4293729569
4.3298898 -2.5119073 -0.32572269 4293729569
4.3478656 -2.526808 -1.1307254 4293729569
4.3468766 -2.5318384 -0.87272584 4293729569
4.3058982 -2.5169461 -0.084722258 4293729569
4.3168993 -2.529932 -0.17572416 4293729569
4.3248963 -2.5349133 -0.31072509 4293729569
4.3598771 -2.5628061 -1.1277299 4293729569
4.3478856 -2.5598412 -0.86472899 4293729569
4.2989044 -2.5389528 -0.068724483 4293729569
4.3199072 -2.5579307 -0.19272746 4293729569
4.3279052 -2.5629156 -0.29672837 4293729569
4.3809004 -2.6058309 -0.86173534 4293729569
4.3009133 -2.5669556 -0.053727701 4293729569
4.3369155 -2.5949163 -0.28173232 4293729569
4.3299174 -2.5909269 -0.20973155 4293729569
4.3009214 -2.5919597 -0.037730508 4293729569
4.2889204 -2.5849683 0.00027074106 4293729569
4.3879352 -2.6508994 -0.26874053 4293729569
4.3529291 -2.6309175 -0.22773694 4293729569
4.3139324 -2.6239586 -0.015734596 4293729569
4.3149328 -2.6259575 -0.02273486 4293729569
9.0242138 6.3625278 -0.49789271 4293729569
8.98522 6.3275175 -0.53188992 4293729569
8.8732424 6.2384839 -0.56088096 4293729569
8.6732874 6.0854216 -0.58386433 4293729569
8.5033255 5.9523687 -0.60585052 4293729569
8.3763542 5.8483295 -0.62984061 4293729569
8.2493839 5.7412906 -0.65283102 4293729569
8.1444082 5.6482587 -0.6768235 4293729569
8.0554304 5.5652304 -0.70081753 4293729569
8.0044441 5.5072155 -0.72581518 4293729569
7.9564576 5.4492011 -0.75181323 4293729569
6.5766144 4.4948449 -1.733689 4288085770
6.696588 4.5768819 -1.7356998 4288085770
6.834558 4.6699262 -1.7417126 4288085770
6.45964 4.4128075 -1.7306784 4288085770
6.9545331 4.7479639 -1.7417239 4288085770
6.3506656 4.3337722 -1.726669 4288085770
7.0725098 4.8239999 -1.7387351 4288085770
6.2636857 4.2687445 -1.7276615 4288085770
7.9074712 5.3881855 -0.7768116 4293729569
7.1934862 4.8990374 -1.7357467 4288085770
9.2172518 6.2805638 -0.36093116 4293729569
6.1837034 4.2077193 -1.7306548 4288085770
7.3174615 4.9750757 -1.7317591 4288085770
6.1097217 4.148695 -1.7326491 4288085770
7.4364405 5.0451112 -1.724771 4288085770
6.0527353 4.0996771 -1.7396446 4288085770
7.8884788 5.3471789 -0.80381262 4293729569
9.2712431 6.2845817 -0.39793932 4293729569
7.5724158 5.1241522 -1.7207848 4288085770
5.9887509 4.0456557 -1.74264 4288085770
7.7103915 5.2021947 -1.7147989 4288085770
7.8704877 5.3051734 -0.82981384 4293729569
5.9287667 3.9916365 -1.7466358 4288085770
9.2132616 6.2105637 -0.42993742 4293729569
7.8333716 5.267231 -1.7048122 4288085770
5.8807802 3.9446204 -1.752633 4288085770
7.9883447 5.3532777 -1.6988281 4288085770
7.8584948 5.2651701 -0.85681593 4293729569
9.1152878 6.1075335 -0.45893201 4293729569
8.6092186 5.765471 -1.671886 4288085770
8.4522514 5.6594214 -1.6768715 4288085770
8.3052969 5.5603676 -1.5778579 4293729569
8.299284 5.5543742 -1.6808575 4288085770
7.9623847 5.3262515 -1.4788265 4293729569
5.8337936 3.8976045 -1.75763 4288085770
8.1733103 5.4653339 -1.6888465 4288085770
7.7864332 5.2021909 -1.4128108 4293729569
8.0493374 5.3762956 -1.6948355 4288085770
7.7934384 5.2001896 -1.3788121 4293729569
8.1333227 5.4273214 -1.6908437 4288085770
7.9323635 5.289258 -1.7018256 4288085770
7.7964449 5.1921873 -1.3448135 4293729569
5.7928052 3.853591 -1.7646278 4288085770
7.8335061 5.2141619 -0.88181698 4293729569
9.0353107 6.0155077 -0.48792842 4293729569
7.824388 5.2072248 -1.7078165 4288085770
7.8314457 5.204195 -1.3158176 4293729569
8.2892981 5.5073676 -1.6818608 4288085770
7.7334094 5.1341958 -1.7168093 4288085770
7.8024607 5.1721821 -1.2758163 4293729569
5.7508178 3.806576 -1.768626 4288085770
7.6284337 5.0501623 -1.7218009 4288085770
7.8705029 5.2041736 -0.9128238 4293729569
8.4732676 5.6034241 -1.6778803 4288085770
8.9853296 5.9424925 -0.51792765 4293729569
7.7994709 5.1551771 -1.2398175 4293729569
7.5304575 4.9701309 -1.7267933 4288085770
5.7078314 3.7595611 -1.7726237 4288085770
7.7894826 5.1311688 -1.2018183 4293729569
8.4842787 5.5824218 -1.6378841 4293729569
7.4484787 4.8981042 -1.7327874 4288085770
7.8815064 5.1751766 -0.94082838 4293729569
8.9013548 5.8464656 -0.54392374 4293729569
7.8184867 5.132175 -1.1698227 4293729569
5.6698437 3.7125478 -1.7766223 4288085770
7.349503 4.8140717 -1.7357799 4288085770
8.2113562 5.3733268 -1.5448614 4293729569
7.813498 5.1091685 -1.1328242 4293729569
7.2565279 4.7330413 -1.7367731 4288085770
7.883513 5.1381764 -0.9668324 4293729569
8.7363958 5.6954117 -0.5649125 4293729569
5.6328564 3.6665337 -1.7806209 4288085770
7.8345046 5.1001716 -1.0998284 4293729569
7.8544521 5.1092048 -1.4398307 4293729569
7.1455564 4.6390042 -1.7337649 4288085770
7.8555121 5.0901732 -1.0658326 4293729569
5.6048665 3.6255236 -1.7866205 4288085770
8.6544209 5.5993862 -0.58990896 4293729569
7.901515 5.1101818 -0.99583805 4293729569
7.8674636 5.0862036 -1.4038352 4293729569
7.0545816 4.555974 -1.7337586 4288085770
7.8685207 5.073173 -1.0308365 4293729569
5.5738783 3.581512 -1.79062 4288085770
6.9456115 4.4599371 -1.7277509 4288085770
7.8764758 5.0582004 -1.3658394 4293729569
8.5414534 5.4813485 -0.61090267 4293729569
7.8845272 5.0581746 -1.0178404 4293729569
7.9085255 5.0721807 -0.99784291 4293729569
6.8656349 4.3829098 -1.7267457 4288085770
5.5398912 3.5334985 -1.7926193 4288085770
7.8954868 5.0362015 -1.3298444 4293729569
7.9285336 5.0561824 -0.96384758 4293729569
8.4674778 5.3883243 -0.63390011 4293729569
7.9125285 5.0321822 -1.0468475 4293729569
6.7956553 4.3118858 -1.7277417 4288085770
7.9585414 5.0451865 -0.92985344 4293729569
5.5019054 3.4824843 -1.7926183 4288085770
7.9254961 5.0192051 -1.2948508 4293729569
8.3915024 5.2932992 -0.6558975 4293729569
6.7116795 4.2308574 -1.7247363 4288085770
7.9265342 4.9981866 -1.0728528 4293729569
7.9955478 5.0361934 -0.89686018 4293729569
5.4789162 3.4414744 -1.7966188 4288085770
7.9675021 5.009213 -1.2628584 4293729569
6.6636963 4.1708398 -1.7287346 4288085770
8.049552 5.0352054 -0.86386883 4293729569
8.3315248 5.2082791 -0.67689633 4293729569
7.937541 4.9591885 -1.0978585 4293729569
5.438931 3.3884592 -1.7946177 4288085770
7.9655204 4.9682074 -1.2228622 4293729569
6.6307101 4.1188269 -1.7367345 4288085770
8.1055546 5.0352178 -0.83187765 4293729569
8.2865429 5.1312633 -0.69989681 4293729569
