# .PCD v0.7 - Point Cloud Data file format
VERSION 0.7
FIELDS x y z rgb
SIZE 4 4 4 4
TYPE F F F U
COUNT 1 1 1 1
WIDTH 1139
HEIGHT 1
VIEWPOINT 0 0 0 1 0 0 0
POINTS 1139
DATA ascii
11.709747 -6.9120512 -1.8717816 4293729569
5.0183792 -3.0699961 -1.8900862 4288085770
10.138924 -6.0411692 -1.8755171 4293729569
8.5710678 -5.1373343 -1.8551917 4293729569
11.237259 -6.6945229 -1.8602886 4293729569
7.8235092 -4.7272711 -1.9366953 4288085770
5.0415726 -3.1100419 -1.8882186 4288085770
8.4353027 -5.1041393 -1.8768222 4293729569
10.826706 -6.5070572 -1.8539941 4293729569
10.201134 -6.1462827 -1.865869 4293729569
5.0767288 -3.1560903 -1.8913896 4288085770
4.1044464 -2.5869417 -1.8840694 4288085770
7.9236755 -4.8423924 -1.9451518 4288085770
10.457115 -6.3386307 -1.8518298 4293729569
8.3205185 -5.0809679 -1.8995197 4288085770
10.290306 -6.2694221 -1.859318 4293729569
5.11689 -3.2051463 -1.8935785 4288085770
10.17244 -6.2162838 -1.8599479 4293729569
4.1226578 -2.6219742 -1.8861804 4288085770
8.2366867 -5.0738144 -1.9303186 4288085770
8.0308228 -4.9615164 -1.9556324 4288085770
5.150032 -3.2501981 -1.8937433 4288085770
9.9037552 -6.0979571 -1.8671098 4293729569
10.399452 -6.4035802 -1.8548341 4293729569
4.1358566 -2.6530058 -1.8852725 4288085770
8.0989227 -5.0336246 -1.9479306 4288085770
5.191185 -3.2982569 -1.894932 4288085770
9.5022202 -5.8965287 -1.8478069 4293729569
8.0730362 -5.0425997 -1.9488914 4288085770
4.1500473 -2.6840408 -1.8833663 4288085770
7.8842545 -4.9423857 -1.9452674 4288085770
10.571533 -6.5757942 -1.8595676 4293729569
5.2432785 -3.3513207 -1.8991556 4288085770
8.8569565 -5.5429158 -1.777652 4293729569
7.6525955 -4.839139 -1.936542 4288085770
4.1782227 -2.7230787 -1.8875079 4288085770
8.0223694 -5.065619 -1.9198253 4288085770
5.2883987 -3.4003825 -1.9003553 4288085770
8.5193634 -5.3705578 -1.7605507 4293729569
10.782547 -6.7720404 -1.8704371 4293729569
8.3585663 -5.3023429 -1.7750545 4293729569
5.3335037 -3.4484463 -1.9005535 4288085770
7.440918 -4.7439094 -1.9308774 4288085770
4.2003937 -2.7581179 -1.8876281 4288085770
7.9177628 -5.0545969 -1.8795702 4293729569
8.2117538 -5.2401423 -1.7906013 4293729569
5.3835983 -3.4985151 -1.9007664 4288085770
11.027534 -6.9903245 -1.882427 4293729569
7.2442245 -4.6546965 -1.9252584 4288085770
4.2265549 -2.7951591 -1.8887613 4288085770
8.0769196 -5.181953 -1.8071833 4293729569
5.4406738 -3.5525889 -1.9020033 4288085770
7.0535202 -4.5664907 -1.9196546 4288085770
7.903038 -5.095643 -1.8576212 4293729569
7.9660568 -5.136785 -1.8268449 4293729569
5.5007324 -3.6066647 -1.904247 4288085770
4.2507019 -2.8292012 -1.8878839 4288085770
7.9011383 -5.1176543 -1.8546617 4293729569
5.5548019 -3.6567407 -1.9024689 4288085770
6.8907852 -4.4923086 -1.9181418 4288085770
4.2798386 -2.8662446 -1.8890238 4288085770
7.7872772 -5.0674872 -1.8723066 4293729569
5.6178436 -3.7108221 -1.9027193 4288085770
7.8872986 -5.1356878 -1.8356676 4293729569
6.7320328 -4.4191313 -1.9166396 4288085770
7.7273407 -5.0473633 -1.8991325 4288085770
5.6828842 -3.7649055 -1.9029739 4288085770
4.3029785 -2.8982866 -1.88714 4288085770
7.6953735 -5.04426 -1.9320552 4288085770
5.7608948 -3.8260012 -1.9042718 4288085770
6.5752869 -4.3439598 -1.9131379 4288085770
7.5924759 -4.9931073 -1.9477224 4288085770
7.8476028 -5.1587181 -1.8066266 4293729569
5.8358994 -3.8850937 -1.9055588 4288085770
4.3370819 -2.9363341 -1.888293 4288085770
7.4016876 -4.8838987 -1.9400759 4288085770
5.9238892 -3.9501958 -1.9088871 4288085770
6.4404984 -4.2808032 -1.9147096 4288085770
7.202919 -4.7686896 -1.9283991 4288085770
6.0078735 -4.0112991 -1.9091985 4288085770
7.0360794 -4.670506 -1.9218278 4288085770
4.3682022 -2.9723847 -1.8864355 4288085770
6.0898514 -4.0704036 -1.907501 4288085770
6.8862381 -4.5813389 -1.9173131 4288085770
6.1868057 -4.1375194 -1.9088535 4288085770
6.7523804 -4.500185 -1.91485 4288085770
6.2907333 -4.2056413 -1.9102235 4288085770
6.2937393 -4.2096419 -1.9122381 4288085770
6.6294861 -4.4250398 -1.9144237 4288085770
6.3996658 -4.2787685 -1.9126146 4288085770
7.8088837 -5.1797471 -1.7785835 4293729569
6.5095901 -4.3499002 -1.9130039 4288085770
4.4092712 -3.0124371 -1.8886082 4288085770
6.1719284 -4.1485052 -1.9108429 4288085770
4.4533539 -3.0544927 -1.8907917 4288085770
6.0511169 -4.0873661 -1.9114494 4288085770
7.8251038 -5.2348194 -1.7607322 4293729569
4.4944153 -3.0935483 -1.8909626 4288085770
5.9342957 -4.0272331 -1.9110672 4288085770
4.5324783 -3.1286035 -1.8891184 4288085770
5.8214645 -3.9681067 -1.9096959 4288085770
7.8343201 -5.2848883 -1.7408552 4293729569
4.583519 -3.1726656 -1.8913217 4288085770
5.7156219 -3.9109855 -1.909344 4288085770
4.6485214 -3.2237346 -1.8975704 4288085770
5.6107559 -3.8528671 -1.9079924 4288085770
4.6895523 -3.2587965 -1.8937328 4288085770
5.5069046 -3.7937536 -1.9046409 4288085770
4.7525558 -3.3068688 -1.896971 4288085770
5.4250107 -3.747653 -1.9073648 4288085770
7.8225555 -5.3189383 -1.7168987 4293729569
4.814537 -3.351943 -1.8982008 4288085770
5.3321228 -3.6925488 -1.905046 4288085770
4.8735275 -3.3950171 -1.8974197 4288085770
5.2552109 -3.6464553 -1.906781 4288085770
4.942482 -3.4430966 -1.8996711 4288085770
5.1752853 -3.5963607 -1.9065011 4288085770
5.0094376 -3.4881792 -1.898912 4288085770
5.078392 -3.5342612 -1.8991592 4288085770
7.8127747 -5.351995 -1.6909447 4293729569
7.8309708 -5.4030724 -1.6710899 4293729569
7.8371658 -5.4431405 -1.6481857 4293729569
7.8113937 -5.4611859 -1.6181656 4293729569
7.8075867 -5.49225 -1.591221 4293729569
7.8437347 -5.548346 -1.5714163 4293729569
7.756012 -5.5173435 -1.5281584 4293729569
7.7653427 -5.5516043 -0.95324731 4293729569
7.7232208 -5.5223837 -1.4950962 4293729569
7.7359314 -5.5460877 -0.71516991 4293729569
7.7684784 -5.5736771 -0.9242996 4293729569
7.6934128 -5.5264297 -1.4610384 4293729569
7.7369537 -5.5710216 -0.75022376 4293729569
7.7226715 -5.5617046 -0.88917351 4293729569
7.677597 -5.5394855 -1.4300303 4293729569
7.7058182 -5.5657601 -0.85614455 4293729569
7.708992 -5.5729232 -0.78316593 4293729569
7.6799698 -5.5618057 -0.82307911 4293729569
7.6567535 -5.545536 -1.3979965 4293729569
7.6650543 -5.5628133 -0.81304824 4293729569
7.667099 -5.5648632 -0.79105687 4293729569
7.7257538 -5.6086316 -0.4682754 4293729569
7.6329269 -5.5485873 -1.3639501 4293729569
7.6612167 -5.5709281 -0.75905633 4293729569
7.7087326 -5.606545 -0.50023365 4293729569
7.6460724 -5.5667272 -0.84501445 4293729569
7.6453247 -5.567986 -0.72501493 4293729569
7.6767197 -5.5914402 -0.53213191 4293729569
7.6613998 -5.5840712 -0.6950835 4293729569
7.6626816 -5.5863557 -0.56409061 4293729569
7.6320572 -5.5646563 -1.3339813 4293729569
7.6534882 -5.5821342 -0.66206193 4293729569
7.6666183 -5.5922885 -0.59811163 4293729569
7.6625595 -5.5902147 -0.63009858 4293729569
7.6260834 -5.5676389 -0.87697232 4293729569
7.6182022 -5.569716 -1.3009609 4293729569
7.6200638 -5.5775628 -0.91097975 4293729569
7.6183243 -5.5827851 -1.2709882 4293729569
7.6090546 -5.5814848 -0.94296372 4293729569
7.6004486 -5.5798397 -1.2369424 4293729569
7.6020203 -5.5854049 -0.97695637 4293729569
7.5955505 -5.5839057 -1.20494 4293729569
7.6009827 -5.5913348 -1.0099665 4293729569
7.5936508 -5.5889745 -1.1729459 4293729569
7.5999222 -5.5952635 -1.0429723 4293729569
7.5937347 -5.5930471 -1.1399544 4293729569
7.5948868 -5.59519 -1.0749613 4293729569
7.5868225 -5.5901108 -1.106933 4293729569
6.0980453 4.1687202 -1.8006628 4288085770
6.0139923 4.1108027 -1.8027449 4288085770
6.1740952 4.2186332 -1.7945952 4288085770
5.9059296 4.036881 -1.7958491 4288085770
6.2771835 4.2855401 -1.7955058 4288085770
5.8319244 3.9829521 -1.7979293 4288085770
6.3572617 4.334445 -1.7884448 4288085770
5.7558975 3.9270227 -1.7990131 4288085770
6.4673615 4.4023409 -1.7883589 4288085770
5.6838989 3.8720887 -1.8000979 4288085770
6.5784683 4.4692335 -1.7872765 4288085770
5.6189117 3.8201473 -1.8011811 4288085770
6.6926117 4.5351186 -1.7851999 4288085770
5.5519333 3.7662039 -1.8012676 4288085770
6.8057404 4.5999994 -1.7811248 4288085770
5.4859695 3.7112567 -1.8003578 4288085770
6.9508972 4.6828699 -1.78403 4288085770
5.4280167 3.6613045 -1.8004415 4288085770
7.0990677 4.7647314 -1.7849402 4288085770
5.3680725 3.6083496 -1.7995319 4288085770
7.2082291 4.8195987 -1.7758892 4288085770
5.3051453 3.5513914 -1.7966301 4288085770
7.6706085 5.1051655 -1.7745278 4288085770
7.7966995 5.188036 -1.7694154 4288085770
7.3644257 4.9034491 -1.7758014 4288085770
7.9437866 5.2838984 -1.7682867 4288085770
7.544548 5.019289 -1.7776482 4288085770
8.0868988 5.3747506 -1.7631683 4288085770
7.4064865 4.924408 -1.7757821 4288085770
8.2550201 5.4795933 -1.7620339 4288085770
12.051239 7.9723015 -1.8216629 4288085770
7.2954559 4.8445163 -1.7788999 4288085770
8.449173 5.5994182 -1.7638826 4288085770
5.2392273 3.4924259 -1.7907312 4288085770
7.5296326 4.9902902 -1.7757137 4288085770
7.1964264 4.7716184 -1.7840092 4288085770
8.6533279 5.724237 -1.7667265 4288085770
7.1074219 4.7037101 -1.789114 4288085770
8.8585052 5.8460431 -1.7655795 4288085770
5.1763153 3.4344609 -1.7858322 4288085770
7.0014114 4.6228065 -1.7902391 4288085770
7.699852 5.0771255 -1.7756305 4288085770
11.753235 7.7185383 -1.8140864 4288085770
9.0776901 5.9738417 -1.7664289 4288085770
6.8994217 4.542892 -1.7893648 4288085770
9.3258972 6.1186152 -1.7682583 4288085770
5.1324234 3.3874912 -1.7859204 4288085770
7.8580704 5.1549582 -1.770561 4288085770
6.8064499 4.4679747 -1.7904854 4288085770
9.5881271 6.2693787 -1.7710841 4288085770
11.417221 7.4407854 -1.7985411 4288085770
6.7244949 4.3990464 -1.7915993 4288085770
9.888382 6.4411163 -1.7778869 4288085770
5.0775528 3.3325169 -1.7810204 4288085770
8.045311 5.2477779 -1.7704771 4288085770
6.651535 4.3351154 -1.7947075 4288085770
10.199654 6.61584 -1.7826917 4288085770
8.2255554 5.33359 -1.7664058 4288085770
5.0346756 3.2855427 -1.7801096 4288085770
11.227287 7.2579541 -1.8018687 4288085770
6.5555954 4.2541842 -1.7908416 4288085770
10.533928 6.8015447 -1.7884874 4288085770
8.4358215 5.4363909 -1.7673154 4288085770
10.903236 7.0072255 -1.7972603 4288085770
4.9908218 3.2365632 -1.7772033 4288085770
6.4786682 4.1852455 -1.7909598 4288085770
11.01535 7.061131 -1.8012145 4288085770
11.281563 7.2118883 -1.8030441 4288085770
6.4657669 4.155293 -1.8060298 4288085770
8.6711044 5.5501738 -1.7702177 4288085770
4.9489746 3.1875808 -1.7742987 4288085770
11.616875 7.3865576 -1.7978711 4288085770
6.3558578 4.0633516 -1.795181 4288085770
10.763405 6.8403144 -1.7905896 4288085770
8.8993912 5.6569495 -1.7691329 4288085770
4.9281311 3.1515994 -1.7783775 4288085770
12.105255 7.6521459 -1.8125882 4288085770
6.312973 4.0123963 -1.800281 4288085770
9.1336899 5.7627168 -1.7670562 4288085770
10.564507 6.652472 -1.7879224 4288085770
12.59465 7.9127202 -1.8233202 4288085770
4.8983231 3.1086106 -1.7774675 4288085770
6.2550964 3.9504371 -1.8003976 4288085770
9.4200211 5.898458 -1.7719448 4288085770
6.2102356 3.896476 -1.803504 4288085770
4.8645096 3.0626218 -1.7755618 4288085770
10.36161 6.4636235 -1.7822547 4288085770
9.7143555 6.0331836 -1.7748435 4288085770
6.162384 3.83951 -1.804616 4288085770
4.8427048 3.0236306 -1.7766478 4288085770
10.190735 6.2937536 -1.7795637 4288085770
10.000702 6.1599083 -1.7747569 4288085770
6.1125259 3.7805386 -1.8047311 4288085770
4.8139114 2.9796281 -1.773741 4288085770
10.021873 6.1268783 -1.7768664 4288085770
10.34407 6.3165936 -1.7806401 4288085770
6.0647049 3.7215664 -1.8038483 4288085770
4.7951279 2.9406328 -1.7748301 4288085770
10.705452 6.4792666 -1.7865236 4288085770
6.0168686 3.662591 -1.8019657 4288085770
9.8560181 5.9639983 -1.7721608 4288085770
4.788353 2.9096355 -1.7789078 4288085770
11.064835 6.634933 -1.7894244 4288085770
5.9630585 3.5986137 -1.7980912 4288085770
9.7301941 5.8230958 -1.7724316 4288085770
4.7756042 2.8726335 -1.7799966 4288085770
5.936264 3.5506296 -1.8001974 4288085770
11.518265 6.840538 -1.8012743 4288085770
9.6013718 5.6821923 -1.7716994 4288085770
4.7668457 2.8386302 -1.7820804 4288085770
5.895462 3.4936459 -1.7983153 4288085770
11.987709 7.049129 -1.8131304 4288085770
9.4975739 5.5562754 -1.7739487 4288085770
4.7621002 2.8056259 -1.7851655 4288085770
5.8506851 3.4346564 -1.7934353 4288085770
12.404144 7.2197304 -1.8120422 4288085770
9.3917847 5.4293528 -1.774199 4288085770
5.8259048 3.3856657 -1.7945457 4288085770
4.7483749 2.7666175 -1.7842588 4288085770
12.854576 7.4043088 -1.813947 4288085770
3.663826 2.1436541 -1.800976 4288085770
3.7098389 2.1696208 -1.803947 4288085770
3.6258163 2.1206906 -1.8020043 4288085770
3.7448807 2.1885757 -1.799927 4288085770
3.5878067 2.0977218 -1.8010325 4288085770
3.7899246 2.2125363 -1.8009024 4288085770
3.5628281 2.0807569 -1.806056 4288085770
3.8369827 2.236491 -1.8008795 4288085770
3.5208435 2.0537777 -1.8010914 4288085770
3.8820496 2.258441 -1.7988603 4288085770
3.4818802 2.0277989 -1.797127 4288085770
3.9281235 2.2803898 -1.7968419 4288085770
3.5109177 2.0398569 -1.8271203 4288085770
5.7791519 3.3236701 -1.7876718 4288085770
3.9822083 2.3053336 -1.7958226 4288085770
13.439079 7.6567993 -1.8277876 4288085770
9.2980042 5.3104258 -1.7764385 4288085770
4.7306366 2.7256064 -1.7813537 4288085770
13.713249 7.7985692 -1.8356493 4288085770
4.0353012 2.3292778 -1.7948053 4288085770
4.0954132 2.3562214 -1.7957859 4288085770
4.1425171 2.3751554 -1.7897766 4288085770
5.7503815 3.2726715 -1.7847841 4288085770
14.020584 7.9012833 -1.8386478 4288085770
4.2056503 2.4010909 -1.7897625 4288085770
4.7299271 2.6935971 -1.7844396 4288085770
9.2052383 5.1924891 -1.775676 4288085770
13.387352 7.5188069 -1.8221178 4288085770
4.2637787 2.4240227 -1.7867525 4288085770
4.3419189 2.4569533 -1.7897327 4288085770
5.7336349 3.2266717 -1.7858937 4288085770
4.7332153 2.6625829 -1.7875261 4288085770
4.4000626 2.4778783 -1.7847281 4288085770
9.1194763 5.078546 -1.7759085 4288085770
13.145477 7.2919912 -1.8165176 4288085770
4.4141922 2.47386 -1.7857513 4288085770
4.4842224 2.5118105 -1.7907114 4288085770
4.3681641 2.447911 -1.7887807 4288085770
4.4962311 2.5178053 -1.7927058 4288085770
4.3101578 2.4139569 -1.7868207 4288085770
4.541275 2.5407541 -1.7896841 4288085770
4.2661591 2.3880017 -1.7888515 4288085770
4.5993195 2.570694 -1.7876549 4288085770
5.718895 3.1826706 -1.7869997 4288085770
4.6603851 2.6006305 -1.7856283 4288085770
4.2161636 2.3570423 -1.7878904 4288085770
4.73246 2.6365652 -1.7865956 4288085770
4.1731949 2.329078 -1.7879276 4288085770
4.5784073 2.5487239 -1.7936957 4288085770
4.7945328 2.665494 -1.7825725 4288085770
4.1372147 2.3051169 -1.7909603 4288085770
4.7265167 2.6265669 -1.7866173 4288085770
4.8716431 2.7004187 -1.782547 4288085770
4.0972595 2.2781498 -1.7909975 4288085770
9.0597229 4.9795952 -1.7811239 4288085770
13.012672 7.1241145 -1.8238554 4288085770
4.6475677 2.5726411 -1.7896924 4288085770
4.9537506 2.7373426 -1.7835207 4288085770
4.0563049 2.2491767 -1.7890391 4288085770
5.6981735 3.1336646 -1.7851136 4288085770
5.0348511 2.7742612 -1.7824931 4288085770
4.0293732 2.2272077 -1.7930744 4288085770
4.7317581 2.602555 -1.7896867 4288085770
5.1229782 2.8121753 -1.782469 4288085770
4.0054398 2.2062356 -1.7971096 4288085770
4.7378235 2.5985503 -1.7917027 4288085770
5.2181015 2.8530889 -1.7844434 4288085770
9.0009995 4.8796372 -1.784343 4288085770
3.9695129 2.1782565 -1.7951529 4288085770
4.8219528 2.6344652 -1.7906806 4288085770
12.769829 6.8972893 -1.815254 4288085770
5.3112411 2.8919947 -1.7834213 4288085770
5.6774445 3.0846553 -1.7822275 4288085770
3.9406204 2.1522751 -1.7951972 4288085770
5.4003983 2.9258945 -1.7794092 4288085770
4.9041595 2.6603675 -1.786684 4288085770
3.9257202 2.1342986 -1.8012321 4288085770
4.732132 2.5615289 -1.7897973 4288085770
5.5125656 2.9717932 -1.7823856 4288085770
8.936264 4.7786808 -1.7865591 4288085770
4.9913635 2.6882682 -1.7836864 4288085770
12.556 6.6894412 -1.807627 4288085770
3.8978424 2.1083128 -1.8002775 4288085770
5.6707458 3.0416443 -1.7833378 4288085770
5.6197281 3.0136847 -1.781368 4288085770
3.8819733 2.0873268 -1.8033197 4288085770
5.098587 2.7251675 -1.7866824 4288085770
5.7419052 3.0625741 -1.7843447 4288085770
4.7364655 2.5295095 -1.7918875 4288085770
3.8621063 2.064338 -1.8043637 4288085770
5.8640976 3.1084535 -1.7843299 4288085770
8.8795395 4.6807146 -1.7877741 4288085770
12.361198 6.4945788 -1.8009818 4288085770
5.2028122 2.7590609 -1.7866836 4288085770
5.6540375 2.9936311 -1.7804525 4288085770
3.842247 2.041347 -1.8044078 4288085770
6.0012817 3.1623311 -1.7883067 4288085770
5.3180542 2.796952 -1.7896838 4288085770
4.742775 2.498486 -1.7929766 4288085770
6.1315002 3.2091999 -1.7872965 4288085770
3.8314056 2.0213573 -1.8084519 4288085770
5.6513367 2.9536164 -1.7815583 4288085770
8.8178253 4.5817485 -1.7879872 4288085770
12.208412 6.3226905 -1.7993116 4288085770
5.4222794 2.8288367 -1.786691 4288085770
6.2647018 3.2570653 -1.7862861 4288085770
3.8165665 1.9993627 -1.8094978 4288085770
4.7471237 2.4644594 -1.793072 4288085770
6.4309311 3.318918 -1.7912676 4288085770
5.5395432 2.8637156 -1.7867012 4288085770
3.8097534 1.9793649 -1.8125453 4288085770
5.6486435 2.911598 -1.7816691 4288085770
8.7671051 4.4887767 -1.7891941 4288085770
12.04763 6.1497998 -1.793637 4288085770
6.6031647 3.3827677 -1.7972491 4288085770
5.6587982 2.8985908 -1.7857134 4288085770
3.7899399 1.9533646 -1.8105974 4288085770
4.7544632 2.4324334 -1.7941647 4288085770
6.8274155 3.4696012 -1.8142149 4288085770
5.6579666 2.8765769 -1.7847719 4288085770
5.7930527 2.9404638 -1.7887201 4288085770
3.7781296 1.9313624 -1.8106461 4288085770
8.7254105 4.4007945 -1.7903953 4288085770
11.934875 6.0008807 -1.7939405 4288085770
6.9786682 3.517437 -1.8092208 4288085770
5.9133148 2.9723282 -1.7847414 4288085770
3.771347 1.9103577 -1.8116961 4288085770
4.7548218 2.3954008 -1.7912648 4288085770
7.1759262 3.5862629 -1.8152115 4288085770
5.6552963 2.8335516 -1.7828856 4288085770
8.6867065 4.3148141 -1.7925937 4288085770
11.800117 5.843967 -1.7892454 4288085770
6.0426025 3.0071929 -1.7837627 4288085770
3.7635498 1.8893538 -1.8127456 4288085770
7.3551865 3.6440809 -1.8132155 4288085770
4.7821655 2.3733737 -1.7983479 4288085770
5.6676254 2.7975276 -1.7859938 4288085770
6.2128677 3.0610466 -1.7917693 4288085770
3.7607803 1.8693447 -1.8137963 4288085770
7.5584641 3.7118888 -1.8152142 4288085770
8.6610336 4.2348228 -1.7957876 4288085770
11.692368 5.7010403 -1.7885368 4288085770
7.7567444 3.7726917 -1.8142276 4288085770
6.3471603 3.0938976 -1.7878003 4288085770
3.7500076 1.8453333 -1.811851 4288085770
4.7935333 2.3413429 -1.7994442 4288085770
5.6709595 2.7575026 -1.7861047 4288085770
7.9550247 3.8334894 -1.8112407 4288085770
11.600647 5.5660982 -1.7878206 4288085770
8.6313553 4.1518326 -1.7979856 4288085770
6.5114594 3.1397378 -1.7898235 4288085770
3.7452545 1.8233216 -1.8119056 4288085770
8.1803207 3.9022672 -1.8102565 4288085770
4.7958908 2.3053057 -1.795543 4288085770
5.6832962 2.7214718 -1.7872126 4288085770
6.6817627 3.1865768 -1.7928493 4288085770
3.7435074 1.8023069 -1.8119602 4288085770
11.520927 5.438148 -1.7880964 4288085770
8.6116791 4.0748334 -1.8001764 4288085770
8.3986206 3.9670448 -1.807277 4288085770
6.869072 3.2384045 -1.7978768 4288085770
3.7427597 1.7812936 -1.8130157 4288085770
4.825264 2.2812755 -1.8026335 4288085770
5.6916504 2.682441 -1.7873251 4288085770
8.6179352 4.0278139 -1.8013093 4288085770
11.447212 5.3141904 -1.7873664 4288085770
8.5960083 3.9998331 -1.8033652 4288085770
7.0463867 3.2832263 -1.7979143 4288085770
3.7380219 1.7592726 -1.8100703 4288085770
8.8582535 4.0955682 -1.7973416 4288085770
5.7129974 2.649405 -1.789433 4288085770
4.8356323 2.2482362 -1.8007314 4288085770
7.245697 3.3360403 -1.80195 4288085770
3.7362976 1.736253 -1.8091302 4288085770
11.394516 5.2012177 -1.7886255 4288085770
9.1345749 4.1763039 -1.7983711 4288085770
8.5773468 3.9228323 -1.805557 4288085770
7.4420319 3.3838477 -1.8029964 4288085770
5.7393646 2.6173687 -1.7935426 4288085770
4.8600159 2.2201946 -1.8028283 4288085770
3.7385788 1.7152326 -1.8091881 4288085770
9.426918 4.2610221 -1.7984042 4288085770
11.347824 5.09024 -1.7898843 4288085770
8.5596771 3.8478274 -1.8067441 4288085770
7.6593704 3.4386439 -1.8070433 4288085770
9.7282639 4.3457289 -1.7974455 4288085770
3.74086 1.6942062 -1.8072462 4288085770
5.7567291 2.5813296 -1.7936549 4288085770
4.8793945 2.1911561 -1.8039231 4288085770
7.8787155 3.4914358 -1.810097 4288085770
10.056618 4.4384203 -1.7994897 4288085770
11.304123 4.9822598 -1.7911379 4288085770
8.5630341 3.7808118 -1.8109281 4288085770
3.7461624 1.6741827 -1.8073041 4288085770
5.774086 2.5452907 -1.7937672 4288085770
4.9147797 2.1681168 -1.8100164 4288085770
8.1120605 3.5462143 -1.813158 4288085770
10.395981 4.5310922 -1.7985435 4288085770
3.7494659 1.6521577 -1.8063657 4288085770
11.275444 4.8802686 -1.7933886 4288085770
8.5673904 3.7137923 -1.8141131 4288085770
10.779366 4.6387367 -1.8015966 4288085770
8.3484116 3.5999844 -1.8142245 4288085770
5.8014603 2.5122471 -1.7958806 4288085770
4.9381561 2.1390741 -1.811115 4288085770
3.7567825 1.6311274 -1.8054283 4288085770
11.258781 4.7842655 -1.7956336 4288085770
11.144737 4.7333803 -1.7996688 4288085770
8.5397415 3.6337807 -1.8103046 4288085770
8.5957642 3.6557443 -1.8152955 4288085770
5.8358383 2.4822006 -1.7989917 4288085770
3.7590866 1.609097 -1.8024888 4288085770
4.9625473 2.1100266 -1.8112144 4288085770
11.551132 4.8399906 -1.7987454 4288085770
8.8451309 3.7084987 -1.8153765 4288085770
11.249115 4.6902561 -1.7978795 4288085770
8.5211105 3.5567665 -1.8084958 4288085770
3.7684021 1.5890654 -1.8015504 4288085770
5.8612137 2.4471557 -1.8001084 4288085770
11.992531 4.9565773 -1.8008268 4288085770
4.9979553 2.0849805 -1.8153129 4288085770
9.1054993 3.7622433 -1.8154647 4288085770
11.253456 4.6032395 -1.802119 4288085770
8.5184708 3.4887419 -1.807677 4288085770
3.7767258 1.5680342 -1.8006136 4288085770
12.467957 5.0811329 -1.802917 4288085770
5.8955841 2.4161062 -1.8022223 4288085770
9.3818741 3.8179727 -1.815562 4288085770
5.02034 2.0549324 -1.8144128 4288085770
12.991386 5.2166491 -1.806021 4288085770
3.7870636 1.5469973 -1.7986784 4288085770
11.247803 4.5112233 -1.8033626 4288085770
8.5068283 3.4157183 -1.8048637 4288085770
9.6562424 3.8706989 -1.8136654 4288085770
5.9319687 2.3850543 -1.804338 4288085770
5.0577316 2.0298822 -1.8175132 4288085770
13.541824 5.357142 -1.8101358 4288085770
3.8084106 1.5299649 -1.8017428 4288085770
9.9456406 3.9234104 -1.8117828 4288085770
11.258148 4.4261951 -1.8056021 4288085770
8.4991989 3.344692 -1.8020484 4288085770
5.9563522 2.3490016 -1.8024564 4288085770
14.145279 5.511591 -1.8152604 4288085770
5.0991287 2.0058336 -1.8226142 4288085770
3.8227539 1.5099275 -1.8008087 4288085770
10.266022 3.9851027 -1.8129036 4288085770
11.242477 4.3321776 -1.8028421 4288085770
8.493576 3.274663 -1.799232 4288085770
14.831757 5.6889777 -1.8253982 4288085770
6.01474 2.3259449 -1.8095703 4288085770
3.8411026 1.4908911 -1.8018754 4288085770
10.580414 4.0397916 -1.811038 4288085770
5.1375275 1.9807794 -1.8247154 4288085770
15.519226 5.8583493 -1.8305583 4288085770
11.24984 4.2451463 -1.8030841 4288085770
8.5149536 3.2146211 -1.8004129 4288085770
6.0551224 2.2948864 -1.8106894 4288085770
10.913811 4.0974627 -1.8091812 4288085770
3.8604431 1.4728522 -1.8019402 4288085770
5.1719437 1.9517245 -1.8258235 4288085770
16.303734 6.0536442 -1.8397355 4288085770
11.255196 4.1581101 -1.8013239 4288085770
11.227211 4.1421375 -1.8023419 4288085770
3.8767929 1.4528091 -1.8000076 4288085770
6.0885086 2.2608256 -1.8088107 4288085770
8.5223389 3.1495826 -1.7985947 4288085770
17.148239 6.2608871 -1.8499348 4288085770
5.203331 1.9236653 -1.8239264 4288085770
11.643623 4.2207589 -1.8095036 4288085770
3.8971405 1.4337654 -1.7990763 4288085770
11.32357 4.0930438 -1.8085611 4288085770
6.1489029 2.2357605 -1.8139317 4288085770
8.5417175 3.0885401 -1.7987766 4288085770
18.189796 6.527986 -1.8721495 4288085770
5.2357407 1.8946073 -1.8230326 4288085770
12.107048 4.3103476 -1.8196776 4288085770
3.9274979 1.417727 -1.8031454 4288085770
19.24736 6.786057 -1.8894031 4288085770
11.417946 4.036962 -1.8187973 4288085770
6.205307 2.2086952 -1.8180542 4288085770
8.5671005 3.0294881 -1.7979581 4288085770
5.2781601 1.8675449 -1.8241427 4288085770
12.563484 4.388927 -1.8248756 4288085770
3.9498596 1.3986808 -1.8022158 4288085770
6.2496796 2.1776276 -1.8171771 4288085770
11.458313 3.9608979 -1.8180389 4288085770
8.6004868 2.9734356 -1.799139 4288085770
13.041908 4.470489 -1.8310847 4288085770
5.3285599 1.844486 -1.828249 4288085770
3.9772415 1.3796351 -1.8032906 4288085770
6.3010864 2.1475587 -1.8183033 4288085770
11.502686 3.8868358 -1.8192785 4288085770
8.6418839 2.9193776 -1.8013215 4288085770
13.466324 4.5280709 -1.8273106 4288085770
5.3649597 1.8154216 -1.826359 4288085770
4.0046005 1.3615844 -1.8023624 4288085770
19.564339 6.4576583 -1.8755784 4288085770
6.3754807 2.1244838 -1.8244314 4288085770
13.96376 4.6026092 -1.8305564 4288085770
11.574066 3.8207519 -1.8215208 4288085770
8.6902771 2.8673112 -1.8025048 4288085770
4.0309677 1.3425372 -1.8024361 4288085770
5.4173813 1.7903531 -1.8284726 4288085770
19.139519 6.1729684 -1.8579664 4288085770
14.459183 4.670135 -1.8298192 4288085770
6.4318771 2.0944078 -1.8245623 4288085770
11.648438 3.7536657 -1.8237686 4288085770
8.7346725 2.8132451 -1.80269 4288085770
3.592186 1.1769135 -1.8024881 4288085770
4.0683289 1.3274897 -1.8055091 4288085770
5.4717865 1.7662868 -1.8315849 4288085770
3.6392899 1.1858445 -1.7955058 4288085770
3.6003571 1.1688637 -1.7915165 4288085770
3.7083817 1.2027836 -1.7975218 4288085770
3.6653748 1.1888191 -1.7965209 4288085770
3.7154083 1.2037642 -1.7935255 4288085770
3.7724533 1.2197073 -1.7925336 4288085770
3.8404846 1.2396563 -1.7965407 4288085770
15.033638 4.7536049 -1.8341103 4288085770
3.7764893 1.2177184 -1.7985423 4288085770
3.9025345 1.256595 -1.7955506 4288085770
18.870743 5.9441748 -1.8533435 4288085770
6.4912643 2.0653288 -1.8246932 4288085770
3.9725952 1.2755346 -1.7975624 4288085770
4.0446701 1.2944689 -1.7985759 4288085770
3.8496094 1.2336521 -1.8005645 4288085770
11.74382 3.6935656 -1.8280163 4288085770
4.0997162 1.3084369 -1.8055873 4288085770
4.1177292 1.3134027 -1.7995901 4288085770
8.7990723 2.7651699 -1.8058767 4288085770
3.920723 1.2485781 -1.799588 4288085770
4.1908112 1.3313291 -1.7986071 4288085770
5.5231781 1.7412183 -1.8326976 4288085770
4.2668915 1.3502566 -1.7986243 4288085770
3.9888535 1.2615035 -1.7976139 4288085770
4.3499832 1.3701794 -1.7996449 4288085770
3.5777893 1.1328362 -1.7845917 4288085770
15.623093 4.8340597 -1.8384228 4288085770
4.4330673 1.3901 -1.7996655 4288085770
4.0719757 1.2794273 -1.7996397 4288085770
18.655998 5.7353387 -1.8507149 4288085770
6.5526657 2.035248 -1.8248284 4288085770
4.5091705 1.4070139 -1.7956879 4288085770
4.1300888 1.2893827 -1.8046646 4288085770
11.832191 3.6294668 -1.8302686 4288085770
4.1601105 1.297352 -1.8036702 4288085770
4.6042786 1.4289289 -1.797714 4288085770
8.8504639 2.7120972 -1.8060653 4288085770
4.2422638 1.3122666 -1.8027031 4288085770
5.5785904 1.7151446 -1.8338165 4288085770
4.7083969 1.4518393 -1.8017452 4288085770
16.242546 4.9154859 -1.8417599 4288085770
3.6531754 1.1298048 -1.8056662 4288085770
4.8135071 1.4757446 -1.8037748 4288085770
4.334404 1.3301837 -1.8057373 4288085770
6.6210632 2.0071611 -1.8249645 4288085770
18.494255 5.5464649 -1.8520803 4288085770
4.9256439 1.4996476 -1.8078108 4288085770
4.1654663 1.271327 -1.804744 4288085770
4.4165573 1.3440914 -1.802773 4288085770
11.927582 3.5663579 -1.8315241 4288085770
5.0447693 1.5255452 -1.8118474 4288085770
8.9278641 2.6660132 -1.8102586 4288085770
4.51371 1.3620012 -1.8048115 4288085770
5.6440125 1.6920683 -1.8369362 4288085770
16.873009 4.9908957 -1.8431232 4288085770
5.1659088 1.5504398 -1.8158889 4288085770
3.6735611 1.1097442 -1.7997372 4288085770
4.6068802 1.3769046 -1.8038542 4288085770
5.2800522 1.5723259 -1.8149319 4288085770
6.6934509 1.9800735 -1.8261015 4288085770
4.2058258 1.2552706 -1.8058221 4288085770
18.241508 5.3336377 -1.8414283 4288085770
5.4141998 1.5992081 -1.8189795 4288085770
4.6990509 1.3908026 -1.800899 4288085770
12.021965 3.502244 -1.8307817 4288085770
8.9952545 2.6169295 -1.8114507 4288085770
17.641479 5.0982141 -1.8555248 4288085770
5.5523605 1.6260864 -1.8230307 4288085770
5.6914062 1.6639912 -1.8340533 4288085770
4.8122177 1.4107027 -1.8049467 4288085770
3.7139587 1.0946914 -1.8028126 4288085770
5.6865234 1.650959 -1.8240838 4288085770
4.2472 1.2382158 -1.807904 4288085770
4.930397 1.4305944 -1.8079987 4288085770
6.7798538 1.9549794 -1.8292458 4288085770
18.169792 5.175694 -1.8467906 4288085770
5.8346863 1.6788256 -1.8271413 4288085770
12.112343 3.4371319 -1.8290381 4288085770
5.0505905 1.449484 -1.8110549 4288085770
18.37294 5.1825404 -1.8599551 4288085770
9.0806503 2.5718348 -1.8146482 4288085770
5.9818573 1.7046862 -1.8282034 4288085770
5.7608185 1.6409116 -1.8371768 4288085770
3.751358 1.0786357 -1.8038876 4288085770
5.1797714 1.4703712 -1.8161142 4288085770
4.2885895 1.2201535 -1.8079884 4288085770
6.1390457 1.7315369 -1.8292716 4288085770
6.8632431 1.9288843 -1.8313901 4288085770
18.05307 5.0067744 -1.8461418 4288085770
5.3079681 1.4892502 -1.8181779 4288085770
6.3052292 1.7603853 -1.8323429 4288085770
12.235733 3.378998 -1.8303056 4288085770
19.177414 5.2778163 -1.8694212 4288085770
9.1480484 2.5217457 -1.8138433 4288085770
3.7957382 1.0645798 -1.8069642 4288085770
5.8122101 1.6128314 -1.8342974 4288085770
5.4241638 1.5041254 -1.8152418 4288085770
6.477417 1.7882226 -1.8334219 4288085770
4.3239594 1.2010925 -1.8060703 4288085770
6.9516449 1.9027822 -1.8325386 4288085770
6.6386185 1.8120542 -1.8295021 4288085770
17.960365 4.8468313 -1.8454907 4288085770
5.5703812 1.5249953 -1.8203163 4288085770
12.357117 3.3188629 -1.8305764 4288085770
3.8301239 1.0475192 -1.8050396 4288085770
6.8108139 1.837882 -1.8275867 4288085770
5.7275772 1.5488627 -1.8273926 4288085770
5.8836212 1.5887437 -1.8354254 4288085770
9.2234497 2.4716482 -1.8130453 4288085770
4.369339 1.1840308 -1.8071556 4288085770
7.0040359 1.8666987 -1.8286819 4288085770
7.0170364 1.8696868 -1.8286855 4288085770
5.8758011 1.5677192 -1.8284743 4288085770
17.943672 4.708838 -1.8508482 4288085770
7.1952438 1.8945088 -1.8267784 4288085770
12.503502 3.264709 -1.8318539 4288085770
3.8675156 1.0304575 -1.8041177 4288085770
6.0240173 1.5845726 -1.8285615 4288085770
5.9470291 1.5616579 -1.834554 4288085770
9.3298416 2.4305394 -1.817251 4288085770
4.4167099 1.1669645 -1.8072429 4288085770
7.398468 1.921304 -1.8238883 4288085770
7.1254272 1.8475759 -1.8328416 4288085770
6.1862488 1.6044188 -1.8306532 4288085770
17.880974 4.5578661 -1.8491995 4288085770
7.5996933 1.9470985 -1.819999 4288085770
3.8869171 1.0083865 -1.7941933 4288085770
12.665886 3.2125437 -1.8341401 4288085770
6.346489 1.6212574 -1.829751 4288085770
4.4620743 1.1489002 -1.8073311 4288085770
6.0204239 1.5375667 -1.8346837 4288085770
9.399231 2.3784394 -1.813453 4288085770
7.8199387 1.9748778 -1.8171215 4288085770
7.2118225 1.8184679 -1.8309965 4288085770
6.528717 1.6430914 -1.8338554 4288085770
17.822281 4.4098907 -1.8475461 4288085770
8.0751724 2.0096433 -1.8202567 4288085770
3.8622971 0.97629696 -1.764256 4293729569
4.5144501 1.1318322 -1.8084228 4288085770
12.847275 3.1633637 -1.8374352 4288085770
6.0728226 1.5074766 -1.8288107 4288085770
6.6949539 1.657922 -1.8319643 4288085770
9.5336304 2.340313 -1.8206756 4288085770
8.3244171 2.0404017 -1.8193972 4288085770
7.3132095 1.7923517 -1.831157 4288085770
6.8772049 1.6757433 -1.8320794 4288085770
17.8666 4.2878408 -1.8529155 4288085770
4.0526581 0.99529159 -1.8293746 4288085770
8.6136551 2.0791364 -1.8225524 4288085770
4.5668182 1.1147617 -1.8085146 4288085770
13.038658 3.1141677 -1.8397393 4288085770
6.1492081 1.482379 -1.8289449 4288085770
7.0684433 1.6935525 -1.8322024 4288085770
9.6450272 2.2961853 -1.8218942 4288085770
7.4295883 1.7692266 -1.8343234 4288085770
8.8989105 2.1128607 -1.8227179 4288085770
7.256691 1.7093623 -1.8303297 4288085770
4.6151733 1.0966849 -1.8066058 4288085770
17.905922 4.163785 -1.8562908 4288085770
9.1951752 2.1465759 -1.8218949 4288085770
13.268044 3.0709498 -1.8450668 4288085770
6.2156067 1.4542787 -1.8240817 4288085770
9.7404175 2.2470646 -1.8191154 4288085770
7.4579544 1.7251594 -1.8284693 4288085770
7.5329742 1.7411029 -1.8324938 4288085770
9.4964371 2.1782806 -1.819082 4288085770
4.6765442 1.0806124 -1.8087046 4288085770
17.94825 4.0407295 -1.8586681 4288085770
7.66922 1.7409506 -1.8276179 4288085770
9.8207016 2.2129676 -1.8172817 4288085770
6.3009872 1.4301771 -1.8242245 4288085770
13.477432 3.020736 -1.8453953 4288085770
7.6533432 1.7169735 -1.8336689 4288085770
9.8638229 2.2019305 -1.8203514 4288085770
7.9124832 1.7617271 -1.8317819 4288085770
4.7299042 1.0625381 -1.8078017 4288085770
10.179985 2.2506282 -1.8175054 4288085770
17.929573 3.9047015 -1.852025 4288085770
6.3853836 1.4050736 -1.823369 4288085770
13.731812 2.9784961 -1.8507431 4288085770
8.1387634 1.7754979 -1.8289497 4288085770
10.558266 2.2892718 -1.8177435 4288085770
7.7907257 1.694834 -1.8368537 4288085770
10.000198 2.160785 -1.8215878 4288085770
4.7982635 1.04746 -1.8099041 4288085770
8.3990326 1.7952564 -1.8321321 4288085770
10.918549 2.3209136 -1.8119848 4288085770
6.4707565 1.3799659 -1.8215148 4288085770
18.130928 3.8135364 -1.8664596 4288085770
13.989197 2.9342446 -1.8530993 4288085770
7.9251099 1.6696908 -1.8380446 4288085770
4.8606186 1.0303808 -1.8100066 4288085770
10.158592 2.1216288 -1.825839 4288085770
8.6883163 1.8169932 -1.8373356 4288085770
11.359856 2.363502 -1.8132696 4288085770
6.5821457 1.3578494 -1.824676 4288085770
18.311264 3.7173824 -1.8778884 4288085770
8.9466019 1.829735 -1.8345354 4288085770
11.841148 2.4100602 -1.8165803 4288085770
14.250587 2.8869846 -1.8534672 4288085770
8.0764847 1.6475396 -1.8412423 4288085770
4.9309845 1.0132968 -1.8111165 4288085770
10.289986 2.074476 -1.8230877 4288085770
12.344467 2.4565985 -1.819911 4288085770
9.1878967 1.8354738 -1.8257389 4288085770
6.6765137 1.333735 -1.8228271 4288085770
18.497604 3.6192129 -1.8863282 4288085770
8.2088547 1.6203878 -1.8384368 4288085770
5.0123291 0.99921614 -1.8162282 4288085770
14.547974 2.8426979 -1.8558598 4288085770
4.4562378 0.88879931 -1.8440242 4288085770
12.857773 2.500113 -1.8182592 4288085770
9.4811859 1.8491864 -1.8239682 4288085770
10.476372 2.0372977 -1.8283589 4288085770
6.7888947 1.3106127 -1.8239918 4288085770
13.508095 2.5625446 -1.8306806 4288085770
5.0896759 0.9831301 -1.8183415 4288085770
8.3662186 1.5972257 -1.8396428 4288085770
9.7954941 1.8628857 -1.8242164 4288085770
18.695961 3.5210302 -1.8937793 4288085770
14.876358 2.8023856 -1.8592699 4288085770
10.654762 1.9961174 -1.8306339 4288085770
14.220428 2.6289196 -1.8431478 4288085770
10.142792 1.8795605 -1.8264871 4288085770
6.9022598 1.2874873 -1.8241577 4288085770
5.1620178 0.96603984 -1.8174531 4288085770
8.5315781 1.5740571 -1.8408563 4288085770
18.952301 3.432807 -1.9052556 4288085770
15.229736 2.7630517 -1.8626997 4288085770
14.916763 2.6862893 -1.8486252 4288085770
10.84314 1.9559286 -1.8329153 4288085770
10.473099 1.8882358 -1.8237636 4288085770
7.0246277 1.2653563 -1.8253288 4288085770
5.2443619 0.94994664 -1.8185713 4288085770
8.7269363 1.5548697 -1.8450863 4288085770
4.5823059 0.8295424 -1.8182979 4288085770
15.621094 2.7366331 -1.848129 4288085770
10.846405 1.9018843 -1.8250663 4288085770
15.600113 2.7227001 -1.8651483 4288085770
19.194649 3.3375854 -1.9127386 4288085770
11.063522 1.9187174 -1.8372178 4288085770
7.1569901 1.2432201 -1.8275092 4288085770
5.3297119 0.93285102 -1.8196948 4288085770
4.6486664 0.81245637 -1.8174038 4288085770
8.9012985 1.529687 -1.8443139 4288085770
16.434448 2.797894 -1.8527026 4288085770
11.248718 1.9155099 -1.8273952 4288085770
16.006485 2.6843159 -1.867624 4288085770
19.505989 3.2523165 -1.925257 4288085770
4.7039413 0.80035436 -1.8054864 4288085770
5.4010391 0.91475129 -1.8148084 4288085770
4.6099319 0.78444219 -1.8064444 4288085770
11.280899 1.8795056 -1.8405232 4288085770
4.8059616 0.81626505 -1.806536 4288085770
4.9189835 0.8341682 -1.8085897 4288085770
17.444801 2.8820143 -1.8703933 4288085770
5.0240326 0.84906828 -1.8076446 4288085770
7.2873535 1.2190795 -1.8276935 4288085770
5.1450653 0.8669638 -1.8097057 4288085770
4.7160034 0.79637146 -1.8165083 4288085770
11.68203 1.929112 -1.8317525 4288085770
5.2661133 0.88385534 -1.8107698 4288085770
9.1036453 1.5074854 -1.8455584 4288085770
5.3841629 0.89974082 -1.8088338 4288085770
4.672081 0.78239101 -1.8115063 4288085770
5.5142212 0.91762108 -1.8089032 4288085770
4.7641449 0.79329276 -1.80756 4288085770
5.6422806 0.93349636 -1.8069761 4288085770
4.8842239 0.80719233 -1.8116312 4288085770
5.8023605 0.95336241 -1.8120675 4288085770
16.427856 2.6439123 -1.8681192 4288085770
5.937439 0.96922529 -1.808147 4288085770
18.560173 2.9710457 -1.8901665 4288085770
5.4883652 0.89765149 -1.814934 4288085770
4.9993057 0.82008725 -1.8127005 4288085770
19.819328 3.1620364 -1.9347908 4288085770
12.117355 1.9377005 -1.8321257 4288085770
6.0875244 0.98607975 -1.8062375 4288085770
5.1223755 0.8339783 -1.8147745 4288085770
11.515274 1.8392761 -1.8428469 4288085770
7.4487152 1.1989226 -1.8318949 4288085770
4.7933426 0.78128308 -1.8176188 4288085770
9.3160019 1.4852743 -1.846812 4288085770
6.2496033 1.0049326 -1.8073332 4288085770
5.2454681 0.84686512 -1.815851 4288085770
6.4267044 1.0237701 -1.8084426 4288085770
5.3805542 0.86074442 -1.8179359 4288085770
6.6128006 1.0436029 -1.8105578 4288085770
19.909561 3.084902 -1.922085 4288085770
5.5046616 0.87161791 -1.8150191 4288085770
5.5947037 0.88254583 -1.8190711 4288085770
16.933228 2.6114514 -1.8746693 4288085770
12.608673 1.9492507 -1.8365419 4288085770
6.8089066 1.0634234 -1.811682 4288085770
5.6307678 0.88248605 -1.8111038 4288085770
4.8626785 0.76419055 -1.8147278 4288085770
7.5920563 1.1757714 -1.832088 4288085770
11.776634 1.8020287 -1.8471866 4288085770
7.010025 1.083236 -1.811811 4288085770
9.5483398 1.4640491 -1.8490815 4288085770
5.7868881 0.89635104 -1.815208 4288085770
7.2411499 1.1060359 -1.8169589 4288085770
5.9389954 0.90920705 -1.8153112 4288085770
5.7000198 0.86743963 -1.8222075 4288085770
13.140999 1.96277 -1.8429899 4288085770
7.4832687 1.1288226 -1.8211172 4288085770
6.1051178 0.92205632 -1.8174269 4288085770
4.9549942 0.75110167 -1.8198469 4288085770
17.479599 2.5799484 -1.8792543 4288085770
7.7244034 1.1496012 -1.8222797 4288085770
7.7613983 1.1546055 -1.8352997 4288085770
6.2702484 0.93389702 -1.8165448 4288085770
9.7776871 1.4408181 -1.8483536 4288085770
12.034012 1.7607753 -1.8485341 4288085770
7.9875412 1.1723653 -1.8254569 4288085770
6.42939 0.94373345 -1.8126626 4288085770
13.775322 1.9832227 -1.8585122 4288085770
5.7983322 0.85032481 -1.8203433 4288085770
8.2706833 1.1961112 -1.8286498 4288085770
5.0413132 0.73600668 -1.8209658 4288085770
6.624527 0.95755917 -1.8158023 4288085770
18.100967 2.5513887 -1.8878996 4288085770
7.9297409 1.1314322 -1.8355157 4288085770
8.5498352 1.2168455 -1.8268473 4288085770
10.038017 1.4195681 -1.8506489 4288085770
6.8276749 0.97137672 -1.8189492 4288085770
12.330376 1.722497 -1.8529088 4288085770
8.8679886 1.2415617 -1.8310695 4288085770
5.9136505 0.83521044 -1.8234887 4288085770
14.468658 2.0036311 -1.8770885 4288085770
7.0328293 0.98318565 -1.8201036 4288085770
5.1376266 0.72191161 -1.8250914 4288085770
9.2091599 1.2662575 -1.8353126 4288085770
8.1140747 1.1102536 -1.8387413 4288085770
7.2379913 0.99298519 -1.8182635 4288085770
18.80233 2.5277605 -1.8976045 4288085770
10.329353 1.4002964 -1.8549666 4288085770
9.5543289 1.289937 -1.8355622 4288085770
6.0289536 0.81909007 -1.8246372 4288085770
15.132004 2.0110369 -1.885673 4288085770
7.4761429 1.0067737 -1.8224425 4288085770
12.650726 1.6852005 -1.8583028 4288085770
5.235939 0.70680869 -1.8272212 4288085770
9.9385071 1.3145902 -1.8388448 4288085770
7.7223206 1.0185475 -1.8246343 4288085770
8.3144073 1.0880604 -1.841984 4288085770
10.611687 1.3780184 -1.8542848 4288085770
10.344681 1.3402171 -1.8401449 4288085770
19.613701 2.5120509 -1.9133883 4288085770
6.1402588 0.80196488 -1.8227847 4288085770
7.9794922 1.0303088 -1.8258364 4288085770
15.726326 2.0034676 -1.8812361 4288085770
5.3392487 0.69270509 -1.8303533 4288085770
13.020081 1.6508687 -1.8667338 4288085770
10.753883 1.3628289 -1.8374557 4288085770
8.2686615 1.0440559 -1.8320622 4288085770
8.5067444 1.0648661 -1.8422222 4288085770
10.925018 1.3567183 -1.8556285 4288085770
11.221062 1.3894064 -1.8408089 4288085770
6.2685547 0.78583276 -1.8239448 4288085770
8.5498581 1.0537913 -1.8322916 4288085770
16.380669 1.9948497 -1.8788567 4288085770
5.4265518 0.67559552 -1.8264785 4288085770
11.729271 1.4179463 -1.8441939 4288085770
13.424438 1.6155077 -1.8761992 4288085770
8.857048 1.064512 -1.8355422 4288085770
8.726059 1.0436547 -1.8444798 4288085770
11.258324 1.3353984 -1.8559904 4288085770
6.4068451 0.77069557 -1.8261116 4288085770
12.268478 1.4444494 -1.8446133 4288085770
5.5178452 0.65848249 -1.8226078 4288085770
17.098007 1.9841833 -1.8795404 4288085770
9.1852417 1.0752112 -1.8378119 4288085770
12.900688 1.4778922 -1.8530982 4288085770
13.887779 1.5831062 -1.8897107 4288085770
6.5481339 0.75555289 -1.8272812 4288085770
8.9493713 1.0204332 -1.8447464 4288085770
9.5304413 1.0848972 -1.8410997 4288085770
11.637634 1.3170495 -1.8603864 4288085770
5.6321411 0.64336717 -1.8247526 4288085770
13.648911 1.5182533 -1.8696702 4288085770
17.917343 1.9764423 -1.8863096 4288085770
9.8966522 1.0925581 -1.8424127 4288085770
6.7104187 0.74040353 -1.8324697 4288085770
14.559135 1.5705004 -1.8973577 4288085770
14.408119 1.5526625 -1.9062686 4288085770
9.1936798 0.9981997 -1.8470294 4288085770
12.012947 1.2946861 -1.8587897 4288085770
5.7374268 0.62724823 -1.822892 4288085770
10.29586 1.1011984 -1.8467531 4288085770
18.844681 1.9706199 -1.8981721 4288085770
15.357376 1.6037779 -1.900995 4288085770
6.8586884 0.72424972 -1.8316488 4288085770
10.663078 1.1038367 -1.8410804 4288085770
9.4489899 0.97595322 -1.8483226 4288085770
12.470253 1.2782698 -1.8642519 4288085770
5.8777008 0.61412501 -1.8300548 4288085770
14.907455 1.5142146 -1.9148297 4288085770
16.143616 1.6290367 -1.8946431 4288085770
11.080299 1.1074427 -1.8394511 4288085770
19.916016 1.9656847 -1.9161637 4288085770
7.0289688 0.70908487 -1.8338449 4288085770
17.034859 1.6582124 -1.8923767 4288085770
12.969543 1.2628227 -1.8717494 4288085770
6.0009842 0.59799308 -1.8292108 4288085770
9.7152939 0.95169431 -1.8486319 4288085770
11.56752 1.1129997 -1.84288 4288085770
15.372787 1.4677711 -1.9143815 4288085770
7.1982346 0.6929186 -1.835043 4288085770
18.168114 1.7002079 -1.9032962 4288085770
6.1462479 0.58385706 -1.8333812 4288085770
13.551834 1.2503154 -1.884315 4288085770
12.085747 1.1175313 -1.8473403 4288085770
9.9915771 0.92742145 -1.8469498 4288085770
19.572372 1.7569969 -1.9274225 4288085770
7.3994904 0.67873585 -1.8402648 4288085770
15.852112 1.4183073 -1.9109545 4288085770
12.611977 1.1180379 -1.8458192 4288085770
6.2765121 0.56772017 -1.8325434 4288085770
14.249123 1.2427225 -1.9029722 4288085770
10.322876 0.90511626 -1.8513126 4288085770
7.5917358 0.66254646 -1.8404839 4288085770
13.262215 1.1234674 -1.8563976 4288085770
6.414772 0.55157369 -1.830713 4288085770
16.395454 1.368788 -1.9085863 4288085770
14.94841 1.2291076 -1.9146478 4288085770
10.661156 0.88179678 -1.852685 4288085770
7.810997 0.64734465 -1.8447251 4288085770
13.996452 1.1298397 -1.8730505 4288085770
6.5900116 0.5384177 -1.8369083 4288085770
17.027763 1.3222077 -1.9122913 4288085770
15.609688 1.2084922 -1.9143078 4288085770
8.0432281 0.63312972 -1.8479755 4288085770
11.090431 0.86242467 -1.8641295 4288085770
14.798683 1.1331471 -1.8887739 4288085770
6.7492523 0.52225876 -1.8370974 4288085770
8.2884598 0.61790532 -1.8522403 4288085770
16.361946 1.1897993 -1.915046 4288085770
15.550934 1.1264579 -1.8904788 4288085770
11.495705 0.8390516 -1.8675632 4288085770
17.83007 1.2795005 -1.9251409 4288085770
6.9264908 0.50809067 -1.8392971 4288085770
8.536705 0.60166997 -1.8535109 4288085770
16.403191 1.1176844 -1.8942811 4288085770
17.273216 1.174986 -1.9239187 4288085770
11.941963 0.81564534 -1.8720343 4288085770
7.1137238 0.49291295 -1.8415091 4288085770
18.809364 1.2416637 -1.9481392 4288085770
8.8119125 0.58741814 -1.8568008 4288085770
17.328438 1.1058488 -1.8991585 4288085770
18.412468 1.170013 -1.947973 4288085770
7.3189468 0.47872591 -1.8457348 4288085770
12.426216 0.79220235 -1.8755405 4288085770
7.8800049 0.50919539 -1.8381636 4288085770
8.1670303 0.52595109 -1.8433797 4288085770
7.6150131 0.49142146 -1.8339701 4288085770
8.4410477 0.54169822 -1.8415868 4288085770
7.3650055 0.47463387 -1.8297877 4288085770
8.7610779 0.55942094 -1.8458307 4288085770
7.1370087 0.4588325 -1.8276227 4288085770
9.0741119 0.57613212 -1.8440707 4288085770
6.9250336 0.44301569 -1.8254724 4288085770
9.4551544 0.5948016 -1.8493676 4288085770
9.093132 0.57115066 -1.8571017 4288085770
6.7350388 0.42819408 -1.8283393 4288085770
9.8252029 0.61146361 -1.8486598 4288085770
6.5440674 0.41335818 -1.8262055 4288085770
6.4100647 0.40447825 -1.8261073 4288085770
6.8130798 0.42813274 -1.8324108 4288085770
6.5990829 0.4153108 -1.8272505 4288085770
19.833656 1.1977762 -1.967195 4288085770
6.241066 0.3936328 -1.8269827 4288085770
10.242256 0.62909132 -1.8509922 4288085770
6.0710678 0.38278243 -1.8258572 4288085770
6.999115 0.43695262 -1.8285563 4288085770
7.2251282 0.44875419 -1.8307304 4288085770
5.9080811 0.37092185 -1.8237407 4288085770
6.3731079 0.39751154 -1.8270926 4288085770
10.687325 0.64769125 -1.8523479 4288085770
7.5341644 0.46352676 -1.8489721 4288085770
5.7611008 0.36005563 -1.824636 4288085770
7.473175 0.45954078 -1.8349276 4288085770
18.495682 1.0988414 -1.920244 4288085770
19.700706 1.1649032 -1.971164 4288085770
6.2011337 0.38266078 -1.8259759 4288085770
7.7352142 0.47031415 -1.8391371 4288085770
5.6171188 0.34818307 -1.824537 4288085770
12.94046 0.76773256 -1.879077 4288085770
11.162392 0.6652599 -1.8527336 4288085770
8.019249 0.48207125 -1.8443642 4288085770
5.4891434 0.33730489 -1.8274498 4288085770
6.0361862 0.36779702 -1.822866 4288085770
11.78746 0.68974119 -1.8692374 4288085770
9.4203491 0.55585694 -1.8624418 4288085770
8.2953033 0.4918201 -1.8445897 4288085770
5.3631744 0.32641882 -1.8283644 4288085770
5.8842392 0.35292983 -1.8227677 4288085770
5.2342148 0.31452858 -1.8272791 4288085770
8.597374 0.50054765 -1.8458414 4288085770
12.323555 0.70624214 -1.8656816 4288085770
5.7492905 0.33905318 -1.824682 4288085770
7.7723618 0.44931704 -1.8552282 4288085770
8.9064484 0.50926244 -1.8450999 4288085770
5.1082764 0.30263209 -1.8251963 4288085770
12.969643 0.72666514 -1.8692157 4288085770
19.841927 1.0896883 -1.9464991 4288085770
5.6013565 0.32417306 -1.8215876 4288085770
4.9853363 0.29073009 -1.8221164 4288085770
9.2635117 0.51894933 -1.8493993 4288085770
13.474709 0.73922718 -1.8766427 4288085770
9.7525482 0.5405516 -1.8647866 4288085770
13.557747 0.74109352 -1.8567133 4288085770
9.6195908 0.52662158 -1.8487034 4288085770
5.4744339 0.30928481 -1.8225121 4288085770
14.427841 0.76635188 -1.8734388 4288085770
8.0045624 0.43409523 -1.8554814 4288085770
9.991684 0.53327286 -1.8460248 4288085770
5.3585129 0.2953923 -1.825444 4288085770
15.349945 0.79054314 -1.883215 4288085770
10.413788 0.53989041 -1.8473921 4288085770
10.102745 0.52422404 -1.8651509 4288085770
5.2315903 0.28149238 -1.8223658 4288085770
14.049942 0.71269262 -1.8762405 4288085770
16.337067 0.81366348 -1.8890533 4288085770
10.897873 0.54746711 -1.8538134 4288085770
8.2567673 0.41886443 -1.858753 4288085770
5.1236877 0.26758918 -1.8243048 4288085770
17.506187 0.8406409 -1.9020476 4288085770
11.404976 0.55401111 -1.8562586 4288085770
10.509941 0.50985998 -1.8705618 4288085770
4.9987869 0.2526772 -1.8182313 4288085770
14.797157 0.68803525 -1.8869905 4288085770
18.922302 0.87141579 -1.9222569 4288085770
11.928085 0.55753368 -1.8567266 4288085770
8.5279541 0.40361387 -1.861042 4288085770
10.93412 0.49447542 -1.8739913 4288085770
12.521202 0.56099683 -1.858259 4288085770
8.820137 0.3883484 -1.8643503 4288085770
13.216324 0.56538492 -1.8658819 4288085770
15.589394 0.66032273 -1.8927903 4288085770
11.389297 0.47905818 -1.8754489 4288085770
