# .PCD v0.7 - Point Cloud Data file format
VERSION 0.7
FIELDS x y z rgb
SIZE 4 4 4 4
TYPE F F F U
COUNT 1 1 1 1
WIDTH 1109
HEIGHT 1
VIEWPOINT 0 0 0 1 0 0 0
POINTS 1109
DATA ascii
8.6077957 1.103748 -1.8278143 4288085770
3.5922318 0.74393249 -1.8132839 4288085770
13.367813 1.4284103 -1.7790626 4288085770
8.5879517 1.0925246 -1.8138441 4288085770
4.8777466 0.82874143 -1.7982585 4288085770
14.490387 1.4962399 -1.7888261 4288085770
5.6154938 0.87093425 -1.8124319 4288085770
0.67375183 0.5306623 -1.8029248 4288085770
9.2279358 1.1149172 -1.8079484 4288085770
5.2467728 0.83930492 -1.7999094 4288085770
15.556366 1.5197709 -1.8147514 4288085770
9.8829575 1.1333784 -1.7961059 4288085770
5.5938416 0.84666777 -1.7935371 4288085770
3.838562 0.72965014 -1.8158474 4288085770
9.1472702 1.0794827 -1.8290087 4288085770
14.357277 1.408244 -1.7781063 4288085770
6.0077972 0.85968113 -1.8182607 4288085770
10.730888 1.1622603 -1.7985746 4288085770
0.78006744 0.51841629 -1.8062036 4288085770
6.0448761 0.85782921 -1.8003435 4288085770
15.400116 1.4455494 -1.7929024 4288085770
6.516922 0.86811852 -1.804196 4288085770
11.61087 1.1873158 -1.7931286 4288085770
4.0649185 0.71418667 -1.8113794 4288085770
9.7107468 1.0533599 -1.8262612 4288085770
6.4221039 0.84857464 -1.8231316 4288085770
0.87142181 0.50402439 -1.8024662 4288085770
7.0239868 0.8776499 -1.8081212 4288085770
12.650826 1.2165161 -1.7939681 4288085770
15.437775 1.383696 -1.7753537 4288085770
4.3462219 0.70115268 -1.8150034 4288085770
7.5810547 0.8865273 -1.8121475 4288085770
13.784805 1.2443368 -1.7899984 4288085770
6.8694 0.83669031 -1.8270711 4288085770
0.9837265 0.49181387 -1.8047566 4288085770
10.36721 1.028911 -1.8286839 4288085770
8.201149 0.89485335 -1.8182993 4288085770
15.141747 1.2787325 -1.7914218 4288085770
4.64254 0.68721616 -1.8176621 4288085770
7.3517075 0.82504761 -1.8310771 4288085770
8.8762436 0.90256047 -1.8245621 4288085770
1.0840607 0.47748998 -1.8020365 4288085770
11.062675 1.0027077 -1.8271929 4288085770
4.9328461 0.67320812 -1.8153096 4288085770
9.5573959 0.90526056 -1.8228667 4288085770
7.882988 0.81374538 -1.8351763 4288085770
1.2023697 0.46431491 -1.8033442 4288085770
10.319542 0.90853405 -1.8233254 4288085770
5.2611618 0.6584816 -1.8160353 4288085770
11.945091 0.98087215 -1.8380387 4288085770
8.5222168 0.80723894 -1.8474561 4288085770
0.61386108 0.41925916 -1.8064753 4288085770
1.3356552 0.45225552 -1.8066745 4288085770
11.158737 0.90832901 -1.8219551 4288085770
5.6244507 0.64600897 -1.8188154 4288085770
9.1345139 0.79447317 -1.8477216 4288085770
12.881531 0.95538068 -1.8440117 4288085770
12.068924 0.90762138 -1.8217255 4288085770
0.72512817 0.40804741 -1.8097576 4288085770
1.4719467 0.43921694 -1.8100165 4288085770
6.031723 0.63285339 -1.8236849 4288085770
9.8347702 0.78533506 -1.851136 4288085770
13.119148 0.9048897 -1.8227804 4288085770
13.91098 0.92851508 -1.8471736 4288085770
0.83441925 0.3958101 -1.8110422 4288085770
6.4579849 0.62081718 -1.8265847 4288085770
1.6172409 0.42624655 -1.8143759 4288085770
10.625023 0.77582622 -1.8557273 4288085770
14.322403 0.89922309 -1.8251504 4288085770
0.94868469 0.38460675 -1.8123304 4288085770
6.9552536 0.60830247 -1.8346251 4288085770
1.749527 0.4131442 -1.8117106 4288085770
15.076462 0.89958477 -1.8496124 4288085770
11.49926 0.7678988 -1.8604722 4288085770
7.4784927 0.59694993 -1.8397093 4288085770
1.0619659 0.37237874 -1.8106229 4288085770
12.520485 0.76100731 -1.8684963 4288085770
1.898819 0.39917752 -1.8120836 4288085770
8.0947266 0.58627152 -1.8499699 4288085770
13.534744 0.75098324 -1.8625259 4288085770
1.1812363 0.36019841 -1.8099266 4288085770
2.0660782 0.3863534 -1.8154849 4288085770
8.8109283 0.57733369 -1.8684142 4288085770
14.810951 0.74583423 -1.8670347 4288085770
1.3044815 0.34903911 -1.8082321 4288085770
2.2443314 0.37361148 -1.8199068 4288085770
9.5201645 0.56526959 -1.8738642 4288085770
1.4467392 0.33703622 -1.8105795 4288085770
2.4165878 0.36080393 -1.8203176 4288085770
10.295387 0.55465603 -1.8784333 4288085770
1.6019592 0.32614073 -1.8159459 4288085770
2.6098557 0.34715346 -1.8227744 4288085770
11.172607 0.54376101 -1.8852023 4282675967
13.454597 0.57240689 -1.8624575 4288085770
12.366722 0.54791808 -1.8684947 4288085770
14.755447 0.59840715 -1.8628248 4288085770
11.338882 0.52279067 -1.8656521 4288085770
10.456024 0.50069213 -1.8670726 4288085770
12.137825 0.53245151 -1.8881449 4282675967
1.7532043 0.31418744 -1.8163106 4288085770
9.6381912 0.47801962 -1.8646227 4288085770
2.8170929 0.33460626 -1.8262519 4288085770
8.8983612 0.45588133 -1.861321 4288085770
7.919548 0.43297985 -1.8395594 4288085770
8.7154236 0.44863752 -1.8650099 4288085770
7.2916489 0.41958144 -1.8304217 4288085770
9.4293518 0.46158352 -1.8663172 4288085770
6.7507401 0.406822 -1.8274491 4288085770
8.1285782 0.43243942 -1.8419685 4288085770
10.226295 0.47311655 -1.8697941 4288085770
6.22686 0.39315006 -1.8195149 4288085770
11.133255 0.48542336 -1.8754802 4288085770
5.7649689 0.37991974 -1.8136983 4288085770
13.180054 0.52065742 -1.8882399 4282675967
7.5037613 0.41207388 -1.834879 4288085770
12.075241 0.49591276 -1.871245 4288085770
1.9094238 0.30326292 -1.815679 4288085770
5.3500977 0.36603311 -1.810977 4288085770
3.0153427 0.32096651 -1.8247184 4288085770
6.9349442 0.39209649 -1.8278956 4288085770
13.167252 0.50545275 -1.869307 4288085770
4.9772186 0.35344329 -1.8093293 4288085770
14.488243 0.51562762 -1.8758101 4288085770
14.488228 0.51276529 -1.8988279 4282675967
6.4181442 0.37247923 -1.8210112 4288085770
4.6543427 0.34023032 -1.8127825 4288085770
2.0856323 0.29250088 -1.8190851 4288085770
4.329483 0.32697913 -1.812232 4288085770
5.9603424 0.35329494 -1.8182384 4288085770
3.242569 0.30855134 -1.8272338 4288085770
4.0476151 0.31504366 -1.8147568 4288085770
5.5375214 0.33534697 -1.8145261 4288085770
2.2808533 0.28088239 -1.8245337 4288085770
3.7927704 0.30131367 -1.820345 4288085770
3.4817963 0.29521343 -1.8287784 4288085770
5.1397247 0.31756648 -1.8098612 4288085770
3.5139236 0.28835723 -1.8158817 4288085770
4.8159103 0.30034611 -1.8133366 4288085770
2.4690475 0.27019098 -1.825963 4288085770
3.7480164 0.28208044 -1.8333741 4288085770
3.2780914 0.27474096 -1.8185058 4288085770
4.50811 0.28323707 -1.8168421 4288085770
2.6592484 0.25949553 -1.8243963 4288085770
3.0582581 0.26223567 -1.8211541 4288085770
3.9982376 0.26878867 -1.8299397 4288085770
4.1953278 0.26605132 -1.8133384 4288085770
2.8314438 0.24865165 -1.8187954 4288085770
2.8924332 0.24815211 -1.831917 4288085770
4.2824554 0.25575611 -1.83057 4288085770
3.9485321 0.24938861 -1.8209597 4288085770
2.6236343 0.23521152 -1.8184724 4288085770
3.0996017 0.23856845 -1.8293767 4288085770
4.5856476 0.24384919 -1.8302302 4288085770
3.6797256 0.23451397 -1.8185272 4288085770
3.349762 0.22931835 -1.8329178 4288085770
2.4178238 0.22276697 -1.8151473 4288085770
4.8938446 0.23095897 -1.8269061 4288085770
3.4399643 0.21786419 -1.8201616 4288085770
3.6139374 0.21816501 -1.8364979 4288085770
2.2300339 0.20945939 -1.8138623 4288085770
5.2620239 0.21853212 -1.831696 4288085770
3.8400955 0.20867684 -1.8279939 4288085770
3.2042007 0.201224 -1.8188035 4288085770
5.671196 0.20538917 -1.8365699 4288085770
2.0552444 0.19624206 -1.8126019 4288085770
4.1092529 0.19852826 -1.8265777 4288085770
6.1153641 0.19349453 -1.8425044 4288085770
4.4283905 0.18975595 -1.8302503 4288085770
2.9884415 0.18474051 -1.8204832 4288085770
6.6105194 0.18097082 -1.8515418 4288085770
1.8824692 0.18303242 -1.8103452 4288085770
4.7405167 0.18089935 -1.8279096 4288085770
5.1006393 0.17240492 -1.8306602 4288085770
7.1096802 0.168439 -1.8545872 4288085770
5.4897537 0.16411123 -1.8334662 4288085770
14.588997 0.14247832 -1.9092734 4282675967
2.7706833 0.1692135 -1.8171531 4288085770
7.7118149 0.15666226 -1.864828 4288085770
14.915054 0.13579002 -1.9189475 4282675967
1.7177048 0.16887257 -1.8071095 4288085770
5.9488449 0.15633801 -1.8424048 4288085770
13.756088 0.1288465 -1.9307387 4282675967
8.4539337 0.14392725 -1.887347 4288085770
6.4279251 0.14869174 -1.8493818 4288085770
12.534134 0.12434664 -1.9223921 4282675967
6.9329987 0.14221939 -1.8554021 4288085770
13.247269 0.1171231 -1.8968205 4288085770
9.1510696 0.13177845 -1.8927747 4288085770
11.457161 0.12183943 -1.912315 4282675967
7.500061 0.13617632 -1.8615403 4288085770
10.577156 0.1217626 -1.913606 4282675967
8.2180862 0.13126269 -1.8819653 4288085770
9.7231445 0.12380585 -1.9049345 4282675967
8.9301147 0.1272541 -1.893373 4288085770
9.976181 0.11955807 -1.9054518 4282675967
2.5769272 0.15386435 -1.8158686 4288085770
10.852295 0.10866728 -1.9142199 4282675967
1.5679321 0.15584043 -1.8078963 4288085770
11.70443 0.09851405 -1.9069365 4282675967
12.169533 0.091656655 -1.8948814 4288085770
12.843529 0.087474436 -1.9212166 4282675967
15.349724 0.069794565 -1.9201922 4282675967
14.108627 0.077277511 -1.9307361 4282675967
2.3991928 0.13764438 -1.8176202 4288085770
1.4161758 0.14276478 -1.803679 4288085770
11.254784 0.067349225 -1.8982515 4288085770
10.329048 0.045881778 -1.8875825 4288085770
2.2034683 0.12225178 -1.8113315 4288085770
1.2864151 0.12987128 -1.8045034 4288085770
9.5083313 0.024141788 -1.8771191 4288085770
2.0407257 0.10712382 -1.8111056 4288085770
1.1566849 0.1159716 -1.8043338 4288085770
15.0802 -0.073198617 -1.9015352 4288085770
8.8215942 0.0033778548 -1.8749099 4288085770
1.8790054 0.09199068 -1.8088812 4288085770
1.0339355 0.10312095 -1.8041713 4288085770
13.766487 -0.097323328 -1.8951284 4288085770
8.1148834 -0.016602099 -1.8596567 4288085770
12.75676 -0.1212647 -1.9023113 4288085770
1.733284 0.076986581 -1.809687 4288085770
0.93019104 0.089425832 -1.8080509 4288085770
7.4831772 -0.03505069 -1.8465396 4288085770
11.706047 -0.14258543 -1.8933979 4288085770
1.5835648 0.061931044 -1.8064852 4288085770
6.9734497 -0.053600162 -1.8426603 4288085770
0.81246185 0.07659784 -1.8058976 4288085770
10.838333 -0.16359678 -1.8918382 4288085770
6.4837418 -0.072023064 -1.8368188 4288085770
1.4458618 0.046970338 -1.8053062 4288085770
9.9836349 -0.18257794 -1.880291 4288085770
6.0600433 -0.090965122 -1.8351086 4288085770
1.30616 0.032978326 -1.8011169 4288085770
9.2229309 -0.20090157 -1.8699219 4288085770
5.6293411 -0.10799703 -1.826373 4288085770
1.1824646 0.018114775 -1.7999644 4288085770
8.6142426 -0.22210065 -1.8718659 4288085770
5.263649 -0.12654281 -1.8237727 4288085770
15.255325 -0.47817746 -1.8783255 4288085770
1.0727844 0.0023663938 -1.8018439 4288085770
7.9535599 -0.23875576 -1.8576807 4288085770
4.9279556 -0.14387491 -1.8222231 4288085770
14.411575 -0.49987879 -1.9008164 4288085770
0.96509552 -0.012374192 -1.8027214 4288085770
7.4008865 -0.25662035 -1.8507125 4288085770
14.274963 -0.53293562 -1.8827499 4288085770
4.6522751 -0.16374364 -1.8288056 4288085770
13.332947 -0.5253334 -1.9018722 4288085770
6.8991928 -0.27412578 -1.8448412 4288085770
0.86341858 -0.027073026 -1.8036098 4288085770
4.3636017 -0.18174389 -1.8283511 4288085770
13.399582 -0.58396691 -1.8873551 4288085770
12.293282 -0.54257107 -1.8939536 4288085770
6.4635391 -0.29315045 -1.8431073 4288085770
0.76873016 -0.04171741 -1.8055115 4288085770
4.0979233 -0.19858494 -1.8279341 4288085770
11.355568 -0.55510211 -1.8862041 4288085770
6.0608673 -0.31094652 -1.8414298 4288085770
12.544197 -0.62991273 -1.8829676 4288085770
3.8732681 -0.21810634 -1.833613 4288085770
10.445824 -0.56147498 -1.8724717 4288085770
5.6661911 -0.32771045 -1.8357613 4288085770
3.6406021 -0.23571244 -1.8342644 4288085770
11.720772 -0.66967243 -1.8726041 4288085770
9.7210617 -0.57049447 -1.871115 4288085770
5.323555 -0.34609079 -1.8342034 4288085770
3.4009552 -0.25239706 -1.8298962 4288085770
9.0522842 -0.57613254 -1.8688463 4288085770
10.962341 -0.70698768 -1.8613516 4288085770
5.006897 -0.36329073 -1.832689 4288085770
8.3994904 -0.57868308 -1.86259 4288085770
3.2063065 -0.26972809 -1.8326197 4288085770
14.963654 -1.0100049 -1.920966 4288085770
4.7492599 -0.38403463 -1.8393104 4288085770
7.793663 -0.57791424 -1.8554049 4288085770
10.330925 -0.7463814 -1.8573583 4288085770
3.0016708 -0.2871522 -1.8313239 4288085770
13.81768 -0.99289155 -1.9266318 4288085770
7.2288284 -0.57587314 -1.8462915 4288085770
4.4876175 -0.40182966 -1.8419063 4288085770
12.631653 -0.96418631 -1.9101491 4288085770
6.7579803 -0.5751276 -1.8463689 4288085770
2.81604 -0.30443865 -1.831064 4288085770
9.7985153 -0.78705394 -1.859565 4288085770
11.50161 -0.9311229 -1.8887484 4288085770
4.2259827 -0.4196544 -1.8395016 4288085770
6.3021317 -0.57328993 -1.8444688 4288085770
2.6384048 -0.32167566 -1.829819 4288085770
10.588593 -0.90649104 -1.8788213 4288085770
5.842247 -0.56652176 -1.8355312 4288085770
9.3050919 -0.82546782 -1.8598335 4288085770
14.786934 -1.2370994 -1.9469879 4288085770
3.9563675 -0.43556404 -1.8320696 4288085770
9.7965927 -0.88499159 -1.8741484 4288085770
5.4643631 -0.56313175 -1.8357732 4288085770
2.4717712 -0.33783039 -1.829589 4288085770
9.1376038 -0.86851782 -1.8787649 4288085770
5.102478 -0.55863148 -1.8360401 4288085770
3.729744 -0.45313466 -1.8317313 4288085770
8.8646851 -0.86449695 -1.8632083 4288085770
13.87542 -1.2634143 -1.9453697 4288085770
8.4265747 -0.84249932 -1.8672222 4288085770
15.394653 -1.4121689 -1.9052225 4288085770
4.7685699 -0.55293703 -1.8363541 4288085770
15.596809 -1.4346992 -1.917752 4288085770
2.30616 -0.35399601 -1.8263606 4288085770
7.8165665 -0.82174528 -1.8619078 4288085770
4.4456558 -0.54617846 -1.8346831 4288085770
3.5311279 -0.47149295 -1.8344522 4288085770
12.947838 -1.2788928 -1.934654 4288085770
7.2505417 -0.79969269 -1.8556714 4288085770
8.4012604 -0.8987385 -1.8575085 4288085770
4.1667404 -0.54108524 -1.8381077 4288085770
2.1605377 -0.37099916 -1.827176 4288085770
14.517174 -1.4442241 -1.9077045 4288085770
6.7585373 -0.78109789 -1.8545998 4288085770
3.8927994 -0.5339694 -1.83953 4288085770
15.004723 -1.5117946 -1.9190605 4288085770
3.3365326 -0.48983583 -1.8351802 4288085770
6.2825089 -0.76041043 -1.8505467 4288085770
3.6358566 -0.5267418 -1.8399845 4288085770
11.997169 -1.2805954 -1.9128096 4288085770
2.0129471 -0.38802767 -1.8259873 4288085770
7.9918289 -0.93258834 -1.8549117 4288085770
5.8204803 -0.73864961 -1.8425143 4288085770
3.3679047 -0.5166142 -1.8364002 4288085770
13.691696 -1.4719552 -1.9042608 4288085770
3.1599197 -0.50804758 -1.8369426 4288085770
5.4264603 -0.72038221 -1.8406355 4288085770
3.1419296 -0.50816613 -1.8379081 4288085770
14.45961 -1.5855757 -1.9184395 4288085770
2.9229736 -0.49967545 -1.8384292 4288085770
5.068428 -0.70285392 -1.8408314 4288085770
11.186523 -1.2862632 -1.9022616 4288085770
1.8723526 -0.40401411 -1.823806 4288085770
2.685997 -0.4883509 -1.831898 4288085770
4.7504044 -0.68703097 -1.8441155 4288085770
7.6424179 -0.9680047 -1.8554403 4288085770
2.9863281 -0.52624464 -1.8377103 4288085770
4.4443588 -0.67014241 -1.8444166 4288085770
2.483017 -0.47875577 -1.8314437 4288085770
12.9132 -1.4973723 -1.8988941 4288085770
2.276001 -0.46621177 -1.8269639 4288085770
4.1123123 -0.64948189 -1.8366442 4288085770
10.501877 -1.2950227 -1.8979774 4288085770
1.7327576 -0.42000514 -1.8196263 4288085770
2.0870056 -0.45553151 -1.8245304 4288085770
3.8392639 -0.63335866 -1.8380141 4288085770
13.969521 -1.6609641 -1.9199347 4288085770
1.905014 -0.44481438 -1.8201103 4288085770
3.5872192 -0.61709082 -1.8394244 4288085770
2.8227386 -0.54437226 -1.8384968 4288085770
1.7389908 -0.43396276 -1.8197207 4288085770
7.3050003 -1.0033376 -1.8559914 4288085770
3.3351669 -0.59984052 -1.8378286 4288085770
1.5679703 -0.42216966 -1.8153156 4288085770
12.106689 -1.5140481 -1.882419 4288085770
3.1131058 -0.58435881 -1.8403021 4288085770
1.4209366 -0.41118088 -1.8159624 4288085770
2.8740387 -0.56604272 -1.8347253 4288085770
1.2729034 -0.40021673 -1.8136072 4288085770
9.9272308 -1.3069612 -1.9039264 4288085770
1.6271744 -0.43870735 -1.8245292 4288085770
1.1408539 -0.38911828 -1.8152829 4288085770
2.6609726 -0.5495224 -1.83321 4288085770
1.0148087 -0.37898403 -1.8159759 4288085770
2.4418869 -0.53106749 -1.8276714 4288085770
0.88577271 -0.36788276 -1.8146573 4288085770
0.76969147 -0.35667348 -1.8163633 4288085770
2.2648163 -0.51628053 -1.829237 4288085770
0.78374481 -0.35959452 -1.813408 4288085770
2.0667191 -0.49768612 -1.8227386 4288085770
2.6411514 -0.5596602 -1.833231 4288085770
1.878624 -0.48001707 -1.8172655 4288085770
0.89788818 -0.37481111 -1.8127214 4288085770
13.448387 -1.7266141 -1.9133098 4288085770
1.0179977 -0.38898039 -1.8130405 4288085770
1.7205429 -0.46510431 -1.8178674 4288085770
1.1281128 -0.40224892 -1.8083346 4288085770
1.5694504 -0.45014915 -1.8174828 4288085770
1.4123306 -0.43325946 -1.8130749 4288085770
1.2642288 -0.41730163 -1.8096904 4288085770
7.0105896 -1.0393609 -1.8586301 4288085770
11.438179 -1.5357202 -1.8742425 4288085770
9.3925705 -1.3166283 -1.9089391 4288085770
1.4895706 -0.45269606 -1.8183409 4288085770
2.4985733 -0.57764268 -1.8340571 4288085770
6.7402039 -1.0762122 -1.8623201 4288085770
8.8258438 -1.3165703 -1.9048308 4288085770
13.016258 -1.7956184 -1.9118779 4288085770
1.3750076 -0.46949622 -1.8172141 4288085770
10.925766 -1.5702478 -1.8774472 4288085770
2.3649979 -0.59655023 -1.8369062 4288085770
8.2931137 -1.3152707 -1.9017806 4288085770
6.4607925 -1.1091552 -1.8609686 4288085770
1.2634354 -0.48528135 -1.8150871 4288085770
14.570641 -2.0887372 -1.9406654 4288085770
12.57412 -1.8597213 -1.9053962 4288085770
10.463348 -1.6044227 -1.8817469 4288085770
2.2314377 -0.61447608 -1.8367492 4288085770
7.8413849 -1.3163749 -1.9049031 4288085770
13.50959 -2.0421104 -1.933313 4288085770
1.1648636 -0.50196433 -1.8149906 4288085770
6.2154007 -1.143845 -1.8626935 4288085770
10.032944 -1.6403759 -1.8861188 4288085770
2.0908585 -0.63046753 -1.8335665 4288085770
12.143944 -1.9187584 -1.8959063 4288085770
7.4166489 -1.3172917 -1.9080768 4288085770
12.505493 -1.9901183 -1.9210392 4288085770
1.0743027 -0.51957989 -1.816915 4288085770
5.9749985 -1.1775116 -1.8624215 4288085770
7.0108871 -1.3150771 -1.9112684 4288085770
1.9562912 -0.64642411 -1.8293952 4288085770
9.6515427 -1.6769898 -1.8905897 4288085770
11.553383 -1.9357895 -1.9048523 4288085770
11.728767 -1.9766915 -1.8864386 4288085770
0.99073792 -0.5371412 -1.8198527 4288085770
6.621109 -1.3107635 -1.9124786 4288085770
10.837395 -1.9047146 -1.9082656 4288085770
1.840744 -0.6642248 -1.8292717 4288085770
5.7415924 -1.2091419 -1.8601506 4288085770
9.2701645 -1.7116156 -1.8930482 4288085770
15.360115 -2.5623648 -1.9360328 4288085770
6.1692734 -1.2939677 -1.8984923 4288085770
0.90719604 -0.55470836 -1.8217901 4288085770
11.453667 -2.0485842 -1.8893273 4288085770
10.158401 -1.8713952 -1.9097375 4288085770
1.7192001 -0.68108475 -1.8261309 4288085770
5.5592194 -1.2463713 -1.8660123 4288085770
5.7734299 -1.2807484 -1.8906368 4288085770
8.9407806 -1.7488693 -1.8976234 4288085770
14.625587 -2.5784352 -1.9376906 4288085770
9.5734482 -1.8453958 -1.9164368 4288085770
3.6432037 0.20046988 -1.819594 4288085770
4.8623123 0.19825247 -1.8180257 4288085770
3.4333649 0.18715021 -1.8240818 4288085770
4.5665131 0.18235245 -1.8172871 4288085770
3.1865768 0.17351201 -1.8144674 4288085770
4.3127213 0.1657559 -1.8226702 4288085770
2.9867706 0.16023287 -1.8149827 4288085770
4.04496 0.14902899 -1.8210146 4288085770
2.8149567 0.14715615 -1.8195755 4288085770
1.1689606 0.14757672 -1.8099562 4288085770
3.7752075 0.13226011 -1.8143538 4288085770
2.638176 0.13302961 -1.8211603 4288085770
1.2791977 0.13428351 -1.811341 4288085770
14.82074 0.076281756 -1.8856566 4288085770
3.5464325 0.11678872 -1.8138003 4288085770
2.4524002 0.11981639 -1.8177143 4288085770
1.3984299 0.12104818 -1.8127508 4288085770
13.719963 0.049303085 -1.896724 4288085770
3.3476562 0.10152683 -1.8163298 4288085770
2.2776337 0.10667375 -1.8142989 4288085770
12.601234 0.0241099 -1.8907305 4288085770
1.5036697 0.10768828 -1.808122 4288085770
3.1629028 0.085365921 -1.8209039 4288085770
2.1478577 0.092876822 -1.8210136 4288085770
11.606514 -0.00029420853 -1.8840801 4288085770
1.6348877 0.094541758 -1.8115648 4288085770
15.865234 -0.081011683 -1.8954889 4288085770
2.9631577 0.070068032 -1.8184305 4288085770
10.788773 -0.023523629 -1.8849194 4288085770
1.9681168 0.07966134 -1.8105843 4288085770
1.7790909 0.081484169 -1.8160437 4288085770
1.1571121 0.084507674 -1.8162814 4288085770
10.005051 -0.045564085 -1.8808472 4288085770
14.912537 -0.11895713 -1.9220346 4282675967
1.929306 0.067465276 -1.820545 4288085770
14.674591 -0.1185869 -1.9033647 4288085770
2.7944183 0.053997844 -1.8210489 4288085770
1.8263702 0.066741139 -1.8092601 4288085770
1.2653198 0.073179275 -1.8136494 4288085770
15.434029 -0.1588631 -1.8817253 4288085770
13.654732 -0.13303512 -1.9165869 4288085770
2.0785065 0.054423124 -1.8220378 4288085770
9.2803268 -0.066243887 -1.8739326 4288085770
1.3864975 0.061957628 -1.8150533 4288085770
2.6146851 0.038827866 -1.8186312 4288085770
13.492973 -0.15119097 -1.8962368 4288085770
1.6946259 0.052896231 -1.8099692 4288085770
12.660851 -0.14434537 -1.9248641 4282675967
2.2276993 0.041375101 -1.8225309 4288085770
14.284271 -0.18415144 -1.8936454 4288085770
1.5236664 0.050850242 -1.8185014 4288085770
8.6426239 -0.087360352 -1.8682643 4288085770
11.615997 -0.15010366 -1.9119656 4282675967
2.3878937 0.027397841 -1.8230598 4288085770
1.6468201 0.040624946 -1.8169049 4288085770
2.4549637 0.022803277 -1.8192742 4288085770
1.5738602 0.040127575 -1.8117028 4288085770
12.591324 -0.18491375 -1.9049009 4288085770
10.763092 -0.15455616 -1.9125985 4282675967
13.148552 -0.20544851 -1.8885815 4288085770
2.5740738 0.013610482 -1.8276608 4288085770
1.7819977 0.029476017 -1.8153476 4288085770
8.0669098 -0.10707381 -1.8637619 4288085770
9.8792191 -0.15530533 -1.8961229 4288085770
2.7502365 0.00073632598 -1.8282284 4288085770
1.9481354 0.018578231 -1.8228761 4288085770
2.2752609 0.0086043775 -1.8118505 4288085770
1.4531403 0.026347041 -1.8114424 4288085770
9.11129 -0.15428182 -1.8849623 4288085770
11.614708 -0.21323891 -1.8923231 4288085770
12.235832 -0.22925301 -1.8951575 4288085770
2.1012802 0.0075571239 -1.8233685 4288085770
2.9414139 -0.013036162 -1.8298435 4288085770
7.4732132 -0.12496647 -1.8481983 4288085770
8.4873428 -0.15328339 -1.883206 4288085770
2.2754059 -0.0033122599 -1.826919 4288085770
3.147583 -0.026711941 -1.8314999 4288085770
15.524635 -0.33907783 -1.9230134 4282675967
7.8094101 -0.14872277 -1.8652776 4288085770
2.4435349 -0.013237059 -1.8274473 4288085770
2.1435394 -0.0072238147 -1.8155711 4288085770
11.291138 -0.24936096 -1.8846221 4288085770
14.224609 -0.32739496 -1.9222995 4282675967
1.3344269 0.012573272 -1.8101875 4288085770
7.2534409 -0.14432251 -1.8576925 4288085770
3.3627548 -0.041330427 -1.833187 4288085770
10.806091 -0.24243556 -1.8892217 4288085770
2.6246567 -0.024072707 -1.8290174 4288085770
6.9715118 -0.14322349 -1.8408948 4288085770
6.7484741 -0.13958406 -1.8522485 4288085770
3.5779114 -0.053971231 -1.8308628 4288085770
13.084564 -0.31469744 -1.9200283 4288085770
2.8157578 -0.033843905 -1.8306094 4288085770
6.2924805 -0.13451952 -1.8489399 4288085770
3.0158691 -0.043563038 -1.8312263 4288085770
12.041519 -0.30039012 -1.91602 4288085770
3.8190689 -0.068422586 -1.8326219 4288085770
5.8564835 -0.12734947 -1.8416755 4288085770
3.2359695 -0.054136515 -1.8349043 4288085770
5.4614639 -0.12089914 -1.8375303 4288085770
10.492424 -0.26849848 -1.8804909 4288085770
4.0772018 -0.081758559 -1.8354224 4288085770
11.066483 -0.28568101 -1.9062002 4288085770
3.4570694 -0.063726842 -1.8345795 4288085770
2.0018234 -0.022144794 -1.8142581 4288085770
5.0914459 -0.11329466 -1.8324486 4288085770
1.2246857 -0.0001309216 -1.8109516 4288085770
3.6751556 -0.072352856 -1.8312404 4288085770
4.7744064 -0.10632071 -1.8325189 4288085770
3.9402237 -0.081637591 -1.8350374 4288085770
4.4853516 -0.098156065 -1.8346612 4288085770
4.2152863 -0.090863705 -1.837862 4288085770
10.175423 -0.26945063 -1.8936073 4288085770
4.3603287 -0.095934272 -1.8382978 4288085770
6.5388107 -0.16200945 -1.838788 4288085770
10.027473 -0.26748618 -1.8781804 4288085770
9.4103775 -0.25438392 -1.8863742 4288085770
4.6524582 -0.1100637 -1.8391982 4288085770
8.7453079 -0.24065265 -1.8834295 4288085770
4.9286118 -0.12333617 -1.8330487 4288085770
8.1082458 -0.22577058 -1.8755568 4288085770
5.2657242 -0.13717109 -1.8350738 4288085770
5.634819 -0.1507892 -1.8391875 4288085770
7.4891815 -0.20980214 -1.8627284 4288085770
6.963089 -0.19420835 -1.8551629 4288085770
6.0439148 -0.16513893 -1.8454175 4288085770
6.4900055 -0.18025747 -1.8507556 4288085770
9.7297363 -0.2874344 -1.8714591 4288085770
1.8621292 -0.037059307 -1.8119508 4288085770
6.1421127 -0.18057066 -1.8357809 4288085770
9.3338547 -0.29297486 -1.8703799 4288085770
15.826324 -0.51226741 -1.9078518 4288085770
9.0570602 -0.3057878 -1.8636763 4288085770
1.737442 -0.051865935 -1.8116847 4288085770
5.783432 -0.19987696 -1.8348845 4288085770
14.613655 -0.53503686 -1.90658 4288085770
8.7632217 -0.31863478 -1.8699254 4288085770
8.4823608 -0.32447839 -1.8621706 4288085770
15.355225 -0.60326207 -1.9140514 4288085770
1.6017456 -0.065772146 -1.8063827 4288085770
14.935104 -0.59185052 -1.9308076 4282675967
5.4207535 -0.21724366 -1.8279657 4288085770
13.553009 -0.55882603 -1.9067402 4288085770
8.2226105 -0.34312022 -1.8665483 4288085770
7.9756775 -0.34372789 -1.8618588 4288085770
5.1200714 -0.2351612 -1.830224 4288085770
1.5010605 -0.08140251 -1.8101888 4288085770
13.829475 -0.61495781 -1.9258378 4288085770
14.37384 -0.65457052 -1.9105914 4288085770
12.62838 -0.58274961 -1.9062825 4288085770
7.6720047 -0.36471587 -1.8551264 4288085770
7.4320221 -0.36027819 -1.8504274 4288085770
4.8034058 -0.25223893 -1.8224323 4288085770
1.3923874 -0.096107274 -1.809967 4288085770
12.858818 -0.63517594 -1.9252297 4288085770
11.685738 -0.60085773 -1.8937408 4288085770
7.2133789 -0.38668156 -1.8509645 4288085770
6.9853439 -0.37816051 -1.8472756 4288085770
13.603455 -0.70746303 -1.9187325 4288085770
4.5567245 -0.27079928 -1.8268458 4288085770
1.2796936 -0.10984918 -1.8077285 4288085770
11.909134 -0.64830589 -1.9166394 4288085770
10.902092 -0.6199066 -1.8886504 4288085770
6.5746765 -0.39581245 -1.8442237 4288085770
6.8067703 -0.40930283 -1.8489523 4288085770
4.3200607 -0.28930712 -1.8292868 4288085770
11.030396 -0.65500313 -1.9042114 4288085770
12.865067 -0.75718522 -1.9209449 4288085770
1.1880417 -0.12542808 -1.8105595 4288085770
6.2010269 -0.41421574 -1.8432797 4288085770
10.154465 -0.63775957 -1.877654 4288085770
6.4301529 -0.4317314 -1.847023 4288085770
4.0914078 -0.30776423 -1.8317499 4288085770
10.234665 -0.66115707 -1.894013 4288085770
12.061653 -0.7964108 -1.9079142 4288085770
5.8793716 -0.4332689 -1.8454854 4288085770
9.5388489 -0.65871507 -1.8760458 4288085770
6.0705643 -0.45405766 -1.8441408 4288085770
9.5129089 -0.6648308 -1.8850079 4288085770
3.8557663 -0.32430637 -1.8271824 4288085770
5.5507202 -0.45039544 -1.8426603 4288085770
8.8991089 -0.66877133 -1.8833075 4288085770
8.9812241 -0.67829829 -1.8745923 4288085770
11.363235 -0.83594036 -1.8991797 4288085770
5.7319641 -0.47426075 -1.8393049 4288085770
3.6461182 -0.34165922 -1.8266923 4288085770
15.505165 -1.1282181 -1.9454769 4288085770
8.3623123 -0.67219543 -1.8858199 4288085770
5.2410812 -0.46740645 -1.8388876 4288085770
8.4986267 -0.70138425 -1.8763691 4288085770
14.434219 -1.1140127 -1.95539 4282675967
5.4293671 -0.49521545 -1.8375748 4288085770
3.457489 -0.35987151 -1.827266 4288085770
10.710831 -0.87318671 -1.8885607 4288085770
7.7884903 -0.66893131 -1.8751901 4288085770
4.9734421 -0.48611948 -1.8402426 4288085770
13.385239 -1.0927296 -1.9543238 4282675967
7.290657 -0.66713953 -1.8717821 4288085770
7.995018 -0.71965069 -1.8700593 4288085770
3.27285 -0.37705839 -1.8278451 4288085770
5.1547775 -0.51698011 -1.8379275 4288085770
12.326256 -1.0645742 -1.9421899 4288085770
10.183418 -0.91357464 -1.8883107 4288085770
6.8128204 -0.66323131 -1.8664179 4288085770
4.698822 -0.50291216 -1.8355669 4288085770
15.409058 -1.3218873 -1.9423143 4288085770
7.5464172 -0.73756474 -1.8639016 4288085770
11.292244 -1.0303156 -1.9200908 4288085770
3.0982208 -0.39418709 -1.8274518 4288085770
4.9011841 -0.53860998 -1.8383385 4288085770
6.4029541 -0.65986353 -1.8652475 4288085770
4.4532013 -0.52049607 -1.8349768 4288085770
10.381241 -0.99826276 -1.8993497 4288085770
9.7139969 -0.95259637 -1.8872153 4288085770
6.0000839 -0.65446824 -1.8610853 4288085770
14.54657 -1.3543935 -1.9460787 4288085770
2.9395981 -0.4122023 -1.8291084 4288085770
7.1598358 -0.75904155 -1.8649385 4288085770
4.6746216 -0.56105536 -1.8408297 4288085770
9.6362457 -0.97407103 -1.8921195 4288085770
5.6172028 -0.64794457 -1.8569726 4288085770
9.0072632 -0.95410073 -1.8912394 4288085770
5.275322 -0.64214647 -1.854979 4288085770
9.2615891 -0.99051499 -1.885161 4288085770
13.709023 -1.3787618 -1.9458663 4288085770
6.7642441 -0.77662218 -1.8579273 4288085770
4.4630432 -0.58340496 -1.8433626 4288085770
8.4882889 -0.94036812 -1.9007037 4288085770
15.84951 -1.5891122 -1.9430773 4288085770
4.9434204 -0.6342957 -1.8510019 4288085770
7.8602829 -0.91247165 -1.8857805 4288085770
4.6455002 -0.62720346 -1.8511243 4288085770
6.441658 -0.79768312 -1.860141 4288085770
12.892448 -1.3950241 -1.9406664 4288085770
8.8621597 -1.0270826 -1.8852477 4288085770
4.2574615 -0.60471588 -1.8459059 4288085770
7.3352814 -0.89085782 -1.8811827 4288085770
4.371582 -0.61994582 -1.8533134 4288085770
14.913017 -1.6121733 -1.9325793 4288085770
6.8512726 -0.86799181 -1.8746926 4288085770
15.488594 -1.6904672 -1.9386427 4288085770
4.0926666 -0.61174959 -1.8504828 4288085770
6.1290817 -0.81769723 -1.8593769 4288085770
6.4172745 -0.84877723 -1.8733637 4288085770
12.061821 -1.4004167 -1.928364 4288085770
3.8377228 -0.60239291 -1.8487132 4288085770
4.0349121 -0.62418246 -1.8403909 4288085770
8.5297623 -1.0691924 -1.8905542 4288085770
6.0012512 -0.82746959 -1.8680735 4288085770
3.5907745 -0.59199607 -1.8449597 4288085770
14.190575 -1.6487769 -1.9377599 4288085770
5.607254 -0.80702102 -1.86285 4288085770
3.3698273 -0.58340406 -1.8462899 4288085770
5.8255157 -0.83667141 -1.8556318 4288085770
14.928459 -1.7621031 -1.9324785 4288085770
11.247147 -1.3987409 -1.9100661 4288085770
5.2542343 -0.78730357 -1.8587455 4288085770
3.8473434 -0.64438975 -1.8409785 4288085770
3.1458664 -0.5728541 -1.8436003 4288085770
8.1643524 -1.1045537 -1.888729 4288085770
4.9502182 -0.77123189 -1.8617998 4288085770
2.9608917 -0.56501931 -1.8470358 4288085770
13.4291 -1.6746995 -1.9307691 4288085770
4.6151886 -0.74942148 -1.8537339 4288085770
2.7689209 -0.55524659 -1.8474406 4288085770
5.5439606 -0.85649902 -1.8529532 4288085770
4.3261414 -0.73028207 -1.8518125 4288085770
2.5799408 -0.54446602 -1.8458478 4288085770
10.557472 -1.4002118 -1.9011371 4288085770
3.6707916 -0.66552722 -1.8416022 4288085770
14.461357 -1.838114 -1.9316005 4288085770
4.0681229 -0.71392632 -1.8529942 4288085770
2.3919525 -0.53269053 -1.8422525 4288085770
2.2259445 -0.52175617 -1.8417234 4288085770
3.7970886 -0.6946888 -1.8481228 4288085770
7.813942 -1.1378361 -1.8839339 4288085770
2.0619354 -0.5098207 -1.8391943 4288085770
3.5660477 -0.67817104 -1.8473794 4288085770
12.758652 -1.7030276 -1.9260472 4288085770
5.2823944 -0.87519217 -1.8513241 4288085770
1.8949432 -0.49791571 -1.834657 4288085770
3.3529892 -0.6615206 -1.8496859 4288085770
10.031822 -1.4125397 -1.9087306 4288085770
1.733902 -0.48397753 -1.8291248 4288085770
3.1339417 -0.64393717 -1.84697 4288085770
3.5122452 -0.68754369 -1.8432814 4288085770
1.599884 -0.47383198 -1.8296903 4288085770
2.9308929 -0.62724531 -1.8453043 4288085770
1.467865 -0.46267936 -1.8292558 4288085770
2.7408295 -0.61046451 -1.8446745 4288085770
1.3288193 -0.44959417 -1.8247904 4288085770
14.070251 -1.9166154 -1.9349496 4288085770
1.2017746 -0.43742031 -1.8223639 4288085770
2.5547638 -0.59366339 -1.8430558 4288085770
2.3696823 -0.5758729 -1.8384342 4288085770
7.5255508 -1.1756872 -1.8853389 4288085770
2.2076035 -0.55991179 -1.8378878 4288085770
2.0545197 -0.5438875 -1.8383664 4288085770
1.2259369 -0.4482635 -1.8234931 4288085770
1.8914337 -0.52596122 -1.8328059 4288085770
1.4611435 -0.47676909 -1.8223163 4288085770
1.3390503 -0.46254534 -1.8228923 4288085770
1.7423401 -0.50993365 -1.8292956 4288085770
1.5932541 -0.49291196 -1.8247796 4288085770
5.0698624 -0.89953756 -1.855865 4288085770
9.5091476 -1.4198714 -1.9123038 4288085770
12.126183 -1.7291235 -1.9194191 4288085770
3.3497009 -0.70759714 -1.8429379 4288085770
13.677132 -1.9901576 -1.9332644 4288085770
9.0234528 -1.4249656 -1.9159679 4288085770
7.277153 -1.215259 -1.8908659 4288085770
4.8503036 -0.9199506 -1.8563637 4288085770
15.637924 -2.2575071 -1.9572977 4288085770
11.469688 -1.7444367 -1.9016613 4288085770
3.2081604 -0.72949898 -1.8456639 4288085770
8.5357285 -1.4240954 -1.9155922 4288085770
4.6637802 -0.94412953 -1.8609765 4288085770
14.511879 -2.2057664 -1.9478389 4288085770
7.0767822 -1.2585002 -1.9005487 4288085770
13.29303 -2.0626485 -1.9305981 4288085770
3.0746384 -0.75234973 -1.8484178 4288085770
10.982269 -1.7775747 -1.9004802 4288085770
8.0639801 -1.4201341 -1.9132434 4288085770
13.530846 -2.1590786 -1.9418161 4288085770
4.4652481 -0.96541405 -1.8605388 4288085770
6.8553848 -1.2969047 -1.9051446 4288085770
2.9261169 -0.77133143 -1.8451072 4288085770
12.912872 -2.1291363 -1.9239085 4288085770
10.576874 -1.8151531 -1.9055548 4288085770
7.635231 -1.4168797 -1.9140193 4288085770
12.601807 -2.110069 -1.9339259 4288085770
4.2987213 -0.98846483 -1.8652011 4288085770
7.2624817 -1.4162433 -1.9189677 4288085770
2.8015976 -0.79313052 -1.8468802 4288085770
6.6530075 -1.3361875 -1.9097986 4288085770
11.724747 -2.0577543 -1.9211625 4288085770
10.183464 -1.8496771 -1.9066453 4288085770
12.614784 -2.2040589 -1.9244971 4288085770
4.1472168 -1.01342 -1.8699162 4288085770
6.8787079 -1.4107004 -1.9198568 4288085770
10.928726 -2.0109036 -1.9116577 4288085770
2.6870804 -0.81485987 -1.8496808 4288085770
6.4486389 -1.3744893 -1.9134413 4288085770
15.584579 -2.7390256 -1.9418908 4288085770
9.8220749 -1.8859963 -1.9078356 4288085770
6.531929 -1.4059088 -1.9228543 4282675967
12.313652 -2.2740238 -1.9210488 4288085770
10.283752 -1.9780217 -1.9136574 4288085770
3.9897003 -1.0364246 -1.8726033 4288085770
2.5755615 -0.83657569 -1.8514895 4288085770
6.1811218 -1.3971595 -1.9228175 4282675967
6.2522659 -1.411757 -1.9141003 4288085770
9.6767731 -1.9439019 -1.9147564 4288085770
14.933052 -2.7601573 -1.9501798 4288085770
9.4836884 -1.9221687 -1.9090896 4288085770
3.8442078 -1.0603477 -1.8763292 4288085770
12.048553 -2.3477464 -1.9197227 4288085770
5.8042984 -1.3806349 -1.9126632 4288085770
2.4620667 -0.85831082 -1.8522928 4288085770
9.1588364 -1.9181772 -1.9221535 4288085770
6.046875 -1.4450997 -1.9117115 4288085770
14.245476 -2.7685547 -1.9522946 4288085770
9.2003174 -1.962965 -1.9145246 4288085770
5.4574585 -1.3649 -1.9055974 4288085770
3.7087021 -1.084206 -1.8800828 4288085770
8.6498566 -1.8874226 -1.924547 4288085770
11.819473 -2.4242325 -1.9195132 4288085770
2.3395615 -0.87613219 -1.8480481 4288085770
5.1456223 -1.3509293 -1.9006404 4288085770
8.1828995 -1.8593936 -1.928074 4288085770
5.8635025 -1.4802901 -1.9113948 4288085770
13.597855 -2.7727008 -1.9534968 4288085770
8.894928 -1.9969372 -1.9138583 4288085770
3.584198 -1.1079937 -1.8838668 4288085770
4.8497772 -1.33685 -1.8967274 4288085770
7.7249222 -1.828318 -1.9296089 4288085770
2.241066 -0.89777106 -1.8488927 4288085770
11.494308 -2.4814086 -1.9059232 4288085770
12.868111 -2.7534411 -1.9423348 4288085770
5.6811142 -1.5134853 -1.9090695 4288085770
4.5819321 -1.3245687 -1.8969034 4288085770
7.2779312 -1.7951893 -1.9281628 4288085770
3.4817352 -1.1366185 -1.8917402 4288085770
8.6315842 -2.0366232 -1.9163425 4288085770
2.1535721 -0.92032754 -1.8517735 4288085770
4.3230743 -1.3112406 -1.8950988 4288085770
6.884964 -1.7666969 -1.9298949 4288085770
11.304222 -2.5576446 -1.9058216 4288085770
12.139336 -2.7261925 -1.9281292 4288085770
5.5137405 -1.5475849 -1.9067913 4288085770
3.3632507 -1.1603738 -1.8945408 4288085770
8.3792114 -2.07425 -1.9168456 4288085770
6.4919739 -1.7352217 -1.92861 4288085770
4.1052322 -1.3026096 -1.9004363 4288085770
2.0550766 -0.93997824 -1.8506064 4288085770
6.1419983 -1.7074478 -1.9314671 4288085770
3.8923721 -1.2929519 -1.9047818 4288085770
11.152168 -2.6396198 -1.9088594 4288085770
11.568642 -2.7178569 -1.927476 4288085770
3.2667694 -1.1869653 -1.9014192 4288085770
5.3543854 -1.5826275 -1.9055408 4288085770
8.1368637 -2.112807 -1.9183822 4288085770
5.7739868 -1.6728463 -1.9242343 4288085770
3.7055054 -1.2851045 -1.913211 4282675967
1.9575958 -0.95963407 -1.8474423 4288085770
10.975883 -2.6986959 -1.9206989 4288085770
5.4129791 -1.6362059 -1.9160095 4288085770
3.4836273 -1.2695502 -1.9094974 4282675967
11.024139 -2.724436 -1.9129804 4288085770
3.1592941 -1.2116507 -1.9042557 4288085770
5.1940155 -1.6156877 -1.9022762 4288085770
7.8975067 -2.1493683 -1.9159154 4288085770
5.0899811 -1.6043043 -1.9109187 4288085770
3.2937469 -1.2577565 -1.9118954 4282675967
1.8671112 -0.97923338 -1.8462974 4288085770
10.444145 -2.6831155 -1.9191133 4288085770
4.8149872 -1.5780604 -1.9119951 4288085770
3.0968399 -1.24203 -1.9102511 4282675967
3.0698471 -1.2392037 -1.910159 4282675967
10.881081 -2.8043714 -1.9130313 4288085770
5.0666733 -1.6535083 -1.9041313 4288085770
4.5420074 -1.5508211 -1.9100716 4288085770
7.6801529 -2.1867769 -1.9155152 4288085770
1.7846298 -0.99977589 -1.8461802 4288085770
2.916954 -1.2291776 -1.9116713 4282675967
9.9443741 -2.6663239 -1.9186109 4288085770
4.2950211 -1.5263919 -1.912237 4288085770
2.7500458 -1.216236 -1.9141271 4282675967
2.9703674 -1.2628434 -1.912012 4282675967
10.774055 -2.8900526 -1.9172161 4288085770
4.0870438 -1.506678 -1.9205393 4288085770
4.9343262 -1.6893779 -1.902961 4288085770
2.5891342 -1.2032552 -1.9165999 4282675967
1.6941528 -1.0183928 -1.8420295 4288085770
7.4918365 -2.227988 -1.9172182 4288085770
9.4686127 -2.6493843 -1.9171748 4288085770
3.8720627 -1.4850376 -1.9238107 4282675967
2.413208 -1.1854168 -1.9110026 4282675967
2.8779144 -1.288433 -1.9148954 4282675967
3.6380463 -1.4565589 -1.9199897 4282675967
2.2082672 -1.160816 -1.8962849 4288085770
10.657036 -2.9738269 -1.9163615 4288085770
4.8309784 -1.7290329 -1.9068938 4288085770
9.0178299 -2.6302786 -1.9167967 4288085770
16.061539 -4.1460228 -1.9762312 4288085770
1.6197052 -1.040879 -1.8429459 4288085770
3.4250412 -1.4309342 -1.9182438 4282675967
7.337532 -2.2749588 -1.9230493 4288085770
2.0283203 -1.1390318 -1.8856539 4288085770
3.2370453 -1.4091201 -1.9215902 4282675967
2.7794571 -1.3120782 -1.9147508 4282675967
1.8503723 -1.1162398 -1.8740225 4288085770
15.109238 -4.0491271 -1.9739999 4288085770
3.0500488 -1.386317 -1.9219337 4282675967
8.58004 -2.6090951 -1.9154428 4288085770
10.579033 -3.063328 -1.9196491 4288085770
1.5402298 -1.0604197 -1.8398312 4288085770
4.7076263 -1.7638508 -1.9047426 4288085770
1.6734085 -1.0924531 -1.8603882 4288085770
7.1531982 -2.3131616 -1.9217459 4288085770
2.8720398 -1.3634503 -1.9233022 4282675967
1.5264587 -1.0734283 -1.8548657 4288085770
2.6789932 -1.3337479 -1.9125893 4282675967
2.7080231 -1.3414935 -1.9247152 4282675967
14.23597 -3.9577196 -1.973022 4288085770
8.140213 -2.5819476 -1.9100494 4288085770
1.3935089 -1.0573021 -1.8513991 4288085770
2.519989 -1.3137307 -1.9190274 4282675967
1.4787674 -1.0828106 -1.8427835 4288085770
10.521065 -3.1576893 -1.9250203 4288085770
4.6093063 -1.8034854 -1.9066893 4288085770
6.997879 -2.3561616 -1.9235513 4288085770
1.2475357 -1.0362986 -1.840868 4288085770
2.3549881 -1.2908036 -1.916432 4282675967
2.5955429 -1.3582914 -1.913492 4282675967
13.378677 -3.8602388 -1.9670541 4288085770
2.1679382 -1.2600683 -1.9047303 4282675967
7.7854385 -2.5681975 -1.9149716 4288085770
1.9938965 -1.2312382 -1.8950758 4288085770
1.405304 -1.1023133 -1.8396852 4288085770
1.8138504 -1.2004753 -1.8803935 4288085770
4.4939575 -1.8372636 -1.9025542 4288085770
10.466087 -3.2510431 -1.9283944 4288085770
6.8265457 -2.3922982 -1.9192722 4288085770
12.585403 -3.7673471 -1.9612923 4288085770
1.6377945 -1.1686863 -1.8657166 4288085770
7.3935928 -2.5407305 -1.911711 4288085770
2.5110931 -1.3818471 -1.9133859 4282675967
1.4857407 -1.1417207 -1.8551346 4288085770
1.3557053 -1.1195793 -1.8506422 4288085770
1.2376556 -1.0983435 -1.8491888 4288085770
1.3498535 -1.1256659 -1.8426597 4288085770
11.830116 -3.6722286 -1.9526249 4288085770
7.0718155 -2.5257683 -1.9167188 4288085770
4.4046249 -1.8758407 -1.9045196 4288085770
6.66922 -2.4313343 -1.9170492 4288085770
10.423141 -3.3483207 -1.9318241 4288085770
2.4236526 -1.4044336 -1.911266 4282675967
11.144875 -3.58565 -1.9462026 4288085770
6.7319717 -2.5009508 -1.9166197 4288085770
1.2843933 -1.1461058 -1.8415893 4288085770
4.321312 -1.9163795 -1.9065132 4288085770
6.500885 -2.4664576 -1.9117725 4288085770
10.388199 -3.4475462 -1.9352871 4288085770
2.3381882 -1.4260074 -1.9091456 4282675967
10.520683 -3.5076635 -1.943001 4288085770
6.4181519 -2.4799604 -1.9176155 4288085770
1.2259445 -1.1675009 -1.8405437 4288085770
4.2389908 -1.9559232 -1.9065038 4288085770
6.3515701 -2.5044594 -1.9065655 4288085770
9.926506 -3.4314845 -1.9398942 4288085770
10.368309 -3.5506761 -1.9388146 4288085770
2.253746 -1.4475861 -1.905028 4288085770
6.084259 -2.4481268 -1.9134929 4288085770
1.1885223 -1.1947157 -1.8475908 4288085770
9.3462982 -3.351233 -1.9338033 4288085770
5.767395 -2.4191787 -1.9104347 4288085770
4.1636887 -1.9964107 -1.9085191 4288085770
6.2142487 -2.5433726 -1.9033974 4288085770
2.1652908 -1.4671963 -1.8998882 4288085770
10.357407 -3.6557481 -1.942378 4288085770
8.8091202 -3.2747054 -1.9278547 4288085770
5.4635239 -2.389153 -1.9064068 4288085770
4.1093903 -2.0417461 -1.9136212 4288085770
2.0858536 -1.4887434 -1.895784 4288085770
6.0919571 -2.5851846 -1.901288 4288085770
10.34449 -3.7588441 -1.9439247 4288085770
8.3159485 -3.2028959 -1.9220567 4288085770
5.219696 -2.3706906 -1.9116137 4288085770
7.86483 -3.1387997 -1.9194207 4288085770
2.0144043 -1.5102332 -1.8927026 4288085770
5.9946747 -2.6318185 -1.9022763 4288085770
4.0370941 -2.0822265 -1.9136448 4288085770
4.9768448 -2.3502331 -1.9148121 4288085770
10.367661 -3.8736928 -1.9486393 4288085770
7.4467239 -3.0784807 -1.9188993 4288085770
4.7119522 -2.3199511 -1.9118925 4288085770
1.9329605 -1.5298046 -1.8865815 4288085770
5.8893967 -2.6755214 -1.9002252 4288085770
3.9757919 -2.1246243 -1.9157101 4288085770
7.0426331 -3.0180895 -1.915417 4288085770
10.378807 -3.9856293 -1.9513031 4288085770
4.4540558 -2.2886353 -1.9069865 4288085770
16.04763 -5.6986141 -1.7619829 4293729569
6.6825638 -2.9653871 -1.9171019 4288085770
1.8765182 -1.5541809 -1.8865585 4288085770
5.812149 -2.727016 -1.9032971 4288085770
3.9094925 -2.1650715 -1.9147503 4288085770
4.2211761 -2.2621367 -1.9061782 4288085770
10.396973 -4.1005263 -1.9530034 4288085770
6.312439 -2.9047825 -1.9127139 4288085770
14.560524 -5.404882 -1.6281222 4293729569
4.0133133 -2.2404549 -1.9094682 4288085770
1.8070755 -1.5746692 -1.8814765 4288085770
5.7198792 -2.7726355 -1.901293 4288085770
5.9793701 -2.8519244 -1.9114741 4288085770
3.8191605 -2.1977067 -1.907678 4288085770
10.426163 -4.2183537 -1.9547513 4288085770
3.7974167 -2.2128522 -1.9077017 4288085770
5.661293 -2.7989695 -1.9102759 4288085770
14.285408 -5.4618287 -1.5986665 4293729569
1.7516479 -1.5990452 -1.8804559 4288085770
5.6526413 -2.8250718 -1.9033984 4288085770
3.6205521 -2.1949539 -1.9141004 4288085770
14.703545 -5.6537418 -0.97791886 4293729569
3.755867 -2.2381408 -1.9057262 4288085770
14.641998 -5.6482592 -0.08569593 4293729569
10.472397 -4.3430662 -1.9575857 4288085770
5.3652267 -2.7498677 -1.9101617 4288085770
14.206612 -5.5774388 -1.5840967 4293729569
1.6962204 -1.6224267 -1.8784298 4288085770
3.4516983 -2.1780045 -1.9205267 4288085770
14.309914 -5.6357188 -0.55069661 4293729569
5.08918 -2.7036378 -1.9101201 4288085770
14.482254 -5.7189455 -1.017663 4293729569
5.5994339 -2.8814125 -1.9065652 4288085770
14.494812 -5.7339482 -0.13276513 4293729569
3.6995544 -2.2785237 -1.9047936 4288085770
10.550682 -4.4785566 -1.9635717 4288085770
3.2687988 -2.1531789 -1.9208689 4288085770
4.7980728 -2.6485376 -1.903986 4288085770
1.6467819 -1.6467643 -1.8774259 4288085770
14.165894 -5.7038002 -1.570695 4293729569
14.225105 -5.7375784 -0.49903113 4293729569
3.0919113 -2.1293147 -1.9212335 4288085770
4.5390244 -2.60221 -1.9019916 4288085770
14.453331 -5.8448453 -1.0712931 4293729569
14.45385 -5.8529401 -0.18332224 4293729569
5.5312042 -2.9328668 -1.9066616 4288085770
3.6472702 -2.3208811 -1.9038836 4288085770
10.622971 -4.6141019 -1.9665406 4288085770
4.3150101 -2.5646238 -1.9061457 4288085770
2.9380264 -2.1102803 -1.9256904 4288085770
1.5823593 -1.6672325 -1.8703574 4288085770
14.203415 -5.8580384 -0.44664872 4293729569
14.144218 -5.8360391 -1.5573798 4293729569
14.569664 -6.0167689 -1.1335936 4293729569
4.0929794 -2.5240412 -1.9072884 4288085770
5.4919891 -2.9921067 -1.911884 4288085770
2.7620926 -2.0814261 -1.9230294 4288085770
3.6019974 -2.3651881 -1.9040041 4288085770
10.752365 -4.7682476 -1.9757761 4288085770
1.5389175 -1.6915312 -1.8693702 4288085770
3.8759232 -2.4824381 -1.9064394 4288085770
14.503273 -6.0966768 -1.5748658 4293729569
2.5941772 -2.0545211 -1.9204019 4288085770
5.4297485 -3.0425336 -1.9099914 4288085770
3.6749191 -2.4457152 -1.9086633 4288085770
3.5597 -2.4084756 -1.9041274 4288085770
10.84774 -4.9146461 -1.9788711 4288085770
2.4372482 -2.0285342 -1.9198108 4288085770
1.4934921 -1.7158487 -1.867377 4288085770
3.4798889 -2.4079597 -1.909898 4288085770
2.2883377 -2.0044956 -1.9192532 4288085770
5.3875427 -3.1008096 -1.9121995 4288085770
3.2888565 -2.3691895 -1.9091386 4288085770
3.5294418 -2.4566748 -1.9063121 4288085770
10.62851 -4.952291 -1.9394623 4288085770
2.1293869 -1.9745498 -1.9136338 4288085770
1.4620667 -1.7440476 -1.8704456 4288085770
3.1218414 -2.3372369 -1.9134854 4288085770
1.9774475 -1.9455531 -1.9090395 4288085770
5.3413391 -3.1561286 -1.9113795 4288085770
2.9548187 -2.3032956 -1.9158208 4288085770
3.4831619 -2.4990051 -1.9034183 4288085770
10.34613 -4.9623966 -1.8897191 4293729569
1.8264847 -1.9145666 -1.9014367 4288085770
1.429657 -1.7722647 -1.8715115 4288085770
2.8098145 -2.2751899 -1.9222518 4288085770
1.667511 -1.8796489 -1.8907892 4288085770
2.6447754 -2.2382641 -1.9195757 4288085770
5.3191452 -3.2192647 -1.9156715 4288085770
3.4498749 -2.544235 -1.9035777 4288085770
10.215034 -5.0244312 -1.8586967 4293729569
1.3822098 -1.7936177 -1.8654957 4288085770
1.5285416 -1.8495798 -1.8842254 4288085770
2.4887314 -2.203269 -1.9189363 4288085770
2.3437119 -2.1711919 -1.9203446 4288085770
1.41362 -1.8283226 -1.8837794 4288085770
5.2969742 -3.2824066 -1.9189634 4288085770
10.106964 -5.0923014 -1.8307722 4293729569
3.4216156 -2.5914326 -1.903762 4288085770
2.1746216 -2.1273255 -1.911618 4288085770
1.3557968 -1.8227849 -1.8685837 4288085770
1.2776489 -1.7972459 -1.8752185 4288085770
2.0105438 -2.0844383 -1.9009111 4288085770
1.182724 -1.7798314 -1.8798509 4288085770
1.8734818 -2.0493319 -1.8983246 4288085770
5.2637863 -3.3416424 -1.9182018 4288085770
10.103096 -5.1974421 -1.8143525 4293729569
3.3853378 -2.6356936 -1.9019071 4288085770
1.3283615 -1.8499751 -1.8686575 4288085770
1.7384338 -2.0152245 -1.8937494 4288085770
1.6023636 -1.9781288 -1.8881545 4288085770
5.240593 -3.4038017 -1.9194851 4288085770
1.4823074 -1.9459133 -1.8856324 4288085770
10.254578 -5.3644862 -1.8167217 4293729569
1.2959442 -1.876209 -1.8667117 4288085770
3.3640671 -2.683846 -1.9021165 4288085770
1.3592453 -1.911734 -1.8800907 4288085770
1.243187 -1.8795097 -1.87458 4288085770
5.2264404 -3.4698982 -1.9218159 4288085770
1.1391296 -1.8501854 -1.8731196 4288085770
10.412086 -5.5354977 -1.81813 4293729569
1.272522 -1.9053679 -1.8678077 4288085770
3.3578491 -2.7398798 -1.906413 4288085770
1.244072 -1.9305756 -1.8658675 4288085770
5.2182846 -3.5379558 -1.9241747 4288085770
10.671844 -5.7497988 -1.8300718 4293729569
3.3245544 -2.7831321 -1.9025606 4288085770
1.2236481 -1.9597155 -1.866972 4288085770
5.2111359 -3.6060131 -1.925536 4288085770
10.895546 -5.9543643 -1.8358564 4293729569
3.3072968 -2.8332591 -1.9027921 4288085770
1.2052307 -1.9898424 -1.8680875 4288085770
5.1999817 -3.6731017 -1.9258807 4288085770
11.379898 -6.2711039 -1.8710114 4293729569
