# .PCD v0.7 - Point Cloud Data file format
VERSION 0.7
FIELDS x y z rgb
SIZE 4 4 4 4
TYPE F F F U
COUNT 1 1 1 1
WIDTH 1112
HEIGHT 1
VIEWPOINT 0 0 0 1 0 0 0
POINTS 1112
DATA ascii
4.2277832 7.0864592 -1.7392371 4288085770
4.7582092 7.3522844 -1.7468092 4288085770
5.2462463 7.5859251 -1.7419652 4288085770
5.8795166 7.8992949 -1.7515594 4288085770
6.5247192 8.2097445 -1.7566627 4288085770
13.275116 -3.1355162 -2.1316011 4288085770
11.570251 -2.9423337 -2.0439181 4288085770
10.101196 -2.772933 -1.9686582 4288085770
8.8942871 -2.6361971 -1.9117349 4288085770
8.0935974 -2.5664282 -1.8932354 4288085770
7.4074097 -2.5080748 -1.8830882 4288085770
6.7400818 -2.4466038 -1.8681906 4288085770
6.1791992 -2.3985939 -1.8619604 4288085770
5.6907654 -2.3622227 -1.8627772 4288085770
5.19104 -2.3168907 -1.8580756 4288085770
13.497284 -4.1576257 -2.1851127 4288085770
4.7344055 -2.2743273 -1.8536288 4288085770
11.327362 -3.7657857 -2.0588412 4288085770
4.2876587 -2.2297077 -1.8477882 4288085770
9.7695618 -3.4948444 -1.9805156 4288085770
3.8780823 -2.1888962 -1.8444393 4288085770
8.5100708 -3.2783809 -1.9219908 4288085770
3.5147705 -2.1548538 -1.8452055 4288085770
7.6912231 -3.153717 -1.9064213 4288085770
3.1471252 -2.1138115 -1.8401647 4288085770
6.9807434 -3.0464907 -1.8954269 4288085770
2.7885132 -2.0727205 -1.8347614 4288085770
6.3223572 -2.9449873 -1.8853133 4288085770
2.4862976 -2.0403519 -1.836061 4288085770
5.7503662 -2.8590412 -1.880668 4288085770
2.1788635 -2.0049963 -1.8335767 4288085770
5.1911926 -2.7700138 -1.8725133 4288085770
1.8783875 -1.9665976 -1.829823 4288085770
4.6882935 -2.6906986 -1.8680604 4288085770
1.5797729 -1.9261799 -1.8229983 4288085770
4.215332 -2.6132174 -1.8623917 4288085770
1.3022461 -1.8876553 -1.8183181 4288085770
3.7886047 -2.5434961 -1.8588369 4288085770
1.0761414 -1.8608856 -1.8215302 4288085770
3.3848572 -2.4766531 -1.8553438 4288085770
0.84997559 -1.8311081 -1.8227555 4288085770
2.9950867 -2.4087296 -1.8502913 4288085770
0.60440063 -1.7934036 -1.8157833 4288085770
2.6374207 -2.3456354 -1.8459295 4288085770
0.40026855 -1.7655087 -1.8171141 4288085770
2.3088989 -2.2883959 -1.8443742 4288085770
0.21832275 -1.7415104 -1.8225399 4288085770
1.979187 -2.2271481 -1.8388771 4288085770
0.022033691 -1.7115612 -1.8205584 4288085770
1.6533203 -2.1638632 -1.82923 4288085770
-0.16213989 -1.6825562 -1.8210872 4288085770
1.3444519 -2.1024885 -1.8198898 4288085770
-0.33016968 -1.6564741 -1.8239582 4288085770
1.0739136 -2.0489302 -1.8159833 4288085770
-0.49932861 -1.6283846 -1.8238795 4288085770
0.80825806 -1.9943352 -1.8098807 4288085770
-0.66253662 -1.5992613 -1.8225634 4288085770
0.60925293 -1.9584274 -1.8150365 4288085770
-0.82171631 -1.5711174 -1.8220818 4288085770
0.38787842 -1.9126148 -1.8141224 4288085770
-0.97088623 -1.5449228 -1.8221891 4288085770
0.19775391 -1.87465 -1.8169254 4288085770
-1.1140442 -1.5176945 -1.8220588 4288085770
0.00048828125 -1.8337097 -1.8160247 4288085770
-0.19189453 -1.7907381 -1.8139315 4288085770
-0.35693359 -1.7566423 -1.8177109 4288085770
-0.52722168 -1.717556 -1.8167148 4288085770
-0.67825317 -1.6833868 -1.8209292 4288085770
-0.83444214 -1.6472273 -1.8203568 4288085770
-0.98065186 -1.6110163 -1.8203813 4288085770
-1.1239014 -1.5757847 -1.8192815 4288085770
-1.2489014 -1.5454721 -1.8224341 4288085770
-1.4519348 0.59209728 -1.7517593 4288085770
-1.3157043 0.60781002 -1.7543342 4288085770
-1.1815796 0.62252522 -1.7529887 4288085770
-1.0333252 0.63730621 -1.7550766 4288085770
-0.89224243 0.6520586 -1.7534498 4288085770
-0.72695923 0.66792583 -1.755856 4288085770
-0.56387329 0.68379974 -1.7543464 4288085770
-0.38864136 0.69872284 -1.7553474 4288085770
-1.4411926 0.67208862 -1.7576599 4288085770
-0.19836426 0.71573067 -1.7567511 4288085770
-1.3040771 0.68482208 -1.7561865 4288085770
-0.0052490234 0.73176193 -1.7550328 4288085770
-1.1700745 0.69654465 -1.7528319 4288085770
0.23526001 0.74901295 -1.7624167 4288085770
-0.99456787 0.71044922 -1.7598239 4288085770
0.45141602 0.7661705 -1.7607754 4288085770
-0.83947754 0.7222805 -1.7576219 4288085770
0.67346191 0.78236485 -1.7568905 4288085770
-0.67230225 0.73516941 -1.7569394 4288085770
0.92169189 0.79968548 -1.7569584 4288085770
-0.46578979 0.74923801 -1.7646817 4288085770
1.1747742 0.81704712 -1.7528282 4288085770
-0.26950073 0.76227283 -1.7668282 4288085770
1.4620667 0.83457279 -1.7533244 4288085770
-0.058166504 0.77538776 -1.7693696 4288085770
1.7602539 0.85316849 -1.7513829 4288085770
0.1116333 0.78532505 -1.7595623 4288085770
2.1107178 0.87401867 -1.7553488 4288085770
0.32980347 0.79849243 -1.7578255 4288085770
2.4670105 0.89391708 -1.7550731 4288085770
0.57922363 0.81180477 -1.7608355 4288085770
2.8785706 0.91608715 -1.7605835 4288085770
0.80831909 0.82303429 -1.7576492 4288085770
3.2788391 0.9372263 -1.7585403 4288085770
1.0725098 0.83644581 -1.7560589 4288085770
3.7694397 0.96182156 -1.7638755 4288085770
1.3528137 0.84893894 -1.7558187 4288085770
4.2830505 0.98654175 -1.7682848 4288085770
1.6560974 0.86155319 -1.7556521 4288085770
4.8505859 1.012558 -1.7705238 4288085770
1.9794312 0.87527275 -1.7556829 4288085770
5.459137 1.0387955 -1.7721115 4288085770
2.3388062 0.889184 -1.7562628 4288085770
6.1869812 1.0696487 -1.7799141 4288085770
2.7483521 0.90434837 -1.7608287 4288085770
6.9105225 1.0985088 -1.778878 4288085770
3.1637878 0.91855621 -1.7621521 4288085770
7.8809204 1.1386213 -1.7959521 4288085770
3.6343994 0.93404579 -1.7662601 4288085770
8.9814148 1.1814241 -1.8137952 4288085770
4.1540222 0.94979954 -1.7703947 4288085770
10.976593 1.2677078 -1.9098196 4288085770
4.7046509 0.96572495 -1.7732807 4288085770
13.172455 1.3571062 -1.9947619 4288085770
5.3193359 0.98198414 -1.7775867 4288085770
6.0152283 1.0006704 -1.7836353 4288085770
6.7871399 1.0187597 -1.7906172 4288085770
7.6109619 1.0361404 -1.7935036 4288085770
8.6163025 1.059453 -1.8061078 4288085770
10.526489 1.1162882 -1.9004503 4288085770
12.614502 1.1721039 -1.9866203 4288085770
2.8441467 -4.368412 -0.447429 4293729569
3.0440674 -4.3914948 -0.48434281 4293729569
3.2168579 -4.4007182 -0.52039731 4293729569
3.5953979 -4.4239893 -0.59216046 4293729569
3.7811279 -4.4301419 -0.62770426 4293729569
4.0080566 -4.4500842 -0.66554296 4293729569
4.3753357 -4.441401 -0.73387456 4293729569
4.6383057 -4.4661546 -0.77224582 4293729569
4.8751831 -4.476038 -0.80872214 4293729569
5.6206055 -4.4954963 -0.91578382 4293729569
5.9708862 -4.5327997 -0.95760298 4293729569
6.2477112 -4.5384684 -0.99348634 4293729569
6.5375061 -4.5430684 -1.0288515 4293729569
6.864502 -4.5574784 -1.0666876 4293729569
7.143158 -4.550127 -1.0995433 4293729569
7.5524902 -4.5831165 -1.1420045 4293729569
7.9597473 -4.6091113 -1.1825747 4293729569
8.3347778 -4.619266 -1.2204958 4293729569
8.7729492 -4.6410947 -1.2608347 4293729569
9.2745056 -4.6786032 -1.3055748 4293729569
9.6462097 -4.6687579 -1.3386979 4293729569
10.294403 -4.7365208 -1.3924389 4293729569
10.843933 -4.7667704 -1.4362762 4293729569
11.342987 -4.7742667 -1.4742182 4293729569
12.096405 -4.8414822 -1.5307341 4293729569
12.723938 -4.8663168 -1.5744536 4293729569
13.336243 -4.8792195 -1.6148257 4293729569
13.362427 1.796092 -1.695295 4293729569
12.837128 1.858077 -1.7536278 4293729569
13.131897 1.9370632 -0.85237968 4293729569
12.901978 1.9630156 -1.8595088 4293729569
11.06897 1.8640823 -0.85778928 4293729569
13.042114 2.0763254 -1.972409 4288085770
11.023987 1.951519 -0.9419902 4293729569
10.365936 1.9327641 -1.7999876 4293729569
10.756287 2.0188313 -1.0110278 4293729569
9.914856 1.9792318 -1.8352697 4288085770
10.199768 2.0556803 -1.0615115 4293729569
8.8085938 1.9555092 -1.7944863 4288085770
9.8686218 2.1116972 -1.1190406 4293729569
8.1068115 1.9638004 -1.7876389 4288085770
9.8642883 2.200386 -1.1946082 4293729569
7.454071 1.9713564 -1.7808231 4288085770
9.7526245 2.2785292 -1.2624321 4293729569
6.853302 1.9791965 -1.7719239 4288085770
9.5605164 2.3462839 -1.3204318 4293729569
6.3156738 1.9893618 -1.7655047 4288085770
9.507843 2.4317436 -1.3879174 4293729569
5.8230591 1.9987688 -1.7582792 4288085770
9.466156 2.5182657 -1.4549669 4293729569
5.4057617 2.0155487 -1.7580689 4288085770
9.4625244 2.6109762 -1.5245144 4293729569
5.0003357 2.0294046 -1.7543685 4288085770
9.5372009 2.7150841 -1.5999732 4293729569
4.6269531 2.0444288 -1.751388 4288085770
9.6107788 2.8231869 -1.6744884 4293729569
4.2786255 2.0585842 -1.748402 4288085770
10.095032 2.9963083 -1.7918208 4288085770
3.9803772 2.0779963 -1.7484287 4288085770
9.3129883 2.9692154 -1.77505 4288085770
3.696106 2.0964851 -1.7478911 4288085770
8.6261902 2.9516077 -1.7635019 4288085770
3.4460144 2.1191435 -1.7500032 4288085770
8.0918579 2.9527664 -1.7629223 4288085770
3.179718 2.1357393 -1.7467381 4288085770
7.5130615 2.9397373 -1.7500618 4288085770
2.9475403 2.1564989 -1.7471225 4288085770
7.0687866 2.9463749 -1.7498934 4288085770
2.7132874 2.1742592 -1.7445776 4288085770
6.6203003 2.9470072 -1.7448663 4288085770
2.4637756 2.1869631 -1.73562 4288085770
6.2119141 2.9518528 -1.7402506 4288085770
2.2635803 2.2069006 -1.7347186 4288085770
5.8766785 2.9660625 -1.7407403 4288085770
2.0663452 2.2258596 -1.7316949 4288085770
5.5604858 2.982378 -1.7414751 4288085770
1.9052429 2.2499924 -1.7332442 4288085770
5.242218 2.992692 -1.7392696 4288085770
1.7219238 2.2670374 -1.727653 4288085770
4.9188232 2.9999924 -1.7332555 4288085770
1.5708008 2.2912292 -1.7278024 4288085770
4.6505432 3.0155716 -1.7310653 4288085770
1.4115295 2.3103914 -1.7242559 4288085770
4.3841858 3.0301695 -1.7267926 4288085770
1.2723694 2.3336544 -1.7229211 4288085770
4.1530457 3.0499363 -1.7271321 4288085770
1.1341553 2.3559256 -1.7205434 4288085770
3.9387817 3.0698032 -1.7247932 4288085770
1.0301208 2.3843594 -1.7228227 4288085770
3.7225037 3.0886612 -1.7215306 4288085770
0.91906738 2.4117632 -1.7233794 4288085770
3.5403442 3.1136894 -1.7219259 4288085770
0.79782104 2.4341259 -1.7203207 4288085770
3.3500671 3.1336851 -1.7186249 4288085770
0.69772339 2.4615889 -1.720437 4288085770
3.191925 3.1618395 -1.7190697 4288085770
0.59857178 2.488061 -1.7195102 4288085770
3.0166016 3.1829214 -1.7141728 4288085770
0.51348877 2.517602 -1.7200328 4288085770
2.8613586 3.2081041 -1.711488 4288085770
0.43643188 2.5491848 -1.7212421 4288085770
2.723175 3.2373705 -1.7101364 4288085770
0.36236572 2.5807819 -1.722331 4288085770
2.6030273 3.2687273 -1.7100701 4288085770
0.28723145 2.6113815 -1.7214576 4288085770
2.481781 3.3000879 -1.7080451 4288085770
0.20904541 2.6409683 -1.7197009 4288085770
2.3937073 3.3406048 -1.7107289 4288085770
0.14697266 2.674633 -1.720317 4288085770
2.2835388 3.3730221 -1.7092663 4288085770
0.073791504 2.7022514 -1.7173535 4288085770
2.2114563 3.416626 -1.7113208 4288085770
0.024719238 2.7389765 -1.7194591 4288085770
2.1081543 3.4480867 -1.7075758 4288085770
-0.014282227 2.7777548 -1.7221707 4288085770
2.026947 3.4866533 -1.7069737 4288085770
-0.076538086 2.8084354 -1.717779 4288085770
1.9457092 3.5242281 -1.7043692 4288085770
-0.11157227 2.8482361 -1.7203344 4288085770
1.8916321 3.5709324 -1.7057142 4288085770
-0.18191528 2.8738832 -1.7132461 4288085770
1.8495483 3.6216936 -1.7085927 4288085770
-0.20996094 2.9157228 -1.7155287 4288085770
1.7872925 3.6633663 -1.7062418 4288085770
-0.22494507 2.9616232 -1.7193048 4288085770
1.7531738 3.7161751 -1.7078084 4288085770
-0.26611328 2.9984112 -1.7170928 4288085770
1.7119751 3.7669525 -1.7076491 4288085770
-0.27212524 3.048357 -1.721523 4288085770
1.6817932 3.8207865 -1.70806 4288085770
-0.30838013 3.086174 -1.7181154 4288085770
1.6556091 3.8756409 -1.7083147 4288085770
-0.31542969 3.1351213 -1.7205836 4288085770
1.6344299 3.9335241 -1.7083807 4288085770
-0.32647705 3.1840506 -1.7222124 4288085770
1.6272278 3.9964752 -1.7099038 4288085770
-0.34875488 3.2259398 -1.7192591 4288085770
1.617981 4.0584259 -1.7095046 4288085770
-0.36190796 3.2728701 -1.7179627 4288085770
1.6168213 4.1244087 -1.710799 4288085770
-0.38726807 3.3127537 -1.7121238 4288085770
1.5934448 4.1792984 -1.7059375 4288085770
-0.34906006 3.3829126 -1.7228626 4288085770
1.5971069 4.2463217 -1.7040379 4288085770
-0.37548828 3.4217978 -1.715062 4288085770
1.6249695 4.3254519 -1.707219 4288085770
-0.34347534 3.4889402 -1.7210337 4288085770
1.6426697 4.3995447 -1.7067845 4288085770
-0.32662964 3.5500193 -1.7225871 4288085770
1.6723633 4.4806967 -1.7068955 4288085770
-0.32388306 3.6030407 -1.7196743 4288085770
1.7182007 4.5689278 -1.7093903 4288085770
-0.31518555 3.6580935 -1.7165287 4288085770
1.7619019 4.6571493 -1.7109662 4288085770
-0.30853271 3.7131386 -1.7124643 4288085770
1.7884216 4.7353029 -1.7061901 4288085770
-0.2746582 3.7813091 -1.714363 4288085770
1.8572083 4.8366518 -1.7098128 4288085770
-0.22171021 3.8615646 -1.7195443 4288085770
1.9359131 4.9440556 -1.7120589 4288085770
-0.19802856 3.9246979 -1.7168285 4288085770
2.0075684 5.0474329 -1.7125719 4288085770
-0.15429688 3.9989281 -1.7163519 4288085770
2.1082458 5.1679487 -1.7159863 4288085770
-0.12469482 4.0660954 -1.712412 4288085770
2.2018127 5.2854404 -1.7166717 4288085770
-0.062866211 4.1504078 -1.7152501 4288085770
2.3114624 5.4120054 -1.719749 4288085770
0.011993408 4.2437859 -1.7196007 4288085770
2.4108887 5.5335417 -1.7172118 4288085770
0.081756592 4.3341455 -1.7211426 4288085770
2.5334167 5.670186 -1.7178084 4288085770
0.1282959 4.4104099 -1.7155577 4288085770
2.6427917 5.7987738 -1.7148985 4288085770
0.20700073 4.5058174 -1.7167585 4288085770
2.79422 5.9525728 -1.7153984 4288085770
0.30273438 4.6113129 -1.7193156 4288085770
2.949646 6.1093931 -1.7157509 4288085770
0.37927246 4.7057247 -1.7165966 4288085770
3.1229553 6.2783136 -1.7154291 4288085770
0.45880127 4.8031597 -1.7127692 4288085770
3.3052673 6.454278 -1.714774 4288085770
0.57043457 4.9197454 -1.7137291 4288085770
3.5517273 6.6695547 -1.7226983 4288085770
0.68405151 5.0363407 -1.7146096 4288085770
3.803009 6.8898687 -1.7264447 4288085770
0.81265259 5.1630135 -1.7159272 4288085770
4.0421448 7.1021376 -1.7266449 4288085770
0.95623779 5.2997637 -1.7186813 4288085770
4.3744507 7.3758612 -1.7363459 4288085770
1.0946655 5.4335012 -1.7166281 4288085770
4.6173096 7.5951757 -1.7294184 4288085770
1.2551575 5.582345 -1.7177491 4288085770
4.9843445 7.8941011 -1.7348181 4288085770
1.4205627 5.733222 -1.7176784 4288085770
5.3562317 8.19806 -1.7380388 4288085770
1.5818787 5.8820868 -1.713764 4288085770
1.7782593 6.0541239 -1.7145315 4288085770
2.0317078 6.2644396 -1.7221577 4288085770
2.2107544 6.4244223 -1.712569 4288085770
2.4800415 6.6438341 -1.7165922 4288085770
2.7872925 6.8914404 -1.7221986 4288085770
3.0884399 7.133029 -1.7240269 4288085770
3.4545898 7.4189425 -1.7314165 4288085770
3.8025818 7.6917849 -1.7324823 4288085770
4.2375488 8.0240641 -1.7402853 4288085770
12.632935 -1.5038137 -2.0620756 4288085770
11.046997 -1.4289808 -2.001616 4288085770
9.3022461 -1.3228493 -1.9055729 4288085770
8.2268677 -1.2734108 -1.8706598 4288085770
7.4568481 -1.2474546 -1.8614929 4288085770
6.7399292 -1.2222204 -1.8532043 4288085770
6.0921021 -1.1976233 -1.8451562 4288085770
5.5194397 -1.1766405 -1.8410946 4288085770
13.489929 -2.1535225 -2.1077123 4288085770
4.9829102 -1.1554708 -1.8375946 4288085770
11.577423 -1.9853401 -2.0285957 4288085770
4.4661865 -1.1321821 -1.8303062 4288085770
9.8067627 -1.8193789 -1.9418029 4288085770
4.0107727 -1.1125898 -1.8285624 4288085770
8.4196167 -1.6924877 -1.8805821 4288085770
3.5681458 -1.0899124 -1.8223137 4288085770
7.6296692 -1.6356583 -1.8773224 4288085770
3.1425476 -1.0661411 -1.8153905 4288085770
6.8695374 -1.5766506 -1.8688766 4288085770
2.781189 -1.0480499 -1.8128853 4288085770
6.1623535 -1.5193558 -1.858308 4288085770
2.4186707 -1.0259504 -1.8074372 4288085770
5.5544739 -1.4705544 -1.852748 4288085770
2.072113 -1.0037632 -1.800351 4288085770
4.9584656 -1.4196739 -1.8427202 4288085770
1.7617798 -0.9843998 -1.7978129 4288085770
4.4367065 -1.3754187 -1.8377062 4288085770
1.4866028 -0.96786499 -1.7988628 4288085770
3.9671631 -1.334898 -1.8355991 4288085770
1.2254333 -0.95125198 -1.799354 4288085770
3.510376 -1.2932892 -1.8279805 4288085770
0.96716309 -0.93261337 -1.7967348 4288085770
3.074585 -1.2515678 -1.8195236 4288085770
0.72595215 -0.91488934 -1.7954323 4288085770
2.696106 -1.2155638 -1.8167634 4288085770
0.50689697 -0.8990593 -1.797241 4288085770
2.3294678 -1.178483 -1.8105311 4288085770
0.28665161 -0.88122272 -1.7951002 4288085770
2.0010376 -1.1452141 -1.8077631 4288085770
0.099639893 -0.8662262 -1.7976272 4288085770
1.6765442 -1.1109171 -1.8028408 4288085770
-0.083343506 -0.85221004 -1.8009892 4288085770
1.3962097 -1.0824013 -1.8021359 4288085770
-0.29379272 -0.83030033 -1.7934682 4288085770
1.1369629 -1.0547752 -1.8015881 4288085770
-0.47195435 -0.81324482 -1.7926453 4288085770
0.88473511 -1.0261116 -1.8007648 4288085770
-0.60360718 -0.80298138 -1.8019515 4288085770
0.6534729 -1.0003357 -1.8000917 4288085770
-0.80221558 -0.77999592 -1.7909569 4288085770
0.4211731 -0.97255993 -1.7974672 4288085770
-0.94009399 -0.76574612 -1.795521 4288085770
0.21902466 -0.94763851 -1.7986306 4288085770
-1.0354614 -0.7603159 -1.8113661 4288085770
0.012756348 -0.92172623 -1.79696 4288085770
-0.17739868 -0.89773655 -1.7966419 4288085770
-0.33126831 -0.87857819 -1.802862 4288085770
-0.54495239 -0.84666634 -1.790501 4288085770
-0.71014404 -0.8235445 -1.7901807 4288085770
-0.86730957 -0.80037308 -1.7885418 4288085770
-1.0154724 -0.77815723 -1.787539 4288085770
-1.5396423 1.1966133 -1.7443408 4288085770
-1.4063416 1.2172976 -1.7481155 4288085770
-1.2854004 1.2349424 -1.7443637 4288085770
-1.1421814 1.2556849 -1.7467415 4288085770
-1.012207 1.2733803 -1.7426311 4288085770
-0.86212158 1.2941713 -1.741733 4288085770
-0.70397949 1.3149977 -1.7415158 4288085770
-0.5378418 1.3358688 -1.7419792 4288085770
-1.4794922 1.2178602 -1.7520782 4288085770
-0.3404541 1.3608866 -1.7472188 4288085770
-1.3534241 1.2325258 -1.7501146 4288085770
-0.16027832 1.3818312 -1.7471254 4288085770
-1.227356 1.2451982 -1.7471441 4288085770
0.017700195 1.4017792 -1.7431109 4288085770
-1.0791626 1.2609692 -1.7483054 4288085770
0.21780396 1.4238319 -1.7422255 4288085770
-0.93508911 1.2757311 -1.7466247 4288085770
0.43096924 1.4469557 -1.740826 4288085770
-0.77490234 1.2905703 -1.7463056 4288085770
0.65509033 1.4711361 -1.739992 4288085770
-0.59658813 1.3084908 -1.7502774 4288085770
0.89321899 1.4943924 -1.7385973 4288085770
-0.4284668 1.3233786 -1.7486408 4288085770
1.1413269 1.5187016 -1.7368084 4288085770
-0.23516846 1.3403826 -1.7510126 4288085770
1.405426 1.5430984 -1.7343827 4288085770
-0.04296875 1.3563919 -1.7514224 4288085770
1.7138367 1.5727062 -1.7382183 4288085770
0.15420532 1.3714266 -1.7506303 4288085770
2.0552063 1.6044817 -1.7427465 4288085770
0.35021973 1.3854742 -1.7458779 4288085770
2.404541 1.6353102 -1.744954 4288085770
0.57748413 1.4016609 -1.7468933 4288085770
2.8061218 1.6723948 -1.7531087 4288085770
0.81167603 1.4178972 -1.7456321 4288085770
3.2064514 1.705493 -1.7542934 4288085770
1.0648804 1.434227 -1.745613 4288085770
3.6226807 1.7376842 -1.7538393 4288085770
1.3129883 1.4485435 -1.741789 4288085770
4.078064 1.7740774 -1.7548454 4288085770
1.577179 1.4629412 -1.7393268 4288085770
4.59552 1.8137875 -1.7583916 4288085770
1.9016418 1.4836264 -1.7444907 4288085770
5.1147766 1.8505259 -1.7568517 4288085770
2.1997986 1.4972086 -1.7406721 4288085770
5.7262878 1.8957348 -1.7596737 4288085770
2.5733337 1.5191479 -1.7468879 4288085770
6.4260559 1.9463835 -1.7690046 4288085770
2.967865 1.5402012 -1.7522645 4288085770
7.1938171 2.0013981 -1.7766438 4288085770
3.3591919 1.5582628 -1.7517543 4288085770
8.1048584 2.066144 -1.7906165 4288085770
3.7987061 1.5785608 -1.7553369 4288085770
9.0487061 2.1290894 -1.7972736 4288085770
4.2882996 1.601119 -1.759935 4288085770
10.33667 2.2227516 -1.8303572 4288085770
4.784729 1.6207266 -1.761246 4288085770
9.6931458 2.1009922 -1.6594257 4293729569
5.3313599 1.6415901 -1.7645679 4288085770
9.7154541 2.0514908 -1.5562915 4293729569
5.9561157 1.6668501 -1.7717953 4288085770
9.8110962 2.0083475 -1.4612651 4293729569
6.6438904 1.6924515 -1.7775153 4288085770
9.9397888 1.9653683 -1.3679239 4293729569
7.4289551 1.7215395 -1.7893789 4288085770
10.281189 1.9414606 -1.2881953 4293729569
8.2638855 1.7489071 -1.7972471 4288085770
10.67157 1.9168129 -1.2085114 4293729569
9.4732056 1.803134 -1.8353299 4288085770
11.134033 1.8945427 -1.1289678 4293729569
11.185333 1.889864 -1.9125409 4288085770
11.687592 1.8757496 -1.0508103 4293729569
12.748077 1.9509382 -1.9545821 4288085770
12.980652 1.9107418 -1.0024247 4293729569
12.820221 1.8817301 -1.8433888 4293729569
13.059052 1.8233423 -1.7476096 4293729569
-0.10470581 -4.250114 -0.45922178 4293729569
-0.061798096 -4.2680492 -0.50049323 4293729569
-0.052124023 -4.2601528 -0.54017627 4293729569
-0.043518066 -4.2502589 -0.57890743 4293729569
0.014434814 -4.2721171 -0.62056738 4293729569
0.030059814 -4.2631841 -0.65901655 4293729569
0.21130371 -4.2858648 -0.8218925 4293729569
0.23788452 -4.2738733 -0.85991591 4293729569
0.362854 -4.2817779 -0.47661859 4293729569
0.28964233 -4.2767568 -0.89988756 4293729569
0.41046143 -4.2786722 -0.51377374 4293729569
5.1510315 -7.4166293 -1.5380337 4293729569
0.48318481 -4.2884345 -0.55088651 4293729569
4.710907 -7.0729399 -1.5367565 4293729569
0.5519104 -4.2942228 -0.58917236 4293729569
0.46606445 -4.2873044 -1.0219581 4293729569
0.56118774 -4.3089786 -1.0671442 4293729569
0.54614258 -4.2591705 -1.0959486 4293729569
0.74884033 -4.2926183 -0.69946313 4293729569
3.3523254 -5.9740934 -1.5366896 4293729569
0.81640625 -4.2904 -0.73482108 4293729569
0.73623657 -4.2935104 -1.1833576 4293729569
0.82415771 -4.3002129 -1.2258813 4293729569
0.99282837 -4.3017645 -0.8098439 4293729569
2.601532 -5.3340292 -1.533829 4293729569
1.0774841 -4.3014536 -0.84652132 4293729569
1.1140747 -4.3790708 -1.3271775 4293729569
1.105957 -4.3232174 -1.3537271 4293729569
1.2728577 -4.3127117 -0.91978848 4293729569
1.6333923 -4.5808768 -1.4669476 4293729569
1.3311768 -4.2915301 -0.95157802 4293729569
1.2521667 -4.3027377 -1.428062 4293729569
1.5155334 -4.3407373 -0.99712026 4293729569
1.5097351 -4.3946476 -1.4965614 4293729569
1.6000061 -4.3304248 -1.0308331 4293729569
1.6499939 -4.4160976 -1.544956 4293729569
5.7238159 -6.5526929 -1.5434716 4293729569
1.5768127 -4.3145175 -1.5532376 4293729569
1.8434143 -4.3434305 -1.1041853 4293729569
1.4602051 -4.1891356 -1.5533249 4293729569
5.2192688 -6.1003556 -1.5441463 4293729569
1.4840088 -4.1411033 -1.576575 4293729569
2.1290894 -4.3702283 -1.1808126 4293729569
1.5977783 -4.1426587 -1.6160856 4293729569
2.1730042 -4.3270931 -1.2052476 4293729569
1.7307434 -4.1501203 -1.6578166 4293729569
4.6260376 -5.5274835 -1.5437783 4293729569
1.8818359 -4.1645002 -1.7028031 4293729569
2.5431519 -4.3824706 -1.2884213 4293729569
2.027832 -4.1738968 -1.7450097 4293729569
2.7059937 -4.3927646 -1.3269515 4293729569
2.1525269 -4.1693897 -1.7831067 4293729569
3.5588379 -4.7427764 -1.4569269 4293729569
2.3095398 -4.1777344 -1.8268789 4288085770
3.3452148 -4.5588479 -1.4420654 4293729569
2.4483337 -4.1761575 -1.8664073 4288085770
3.2203674 -4.4204946 -1.4385229 4293729569
2.5606995 -4.1566892 -1.898043 4288085770
3.431366 -4.4435387 -1.4780954 4293729569
2.5132751 -4.0609446 -1.8982749 4288085770
3.7573853 -4.5160432 -1.5349345 4293729569
2.4526672 -3.9602518 -1.8940459 4288085770
3.8290405 -4.4667444 -1.5542839 4293729569
2.4111633 -3.8674674 -1.8920295 4288085770
3.8088379 -4.3758702 -1.5584208 4293729569
2.3585205 -3.7707267 -1.8864678 4288085770
3.7987061 -4.2889504 -1.5641437 4293729569
2.329071 -3.6838808 -1.8849518 4288085770
3.9065552 -4.2524652 -1.5850117 4293729569
2.3117371 -3.603972 -1.8839319 4288085770
4.1101074 -4.2565203 -1.6169409 4293729569
2.2963257 -3.5250502 -1.8818294 4288085770
4.329834 -4.2634988 -1.6512207 4293729569
2.2667236 -3.4401889 -1.8763087 4288085770
4.5696106 -4.2743773 -1.6866896 4293729569
2.2694397 -3.3691764 -1.8754593 4288085770
4.8093567 -4.2822509 -1.7211707 4293729569
2.2741699 -3.2991519 -1.8745269 4288085770
5.0651245 -4.2940421 -1.7560006 4293729569
2.2798462 -3.2301202 -1.8725514 4288085770
5.3268433 -4.3027978 -1.7896044 4293729569
2.2905273 -3.1620603 -1.8703746 4288085770
5.6147461 -4.3174267 -1.8261503 4293729569
2.3102417 -3.0969543 -1.8688276 4288085770
5.9196472 -4.3349662 -1.8630087 4288085770
2.3268433 -3.0308547 -1.8644059 4288085770
6.189209 -4.3346682 -1.8933315 4288085770
2.363739 -2.9736691 -1.8651515 4288085770
6.4011536 -4.3096309 -1.9130228 4288085770
2.4035339 -2.9154587 -1.8637831 4288085770
6.5152283 -4.2500534 -1.9177128 4288085770
2.4412231 -2.8572526 -1.8604958 4288085770
6.62323 -4.1865015 -1.9206583 4288085770
2.4910278 -2.8019938 -1.8597184 4288085770
6.7069092 -4.1120543 -1.9176039 4288085770
2.559021 -2.7536426 -1.8601979 4288085770
6.8378906 -4.0533786 -1.9196174 4288085770
2.6097412 -2.69837 -1.8573823 4288085770
6.9677734 -3.9936996 -1.9196757 4288085770
2.6867065 -2.6519699 -1.8574973 4288085770
7.1490784 -3.9487729 -1.9256459 4288085770
2.7565002 -2.602602 -1.8559031 4288085770
7.290863 -3.8880234 -1.9232333 4288085770
2.8454895 -2.5571375 -1.8555375 4288085770
7.4588318 -3.8341432 -1.9227595 4288085770
2.9353943 -2.5106668 -1.8551363 4288085770
7.6720581 -3.7920403 -1.9264487 4288085770
3.0454407 -2.4700975 -1.855917 4288085770
7.8952026 -3.7488794 -1.9287455 4288085770
3.1332092 -2.421628 -1.8526051 4288085770
8.1263428 -3.7076774 -1.9307171 4288085770
3.249176 -2.3800211 -1.8521519 4288085770
8.3714905 -3.6643972 -1.9321407 4288085770
3.3782043 -2.3413477 -1.85217 4288085770
8.7151794 -3.6446314 -1.9415722 4288085770
3.5011597 -2.2987003 -1.8504432 4288085770
9.0537109 -3.6198835 -1.9492233 4288085770
3.6451416 -2.2599449 -1.8498664 4288085770
9.5491943 -3.6293669 -1.9715312 4288085770
3.7921448 -2.2211752 -1.8491702 4288085770
10.10083 -3.645566 -1.9965852 4288085770
3.9552307 -2.1843233 -1.8498297 4288085770
10.743896 -3.6763077 -2.0279613 4288085770
4.1192017 -2.1454573 -1.8474597 4288085770
11.448151 -3.7127361 -2.0618887 4288085770
4.2831116 -2.105587 -1.8440934 4288085770
12.275879 -3.7685461 -2.1038465 4288085770
4.5033875 -2.0764503 -1.8484553 4288085770
13.054047 -3.8025761 -2.1348443 4288085770
4.7256165 -2.0452919 -1.8497472 4288085770
4.9608154 -2.0140676 -1.8515222 4288085770
5.2876282 -1.9984016 -1.8646115 4288085770
5.5447388 -1.9660511 -1.8635186 4288085770
5.8471375 -1.9374809 -1.8676183 4288085770
6.1503601 -1.9068909 -1.8676887 4288085770
6.4997559 -1.8810749 -1.8719097 4288085770
6.8692017 -1.8541498 -1.8753402 4288085770
7.272644 -1.8290491 -1.8794121 4288085770
7.7262878 -1.8076944 -1.8864796 4288085770
8.1847839 -1.7812986 -1.8893704 4288085770
8.6621704 -1.7537975 -1.890512 4288085770
9.6001282 -1.7800522 -1.9392048 4288085770
10.745972 -1.8222742 -2.0035958 4288085770
11.776611 -1.8360138 -2.0446453 4288085770
12.844055 -1.8445396 -2.0802484 4288085770
12.924744 1.9182606 -0.98530978 4293729569
10.957184 1.8720608 -0.95213443 4293729569
10.885834 1.9764853 -1.0053835 4293729569
10.488586 2.0502701 -1.0394282 4293729569
10.013062 2.1116762 -1.0655274 4293729569
9.7148132 2.1859865 -1.0976472 4293729569
9.5999451 2.2792263 -1.13857 4293729569
9.5502319 2.3817978 -1.1829457 4293729569
11.551422 2.6790056 -0.45408386 4293729569
9.4543457 2.4771395 -1.223123 4293729569
11.345581 2.7707644 -0.49661067 4293729569
9.4095459 2.5787477 -1.2642992 4293729569
11.277863 2.8812351 -0.54172969 4293729569
9.3586121 2.6783333 -1.3027078 4293729569
11.291168 3.0031252 -0.58867651 4293729569
9.3327637 2.7850418 -1.3431495 4293729569
11.220306 3.1135979 -0.6299175 4293729569
9.3138428 2.8917942 -1.3823147 4293729569
11.18042 3.2272291 -0.67094082 4293729569
9.3279724 3.0027103 -1.423185 4293729569
11.109406 3.3367109 -0.70918012 4293729569
9.3350525 3.1146002 -1.4613383 4293729569
9.4614868 3.2480783 -1.5098432 4293729569
10.985168 3.555788 -0.77995002 4293729569
9.5546875 3.3783998 -1.5536491 4293729569
9.599762 3.5014839 -1.5933355 4293729569
12.617188 4.2221022 -1.9155215 4288085770
12.06012 4.2442389 -1.8996788 4288085770
11.426605 4.2410202 -1.8707659 4288085770
10.896393 4.255312 -1.8498263 4288085770
10.371124 4.2626438 -1.8256645 4288085770
9.9732056 4.291605 -1.811537 4288085770
9.5741882 4.3165712 -1.7944361 4288085770
9.228363 4.3498039 -1.7812601 4288085770
8.9406128 4.3933287 -1.7708195 4288085770
8.736084 4.4542646 -1.7671458 4288085770
8.555603 4.5203276 -1.7645378 4288085770
8.4423218 4.6037111 -1.768332 4288085770
8.2998962 4.6779661 -1.767246 4288085770
8.2015686 4.7624426 -1.7684509 4288085770
8.1393127 4.8560925 -1.7732589 4288085770
8.0829773 4.9517822 -1.7758381 4288085770
8.021637 5.0454512 -1.7776089 4288085770
7.979187 5.1452198 -1.7786491 4288085770
7.9468384 5.2480373 -1.7813029 4288085770
7.9083557 5.3468351 -1.7801824 4288085770
7.8938904 5.4567556 -1.7801505 4288085770
7.853302 5.5555525 -1.7761114 4288085770
7.856781 5.6705694 -1.7753849 4288085770
7.8752136 5.7926664 -1.7740899 4288085770
7.9117126 5.9208536 -1.7751024 4288085770
7.9059448 6.0338449 -1.7677306 4288085770
7.9673462 6.1721659 -1.7667903 4288085770
8.0818176 6.3347483 -1.7708343 4288085770
8.1922302 6.4953203 -1.7720318 4288085770
8.3175964 6.6659651 -1.7736715 4288085770
8.538147 6.8790827 -1.7836949 4288085770
8.7374573 7.0871115 -1.7875371 4288085770
8.9167175 7.2870455 -1.7881449 4288085770
9.00354 7.4495401 -1.7762721 4288085770
9.4231262 7.7646627 -1.7967744 4288085770
9.825531 8.0767107 -1.8129431 4288085770
13.429169 -0.56960392 -2.0773964 4288085770
11.339783 -0.52120972 -1.9871505 4288085770
9.5027466 -0.4715023 -1.8989302 4288085770
8.160553 -0.43933964 -1.8471005 4288085770
7.2683716 -0.42496586 -1.8344395 4288085770
6.4884338 -0.41101837 -1.8253398 4288085770
5.8450012 -0.40038776 -1.8248374 4288085770
5.2142639 -0.38766766 -1.8178327 4288085770
12.196014 -0.78489017 -2.0194826 4288085770
4.62854 -0.37370872 -1.8100508 4288085770
10.297974 -0.70252991 -1.9387863 4288085770
4.1371765 -0.36328411 -1.8095294 4288085770
8.5799561 -0.62221146 -1.8539587 4288085770
3.6355591 -0.34988308 -1.8014202 4288085770
7.6386108 -0.58609295 -1.841315 4288085770
3.1960754 -0.33716869 -1.796851 4288085770
6.8165588 -0.55336475 -1.8319451 4288085770
2.7826233 -0.3243227 -1.7922531 4288085770
6.0756531 -0.52321911 -1.8243573 4288085770
2.3880005 -0.31036091 -1.7839097 4288085770
5.4076843 -0.49368286 -1.8148786 4288085770
2.0507507 -0.29912376 -1.7822944 4288085770
4.8532715 -0.47058773 -1.814896 4288085770
1.7597351 -0.28966427 -1.7858474 4288085770
4.2874146 -0.44352245 -1.8063693 4288085770
1.4958191 -0.28007126 -1.7913314 4288085770
3.822052 -0.42195988 -1.805858 4288085770
1.2398376 -0.27042961 -1.7954992 4288085770
3.3423462 -0.39744282 -1.7969176 4288085770
0.97363281 -0.25782204 -1.7940773 4288085770
2.9128113 -0.3746767 -1.7919881 4288085770
0.72439575 -0.24612427 -1.7919803 4288085770
2.5283203 -0.35367393 -1.7872708 4288085770
0.46096802 -0.23248005 -1.784448 4288085770
2.1719055 -0.33253193 -1.7834446 4288085770
0.26199341 -0.22153664 -1.7873646 4288085770
1.869751 -0.31512356 -1.785463 4288085770
0.056854248 -0.21061325 -1.7865213 4288085770
1.6038513 -0.29954433 -1.7920458 4288085770
-0.14434814 -0.19766331 -1.784528 4288085770
1.3155518 -0.28104782 -1.7895172 4288085770
-0.32745361 -0.18662167 -1.7838143 4288085770
1.0462036 -0.26244926 -1.786237 4288085770
-0.4994812 -0.17453003 -1.7846673 4288085770
0.79803467 -0.24574852 -1.7851166 4288085770
-0.6645813 -0.16339684 -1.7842406 4288085770
0.5617981 -0.22798443 -1.7835259 4288085770
-0.82565308 -0.15124416 -1.7836596 4288085770
0.32946777 -0.21018028 -1.7797811 4288085770
-0.97576904 -0.13902092 -1.7826469 4288085770
0.13238525 -0.19421959 -1.7806392 4288085770
-0.070831299 -0.17728043 -1.7787402 4288085770
-0.25091553 -0.16122818 -1.7789258 4288085770
-0.41891479 -0.14611816 -1.7806317 4288085770
-0.58508301 -0.13099003 -1.7792608 4288085770
-0.74520874 -0.11482525 -1.777656 4288085770
-0.89736938 -0.099622726 -1.7767309 4288085770
-1.5526733 1.864502 -1.7391968 4282675967
-1.436676 1.8911076 -1.7377145 4288085770
-1.311554 1.9197502 -1.7388823 4288085770
-1.1824646 1.9484215 -1.7388928 4288085770
-1.0423584 1.9791422 -1.7404754 4282675967
-0.90734863 2.0078497 -1.7382513 4288085770
-0.70568848 2.0538445 -1.7534695 4282675967
-0.56680298 2.0805798 -1.7490822 4282675967
-1.5365601 1.8375416 -1.739524 4282675967
-0.43093872 2.1053066 -1.742808 4282675967
-1.4023132 1.863224 -1.7433239 4282675967
-0.26791382 2.1351624 -1.7404827 4288085770
-1.2762146 1.8848791 -1.7434281 4282675967
-0.06161499 2.1762114 -1.7474929 4282675967
-1.144104 1.9065628 -1.7432957 4282675967
0.10125732 2.2040796 -1.7411638 4288085770
-0.9989624 1.9313126 -1.7446601 4282675967
0.24386597 2.2248678 -1.727605 4288085770
-0.85882568 1.9530382 -1.7442125 4282675967
0.46310425 2.2639933 -1.7320975 4288085770
-0.699646 1.9778605 -1.7460244 4282675967
0.65496826 2.2950115 -1.7256352 4288085770
-0.55166626 1.9986362 -1.7432594 4288085770
0.88308716 2.3331995 -1.7257726 4288085770
-0.33798218 2.0356998 -1.7569737 4282675967
1.1282349 2.3734694 -1.7272451 4288085770
-0.18304443 2.055522 -1.7519311 4282675967
1.3833618 2.4137955 -1.7273244 4288085770
-0.029144287 2.072341 -1.7459182 4288085770
1.6595154 2.4572287 -1.728585 4288085770
0.16403198 2.09834 -1.7473929 4288085770
1.967804 2.5068169 -1.733602 4288085770
0.2996521 2.1080961 -1.7330719 4288085770
2.2557983 2.5483303 -1.7303857 4288085770
0.49676514 2.1311264 -1.7313803 4288085770
2.6011047 2.600112 -1.7349501 4288085770
0.70687866 2.1542225 -1.7301759 4288085770
2.9492798 2.6499224 -1.7353928 4288085770
0.92404175 2.1783533 -1.7296983 4288085770
3.3305054 2.7038994 -1.7385453 4288085770
1.1500854 2.2025394 -1.7268674 4288085770
3.7618713 2.7661285 -1.7437522 4288085770
1.4224854 2.2339363 -1.7322407 4288085770
4.1760254 2.8202868 -1.7436063 4288085770
1.6917725 2.2623281 -1.7347236 4288085770
4.6261902 2.8786325 -1.7440541 4288085770
1.9891357 2.2948618 -1.7391148 4288085770
5.1646423 2.951416 -1.7510744 4288085770
2.2944641 2.3254404 -1.7421844 4288085770
5.7059326 3.0202293 -1.7539661 4288085770
2.6096802 2.3540783 -1.7428546 4288085770
6.3072815 3.0953512 -1.7575114 4288085770
2.9309387 2.3817501 -1.7432848 4288085770
6.9928589 3.1828938 -1.766781 4288085770
3.2922974 2.4136229 -1.7461493 4288085770
7.7233582 3.2716827 -1.7732819 4288085770
3.679657 2.4476299 -1.7489958 4288085770
8.578125 3.3790922 -1.7869492 4288085770
4.0740051 2.4786806 -1.7505563 4288085770
9.680542 3.5247355 -1.8179904 4288085770
4.497345 2.5108795 -1.7519766 4288085770
9.9203491 3.4972248 -1.7503982 4293729569
4.9346619 2.5411549 -1.7528387 4288085770
9.4294434 3.3291569 -1.6100969 4293729569
5.3808899 2.5674915 -1.7493349 4288085770
9.4234924 3.2524395 -1.5210162 4293729569
5.9284668 2.6083231 -1.7558888 4288085770
9.3161621 3.1572227 -1.422863 4293729569
6.5170898 2.6493702 -1.7618258 4288085770
9.3403625 3.0846462 -1.3386091 4293729569
7.1567688 2.6926765 -1.769757 4288085770
9.4378662 3.0234232 -1.2615092 4293729569
7.8595886 2.7393084 -1.7792128 4288085770
9.3829346 2.9354477 -1.1733217 4293729569
8.5571899 2.7779388 -1.7818432 4288085770
9.4253235 2.861949 -1.0933512 4293729569
9.4694824 2.8426237 -1.802107 4288085770
9.6481934 2.81635 -1.0253662 4293729569
10.156555 2.8622484 -1.7900771 4288085770
10.064453 2.7937317 -0.96583962 4293729569
9.3266296 2.6554995 -1.6249958 4293729569
10.443481 2.7609339 -0.90174085 4293729569
9.2658691 2.56248 -1.5400244 4293729569
9.3225403 2.4850311 -1.4664825 4293729569
9.3421936 2.4023914 -1.3923825 4293729569
9.3659058 2.3197718 -1.319124 4293729569
11.200073 2.4929419 -0.59881288 4293729569
9.4899902 2.2476444 -1.2549495 4293729569
11.259552 2.4045305 -0.51911932 4293729569
9.7093201 2.1849899 -1.197055 4293729569
9.7080383 2.0942373 -1.1237547 4293729569
10.034668 2.0371246 -1.0716525 4293729569
10.657013 2.003499 -1.0349805 4293729569
10.905396 1.9290028 -0.97490168 4293729569
10.901154 1.8292351 -0.90168822 4293729569
1.4742737 -4.3152156 -0.48761851 4293729569
1.3757019 -4.3058653 -0.52357191 4293729569
1.3143311 -4.3153262 -0.56199926 4293729569
1.256958 -4.3247681 -0.60026932 4293729569
1.0758667 -4.3009882 -0.67456114 4293729569
1.0064087 -4.2964916 -0.71235293 4293729569
0.82315063 -4.2918749 -0.82771099 4293729569
0.83291626 -4.2954435 -0.43801773 4293729569
0.81814575 -4.3200631 -0.87186146 4293729569
0.74255371 -4.3035951 -0.90893257 4293729569
0.73226929 -4.2872725 -0.52009654 4293729569
5.5779114 -7.3986998 -1.5408709 4293729569
0.72317505 -4.3064804 -0.56343716 4293729569
4.975708 -7.0598345 -1.5397128 4293729569
0.54492188 -4.2600374 -1.0199813 4293729569
0.56619263 -4.2971034 -1.0680734 4293729569
0.50558472 -4.2795548 -1.1045569 4293729569
0.54971313 -4.275979 -0.72454345 4293729569
0.47021484 -4.2768879 -1.1450009 4293729569
0.55975342 -4.2980957 -0.77012372 4293729569
0.46618652 -4.2920723 -1.1891581 4293729569
0.55664062 -4.3102708 -0.81325287 4293729569
2.3191833 -5.5226936 -1.5414515 4293729569
0.45166016 -4.2529383 -0.84561276 4293729569
1.9576721 -5.3035612 -1.5364144 4293729569
0.46768188 -4.2740216 -0.8909601 4293729569
1.6404724 -5.1092134 -1.5355539 4293729569
0.48065186 -4.2901182 -0.93544477 4293729569
1.3807068 -4.9505863 -1.540318 4293729569
0.48150635 -4.2972717 -0.97843444 4293729569
0.80206299 -4.578392 -1.4812866 4293729569
0.47229004 -4.2954769 -1.0208499 4293729569
0.32739258 -4.2717013 -1.4349575 4293729569
0.45999146 -4.2896943 -1.0623981 4293729569
0.44570923 -4.3543339 -1.5030943 4293729569
0.45983887 -4.289854 -1.1054516 4293729569
0.47702026 -4.3783598 -1.5548368 4293729569
0.46264648 -4.2909966 -1.1483839 4293729569
0.30166626 -4.2633028 -1.5621352 4293729569
0.46737671 -4.2911267 -1.1902421 4293729569
0.10592651 -4.1323228 -1.5612829 4293729569
0.4894104 -4.2991815 -1.2363994 4293729569
0.02456665 -4.0748348 -1.5847043 4293729569
0.47897339 -4.2853804 -1.2758988 4293729569
0.027374268 -4.0729752 -1.6266474 4293729569
0.62634277 -4.3718572 -1.3428826 4293729569
0.041259766 -4.0750651 -1.6711416 4293729569
1.0892944 -4.6599026 -1.4688295 4293729569
0.051025391 -4.0731668 -1.7128097 4293729569
0.067871094 -4.0732379 -1.7561938 4293729569
0.55541992 -4.2856216 -1.4500837 4293729569
0.091766357 -4.07728 -1.8012875 4293729569
0.809021 -4.4316273 -1.5397081 4293729569
0.11364746 -4.0763283 -1.8454779 4288085770
0.6739502 -4.3253751 -1.5513963 4293729569
0.10095215 -4.051518 -1.8790989 4288085770
0.52862549 -4.2111616 -1.5585093 4293729569
-0.022399902 -3.9531751 -1.8822923 4288085770
0.38928223 -4.0999165 -1.565376 4293729569
-0.17633057 -3.8339529 -1.8747481 4288085770
0.41598511 -4.0929232 -1.6053946 4293729569
-0.2979126 -3.7345853 -1.8728697 4288085770
0.46688843 -4.0988202 -1.6494204 4293729569
-0.40838623 -3.6411624 -1.8725363 4288085770
0.51785278 -4.1027188 -1.6944528 4293729569
-0.52404785 -3.5437546 -1.8684161 4288085770
0.56674194 -4.1036229 -1.7375757 4293729569
-0.62957764 -3.4522982 -1.8658798 4288085770
0.62164307 -4.1055007 -1.7824579 4293729569
-0.72000122 -3.3697729 -1.8657199 4288085770
0.67352295 -4.1043882 -1.8254704 4288085770
-0.80847168 -3.2882299 -1.863479 4288085770
0.72427368 -4.1002736 -1.8665345 4288085770
-0.89901733 -3.2036915 -1.8593289 4288085770
0.65435791 -4.0216818 -1.8775666 4288085770
-0.97741699 -3.1270981 -1.857676 4288085770
0.53363037 -3.9123006 -1.8736854 4288085770
-1.0579834 -3.0485053 -1.853111 4288085770
0.42907715 -3.8118439 -1.8721415 4288085770
-1.1273804 -2.9758639 -1.8510903 4288085770
0.32748413 -3.7133675 -1.8694726 4288085770
-1.192749 -2.9061999 -1.8489014 4288085770
0.23901367 -3.6228275 -1.8682632 4288085770
-1.2358398 -2.8484435 -1.8528003 4288085770
0.14541626 -3.5283036 -1.8642664 4288085770
-1.2992859 -2.7787633 -1.848534 4288085770
0.062866211 -3.4417262 -1.8608081 4288085770
-1.3465576 -2.7190099 -1.8476005 4288085770
0.00054931641 -3.3650579 -1.8615246 4288085770
-1.4029846 -2.6522913 -1.8430481 4288085770
-0.072937012 -3.2824345 -1.8586975 4288085770
-1.4361572 -2.599474 -1.8445377 4288085770
-0.14144897 -3.2027812 -1.854664 4288085770
-1.4876404 -2.5357265 -1.8387793 4288085770
-0.20599365 -3.1241059 -1.8504698 4288085770
-1.5147705 -2.4858761 -1.8400217 4288085770
-0.26544189 -3.0494046 -1.8460644 4288085770
-0.32089233 -2.976686 -1.8424945 4288085770
-0.35919189 -2.9138842 -1.8412186 4288085770
-0.39752197 -2.850081 -1.8389473 4288085770
-0.42169189 -2.7932148 -1.8400977 4288085770
-0.44485474 -2.73734 -1.8402063 4288085770
-0.47317505 -2.6784821 -1.8375239 4288085770
-0.49447632 -2.6215925 -1.8355589 4288085770
-0.51473999 -2.5666943 -1.8335472 4288085770
-0.52694702 -2.5157585 -1.8322064 4288085770
-0.53311157 -2.4677925 -1.8316188 4288085770
-0.54742432 -2.4158602 -1.8283615 4288085770
-0.5546875 -2.3658905 -1.8248221 4288085770
-0.5355835 -2.3288116 -1.8292092 4288085770
-0.53573608 -2.2828102 -1.8273791 4288085770
-0.52697754 -2.2397614 -1.8251855 4288085770
-0.5140686 -2.1976976 -1.8248293 4288085770
-0.50930786 -2.1536636 -1.8207973 4288085770
-0.48535156 -2.1165438 -1.820991 4288085770
-0.46243286 -2.0794277 -1.8202248 4288085770
-0.44662476 -2.0383415 -1.817749 4288085770
-0.41366577 -2.0041733 -1.8175786 4288085770
-0.38479614 -1.9680223 -1.815574 4288085770
-0.3387146 -1.9377956 -1.8178771 4288085770
-0.29571533 -1.9065771 -1.8183032 4288085770
-0.25375366 -1.8733616 -1.8177762 4288085770
-0.18652344 -1.8500328 -1.8222281 4288085770
-0.13348389 -1.8197641 -1.8232574 4288085770
-0.079498291 -1.7904863 -1.8222454 4288085770
-0.024536133 -1.7602015 -1.821198 4288085770
0.047576904 -1.7358351 -1.8224595 4288085770
0.12268066 -1.7104578 -1.8246069 4288085770
0.18560791 -1.6801271 -1.8222466 4288085770
0.26773071 -1.6557074 -1.8231158 4288085770
0.34976196 -1.6312847 -1.8229866 4288085770
0.42776489 -1.6048803 -1.8220217 4288085770
0.5269165 -1.5823746 -1.8232172 4288085770
-0.87631226 -1.2116575 -1.8185407 4288085770
0.631073 -1.5618439 -1.8252082 4288085770
-0.81332397 -1.1873264 -1.8161581 4288085770
0.74328613 -1.541275 -1.8278849 4288085770
-0.73626709 -1.1669312 -1.8162099 4288085770
0.86151123 -1.5206728 -1.8303261 4288085770
-0.67037964 -1.1415815 -1.8127146 4288085770
0.95532227 -1.4931698 -1.8247411 4288085770
-0.56088257 -1.1270466 -1.8214818 4288085770
1.0794678 -1.4735346 -1.8259444 4288085770
-0.49404907 -1.1016846 -1.8159486 4288085770
1.1924438 -1.4489393 -1.8226012 4288085770
-0.41009521 -1.0792446 -1.8137345 4288085770
1.3204651 -1.4262714 -1.8206612 4288085770
-0.33325195 -1.0558329 -1.8088015 4288085770
1.456543 -1.4055643 -1.8193995 4288085770
-0.22601318 -1.0372896 -1.8116665 4288085770
1.5986023 -1.3848248 -1.8179027 4288085770
-0.13711548 -1.0148172 -1.807259 4288085770
1.7577209 -1.3659973 -1.816731 4288085770
-0.032043457 -0.99427128 -1.8062129 4288085770
1.9248352 -1.3471346 -1.8172445 4288085770
0.086120605 -0.975667 -1.8076477 4288085770
2.111084 -1.3311749 -1.8180016 4288085770
0.18597412 -0.95313263 -1.8018098 4288085770
2.2962341 -1.3132153 -1.817806 4288085770
0.31512451 -0.93546867 -1.8028097 4288085770
2.503479 -1.2971458 -1.8187385 4288085770
0.43310547 -0.91384888 -1.7992598 4288085770
2.7297974 -1.2829819 -1.8209178 4288085770
0.5843811 -0.8980732 -1.8013885 4288085770
2.9690552 -1.2687454 -1.8215884 4288085770
0.72039795 -0.8773632 -1.7991279 4288085770
3.2244263 -1.2554321 -1.8246256 4288085770
0.88458252 -0.86051941 -1.8007512 4288085770
3.5018311 -1.2440062 -1.8277925 4288085770
1.053833 -0.84364986 -1.8021784 4288085770
3.8072815 -1.2334356 -1.8318565 4288085770
1.20578 -0.82284737 -1.7972921 4288085770
4.1247253 -1.2227974 -1.8344511 4288085770
1.4051208 -0.80782604 -1.8005338 4288085770
4.4450378 -1.2101393 -1.8349372 4288085770
1.59021 -0.78986168 -1.7983401 4288085770
4.7883606 -1.1963568 -1.834525 4288085770
1.7862549 -0.77183819 -1.7957153 4288085770
5.2069702 -1.1902046 -1.8401366 4288085770
2.0175781 -0.75564671 -1.797706 4288085770
5.6203918 -1.1800623 -1.840963 4288085770
2.2659302 -0.74037075 -1.8010254 4288085770
6.1061707 -1.1765652 -1.8479342 4288085770
2.5151367 -0.72407722 -1.8003128 4288085770
6.588623 -1.1670609 -1.8480511 4288085770
2.8045654 -0.70959377 -1.8050194 4288085770
7.1393433 -1.1622162 -1.8524785 4288085770
3.1029663 -0.6940546 -1.8073785 4288085770
7.8033752 -1.163806 -1.8634421 4288085770
3.4404602 -0.68132114 -1.8121948 4288085770
8.4702454 -1.1623602 -1.8683044 4288085770
3.7727966 -0.66560268 -1.8132218 4288085770
9.5963745 -1.1976776 -1.9170599 4288085770
4.180481 -0.65351486 -1.8212862 4288085770
11.081909 -1.2552214 -1.992662 4288085770
4.5668335 -0.6375103 -1.8211951 4288085770
12.535583 -1.3008604 -2.0485411 4288085770
4.9882507 -0.62132835 -1.8227305 4288085770
5.4920349 -0.6087389 -1.8300297 4288085770
6.0106201 -0.59405994 -1.8337513 4288085770
6.5882568 -0.57907581 -1.8381579 4288085770
7.2230225 -0.564785 -1.8433241 4288085770
7.986145 -0.55386448 -1.8554524 4288085770
8.8444214 -0.54245186 -1.8688543 4288085770
10.387939 -0.56270599 -1.9483217 4288085770
12.092529 -0.57911491 -2.0254881 4288085770
11.528809 2.2834406 -0.46932822 4293729569
11.447784 2.4029675 -0.48389 4293729569
11.286621 2.5100946 -0.49352947 4293729569
11.216492 2.6266909 -0.50465518 4293729569
11.144348 2.744276 -0.51486236 4293729569
11.160187 2.8743219 -0.52468395 4293729569
11.176971 3.0033751 -0.53346407 4293729569
11.24176 3.1426744 -0.54240882 4293729569
11.232361 3.2686062 -0.54719365 4293729569
13.533203 0.14643002 -2.0457902 4288085770
11.373291 0.15919781 -1.9584512 4288085770
9.5197144 0.17259693 -1.8733897 4288085770
8.1890564 0.18164539 -1.8273283 4288085770
7.2236938 0.19054317 -1.809305 4288085770
6.4017334 0.19818401 -1.7977937 4288085770
5.7393188 0.20463753 -1.7971802 4288085770
5.1066589 0.21327209 -1.7904296 4288085770
11.788513 0.19435215 -1.9658474 4288085770
4.5582886 0.22033882 -1.7884517 4288085770
9.8768616 0.21443844 -1.881019 4288085770
4.0346985 0.22955513 -1.7825265 4288085770
8.3863525 0.23169613 -1.8180801 4288085770
3.5723267 0.2370882 -1.7792565 4288085770
7.4894409 0.2449255 -1.8094558 4288085770
3.131897 0.24674702 -1.7741523 4288085770
6.6644287 0.25854683 -1.7990761 4288085770
2.7375183 0.25464344 -1.7712785 4288085770
5.9346008 0.27167225 -1.7900542 4288085770
2.3702087 0.26368713 -1.7673746 4288085770
5.3070679 0.28432178 -1.7861211 4288085770
2.0279541 0.27285862 -1.765512 4288085770
4.7294922 0.29624653 -1.78127 4288085770
1.725769 0.28223705 -1.7651167 4288085770
4.2351379 0.30860043 -1.7802389 4288085770
1.4577332 0.29079151 -1.7674146 4288085770
3.745636 0.32099724 -1.7750189 4288085770
1.1946106 0.30037689 -1.767526 4288085770
3.3233032 0.33273983 -1.7732286 4288085770
0.94851685 0.31005383 -1.7679862 4288085770
2.8998108 0.34449387 -1.7664793 4288085770
0.70129395 0.31973553 -1.7654864 4288085770
2.5364685 0.35655594 -1.7634306 4288085770
0.47915649 0.32954693 -1.7640288 4288085770
2.1971436 0.36774921 -1.7604592 4288085770
0.27102661 0.33943462 -1.7630348 4288085770
1.913147 0.37921238 -1.7633787 4288085770
0.08001709 0.34939957 -1.7643886 4288085770
1.6249695 0.39066601 -1.7634532 4288085770
-0.11621094 0.35935783 -1.7609363 4288085770
1.3688965 0.40228367 -1.7653015 4288085770
-0.29528809 0.36840057 -1.759828 4288085770
1.1055908 0.41388416 -1.761421 4288085770
-0.44924927 0.37856102 -1.7627637 4288085770
0.87350464 0.42563725 -1.7613515 4288085770
-0.60632324 0.38871765 -1.7618167 4288085770
0.64224243 0.43741131 -1.7572459 4288085770
-0.76644897 0.39886665 -1.7589858 4288085770
0.42807007 0.44926548 -1.755488 4288085770
-0.91357422 0.40908146 -1.7576561 4288085770
0.24002075 0.46125317 -1.7567333 4288085770
0.056945801 0.47327232 -1.7557881 4288085770
-0.13235474 0.48427105 -1.7510716 4288085770
-0.28225708 0.49645424 -1.7538606 4288085770
-0.44439697 0.50758839 -1.7521082 4288085770
-0.5894165 0.51980591 -1.7527075 4288085770
-0.72445679 0.53207684 -1.752924 4288085770
-0.8706665 0.54330254 -1.7495601 4288085770
-1.0129089 0.5555582 -1.7440484 4288085770
-1.0646362 2.7739038 -1.715667 4288085770
-0.93060303 2.822607 -1.7177343 4288085770
-0.80178833 2.8663063 -1.7139785 4288085770
