# .PCD v0.7 - Point Cloud Data file format
VERSION 0.7
FIELDS x y z rgb
SIZE 4 4 4 4
TYPE F F F U
COUNT 1 1 1 1
WIDTH 1132
HEIGHT 1
VIEWPOINT 0 0 0 1 0 0 0
POINTS 1132
DATA ascii
5.0339088 3.2239027 -1.8015798 4288085770
8.2675476 5.3063126 -0.93829501 4293729569
7.4422603 4.7719316 -1.740109 4288085770
6.3455439 4.0624905 -1.7468615 4288085770
8.6679163 5.5534911 -1.6813695 4288085770
8.2288771 5.2566438 -1.4342515 4293729569
6.2775683 4.0034599 -1.7488241 4288085770
5.0039244 3.1858854 -1.8045455 4288085770
8.8798685 5.6695766 -1.6793872 4288085770
7.5992279 4.8459978 -1.7361048 4288085770
8.2685795 5.2632785 -0.96323252 4293729569
6.2255907 3.9534307 -1.7547885 4288085770
9.080822 5.7746639 -1.6723969 4288085770
4.9639401 3.140871 -1.8025082 4288085770
7.7701936 4.9270668 -1.7341011 4288085770
8.4718733 5.3656511 -1.4992372 4293729569
6.1696129 3.900404 -1.7577513 4288085770
8.7618465 5.5466709 -1.5712936 4293729569
8.2566128 5.2102423 -0.98616475 4293729569
7.9341598 5.0001364 -1.7280905 4288085770
4.9409552 3.104856 -1.8054719 4288085770
6.1136351 3.8453772 -1.7607113 4288085770
8.2818966 5.2176456 -1.4461581 4293729569
8.7598648 5.4986668 -1.5722263 4293729569
8.2638836 5.1796951 -1.4021162 4293729569
6.0686564 3.7963524 -1.764672 4288085770
8.1171246 5.0832119 -1.7250812 4288085770
4.9079695 3.0628428 -1.8044338 4288085770
8.2766409 5.1762137 -1.0121015 4293729569
8.2698669 5.1557493 -1.3620775 4293729569
6.0236759 3.7473283 -1.7686327 4288085770
8.3020878 5.16329 -1.7200663 4288085770
8.8788805 5.5216537 -1.6161757 4293729569
4.8739839 3.0188313 -1.8013935 4288085770
8.2818489 5.1338038 -1.3230374 4293729569
8.2946682 5.1401863 -1.0370371 4293729569
5.9976954 3.7083061 -1.7765944 4288085770
8.4670544 5.2283664 -1.7100438 4288085770
4.8519983 2.981818 -1.8033547 4288085770
8.2818336 5.1028581 -1.2809929 4293729569
9.1188841 5.6166596 -1.6821439 4288085770
5.9557157 3.6582837 -1.7795514 4288085770
8.3056984 5.097157 -1.0609674 4293729569
8.6510181 5.3014503 -1.7000196 4288085770
8.3138161 5.0899172 -1.2449516 4293729569
4.8300123 2.9438069 -1.8033144 4288085770
5.9227352 3.6132641 -1.7835093 4288085770
9.0259285 5.5036139 -1.6870468 4288085770
8.3527946 5.0799789 -1.2089099 4293729569
8.8639774 5.3905406 -1.6939981 4288085770
8.3337231 5.0641336 -1.0859002 4293729569
5.8957539 3.5702446 -1.7884656 4288085770
4.8170252 2.9107959 -1.806275 4288085770
8.3327847 5.0320272 -1.1648546 4293729569
8.9549713 5.4035721 -1.6959528 4288085770
9.0839367 5.4796324 -1.6889716 4288085770
5.8787723 3.533226 -1.7964234 4288085770
8.3457537 5.0201049 -1.1088283 4293729569
4.805038 2.877785 -1.8092346 4288085770
8.3477688 5.0030842 -1.1248024 4293729569
8.8749495 5.3076601 -1.6038709 4293729569
5.8397908 3.48121 -1.7953752 4288085770
8.9030094 5.3145361 -1.7058612 4288085770
4.7850509 2.8397763 -1.8081927 4288085770
8.3637819 4.9770803 -1.1317536 4293729569
8.3897514 4.9901452 -1.0897541 4293729569
8.4769869 5.023653 -1.4887415 4293729569
5.8148088 3.4371929 -1.7993284 4288085770
8.829052 5.2124972 -1.7117664 4288085770
8.4017363 4.9582014 -1.0496994 4293729569
4.7710643 2.8037672 -1.8091494 4288085770
8.4298048 4.9620652 -1.1606854 4293729569
8.4269829 4.9487004 -1.4366685 4293729569
5.7888269 3.3921781 -1.8012812 4288085770
8.4497166 4.9442658 -1.0136455 4293729569
4.7620773 2.7707582 -1.8111069 4288085770
8.763092 5.1144624 -1.7166715 4288085770
8.4418335 4.9130411 -1.1816062 4293729569
5.7588439 3.3441639 -1.8012321 4288085770
8.4539671 4.9187603 -1.3976063 4293729569
10.436664 6.075314 -0.054877385 4293729569
8.5156946 4.9403358 -0.9795934 4293729569
4.7520895 2.7357504 -1.8120619 4288085770
8.7021303 5.0194278 -1.7225772 4288085770
5.7378607 3.3001506 -1.8031824 4288085770
8.4679556 4.8788176 -1.3565387 4293729569
10.407718 5.9992471 -0.095788613 4293729569
8.476861 4.8770204 -1.2055296 4293729569
8.6276665 4.9614177 -0.94954491 4293729569
4.7321014 2.6947448 -1.8080153 4288085770
5.7328773 3.2651389 -1.8091344 4288085770
8.5019407 4.8498797 -1.3184727 4293729569
8.6481676 4.9283967 -1.7284837 4288085770
10.237803 5.840127 -0.13467908 4293729569
8.560667 4.8774524 -0.90147072 4293729569
8.519886 4.8440037 -1.2294514 4293729569
5.6998935 3.2131271 -1.8060815 4288085770
4.730114 2.6627388 -1.8099689 4288085770
8.5439253 4.8229413 -1.2824041 4293729569
8.6736383 4.8945355 -0.87141573 4293729569
10.112876 5.7080255 -0.17257676 4293729569
8.5832062 4.8313642 -1.7313893 4288085770
8.5689125 4.8119869 -1.2543706 4293729569
5.6799102 3.1681168 -1.8060294 4288085770
8.662631 4.8405838 -0.82934541 4293729569
8.5829115 4.7950044 -1.2453362 4293729569
4.7191257 2.6267331 -1.8089232 4288085770
10.02494 5.5969405 -0.20947862 4293729569
8.5042439 4.7263317 -1.7302928 4288085770
8.6489334 4.7969799 -1.2822925 4293729569
8.7416086 4.8356586 -0.79528254 4293729569
5.6669259 3.1261065 -1.8079766 4288085770
8.6478949 4.7790713 -1.2122673 4293729569
4.7131371 2.5927277 -1.8088766 4288085770
9.9300051 5.4808536 -0.24537806 4293729569
8.4142838 4.6152992 -1.7261956 4288085770
8.760951 4.7959785 -1.3152121 4293729569
8.8315859 4.8347354 -0.76221776 4293729569
5.6559405 3.0850983 -1.8089238 4288085770
8.7168779 4.7631402 -1.1791955 4293729569
4.7131486 2.5607235 -1.8098286 4288085770
9.9150543 5.4097977 -0.28228623 4293729569
8.9145641 4.8278112 -0.72814918 4293729569
8.32932 4.507268 -1.7220987 4288085770
5.6299567 3.0350907 -1.8048686 4288085770
8.8099775 4.7599664 -1.3371254 4293729569
8.8378544 4.7742214 -1.1521262 4293729569
9.8631096 5.3177285 -0.31718996 4293729569
4.7101603 2.5267191 -1.8097798 4288085770
9.0465364 4.845902 -0.69708246 4293729569
8.2773542 4.4192438 -1.7230076 4288085770
5.6249714 2.9960828 -1.8068143 4288085770
8.9118376 4.7572923 -1.1190495 4293729569
9.0299835 4.8139863 -1.3860487 4293729569
9.8061657 5.2226605 -0.35009274 4293729569
4.706171 2.4917159 -1.80873 4288085770
9.1565104 4.8489881 -0.66400945 4293729569
5.6109853 2.9520776 -1.804759 4288085770
9.0028191 4.7483664 -1.0879724 4293729569
8.247386 4.3412209 -1.7289153 4288085770
9.7742138 5.1416016 -0.38299814 4293729569
9.0810118 4.7739749 -1.4079551 4293729569
4.7011809 2.4567146 -1.8056812 4288085770
9.275485 4.8550768 -0.63093448 4293729569
9.1787882 4.7814631 -1.0658965 4293729569
5.6019998 2.9090712 -1.8047017 4288085770
8.2144165 4.2622013 -1.7318237 4288085770
9.7182684 5.0475373 -0.41390142 4293729569
9.2800217 4.8099928 -1.4518671 4293729569
4.7201924 2.4327099 -1.8126312 4288085770
9.3874607 4.8541636 -0.59685433 4293729569
9.3897543 4.8285704 -1.0468162 4293729569
5.5980134 2.8700669 -1.8046465 4288085770
9.7143126 4.9794893 -0.4468058 4293729569
8.1664495 4.1751795 -1.7317307 4288085770
9.3280497 4.7649813 -1.4727681 4293729569
9.5084343 4.8562546 -0.56277221 4293729569
4.7102032 2.3927093 -1.8075782 4288085770
9.302762 4.7216001 -0.99572235 4293729569
5.5890269 2.8270628 -1.8025891 4288085770
9.6693649 4.88943 -0.47670698 4293729569
9.6474066 4.8653512 -0.52968758 4293729569
8.1524782 4.106163 -1.7376399 4288085770
9.5570602 4.812006 -1.5206752 4293729569
4.7182131 2.3637078 -1.8085284 4288085770
9.4147434 4.7146821 -0.96563339 4293729569
5.5880394 2.7880604 -1.8015314 4288085770
9.77139 4.8744206 -0.51261353 4293729569
9.8013773 4.8804541 -0.49660116 4293729569
10.958842 5.4585447 -0.017625025 4293729569
8.124506 4.031147 -1.7395501 4288085770
9.6120882 4.7659974 -1.5415697 4293729569
4.7272229 2.3327076 -1.808475 4288085770
9.589716 4.7377806 -0.94154382 4293729569
5.5870528 2.7470584 -1.8004712 4288085770
9.894413 4.8664174 -0.55051553 4293729569
10.491259 5.1557398 -0.48551565 4293729569
10.848913 5.3264537 -0.052511215 4293729569
8.1125326 3.9631324 -1.7444593 4288085770
10.047081 4.9060616 -1.6214674 4293729569
4.7522349 2.3097048 -1.8154222 4288085770
9.7236948 4.7368689 -0.91344821 4293729569
5.5880656 2.7090559 -1.8004137 4288085770
10.026437 4.8614192 -0.58741558 4293729569
10.656228 5.1668496 -0.450416 4293729569
10.788975 5.2193818 -0.087398417 4293729569
3.7474368 1.7973038 -1.8153831 4288085770
8.109561 3.8981202 -1.7503662 4288085770
3.8044276 1.8183252 -1.8153729 4288085770
10.665059 5.1271605 -1.7303542 4288085770
4.7472434 2.2717075 -1.8093684 4288085770
9.8636742 4.7369604 -0.88434982 4293729569
3.8614192 1.8383468 -1.8153611 4288085770
5.5970788 2.6720562 -1.8003519 4288085770
10.671223 5.1019092 -0.40831143 4293729569
9.7795181 4.6722975 -0.60331464 4293729569
3.9234109 1.8593692 -1.8163475 4288085770
10.677043 5.0882931 -0.11928713 4293729569
3.9934018 1.8843921 -1.8193338 4288085770
9.9926538 4.7290502 -0.85324764 4293729569
8.1105862 3.8341095 -1.7562717 4288085770
4.759254 2.2427075 -1.8103157 4288085770
10.624099 5.0241375 -1.7332337 4288085770
4.064394 1.9074147 -1.8223165 4288085770
5.6050916 2.636055 -1.8012921 4288085770
4.0014019 1.876399 -1.8153157 4288085770
3.9554117 1.8543781 -1.8173161 4288085770
3.9004195 1.8283615 -1.8133167 4288085770
3.8574283 1.8073431 -1.8143164 4288085770
12.562905 5.923635 -0.42617601 4293729569
4.0643935 1.9044172 -1.8203119 4288085770
3.8224373 1.789325 -1.8173147 4288085770
4.1103835 1.9244394 -1.8173085 4288085770
9.8315525 4.6272755 -0.63421261 4293729569
3.7764452 1.7663094 -1.8153136 4288085770
4.1653743 1.9474623 -1.816303 4288085770
3.7534549 1.7522904 -1.822309 4288085770
4.1263843 1.926441 -1.8202997 4288085770
4.2273641 1.9734838 -1.818297 4288085770
10.661095 5.0022411 -0.15217368 4293729569
4.2833538 1.9955096 -1.8152895 4288085770
4.3403425 2.0175343 -1.8132811 4288085770
4.1983752 1.9494672 -1.8212818 4288085770
10.129635 4.7231407 -0.82414269 4293729569
4.4073324 2.0435605 -1.8132713 4288085770
8.1076126 3.7710991 -1.7611815 4288085770
4.7752638 2.2127087 -1.8112584 4288085770
10.596137 4.9291167 -1.7391155 4288085770
4.4863214 2.0745871 -1.8162605 4288085770
5.6161032 2.6000559 -1.8012302 4288085770
10.663222 4.953012 -0.32510108 4293729569
4.2773666 1.974493 -1.8242618 4288085770
10.15055 4.7043343 -0.68310046 4293729569
4.55231 2.0976167 -1.8132471 4288085770
10.72513 4.9542208 -0.1850592 4293729569
4.625299 2.1236463 -1.8122332 4288085770
4.3493562 1.995523 -1.8222408 4288085770
4.7012863 2.1506765 -1.8112185 4288085770
10.278614 4.7192364 -0.79503238 4293729569
4.4253459 2.0165532 -1.8212169 4288085770
8.139636 3.7220938 -1.772087 4288085770
10.716213 4.9050817 -0.28699434 4293729569
4.7922726 2.183712 -1.811202 4288085770
10.548177 4.8250947 -1.7389982 4288085770
4.7802744 2.1777084 -1.8102016 4288085770
5.6271148 2.5640581 -1.8001685 4288085770
10.38656 4.7383695 -0.72598422 4293729569
4.852262 2.1997426 -1.8051825 4288085770
4.497335 2.0355852 -1.817193 4288085770
10.872153 4.942234 -0.21793877 4293729569
4.9352493 2.2267771 -1.8031628 4288085770
10.433594 4.7153335 -0.76591778 4293729569
4.5923252 2.0636163 -1.821166 4288085770
5.0132351 2.2508149 -1.7971424 4288085770
10.913181 4.9192047 -0.25087664 4293729569
4.8122826 2.1567137 -1.8131465 4288085770
8.1476612 3.6620874 -1.776993 4288085770
10.492214 4.7190723 -1.7368835 4288085770
5.6411262 2.5290592 -1.8011057 4288085770
10.49959 4.713366 -0.76086861 4293729569
5.1092224 2.2808521 -1.7971178 4288085770
4.6813145 2.0876498 -1.8211373 4288085770
11.008179 4.9222422 -0.25081444 4293729569
5.2142096 2.3138897 -1.7990913 4288085770
10.586574 4.7094307 -0.7368018 4293729569
4.760303 2.1066854 -1.8171085 4288085770
11.117148 4.9333315 -0.2147541 4293729569
5.3191948 2.3469317 -1.7980649 4288085770
4.8302913 2.127717 -1.8130893 4288085770
5.6431375 2.4880629 -1.7960427 4288085770
8.1496849 3.5990813 -1.779899 4288085770
10.409253 4.601048 -1.72877 4288085770
10.665614 4.7103777 -0.79974777 4293729569
4.8472919 2.127722 -1.8140768 4288085770
5.4361811 2.3829744 -1.8000345 4288085770
11.099213 4.8802333 -0.28268966 4293729569
10.742557 4.7015276 -0.70868069 4293729569
4.9402809 2.1507585 -1.813044 4288085770
5.5481672 2.4150174 -1.8000017 4288085770
11.338116 4.9514637 -0.17962556 4293729569
5.6731491 2.4590662 -1.7999775 4288085770
4.8533015 2.1007199 -1.8150315 4288085770
10.348289 4.4930272 -1.7236555 4288085770
8.1797075 3.5480781 -1.7888027 4288085770
10.829638 4.7023878 -0.83962107 4293729569
5.6631517 2.4480641 -1.7979681 4288085770
5.0172672 2.1657991 -1.8040107 4288085770
11.309228 4.88727 -0.31655282 4293729569
5.7711363 2.4761124 -1.7929323 4288085770
10.945532 4.7106423 -0.68155158 4293729569
11.611073 4.9886184 -0.14348829 4293729569
5.125257 2.1918392 -1.8049716 4288085770
5.6911602 2.4240701 -1.799912 4288085770
5.8701196 2.5001624 -1.783897 4288085770
4.8673105 2.0697243 -1.812974 4288085770
11.009661 4.6994057 -0.87849057 4293729569
10.329323 4.4040155 -1.7245392 4288085770
8.2067299 3.4950762 -1.7957056 4288085770
5.225244 2.2138822 -1.8009322 4288085770
11.460251 4.8682842 -0.34941947 4293729569
6.0161042 2.5412149 -1.7868534 4288085770
11.157507 4.7207584 -0.65541768 4293729569
11.828042 4.9977527 -0.10534963 4293729569
5.3362331 2.2389245 -1.8008895 4288085770
6.1590872 2.5802701 -1.7868091 4288085770
5.7091703 2.3900764 -1.7978476 4288085770
11.191686 4.6934228 -0.91835427 4293729569
4.8963194 2.04373 -1.8149134 4288085770
10.311355 4.3150063 -1.724422 4288085770
8.2167549 3.4330735 -1.798607 4288085770
11.628276 4.8513055 -0.38227716 4293729569
5.4572215 2.2679682 -1.8028457 4288085770
6.3160706 2.6233284 -1.7887607 4288085770
11.367483 4.7268753 -0.62827927 4293729569
5.5692081 2.2910161 -1.7987996 4288085770
6.4570532 2.6573868 -1.7857105 4288085770
5.7321811 2.356082 -1.7977798 4288085770
11.370711 4.6844406 -0.95721585 4293729569
4.9033265 2.0087368 -1.8088549 4288085770
10.325385 4.2390037 -1.728301 4288085770
8.221777 3.3710709 -1.7995121 4288085770
11.851293 4.8553472 -0.41612697 4293729569
6.6270356 2.7024505 -1.7876558 4288085770
5.6911955 2.317064 -1.7977507 4288085770
11.634455 4.7520132 -0.60312885 4293729569
6.799017 2.746516 -1.7885987 4288085770
5.7491918 2.3200893 -1.7947135 4288085770
11.560737 4.6764598 -0.99807101 4293729569
5.8091836 2.3391128 -1.7946988 4288085770
4.9283347 1.9817429 -1.8087955 4288085770
10.384413 4.1820092 -1.7391763 4288085770
8.2157993 3.3040681 -1.7974173 4288085770
12.01132 4.8303652 -0.44897869 4293729569
11.829434 4.7451258 -0.57498223 4293729569
6.9699988 2.7885835 -1.7875391 4288085770
5.9391704 2.365165 -1.7926444 4288085770
5.7752028 2.287096 -1.794645 4288085770
11.998738 4.7625513 -1.0588899 4293729569
7.151979 2.8326557 -1.7864749 4288085770
4.9513431 1.9517496 -1.8077329 4288085770
10.378443 4.0990057 -1.7380592 4288085770
8.2258224 3.2430689 -1.7973201 4288085770
6.0821567 2.3942201 -1.7925851 4288085770
12.255335 4.8354154 -0.48281538 4293729569
12.118403 4.7722707 -0.55081952 4293729569
7.3639593 2.8857319 -1.7914029 4288085770
6.2301435 2.4232771 -1.7925224 4288085770
5.8082118 2.2571058 -1.7945758 4288085770
12.193767 4.7485738 -1.0987329 4293729569
7.5499382 2.9268095 -1.7873315 4288085770
4.9773521 1.9237576 -1.8066715 4288085770
10.385471 4.0200052 -1.7379385 4288085770
8.2308426 3.1800687 -1.7962234 4288085770
12.340374 4.7744102 -0.5106672 4293729569
12.324386 4.7623878 -0.52266091 4293729569
6.3691306 2.4483342 -1.7894603 4288085770
7.7709174 2.9788945 -1.7882518 4288085770
5.8452225 2.2271144 -1.7965039 4288085770
12.217812 4.6675496 -1.1225983 4293729569
6.5271173 2.4773953 -1.7893907 4288085770
5.0143604 1.8997657 -1.8086077 4288085770
7.9858961 3.0259812 -1.7861689 4288085770
10.418497 3.9510107 -1.7418143 4288085770
8.2428637 3.1200719 -1.7951261 4288085770
6.6911035 2.5074582 -1.7893184 4288085770
8.2408733 3.0860744 -1.7910771 4288085770
5.8722315 2.1931257 -1.7934331 4288085770
18.545284 6.9492807 -1.7214972 4288085770
5.0363688 1.8687735 -1.8065445 4288085770
10.470523 3.8890221 -1.7466869 4288085770
8.2448854 3.0560746 -1.7910299 4288085770
6.8790889 2.5435274 -1.7922381 4288085770
8.5068493 3.1461749 -1.7939779 4288085770
5.9102416 2.163136 -1.7943603 4288085770
18.229383 6.693151 -1.7233473 4288085770
8.7698259 3.2032771 -1.7948762 4288085770
7.0540748 2.5735962 -1.7911583 4288085770
5.0783777 1.8457824 -1.8094789 4288085770
10.517549 3.8250329 -1.7505599 4288085770
8.2569046 2.9960792 -1.7889323 4288085770
9.0338011 3.2563844 -1.7917681 4288085770
7.2280607 2.5996673 -1.7880733 4288085770
5.9562507 2.1351492 -1.795285 4288085770
17.745493 6.38098 -1.7052325 4288085770
5.1063852 1.8167937 -1.8064142 4288085770
10.590571 3.7700503 -1.7574281 4288085770
9.3287745 3.3184993 -1.7926518 4288085770
8.2799225 2.939086 -1.7878315 4288085770
7.4250455 2.6337428 -1.7889838 4288085770
5.9932599 2.104162 -1.7942115 4288085770
17.500582 6.1598792 -1.7060831 4288085770
9.614749 3.3736157 -1.7895314 4288085770
7.6260314 2.6648209 -1.7888873 4288085770
5.1413922 1.7898053 -1.8053474 4288085770
10.666595 3.7130685 -1.7642909 4288085770
8.3079424 2.884094 -1.7877301 4288085770
9.9307222 3.4357414 -1.7884004 4288085770
7.8380165 2.6989031 -1.7887876 4288085770
6.0412703 2.0751762 -1.795133 4288085770
17.29866 5.9597912 -1.709934 4288085770
5.2004018 1.7708157 -1.8122756 4288085770
10.233694 3.4888699 -1.7812655 4288085770
10.754618 3.6600916 -1.7711513 4288085770
8.3399601 2.8301036 -1.7876272 4288085770
8.038002 2.7239866 -1.7846832 4288085770
6.0932789 2.0481923 -1.7960551 4288085770
17.161732 5.7807226 -1.7187698 4288085770
10.576665 3.5530083 -1.7791189 4288085770
8.2729864 2.760077 -1.7855704 4288085770
5.2434106 1.7448276 -1.8132048 4288085770
10.85364 3.6101196 -1.7780083 4288085770
8.3709784 2.775115 -1.7855235 4288085770
10.910636 3.6091497 -1.7719669 4288085770
6.1472878 2.0202091 -1.7969737 4288085770
17.060802 5.6176691 -1.7276038 4288085770
8.5019703 2.7901692 -1.7834531 4288085770
5.2844176 1.7188417 -1.8121353 4288085770
11.242605 3.660295 -1.7608092 4288085770
10.939662 3.5551445 -1.7828671 4288085770
8.4189978 2.7261298 -1.7864166 4288085770
8.7449551 2.8222656 -1.7823291 4288085770
6.2072973 1.9942269 -1.7988915 4288085770
16.995865 5.4676256 -1.7394313 4288085770
11.611575 3.7194507 -1.7536376 4288085770
5.3344259 1.6948552 -1.8140625 4288085770
9.032938 2.8653719 -1.7871898 4288085770
11.035683 3.5011735 -1.7877203 4288085770
8.4750147 2.6791465 -1.788307 4288085770
12.025542 3.7876215 -1.7484475 4288085770
6.2623067 1.965245 -1.7988083 4288085770
16.960924 5.3275943 -1.7512523 4288085770
9.3129234 2.9014795 -1.7890459 4288085770
5.3774338 1.6688702 -1.8129916 4288085770
11.127705 3.4452038 -1.7905734 4288085770
12.461507 3.8578024 -1.7422453 4288085770
3.7236431 1.1452057 -1.8133799 4288085770
8.5130301 2.6261613 -1.7862012 4288085770
3.7936382 1.161229 -1.8163537 4288085770
6.331316 1.9412656 -1.8017225 4288085770
3.6756463 1.1221958 -1.8053788 4288085770
3.7346416 1.1402156 -1.8083639 4288085770
3.7946346 1.1582383 -1.8093483 4288085770
3.8596287 1.1772602 -1.8123305 4288085770
16.906988 5.1815596 -1.7600777 4288085770
3.8646326 1.1772541 -1.8183268 4288085770
3.9266229 1.1962829 -1.8153114 4288085770
9.6149073 2.9415944 -1.7918926 4288085770
4.0036182 1.2173055 -1.8212882 4288085770
4.0736117 1.2363305 -1.8232669 4288085770
3.9376256 1.1942812 -1.8193003 4288085770
4.1546063 1.2583561 -1.8282423 4288085770
12.940473 3.9359965 -1.7390251 4288085770
5.4314408 1.6448867 -1.813916 4288085770
4.2295995 1.2773831 -1.8302174 4288085770
4.0126195 1.209309 -1.8202689 4288085770
4.3095922 1.2984121 -1.8321919 4288085770
11.254725 3.3992429 -1.7974168 4288085770
4.3815837 1.3154429 -1.8301661 4288085770
8.5730467 2.5791807 -1.7870889 4288085770
4.1056166 1.2303333 -1.829234 4288085770
4.4585748 1.3344747 -1.8291398 4288085770
9.9428911 2.9857171 -1.7967272 4288085770
6.3963246 1.9142866 -1.8026352 4288085770
4.1906114 1.2483627 -1.8322003 4288085770
4.5475669 1.3545083 -1.8301063 4288085770
16.83005 5.0305219 -1.7639116 4288085770
13.467435 4.0212078 -1.7377819 4288085770
4.6235571 1.3715436 -1.8260777 4288085770
4.2836061 1.2673922 -1.8371623 4288085770
4.7185488 1.3935797 -1.8270432 4288085770
5.48945 1.6209035 -1.8158376 4288085770
4.3535972 1.2794259 -1.8321302 4288085770
4.7995386 1.4096167 -1.8230093 4288085770
10.266873 3.0238421 -1.7985559 4288085770
11.344747 3.3402748 -1.7982668 4288085770
8.6570644 2.5382044 -1.7919683 4288085770
4.8895283 1.4286559 -1.8199737 4288085770
4.4475913 1.2974583 -1.8350899 4288085770
14.026396 4.1094332 -1.7355208 4293729569
6.4663334 1.88831 -1.803546 4288085770
4.9915195 1.4496959 -1.8199325 4288085770
16.745108 4.8784828 -1.7667494 4288085770
4.5365834 1.3134942 -1.8340504 4288085770
5.0995102 1.4717382 -1.8198886 4288085770
10.645857 3.0739806 -1.8073641 4288085770
5.5454578 1.5969211 -1.8167605 4288085770
4.6315765 1.33053 -1.835008 4288085770
5.2105007 1.4937819 -1.8198428 4288085770
14.589356 4.194663 -1.731253 4293729569
11.454765 3.2863152 -1.7991103 4288085770
8.7150812 2.4882271 -1.789853 4288085770
4.7125664 1.3415701 -1.8279666 4288085770
5.3114886 1.5128281 -1.8147993 4288085770
6.5373411 1.8613348 -1.8034543 4288085770
16.637165 4.7224412 -1.7635972 4288085770
5.4394794 1.5378743 -1.8177459 4288085770
4.8065581 1.3566092 -1.8259219 4288085770
10.994842 3.1101182 -1.8071725 4288085770
15.253313 4.2979293 -1.7309412 4293729569
5.6094646 1.5749403 -1.818681 4288085770
5.5644693 1.5609235 -1.8176916 4288085770
4.9005499 1.3706498 -1.8228759 4288085770
11.574786 3.2333581 -1.800948 4288085770
5.6974607 1.5849743 -1.8186333 4288085770
6.6053491 1.8343601 -1.8023649 4288085770
8.7720966 2.4382498 -1.787738 4288085770
5.0165434 1.3896897 -1.8268217 4288085770
11.326825 3.1362565 -1.8019786 4288085770
5.8254485 1.6080275 -1.8165768 4288085770
16.423223 4.5393715 -1.7494794 4288085770
16.020264 4.421226 -1.7375872 4293729569
5.1135345 1.4027338 -1.821772 4288085770
5.6764741 1.5519596 -1.8215977 4288085770
5.9514365 1.6270834 -1.8115159 4288085770
5.2375274 1.4217782 -1.8247123 4288085770
11.709805 3.1824057 -1.8037784 4288085770
6.0894246 1.6501417 -1.8084525 4288085770
6.6883574 1.8093876 -1.804268 4288085770
11.680809 3.1644018 -1.797772 4288085770
8.8611116 2.3962784 -1.7906127 4288085770
16.859213 4.5565519 -1.7452011 4288085770
5.353519 1.437826 -1.8226538 4288085770
6.2394133 1.6742018 -1.8073821 4288085770
16.237284 4.3653145 -1.7353547 4293729569
5.7464814 1.5299816 -1.8235137 4288085770
5.4745107 1.4538743 -1.8215916 4288085770
6.4034019 1.7012652 -1.8083065 4288085770
12.062792 3.1955559 -1.7955508 4288085770
11.829823 3.1284525 -1.8026148 4288085770
17.841156 4.7169251 -1.7597523 4288085770
6.7583647 1.7804163 -1.8011742 4288085770
6.5663905 1.7253321 -1.8062271 4288085770
5.5995026 1.4699243 -1.8205267 4288085770
8.9561281 2.3553095 -1.7934846 4288085770
16.223331 4.2413044 -1.7371832 4293729569
6.7203765 1.7464006 -1.8001497 4288085770
5.7364941 1.4879781 -1.8204564 4288085770
5.819489 1.5080045 -1.8254279 4288085770
12.484776 3.2327213 -1.7973105 4288085770
18.942095 4.8963423 -1.7782491 4288085770
6.8893633 1.7704726 -1.796066 4288085770
6.8543735 1.7584476 -1.8040726 4288085770
11.945842 3.0695012 -1.7994466 4288085770
5.8904872 1.5090317 -1.8253788 4288085770
9.0411444 2.3103409 -1.7933575 4288085770
7.0863514 1.7985491 -1.7969689 4288085770
16.323378 4.1443262 -1.749972 4293729569
6.0334797 1.525089 -1.8243011 4288085770
12.92376 3.2668958 -1.7970542 4288085770
5.8954973 1.4860276 -1.8283398 4288085770
7.2823386 1.8266279 -1.7958724 4288085770
6.1744699 1.540148 -1.821224 4288085770
6.9553819 1.7354808 -1.8069662 4288085770
12.09386 3.0185578 -1.799268 4288085770
9.1441584 2.2683775 -1.7942225 4288085770
7.4993262 1.8567125 -1.7967645 4288085770
13.491743 3.3261042 -1.8107451 4288085770
6.3274608 1.5562104 -1.8191394 4288085770
16.358421 4.0303321 -1.7537811 4293729569
5.9785056 1.4650534 -1.8312485 4288085770
7.7243128 1.8868001 -1.7976507 4288085770
7.0443888 1.7095149 -1.8058636 4288085770
6.4874525 1.5722744 -1.8180501 4288085770
12.254876 2.9686203 -1.7990816 4288085770
7.9532986 1.9158936 -1.7955327 4288085770
9.2421732 2.2244141 -1.7940879 4288085770
14.068726 3.3823171 -1.8234253 4288085770
6.6544437 1.5883425 -1.815956 4288085770
16.447462 3.9293547 -1.7625713 4293729569
6.0485125 1.4400795 -1.8301604 4288085770
8.1912832 1.9449904 -1.7934088 4288085770
7.1573973 1.6885532 -1.8087519 4288085770
6.8224344 1.6034111 -1.8138599 4288085770
12.426893 2.9196875 -1.7988893 4288085770
14.680709 3.4375448 -1.83608 4288085770
8.4802704 1.9830985 -1.7982624 4288085770
9.3821888 2.1894581 -1.8009372 4288085770
6.1415215 1.420107 -1.8350637 4288085770
6.9824238 1.6144832 -1.8067634 4288085770
16.543507 3.8323829 -1.7693626 4293729569
8.7572556 2.0162089 -1.7981172 4288085770
7.2574048 1.6625915 -1.8076419 4288085770
15.315692 3.4917834 -1.8477178 4288085770
12.59491 2.8677564 -1.7956953 4288085770
7.1814156 1.63256 -1.8076502 4288085770
9.0502405 2.0503254 -1.7979622 4288085770
9.4912033 2.1455004 -1.7997948 4288085770
6.2155271 1.3951374 -1.8319726 4288085770
16.684546 3.7404234 -1.78013 4288085770
7.3734074 1.6476383 -1.8055372 4288085770
9.3622255 2.0854497 -1.7977955 4288085770
7.3694124 1.639631 -1.8095279 4288085770
15.80768 3.5039909 -1.8393933 4288085770
12.809926 2.824837 -1.7984817 4288085770
7.5723982 1.6617205 -1.802418 4288085770
9.701211 2.1235805 -1.8006147 4288085770
9.6212168 2.1055474 -1.801644 4288085770
6.3095355 1.3741679 -1.8348739 4288085770
16.842585 3.6514728 -1.7898899 4288085770
7.4864202 1.6156751 -1.8094089 4288085770
7.8143916 1.6828098 -1.8072792 4288085770
16.312666 3.5132051 -1.8300555 4288085770
10.031194 2.1557162 -1.7974313 4288085770
13.058941 2.7869301 -1.8022522 4288085770
9.7522326 2.0655959 -1.8024925 4288085770
6.3835406 1.3481998 -1.8307816 4288085770
8.0633831 1.7029043 -1.8101342 4288085770
10.399177 2.1928647 -1.7962291 4288085770
7.6224284 1.5947216 -1.8132813 4288085770
17.028625 3.5655317 -1.8006349 4288085770
16.759657 3.5034068 -1.8127304 4288085770
8.3083754 1.7190014 -1.8099859 4288085770
10.81516 2.2370257 -1.8000038 4288085770
13.306957 2.7460251 -1.8040189 4288085770
6.4845481 1.3262361 -1.8316764 4288085770
9.896246 2.0256498 -1.8033317 4288085770
7.7704377 1.5757718 -1.8181483 4288085770
8.5743675 1.7371044 -1.8118263 4288085770
11.230142 2.275193 -1.7987704 4288085770
17.254648 3.4976239 -1.7983782 4288085770
17.185661 3.4725842 -1.8073894 4288085770
13.581971 2.70713 -1.8067698 4288085770
8.8443604 1.7532102 -1.8126608 4288085770
11.681123 2.3163738 -1.7985168 4288085770
6.585556 1.302272 -1.8325683 4288085770
10.06426 1.9897096 -1.8071604 4288085770
7.926446 1.5558264 -1.8220084 4288085770
17.823637 3.4988644 -1.7889849 4288085770
17.317703 3.3726332 -1.8091511 4288085770
12.142105 2.3565602 -1.7972547 4288085770
9.1723537 1.778329 -1.8214686 4288085770
13.948985 2.6842589 -1.8194804 4288085770
6.6945629 1.2813116 -1.8334591 4288085770
10.245276 1.9547734 -1.8119814 4288085770
8.0694523 1.5318826 -1.8208715 4288085770
18.465628 3.5061281 -1.7845502 4288085770
12.641085 2.3967628 -1.7949663 4288085770
9.4443455 1.7874434 -1.8162917 4288085770
17.45874 3.2736876 -1.8099082 4288085770
14.378001 2.667408 -1.836157 4288085770
6.7925687 1.2563521 -1.8303518 4288085770
13.191064 2.4419854 -1.79365 4288085770
9.7523384 1.8015676 -1.8150972 4288085770
10.432289 1.9178419 -1.8147955 4288085770
8.23246 1.5119417 -1.8237268 4288085770
19.267618 3.5324421 -1.7910323 4288085770
13.836044 2.4982338 -1.8012842 4288085770
17.612778 3.1747487 -1.809656 4288085770
10.087331 1.8156997 -1.8158841 4288085770
6.8975749 1.232394 -1.8282411 4288085770
14.827016 2.6505666 -1.85182 4288085770
8.4164696 1.4930067 -1.8285691 4288085770
10.637304 1.883916 -1.8196015 4288085770
14.762026 2.5975606 -1.8357869 4288085770
10.441323 1.8308383 -1.8176593 4288085770
17.803812 3.0808218 -1.8113855 4288085770
6.9885793 1.204437 -1.8211342 4288085770
15.25303 2.6247249 -1.8604857 4288085770
8.6254778 1.4770778 -1.8363985 4288085770
15.629005 2.6778836 -1.8553028 4288085770
10.815319 1.8439865 -1.8184178 4288085770
10.85432 1.8479944 -1.8243965 4288085770
16.396982 2.7311935 -1.854848 4288085770
7.1015844 1.1804837 -1.8180182 4288085770
18.003847 2.9859011 -1.8111074 4288085770
11.19131 1.8541384 -1.8171706 4288085770
15.691043 2.5948915 -1.8671374 4288085770
8.8474874 1.4611542 -1.8442191 4288085770
11.066334 1.8100764 -1.8251921 4288085770
17.005955 2.7494724 -1.8294523 4288085770
11.564301 1.8592956 -1.8109181 4288085770
7.2375917 1.1585345 -1.818889 4288085770
9.0414953 1.4382303 -1.8440486 4288085770
18.228884 2.8929896 -1.811815 4288085770
16.084057 2.5520515 -1.8648014 4288085770
4.8817472 0.76858568 -1.8149487 4288085770
4.9867401 0.78462809 -1.8148993 4288085770
4.7727518 0.75054538 -1.8119977 4288085770
5.097734 0.80067295 -1.8148458 4288085770
5.2127271 0.81771815 -1.8157909 4288085770
11.283346 1.7711604 -1.8259826 4288085770
5.3337202 0.83476555 -1.816732 4288085770
17.67593 2.7717721 -1.8070203 4288085770
5.4417109 0.84881699 -1.8106774 4288085770
4.7437606 0.73752469 -1.8179977 4288085770
5.5677028 0.8658691 -1.809615 4288085770
11.999298 1.8694673 -1.8126302 4288085770
5.7046957 0.88392311 -1.8105462 4288085770
4.853756 0.75156623 -1.8199418 4288085770
5.8626914 0.90398008 -1.8154658 4288085770
4.9597507 0.76360995 -1.8188854 4288085770
7.3715978 1.1355888 -1.8167598 4288085770
6.0116835 0.92103988 -1.815387 4288085770
5.0697446 0.77565539 -1.8178265 4288085770
9.2174988 1.4113072 -1.8378849 4288085770
6.1896782 0.94310361 -1.8212956 4288085770
5.1887393 0.78870171 -1.8187625 4288085770
16.478067 2.5072174 -1.858462 4288085770
18.605904 2.8251531 -1.8024539 4288085770
18.440916 2.7960782 -1.8085257 4288085770
6.3516698 0.96016997 -1.820208 4288085770
5.308733 0.80075103 -1.8176967 4288085770
12.433291 1.8746456 -1.8093359 4288085770
6.5286632 0.9802385 -1.8221143 4288085770
11.532361 1.7332562 -1.8277526 4288085770
5.4297256 0.81280339 -1.8146298 4288085770
6.695653 0.99731082 -1.8180231 4288085770
5.5677214 0.82585597 -1.8165526 4288085770
7.5146046 1.1126436 -1.8166246 4288085770
6.8586411 1.012387 -1.8099316 4288085770
9.445507 1.3903943 -1.8396941 4288085770
5.6967149 0.83691162 -1.8134787 4288085770
19.667875 2.8895817 -1.8028127 4288085770
7.0516324 1.0304658 -1.8088239 4288085770
12.934288 1.8838428 -1.812001 4288085770
5.8387084 0.84896958 -1.8123975 4288085770
16.854078 2.4543843 -1.8461232 4288085770
7.265624 1.0505506 -1.8097044 4288085770
18.733952 2.7081933 -1.8101933 4288085770
6.004705 0.86402947 -1.8173038 4288085770
11.785376 1.6943551 -1.8285183 4288085770
7.4816146 1.0696399 -1.807582 4288085770
6.1656995 0.87709266 -1.8182106 4288085770
7.7036152 1.0957071 -1.8244663 4288085770
9.6865149 1.3704884 -1.8404961 4288085770
7.7396078 1.0937358 -1.8134381 4288085770
6.3446951 0.89116037 -1.8211066 4288085770
13.471284 1.8910551 -1.8146385 4288085770
8.0216017 1.1188401 -1.8202789 4288085770
17.290089 2.4055734 -1.8357489 4288085770
6.5176892 0.90322959 -1.8210034 4288085770
8.2795925 1.1389437 -1.8201289 4288085770
19.050987 2.6203179 -1.8118446 4288085770
12.051389 1.6544607 -1.8282738 4288085770
6.7016845 0.91630203 -1.8218945 4288085770
7.8566213 1.072769 -1.8223243 4288085770
9.9125185 1.3465828 -1.8363024 4288085770
8.5985861 1.1660616 -1.8279471 4288085770
14.104283 1.9062943 -1.8262215 4288085770
6.8686752 0.92437798 -1.8147895 4288085770
8.9555807 1.1951909 -1.8387418 4288085770
17.7521 2.3577752 -1.8233583 4288085770
7.0456672 0.93345672 -1.8086793 4288085770
9.2605686 1.2163179 -1.8355608 4288085770
12.387403 1.6225855 -1.8349926 4288085770
8.0446291 1.0528387 -1.8251625 4288085770
19.43302 2.5384653 -1.8164598 4288085770
10.205526 1.3296916 -1.8420727 4288085770
7.2556615 0.94454068 -1.8085493 4288085770
14.849286 1.9265685 -1.8457345 4288085770
9.6135597 1.2404575 -1.8373511 4288085770
7.4776559 0.95562977 -1.8084109 4288085770
9.9425468 1.2595981 -1.8311507 4288085770
18.368105 2.3220272 -1.820879 4288085770
7.7346525 0.97072512 -1.814254 4288085770
8.2426376 1.0329112 -1.8289938 4288085770
10.500534 1.3098065 -1.8438376 4288085770
12.699419 1.5817087 -1.8357149 4288085770
15.600288 1.9418523 -1.8602362 4288085770
10.355539 1.2857594 -1.8349024 4288085770
19.847052 2.4546275 -1.8200501 4288085770
7.9936495 0.98282498 -1.8170916 4288085770
10.799528 1.3129346 -1.8376342 4288085770
8.2676449 0.993931 -1.8199171 4288085770
19.082119 2.2943122 -1.8233439 4288085770
8.4226427 1.0079871 -1.8248302 4288085770
10.828542 1.2919337 -1.8465824 4288085770
11.261518 1.3401188 -1.8393537 4288085770
16.27429 1.9371231 -1.860762 4288085770
13.104434 1.5508578 -1.8453877 4288085770
8.5396395 1.0040417 -1.8187428 4288085770
11.728505 1.3633114 -1.8360637 4288085770
4.8998141 0.56257206 -1.8126112 4288085770
8.8516369 1.0161617 -1.8225435 4288085770
8.6036472 0.98406476 -1.8196677 4288085770
19.879126 2.2676311 -1.8257529 4288085770
11.188551 1.2750698 -1.8523068 4288085770
16.870287 1.9143813 -1.8473154 4288085770
12.224491 1.3865172 -1.8317537 4288085770
13.576454 1.5230265 -1.8610189 4288085770
9.150631 1.0232861 -1.819346 4288085770
12.82048 1.4157543 -1.8343836 4288085770
4.9938207 0.54960233 -1.8165245 4288085770
8.8406563 0.96415359 -1.8234724 4288085770
9.5166292 1.0364243 -1.8261108 4288085770
11.526555 1.2532094 -1.8490393 4288085770
17.481285 1.8876472 -1.832853 4288085770
13.589474 1.4590409 -1.8529147 4288085770
14.068473 1.4932072 -1.8736333 4288085770
9.8866253 1.0455693 -1.8288673 4288085770
5.0828252 0.53563458 -1.8174399 4288085770
14.448469 1.5063585 -1.8753895 4288085770
9.0746632 0.94224626 -1.8232763 4288085770
11.899562 1.2323602 -1.8477491 4288085770
10.282623 1.0547237 -1.8326057 4288085770
18.27729 1.8699725 -1.8302759 4288085770
15.368461 1.552705 -1.8948207 4288085770
5.17483 0.52166814 -1.8183533 4288085770
14.698498 1.4714268 -1.8991644 4288085770
10.718621 1.0648917 -1.838318 4288085770
9.3236694 0.92034405 -1.8240697 4288085770
12.308565 1.2125263 -1.8464357 4288085770
16.193445 1.5830426 -1.8922944 4288085770
19.185293 1.8553329 -1.8356262 4288085770
5.2648339 0.50670356 -1.8172666 4288085770
11.199621 1.0750755 -1.8459995 4288085770
16.937424 1.5973723 -1.8708006 4288085770
15.296518 1.4406461 -1.9157045 4282675967
9.6246815 0.90145504 -1.830832 4288085770
12.800573 1.1977167 -1.8520724 4288085770
11.621614 1.0752554 -1.838707 4288085770
5.3658385 0.49274087 -1.8181739 4288085770
17.758402 1.6137326 -1.8502568 4288085770
12.104611 1.0774533 -1.8363752 4288085770
9.9136887 0.8795706 -1.8305981 4288085770
13.414588 1.1889423 -1.8686337 4288085770
15.835534 1.3978612 -1.9172679 4288085770
5.4508405 0.47577977 -1.8130877 4288085770
18.893385 1.6481938 -1.8495227 4288085770
12.633608 1.0786688 -1.8350104 4288085770
10.226697 0.85769343 -1.832348 4288085770
14.0666 1.1791863 -1.8831677 4288085770
19.994366 1.6716603 -1.8347962 4288085770
5.5608459 0.46182096 -1.813989 4288085770
16.352549 1.3490771 -1.9118381 4288085770
13.331614 1.0889279 -1.8525423 4288085770
14.849614 1.1754732 -1.9056203 4288085770
10.595708 0.8388325 -1.8390635 4288085770
5.6698489 0.44686443 -1.8128895 4288085770
4.9668756 0.39057252 -1.8172923 4288085770
14.117623 1.0992202 -1.8720133 4288085770
16.882561 1.2963049 -1.9013933 4288085770
5.7918544 0.4329105 -1.8137826 4288085770
15.642627 1.1667738 -1.9210589 4282675967
11.010721 0.81998509 -1.8497475 4288085770
5.0598793 0.37660947 -1.816205 4288085770
15.020634 1.1125495 -1.8994085 4288085770
17.413572 1.2375414 -1.8849392 4288085770
5.9118581 0.41795868 -1.8126756 4288085770
5.1668835 0.36364818 -1.8181099 4288085770
16.357632 1.1460681 -1.9175336 4288085770
15.862639 1.1108797 -1.9078237 4288085770
11.411729 0.79714543 -1.8504354 4288085770
6.0308609 0.40300918 -1.8095694 4288085770
5.2738891 0.350687 -1.8200148 4288085770
16.569633 1.0931855 -1.8933086 4288085770
16.997625 1.1163546 -1.8970474 4288085770
18.160589 1.1888435 -1.8853511 4288085770
11.813735 0.77231044 -1.8481199 4288085770
6.1688652 0.38906211 -1.8104516 4288085770
5.3708916 0.33672845 -1.8169253 4288085770
17.264627 1.0674976 -1.8707905 4288085770
17.827627 1.0937055 -1.8864403 4288085770
12.246741 0.74748939 -1.8447828 4288085770
19.02561 1.1401899 -1.8886817 4288085770
6.3038688 0.37411791 -1.8083345 4288085770
5.4828944 0.32377347 -1.8158269 4288085770
8.3288288 0.48193395 -1.8140949 4288085770
8.0508337 0.46582192 -1.8132631 4288085770
8.6318226 0.49905485 -1.8159109 4288085770
18.178631 1.048876 -1.8651316 4288085770
7.7708383 0.44871414 -1.8084311 4288085770
8.9438152 0.51618338 -1.8147209 4288085770
9.3348141 0.53632814 -1.8254806 4288085770
7.526844 0.43261582 -1.8075757 4288085770
18.905636 1.080138 -1.8906758 4288085770
9.6838055 0.55247301 -1.8232634 4288085770
7.3028517 0.41652298 -1.8087063 4288085770
12.699746 0.7216807 -1.838431 4288085770
10.0918 0.57063669 -1.8250082 4288085770
7.0658536 0.39943403 -1.8028445 4288085770
6.8738608 0.38535279 -1.804956 4288085770
10.541795 0.58981198 -1.8307257 4288085770
6.7598681 0.37729809 -1.8110228 4288085770
6.9468617 0.3873798 -1.8069085 4288085770
6.5558705 0.36522016 -1.8071456 4288085770
6.4678769 0.3601763 -1.813199 4288085770
7.1618576 0.39846608 -1.8077765 4288085770
6.3718739 0.35414767 -1.8052562 4288085770
5.5898967 0.30981919 -1.8127306 4288085770
7.4008555 0.40955806 -1.8116276 4288085770
11.062793 0.61101091 -1.8403971 4288085770
6.6788669 0.36927417 -1.8040665 4288085770
6.2048802 0.34307671 -1.807355 4288085770
7.6298499 0.41965401 -1.8094844 4288085770
6.0448842 0.33101115 -1.8074474 4288085770
19.879625 1.0835457 -1.8820086 4288085770
7.8738437 0.4297561 -1.8073306 4288085770
11.580785 0.63121808 -1.8430693 4288085770
6.5008736 0.35419977 -1.8051668 4288085770
5.8828878 0.31994757 -1.8055427 4288085770
8.1768436 0.44086874 -1.8151377 4288085770
5.7418923 0.30888838 -1.8066236 4288085770
12.139777 0.65044445 -1.8437116 4288085770
19.36264 1.0343453 -1.8742926 4288085770
6.3138771 0.33812833 -1.8012718 4288085770
8.45784 0.45098311 -1.8149585 4288085770
19.965635 1.0585819 -1.8809123 4288085770
5.6149001 0.29782948 -1.8116944 4288085770
13.249757 0.6969012 -1.8400137 4288085770
12.665763 0.66567343 -1.8323706 4288085770
8.7768373 0.46111035 -1.8167528 4288085770
6.165885 0.32406208 -1.8053526 4288085770
5.4879065 0.28677452 -1.8137653 4288085770
6.6218805 0.34523863 -1.8120689 4288085770
5.7129006 0.29586878 -1.8116232 4288085770
9.1338367 0.47124749 -1.8225211 4288085770
6.009891 0.30999789 -1.805439 4288085770
13.306754 0.68393862 -1.8289549 4288085770
5.3629112 0.27472162 -1.8148332 4288085770
9.451829 0.47838491 -1.8163117 4288085770
5.8718977 0.29593825 -1.8075129 4288085770
14.141752 0.7092604 -1.8424158 4288085770
5.243917 0.26366985 -1.8168986 4288085770
9.847826 0.48754215 -1.8190515 4288085770
5.12292 0.2516225 -1.8149636 4288085770
5.7279019 0.28088009 -1.8065894 4288085770
15.155755 0.73964202 -1.8657607 4288085770
6.7888856 0.33130512 -1.8119315 4288085770
13.90477 0.67515528 -1.8485286 4288085770
5.8429055 0.28291872 -1.8125126 4288085770
10.303827 0.4967171 -1.8267499 4288085770
5.0099249 0.23957562 -1.8150229 4288085770
5.5909071 0.26582471 -1.8056608 4288085770
16.13575 0.76402962 -1.8741202 4288085770
10.777826 0.50590211 -1.8324361 4288085770
5.4779148 0.25277245 -1.8097188 4288085770
17.051731 0.78142065 -1.8605137 4288085770
11.286826 0.51410002 -1.8390964 4288085770
6.9648905 0.31637529 -1.8117864 4288085770
5.9809098 0.26997334 -1.8123966 4288085770
14.75879 0.6574707 -1.8719125 4288085770
18.107718 0.79986477 -1.8498122 4288085770
5.3549213 0.23772129 -1.8097805 4288085770
11.798824 0.51831114 -1.836749 4288085770
5.2409258 0.22467256 -1.8108391 4288085770
19.572714 0.82944262 -1.863845 4288085770
12.362821 0.52354091 -1.8363671 4288085770
7.1488948 0.30244884 -1.8116374 4288085770
6.1259141 0.25702953 -1.8132758 4288085770
15.611807 0.63480067 -1.8842899 4288085770
5.1259308 0.20962715 -1.8088951 4288085770
12.967816 0.52679008 -1.8339541 4288085770
7.3639021 0.28852981 -1.8154672 4288085770
13.672817 0.52907342 -1.8364708 4288085770
6.2659173 0.24308908 -1.8101572 4288085770
16.406815 0.60513115 -1.8786972 4288085770
14.519822 0.53340286 -1.8478926 4288085770
7.5789084 0.27361345 -1.8172954 4288085770
6.4269218 0.23015195 -1.8110256 4288085770
15.497832 0.5377779 -1.8652242 4288085770
17.220819 0.57347631 -1.8680886 4288085770
7.8019133 0.25970325 -1.8171198 4288085770
6.6059279 0.2182197 -1.8138829 4288085770
16.383827 0.53314608 -1.859606 4288085770
17.400826 0.52656519 -1.8558949 4288085770
8.0519209 0.24480009 -1.8199242 4288085770
6.7989354 0.20529044 -1.8187298 4288085770
18.287832 0.54290903 -1.8693075 4288085770
18.621832 0.51905864 -1.8590418 4288085770
8.304924 0.23090228 -1.8197283 4288085770
6.9759378 0.19236553 -1.8155873 4288085770
19.596849 0.5144276 -1.8803629 4288085770
19.983837 0.50661373 -1.8590844 4288085770
8.5859289 0.21601465 -1.8205112 4288085770
7.1719422 0.17944443 -1.8154318 4288085770
8.8799362 0.20113108 -1.8222858 4288085770
7.3999486 0.16652972 -1.8202546 4288085770
9.2039423 0.18725988 -1.824041 4288085770
7.6229529 0.15362111 -1.8190806 4288085770
9.5249472 0.17239293 -1.821797 4288085770
7.8549571 0.14071497 -1.8189007 4288085770
9.8989544 0.15754101 -1.8245164 4288085770
8.1249638 0.12881911 -1.8226963 4288085770
10.274958 0.14269668 -1.8222346 4288085770
8.3999672 0.1159307 -1.8224869 4288085770
8.6719723 0.10404386 -1.820281 4288085770
10.724965 0.12787473 -1.8259022 4288085770
11.193972 0.11306464 -1.8265566 4288085770
9.0059786 0.091171734 -1.8260313 4288085770
9.3299828 0.079306312 -1.82379 4288085770
11.708978 0.098270796 -1.8291795 4288085770
19.352974 0.13936904 -1.8469759 4288085770
9.679985 0.067451619 -1.8215307 4288085770
16.451977 0.11219466 -1.8389335 4288085770
17.989979 0.12181365 -1.8458885 4288085770
15.42898 0.10477983 -1.8366269 4288085770
12.251983 0.083493866 -1.8277832 4288085770
17.649979 0.11867443 -1.846118 4288085770
14.507978 0.096410759 -1.8312488 4288085770
19.021984 0.12422542 -1.8531815 4288085770
13.672979 0.08707682 -1.82581 4288085770
16.746981 0.10431664 -1.8377185 4288085770
12.93398 0.07778082 -1.821305 4288085770
15.731988 0.086900897 -1.8383917 4288085770
12.280983 0.067518644 -1.8177392 4288085770
10.06599 0.055607729 -1.8222469 4288085770
12.895992 0.068749048 -1.8333176 4288085770
11.696986 0.057280637 -1.8171262 4288085770
14.76799 0.070515357 -1.8320311 4288085770
10.513997 0.04378394 -1.8269204 4288085770
11.175991 0.046067022 -1.8174679 4288085770
13.911992 0.054175265 -1.824596 4288085770
13.618002 0.053036191 -1.8387969 4288085770
10.685992 0.035870068 -1.81479 4288085770
13.177996 0.037878387 -1.8220769 4288085770
10.983004 0.031972833 -1.8285795 4288085770
14.40301 0.038350604 -1.8432344 4288085770
10.241996 0.024689205 -1.8140789 4288085770
11.480007 0.021175973 -1.8282211 4288085770
12.541001 0.022617161 -1.8224928 4288085770
15.326021 0.022716261 -1.8515755 4288085770
9.8149977 0.012519203 -1.8103545 4288085770
12.072015 0.010408722 -1.8347974 4288085770
6.2048917 0.0053131133 -1.7813933 4288085770
5.7792311 0.0041510984 -1.8083086 4288085770
5.3902316 0.0030957386 -1.8051963 4288085770
6.7102294 -0.00072260946 -1.8095857 4288085770
6.0412345 -0.0068246052 -1.7973976 4288085770
5.9262309 -0.007828407 -1.8093653 4288085770
5.2742319 -0.0099192262 -1.8061774 4288085770
6.9092302 -0.015693232 -1.8126611 4288085770
6.0782318 -0.019807242 -1.8104234 4288085770
5.9042354 -0.020841457 -1.7993737 4288085770
7.0792336 -0.029676527 -1.8067267 4288085770
5.1622334 -0.02193363 -1.8071584 4288085770
6.2312326 -0.031787891 -1.8094817 4288085770
7.3162322 -0.044637129 -1.8148131 4288085770
5.7622371 -0.03486288 -1.7973484 4288085770
6.4072337 -0.043761529 -1.8125468 4288085770
7.5332341 -0.059609227 -1.8138938 4288085770
6.5742354 -0.055741273 -1.8106095 4288085770
5.6282387 -0.048883229 -1.7953252 4288085770
7.7662358 -0.073578164 -1.8139781 4288085770
6.7752352 -0.067709588 -1.8156821 4288085770
8.0182362 -0.08854261 -1.8160691 4288085770
6.9592366 -0.078687988 -1.8127484 4288085770
5.5162392 -0.063894778 -1.7993097 4288085770
8.296237 -0.10350258 -1.8191677 4288085770
19.032242 -0.25002435 -1.8584737 4288085770
7.1702371 -0.090658873 -1.8138237 4288085770
18.921234 -0.26301414 -1.8844568 4288085770
8.5592403 -0.11847141 -1.8152621 4288085770
7.3992376 -0.10162535 -1.8169036 4288085770
17.58124 -0.26320347 -1.875066 4288085770
5.4142385 -0.076903939 -1.8042947 4288085770
17.702246 -0.27021182 -1.8501096 4288085770
7.6452374 -0.11358954 -1.8199892 4288085770
8.9232368 -0.13441002 -1.8283868 4288085770
16.405241 -0.26037064 -1.8657194 4288085770
7.8842402 -0.12455955 -1.8180718 4288085770
9.2442398 -0.15036911 -1.8264993 4288085770
15.380242 -0.25751355 -1.860417 4288085770
8.1682396 -0.13651668 -1.8231689 4288085770
9.6182404 -0.16531514 -1.8306259 4288085770
16.581249 -0.29036817 -1.8448063 4288085770
14.449244 -0.25264767 -1.8511394 4288085770
8.4562397 -0.14747715 -1.8242656 4288085770
5.3032393 -0.090918265 -1.8052782 4288085770
13.654243 -0.24675858 -1.8469003 4288085770
8.7552414 -0.15743709 -1.8243645 4288085770
9.9932423 -0.18126498 -1.8307543 4288085770
12.915246 -0.23986483 -1.8396765 4288085770
9.0922413 -0.16838998 -1.8264761 4288085770
12.263247 -0.23295641 -1.8354782 4288085770
10.443242 -0.19819985 -1.8359056 4288085770
9.4612417 -0.17933661 -1.8305966 4288085770
11.681246 -0.22503659 -1.8332987 4288085770
9.832243 -0.18928686 -1.8307167 4288085770
10.236244 -0.19823264 -1.8308451 4288085770
11.157246 -0.21710804 -1.8321364 4288085770
10.671245 -0.20817426 -1.8309839 4288085770
10.854246 -0.21314973 -1.8310432 4288085770
15.582254 -0.30950809 -1.8395375 4288085770
19.41325 -0.39494985 -1.8857572 4288085770
11.360246 -0.22907799 -1.8352098 4288085770
17.977253 -0.37315258 -1.8753122 4288085770
11.888248 -0.2450082 -1.8343827 4288085770
5.1902413 -0.10493676 -1.8022614 4288085770
16.757252 -0.35332531 -1.8659325 4288085770
12.49325 -0.26292416 -1.8375806 4288085770
15.693251 -0.33447412 -1.8595996 4288085770
13.166248 -0.279829 -1.842797 4288085770
13.88825 -0.29673013 -1.8450278 4288085770
14.745251 -0.31560731 -1.8533005 4288085770
14.731257 -0.32862613 -1.8363117 4288085770
13.924261 -0.34674209 -1.8290976 4288085770
19.946272 -0.54689813 -1.8690935 4288085770
13.224265 -0.36484081 -1.8249146 4288085770
18.513277 -0.55810517 -1.8546888 4288085770
12.616266 -0.3829231 -1.8247583 4288085770
17.34428 -0.57226789 -1.8493644 4288085770
12.044269 -0.40000448 -1.8206114 4288085770
19.586287 -0.68994308 -1.8761593 4288085770
19.469282 -0.69094408 -1.8911263 4288085770
16.310284 -0.58541143 -1.845078 4288085770
11.525271 -0.4180778 -1.8174813 4288085770
18.153286 -0.70313334 -1.8787566 4288085770
15.396287 -0.5995397 -1.8398278 4288085770
18.416294 -0.72711033 -1.8668621 4288085770
11.101273 -0.4361304 -1.8223786 4288085770
16.985292 -0.71130073 -1.8684253 4288085770
14.58429 -0.61465245 -1.8366088 4288085770
10.663275 -0.45419177 -1.8202717 4288085770
17.379301 -0.76225764 -1.8596013 4288085770
15.985295 -0.71744156 -1.8621405 4288085770
13.863291 -0.62875283 -1.8334148 4288085770
10.310274 -0.47323388 -1.8261909 4288085770
15.098296 -0.72156394 -1.8588864 4288085770
16.490307 -0.79638314 -1.8543824 4288085770
13.214293 -0.64384162 -1.8322431 4288085770
9.9382763 -0.49028546 -1.8251023 4288085770
14.295297 -0.72367615 -1.8546542 4288085770
12.633295 -0.65992224 -1.8300923 4288085770
15.700311 -0.82949322 -1.8511912 4288085770
9.6052771 -0.5083307 -1.825026 4288085770
13.561297 -0.72377795 -1.8514398 4288085770
12.101296 -0.67599529 -1.8289558 4288085770
12.900297 -0.72186995 -1.8482442 4288085770
9.2622814 -0.5233832 -1.8189436 4288085770
14.973315 -0.86059678 -1.8460159 4288085770
19.581335 -1.1379312 -1.8996946 4288085770
12.272297 -0.71796042 -1.8420558 4288085770
11.626298 -0.69205964 -1.8288358 4288085770
18.205332 -1.1031284 -1.886251 4288085770
8.9922819 -0.54241604 -1.8228868 4288085770
11.745298 -0.71503037 -1.8428981 4288085770
14.355317 -0.89368087 -1.8458749 4288085770
16.971331 -1.0693067 -1.8728499 4288085770
11.241295 -0.71009809 -1.8427448 4288085770
11.201299 -0.70911533 -1.8307319 4288085770
8.7042837 -0.55845916 -1.8188214 4288085770
