# .PCD v0.7 - Point Cloud Data file format
VERSION 0.7
FIELDS x y z rgb
SIZE 4 4 4 4
TYPE F F F U
COUNT 1 1 1 1
WIDTH 1117
HEIGHT 1
VIEWPOINT 0 0 0 1 0 0 0
POINTS 1117
DATA ascii
4.7583008 -2.1510525 -1.8626828 4288085770
9.5229187 -3.1722898 -1.8900826 4288085770
4.8763733 -2.1019917 -1.8610818 4288085770
9.7639465 -3.1201591 -1.8889017 4288085770
5.0204773 -2.0579157 -1.8615704 4288085770
10.012024 -3.0650225 -1.8857453 4288085770
5.1595764 -2.0118399 -1.8600416 4288085770
10.283142 -3.0128708 -1.882668 4288085770
5.3006287 -1.965765 -1.8575199 4288085770
10.60321 -2.9676952 -1.8827589 4288085770
5.4317017 -1.9146976 -1.8519635 4288085770
10.920288 -2.9165182 -1.87884 4288085770
5.6217957 -1.8735933 -1.85361 4288085770
11.25238 -2.8673325 -1.8749719 4288085770
5.8038635 -1.8304958 -1.853229 4288085770
11.617432 -2.819129 -1.8722172 4288085770
6.0299377 -1.7923727 -1.8569994 4288085770
12.031555 -2.7748985 -1.8696308 4288085770
6.2469788 -1.7492542 -1.8577387 4288085770
12.450623 -2.7266626 -1.8640616 4288085770
6.4650879 -1.7061348 -1.8564813 4288085770
12.943726 -2.6863852 -1.8627465 4288085770
6.7241821 -1.6659918 -1.8583648 4288085770
13.492828 -2.6490755 -1.8626237 4288085770
6.9702454 -1.6218557 -1.8562033 4288085770
14.016937 -2.6017799 -1.8554144 4288085770
7.2223511 -1.573719 -1.8520627 4288085770
7.5054321 -1.5295601 -1.8500285 4288085770
7.8345032 -1.4863787 -1.8511524 4288085770
8.1625671 -1.4411964 -1.8492725 4288085770
8.5116577 -1.3950024 -1.8474643 4288085770
8.8857727 -1.3467913 -1.8437421 4288085770
9.3048401 -1.2995577 -1.8421745 4288085770
9.7728882 -1.2532949 -1.8427742 4288085770
10.26297 -1.205019 -1.8424497 4288085770
10.769043 -1.1517353 -1.8381801 4288085770
11.312195 -1.0984287 -1.8340371 4288085770
11.927246 -1.0430832 -1.8301411 4288085770
12.568359 -0.98471928 -1.8233335 4288085770
13.369415 -0.92826462 -1.8250751 4288085770
14.145538 -0.86382675 -1.8187306 4288085770
13.895142 1.4368725 -1.8090496 4288085770
13.056213 1.4964161 -1.8113015 4288085770
12.285278 1.550993 -1.8117764 4288085770
11.547363 1.5995922 -1.8083584 4288085770
10.873444 1.6462259 -1.8051512 4288085770
10.223541 1.6878729 -1.798022 4288085770
9.6956177 1.732585 -1.7972951 4288085770
9.1656799 1.7732944 -1.7925608 4288085770
8.5218811 1.7949524 -1.7674475 4288085770
8.0479736 1.8296957 -1.7598965 4288085770
7.7880249 1.8845444 -1.7760537 4288085770
7.4520874 1.9283562 -1.7779589 4288085770
7.0242004 1.9541264 -1.7645576 4288085770
13.844788 2.8957558 -1.7581966 4288085770
6.6903076 1.990941 -1.7614679 4288085770
13.226868 2.9334164 -1.764174 4288085770
6.471344 2.0388145 -1.7707591 4288085770
12.661926 2.9711075 -1.7693257 4288085770
6.2623901 2.0876932 -1.7790835 4288085770
12.165985 3.015831 -1.7767065 4288085770
6.0334473 2.1305656 -1.782341 4288085770
11.656036 3.0505524 -1.7780387 4288085770
5.7925415 2.1674299 -1.7815576 4288085770
11.25412 3.0973282 -1.7857292 4288085770
5.5726013 2.2073059 -1.7818444 4288085770
10.864166 3.1411114 -1.7914584 4288085770
5.3627014 2.2461872 -1.7811637 4288085770
10.449249 3.1768818 -1.7911038 4288085770
5.1517944 2.2820683 -1.7784793 4288085770
10.147308 3.2287121 -1.8001246 4288085770
4.9708862 2.3209658 -1.7778945 4288085770
9.806366 3.2705212 -1.8010149 4288085770
4.7889709 2.3588629 -1.7763062 4288085770
9.5074158 3.3143559 -1.804044 4288085770
4.6290283 2.3977728 -1.7767904 4288085770
9.1885376 3.3521776 -1.8030064 4288085770
4.459137 2.4336748 -1.7732413 4288085770
8.9155884 3.3960257 -1.8031211 4288085770
4.3092346 2.4725895 -1.7717586 4288085770
8.6676941 3.4438858 -1.8053195 4288085770
4.1773071 2.5125122 -1.7713354 4288085770
8.48172 3.4997778 -1.8117235 4288085770
4.0483704 2.5534382 -1.7709224 4288085770
8.2827759 3.5536642 -1.8160844 4288085770
3.9084778 2.5883579 -1.7664723 4288085770
8.1268005 3.6135702 -1.8225882 4288085770
3.8095398 2.6332998 -1.7681592 4288085770
7.9649048 3.6724768 -1.8270729 4288085770
3.693634 2.6722317 -1.7657888 4288085770
7.8039246 3.7283821 -1.8305593 4288085770
3.6017151 2.7171764 -1.7664993 4288085770
7.6390381 3.7832885 -1.8310335 4288085770
3.4997864 2.7581167 -1.7641757 4288085770
7.4640808 3.8321881 -1.8274727 4288085770
3.4219055 2.8040667 -1.7649326 4288085770
7.3071594 3.884099 -1.8259721 4288085770
3.3509521 2.8520241 -1.7657127 4288085770
7.1632385 3.9390163 -1.8245156 4288085770
3.2870483 2.9009838 -1.7675166 4288085770
7.0203857 3.9909348 -1.8210614 4288085770
3.2280884 2.9509449 -1.768337 4288085770
6.878418 4.040854 -1.8166099 4288085770
3.1871643 3.0059147 -1.7722182 4288085770
6.7575378 4.0977836 -1.8132298 4288085770
3.1802063 3.0709019 -1.7812135 4288085770
6.6726074 4.163733 -1.8129704 4288085770
3.16922 3.1358871 -1.789196 4288085770
6.6056519 4.2346888 -1.8147714 4288085770
3.1423035 3.1938648 -1.7931247 4288085770
6.5317383 4.3026433 -1.8135488 4288085770
3.1203613 3.2548456 -1.79707 4288085770
6.4727783 4.3756051 -1.8143768 4288085770
3.0894165 3.3118219 -1.7969849 4288085770
6.4518433 4.4605856 -1.8183334 4288085770
3.0844727 3.3788109 -1.8029885 4288085770
6.401886 4.5355511 -1.8171916 4288085770
3.0405579 3.4307833 -1.7988598 4288085770
6.3659668 4.6155267 -1.8160977 4288085770
3.021637 3.4927654 -1.798816 4288085770
6.3719788 4.7105203 -1.8201458 4288085770
2.9987183 3.5527477 -1.7967589 4288085770
6.3590698 4.7975063 -1.8201299 4288085770
2.9707947 3.6097269 -1.7936845 4288085770
5.4297485 4.5320578 -1.6820076 4293729569
2.9718323 3.6777205 -1.7947085 4288085770
5.2549438 4.5479689 -1.6544402 4293729569
2.9569397 3.7397075 -1.7916782 4288085770
5.072113 4.5598755 -1.6258457 4293729569
2.960022 3.8087039 -1.7917094 4288085770
4.9292908 4.5848017 -1.6013858 4293729569
2.9830627 3.8877082 -1.7938089 4288085770
4.7914124 4.6087298 -1.5769422 4293729569
2.9981384 3.961709 -1.7938812 4288085770
4.5726624 4.5966229 -1.538223 4293729569
3.0121765 4.0367107 -1.7919505 4288085770
4.3888855 4.5965319 -1.504622 4293729569
3.0232544 4.1097102 -1.7890093 4288085770
4.2250977 4.6014509 -1.4720879 4293729569
3.0493164 4.1897178 -1.7881198 4288085770
4.0792847 4.6123781 -1.4426148 4293729569
3.0883789 4.276732 -1.788275 4288085770
3.9084778 4.6102953 -1.4070556 4293729569
3.1274414 4.3637462 -1.7874303 4288085770
3.784668 4.627233 -1.3776565 4293729569
3.1964722 4.465776 -1.7906885 4288085770
3.6308899 4.6281586 -1.3441544 4293729569
3.26651 4.5698028 -1.7929506 4288085770
3.4831238 4.6290865 -1.3096719 4293729569
3.2986145 4.6548171 -1.786083 4288085770
3.3493347 4.6330223 -1.2762361 4293729569
3.3736267 4.7608485 -1.7873621 4288085770
3.2145386 4.6339579 -1.2437961 4293729569
3.4367371 4.861877 -1.7836013 4288085770
3.1107178 4.6489072 -1.2124619 4293729569
3.5357361 4.9829211 -1.785964 4288085770
2.9729614 4.6448426 -1.177011 4293729569
3.612793 5.0929556 -1.7822518 4288085770
2.8731689 4.6577954 -1.1456895 4293729569
2.6807556 4.6685333 -1.58707 4293729569
2.7503662 4.6567388 -1.1102884 4293729569
2.6219482 4.6985054 -1.5568879 4293729569
2.7265015 4.7057281 -1.0882268 4293729569
2.5091858 4.6984549 -1.5165198 4293729569
2.7116699 4.7587228 -1.0651956 4293729569
2.4034119 4.6984091 -1.4761746 4293729569
2.3595886 4.7323904 -1.4470432 4293729569
2.3492126 4.6785545 -0.97598666 4293729569
2.1758728 4.6853085 -1.3924286 4293729569
2.3183594 4.7175417 -0.94889933 4293729569
2.0911255 4.6902723 -1.3541534 4293729569
2.272522 4.7465234 -0.91975945 4293729569
2.0152893 4.7002392 -1.3169096 4293729569
2.2436829 4.784514 -0.89067823 4293729569
1.9625549 4.7212186 -1.2827449 4293729569
2.2718506 4.8555317 -0.8677941 4293729569
1.9087219 4.7391977 -1.2475753 4293729569
2.3199768 4.9365582 -0.84497839 4293729569
1.8639221 4.7621818 -1.2134373 4293729569
2.3901062 5.0305982 -0.82323915 4293729569
1.8211365 4.7851658 -1.1793058 4293729569
2.4842224 5.1386504 -0.80058271 4293729569
1.8362732 4.8401771 -1.1533737 4293729569
2.5873413 5.2527065 -0.77895766 4293729569
1.8684387 4.9061975 -1.127501 4293729569
2.7244568 5.3877807 -0.75745076 4293729569
1.8666382 4.9482036 -1.0965097 4293729569
2.805603 5.4878278 -0.72974974 4293729569
1.8528137 4.982203 -1.0634763 4293729569
2.9946594 5.6559286 -0.70942336 4293729569
1.8100281 4.9961882 -1.025342 4293729569
3.0168457 5.7199473 -0.67251807 4293729569
1.7952271 5.0281878 -0.99030465 4293729569
3.0890198 5.8129926 -0.63878566 4293729569
1.8034363 5.0712004 -0.95634633 4293729569
3.2381592 5.957077 -0.60732156 4293729569
1.8496094 5.1382294 -0.92751986 4293729569
3.3223267 6.0561285 -0.57063013 4293729569
1.929718 5.2272768 -0.89981169 4293729569
3.3995361 6.1511793 -0.53091472 4293729569
2.0198975 5.3213286 -0.8721382 4293729569
2.1499939 5.4414005 -0.84760374 4293729569
2.3100891 5.5814867 -0.82317394 4293729569
2.5141907 5.7495966 -0.79989702 4293729569
2.7292786 5.9257121 -0.77565902 4293729569
3.0203247 6.1528649 -0.75468594 4293729569
3.0915222 6.2279134 -0.71294409 4293729569
14.050934 -0.37403679 -1.8029845 4288085770
12.844421 -0.40449047 -1.8058288 4288085770
11.818512 -0.42985153 -1.8103228 4288085770
10.863617 -0.45118618 -1.8130634 4288085770
9.9947205 -0.46748829 -1.8131027 4288085770
9.2108154 -0.48176098 -1.8144324 4288085770
8.5028992 -0.49401283 -1.8170218 4288085770
7.855011 -0.50324249 -1.8198192 4288085770
14.280273 -0.88805485 -1.8048136 4288085770
7.2540894 -0.51045132 -1.8197784 4288085770
13.023346 -0.87149143 -1.8086021 4288085770
6.6982117 -0.51564598 -1.8198931 4288085770
11.927429 -0.85688114 -1.8149304 4288085770
6.1842957 -0.51882935 -1.8211532 4288085770
10.914459 -0.84123516 -1.8185403 4288085770
5.6924133 -0.520998 -1.8204892 4288085770
10.028564 -0.82654953 -1.8235772 4288085770
5.2464905 -0.52115536 -1.8209836 4288085770
9.2006531 -0.80983353 -1.822813 4288085770
4.825592 -0.520298 -1.8185644 4288085770
8.4437561 -0.79309368 -1.8222885 4288085770
4.4447021 -0.52043724 -1.8202784 4288085770
7.7788391 -0.77732849 -1.8250725 4288085770
4.0917969 -0.51856422 -1.8220904 4288085770
7.1509094 -0.76154804 -1.8259814 4288085770
3.7628784 -0.51668453 -1.8239832 4288085770
6.5760193 -0.74474621 -1.8250711 4288085770
3.4519653 -0.51480007 -1.8269367 4288085770
6.0501099 -0.72892952 -1.8253243 4288085770
3.1320801 -0.50890541 -1.8228672 4288085770
5.5552063 -0.71310139 -1.8246818 4288085770
2.8551636 -0.50400734 -1.8249409 4288085770
5.1122742 -0.69725609 -1.8252149 4288085770
2.6002502 -0.50010586 -1.8280869 4288085770
4.6984253 -0.6823988 -1.8248439 4288085770
2.3173828 -0.49119282 -1.8201475 4288085770
4.3074951 -0.66653633 -1.8245525 4288085770
2.0764771 -0.48527813 -1.8203447 4288085770
3.9485779 -0.65166378 -1.8253675 4288085770
1.8545837 -0.47936249 -1.8216052 4288085770
3.5996704 -0.63578606 -1.8242176 4288085770
1.6326599 -0.47144127 -1.8208699 4288085770
3.2927856 -0.62189865 -1.8262062 4288085770
1.4397583 -0.46551418 -1.8232288 4288085770
2.9788818 -0.60600567 -1.8241746 4288085770
1.2368469 -0.45758629 -1.8225574 4288085770
2.6929932 -0.5901022 -1.8222375 4288085770
1.0579529 -0.44965553 -1.8239672 4288085770
2.433075 -0.57619762 -1.8233845 4288085770
0.88504028 -0.44172096 -1.8253973 4288085770
2.1791687 -0.56028652 -1.8215554 4288085770
0.72216797 -0.43478298 -1.8268592 4288085770
1.9452515 -0.54637051 -1.8217905 4288085770
0.56124878 -0.42584419 -1.8273313 4288085770
1.7273254 -0.53244877 -1.8220792 4288085770
0.42233276 -0.4189043 -1.8318741 4288085770
1.5234375 -0.51852512 -1.8234153 4288085770
0.26644897 -0.40795898 -1.8293672 4288085770
1.318512 -0.50259495 -1.8217514 4288085770
0.11651611 -0.39800835 -1.8268781 4288085770
1.146637 -0.49066544 -1.8261919 4288085770
-0.010375977 -0.39006138 -1.8304632 4288085770
0.96569824 -0.47673321 -1.8266053 4288085770
-0.1522522 -0.37910652 -1.8260033 4288085770
0.77981567 -0.46079159 -1.822006 4288085770
0.62792969 -0.44785404 -1.8255162 4288085770
0.46600342 -0.43291092 -1.8239956 4288085770
0.32910156 -0.41996765 -1.8265562 4288085770
0.16821289 -0.40401745 -1.8210409 4288085770
0.03729248 -0.39006519 -1.8216236 4288085770
-0.087646484 -0.37711906 -1.8242242 4288085770
-0.12127686 1.5682497 -1.7858489 4288085770
0.0018005371 1.587285 -1.7853069 4288085770
0.12393188 1.6033249 -1.7817566 4288085770
0.27301025 1.6253595 -1.7843096 4288085770
0.42910767 1.647398 -1.7878869 4288085770
0.57022095 1.6644392 -1.7854033 4288085770
0.7243042 1.683485 -1.783968 4288085770
-0.18261719 1.509182 -1.7925322 4288085770
0.89642334 1.7045298 -1.7855985 4288085770
-0.06451416 1.5202169 -1.7909577 4288085770
1.0614929 1.7235775 -1.7842007 4288085770
0.053588867 1.5302572 -1.7863822 4288085770
1.2366028 1.7426291 -1.7828379 4288085770
0.18667603 1.5422907 -1.7868614 4288085770
1.4267273 1.7636795 -1.7835298 4288085770
0.33578491 1.5563288 -1.7893996 4288085770
1.6387939 1.7867336 -1.7863011 4288085770
0.47091675 1.56637 -1.7868822 4288085770
1.8618469 1.8117886 -1.7911141 4288085770
0.63000488 1.5794086 -1.7884526 4288085770
2.0549622 1.8268557 -1.7848053 4288085770
0.79309082 1.5914507 -1.790035 4288085770
2.2700806 1.8449259 -1.7805774 4288085770
0.95019531 1.6014986 -1.7875926 4288085770
2.5061951 1.8659935 -1.7794273 4288085770
1.1223145 1.612546 -1.7882042 4288085770
2.788269 1.8930616 -1.7864468 4288085770
1.3044128 1.6235933 -1.7898498 4288085770
3.0783691 1.9191389 -1.7904916 4288085770
1.5264282 1.6406384 -1.7986436 4288085770
3.3564758 1.9402199 -1.7894859 4288085770
1.7085571 1.648695 -1.7952836 4288085770
3.6485596 1.9623041 -1.7885299 4288085770
1.8996582 1.6557531 -1.7929525 4288085770
3.9836426 1.9873981 -1.7907269 4288085770
2.0897827 1.6608171 -1.7876146 4288085770
4.323761 2.0104971 -1.7899377 4288085770
2.3018799 1.667881 -1.7843556 4288085770
4.6968384 2.0366001 -1.7932673 4288085770
2.5360107 1.6759472 -1.7851739 4288085770
5.0719299 2.0597124 -1.7915981 4288085770
2.7741394 1.6830168 -1.7840042 4288085770
5.4840393 2.0838327 -1.7920578 4288085770
3.032196 1.6900902 -1.7849026 4288085770
5.9031067 2.1059599 -1.7895374 4288085770
3.3502808 1.7041616 -1.7950203 4288085770
6.3152466 2.1230955 -1.7819841 4288085770
3.6383667 1.7112417 -1.7960222 4288085770
6.6554565 2.1242371 -1.7601533 4288085770
3.9224854 1.7143278 -1.7930024 4288085770
7.2485046 2.1603928 -1.7692566 4288085770
4.2565613 1.7214136 -1.7981617 4288085770
7.8405762 2.1885624 -1.772341 4288085770
4.5906677 1.7245111 -1.7983136 4288085770
8.3257751 2.1977358 -1.7560229 4288085770
4.9547729 1.7286119 -1.8005702 4288085770
9.1947327 2.2519493 -1.7801068 4288085770
5.3588257 1.733717 -1.8059657 4288085770
9.9328308 2.2801676 -1.7806926 4288085770
5.749939 1.7338324 -1.8063073 4288085770
10.687958 2.3043995 -1.776329 4288085770
6.1091003 1.7249498 -1.798522 4288085770
11.531067 2.3296566 -1.7732687 4288085770
6.4822388 1.714076 -1.7887807 4288085770
12.390198 2.3499308 -1.7642548 4288085770
6.8103638 1.6942081 -1.7698715 4288085770
13.363312 2.3722353 -1.7576435 4288085770
7.3734741 1.6953564 -1.7798109 4288085770
14.424438 2.3945684 -1.7503352 4288085770
7.8835754 1.6845093 -1.7775457 4288085770
8.4046631 1.6696692 -1.7733111 4288085770
9.2706909 1.6808662 -1.8053107 4288085770
9.9347839 1.665062 -1.8055656 4288085770
10.644897 1.6462679 -1.8069737 4288085770
11.529968 1.6315069 -1.8199906 4288085770
12.271088 1.5987406 -1.8124795 4288085770
13.104248 1.5610008 -1.8062754 4288085770
14.052368 1.521287 -1.8034627 4288085770
1.1644592 -4.2314806 -0.92186934 4293729569
1.1564331 -4.245573 -0.96281189 4293729569
1.1567383 -4.2208252 -0.59986097 4293729569
1.1363831 -4.2496624 -1.0007329 4293729569
1.1367188 -4.2209158 -0.63879031 4293729569
1.122345 -4.2557526 -1.0406706 4293729569
1.1236572 -4.2230053 -0.6777398 4293729569
1.1042786 -4.2578449 -1.0796027 4293729569
1.1156311 -4.2270927 -0.716703 4293729569
1.0892944 -4.2609348 -1.1185434 4293729569
1.1116028 -4.233182 -0.75667602 4293729569
1.0782471 -4.2630281 -1.1594999 4293729569
1.1055603 -4.2352705 -0.79665035 4293729569
1.0671997 -4.2641172 -1.1984584 4293729569
1.1025085 -4.237359 -0.83663505 4293729569
1.0671387 -4.2712078 -1.2394433 4293729569
1.1024475 -4.2394457 -0.87563044 4293729569
1.0621033 -4.2723007 -1.2804232 4293729569
1.1064148 -4.2425346 -0.9166376 4293729569
1.058075 -4.2723904 -1.3214083 4293729569
1.1134338 -4.2456198 -0.95665568 4293729569
1.0620117 -4.2764816 -1.3634136 4293729569
1.1233521 -4.2487078 -0.9976837 4293729569
1.0749817 -4.2845745 -1.4064422 4293729569
1.1303406 -4.2487946 -1.037708 4293729569
1.0909119 -4.2926645 -1.4504812 4293729569
1.1382751 -4.2468786 -1.0777397 4293729569
1.0958862 -4.2917547 -1.4925001 4293729569
1.1552429 -4.2499647 -1.118793 4293729569
1.1118164 -4.2948465 -1.5355496 4293729569
4.1330261 -6.2632217 -1.6560848 4293729569
1.1238098 -4.2949352 -1.5775914 4293729569
3.868042 -6.0653248 -1.6645639 4293729569
1.1817017 -4.3240356 -1.6307344 4293729569
3.5960693 -5.861414 -1.667031 4293729569
1.3285828 -4.4121513 -1.7040677 4293729569
3.3601074 -5.6795006 -1.673579 4293729569
1.1386719 -4.2671947 -1.6957006 4293729569
3.1371155 -5.5055828 -1.6781559 4293729569
1.1096191 -4.2302723 -1.7256751 4293729569
2.9531555 -5.3576584 -1.6868165 4293729569
0.98770142 -4.1283188 -1.7294579 4293729569
2.7571716 -5.1987324 -1.6914573 4293729569
0.86074829 -4.0223646 -1.731231 4293729569
2.6192322 -5.0778046 -1.7052236 4293729569
0.73284912 -3.9154053 -1.7300031 4293729569
2.4512634 -4.9368687 -1.7099254 4293729569
0.66085815 -3.8434553 -1.7418993 4293729569
2.2793274 -4.7919273 -1.711622 4293729569
0.61691284 -3.790514 -1.7608545 4293729569
2.1273804 -4.6599846 -1.7143617 4293729569
0.6708374 -3.7995996 -1.8060255 4293729569
1.9833984 -4.5330353 -1.7161193 4293729569
0.74179077 -3.819685 -1.8552337 4288085770
1.8554688 -4.4150848 -1.7199147 4293729569
0.7727356 -3.8107595 -1.8923612 4288085770
1.713562 -4.2891264 -1.7176774 4293729569
0.75775146 -3.7698193 -1.9153941 4288085770
1.5716248 -4.1611652 -1.7144442 4293729569
0.64080811 -3.6618385 -1.9062068 4288085770
1.4746704 -4.0632086 -1.718307 4293729569
0.54092407 -3.5658617 -1.9010551 4288085770
1.3787537 -3.9652462 -1.7211735 4293729569
0.44503784 -3.4708815 -1.8939152 4288085770
1.3018188 -3.8782864 -1.7270842 4293729569
0.36608887 -3.3869019 -1.8908122 4288085770
1.2828064 -3.8263369 -1.745126 4293729569
0.2722168 -3.2929144 -1.8816774 4288085770
1.3317871 -3.8144016 -1.7803242 4293729569
0.21630859 -3.2239389 -1.8826241 4288085770
1.4367371 -3.8344755 -1.8276532 4293729569
0.16836548 -3.1579657 -1.8855932 4288085770
1.548645 -3.8555555 -1.8780048 4288085770
0.11447144 -3.0879831 -1.8845496 4288085770
1.5916443 -3.8346119 -1.908201 4288085770
0.056549072 -3.0160017 -1.8814957 4288085770
1.5197144 -3.7456369 -1.9081335 4288085770
0.010620117 -2.950017 -1.8804719 4288085770
1.4577942 -3.6626606 -1.9080894 4288085770
-0.03527832 -2.8850298 -1.8774459 4288085770
1.369873 -3.5646763 -1.8999846 4288085770
-0.0831604 -2.8190413 -1.8744152 4288085770
1.3199768 -3.488698 -1.9009681 4288085770
-0.1060791 -2.7660599 -1.8774457 4288085770
1.2360535 -3.3937063 -1.8908718 4288085770
-0.15499878 -2.6990652 -1.8704135 4288085770
1.1851807 -3.3177214 -1.8888516 4288085770
-0.16693115 -2.6520863 -1.8754702 4288085770
1.1482544 -3.2497387 -1.8888648 4288085770
1.1113281 -3.1807547 -1.8888798 4288085770
1.0674438 -3.1077623 -1.8838787 4288085770
1.0234985 -3.0357714 -1.8788753 4288085770
1.0006104 -2.9747839 -1.8789232 4288085770
0.98669434 -2.9177961 -1.8799946 4288085770
0.9367981 -2.843791 -1.8689747 4288085770
0.92889404 -2.7898006 -1.8700612 4288085770
0.91098022 -2.7318058 -1.8671207 4288085770
0.90509033 -2.6788101 -1.8662128 4288085770
0.90316772 -2.6288157 -1.8653121 4288085770
0.90625 -2.5788174 -1.8644297 4288085770
0.91732788 -2.533823 -1.8655648 4288085770
0.93041992 -2.4888268 -1.8667076 4288085770
0.94448853 -2.4458294 -1.8668494 4288085770
0.93560791 -2.3908224 -1.859935 4288085770
0.97171021 -2.3548279 -1.8641407 4288085770
0.97576904 -2.3058195 -1.8582599 4288085770
0.9928894 -2.2628145 -1.855413 4288085770
1.0390015 -2.2308178 -1.8606458 4288085770
1.0450745 -2.1818037 -1.8527725 4288085770
-0.18597412 -1.7451458 -1.846328 4288085770
1.0751953 -2.1427975 -1.8509636 4288085770
-0.14990234 -1.7161455 -1.8485186 4288085770
1.1092529 -2.1047935 -1.8501666 4288085770
-0.11880493 -1.6851435 -1.8486958 4288085770
1.1553345 -2.0717859 -1.8504019 4288085770
-0.089691162 -1.6531363 -1.846868 4288085770
1.207428 -2.0387793 -1.8516586 4288085770
-0.055603027 -1.6221294 -1.8460562 4288085770
1.2505493 -2.0027666 -1.84989 4288085770
-0.016479492 -1.5931244 -1.8462577 4288085770
1.2926331 -1.9667568 -1.8471177 4288085770
0.035583496 -1.5681229 -1.8494973 4288085770
1.3517151 -1.9347448 -1.8473973 4288085770
0.079650879 -1.539114 -1.848717 4288085770
1.4128418 -1.9037313 -1.8466828 4288085770
0.13076782 -1.5121088 -1.8509574 4288085770
1.4829102 -1.8747196 -1.8479955 4288085770
0.16485596 -1.480092 -1.8451478 4288085770
1.5510254 -1.8437052 -1.8473058 4288085770
0.22393799 -1.4550867 -1.8474126 4288085770
1.6161194 -1.8116894 -1.8456075 4288085770
0.27804565 -1.4280787 -1.847667 4288085770
1.6872253 -1.7806692 -1.842932 4288085770
0.34313965 -1.4030676 -1.8489542 4288085770
1.7752991 -1.7536545 -1.8443055 4288085770
0.41220093 -1.3800602 -1.8512511 4288085770
1.8533936 -1.7246351 -1.8426487 4288085770
0.46429443 -1.3510418 -1.8475006 4288085770
1.944519 -1.6966143 -1.8420358 4288085770
0.50842285 -1.3200235 -1.8407259 4288085770
2.0525818 -1.6735954 -1.8444729 4288085770
0.58453369 -1.2960091 -1.8420508 4288085770
2.1706848 -1.651576 -1.8479438 4288085770
0.6696167 -1.2739983 -1.8454034 4288085770
2.2657776 -1.6215467 -1.8443501 4288085770
0.74172974 -1.2479773 -1.8427184 4288085770
2.381897 -1.5975199 -1.8448188 4288085770
0.81283569 -1.2219582 -1.8400297 4288085770
2.4949951 -1.5714893 -1.8422811 4288085770
0.89993286 -1.1979389 -1.8393946 4288085770
2.6270752 -1.5474586 -1.8428073 4288085770
0.99099731 -1.1749191 -1.839771 4288085770
2.7531433 -1.5214272 -1.8413165 4288085770
1.0860901 -1.1528997 -1.8401604 4288085770
2.8982544 -1.4983931 -1.8418872 4288085770
1.1772156 -1.1278725 -1.8375421 4288085770
3.0543518 -1.4773569 -1.8424933 4288085770
1.2833252 -1.1058521 -1.837971 4288085770
3.220459 -1.4563217 -1.8441358 4288085770
1.3933716 -1.0828257 -1.8374159 4288085770
3.3995667 -1.435277 -1.8448243 4288085770
1.4935303 -1.0577946 -1.8338304 4288085770
3.5715942 -1.4122324 -1.8434925 4288085770
1.620575 -1.036768 -1.8353329 4288085770
3.758728 -1.3901844 -1.8432126 4288085770
1.7497253 -1.014739 -1.8358445 4288085770
3.9657898 -1.369132 -1.8430026 4288085770
1.8858032 -0.99270535 -1.8353817 4288085770
4.157959 -1.3450766 -1.8387456 4288085770
2.0209045 -0.97067261 -1.8339155 4288085770
4.382019 -1.3240194 -1.8385971 4288085770
2.1629639 -0.9486351 -1.8324745 4288085770
4.6420898 -1.3069592 -1.8405688 4288085770
2.3340759 -0.9285984 -1.8361332 4288085770
4.8832092 -1.2848911 -1.838484 4288085770
2.4911804 -0.90655804 -1.8337464 4288085770
5.1603394 -1.2658195 -1.8385222 4288085770
2.6772461 -0.88651848 -1.8364594 4288085770
5.4584045 -1.2477427 -1.8386331 4288085770
2.8603516 -0.86547089 -1.8361642 4288085770
5.7674866 -1.2276611 -1.8377888 4288085770
3.0484619 -0.84241962 -1.8338916 4288085770
6.1126099 -1.2105732 -1.8380673 4288085770
3.265564 -0.82237148 -1.8357165 4288085770
6.4786987 -1.1914749 -1.8374257 4288085770
3.4656677 -0.79831123 -1.8314898 4288085770
6.8588562 -1.17237 -1.8348353 4288085770
3.6887512 -0.77525234 -1.8293436 4288085770
7.3198853 -1.1582575 -1.8395243 4288085770
3.9298706 -0.75318432 -1.82726 4288085770
7.7690125 -1.1401348 -1.8381803 4288085770
4.2069397 -0.73211765 -1.8293037 4288085770
8.2661133 -1.1230011 -1.8370066 4288085770
4.4820251 -0.70904541 -1.8283453 4288085770
8.7802124 -1.1028547 -1.8319013 4288085770
4.7821655 -0.68696594 -1.8274746 4288085770
9.3753357 -1.0866947 -1.8320782 4288085770
5.1052856 -0.66488266 -1.8276868 4288085770
10.016449 -1.0695181 -1.8304238 4288085770
5.4373474 -0.63978863 -1.8239384 4288085770
10.698547 -1.0513248 -1.8259194 4288085770
5.8224487 -0.61869335 -1.8263724 4288085770
11.496643 -1.0351067 -1.8248277 4288085770
6.2235413 -0.59458733 -1.8258705 4288085770
12.341766 -1.0178709 -1.8199084 4288085770
6.6696472 -0.57046986 -1.8265307 4288085770
13.300873 -1.0006008 -1.8153999 4288085770
7.1147461 -0.54334354 -1.8221951 4288085770
14.357025 -0.98330212 -1.8102412 4288085770
7.6288452 -0.5182066 -1.8221033 4288085770
8.1919861 -0.49205875 -1.8221905 4288085770
8.7970581 -0.46389103 -1.8194337 4288085770
9.4971619 -0.43470478 -1.8200219 4288085770
10.225281 -0.40349865 -1.8157158 4288085770
11.10733 -0.37326813 -1.8189623 4288085770
11.994476 -0.33701706 -1.8132417 4288085770
13.003571 -0.29872894 -1.8059645 4288085770
14.245697 -0.26039505 -1.8075278 4288085770
14.739319 3.004528 -1.7652788 4288085770
14.483398 3.1104498 -1.7695794 4288085770
14.21347 3.2123775 -1.7708175 4288085770
13.974548 3.3183098 -1.7721825 4288085770
13.792603 3.4262524 -1.7757671 4288085770
13.59967 3.5331945 -1.7773075 4288085770
13.444733 3.6431437 -1.7799988 4288085770
13.278809 3.7490988 -1.779639 4288085770
13.19986 3.871057 -1.7856462 4288085770
13.170898 4.0010185 -1.7948613 4288085770
13.039978 4.1109862 -1.7926433 4288085770
12.96106 4.22896 -1.7926407 4288085770
12.936157 4.3599353 -1.7968738 4288085770
12.937164 4.495913 -1.8022172 4288085770
12.947235 4.6348991 -1.8056023 4288085770
12.965302 4.7758865 -1.8090231 4288085770
12.976379 4.9158764 -1.8104148 4288085770
13.028412 5.0678725 -1.8129907 4288085770
13.104462 5.2268734 -1.8156745 4288085770
13.146545 5.3778772 -1.8142111 4288085770
13.181641 5.5278883 -1.8097191 4288085770
13.326691 5.7089014 -1.8137181 4288085770
13.456757 5.8889198 -1.8146584 4288085770
13.650818 6.0909457 -1.8178945 4288085770
13.83786 6.2949753 -1.8191094 4288085770
14.141876 6.5370064 -1.8298597 4288085770
14.426941 6.779048 -1.8355389 4282675967
14.613007 6.9900951 -1.8287678 4282675967
5.7256165 4.6163011 -0.91442007 4293729569
5.4648743 4.5963426 -0.87139112 4293729569
5.3081055 4.6153827 -0.83785063 4293729569
5.1543274 4.6324286 -0.80231637 4293729569
5.0495605 4.6684804 -0.7690143 4293729569
4.9417725 4.7005315 -0.73569077 4293729569
4.8279724 4.7285848 -0.70133477 4293729569
4.682251 4.7406359 -0.66481858 4293729569
4.6324158 4.7926965 -0.63276345 4293729569
4.5407104 4.8237567 -0.59749824 4293729569
4.3579102 4.81181 -0.55678278 4293729569
4.2271729 4.8208671 -0.51931542 4293729569
4.1174316 4.8369265 -0.48294502 4293729569
4.0646362 4.878994 -0.44785434 4293729569
4.0018616 4.914063 -0.4117083 4293729569
4.1340637 5.0451593 -0.38153714 4293729569
4.1572571 5.1222448 -0.34582037 4293729569
13.611176 -0.002781868 -1.8022623 4288085770
12.32724 -0.015029907 -1.8063343 4288085770
11.215332 -0.023246765 -1.8100722 4288085770
10.19043 -0.029434204 -1.8091474 4288085770
9.3085022 -0.034603119 -1.8117702 4288085770
8.4886169 -0.036753654 -1.8106372 4288085770
7.7657166 -0.037893295 -1.811877 4288085770
14.06189 -0.17474556 -1.7975218 4288085770
7.092804 -0.038016319 -1.8103092 4288085770
12.672974 -0.16200161 -1.7982581 4288085770
6.5138855 -0.037134171 -1.8141031 4288085770
11.514038 -0.15123081 -1.8048663 4288085770
5.95401 -0.035233498 -1.8119719 4288085770
10.457123 -0.13842869 -1.8058686 4288085770
5.447113 -0.032330513 -1.8110452 4288085770
9.5272217 -0.12760735 -1.8083496 4288085770
4.9852295 -0.028416634 -1.8112926 4288085770
8.6903076 -0.11576366 -1.8091881 4288085770
4.5712891 -0.024503708 -1.8137233 4288085770
7.9433899 -0.10390568 -1.8103697 4288085770
4.1753845 -0.019577026 -1.813225 4288085770
7.2825012 -0.092032433 -1.8118794 4288085770
3.8144836 -0.014649391 -1.8138599 4288085770
6.6615601 -0.080150604 -1.8125412 4288085770
3.4965515 -0.0097208023 -1.8176594 4288085770
6.0797119 -0.067250252 -1.8093548 4288085770
3.1626892 -0.0037784576 -1.8154004 4288085770
5.5787964 -0.056348801 -1.8114715 4288085770
2.8637695 0.0031604767 -1.8152769 4288085770
5.0958862 -0.043435097 -1.8086622 4288085770
2.5768738 0.010110855 -1.8131995 4288085770
4.6709595 -0.032517433 -1.8100691 4288085770
2.3129883 0.01706028 -1.8122101 4288085770
4.2840576 -0.020601273 -1.8126235 4288085770
2.0700684 0.024008751 -1.8133004 4288085770
3.913147 -0.0096712112 -1.8122358 4288085770
1.8391724 0.031962395 -1.8134387 4288085770
3.57724 0.0022592545 -1.8139846 4288085770
1.6302795 0.03891468 -1.815659 4288085770
3.2563477 0.013198853 -1.8137882 4288085770
1.425354 0.046870232 -1.8168967 4288085770
2.930481 0.026148796 -1.808578 4288085770
1.2164612 0.055836678 -1.8131223 4288085770
2.6555786 0.038092613 -1.8095591 4288085770
1.0365906 0.063796997 -1.8144553 4288085770
2.4026489 0.049039841 -1.810622 4288085770
0.88165283 0.071748734 -1.8198838 4288085770
2.1527405 0.060995102 -1.8096986 4288085770
0.70175171 0.080721855 -1.8162198 4288085770
1.9188232 0.072949409 -1.8088365 4288085770
0.56481934 0.088676453 -1.8227167 4288085770
1.7089233 0.083900452 -1.8110628 4288085770
0.38897705 0.098656654 -1.8160706 4288085770
1.4940491 0.095864296 -1.8082733 4288085770
0.2550354 0.10762024 -1.819582 4288085770
1.3181152 0.10781479 -1.813632 4288085770
0.11813354 0.11758804 -1.8200843 4288085770
1.1272278 0.11878204 -1.8119316 4288085770
-0.0087585449 0.1265583 -1.8216221 4288085770
0.95935059 0.13074207 -1.8133206 4288085770
-0.14364624 0.13653851 -1.8181326 4288085770
0.79840088 0.14270687 -1.8137369 4288085770
0.63653564 0.15367889 -1.8121469 4288085770
0.49362183 0.16564083 -1.8146315 4288085770
0.33972168 0.17762089 -1.8100746 4288085770
0.20883179 0.18958855 -1.8116052 4288085770
0.08392334 0.20155716 -1.8131585 4288085770
-0.040985107 0.2135334 -1.812712 4288085770
-0.16485596 0.22550869 -1.8112695 4288085770
-0.10031128 2.3170033 -1.7736759 4288085770
0.034790039 2.3530064 -1.7782764 4288085770
0.16384888 2.3850203 -1.7778435 4288085770
0.28897095 2.4140396 -1.7753873 4288085770
0.434021 2.449049 -1.7780221 4288085770
0.57614136 2.4810715 -1.7766378 4288085770
0.72323608 2.5130882 -1.7762721 4288085770
0.8843689 2.5491028 -1.7779694 4288085770
-0.10455322 2.225956 -1.7753909 4288085770
1.0524292 2.5851202 -1.7786927 4288085770
0.045501709 2.2579517 -1.7840366 4288085770
1.2215576 2.620141 -1.7784169 4288085770
0.16165161 2.2769728 -1.7805195 4288085770
1.3996582 2.655159 -1.779175 4288085770
0.28771973 2.2969904 -1.7790425 4288085770
1.5857544 2.6921844 -1.7789681 4288085770
0.42782593 2.3200035 -1.7796259 4288085770
1.7758484 2.7282066 -1.7787728 4288085770
0.55297852 2.3370285 -1.7751372 4288085770
1.9719543 2.7632351 -1.7775981 4288085770
0.71707153 2.3650341 -1.7808237 4288085770
2.1840515 2.8022594 -1.7774935 4288085770
0.87011719 2.3890457 -1.7824576 4288085770
2.4161072 2.8442831 -1.7804713 4288085770
1.0392151 2.4140596 -1.7851546 4288085770
2.6342163 2.8793154 -1.778378 4288085770
1.2192993 2.4420681 -1.7899005 4288085770
2.8813477 2.9213438 -1.779412 4288085770
1.3824158 2.4620914 -1.7885613 4288085770
3.1344604 2.9623766 -1.7794654 4288085770
1.5275574 2.4741249 -1.7811329 4288085770
3.4345093 3.0153952 -1.7867267 4288085770
1.7166443 2.4981422 -1.7839012 4288085770
3.7695923 3.0744123 -1.7971349 4288085770
1.9176941 2.523159 -1.7867169 4288085770
4.0476685 3.1134558 -1.7942758 4288085770
2.1068115 2.5421839 -1.7854717 4288085770
4.3148193 3.1445084 -1.787354 4288085770
2.3199463 2.5662031 -1.7883291 4288085770
4.6818542 3.2025356 -1.794878 4288085770
2.5050659 2.5792389 -1.7830522 4288085770
5.0739746 3.2625675 -1.802501 4288085770
2.7201233 2.5982647 -1.7829032 4288085770
5.4840088 3.3226013 -1.8101907 4288085770
2.919281 2.6103029 -1.7776756 4288085770
5.9640503 3.3986235 -1.8261847 4288085770
3.1523743 2.6293325 -1.7775936 4288085770
6.4191284 3.4606667 -1.8330476 4288085770
3.3954773 2.6483641 -1.7775488 4288085770
6.9411621 3.5347023 -1.8461921 4282675967
3.6475525 2.665391 -1.7785318 4288085770
7.4532471 3.6007528 -1.8532777 4282675967
3.9086609 2.6824226 -1.7785482 4288085770
7.9193726 3.6488266 -1.8491426 4282675967
4.2017517 2.7034531 -1.7816949 4288085770
8.3644714 3.6869106 -1.839901 4288085770
4.467865 2.7144918 -1.778713 4288085770
8.8256226 3.7219992 -1.8297107 4288085770
4.7759705 2.7325277 -1.7809069 4288085770
9.4466858 3.788075 -1.8332012 4288085770
5.1180725 2.7545567 -1.7862382 4288085770
10.00885 3.8341665 -1.8274171 4288085770
5.4611511 2.7715931 -1.7895594 4288085770
10.627991 3.8862667 -1.821861 4288085770
5.8202515 2.7876272 -1.793937 4288085770
11.315063 3.9443626 -1.8205745 4288085770
6.221283 2.809659 -1.8014877 4288085770
12.016205 3.9964771 -1.8143239 4288085770
6.5844421 2.8167114 -1.7998552 4288085770
12.768341 4.0505972 -1.8082678 4288085770
6.9145203 2.8137722 -1.793072 4288085770
13.556427 4.1037235 -1.801342 4288085770
7.2906799 2.8158274 -1.7904737 4288085770
14.318604 4.1408658 -1.7872756 4288085770
7.6817932 2.8138924 -1.7859201 4288085770
8.1478882 2.8219395 -1.7906725 4288085770
8.6879578 2.8379841 -1.8007224 4288085770
9.2070312 2.8430367 -1.8066633 4288085770
9.7331238 2.8420992 -1.8096137 4288085770
10.219238 2.8281746 -1.8053789 4288085770
10.70636 2.8082533 -1.7991309 4288085770
11.262482 2.7913342 -1.797148 4288085770
11.795624 2.7644196 -1.7910511 4288085770
12.345764 2.7345095 -1.7850091 4288085770
12.971893 2.7045994 -1.7822492 4288085770
13.55603 2.6617002 -1.7732968 4288085770
14.184174 2.6148052 -1.7654972 4288085770
11.161743 -5.0858479 -0.94434983 4293729569
11.061707 -5.1729698 -0.98072582 4293729569
11.09668 -5.2727909 -0.19056338 4293729569
11.032623 -5.3689213 -0.2320469 4293729569
14.428375 -7.4274063 -1.645731 4293729569
13.696442 -7.2795334 -1.6534243 4293729569
12.988495 -7.1266479 -1.6592212 4293729569
12.27655 -6.964756 -1.6620297 4293729569
11.581635 -6.7988605 -1.6639135 4293729569
10.91571 -6.6359558 -1.6648972 4293729569
10.306763 -6.4860516 -1.6680553 4293729569
5.2303467 -4.3398418 -0.62634689 4293729569
5.2053528 -4.3613949 -1.185194 4293729569
5.0343323 -4.3239622 -0.65865749 4293729569
5.0193481 -4.3504906 -1.2095273 4293729569
4.8643188 -4.3170805 -0.69103867 4293729569
4.8273621 -4.3345861 -1.2328527 4293729569
4.6932983 -4.3062 -0.72442752 4293729569
4.6653442 -4.3286905 -1.2602611 4293729569
4.5362549 -4.2993155 -0.75685698 4293729569
4.5283508 -4.3327913 -1.2887337 4293729569
4.5232239 -4.3574467 -0.80163437 4293729569
4.5243225 -4.3969288 -1.3355269 4293729569
4.5141602 -4.4165783 -0.84742349 4293729569
4.525238 -4.463068 -1.3843336 4293729569
4.5101013 -4.4767151 -0.89422792 4293729569
4.5151978 -4.5222073 -1.4321189 4293729569
4.5080261 -4.5368519 -0.94203991 4293729569
4.5151062 -4.5853519 -1.4829299 4293729569
4.5049744 -4.5959949 -0.99085075 4293729569
4.5150146 -4.6485043 -1.5347402 4293729569
4.4928894 -4.6501369 -1.0406427 4293729569
5.1416321 -5.0268459 -1.6859705 4293729569
9.7531128 -7.3631458 -1.6493516 4293729569
4.6727905 -4.8538628 -1.6677201 4293729569
9.1481323 -7.1422672 -1.6627307 4293729569
4.5097656 -4.8309689 -1.6961727 4293729569
8.5431824 -6.913372 -1.6701334 4293729569
4.2278442 -4.7430305 -1.703372 4293729569
7.9822693 -6.6984749 -1.6776597 4293729569
3.9508972 -4.6530876 -1.708595 4293729569
7.3902893 -6.4605522 -1.6761377 4293729569
3.6939697 -4.5711517 -1.71787 4293729569
6.780426 -6.2046146 -1.6676021 4293729569
3.4200134 -4.4751987 -1.7201226 4293729569
6.2625122 -5.9896812 -1.6652901 4293729569
3.1990662 -4.4032612 -1.7295022 4293729569
5.7475891 -5.7687359 -1.6590066 4293729569
2.9571533 -4.3173084 -1.733845 4293729569
5.2826843 -5.5697899 -1.6548462 4293729569
2.682312 -4.2083359 -1.7291317 4293729569
4.9436951 -5.4348717 -1.6659682 4293729569
2.4273987 -4.1073637 -1.7254701 4293729569
4.6147766 -5.2999439 -1.6751277 4293729569
2.1684875 -4.0003843 -1.718811 4293729569
4.3088684 -5.1720161 -1.6843531 4293729569
1.9825745 -3.9314356 -1.7263129 4293729569
4.0148926 -5.0480862 -1.6936114 4293729569
1.8296204 -3.8784943 -1.7388911 4293729569
3.7599182 -4.9421616 -1.7069623 4293729569
1.7026672 -3.8385668 -1.7565284 4293729569
3.4909973 -4.8242207 -1.7142966 4293729569
1.6346436 -3.8286667 -1.7872972 4293729569
3.2140503 -4.6982708 -1.7176247 4293729569
1.6105957 -3.8447914 -1.829154 4293729569
2.9631042 -4.5823231 -1.7220201 4293729569
1.5765381 -3.8529119 -1.8689964 4288085770
2.7082214 -4.4623661 -1.7234132 4293729569
1.5355225 -3.8550253 -1.9058306 4288085770
2.4552917 -4.3394012 -1.7228224 4293729569
1.4015808 -3.8010798 -1.9174826 4288085770
2.2243958 -4.2274342 -1.7222815 4293729569
1.2276611 -3.7191048 -1.9160669 4288085770
1.9645081 -4.094451 -1.7146947 4293729569
1.0407715 -3.6271143 -1.9096329 4288085770
1.7625732 -3.9934855 -1.7162299 4293729569
0.8598938 -3.5361195 -1.9012187 4288085770
1.5916443 -3.9075327 -1.7228374 4293729569
0.69000244 -3.4501257 -1.8938305 4288085770
1.4747009 -3.8525991 -1.7395542 4293729569
0.55209351 -3.3811522 -1.8945115 4288085770
1.3916931 -3.8156834 -1.7643449 4293729569
0.4012146 -3.3021641 -1.8901739 4288085770
1.3946228 -3.8288145 -1.8103087 4293729569
0.26733398 -3.2311764 -1.8868759 4288085770
1.4065552 -3.8459549 -1.8582935 4288085770
0.13540649 -3.1601934 -1.8845854 4288085770
1.4035034 -3.8520842 -1.9022548 4288085770
0.025543213 -3.1012192 -1.887342 4288085770
1.2765503 -3.7821331 -1.9119785 4288085770
-0.087371826 -3.0382376 -1.8860989 4288085770
1.127655 -3.6961613 -1.9136674 4288085770
0.96875 -3.602169 -1.9083428 4288085770
0.79290771 -3.4961681 -1.8969908 4288085770
0.64599609 -3.4051762 -1.8917022 4288085770
0.519104 -3.3261929 -1.8904529 4288085770
0.38922119 -3.2442036 -1.8862016 4288085770
0.27529907 -3.1702204 -1.8849862 4288085770
0.16140747 -3.0942287 -1.8807766 4288085770
0.057495117 -3.0232439 -1.8795898 4288085770
-0.035369873 -2.9582596 -1.8794265 4288085770
-0.13027954 -2.8912706 -1.8772614 4288085770
-0.13665771 -0.76946735 -1.8307052 4288085770
-0.049560547 -0.75447083 -1.8340502 4288085770
0.02053833 -0.73646069 -1.8313432 4288085770
0.10464478 -0.72045422 -1.8306804 4288085770
0.18774414 -0.70344543 -1.8290167 4288085770
0.27285767 -0.68643475 -1.8273599 4288085770
0.37796021 -0.67243385 -1.8297653 4288085770
0.48208618 -0.65742779 -1.8301702 4288085770
0.58615112 -0.64242172 -1.8305745 4288085770
0.6902771 -0.62640762 -1.8279815 4288085770
0.8053894 -0.61039543 -1.8274276 4288085770
0.92150879 -0.59538174 -1.8258743 4288085770
-0.10250854 -0.43852997 -1.8336861 4288085770
1.042572 -0.580369 -1.8243382 4288085770
-0.03338623 -0.42150402 -1.8249724 4288085770
1.1777039 -0.56635571 -1.8238487 4288085770
0.081695557 -0.40850639 -1.8294106 4288085770
1.2958069 -0.54932976 -1.8183076 4288085770
0.17779541 -0.3934927 -1.8267865 4288085770
1.4529114 -0.5363245 -1.8208928 4288085770
0.29190063 -0.38048744 -1.8282206 4288085770
1.5880432 -0.52029705 -1.8154085 4288085770
0.40701294 -0.36647892 -1.8276606 4288085770
1.7691345 -0.50829411 -1.8200753 4288085770
0.52713013 -0.35246849 -1.8281183 4288085770
1.9502258 -0.49527931 -1.8207445 4288085770
0.65722656 -0.33946037 -1.8286083 4288085770
2.1253357 -0.48125935 -1.8193953 4288085770
0.78631592 -0.32544804 -1.8280976 4288085770
2.3194275 -0.46824551 -1.8201098 4288085770
0.91442871 -0.31042862 -1.8245859 4288085770
2.5265503 -0.45522308 -1.8198702 4288085770
1.055542 -0.29641247 -1.823117 4288085770
2.7556458 -0.44320583 -1.8217049 4288085770
1.199646 -0.28239441 -1.8206582 4288085770
2.9767456 -0.42917824 -1.8195169 4288085770
1.3727417 -0.27038574 -1.8232961 4288085770
3.2488403 -0.41816235 -1.8235002 4288085770
1.5368652 -0.25636482 -1.8209078 4288085770
3.5119629 -0.40513515 -1.8234565 4288085770
1.7119751 -0.2423439 -1.8195579 4288085770
3.7920532 -0.39210415 -1.8224726 4288085770
1.8910828 -0.22831726 -1.816222 4288085770
4.0991211 -0.38007355 -1.8225808 4288085770
2.1081848 -0.21630764 -1.820014 4288085770
4.4152527 -0.36603546 -1.8207259 4288085770
2.3262634 -0.20328808 -1.8208122 4288085770
4.7513733 -0.35399342 -1.8179352 4288085770
2.5433655 -0.18926334 -1.8186097 4288085770
5.1294556 -0.34095192 -1.8172956 4288085770
2.8084717 -0.177248 -1.8225701 4288085770
5.5605469 -0.329916 -1.8208356 4288085770
3.0665588 -0.16422367 -1.8225081 4288085770
5.9926453 -0.31786251 -1.8183818 4288085770
3.330719 -0.1501894 -1.8204694 4288085770
6.4777832 -0.30580902 -1.8181136 4288085770
3.6217651 -0.13715744 -1.8195224 4288085770
6.9999084 -0.29374981 -1.8169751 4288085770
3.928894 -0.12312412 -1.8186345 4288085770
7.5899963 -0.28268814 -1.8180723 4288085770
4.2689819 -0.11008739 -1.8178594 4288085770
8.2131042 -0.27061081 -1.8152876 4288085770
4.6211243 -0.096038818 -1.8141291 4288085770
8.9152222 -0.2585268 -1.8137798 4288085770
5.0202332 -0.081997871 -1.814563 4288085770
9.7073059 -0.24743557 -1.8125849 4288085770
5.4473267 -0.068950653 -1.8140922 4288085770
10.606445 -0.23633575 -1.8127651 4288085770
5.9304199 -0.05490303 -1.8158207 4288085770
11.575531 -0.22421455 -1.8091924 4288085770
6.4495239 -0.041851997 -1.8176718 4288085770
12.631683 -0.21107006 -1.7999272 4288085770
7.0106506 -0.02779007 -1.8166726 4288085770
13.952789 -0.20192719 -1.8025806 4288085770
7.6037598 -0.012714386 -1.8127878 4288085770
8.2958679 0.0023612976 -1.8132498 4288085770
9.0729675 0.016443253 -1.8150065 4288085770
9.9100647 0.031538963 -1.813976 4288085770
10.869171 0.047652245 -1.8123751 4288085770
11.915314 0.064782143 -1.8080807 4288085770
13.187408 0.08292675 -1.8085804 4288085770
14.62854 0.10109329 -1.8066709 4288085770
14.385559 0.30670738 -1.787827 4288085770
12.981628 0.31459999 -1.7932081 4288085770
11.747711 0.32151699 -1.7951486 4288085770
10.612823 0.32945347 -1.7924187 4288085770
9.6748962 0.33837605 -1.7973444 4288085770
8.7940063 0.34632778 -1.7944551 4288085770
8.0140991 0.35528374 -1.7929027 4288085770
14.717224 0.42871857 -1.7753632 4288085770
7.3741455 0.36422157 -1.7988143 4288085770
13.284302 0.43961239 -1.780654 4288085770
6.7462769 0.37318039 -1.7987649 4288085770
11.995392 0.44952965 -1.7814178 4288085770
6.201355 0.38313389 -1.8009932 4288085770
10.91745 0.46144485 -1.7868869 4288085770
5.6644897 0.39210796 -1.798245 4288085770
9.9325867 0.47138691 -1.7856572 4288085770
5.1925659 0.40207577 -1.7977145 4288085770
9.0736694 0.4823246 -1.787848 4288085770
4.7546692 0.41104698 -1.7972937 4288085770
8.2757568 0.49228382 -1.7842371 4288085770
4.3757629 0.42101192 -1.800071 4288085770
7.592865 0.50323105 -1.7870104 4288085770
4.0058594 0.43098831 -1.7998779 4288085770
6.9629517 0.51419067 -1.7869587 4288085770
3.6569519 0.4409647 -1.7987542 4288085770
6.4310608 0.52513599 -1.7932324 4288085770
3.3740234 0.45192146 -1.8058529 4288085770
5.9151306 0.53609848 -1.7935584 4288085770
3.0731201 0.46190166 -1.8048882 4288085770
5.4202271 0.54707623 -1.7899537 4288085770
2.7832336 0.47188663 -1.8029597 4288085770
4.9903564 0.55804157 -1.7915642 4288085770
2.5223389 0.4828701 -1.8021305 4288085770
4.5993958 0.56900978 -1.7933042 4288085770
2.2744141 0.49285507 -1.8003409 4288085770
4.2434998 0.58097553 -1.7961631 4288085770
2.0535278 0.50383091 -1.8026443 4288085770
3.9046021 0.59194756 -1.7970753 4288085770
1.8206482 0.51382637 -1.7989039 4288085770
3.5937195 0.60392189 -1.7980833 4288085770
1.6447144 0.52579212 -1.8043597 4288085770
3.2868347 0.61390495 -1.796098 4288085770
1.4418335 0.53578472 -1.801719 4288085770
3.0049133 0.62588692 -1.7952015 4288085770
1.2599487 0.546772 -1.801151 4288085770
2.75 0.63686657 -1.7963917 4288085770
1.0900574 0.55775547 -1.8016231 4288085770
2.5001221 0.64785099 -1.7945981 4288085770
0.93814087 0.56873226 -1.8051543 4288085770
2.2602234 0.65884209 -1.7918377 4288085770
0.78326416 0.57971764 -1.8046761 4288085770
2.0563049 0.67081833 -1.7941999 4288085770
0.65328979 0.59169006 -1.8092835 4288085770
1.8454285 0.68180943 -1.7915359 4288085770
0.4984436 0.60269356 -1.8048048 4288085770
1.6625061 0.69478798 -1.7939703 4288085770
0.36853027 0.61367989 -1.8054087 4288085770
1.4906006 0.70676422 -1.7964385 4288085770
0.25161743 0.62665272 -1.8100624 4288085770
1.3207397 0.71875 -1.7969134 4288085770
0.12271118 0.63764858 -1.8076701 4288085770
1.1567993 0.73074055 -1.7954075 4288085770
0.00085449219 0.64864349 -1.8053005 4288085770
0.99893188 0.74273109 -1.7939224 4288085770
-0.11206055 0.6596384 -1.8039608 4288085770
0.86401367 0.75570774 -1.7975161 4288085770
0.73010254 0.76769352 -1.7981102 4288085770
0.60220337 0.78067589 -1.7997272 4288085770
0.46731567 0.79267406 -1.7963176 4288085770
0.34341431 0.80466938 -1.7949448 4288085770
0.23049927 0.81765366 -1.7956114 4288085770
0.11962891 0.82964516 -1.7952816 4288085770
0.017700195 0.84363174 -1.7959878 4288085770
-0.081176758 0.8556242 -1.7956977 4288085770
-0.18609619 0.86762428 -1.7923875 4288085770
-0.048065186 3.1602421 -1.775327 4288085770
0.070007324 3.2152367 -1.7769041 4288085770
0.20010376 3.276228 -1.7795415 4288085770
0.34420776 3.3422108 -1.7852418 4288085770
0.47729492 3.4012089 -1.7858832 4288085770
0.64938354 3.478179 -1.7957139 4288085770
0.79244995 3.5391798 -1.7953956 4288085770
0.94656372 3.6031818 -1.7951241 4288085770
-0.16830444 3.0652113 -1.7716303 4288085770
1.1066589 3.6681833 -1.7948766 4288085770
-0.04119873 3.115202 -1.7742224 4288085770
1.277771 3.7371831 -1.7956791 4288085770
0.12185669 3.1811619 -1.7869873 4288085770
1.4608765 3.8091769 -1.7985322 4288085770
0.24597168 3.2251635 -1.7865503 4288085770
1.6739197 3.8961525 -1.8065345 4288085770
0.37307739 3.2691679 -1.7851236 4288085770
1.8300476 3.9501834 -1.7972391 4288085770
0.50817871 3.3151693 -1.7847302 4288085770
2.0561523 4.037169 -1.8042843 4288085770
0.69821167 3.3871336 -1.7976055 4288085770
2.2492676 4.1051879 -1.7991614 4288085770
0.84729004 3.4361353 -1.7972713 4288085770
2.477356 4.1881876 -1.8002055 4288085770
1.0314026 3.5001097 -1.8061047 4288085770
2.6924438 4.2602029 -1.7961705 4288085770
1.1875 3.5471191 -1.8037884 4288085770
2.9485779 4.3511987 -1.799336 4288085770
1.324646 3.5831451 -1.7953727 4288085770
3.2356262 4.4531832 -1.8056419 4288085770
1.5007629 3.6361446 -1.7961442 4288085770
3.4977417 4.5391941 -1.8038123 4288085770
1.6948242 3.6951346 -1.7999961 4288085770
3.7778625 4.6311979 -1.8040638 4288085770
1.8749084 3.7451429 -1.7977719 4288085770
4.0949402 4.7351933 -1.8074796 4288085770
2.0999756 3.8131232 -1.8047583 4288085770
4.4260254 4.8431916 -1.8099558 4288085770
2.2821045 3.859138 -1.800529 4288085770
4.8440552 4.9861507 -1.8258402 4288085770
2.5022278 3.9181356 -1.8024704 4288085770
4.7564087 4.8923817 -1.7512484 4288085770
2.7183228 3.9731383 -1.8023858 4288085770
4.394928 4.6767421 -1.6333354 4293729569
2.9504089 4.0331383 -1.8033717 4288085770
4.3862 4.6199155 -1.5771298 4293729569
3.1994934 4.0961337 -1.8054254 4288085770
4.4724426 4.6050458 -1.5363815 4293729569
3.4296265 4.1481452 -1.80338 4288085770
4.5566711 4.5861764 -1.4946139 4293729569
3.6647034 4.1981606 -1.7993453 4288085770
4.7068787 4.5952811 -1.4621599 4293729569
3.9358215 4.2611613 -1.8004751 4288085770
4.795166 4.5744095 -1.4213998 4293729569
4.2399292 4.3331499 -1.8057461 4288085770
4.9673462 4.5875082 -1.3910339 4293729569
4.5299988 4.3951492 -1.8069379 4288085770
5.1225891 4.5896158 -1.3575757 4293729569
4.8640747 4.4711385 -1.8123252 4288085770
5.1358337 4.5327754 -1.3064451 4293729569
5.2231445 4.5521188 -1.8208137 4288085770
5.3480225 4.5548601 -1.2802451 4293729569
5.6102295 4.6400957 -1.8304205 4288085770
5.6112366 4.5929394 -1.2572703 4293729569
5.9913025 4.7190852 -1.8359785 4288085770
11.831238 6.932188 -1.8669622 4282675967
6.3773804 4.7940774 -1.8405416 4288085770
12.589325 7.1132164 -1.8641369 4282675967
6.7944336 4.8770642 -1.8472364 4288085770
13.359467 7.2882566 -1.8573346 4282675967
7.2005615 4.9490633 -1.8498592 4288085770
14.119629 7.450316 -1.8454576 4282675967
7.6016541 5.0130711 -1.8494399 4288085770
8.0057678 5.0730867 -1.8470182 4288085770
8.4068909 5.1271091 -1.8425679 4288085770
8.8440247 5.1871223 -1.8412607 4288085770
9.275116 5.2391448 -1.8369076 4288085770
9.7712402 5.3051548 -1.836822 4288085770
10.243317 5.3561764 -1.8326068 4288085770
10.793427 5.4251814 -1.8347166 4288085770
11.347504 5.4881887 -1.8358212 4288085770
11.860657 5.5332146 -1.8307292 4288085770
12.440735 5.5882292 -1.8298986 4288085770
