# .PCD v0.7 - Point Cloud Data file format
VERSION 0.7
FIELDS x y z rgb
SIZE 4 4 4 4
TYPE F F F U
COUNT 1 1 1 1
WIDTH 1121
HEIGHT 1
VIEWPOINT 0 0 0 1 0 0 0
POINTS 1121
DATA ascii
13.901367 1.9369402 -1.4711149 4293729569
9.4396362 1.5339975 -1.7778785 4288085770
13.959473 1.8811197 -1.3568265 4293729569
10.331879 1.5626163 -1.7835815 4288085770
14.192322 1.8389196 -1.2545295 4293729569
11.312103 1.5906134 -1.7871809 4288085770
14.330719 1.7863932 -1.1445358 4293729569
12.884003 1.6586571 -1.8376157 4288085770
15.005585 1.771883 -1.0579023 4293729569
14.437897 1.711812 -1.8657424 4288085770
15.343323 1.7261534 -0.95068789 4293729569
15.437347 1.6605101 -0.83264279 4293729569
1.9181213 -4.3513894 -0.47353554 4293729569
1.934082 -4.3456607 -0.51288295 4293729569
2.0753784 -4.383121 -0.63413072 4293729569
2.072052 -4.3564367 -0.66954279 4293729569
2.1392517 -4.3765187 -0.71129513 4293729569
2.1591187 -4.361764 -0.7495327 4293729569
2.3363953 -4.3840737 -0.8702302 4293729569
2.4524231 -4.3843379 -0.4793911 4293729569
2.4277344 -4.4090652 -0.91282177 4293729569
2.517334 -4.3873892 -0.51638389 4293729569
2.4181519 -4.366384 -0.94565058 4293729569
2.6053467 -4.4033465 -0.55319738 4293729569
6.9977417 -7.2524543 -1.4955449 4293729569
2.6682434 -4.4004083 -0.59033394 4293729569
2.5977173 -4.4013748 -1.0301003 4293729569
2.6907654 -4.3715916 -0.62255526 4293729569
2.6859131 -4.4143734 -1.0719337 4293729569
2.8008728 -4.3944674 -0.660285 4293729569
2.6923828 -4.3756199 -1.1039841 4293729569
2.804718 -4.3985372 -1.1476138 4293729569
3.0029297 -4.4222832 -0.73473358 4293729569
5.3535461 -5.9043174 -1.5170963 4293729569
3.0857544 -4.4222469 -0.76991558 4293729569
2.9992065 -4.4204602 -1.2314744 4293729569
3.1044617 -4.4323921 -1.2735243 4293729569
3.2755432 -4.4280839 -0.84111094 4293729569
4.6476135 -5.2892294 -1.521976 4293729569
3.3572998 -4.4210372 -0.87440014 4293729569
3.2945862 -4.4372954 -1.3527193 4293729569
3.4664917 -4.4810286 -1.4034178 4293729569
3.5820923 -4.4357185 -0.94389224 4293729569
3.4694519 -4.4252257 -1.4277592 4293729569
9.0076904 -7.3893318 -1.4898453 4293729569
3.7190857 -4.5067286 -1.4885433 4293729569
3.7936707 -4.432435 -1.011143 4293729569
3.8999939 -4.5444398 -1.5408711 4293729569
8.3731995 -6.8469753 -1.4978113 4293729569
3.8471985 -4.4527602 -1.5530882 4293729569
4.0595703 -4.4499583 -1.0816996 4293729569
3.7357483 -4.3282351 -1.555294 4293729569
7.8389587 -6.3731875 -1.5025489 4293729569
3.7424927 -4.2683725 -1.5744889 4293729569
4.3172302 -4.4524865 -1.1487586 4293729569
3.8654785 -4.2691917 -1.6117978 4293729569
7.4122009 -5.9659758 -1.5087409 4293729569
4.0046997 -4.274972 -1.6523159 4293729569
4.6644592 -4.4897156 -1.2233717 4293729569
4.1650085 -4.2886839 -1.694787 4293729569
4.8274231 -4.4983473 -1.2577541 4293729569
4.3050842 -4.2894444 -1.7333031 4293729569
6.9351196 -5.4539824 -1.5161324 4293729569
4.4613037 -4.2961564 -1.7740209 4293729569
5.1905518 -4.5254889 -1.3297091 4293729569
4.634613 -4.3078113 -1.8159041 4288085770
5.3492737 -4.5241165 -1.3613646 4293729569
4.7937622 -4.309504 -1.855526 4288085770
5.5412903 -4.5356369 -1.3963709 4293729569
4.8870544 -4.2783484 -1.8814657 4288085770
5.753418 -4.5510845 -1.432411 4293729569
4.837677 -4.1785536 -1.8815773 4288085770
6.0612488 -4.609231 -1.4786565 4293729569
4.7800598 -4.0767541 -1.8770838 4288085770
6.3711243 -4.6623669 -1.5248506 4293729569
4.7285767 -3.9779434 -1.874284 4288085770
6.3913574 -4.5843716 -1.5345545 4293729569
4.6982117 -3.8890553 -1.872421 4288085770
6.3933716 -4.498415 -1.5401685 4293729569
4.6769104 -3.8051443 -1.8720961 4288085770
6.4225769 -4.4233704 -1.54843 4293729569
4.642395 -3.7152586 -1.8684304 4288085770
6.5697327 -4.3969584 -1.5698185 4293729569
4.6482849 -3.6422491 -1.8697534 4288085770
6.8126221 -4.4072442 -1.6014626 4293729569
4.6470032 -3.5672503 -1.8684235 4288085770
7.0655212 -4.4174871 -1.6326411 4293729569
4.6345825 -3.4862738 -1.8646581 4288085770
7.3224182 -4.4257116 -1.6636505 4293729569
4.6412964 -3.4152355 -1.862922 4288085770
7.6104431 -4.4418225 -1.6961472 4293729569
4.651062 -3.3451853 -1.861038 4288085770
7.9044495 -4.4559054 -1.7283823 4293729569
4.6687622 -3.2770996 -1.8587646 4288085770
8.2023926 -4.4659643 -1.7594657 4293729569
4.6986084 -3.2129774 -1.8578985 4288085770
8.5395508 -4.4868903 -1.7936375 4293729569
4.734436 -3.1508274 -1.8567357 4288085770
8.8796082 -4.503787 -1.8257058 4293729569
4.7631836 -3.0866919 -1.8539181 4288085770
9.2033997 -4.5097141 -1.8536158 4288085770
4.8261719 -3.0344458 -1.8544126 4288085770
9.4807129 -4.4957657 -1.8738434 4288085770
4.8820496 -2.9782162 -1.8532691 4288085770
9.6884155 -4.4560275 -1.8855114 4288085770
4.9267578 -2.9180088 -1.8496737 4288085770
9.8273926 -4.3914704 -1.8855684 4288085770
5.0148621 -2.8706684 -1.8509619 4288085770
9.9874573 -4.3318272 -1.8856056 4288085770
5.0917969 -2.8193531 -1.8497977 4288085770
10.203827 -4.2869997 -1.8909042 4288085770
5.1757507 -2.7700129 -1.8492913 4288085770
10.357697 -4.2213516 -1.8872747 4288085770
5.276825 -2.7246151 -1.8499577 4288085770
10.593048 -4.177433 -1.890682 4288085770
5.3757629 -2.6782093 -1.8487287 4288085770
10.838409 -4.134469 -1.8936157 4288085770
5.494812 -2.6357307 -1.8485329 4288085770
11.106689 -4.0954027 -1.8954463 4288085770
5.6058044 -2.5892715 -1.8467448 4288085770
11.415222 -4.0631914 -1.8993535 4288085770
5.7277832 -2.5457716 -1.8454194 4288085770
11.758881 -4.0368567 -1.9055777 4288085770
5.8628235 -2.5032206 -1.8444798 4288085770
12.201019 -4.0301771 -1.9180646 4288085770
6.0291138 -2.4685755 -1.8470259 4288085770
12.71759 -4.0372396 -1.9359822 4288085770
6.1851196 -2.4289322 -1.8450847 4288085770
13.414062 -4.0806785 -1.9662416 4288085770
6.3562927 -2.3902473 -1.8454337 4288085770
14.151611 -4.1229515 -1.9965997 4288085770
6.5273132 -2.3505373 -1.8427944 4288085770
15.025726 -4.1877341 -2.0344245 4288085770
6.7415466 -2.3176861 -1.8440902 4288085770
6.8963013 -2.2709999 -1.8362606 4288085770
7.0982971 -2.2331524 -1.8321626 4288085770
7.3768311 -2.2070742 -1.8374155 4288085770
7.6582031 -2.1789579 -1.8395486 4288085770
7.9737854 -2.154726 -1.8440554 4288085770
8.3406372 -2.1353121 -1.8521483 4288085770
8.6366882 -2.1000795 -1.8476498 4288085770
9.0032043 -2.0726185 -1.8498166 4288085770
9.4047546 -2.0480175 -1.8523278 4288085770
9.8323059 -2.0223017 -1.8536391 4288085770
10.348236 -2.0052757 -1.8607702 4288085770
10.809631 -1.9763937 -1.8585272 4288085770
11.333252 -1.950285 -1.8593686 4288085770
12.046722 -1.9425068 -1.8722367 4288085770
13.32843 -1.9988489 -1.9351878 4288085770
14.623627 -2.0400543 -1.9886236 4288085770
15.297974 1.6274118 -0.90972662 4293729569
15.250763 1.7456303 -0.97996902 4293729569
14.733246 1.8261433 -1.0287764 4293729569
14.293762 1.90798 -1.0759609 4293729569
14.024567 2.0024586 -1.1283233 4293729569
13.976959 2.1157598 -1.1885347 4293729569
13.807861 2.2166405 -1.2402914 4293729569
13.790253 2.3340654 -1.3001401 4293729569
13.706207 2.4422884 -1.3519957 4293729569
13.691437 2.56075 -1.4087167 4293729569
13.696625 2.6822977 -1.4645329 4293729569
13.717804 2.8069143 -1.5196292 4293729569
15.478455 3.1040211 -0.68115282 4293729569
13.844391 2.9468851 -1.5829527 4293729569
13.886505 3.0765944 -1.6371145 4293729569
15.414398 3.3598738 -0.78634834 4293729569
14.126465 3.2399635 -1.7073603 4293729569
15.284332 3.5593557 -1.8552341 4293729569
15.043213 3.656126 -1.8862875 4288085770
14.162048 3.6338434 -1.8560953 4288085770
13.400208 3.6229954 -1.8314471 4288085770
12.695526 3.6153727 -1.8071682 4288085770
12.114166 3.6211824 -1.7902622 4288085770
11.678406 3.6514874 -1.7837925 4288085770
11.342987 3.6961393 -1.7837756 4288085770
11.07074 3.7510099 -1.787904 4288085770
10.721985 3.7846727 -1.7804089 4288085770
10.397278 3.8204222 -1.7738118 4288085770
10.138855 3.8673983 -1.7722275 4288085770
9.8923645 3.9154329 -1.7690942 4288085770
9.6698914 3.9665556 -1.7668676 4288085770
9.4674683 4.0187588 -1.7647183 4288085770
9.3021545 4.0800924 -1.7649181 4288085770
9.1578979 4.1435003 -1.7661557 4288085770
9.0367126 4.2139921 -1.7683797 4288085770
8.8842468 4.273406 -1.7649615 4288085770
8.7407837 4.3338594 -1.761133 4288085770
8.6233826 4.3994017 -1.7591338 4288085770
8.5823059 4.4891958 -1.7637889 4288085770
8.5643311 4.5860548 -1.7714283 4288085770
8.500946 4.6668081 -1.7700398 4288085770
8.4848633 4.7647047 -1.7745976 4288085770
8.4646301 4.8616037 -1.7763376 4288085770
8.451416 4.959527 -1.778758 4288085770
8.427002 5.053443 -1.7766633 4288085770
8.4578247 5.1685362 -1.7801769 4288085770
8.4825745 5.2806139 -1.7819464 4288085770
8.4850769 5.3866434 -1.7796948 4288085770
8.5046387 5.4987402 -1.7767031 4288085770
8.5372009 5.6168833 -1.7751544 4288085770
8.5967712 5.7471228 -1.7744482 4288085770
8.6713562 5.8824224 -1.7740853 4288085770
8.7730408 6.0318155 -1.7755797 4288085770
8.8665161 6.1782064 -1.7734265 4288085770
9.0031433 6.3457327 -1.7754421 4288085770
9.1888733 6.5364351 -1.7803652 4288085770
9.3875427 6.7381907 -1.7847769 4288085770
9.56604 6.9319029 -1.7850568 4288085770
9.7704773 7.1397181 -1.785244 4288085770
9.9858398 7.3565912 -1.7839961 4288085770
10.309448 7.6298246 -1.7911794 4288085770
10.683136 7.9312372 -1.801266 4288085770
11.077759 8.2497416 -1.8105187 4288085770
13.705048 -0.6897068 -1.9205606 4288085770
11.643524 -0.62812424 -1.8320932 4288085770
10.552856 -0.60835648 -1.8210955 4288085770
9.6447449 -0.59292889 -1.8175588 4288085770
8.8489075 -0.57908058 -1.8167779 4288085770
8.1210938 -0.5649519 -1.8148263 4288085770
7.4381409 -0.54861832 -1.809797 4288085770
14.894531 -1.0124302 -1.9624183 4288085770
6.8545532 -0.53592968 -1.8091106 4288085770
12.63443 -0.90160847 -1.8716187 4288085770
6.2756348 -0.51916695 -1.802233 4288085770
11.120667 -0.83124828 -1.8297391 4288085770
5.7589722 -0.50418949 -1.7984424 4288085770
10.075012 -0.78731918 -1.820848 4288085770
5.2893677 -0.49002743 -1.7954507 4288085770
9.1969604 -0.75078392 -1.8190904 4288085770
4.894165 -0.47961903 -1.7979665 4288085770
8.3887329 -0.71393681 -1.8130727 4288085770
4.5239563 -0.46811867 -1.8013241 4288085770
7.6576233 -0.67978001 -1.8064384 4288085770
4.1938782 -0.45747089 -1.8058066 4288085770
7.0560913 -0.65218449 -1.8087175 4288085770
3.8596191 -0.44480419 -1.8064969 4288085770
6.4782715 -0.62444592 -1.804884 4288085770
3.5816345 -0.43395519 -1.811553 4288085770
5.9535828 -0.59750748 -1.8025682 4288085770
3.3045959 -0.42309093 -1.8155634 4288085770
5.4446716 -0.56946659 -1.7955205 4288085770
3.0333862 -0.4111681 -1.8153076 4288085770
5.0273438 -0.54713821 -1.7971668 4288085770
2.7892761 -0.39916134 -1.81779 4288085770
4.6490479 -0.52565575 -1.7989845 4288085770
2.5359497 -0.38615131 -1.8157058 4288085770
4.3048706 -0.50605106 -1.8021984 4288085770
2.3138123 -0.3740406 -1.8161633 4288085770
3.975647 -0.48638058 -1.8047142 4288085770
2.0956421 -0.36090279 -1.8154452 4288085770
3.6755371 -0.46659946 -1.8078759 4288085770
1.9066162 -0.3496809 -1.8183525 4288085770
3.4044495 -0.44971085 -1.8116584 4288085770
1.7225647 -0.33842945 -1.8200285 4288085770
3.1230774 -0.42981529 -1.8099399 4288085770
1.5536499 -0.32713795 -1.8240023 4288085770
2.8547668 -0.4098711 -1.8086145 4288085770
1.3805542 -0.31482983 -1.8241754 4288085770
2.6247253 -0.39280987 -1.8114853 4288085770
1.2103882 -0.30249977 -1.82321 4288085770
2.3965149 -0.37571716 -1.8112679 4288085770
1.0572815 -0.29011345 -1.8234506 4288085770
2.1792603 -0.35757542 -1.8105457 4288085770
1.9913025 -0.34235764 -1.8144395 4288085770
1.796051 -0.32412148 -1.8126926 4288085770
1.6311646 -0.30982018 -1.8175046 4288085770
1.4641113 -0.29350185 -1.8194304 4288085770
1.3009644 -0.27715015 -1.8191724 4288085770
1.1539612 -0.26175404 -1.8211563 4288085770
0.99371338 -0.24536419 -1.8177614 4288085770
0.65441895 1.7449417 -1.7778172 4288085770
0.79873657 1.776473 -1.7813437 4288085770
0.93786621 1.8050165 -1.7810829 4288085770
1.0962524 1.8375998 -1.7849636 4288085770
1.2473145 1.8672037 -1.7831516 4288085770
1.4075012 1.89783 -1.7829266 4288085770
1.5625305 1.925458 -1.7799125 4288085770
0.55545044 1.6864977 -1.7789428 4288085770
1.7903442 1.9712305 -1.7936692 4288085770
0.68560791 1.7080021 -1.7790415 4288085770
1.958252 1.9989338 -1.7880509 4288085770
0.83190918 1.7315512 -1.7814076 4288085770
2.1392212 2.0296726 -1.7838492 4288085770
0.98727417 1.757123 -1.7853684 4288085770
2.3414001 2.0634718 -1.7826877 4288085770
1.1536865 1.7837324 -1.7898233 4288085770
2.561615 2.1003323 -1.7827098 4288085770
1.3453064 1.8154001 -1.7991476 4288085770
2.7675781 2.1311789 -1.7773407 4288085770
1.4507751 1.8239431 -1.7832742 4288085770
3.0017395 2.1671066 -1.7757022 4288085770
1.6442871 1.8526449 -1.7894824 4288085770
3.2246704 2.199028 -1.7695482 4288085770
1.8285217 1.8763561 -1.7900753 4288085770
3.4656677 2.2320204 -1.7635617 4288085770
2.0137329 1.9000816 -1.7896216 4288085770
3.7286377 2.2690897 -1.7585804 4288085770
2.1937561 1.9198179 -1.7853725 4288085770
4.0419617 2.3153067 -1.7593331 4288085770
2.3889465 1.9425945 -1.7834449 4288085770
4.3572388 2.3585424 -1.7589686 4288085770
2.6132507 1.9694529 -1.7851925 4288085770
4.70047 2.4068899 -1.7583382 4288085770
2.8344421 1.9923344 -1.7830498 4288085770
5.0758057 2.456357 -1.7582209 4288085770
3.0575562 2.0142326 -1.7798071 4288085770
5.4741821 2.5099087 -1.7590616 4288085770
3.260437 2.0301008 -1.7704539 4288085770
5.8844604 2.5615282 -1.7573278 4288085770
3.5115967 2.0531034 -1.7679102 4288085770
6.3529053 2.6223469 -1.7589564 4288085770
3.7626343 2.0741262 -1.7623532 4288085770
6.8694458 2.6883392 -1.7623837 4288085770
4.0660706 2.1042948 -1.7644346 4288085770
7.3917847 2.7494078 -1.7594945 4288085770
4.3753967 2.1315031 -1.7642121 4288085770
8.0124512 2.8267965 -1.7641549 4288085770
4.7138367 2.1618109 -1.7656589 4288085770
8.6681824 2.9053326 -1.768189 4288085770
5.0693054 2.1921873 -1.7673104 4288085770
9.388855 2.9891262 -1.7712295 4288085770
5.4326172 2.2196207 -1.7655666 4288085770
10.171539 3.0771837 -1.7724094 4288085770
5.8431091 2.2522163 -1.7666662 4288085770
11.127716 3.1918325 -1.7837167 4288085770
6.2786865 2.2849016 -1.7685959 4288085770
12.162933 3.3098078 -1.79336 4288085770
6.7210999 2.31464 -1.7671773 4288085770
13.877838 3.5380058 -1.8552368 4288085770
7.1975403 2.3465118 -1.7661867 4288085770
7.7060547 2.377512 -1.7646918 4288085770
8.25354 2.4106627 -1.763392 4288085770
13.92807 3.2907696 -1.5494683 4293729569
8.8944092 2.4521322 -1.7678087 4288085770
13.806458 3.1842031 -1.4411314 4293729569
9.5460815 2.4886799 -1.767673 4288085770
13.800385 3.0960064 -1.3425641 4293729569
10.310181 2.535615 -1.7743819 4288085770
13.814362 3.0088787 -1.24507 4293729569
11.105042 2.577714 -1.775605 4288085770
13.844452 2.9227886 -1.1508327 4293729569
12.022247 2.6292448 -1.7821987 4288085770
14 2.854126 -1.0638924 4293729569
13.251648 2.7118263 -1.809494 4288085770
14.61264 2.8421049 -0.99509549 4293729569
14.83017 2.8286152 -1.8557887 4288085770
14.98056 2.7922411 -0.91239786 4293729569
13.748444 2.591938 -1.6701221 4293729569
13.625214 2.4793053 -1.5688198 4293729569
13.660736 2.387167 -1.4822888 4293729569
13.645142 2.2878447 -1.3940825 4293729569
13.701874 2.1957579 -1.3115666 4293729569
13.967377 2.1233768 -1.2424774 4293729569
13.933899 2.0179672 -1.1560593 4293729569
14.176361 1.9385033 -1.0859864 4293729569
14.664459 1.8749275 -1.0245838 4293729569
15.073212 1.7990866 -0.95777607 4293729569
15.233337 1.6993589 -0.88037133 4293729569
3.2364197 -4.4200816 -0.47183836 4293729569
3.1471558 -4.4107542 -0.50912738 4293729569
3.0880737 -4.4173331 -0.54887462 4293729569
3.013916 -4.4129577 -0.58741856 4293729569
2.8134155 -4.4017482 -0.7030046 4293729569
2.7209778 -4.3784175 -0.73855639 4293729569
2.6809998 -4.3849297 -0.77941298 4293729569
2.6833191 -4.4173031 -0.82308054 4293729569
2.6090393 -4.3999205 -0.86073709 4293729569
2.541687 -4.3468657 -0.47289026 4293729569
2.59021 -4.401073 -0.51821589 4293729569
7.583252 -7.6760941 -1.4905 4293729569
6.9744263 -7.3205051 -1.4959359 4293729569
2.417572 -4.3730397 -1.0180764 4293729569
2.4168701 -4.393434 -1.0629859 4293729569
2.3534851 -4.3689876 -1.0981905 4293729569
2.4141235 -4.3735514 -0.72389269 4293729569
2.3335266 -4.3724313 -1.1401372 4293729569
2.4223938 -4.3908992 -0.76740789 4293729569
2.3479309 -4.3967776 -1.1863093 4293729569
2.4044189 -4.3893352 -0.809304 4293729569
2.335083 -4.4011993 -1.2289186 4293729569
2.3883972 -4.3867526 -0.85011625 4293729569
3.9052429 -5.4596658 -1.5239854 4293729569
2.3552856 -4.3712273 -0.88983607 4293729569
3.6074829 -5.2718711 -1.529479 4293729569
2.3342896 -4.3616672 -0.93094134 4293729569
3.3378296 -5.0989723 -1.5355339 4293729569
2.3363953 -4.365026 -0.97285938 4293729569
2.7106323 -4.6838784 -1.4742579 4293729569
2.3435059 -4.3703694 -1.0155253 4293729569
2.2369385 -4.3693619 -1.4329851 4293729569
2.3406067 -4.3667493 -1.0577362 4293729569
2.4751892 -4.5302067 -1.5215981 4293729569
2.3466797 -4.3670902 -1.0994928 4293729569
2.4459534 -4.5096555 -1.5601752 4293729569
2.356842 -4.3684216 -1.1420524 4293729569
2.2697754 -4.3884139 -1.5684335 4293729569
2.4073486 -4.3936477 -1.1905296 4293729569
2.05896 -4.2422194 -1.5665085 4293729569
2.4154358 -4.3899794 -1.2322268 4293729569
1.9788513 -4.1817341 -1.5897839 4293729569
2.4355774 -4.3922777 -1.2753096 4293729569
1.9939575 -4.1820531 -1.6331184 4293729569
2.0060425 -4.1803694 -1.6746113 4293729569
3.476593 -5.0414371 -1.5284834 4293729569
2.0353088 -4.1866436 -1.7192376 4293729569
2.8299255 -4.6013575 -1.4603205 4293729569
2.0534363 -4.1839499 -1.7624574 4293729569
2.5473633 -4.3983603 -1.4492159 4293729569
2.0725098 -4.1802349 -1.8036411 4293729569
2.8498535 -4.5719895 -1.5417187 4293729569
2.1047058 -4.1834898 -1.8471539 4288085770
2.6734314 -4.4357147 -1.5461109 4293729569
2.1176453 -4.170784 -1.8866966 4288085770
2.5697632 -4.3442554 -1.5617368 4293729569
1.9841919 -4.0623074 -1.8868425 4288085770
2.4285583 -4.2288618 -1.5683098 4293729569
1.862793 -3.9597931 -1.8883746 4288085770
2.4362183 -4.2051377 -1.6031861 4293729569
1.7494202 -3.8622475 -1.8894901 4288085770
2.4904175 -4.2092972 -1.6456625 4293729569
1.6237488 -3.755702 -1.8852503 4288085770
2.5364685 -4.2074742 -1.6865659 4293729569
1.5274658 -3.6670895 -1.8864932 4288085770
2.5977478 -4.2106223 -1.7307215 4293729569
1.4382629 -3.5824642 -1.8893728 4288085770
2.6508484 -4.2077785 -1.7723053 4293729569
1.3265381 -3.4828501 -1.8834205 4288085770
2.7171021 -4.2118959 -1.8152196 4288085770
1.2645569 -3.4151421 -1.8888886 4288085770
2.787323 -4.2150054 -1.8589542 4288085770
1.1791382 -3.3314581 -1.8865786 4288085770
2.7612 -4.1592965 -1.8806632 4288085770
1.0997314 -3.2507553 -1.8849618 4288085770
2.6496582 -4.0527172 -1.8787661 4288085770
1.030426 -3.1760178 -1.8838255 4288085770
2.5421143 -3.9471188 -1.8766732 4288085770
0.95291138 -3.096283 -1.8791101 4288085770
2.443634 -3.8474913 -1.8751075 4288085770
0.8895874 -3.0245199 -1.8776679 4288085770
2.3562317 -3.7548332 -1.8749657 4288085770
0.8475647 -2.9647169 -1.8811343 4288085770
2.2697754 -3.6611528 -1.8727882 4288085770
0.79016113 -2.8969116 -1.8773801 4288085770
2.1994629 -3.5774288 -1.8727741 4288085770
0.73886108 -2.8320961 -1.8753169 4288085770
2.1351624 -3.4976788 -1.8724456 4288085770
0.6854248 -2.765274 -1.871367 4288085770
2.0687866 -3.4169312 -1.8712199 4288085770
0.65948486 -2.7144117 -1.8750086 4288085770
2.009491 -3.3391504 -1.8696418 4288085770
0.61819458 -2.6545534 -1.8724353 4288085770
1.9460144 -3.2593718 -1.8662701 4288085770
0.57681274 -2.5936785 -1.8678737 4288085770
1.8997498 -3.1885452 -1.8650236 4288085770
1.8544006 -3.1197052 -1.8627145 4288085770
1.8110657 -3.0508556 -1.8603117 4288085770
1.7738037 -2.9849901 -1.8586018 4288085770
1.7506714 -2.9270897 -1.8591659 4288085770
1.7203369 -2.8641853 -1.8561046 4288085770
1.708313 -2.8112535 -1.8581102 4288085770
1.6880798 -2.7553148 -1.8555202 4288085770
1.6779175 -2.7023487 -1.8544354 4288085770
1.6738281 -2.6533747 -1.8550336 4288085770
1.6605835 -2.5994053 -1.8521004 4288085770
1.667511 -2.5543842 -1.8521502 4288085770
1.6622925 -2.5053797 -1.8487995 4288085770
1.6560059 -2.454381 -1.8455129 4288085770
1.6720276 -2.4123287 -1.8461156 4288085770
1.6869202 -2.3702641 -1.8447671 4288085770
1.7028503 -2.3292036 -1.8443623 4288085770
1.7329102 -2.2931013 -1.8452585 4288085770
1.7507629 -2.2520142 -1.8427622 4288085770
1.7624512 -2.2079296 -1.8375759 4288085770
1.7923889 -2.1698093 -1.8364913 4288085770
1.8355103 -2.1376591 -1.8377438 4288085770
1.8764954 -2.1044989 -1.837101 4288085770
1.9215088 -2.0703239 -1.8362794 4288085770
1.9715271 -2.039134 -1.8361981 4288085770
2.0337219 -2.0119171 -1.8385177 4288085770
2.0907288 -1.9806995 -1.8381095 4288085770
2.1568909 -1.9534578 -1.8392432 4288085770
2.2300415 -1.9271965 -1.8410406 4288085770
2.3021545 -1.8999195 -1.8408952 4288085770
2.3873291 -1.8756151 -1.8431132 4288085770
1.0086975 -1.4710388 -1.8539975 4288085770
2.4664307 -1.849309 -1.8426316 4288085770
1.0616455 -1.4448204 -1.8517354 4288085770
2.5566101 -1.8249731 -1.8436167 4288085770
1.120697 -1.4205933 -1.8511736 4288085770
2.6456909 -1.7996264 -1.8426597 4288085770
1.1878052 -1.3973398 -1.8512278 4288085770
2.7336731 -1.7722759 -1.8407676 4288085770
1.2477417 -1.3720903 -1.84863 4288085770
2.8378296 -1.7498798 -1.8410809 4288085770
1.3096924 -1.3468237 -1.8449395 4288085770
2.9642029 -1.7314339 -1.8453264 4288085770
1.4152222 -1.3324909 -1.8531296 4288085770
3.0702209 -1.7070045 -1.8425667 4288085770
1.4669189 -1.3032255 -1.8449464 4288085770
3.1924133 -1.6855402 -1.8430293 4288085770
1.5642395 -1.2848854 -1.8485496 4288085770
3.2983093 -1.6590958 -1.8382893 4288085770
1.6665344 -1.2665243 -1.8519194 4288085770
3.4294128 -1.637578 -1.8363333 4288085770
1.752533 -1.2431717 -1.849088 4288085770
3.5624695 -1.6150503 -1.8342924 4288085770
1.8273621 -1.2178345 -1.842792 4288085770
3.6893616 -1.5895157 -1.828562 4288085770
1.9172668 -1.1944571 -1.8387744 4288085770
3.8424988 -1.569911 -1.8265588 4288085770
2.0193176 -1.1740532 -1.8371668 4288085770
4.0177917 -1.5532475 -1.8274977 4288085770
2.1314697 -1.153616 -1.8360908 4288085770
4.1990051 -1.5355492 -1.8271658 4288085770
2.2333984 -1.1311874 -1.8315034 4288085770
4.3811035 -1.5168209 -1.8237987 4288085770
2.3362122 -1.1077375 -1.8248804 4288085770
4.583374 -1.500041 -1.8234746 4288085770
2.4744873 -1.0902233 -1.8265591 4288085770
4.8036499 -1.4851933 -1.8232913 4288085770
2.6106262 -1.0706911 -1.8253508 4288085770
5.0117188 -1.4653549 -1.818717 4288085770
2.7497253 -1.0511398 -1.8230031 4288085770
5.2529297 -1.4504089 -1.8165524 4288085770
2.8927307 -1.0315609 -1.8194706 4288085770
5.5445557 -1.4413242 -1.8209898 4288085770
3.047821 -1.011939 -1.816376 4288085770
5.8329163 -1.4292107 -1.8205981 4288085770
3.2190247 -0.99427509 -1.8155117 4288085770
6.1543884 -1.4189835 -1.8216429 4288085770
3.394104 -0.9745779 -1.8124802 4288085770
6.5009766 -1.4106646 -1.8235002 4288085770
3.6045532 -0.96079731 -1.8157525 4288085770
6.8988342 -1.4061852 -1.8299303 4288085770
3.7935791 -0.94203186 -1.8110588 4288085770
7.2882996 -1.3986835 -1.8297682 4288085770
4.0097961 -0.9241848 -1.8090904 4288085770
7.6987305 -1.3890848 -1.8276427 4288085770
4.2511292 -0.90926456 -1.8099225 4288085770
8.1402283 -1.3803596 -1.825058 4288085770
4.5054932 -0.89328766 -1.8101556 4288085770
8.6942749 -1.3812838 -1.832135 4288085770
4.7324219 -0.87235165 -1.8027039 4288085770
9.2450256 -1.3781633 -1.8323936 4288085770
5.027832 -0.85821819 -1.8030007 4288085770
9.8679199 -1.3767767 -1.834264 4288085770
5.3291321 -0.84204102 -1.8010361 4288085770
10.597107 -1.3830137 -1.8400998 4288085770
5.6756592 -0.8277235 -1.8029444 4288085770
11.348175 -1.3851318 -1.8419442 4288085770
6.0854797 -0.81719589 -1.8088646 4288085770
12.412659 -1.4112186 -1.8649485 4288085770
6.5092468 -0.8066082 -1.8141305 4288085770
14.393097 -1.5154238 -1.9645348 4288085770
6.9297485 -0.79098225 -1.813586 4288085770
7.4205322 -0.77911854 -1.8167264 4288085770
7.9260864 -0.76416397 -1.816195 4288085770
8.4989319 -0.75097561 -1.818507 4288085770
9.1206665 -0.73757935 -1.8185279 4288085770
9.8548279 -0.72679615 -1.8242741 4288085770
10.655975 -0.71573639 -1.8278871 4288085770
11.615601 -0.70711994 -1.8380711 4288085770
13.261658 -0.73031998 -1.9029355 4288085770
15.277802 -0.76020622 -1.9814439 4288085770
15.442322 3.04076 -0.61454129 4293729569
15.152405 -0.0203619 -1.9491231 4288085770
12.746399 0.0024232864 -1.8548172 4288085770
11.207855 0.016001701 -1.8138936 4288085770
10.087067 0.026906967 -1.8004272 4288085770
9.1920471 0.035556793 -1.7983871 4288085770
8.4022217 0.044594765 -1.7974286 4288085770
7.6934509 0.053945541 -1.7956793 4288085770
7.0547791 0.062552452 -1.7946424 4288085770
13.297668 0.010252953 -1.8741252 4288085770
6.4741821 0.072374344 -1.7938991 4288085770
11.435516 0.037845612 -1.8074358 4288085770
5.9233704 0.082354546 -1.7877564 4288085770
10.373169 0.05588913 -1.8033028 4288085770
5.4458008 0.091579437 -1.7851832 4288085770
9.3665161 0.073218346 -1.7905486 4288085770
5.0316162 0.10098648 -1.7886534 4288085770
8.5817871 0.089262009 -1.791415 4288085770
4.6503601 0.10953426 -1.7905719 4288085770
7.8790588 0.10362053 -1.7914252 4288085770
4.2961426 0.11918545 -1.7922351 4288085770
7.2484741 0.11824131 -1.7920635 4288085770
3.9679565 0.12892628 -1.7946801 4288085770
6.6486816 0.13302135 -1.7882559 4288085770
3.65979 0.13875103 -1.7961891 4288085770
6.1100464 0.14701939 -1.7855818 4288085770
3.3776855 0.14766502 -1.7984717 4288085770
5.6245117 0.16020107 -1.7844164 4288085770
3.1166382 0.15765285 -1.8017786 4288085770
5.1819763 0.17355442 -1.7822387 4288085770
2.8502808 0.16767025 -1.7993262 4288085770
4.7997437 0.1860981 -1.7842379 4288085770
2.6434937 0.17782116 -1.8071001 4288085770
4.444519 0.19973755 -1.7869816 4288085770
2.4062195 0.18795013 -1.8042896 4288085770
4.1213379 0.21149921 -1.7892094 4288085770
2.2021179 0.19816303 -1.8059294 4288085770
3.814209 0.22432137 -1.791697 4288085770
2.0070496 0.20841503 -1.8071485 4288085770
3.5260315 0.23722076 -1.7932959 4288085770
1.8057556 0.2186842 -1.8036537 4288085770
3.2619019 0.24921322 -1.7947619 4288085770
1.6438599 0.22803211 -1.8083148 4288085770
3.0248413 0.26129055 -1.7979629 4288085770
1.4747925 0.23839188 -1.8083179 4288085770
2.7897034 0.27339172 -1.7990723 4288085770
1.317688 0.24879265 -1.8087585 4288085770
2.5523987 0.28552246 -1.796279 4288085770
1.178833 0.2592268 -1.8133519 4288085770
2.3523865 0.2977438 -1.798748 4288085770
1.0388489 0.26968288 -1.8149953 4288085770
2.1552429 0.3099966 -1.7990792 4288085770
1.9681091 0.32129002 -1.7989333 4288085770
1.79599 0.33363914 -1.799094 4288085770
1.6288757 0.3460083 -1.7990208 4288085770
1.4758301 0.35841751 -1.8002906 4288085770
1.3206482 0.36984444 -1.7986488 4288085770
1.1806335 0.3823061 -1.7993107 4288085770
1.0384216 0.39379025 -1.7970605 4288085770
0.90426636 0.40629578 -1.7954438 4288085770
0.61325073 2.4898996 -1.7609386 4288085770
0.74752808 2.5383558 -1.7650783 4288085770
0.87051392 2.5798264 -1.7626793 4288085770
1.0106812 2.6283255 -1.7645407 4288085770
1.1578369 2.6778517 -1.7660842 4288085770
1.3009033 2.7243805 -1.7657905 4288085770
1.4590149 2.7759619 -1.7658379 4288085770
1.6241455 2.8275537 -1.7675571 4288085770
0.63232422 2.4537334 -1.7817726 4288085770
1.8042908 2.8842096 -1.7686183 4288085770
0.71179199 2.4691486 -1.7671726 4288085770
1.9864502 2.9398689 -1.769577 4288085770
0.89157104 2.5266895 -1.7812741 4288085770
2.1766357 2.9975567 -1.7711785 4288085770
0.9932251 2.5491505 -1.7707009 4288085770
2.3787231 3.0572987 -1.7712376 4288085770
1.1414185 2.5886822 -1.7721105 4288085770
2.5838013 3.1150637 -1.7701402 4288085770
1.2844849 2.6252203 -1.7707307 4288085770
2.8038635 3.1778812 -1.7693849 4288085770
1.4487305 2.667799 -1.7734165 4288085770
3.0360107 3.2417297 -1.7700746 4288085770
1.6078186 2.7073927 -1.7723143 4288085770
3.2740784 3.3066196 -1.7684951 4288085770
1.7667847 2.7440042 -1.7691884 4288085770
3.5160522 3.3695459 -1.764713 4288085770
1.9520264 2.7886705 -1.7709095 4288085770
3.7749939 3.4355316 -1.7611625 4288085770
2.1230774 2.8263206 -1.7682309 4288085770
4.0500488 3.5055637 -1.7588964 4288085770
2.3323975 2.8760576 -1.7718709 4288085770
4.3672485 3.5887184 -1.7607741 4288085770
2.5538025 2.9288282 -1.7769744 4288085770
4.6742859 3.6638756 -1.758055 4288085770
2.7659912 2.9746027 -1.7774436 4288085770
5.0164185 3.7481394 -1.7577746 4288085770
2.9720154 3.0153894 -1.7741537 4288085770
5.37146 3.8334646 -1.7558963 4288085770
3.1879578 3.0572262 -1.7694008 4288085770
5.7736816 3.9309406 -1.7569156 4288085770
3.4230957 3.1031055 -1.7677965 4288085770
6.2019348 4.0325155 -1.7577593 4288085770
3.6561279 3.1449919 -1.7642534 4288085770
6.6642151 4.1422014 -1.7600811 4288085770
3.9172363 3.1939669 -1.7624595 4288085770
7.2037659 4.2721243 -1.7679682 4288085770
4.2045288 3.2490158 -1.7634985 4288085770
7.7008972 4.3819818 -1.7656579 4288085770
4.4563904 3.2890053 -1.7560534 4288085770
8.3003235 4.5191565 -1.7698038 4288085770
4.7676697 3.344142 -1.7569697 4288085770
8.9729614 4.6745653 -1.778686 4288085770
5.098999 3.4023542 -1.7579763 4288085770
9.7096252 4.8412104 -1.7876706 4288085770
5.4483032 3.4636288 -1.7591672 4288085770
10.555603 5.0362062 -1.8027937 4288085770
5.8136597 3.523962 -1.7606001 4288085770
11.284668 5.1839399 -1.7979558 4288085770
6.1969299 3.5863762 -1.760211 4288085770
12.110962 5.3530035 -1.7967596 4288085770
6.5942383 3.6478395 -1.7601573 4288085770
13.546478 5.6939039 -1.8435946 4288085770
7.0557861 3.7244959 -1.7652357 4288085770
15.372925 6.1350737 -1.9110253 4288085770
7.5010986 3.788146 -1.7639556 4288085770
7.9854431 3.85993 -1.7639201 4288085770
8.5340881 3.9419088 -1.7689714 4288085770
9.0594177 4.0108604 -1.766994 4288085770
9.6791382 4.1000948 -1.7727842 4288085770
10.303619 4.1823912 -1.7732866 4288085770
11.010345 4.2769518 -1.7780526 4288085770
11.725922 4.3645868 -1.7783411 4288085770
12.919434 4.5616331 -1.819258 4288085770
14.406982 4.8136091 -1.8789177 4288085770
15.143829 3.388855 -0.99233723 4293729569
15.03537 3.2470036 -0.92712736 4293729569
14.983124 3.1133261 -0.86636233 4293729569
15.447327 2.6597776 -0.65956044 4293729569
15.415527 2.5260925 -0.60784912 4293729569
15.438904 2.3956013 -0.55758882 4293729569
12.21936 -4.816319 -0.5645864 4293729569
11.827789 -4.8130918 -0.60196519 4293729569
11.389954 -4.7870102 -0.63669944 4293729569
11.041443 -4.785625 -0.67404914 4293729569
10.632568 -4.7574325 -0.70844507 4293729569
10.20459 -4.7182927 -0.74082804 4293729569
9.9241333 -4.7226567 -0.77794504 4293729569
9.589447 -4.7051964 -0.81278276 4293729569
9.3230896 -4.7075186 -0.85126019 4293729569
9.0455627 -4.7008619 -0.88733435 4293729569
8.7679749 -4.6891952 -0.92245293 4293729569
8.4702454 -4.6665835 -0.95560527 4293729569
8.2559204 -4.670712 -0.99363375 4293729569
7.9862671 -4.6510129 -1.0284479 4293729569
7.8403015 -4.6413317 -0.43268228 4293729569
7.7075195 -4.622324 -1.0607653 4293729569
7.5680847 -4.6117206 -0.47671437 4293729569
14.359985 -7.3941488 -1.634661 4293729569
7.4384155 -4.6346254 -0.52463627 4293729569
7.3188171 -4.6224246 -1.1360216 4293729569
7.1308594 -4.5831161 -0.56550145 4293729569
7.1043091 -4.6095262 -1.1712015 4293729569
7.0644531 -4.6278152 -0.61628127 4293729569
6.9109497 -4.6035676 -1.2083359 4293729569
6.8291931 -4.6000552 -0.65856647 4293729569
9.5866394 -5.8275967 -1.5221164 4293729569
6.6431885 -4.5891361 -0.70340848 4293729569
6.5502319 -4.5915632 -1.2833881 4293729569
6.3657227 -4.5785518 -1.3181658 4293729569
6.2950745 -4.5692019 -0.79195428 4293729569
7.5614929 -5.1828828 -1.5083017 4293729569
6.1289673 -4.5581942 -0.83486295 4293729569
6.0350037 -4.5614328 -1.3928585 4293729569
5.9940796 -4.5580945 -0.8802228 4293729569
5.8564758 -4.542397 -1.4274077 4293729569
5.8641357 -4.5569754 -0.92535758 4293729569
5.8685913 -4.6108727 -1.485321 4293729569
5.7848206 -4.630589 -1.5311198 4293729569
5.5710144 -4.5348153 -1.0113509 4293729569
5.3911743 -4.5020628 -1.5346296 4293729569
10.478455 -6.9373531 -1.5079081 4293729569
5.0963135 -4.4162712 -1.5491667 4293729569
5.2837219 -4.5036154 -1.0951452 4293729569
4.7962036 -4.3214679 -1.5600209 4293729569
5.1868286 -4.5063696 -1.1397021 4293729569
4.6576843 -4.3042769 -1.5936823 4293729569
5.1121521 -4.5190759 -1.1881382 4293729569
4.5403748 -4.2950349 -1.6302893 4293729569
7.4941101 -5.7552848 -1.5125618 4293729569
4.4633789 -4.3026905 -1.67187 4293729569
4.9042358 -4.5086236 -1.2760489 4293729569
4.3753357 -4.3043804 -1.7130189 4293729569
4.2608948 -4.2901182 -1.7485304 4293729569
5.2988281 -4.7976623 -1.4413147 4293729569
4.1808777 -4.2907763 -1.789314 4293729569
4.6315308 -4.4958196 -1.4100618 4293729569
4.0937195 -4.2864456 -1.8284705 4288085770
4.6506042 -4.5442753 -1.4688213 4293729569
3.9893799 -4.2711592 -1.865521 4288085770
4.6809387 -4.5977302 -1.5320182 4293729569
3.7775574 -4.1970477 -1.8780735 4288085770
4.3777466 -4.4739389 -1.5432656 4293729569
3.5078735 -4.0870228 -1.8766222 4288085770
4.0754089 -4.346117 -1.5515049 4293729569
3.2471313 -3.9789519 -1.8737354 4288085770
3.8851318 -4.275022 -1.5750363 4293729569
3.0318909 -3.8927851 -1.8785415 4288085770
3.8262024 -4.2726307 -1.6188612 4293729569
2.7981873 -3.792613 -1.8753216 4288085770
3.7663269 -4.2672415 -1.6627581 4293729569
2.5958557 -3.7063732 -1.8775229 4288085770
3.7103882 -4.261837 -1.7064688 4293729569
2.3832397 -3.6131334 -1.8752584 4288085770
3.6746826 -4.2653861 -1.7531621 4293729569
2.186676 -3.5248375 -1.8732014 4288085770
3.6308289 -4.2629499 -1.7982838 4293729569
2.0143738 -3.4484844 -1.8749125 4288085770
3.5910645 -4.2615061 -1.8442085 4288085770
1.8328857 -3.3641348 -1.8731191 4288085770
3.4832764 -4.2191629 -1.8736446 4288085770
1.6725159 -3.2897158 -1.8722541 4288085770
3.2487183 -4.1050296 -1.8745892 4288085770
1.5070496 -3.210309 -1.8706684 4288085770
3.0180359 -3.9898624 -1.873358 4288085770
1.375 -3.1478376 -1.8753822 4288085770
2.8034973 -3.8816481 -1.8733158 4288085770
1.2397461 -3.0813427 -1.8762767 4288085770
2.6009521 -3.7773848 -1.8726783 4288085770
1.1014709 -3.0128517 -1.8763299 4288085770
2.4084778 -3.6770878 -1.8725371 4288085770
0.9609375 -2.9393339 -1.872525 4288085770
2.2309875 -3.5827398 -1.8726418 4288085770
0.84881592 -2.8817711 -1.8752623 4288085770
2.0585022 -3.4893608 -1.8715057 4288085770
0.72543335 -2.8162012 -1.872591 4288085770
1.9011536 -3.4039478 -1.8725953 4288085770
0.61828613 -2.7586098 -1.8740957 4288085770
1.7466736 -3.3174973 -1.8705568 4288085770
1.6002808 -3.2340298 -1.8701153 4288085770
1.45578 -3.1515369 -1.8675749 4288085770
1.3335266 -3.0789986 -1.8689141 4288085770
1.21521 -3.0074348 -1.8690581 4288085770
1.0948486 -2.9338636 -1.8673153 4288085770
0.98458862 -2.8652668 -1.8670588 4288085770
0.87716675 -2.7966413 -1.8646648 4288085770
0.77792358 -2.732007 -1.8648596 4288085770
0.70199585 -2.6793337 -1.8698671 4288085770
0.60147095 -2.6116524 -1.8641412 4288085770
1.1902466 -0.63249016 -1.8156614 4288085770
1.2923584 -0.61711311 -1.8140233 4288085770
1.4075623 -0.60371017 -1.8147576 4288085770
1.5166321 -0.58930492 -1.8127844 4288085770
1.6317139 -0.57386684 -1.8095407 4288085770
1.7649841 -0.56139851 -1.8104248 4288085770
1.8930664 -0.54692745 -1.8085635 4288085770
2.0383301 -0.53341198 -1.8088963 4288085770
2.1834412 -0.51987171 -1.8062329 4288085770
2.337616 -0.50730991 -1.8051383 4288085770
1.1335754 -0.35581207 -1.8227093 4288085770
2.5079041 -0.49470329 -1.8052938 4288085770
1.239563 -0.34140396 -1.8188787 4288085770
2.6921997 -0.48304844 -1.8057866 4288085770
1.3778992 -0.32992363 -1.8205194 4288085770
2.9128723 -0.47331715 -1.8125722 4288085770
1.5161438 -0.31743622 -1.8211706 4288085770
3.0786743 -0.45765114 -1.8039522 4288085770
1.6593933 -0.30393028 -1.8215969 4288085770
3.3182068 -0.44782639 -1.807853 4288085770
1.787262 -0.29041386 -1.814733 4288085770
3.5435181 -0.43501663 -1.8074403 4288085770
1.9353943 -0.27685928 -1.8119297 4288085770
3.7696228 -0.42216873 -1.8029847 4288085770
2.1442261 -0.26721382 -1.8232715 4288085770
4.0228577 -0.4102354 -1.8002572 4288085770
2.2809143 -0.25162601 -1.8120091 4288085770
4.3021851 -0.39822769 -1.7993126 4288085770
2.4519653 -0.23798275 -1.8081324 4288085770
4.5773315 -0.38519859 -1.7945681 4288085770
2.6705017 -0.22723293 -1.8120234 4288085770
4.8865967 -0.37406063 -1.7912157 4288085770
2.8686523 -0.21449947 -1.8088756 4288085770
5.2310486 -0.36282444 -1.791224 4288085770
3.0767822 -0.20172024 -1.8052604 4288085770
5.5973816 -0.35148525 -1.7882078 4288085770
3.3282471 -0.19084263 -1.8076124 4288085770
6.0401611 -0.34393311 -1.7925966 4288085770
3.5533142 -0.17699051 -1.8022134 4288085770
6.5280457 -0.33522511 -1.7978899 4288085770
3.837738 -0.16497612 -1.8030336 4288085770
7.0398254 -0.32640743 -1.8000658 4288085770
4.1058044 -0.15196896 -1.7976177 4288085770
7.5924988 -0.31742096 -1.800328 4288085770
4.4202271 -0.13983536 -1.7970376 4288085770
8.1943054 -0.30826664 -1.8013 4288085770
4.7374878 -0.12766838 -1.7933209 4288085770
8.8712158 -0.29984665 -1.8027582 4288085770
5.0908508 -0.11538696 -1.7919199 4288085770
9.6332092 -0.29211998 -1.8042352 4288085770
5.4904175 -0.10395813 -1.7923579 4288085770
10.517395 -0.28496456 -1.8070018 4288085770
5.9380188 -0.09236145 -1.7935526 4288085770
11.544006 -0.28034019 -1.8151004 4288085770
6.4358521 -0.080607414 -1.7974069 4288085770
13.326385 -0.29452896 -1.8838043 4288085770
6.9806519 -0.069684029 -1.8010581 4288085770
7.5644226 -0.057593346 -1.8018985 4288085770
8.2041626 -0.045288086 -1.8011241 4288085770
8.9230957 -0.032708168 -1.8016567 4288085770
9.703949 -0.019890785 -1.8002942 4288085770
10.720764 -0.0093545914 -1.8139079 4288085770
11.821442 0.0025377274 -1.8216116 4288085770
13.892761 0.0052423477 -1.9069834 4288085770
14.764069 0.61785603 -1.9325061 4288085770
12.609222 0.60608864 -1.8517451 4288085770
11.171204 0.6044178 -1.818038 4288085770
10.090485 0.60782814 -1.8029084 4288085770
9.2114563 0.61384869 -1.7985046 4288085770
8.4425659 0.6202383 -1.795023 4288085770
7.789032 0.62798691 -1.7962356 4288085770
7.168335 0.63587379 -1.7939291 4288085770
13.733185 0.91268253 -1.8762 4288085770
6.6137085 0.64299679 -1.7905695 4288085770
11.727509 0.87943649 -1.7943981 4288085770
6.1202393 0.65130234 -1.7903988 4288085770
10.697327 0.87794209 -1.7899125 4288085770
5.6536865 0.65872574 -1.7869778 4288085770
9.8114014 0.8779211 -1.7877846 4288085770
5.2473755 0.66832542 -1.7877977 4288085770
9.0658264 0.88134861 -1.7902129 4288085770
4.8750916 0.67803669 -1.7890484 4288085770
8.3098755 0.88180256 -1.7840889 4288085770
4.5410156 0.68786049 -1.7925425 4288085770
7.7245178 0.88776398 -1.7881453 4288085770
4.225769 0.69777298 -1.7931628 4288085770
7.1418762 0.89179039 -1.7850556 4288085770
3.9295959 0.70674801 -1.7938983 4288085770
6.6273804 0.89703369 -1.7838337 4288085770
3.6695251 0.7178297 -1.7969849 4288085770
6.1569214 0.90242195 -1.7835789 4288085770
3.4194946 0.72894192 -1.8006094 4288085770
5.7254944 0.90895462 -1.7815344 4288085770
3.2106628 0.74117088 -1.8073452 4288085770
5.3432617 0.91662979 -1.7832303 4288085770
2.9906921 0.75238609 -1.8105853 4288085770
4.9708252 0.92337227 -1.7804627 4288085770
2.7340393 0.75957966 -1.8004715 4288085770
4.6426392 0.93123627 -1.7816675 4288085770
2.5400696 0.77088737 -1.8035119 4288085770
4.3576355 0.94122219 -1.7858994 4288085770
2.3397522 0.78022575 -1.7998211 4288085770
4.0814514 0.95125866 -1.7877185 4288085770
2.1687622 0.79161167 -1.8028002 4288085770
3.826416 0.96135998 -1.7905674 4288085770
1.9956665 0.80302238 -1.8018749 4288085770
3.601532 0.97254276 -1.7960355 4288085770
1.832489 0.81246758 -1.8004749 4288085770
3.3561707 0.98072624 -1.7924147 4288085770
1.6895752 0.82495308 -1.8031685 4288085770
3.1451721 0.99197865 -1.7952402 4288085770
1.5566406 0.8374691 -1.8064008 4288085770
2.9329834 1.0022564 -1.7941086 4288085770
1.417572 0.84899139 -1.8059065 4288085770
2.7398682 1.0125904 -1.7940986 4288085770
1.2844543 0.86053658 -1.805136 4288085770
2.5567322 1.0229616 -1.7936273 4288085770
1.144165 0.87008572 -1.8006768 4288085770
2.3836365 1.0333643 -1.7936943 4288085770
1.0464172 0.88369656 -1.8072977 4288085770
2.2154541 1.0437937 -1.7925327 4288085770
2.0654602 1.056263 -1.7935472 4288085770
1.9223938 1.0677624 -1.7942364 4288085770
1.7843628 1.0792818 -1.7946947 4288085770
1.662384 1.0928469 -1.7964284 4288085770
1.5403442 1.1054192 -1.7971559 4288085770
1.4172974 1.1169939 -1.7969232 4288085770
1.3022156 1.1296015 -1.7963285 4288085770
1.1921387 1.1422253 -1.7955034 4288085770
1.0910645 1.1558771 -1.7952702 4288085770
1.1723938 3.4868078 -1.7831004 4288085770
1.2710266 3.5451994 -1.7749774 4288085770
1.4110718 3.6246519 -1.7771101 4288085770
1.5632324 3.7101374 -1.7807331 4288085770
1.7192688 3.7966509 -1.7821803 4288085770
1.8813171 3.8841848 -1.7833593 4288085770
2.0563354 3.9787617 -1.7849903 4288085770
2.2312927 4.0703516 -1.7846005 4288085770
2.4364319 4.1770124 -1.7889349 4288085770
1.0803528 3.4624529 -1.7812026 4288085770
2.6181946 4.2686567 -1.7842271 4288085770
1.2142639 3.5259237 -1.7784958 4288085770
2.8200989 4.3693476 -1.7826605 4288085770
1.3562317 3.5934038 -1.7774487 4288085770
3.0571289 4.4871302 -1.7846034 4288085770
1.5224304 3.6729336 -1.7813783 4288085770
3.2789612 4.5948954 -1.7821681 4288085770
1.6965942 3.7544909 -1.7849553 4288085770
3.5259094 4.7137327 -1.7816591 4288085770
1.8545532 3.8250351 -1.7831924 4288085770
3.765625 4.8245783 -1.7764184 4288085770
2.053772 3.9166632 -1.7886889 4288085770
4.0646362 4.9665709 -1.7786808 4288085770
2.2397766 3.9972954 -1.787708 4288085770
4.3735962 5.1096067 -1.7794909 4288085770
2.441864 4.0849638 -1.7890396 4288085770
4.7156677 5.2677355 -1.7828882 4288085770
2.6165466 4.1546068 -1.7814908 4288085770
5.0665894 5.4259176 -1.7828734 4288085770
2.8305359 4.2433367 -1.7802787 4288085770
5.431427 5.5881624 -1.7812448 4288085770
3.0595703 4.3371038 -1.7804108 4288085770
5.8433533 5.7715425 -1.7826018 4288085770
3.3025818 4.4359198 -1.7809334 4288085770
6.2742004 5.96 -1.7821224 4288085770
3.5747375 4.5458078 -1.7841978 4288085770
6.7240601 6.1525297 -1.7807963 4288085770
3.7923279 4.6246214 -1.773735 4288085770
7.2601318 6.3853025 -1.7857966 4288085770
4.0925293 4.7435999 -1.7777746 4288085770
7.8582458 6.644269 -1.7931299 4288085770
4.4056702 4.8646345 -1.7802303 4288085770
8.4381104 6.8862276 -1.7931721 4288085770
4.7317505 4.988719 -1.7821095 4288085770
9.1171265 7.1714849 -1.7979655 4288085770
5.0798645 5.117877 -1.7840106 4288085770
9.8069153 7.4548197 -1.7972419 4288085770
5.4429932 5.2510843 -1.7862501 4288085770
10.70224 7.8317404 -1.811743 4288085770
5.822998 5.3893595 -1.7867439 4288085770
6.2260437 5.5317144 -1.7872055 4288085770
6.6661377 5.6871862 -1.7890565 4288085770
7.0890503 5.8286333 -1.7855921 4288085770
7.5761108 5.9952726 -1.7863574 4288085770
8.1314392 6.1870947 -1.7931664 4288085770
8.6925354 6.3729792 -1.7936599 4288085770
9.3368225 6.5911016 -1.8005571 4288085770
9.9839478 6.8002729 -1.802253 4288085770
10.748352 7.0517874 -1.8108582 4288085770
11.55072 7.3124342 -1.8187783 4288085770
12.541595 7.6416311 -1.8385215 4288085770
15.951447 -4.6974916 -2.1197319 4288085770
14.283173 -4.4044929 -2.0428507 4288085770
12.77536 -4.1329889 -1.9704068 4288085770
11.652618 -3.9424238 -1.9276152 4288085770
15.773285 -5.0552149 -1.4745822 4293729569
10.858765 -3.824976 -1.9131243 4288085770
15.236298 -5.0264497 -1.530648 4293729569
10.161255 -3.7232399 -1.9030721 4288085770
14.667053 -4.9817572 -1.5823176 4293729569
9.5441284 -3.6352654 -1.8972137 4288085770
14.30777 -4.9874625 -1.6469316 4293729569
8.9571228 -3.5491962 -1.8919537 4288085770
14.033813 -5.0129118 -1.7154622 4293729569
8.4584351 -3.4798756 -1.8924932 4288085770
12.693207 -4.7231927 -1.6884866 4293729569
7.9515381 -3.4025469 -1.8884685 4288085770
12.144165 -4.6543112 -1.7243886 4293729569
7.5009766 -3.3360624 -1.8887687 4288085770
11.783051 -4.6329007 -1.7732723 4293729569
7.0602722 -3.2665262 -1.8866327 4288085770
11.481354 -4.6263318 -1.827311 4293729569
6.6436462 -3.1989174 -1.8853719 4288085770
11.170532 -4.61378 -1.8798127 4288085770
6.2247314 -3.126277 -1.8792474 4288085770
10.721405 -4.5505357 -1.9120545 4288085770
5.8562012 -3.0645037 -1.8777244 4288085770
10.07663 -4.4197402 -1.9178057 4288085770
5.4945068 -2.9996901 -1.8739038 4288085770
9.3729553 -4.2620268 -1.9084594 4288085770
5.1569519 -2.9388094 -1.871942 4288085770
8.7568054 -4.125071 -1.9059265 4288085770
4.8141785 -2.8719168 -1.8662615 4288085770
8.1998291 -4.0019279 -1.9045603 4288085770
4.5137329 -2.8159151 -1.8645518 4288085770
7.6738586 -3.8816767 -1.9027405 4288085770
4.2362976 -2.7638426 -1.8637495 4288085770
7.1869812 -3.7702971 -1.9010496 4288085770
3.95578 -2.7077656 -1.8611174 4288085770
6.7059021 -3.654871 -1.896117 4288085770
3.6811829 -2.6486511 -1.8562343 4288085770
6.2933044 -3.5582619 -1.8968909 4288085770
3.4428711 -2.6014576 -1.8565905 4288085770
5.8612061 -3.4496555 -1.8896444 4288085770
3.2328491 -2.5611954 -1.8605967 4288085770
5.4663086 -3.3509426 -1.8846097 4288085770
2.9841919 -2.502986 -1.854506 4288085770
5.083374 -3.2511759 -1.8780298 4288085770
2.7880859 -2.4636717 -1.8578589 4288085770
4.7436523 -3.1642952 -1.8753605 4288085770
2.5838013 -2.4173517 -1.8566391 4288085770
4.4098206 -3.0753708 -1.8694329 4288085770
2.3946228 -2.3749971 -1.8576932 4288085770
4.1092224 -2.9953613 -1.8669088 4288085770
2.2052917 -2.329628 -1.8567734 4288085770
3.8125 -2.9143209 -1.86221 4288085770
2.0484009 -2.2951994 -1.8622835 4288085770
3.5388489 -2.8382111 -1.8584099 4288085770
1.8740845 -2.2517748 -1.8606565 4288085770
3.29953 -2.7730207 -1.8589506 4288085770
1.7118835 -2.2113209 -1.8604498 4288085770
3.0722351 -2.7097912 -1.8599207 4288085770
1.5444946 -2.1668634 -1.8575082 4288085770
2.8599548 -2.6505146 -1.8611677 4288085770
1.4004211 -2.1293564 -1.8584461 4288085770
2.6557007 -2.5922089 -1.8620374 4288085770
1.2663879 -2.0948286 -1.860898 4288085770
2.4411011 -2.5268946 -1.857429 4288085770
1.118042 -2.0523071 -1.8580639 4288085770
2.2599487 -2.4725189 -1.8592055 4288085770
2.0847473 -2.4201202 -1.8606901 4288085770
1.917511 -2.3676853 -1.8608055 4288085770
1.7604065 -2.3182344 -1.8634346 4288085770
1.5960083 -2.2647648 -1.8604236 4288085770
1.4436951 -2.2142677 -1.8588336 4288085770
1.3167419 -2.1717281 -1.8630214 4288085770
1.1886597 -2.1281776 -1.8652651 4288085770
1.2139282 0.1366663 -1.8203156 4288085770
1.3502197 0.15010548 -1.8211269 4288085770
1.4863586 0.16356182 -1.8199406 4288085770
1.6274719 0.17704296 -1.8175247 4288085770
1.7705994 0.19052887 -1.8150163 4288085770
1.9287415 0.20406342 -1.8128142 4288085770
2.0918884 0.21761894 -1.8103814 4288085770
2.2902832 0.2312479 -1.8133249 4288085770
1.1817017 0.26045799 -1.8277647 4288085770
2.4653931 0.24485111 -1.8093393 4288085770
1.2874146 0.27188587 -1.8169601 4288085770
2.7030334 0.2585783 -1.8164763 4288085770
1.4498596 0.283391 -1.8205516 4288085770
2.8980713 0.27126217 -1.8105605 4288085770
1.6020508 0.29489708 -1.8196101 4288085770
3.1242981 0.28501606 -1.8092148 4288085770
1.7987061 0.30648136 -1.8276255 4288085770
3.3685913 0.29982853 -1.8080449 4288085770
1.9182129 0.3179884 -1.8121786 4288085770
3.6258545 0.31368828 -1.8062668 4288085770
2.1389771 0.32964039 -1.8220828 4288085770
3.901123 0.32861519 -1.8036656 4288085770
2.3129883 0.34125423 -1.8161299 4288085770
4.1903076 0.34358978 -1.8004179 4288085770
2.5263672 0.35294437 -1.8173668 4288085770
4.5106506 0.35865784 -1.7987359 4288085770
2.7405701 0.36466312 -1.8155608 4288085770
4.8539734 0.37380981 -1.7959914 4288085770
2.9526978 0.37639427 -1.8108501 4288085770
5.234436 0.3900671 -1.7955427 4288085770
3.1898804 0.38719559 -1.8079741 4288085770
5.6277161 0.40539551 -1.7914889 4288085770
3.4552307 0.39906788 -1.8078094 4288085770
6.0933533 0.42191601 -1.7931094 4288085770
3.7315063 0.41100025 -1.8051386 4288085770
6.6040344 0.43958855 -1.7946577 4288085770
4.020752 0.42197514 -1.8018599 4288085770
7.1637573 0.45842361 -1.7959492 4288085770
4.3461609 0.43404579 -1.8019214 4288085770
7.7906494 0.47747135 -1.7991419 4288085770
4.6774292 0.44615936 -1.7987099 4288085770
8.4513245 0.49766159 -1.797776 4288085770
