# .PCD v0.7 - Point Cloud Data file format
VERSION 0.7
FIELDS x y z rgb
SIZE 4 4 4 4
TYPE F F F U
COUNT 1 1 1 1
WIDTH 1117
HEIGHT 1
VIEWPOINT 0 0 0 1 0 0 0
POINTS 1117
DATA ascii
-0.43592072 -2.9126151 -1.865267 4288085770
3.5604248 -4.9587498 -1.7948465 4293729569
1.1487732 -3.7312524 -1.8825885 4288085770
1.6404877 -4.0067959 -1.8892688 4288085770
3.3050003 -4.8770294 -1.8062308 4293729569
-0.4180069 -2.9684541 -1.8683168 4288085770
1.176796 -3.8020082 -1.883617 4288085770
1.4080429 -3.9309156 -1.8855242 4288085770
3.1722183 -4.8541365 -1.8380082 4293729569
-0.4152298 -3.0154452 -1.8664368 4288085770
1.1906281 -3.8588927 -1.8836952 4288085770
3.0967712 -4.8596954 -1.8795044 4288085770
1.2108307 -3.8757086 -1.884616 4288085770
2.9277191 -4.8141608 -1.9014461 4288085770
0.99127197 -3.7937064 -1.8817717 4288085770
-0.3953476 -3.0712695 -1.8684738 4288085770
1.2448502 -3.9494085 -1.8856149 4288085770
2.6781235 -4.7224078 -1.9057642 4288085770
0.79589844 -3.7274837 -1.8798199 4288085770
2.4043427 -4.6158948 -1.9031929 4288085770
-0.38451385 -3.1231852 -1.8675568 4288085770
1.2798538 -4.0221038 -1.8856046 4288085770
0.61960602 -3.66908 -1.8807697 4288085770
2.1365051 -4.5073371 -1.8975776 4288085770
-2.0442963 -2.2542167 -1.8545678 4288085770
0.43318939 -3.6017852 -1.8757582 4288085770
-0.35861969 -3.1809518 -1.8705614 4288085770
1.8847504 -4.4056249 -1.8948804 4288085770
1.3319626 -4.1046348 -1.8885146 4288085770
-2.0197906 -2.2869973 -1.8555082 4288085770
0.2678833 -3.5442848 -1.8756407 4288085770
1.6480331 -4.3087797 -1.8911018 4288085770
-1.9962921 -2.3187909 -1.8554523 4288085770
-0.33476257 -3.2377427 -1.871576 4288085770
1.3790131 -4.184217 -1.889448 4288085770
0.11662292 -3.4916542 -1.8764485 4288085770
1.4202957 -4.2128558 -1.8862691 4288085770
-1.9708176 -2.3505623 -1.8563834 4288085770
1.2166672 -4.1277056 -1.8843145 4288085770
-0.043716431 -3.4321144 -1.8742939 4288085770
1.4290771 -4.2647729 -1.8903648 4288085770
-1.9393158 -2.3852801 -1.8572849 4288085770
-0.30183411 -3.3004458 -1.8745501 4288085770
1.0311279 -4.0503817 -1.885268 4288085770
-0.2020874 -3.3715632 -1.8701237 4288085770
-1.9148865 -2.4150705 -1.855217 4288085770
0.84554291 -3.9710712 -1.882216 4288085770
1.4851685 -4.3492737 -1.891255 4288085770
-0.34844208 -3.3148994 -1.8668886 4288085770
-1.8884659 -2.4458425 -1.8531392 4288085770
-0.2820282 -3.3542826 -1.8725816 4288085770
0.66897583 -3.8936729 -1.8811122 4288085770
-1.855011 -2.4795477 -1.8520252 4288085770
0.50444031 -3.8211663 -1.8799464 4288085770
-0.46962738 -3.2709906 -1.8695309 4288085770
1.5714264 -4.4494834 -1.8979993 4288085770
0.35395813 -3.7545288 -1.8797082 4288085770
-1.8095016 -2.5191317 -1.854852 4288085770
-0.24510956 -3.4179492 -1.8755332 4288085770
-0.58583069 -3.2280364 -1.8721445 4288085770
0.20039368 -3.6829252 -1.8774753 4288085770
-1.7660294 -2.5557368 -1.8566827 4288085770
0.051856995 -3.6132789 -1.8742161 4288085770
-1.7205582 -2.5943267 -1.8575065 4288085770
-0.71315002 -3.1761971 -1.8698024 4288085770
1.6516342 -4.5467577 -1.9017735 4288085770
-0.075576782 -3.5544298 -1.8748543 4288085770
-1.6831741 -2.6270022 -1.8543645 4288085770
-0.22330475 -3.4727683 -1.8735549 4288085770
-0.21213531 -3.4866753 -1.8715246 4288085770
-0.83646393 -3.1253254 -1.8664379 4288085770
-1.6256638 -2.6694739 -1.8581233 4288085770
-0.34267426 -3.4218693 -1.8671651 4288085770
-1.5752258 -2.7080216 -1.8579154 4288085770
-0.95277405 -3.0763834 -1.8650345 4288085770
-0.45509338 -3.366884 -1.8677193 4288085770
1.7670593 -4.6636891 -1.9133815 4288085770
-1.516777 -2.7494905 -1.859665 4288085770
-0.55649567 -3.3157995 -1.8682147 4288085770
-0.18643951 -3.5344377 -1.8755008 4288085770
-1.4542999 -2.792923 -1.861395 4288085770
-0.66699219 -3.2578056 -1.8657477 4288085770
-1.3948746 -2.833389 -1.8611355 4288085770
-1.0489426 -3.0382483 -1.8675348 4288085770
-0.76541901 -3.2056971 -1.8652213 4288085770
-1.3274384 -2.8767762 -1.8628334 4288085770
-0.85283661 -3.1574819 -1.8666363 4288085770
-1.2640457 -2.9172089 -1.8615487 4288085770
-0.94528198 -3.1063221 -1.8650746 4288085770
-1.193634 -2.9605751 -1.8612276 4288085770
-1.1171951 -3.0068836 -1.861877 4288085770
-1.0287018 -3.0590737 -1.865467 4288085770
-1.1643219 -2.9863093 -1.8621166 4288085770
1.8261032 -4.7491755 -1.9102554 4288085770
-0.14554596 -3.5990746 -1.87643 4288085770
-1.248497 -2.951062 -1.8655491 4288085770
-1.3447723 -2.907939 -1.8640354 4288085770
1.8095856 -4.7883978 -1.8894743 4288085770
-1.4380951 -2.8637915 -1.8614999 4288085770
-0.098617554 -3.6666505 -1.8793293 4288085770
-1.5183182 -2.8275137 -1.8629042 4288085770
1.7437134 -4.7960997 -1.8579147 4288085770
-1.6016006 -2.7872727 -1.8613161 4288085770
-1.6738358 -2.7519188 -1.8636723 4288085770
-0.052734375 -3.7332416 -1.8802322 4288085770
-1.7511139 -2.713623 -1.8620518 4288085770
-1.8304596 -2.6713519 -1.858433 4288085770
1.660675 -4.7909675 -1.8224264 4293729569
-1.8866653 -2.6418502 -1.8617043 4288085770
-1.9429016 -2.611351 -1.8639728 4288085770
-2.2636414 -2.4182439 -1.8644481 4288085770
-2.005188 -2.5769162 -1.8632683 4288085770
-2.2203674 -2.4468579 -1.8632566 4288085770
-2.0604477 -2.5454113 -1.8645278 4288085770
-2.1177597 -2.5109305 -1.8637915 4288085770
-2.1730728 -2.4774354 -1.8620452 4288085770
0.0022125244 -3.8047452 -1.883092 4288085770
1.660202 -4.8350396 -1.8035576 4293729569
0.035957336 -3.8624606 -1.8790461 4288085770
1.7201157 -4.9145284 -1.7964087 4293729569
0.091880798 -3.9339583 -1.8808995 4288085770
1.7809982 -4.993012 -1.7882503 4293729569
0.16186523 -4.0133219 -1.8846865 4288085770
1.9445724 -5.1345043 -1.8006235 4293729569
0.22276306 -4.0857773 -1.885511 4288085770
2.1071396 -5.2760158 -1.8100034 4293729569
2.274704 -5.4204812 -1.8193598 4293729569
0.28161621 -4.1562567 -1.8843427 4288085770
2.4029617 -5.5383325 -1.8188882 4293729569
0.35559082 -4.2365875 -1.8871071 4288085770
2.5271683 -5.6532254 -1.8164338 4293729569
0.43553925 -4.3188658 -1.8888391 4288085770
2.6291733 -5.752337 -1.8080741 4293729569
0.52456665 -4.4070554 -1.8935307 4288085770
2.7341919 -5.853425 -1.7987013 4293729569
0.61555481 -4.4942312 -1.8962069 4288085770
2.8311005 -5.9465942 -1.7863564 4293729569
2.984375 -6.0752273 -1.7827573 4293729569
0.75086975 -4.6109748 -1.9096876 4288085770
3.1940384 -6.240325 -1.7879061 4293729569
0.84988403 -4.7030811 -1.9113271 4288085770
3.4167404 -6.4123116 -1.790992 4293729569
0.87227631 -4.7429404 -1.8933007 4288085770
3.6605606 -6.5970974 -1.796981 4293729569
0.84223938 -4.7463112 -1.8625008 4288085770
0.81317139 -4.7486758 -1.8306918 4293729569
0.83344269 -4.7815628 -1.8096585 4293729569
0.85571289 -4.8144307 -1.7886122 4293729569
0.92328644 -4.8758597 -1.7773616 4293729569
1.0583344 -4.9806366 -1.7798088 4293729569
3.3478012 -6.5459309 -1.8008196 4293729569
1.2135239 -5.0992231 -1.7851684 4293729569
3.0541 -6.3596077 -1.7921432 4293729569
1.4653931 -5.2798762 -1.8100946 4293729569
2.8167496 -6.2077556 -1.7902091 4293729569
1.6275406 -5.3994055 -1.8134124 4293729569
2.5944595 -6.0637641 -1.7892023 4293729569
1.7886429 -5.5159531 -1.8137282 4293729569
2.3781815 -5.9217215 -1.787163 4293729569
1.9648132 -5.6403584 -1.8159711 4293729569
2.2182693 -5.8151393 -1.7948689 4293729569
2.0834961 -5.7233248 -1.8044583 4293729569
1.6055145 5.8244038 -1.7401499 4288085770
1.7585602 5.9327469 -1.7376471 4288085770
1.9146118 6.0411201 -1.7361195 4288085770
1.4624405 5.7201419 -1.7405615 4288085770
2.0905838 6.1616702 -1.7354007 4288085770
1.3293533 5.620976 -1.7438799 4288085770
2.2864838 6.2944007 -1.7374909 4288085770
1.207222 5.527905 -1.7470942 4288085770
2.4953461 6.4322429 -1.7384628 4288085770
1.0880814 5.4358549 -1.7482818 4288085770
2.7251205 6.5832767 -1.7422333 4288085770
0.97296906 5.3428431 -1.7504386 4288085770
2.9588852 6.7333369 -1.7429731 4288085770
0.87776184 5.2640104 -1.7543997 4288085770
3.2155914 6.895606 -1.746497 4288085770
0.78855896 5.1872349 -1.760307 4288085770
3.4752731 7.0578928 -1.746996 4288085770
0.681427 5.0972848 -1.7593912 4288085770
3.7797852 7.2475886 -1.7530652 4288085770
5.1676559 8.2048645 -1.7694952 4288085770
4.8068161 7.9496627 -1.7610375 4288085770
0.59822083 5.0215535 -1.762247 4288085770
4.4708405 7.7106791 -1.752339 4288085770
4.1161575 7.4555693 -1.7608311 4288085770
4.2503586 7.5477514 -1.7605197 4288085770
3.9840698 7.3523932 -1.7571502 4288085770
0.51901245 4.9478607 -1.766065 4288085770
3.7078552 7.1469393 -1.7498846 4288085770
4.3918533 7.6169848 -1.7562006 4288085770
3.4634933 6.9617701 -1.7453116 4288085770
0.43583679 4.8691235 -1.7669272 4288085770
4.7133484 7.8048105 -1.7551341 4288085770
3.2470093 6.7948542 -1.7434685 4288085770
0.35466003 4.7914057 -1.7677706 4288085770
3.0384979 6.6310039 -1.7395527 4288085770
5.1493301 8.0676785 -1.7679574 4288085770
2.8618546 6.4874444 -1.7403295 4288085770
0.29341125 4.7258697 -1.7714229 4288085770
5.5574417 8.306284 -1.7730641 4288085770
2.684227 6.3418713 -1.7391187 4288085770
-0.56511688 4.1243343 -1.7878399 4288085770
-0.6077652 4.0949874 -1.8002572 4288085770
-0.73413849 4.0088387 -1.7854902 4288085770
-0.48356628 4.1770487 -1.7860506 4288085770
-0.79669189 3.9642973 -1.7901053 4288085770
0.22421265 4.6542583 -1.7731541 4288085770
-0.3890686 4.2378807 -1.7861365 4288085770
-0.87717438 3.9055796 -1.7868996 4288085770
2.5145645 6.2003655 -1.7368333 4288085770
-0.30549622 4.2886081 -1.7823349 4288085770
-0.93971252 3.8580303 -1.7885212 4288085770
-0.20298767 4.3515096 -1.7823505 4288085770
-1.0151825 3.8003559 -1.7852719 4288085770
-1.0816727 3.7477648 -1.7839376 4288085770
2.3628082 6.0710192 -1.7353735 4288085770
0.161026 4.5847011 -1.7758315 4288085770
0.18828583 3.091753 -1.7738128 4288085770
-2.809906 1.7938629 -1.8047944 4288085770
-0.27849579 2.8103631 -1.7764103 4288085770
-1.1713867 2.4477797 -1.7866172 4288085770
7.7144928 6.0285234 -1.7530138 4288085770
11.36541 7.4998255 -1.7835952 4288085770
0.9753952 3.3060448 -1.7703464 4288085770
3.2129364 4.2031593 -1.7723355 4288085770
-2.1966095 2.0261221 -1.8109148 4288085770
-0.11663818 2.8507361 -1.77521 4288085770
-1.0413818 2.4758861 -1.7866712 4288085770
-2.7873611 1.7750454 -1.8037293 4288085770
-0.69244385 2.6078446 -1.7818955 4288085770
8.3007736 6.1625223 -1.7547184 4288085770
0.043235779 2.8890846 -1.7720309 4288085770
11.134804 7.2708626 -1.7900243 4288085770
-0.91138458 2.5029881 -1.7857293 4288085770
1.0052567 3.2572982 -1.7723607 4288085770
-2.1760101 2.0012834 -1.8088871 4288085770
3.2459259 4.1384377 -1.7743967 4288085770
0.23207092 2.936703 -1.7746285 4288085770
-2.7687836 1.75319 -1.801702 4288085770
-0.77836609 2.5291111 -1.7837723 4288085770
-0.65372467 2.5751743 -1.7837856 4288085770
8.9110413 6.29772 -1.7552651 4288085770
0.41692352 2.9802711 -1.7732685 4288085770
10.77449 6.9937282 -1.7804805 4288085770
-2.155426 1.9774491 -1.8078557 4288085770
0.61640167 3.0479584 -1.7697141 4288085770
1.0051804 3.1952636 -1.7666204 4288085770
3.2919083 4.0768299 -1.777362 4288085770
-0.62637329 2.5614119 -1.785669 4288085770
0.59279633 3.0187459 -1.7679869 4288085770
-2.7432022 1.733402 -1.8016216 4288085770
9.5612411 6.4402561 -1.7555268 4288085770
-0.61400604 2.5425134 -1.7856692 4288085770
-0.46835327 2.5927629 -1.7875309 4288085770
-2.1218796 1.9587375 -1.80972 4288085770
10.452019 6.7369199 -1.7716107 4288085770
0.82259369 3.0747197 -1.7722886 4288085770
0.67115784 3.0124321 -1.7735142 4288085770
1.0570145 3.1537201 -1.7724645 4288085770
3.3208923 4.0100656 -1.777457 4288085770
-0.3313446 2.6169076 -1.7825569 4288085770
10.346207 6.6209822 -1.7657703 4288085770
-2.7236252 1.7115511 -1.798588 4288085770
1.0314255 3.1214874 -1.7697624 4288085770
-0.56929779 2.5118942 -1.7875127 4288085770
-2.0972748 1.9349366 -1.8086627 4288085770
10.181351 6.5055699 -1.7663043 4288085770
-0.16334534 2.649344 -1.7843509 4288085770
0.70895386 2.9687357 -1.7714562 4288085770
1.2442551 3.1672845 -1.7662147 4288085770
3.3458939 3.9412553 -1.774586 4288085770
1.0639191 3.0947497 -1.7676672 4288085770
11.144157 6.7988014 -1.7719436 4288085770
-2.7010651 1.6907253 -1.795531 4288085770
0.0036621094 2.6797593 -1.7831594 4288085770
1.4880676 3.221364 -1.7674352 4288085770
-0.53156281 2.4772074 -1.7874173 4288085770
-2.0787048 1.9090685 -1.8036522 4288085770
9.9356155 6.2844353 -1.7617961 4288085770
0.77069092 2.9342651 -1.7742072 4288085770
3.3928757 3.878648 -1.7755491 4288085770
1.1067581 3.0491128 -1.7695856 4288085770
1.7578278 3.2826724 -1.77046 4288085770
0.17969513 2.7102544 -1.7829103 4288085770
12.037979 6.997458 -1.7834189 4288085770
-2.6684952 1.6730013 -1.7963974 4288085770
-2.0421219 1.8893816 -1.8055016 4288085770
-0.47885895 2.4476597 -1.7902051 4288085770
2.0076523 3.3327827 -1.7666588 4288085770
0.35970306 2.7407799 -1.7816356 4288085770
9.7716446 6.0970201 -1.7626263 4288085770
0.83344269 2.898802 -1.7769562 4288085770
12.942856 7.1871877 -1.7898613 4288085770
3.44384 3.81707 -1.7754824 4288085770
1.1545868 3.0045185 -1.7714676 4288085770
-2.6399078 1.6532389 -1.7962978 4288085770
2.2704468 3.3860033 -1.7627617 4288085770
0.54473877 2.7703476 -1.780333 4288085770
-2.0165253 1.8645816 -1.802442 4288085770
-0.43511963 2.4140277 -1.7910672 4288085770
9.5876617 5.9064202 -1.7595969 4288085770
2.5752029 3.4485993 -1.7635583 4288085770
0.89718628 2.8633432 -1.7786986 4288085770
0.75971222 2.809186 -1.7828012 4288085770
3.491806 3.7544622 -1.7744391 4288085770
1.19944 2.957895 -1.772377 4288085770
-2.6043396 1.6355437 -1.7981451 4288085770
-1.9799652 1.8448864 -1.8022914 4288085770
2.897934 3.5153527 -1.765223 4288085770
-0.3764267 2.3855314 -1.7938126 4288085770
0.94675446 2.834754 -1.7775024 4288085770
9.4216003 5.7239718 -1.7564191 4288085770
0.95794678 2.825851 -1.7784684 4288085770
3.5597229 3.6990333 -1.7752388 4288085770
1.2502594 2.9133215 -1.7732399 4288085770
3.2666168 3.5925169 -1.7715517 4288085770
-2.564743 1.6178826 -1.7999665 4288085770
-1.9433746 1.8231914 -1.8021488 4288085770
1.15979 2.8665624 -1.7770121 4288085770
-0.31972504 2.3560138 -1.7955749 4288085770
9.2954178 5.559875 -1.7559106 4288085770
3.629303 3.6656082 -1.7729356 4288085770
1.0276718 2.7914429 -1.7801683 4288085770
1.3857956 2.9014812 -1.7764263 4288085770
3.6236649 3.6395612 -1.7740806 4288085770
1.3070984 2.8698034 -1.7750601 4288085770
-2.5341797 1.5981283 -1.7978541 4288085770
-1.9058151 1.802505 -1.8019959 4288085770
4.0409317 3.749136 -1.778964 4288085770
-0.26802063 2.3244498 -1.7963774 4288085770
1.6168365 2.9334381 -1.7748207 4288085770
9.1981888 5.4040327 -1.7571832 4288085770
1.099411 2.7560477 -1.7808596 4288085770
-2.4946213 1.5814675 -1.7996715 4288085770
3.7095566 3.5882919 -1.7767485 4288085770
4.4855576 3.8369431 -1.7847645 4288085770
1.3539276 2.8221881 -1.7739611 4288085770
-1.8622208 1.7818696 -1.8018043 4288085770
1.8558655 2.9654627 -1.7731639 4288085770
-0.20131683 2.296021 -1.7990716 4288085770
9.1298218 5.2624412 -1.759212 4288085770
4.9191742 3.918637 -1.7856605 4288085770
1.1681366 2.719619 -1.7795742 4288085770
-2.4640274 1.5597093 -1.7965674 4288085770
3.7854691 3.5319214 -1.775501 4288085770
-1.8266449 1.7591579 -1.7996722 4288085770
2.1128769 3.000644 -1.7723794 4288085770
1.4157486 2.7797079 -1.7747451 4288085770
5.3518448 3.9933047 -1.7825919 4288085770
-0.1446228 2.2644944 -1.7988421 4288085770
9.1004028 5.1311913 -1.7639496 4288085770
1.2618561 2.6894226 -1.7831037 4288085770
2.3589401 3.0287154 -1.7676944 4288085770
-2.418457 1.5430989 -1.7983464 4288085770
-1.7800751 1.7395474 -1.7994574 4288085770
3.8883133 3.4847932 -1.7770432 4288085770
5.8114777 4.0722003 -1.7793339 4288085770
1.4805298 2.7382534 -1.7755059 4288085770
2.6359787 3.0630655 -1.7667859 4288085770
-0.072929382 2.2371078 -1.8015002 4288085770
9.0589676 4.9998307 -1.7667643 4288085770
1.3435745 2.6551123 -1.7837266 4288085770
6.2801285 4.1471567 -1.7720349 4288085770
-1.7355042 1.7189156 -1.7982597 4288085770
-2.3768921 1.5254506 -1.7991551 4288085770
3.9722137 3.4294858 -1.7747407 4288085770
1.56633 2.7009928 -1.7801156 4288085770
2.9150238 3.0944209 -1.7628772 4288085770
-2.9649811 1.3314551 -1.8047132 4288085770
6.8516541 4.247035 -1.7759767 4288085770
-0.0042190552 2.2066913 -1.8031896 4288085770
-2.921051 1.339787 -1.7943982 4288085770
9.0265198 4.8695397 -1.767517 4288085770
1.4372864 2.6229029 -1.7842646 4288085770
-2.8531036 1.3553668 -1.7949002 4288085770
-1.6799164 1.7003938 -1.8009831 4288085770
-2.3353271 1.5067936 -1.7979683 4288085770
-2.9219208 1.3337702 -1.7924289 4288085770
-2.9847946 1.3152201 -1.7889068 4288085770
-2.8610535 1.3512911 -1.7929677 4288085770
-2.8072052 1.366732 -1.78856 4288085770
-2.7403107 1.3843082 -1.7900603 4288085770
-2.7811432 1.3709816 -1.7953764 4288085770
3.2440262 3.1372321 -1.7666024 4288085770
-2.6744308 1.4018674 -1.7895671 4288085770
4.0900803 3.3824875 -1.7771868 4288085770
-2.6065445 1.4194438 -1.7890612 4288085770
1.6271286 2.6564922 -1.7779145 4288085770
-2.5326767 1.4390746 -1.7895085 4288085770
-2.7131805 1.3845533 -1.7938864 4288085770
7.3413239 4.3161473 -1.7635683 4288085770
-2.4447708 1.4608449 -1.7948575 4288085770
-2.3658905 1.4805188 -1.7952726 4288085770
-2.6432266 1.3991383 -1.7913797 4288085770
-2.2899933 1.4981545 -1.7927152 4288085770
0.064460754 2.1772668 -1.8028753 4288085770
-2.5672455 1.4137825 -1.7908342 4288085770
-2.202095 1.5189083 -1.7940685 4288085770
9.0469208 4.7587175 -1.7728516 4288085770
-1.6333618 1.6797752 -1.7987723 4288085770
1.5230103 2.5876179 -1.7828661 4288085770
3.583046 3.1771197 -1.7682761 4288085770
-2.2807541 1.4912682 -1.8016852 4288085770
-2.1141815 1.538658 -1.7944258 4288085770
-2.4832687 1.4305023 -1.7922294 4288085770
7.9298706 4.4071317 -1.7584386 4288085770
-2.0262756 1.5584038 -1.7937831 4288085770
4.2049179 3.3344514 -1.7766566 4288085770
1.7418823 2.6264937 -1.7863094 4288085770
-2.3892899 1.4493196 -1.7965519 4288085770
-1.9303665 1.5792214 -1.7940849 4288085770
-1.8284607 1.6010895 -1.7943443 4288085770
-2.2933044 1.4681494 -1.7998618 4288085770
3.9430542 3.2201893 -1.7708027 4288085770
0.11917877 2.1417077 -1.7986752 4288085770
-1.7235489 1.6229832 -1.7945842 4288085770
-1.58078 1.6592156 -1.7985232 4288085770
-2.2003174 1.4849415 -1.8001992 4288085770
8.7051392 4.5437703 -1.7689291 4288085770
9.0593796 4.6418161 -1.7752624 4288085770
1.6337204 2.5575614 -1.7852868 4288085770
-2.2371902 1.4726281 -1.8004856 4288085770
-1.6136475 1.6459241 -1.7957883 4288085770
-2.1043243 1.5017587 -1.8005172 4288085770
-1.5017242 1.6688765 -1.795979 4288085770
4.3237762 3.2854497 -1.7761049 4288085770
1.8256683 2.5861998 -1.7869443 4288085770
-1.3828049 1.6918889 -1.7961252 4288085770
-2.0133209 1.5165259 -1.7988756 4288085770
4.3350296 3.2675378 -1.7751081 4288085770
9.4445343 4.6600633 -1.7697328 4288085770
-1.2708817 1.7118253 -1.7923286 4288085770
0.20484924 2.1154392 -1.8012394 4288085770
-1.9093323 1.5344107 -1.7991382 4288085770
-1.5162125 1.6417696 -1.8011848 4288085770
-2.1836243 1.4560852 -1.8022133 4288085770
1.7414017 2.5274706 -1.7857269 4288085770
9.0318832 4.5145535 -1.7729708 4288085770
-1.1329727 1.7390108 -1.7953362 4288085770
-1.8103409 1.5502458 -1.7974412 4288085770
4.4715729 3.2447052 -1.7783343 4288085770
-0.99403381 1.7642014 -1.797346 4288085770
4.7240753 3.3078527 -1.7774614 4288085770
1.9014664 2.5428257 -1.7846431 4288085770
10.236877 4.7828069 -1.7711728 4288085770
-1.6993484 1.56819 -1.797659 4288085770
-0.8551178 1.7893825 -1.7973557 4288085770
-1.4596558 1.6222399 -1.7999061 4288085770
0.27454376 2.0830145 -1.798931 4288085770
-1.5853195 1.58516 -1.7978616 4288085770
-2.14505 1.4343904 -1.7980578 4288085770
-0.7071991 1.8156408 -1.7973036 4288085770
1.8601074 2.4964774 -1.7871006 4288085770
9.0842361 4.4109993 -1.7770715 4288085770
5.1400833 3.3513997 -1.7806298 4288085770
-1.4593124 1.605244 -1.8009748 4288085770
11.080193 4.9079766 -1.7702777 4288085770
-0.57025146 1.8367889 -1.7933425 4288085770
4.6203842 3.2019649 -1.7795655 4288085770
2.0192184 2.509836 -1.7890313 4288085770
-1.3312988 1.6243368 -1.8020796 4288085770
-0.39532471 1.8672916 -1.7971007 4288085770
-1.3960724 1.6027774 -1.8005823 4288085770
0.37021637 2.0568306 -1.8014311 4288085770
-2.0884933 1.4178735 -1.7997665 4288085770
1.9947815 2.4706275 -1.790351 4288085770
5.5731049 3.3940873 -1.782693 4288085770
-0.21640015 1.8978285 -1.8008332 4288085770
-1.2172699 1.6382853 -1.7972946 4288085770
9.1854935 4.3198762 -1.7848086 4288085770
12.024376 5.0510163 -1.7726654 4288085770
4.7881775 3.1613901 -1.7816668 4288085770
-0.039489746 1.9263319 -1.8005868 4288085770
-1.0792542 1.657463 -1.798335 4288085770
2.1060104 2.4675589 -1.7876552 4288085770
-1.3285141 1.5843489 -1.8012288 4288085770
0.13445282 1.9517971 -1.7973722 4288085770
6.0251465 3.4349349 -1.7846431 4288085770
0.45088196 2.027504 -1.80004 4288085770
-2.0329361 1.4003434 -1.8004857 4288085770
12.968651 5.1800227 -1.7671114 4288085770
-0.93820953 1.6756654 -1.7993604 4288085770
2.1204605 2.4406888 -1.7906758 4288085770
9.2658234 4.2195578 -1.7887176 4288085770
0.32640076 1.9794239 -1.796034 4288085770
-0.78717804 1.6959565 -1.8013134 4288085770
4.9689713 3.1219254 -1.7836807 4288085770
2.2087555 2.4294219 -1.7871604 4288085770
0.55529785 2.0163965 -1.8024213 4288085770
-1.277977 1.5617516 -1.7960011 4288085770
6.4832153 3.4708209 -1.7835753 4288085770
-0.63214874 1.7152737 -1.801245 4288085770
-1.9794006 1.3827838 -1.7982178 4288085770
0.55153656 2.001358 -1.8015081 4288085770
2.2681198 2.4149497 -1.793843 4288085770
0.77023315 2.0462213 -1.8019273 4288085770
9.3781052 4.1275229 -1.7953883 4288085770
-0.47809601 1.732578 -1.8001912 4288085770
5.1637344 3.0855784 -1.7855923 4288085770
0.98516846 2.0750387 -1.7994375 4288085770
7.0142517 3.5183537 -1.7889944 4288085770
2.3275299 2.3924277 -1.7885587 4288085770
-1.201416 1.5444032 -1.7975858 4288085770
-0.31704712 1.7509456 -1.8000884 4288085770
-1.9158401 1.3663294 -1.8008816 4288085770
0.64320374 1.9711241 -1.8000505 4288085770
1.2161026 2.1059942 -1.797837 4288085770
2.4167862 2.3872106 -1.7950124 4288085770
-0.14398956 1.769415 -1.7999086 4288085770
9.5293121 4.0438271 -1.8037764 4288085770
1.4610138 2.1380696 -1.7961427 4288085770
7.5283127 3.5557187 -1.7885642 4288085770
5.3704987 3.0483332 -1.7874316 4288085770
-1.119873 1.5281014 -1.8001345 4288085770
2.454277 2.3565023 -1.7899019 4288085770
0.031059265 1.7878972 -1.7987163 4288085770
-1.8703156 1.3456852 -1.7946776 4288085770
1.7269363 2.1723263 -1.7953055 4288085770
0.75485992 1.9460758 -1.8024442 4288085770
2.562439 2.3584371 -1.794205 4288085770
0.21712494 1.8064764 -1.7984533 4288085770
8.1193466 3.6027632 -1.7946031 4288085770
9.6655426 3.9549875 -1.8082812 4288085770
2.0208588 2.2098372 -1.7982764 4288085770
-1.0503464 1.5086772 -1.7977726 4288085770
5.5882645 3.0111814 -1.7892003 4288085770
2.58004 2.3185632 -1.7902595 4288085770
-1.7987518 1.3292992 -1.7972902 4288085770
0.40619659 1.8230729 -1.7961794 4288085770
2.321785 2.2463942 -1.7982068 4288085770
0.85451508 1.916909 -1.8009313 4288085770
2.7360916 2.3339176 -1.7972016 4288085770
8.760376 3.6532393 -1.8023095 4288085770
0.63625336 1.8480496 -1.8016096 4288085770
-0.96180725 1.4924347 -1.8002765 4288085770
9.8417435 3.8724985 -1.8155048 4288085770
2.6227036 2.2809427 -1.7961454 4288085770
5.8200073 2.9751477 -1.7908753 4288085770
-1.7412262 1.3107691 -1.7940009 4288085770
2.7187805 2.2827346 -1.7905259 4288085770
0.86232758 1.869984 -1.8050778 4288085770
0.97116852 1.8898946 -1.8013012 4288085770
2.9306259 2.313539 -1.7910476 4288085770
2.8957443 2.3042579 -1.7953087 4288085770
9.3874588 3.6935756 -1.8051471 4288085770
-0.88127136 1.4731034 -1.7978441 4288085770
1.0754166 1.8857791 -1.8016543 4288085770
10.032921 3.7911329 -1.8216283 4288085770
3.2585602 2.3473074 -1.7868174 4288085770
6.0257874 2.9308658 -1.7857499 4288085770
-1.6516724 1.2975558 -1.8014857 4288085770
2.8694916 2.250016 -1.7927029 4288085770
1.0977936 1.8649693 -1.802599 4288085770
3.066391 2.2756925 -1.7933413 4288085770
1.3375092 1.9100304 -1.8078837 4288085770
10.182419 3.7593927 -1.8208092 4288085770
3.6494446 2.3916388 -1.7891425 4288085770
-0.78172302 1.4569582 -1.8012774 4288085770
-1.5891647 1.2790685 -1.7981645 4288085770
6.2884979 2.8980942 -1.7872142 4288085770
10.219131 3.7057202 -1.8268005 4288085770
1.5676117 1.9249655 -1.8033555 4288085770
4.0573425 2.4351053 -1.7893624 4288085770
3.021225 2.2142973 -1.7928859 4288085770
1.2374496 1.8401617 -1.8058133 4288085770
3.2650223 2.2503762 -1.7941822 4288085770
11.005424 3.8194377 -1.834317 4288085770
-0.68518829 1.4397783 -1.8027343 4288085770
1.8406982 1.9462932 -1.8055269 4288085770
4.5242081 2.4860976 -1.7951758 4288085770
-1.5006332 1.2648335 -1.8026599 4288085770
6.5642242 2.8634286 -1.7876033 4288085770
10.40033 3.6192534 -1.8290088 4288085770
3.1809692 2.1776464 -1.7930219 4288085770
5.0490494 2.5445957 -1.8045884 4288085770
2.1258087 1.9667231 -1.8076254 4288085770
1.3730621 1.8153083 -1.8060534 4288085770
11.845467 3.8736227 -1.8467405 4288085770
3.4796448 2.2272029 -1.7969122 4288085770
-0.59168243 1.4225612 -1.8012104 4288085770
-1.412117 1.2505952 -1.8061557 4288085770
5.567894 2.5970192 -1.8080646 4288085770
2.4159317 1.985186 -1.8077003 4288085770
6.8619385 2.8299453 -1.7868475 4288085770
10.629471 3.5402 -1.8328809 4288085770
3.3756714 2.1473079 -1.7969089 4288085770
12.543747 3.8875215 -1.8402354 4288085770
1.5236969 1.7905893 -1.8081973 4288085770
3.7022629 2.2030895 -1.7975953 4288085770
-0.49517059 1.4043736 -1.8006716 4288085770
6.0597992 2.6381717 -1.8017595 4288085770
2.6780548 1.995375 -1.7989879 4288085770
-1.3245773 1.234344 -1.808666 4288085770
7.19664 2.7987831 -1.7878463 4288085770
6.5766907 2.6785281 -1.7932984 4288085770
2.9811859 2.010936 -1.795992 4288085770
10.834656 3.4539313 -1.8339355 4288085770
13.057213 3.8607714 -1.8150769 4288085770
3.5603943 2.1128683 -1.7968764 4288085770
-0.39064026 1.3862536 -1.8000814 4288085770
3.9338531 2.1800525 -1.7982167 4288085770
1.6593246 1.7617234 -1.805454 4288085770
-1.2380753 1.2180716 -1.8081827 4288085770
7.1555634 2.724421 -1.7874193 4288085770
3.3263321 2.0288689 -1.7967186 4288085770
7.5543213 2.7698157 -1.7886899 4288085770
-0.28314209 1.3681549 -1.7984722 4288085770
4.2384415 2.1656666 -1.8063372 4288085770
1.8149338 1.7360342 -1.8045703 4288085770
3.7811127 2.0817542 -1.8016009 4288085770
11.013863 3.3594141 -1.8281901 4288085770
7.7864227 2.7747669 -1.7841909 4288085770
-1.1515656 1.2007997 -1.8077037 4288085770
3.6914825 2.0479751 -1.7983131 4288085770
-0.15764618 1.3532254 -1.8007352 4288085770
7.9619904 2.7442839 -1.7922004 4288085770
8.518219 2.8349845 -1.7842782 4288085770
4.5080414 2.1429543 -1.8077153 4288085770
1.9655609 1.7072949 -1.801731 4288085770
4.1006241 2.0704703 -1.8036134 4288085770
4.0217972 2.0538135 -1.8071852 4288085770
11.234047 3.2712557 -1.825157 4288085770
-1.0610657 1.1835574 -1.8061991 4288085770
9.3430023 2.9020057 -1.787745 4288085770
-0.020149231 1.3394053 -1.8049172 4288085770
4.5567703 2.0953753 -1.811604 4288085770
8.3836288 2.7198668 -1.7946177 4288085770
4.8346176 2.1267457 -1.8137033 4288085770
2.1631546 1.6859827 -1.8055618 4288085770
4.2505035 2.0207503 -1.8078669 4288085770
-0.96157074 1.167399 -1.8066328 4288085770
11.515198 3.1886306 -1.8257126 4288085770
10.28672 2.9810541 -1.7954044 4288085770
5.0779114 2.1258562 -1.8251579 4288085770
0.094360352 1.3193535 -1.8002714 4288085770
8.8612671 2.6969271 -1.7976719 4288085770
5.2181625 2.1170402 -1.8243016 4288085770
2.3487701 1.6595478 -1.80449 4288085770
-0.86608124 1.1501988 -1.8050961 4288085770
11.390373 3.0744905 -1.8099849 4288085770
4.5131836 1.9909874 -1.8113185 4288085770
5.6170807 2.1534801 -1.8366088 4288085770
11.792351 3.1029544 -1.8223063 4288085770
0.23283386 1.3035252 -1.8004556 4288085770
12.495064 3.1558893 -1.8136091 4288085770
5.6407166 2.1086774 -1.8376458 4288085770
-0.74156952 1.1362731 -1.8103615 4288085770
9.4128799 2.6806345 -1.8052274 4288085770
2.5543671 1.6352943 -1.806282 4288085770
6.0703201 2.1613057 -1.8316894 4288085770
4.8368683 1.9667698 -1.8213586 4288085770
-1.4855499 1.0149031 -1.800607 4288085770
-1.6034088 0.99689519 -1.7994329 4288085770
-1.3626862 1.0329524 -1.8017491 4288085770
-1.7172623 0.97892177 -1.7982333 4288085770
-1.2408142 1.0499856 -1.8009017 4288085770
-1.8241119 0.96201169 -1.7979845 4288085770
-1.1129379 1.0670649 -1.7990155 4288085770
-0.97806549 1.0852122 -1.7990807 4288085770
0.37230682 1.2867019 -1.7996374 4288085770
-1.8569412 0.95174038 -1.8002367 4288085770
-0.83518219 1.1034234 -1.7980945 4288085770
-1.7460251 0.96568465 -1.8004718 4288085770
12.084496 3.017406 -1.8188039 4288085770
-0.67529297 1.1237942 -1.8009909 4288085770
-1.6250916 0.98072565 -1.8036387 4288085770
-0.51539612 1.1431574 -1.8018914 4288085770
-1.5061646 0.99473667 -1.8038226 4288085770
-0.35753632 1.1624871 -1.7988052 4288085770
-0.62908936 1.120225 -1.8107119 4288085770
-1.3732147 1.0098798 -1.8069125 4288085770
6.5225525 2.1651063 -1.8227931 4288085770
6.0272675 2.0909638 -1.840258 4288085770
-0.18762207 1.1809257 -1.7976458 4288085770
2.7669525 1.6110916 -1.8060293 4288085770
10.030487 2.6669047 -1.813352 4288085770
-1.2432556 1.0229801 -1.8060299 4288085770
0.0072631836 1.2035936 -1.80031 4288085770
-1.1103058 1.0371102 -1.806124 4288085770
5.1785431 1.9437078 -1.8322794 4288085770
0.52577972 1.2710003 -1.7997254 4288085770
0.19116974 1.2221471 -1.7980608 4288085770
-0.97634888 1.0492373 -1.8032199 4288085770
0.38306427 1.241765 -1.7947564 4288085770
-0.82338715 1.0645442 -1.8051819 4288085770
0.5909729 1.2625252 -1.7933455 4288085770
12.427612 2.9352927 -1.8159627 4288085770
7.0218201 2.1683121 -1.8155998 4288085770
-0.50961304 1.1042356 -1.8110176 4288085770
-0.67340851 1.0778142 -1.8041711 4288085770
6.3818283 2.0669506 -1.8361005 4288085770
0.82688904 1.2845316 -1.7937509 4288085770
2.9955368 1.5880331 -1.8076699 4288085770
10.71904 2.6587875 -1.8240013 4288085770
-0.50943756 1.0922066 -1.8040665 4288085770
0.69326782 1.2554259 -1.8017237 4288085770
1.0487976 1.3044029 -1.7902542 4288085770
5.4922256 1.9123725 -1.8344128 4288085770
-0.34544373 1.1045911 -1.8019701 4288085770
1.3327103 1.3318403 -1.7963315 4288085770
7.5900726 2.1761231 -1.812948 4288085770
-0.16845703 1.1190979 -1.8027822 4288085770
-0.38613892 1.0882808 -1.8112977 4288085770
1.6166458 1.3562607 -1.7984209 4288085770
12.745758 2.8469512 -1.8093063 4288085770
6.7653809 2.0421782 -1.8307612 4288085770
0.022537231 1.1337229 -1.8035043 4288085770
3.2351227 1.5630591 -1.8072482 4288085770
1.9035492 1.3806943 -1.7974914 4288085770
0.87273407 1.2409527 -1.8036412 4288085770
11.370636 2.6373117 -1.8239417 4288085770
0.21653748 1.1473694 -1.8032117 4288085770
2.2284851 1.4074702 -1.8013099 4288085770
5.8149185 1.878104 -1.8345011 4288085770
8.2063522 2.1833441 -1.8109931 4288085770
-0.26370239 1.0723091 -1.8095845 4288085770
0.42354584 1.1611258 -1.8028357 4288085770
2.5644073 1.4333271 -1.8020625 4288085770
7.1829224 2.0186894 -1.8242003 4288085770
0.64156342 1.1749752 -1.8023891 4288085770
1.0551834 1.2265009 -1.8045394 4288085770
3.4827118 1.5361439 -1.8047839 4288085770
2.9133224 1.4592853 -1.8007317 4288085770
13.054909 2.7535086 -1.7967284 4288085770
12.110199 2.621593 -1.8262978 4288085770
0.86659241 1.1878839 -1.8019019 4288085770
8.9106598 2.194339 -1.8154619 4288085770
3.2882538 1.485468 -1.8002342 4288085770
-0.12823486 1.0564553 -1.8097878 4288085770
6.1176224 1.838642 -1.8287382 4288085770
1.105629 1.2009072 -1.8003252 4288085770
3.6921768 1.512892 -1.798547 4288085770
1.2386322 1.2100452 -1.8024399 4288085770
7.6424637 1.9955648 -1.8193704 4288085770
3.744278 1.5103477 -1.8022258 4288085770
1.3506622 1.2129766 -1.7977138 4288085770
4.1530991 1.5448227 -1.802478 4288085770
12.739845 2.582865 -1.8104497 4288085770
9.7029572 2.2080941 -1.8233588 4288085770
0.015213013 1.0406693 -1.8099399 4288085770
1.6307144 1.2273587 -1.7988701 4288085770
6.4702988 1.8026156 -1.8256428 4288085770
4.6470261 1.5760245 -1.8042018 4288085770
1.4430695 1.1957791 -1.8031974 4288085770
8.2019577 1.982319 -1.8218626 4288085770
1.9377747 1.2429817 -1.8028492 4288085770
4.0308533 1.4847718 -1.8015076 4288085770
5.2479553 1.6171818 -1.8172029 4288085770
0.1696701 1.0249766 -1.8100218 4288085770
10.57328 2.2205145 -1.8317643 4288085770
2.2308502 1.2534579 -1.7999387 4288085770
1.6665192 1.1816826 -1.805833 4288085770
5.8598633 1.655407 -1.8241462 4288085770
6.8109665 1.7624663 -1.8176409 4288085770
8.8664627 1.9729789 -1.82767 4288085770
2.5649109 1.2672969 -1.8007532 4288085770
4.3514252 1.460487 -1.8015676 4288085770
0.33010101 1.0103383 -1.811061 4288085770
6.4447784 1.6863542 -1.8192915 4288085770
11.536659 2.2327416 -1.8445786 4288085770
2.9380035 1.282483 -1.8053137 4288085770
1.8899384 1.1665691 -1.8044732 4288085770
7.0866928 1.7177836 -1.8140718 4288085770
7.2246475 1.7269598 -1.8151549 4288085770
9.5849457 1.9661032 -1.8351235 4288085770
3.3181076 1.2947115 -1.8058417 4288085770
0.48753357 0.99366295 -1.8091278 4288085770
4.7119827 1.4385536 -1.804363 4288085770
7.8255844 1.7550546 -1.8132101 4288085770
12.387077 2.2239375 -1.8401995 4288085770
2.144371 1.1537352 -1.8069065 4288085770
3.7092056 1.3060243 -1.8043036 4288085770
8.7084961 1.8005855 -1.8213972 4288085770
-1.7061691 0.74001062 -1.8091593 4288085770
7.7213364 1.6951804 -1.8181248 4288085770
0.67396545 0.97924888 -1.8110007 4288085770
10.425407 1.9642764 -1.8457789 4288085770
5.1005402 1.4168561 -1.8069793 4288085770
4.1193161 1.3154942 -1.8016521 4288085770
2.4347916 1.1422178 -1.8121051 4288085770
13.064598 2.1865695 -1.8130405 4288085770
9.754364 1.856529 -1.836503 4288085770
-1.6137695 0.72679722 -1.8106258 4288085770
4.5674591 1.3242894 -1.7997611 4288085770
0.8693924 0.96491098 -1.8128159 4288085770
11.312866 1.9588271 -1.8511504 4288085770
8.2410049 1.662587 -1.8189518 4288085770
10.847237 1.9078323 -1.8423288 4288085770
2.709198 1.1285397 -1.8114146 4288085770
5.5301132 1.3945144 -1.8113371 4288085770
5.0815964 1.3366641 -1.8024352 4288085770
-1.5103683 0.7146852 -1.8140179 4288085770
1.0748062 0.95065796 -1.8145671 4288085770
12.064095 1.9621941 -1.8493521 4288085770
12.346298 1.9606415 -1.8625619 4288085770
3.0336227 1.11631 -1.8163996 4288085770
5.6447678 1.3484609 -1.8067993 4288085770
5.9656601 1.3702023 -1.8106648 4288085770
12.956985 1.9776224 -1.8126004 4288085770
-1.4069824 0.70156515 -1.8154141 4288085770
1.2912216 0.93549371 -1.8152522 4288085770
6.2339401 1.3574657 -1.8080095 4288085770
3.3479996 1.1029667 -1.8144531 4288085770
13.10276 1.9279464 -1.8358806 4288085770
6.4472122 1.3462886 -1.8116982 4288085770
-1.3005829 0.68846989 -1.8167911 4288085770
1.522644 0.92146397 -1.817837 4288085770
6.8491211 1.3636785 -1.8060657 4288085770
3.6923981 1.0888807 -1.8133185 4288085770
-1.2012253 0.67429936 -1.8142171 4288085770
7.5283356 1.3694397 -1.8057159 4288085770
6.9757767 1.3217752 -1.8134346 4288085770
1.7700424 0.90656161 -1.8183235 4288085770
4.1007843 1.0793661 -1.8187577 4288085770
8.3085709 1.3770771 -1.8097154 4288085770
-1.0878525 0.6612637 -1.8155493 4288085770
2.0194244 0.89167285 -1.8177973 4288085770
7.5393219 1.2965463 -1.8119512 4288085770
4.530159 1.0680161 -1.8210707 4288085770
9.1758347 1.3834583 -1.815166 4288085770
-0.96448517 0.64831245 -1.8168176 4288085770
2.3098297 0.87814665 -1.8210046 4288085770
4.9875336 1.0579073 -1.8242002 4288085770
8.1858826 1.2720363 -1.8139362 4288085770
10.206139 1.3932556 -1.828564 4288085770
-0.83311462 0.63543308 -1.8190346 4288085770
-1.5997314 0.58290434 -1.8151364 4288085770
2.6122055 0.86371422 -1.822139 4288085770
5.5069122 1.0473273 -1.8279369 4288085770
8.8774261 1.2468987 -1.8136374 4288085770
11.36348 1.4001324 -1.8421652 4288085770
-0.70075989 0.62255824 -1.8202454 4288085770
-1.4813766 0.57192326 -1.8194284 4288085770
2.9215698 0.84933245 -1.821229 4288085770
6.0232468 1.0356926 -1.824697 4288085770
-0.56640625 0.60869169 -1.8194476 4288085770
-1.3680267 0.55988765 -1.8207567 4288085770
12.46682 1.3944809 -1.8391627 4288085770
9.7189941 1.2250632 -1.8203696 4288085770
3.2439194 0.83404827 -1.8172398 4288085770
6.6665955 1.0291789 -1.8316275 4288085770
-0.42307281 0.59590542 -1.8195881 4288085770
-1.2446671 0.54794884 -1.8250209 4288085770
3.5912704 0.81897974 -1.8140906 4288085770
7.2539139 1.0161282 -1.8239417 4288085770
10.665565 1.2031281 -1.8294336 4288085770
-0.26673126 0.58323753 -1.8216453 4288085770
-1.1483917 0.53473234 -1.8174624 4288085770
3.9856186 0.80532134 -1.8136362 4288085770
7.9612198 1.0071182 -1.821475 4288085770
11.717148 1.1800768 -1.8368335 4288085770
-0.10541534 0.57060397 -1.8216705 4288085770
-1.0170746 0.52385688 -1.8206717 4288085770
4.4279709 0.79208136 -1.8158746 4288085770
8.7555389 0.9988519 -1.8204511 4288085770
-0.89378357 0.51188922 -1.8179362 4288085770
0.065925598 0.55706263 -1.8236358 4288085770
12.821716 1.1524456 -1.8369149 4288085770
4.9223328 0.77928507 -1.8187798 4288085770
9.7048416 0.99492681 -1.8254223 4288085770
0.25024414 0.5446316 -1.8255138 4288085770
-0.75347137 0.50008166 -1.8190917 4288085770
5.4426651 0.7667011 -1.8195188 4288085770
10.765152 0.98993218 -1.8276908 4288085770
0.43456268 0.53119218 -1.8253963 4288085770
-0.59013367 0.4884896 -1.8251002 4288085770
6.0250015 0.75364995 -1.8218648 4288085770
12.008453 0.98951077 -1.8347752 4288085770
0.63184357 0.51885879 -1.8241912 4288085770
-0.44184875 0.47674158 -1.8242048 4288085770
6.6423187 0.74088144 -1.820987 4288085770
0.84515381 0.50566876 -1.8248876 4288085770
-0.29159546 0.46500239 -1.8212966 4288085770
7.3646545 0.73002708 -1.8254324 4288085770
-0.11431885 0.45451626 -1.8242115 4288085770
1.0694427 0.49257222 -1.825514 4288085770
8.1459656 0.71865916 -1.8265045 4288085770
0.066963196 0.44305518 -1.8251048 4288085770
1.3267517 0.48077521 -1.8309247 4288085770
7.9752808 0.68012071 -1.8057519 4288085770
8.9041214 0.70701039 -1.8067247 4288085770
7.1574631 0.65417421 -1.8050684 4288085770
6.4486465 0.63117063 -1.8086784 4288085770
9.9849701 0.73620272 -1.8107196 4288085770
9.0362854 0.7072221 -1.8288828 4288085770
5.7748108 0.60743809 -1.8060687 4288085770
11.281853 0.76925611 -1.821323 4288085770
5.1869888 0.58645427 -1.8078998 4288085770
12.688698 0.80321479 -1.8252224 4288085770
4.6211624 0.56363595 -1.8045982 4288085770
3.9573669 0.54000866 -1.8069242 4288085770
4.4402771 0.55310404 -1.8057942 4288085770
4.1253281 0.54342234 -1.8038403 4288085770
3.5144653 0.52625203 -1.8078022 4288085770
4.971199 0.56661379 -1.8063568 4288085770
3.1235886 0.51394725 -1.811343 4288085770
5.5701447 0.58070672 -1.8084838 4288085770
0.26725006 0.431768 -1.8288766 4288085770
1.5920486 0.46803322 -1.8332886 4288085770
2.7436981 0.49971953 -1.8108215 4288085770
6.2030792 0.59407544 -1.8073972 4288085770
3.7045593 0.52387154 -1.8096018 4288085770
10.073608 0.69804883 -1.8353155 4288085770
2.4248581 0.4870365 -1.8169053 4288085770
6.939064 0.60733533 -1.8106551 4288085770
2.0789719 0.47308829 -1.8141661 4288085770
3.279747 0.5042628 -1.8093889 4288085770
7.7120209 0.61988902 -1.8086803 4288085770
1.7851334 0.45960405 -1.8170936 4288085770
8.6060104 0.63348186 -1.8099303 4288085770
2.9199829 0.48522463 -1.8137596 4288085770
1.527298 0.44744167 -1.8237865 4288085770
0.460495 0.42040062 -1.8276933 4288085770
1.8522873 0.45522478 -1.8296846 4288085770
11.348976 0.69193459 -1.8512198 4288085770
9.6350403 0.64622939 -1.8133242 4288085770
2.5811996 0.4673641 -1.8179916 4288085770
1.2634735 0.43320325 -1.8245262 4288085770
10.853096 0.66060102 -1.8215077 4288085770
2.2574081 0.44961831 -1.8191278 4288085770
0.98361206 0.41880503 -1.8193684 4288085770
0.68175507 0.40928239 -1.8293306 4288085770
2.1615829 0.44286314 -1.8337666 4288085770
12.256165 0.67454207 -1.8295147 4288085770
12.69529 0.68337607 -1.8556823 4288085770
0.75578308 0.40587991 -1.8218732 4288085770
1.9556503 0.43106207 -1.8211271 4288085770
0.52495575 0.39190838 -1.8194013 4288085770
0.94004059 0.39950642 -1.8377268 4288085770
2.4558182 0.43034217 -1.8299451 4288085770
1.6698685 0.41363776 -1.8220196 4288085770
0.31213379 0.37809771 -1.8188143 4288085770
1.3980865 0.39632788 -1.8218226 4288085770
1.1442184 0.38820323 -1.8294736 4288085770
2.7880554 0.41815078 -1.8278801 4288085770
0.11332703 0.36440548 -1.8181374 4288085770
1.1263123 0.37800539 -1.8186299 4288085770
1.4304657 0.37865573 -1.8356906 4288085770
3.1443024 0.40517044 -1.8276657 4288085770
-0.069465637 0.35085678 -1.8193581 4288085770
0.89855194 0.36107597 -1.8201507 4288085770
1.7046967 0.36798584 -1.8369887 4288085770
-0.26027679 0.33721977 -1.81563 4288085770
3.5275269 0.3934105 -1.8252743 4288085770
0.67880249 0.34420988 -1.8206205 4288085770
1.967865 0.35719025 -1.8303578 4288085770
-0.42405701 0.32383603 -1.8177286 4288085770
3.9537659 0.38102669 -1.8256117 4288085770
0.4600296 0.32834426 -1.81908 4288085770
2.2800522 0.34783804 -1.8304088 4288085770
4.4259872 0.37003195 -1.8256505 4288085770
-0.56981659 0.31060874 -1.8207121 4288085770
2.6052322 0.33859143 -1.8293766 4288085770
0.26028442 0.31164333 -1.8184215 4288085770
4.9322128 0.35832921 -1.8264757 4288085770
-0.7375946 0.29616636 -1.8168405 4288085770
2.9754181 0.32973382 -1.8300562 4288085770
5.5004272 0.34815887 -1.8288999 4288085770
0.079551697 0.29611576 -1.8206373 4288085770
3.3355484 0.32176706 -1.824796 4288085770
6.1296387 0.3375009 -1.8299375 4288085770
-0.88739014 0.28388467 -1.8148457 4288085770
3.7657166 0.31342113 -1.8260915 4288085770
6.8298492 0.327456 -1.8335207 4288085770
-0.10520935 0.2805379 -1.8188787 4288085770
4.217865 0.30625758 -1.8262421 4288085770
7.5860443 0.31787226 -1.8337454 4288085770
-1.0251465 0.27071282 -1.8147777 4288085770
4.7330246 0.29963905 -1.8289893 4288085770
8.4312286 0.30804172 -1.8334042 4288085770
5.2701492 0.29319042 -1.8275957 4288085770
5.9032974 0.28757882 -1.8315874 4288085770
9.3814163 0.29910749 -1.8343908 4288085770
-0.27392578 0.26409939 -1.8180217 4288085770
6.5854187 0.28337309 -1.8332615 4288085770
-1.1448898 0.25770527 -1.8175945 4288085770
10.538635 0.2919575 -1.8420516 4288085770
7.3485336 0.27985695 -1.8354166 4288085770
8.1676025 0.27780685 -1.8352094 4288085770
13.326157 0.28880006 -1.8883154 4288085770
11.99395 0.28439078 -1.8628166 4288085770
9.1296997 0.27698255 -1.8380864 4288085770
11.614944 0.28216773 -1.8612393 4288085770
10.301849 0.27798077 -1.8506184 4288085770
11.764938 0.27437061 -1.8443161 4288085770
-0.44367981 0.24864432 -1.815167 4288085770
-1.2726517 0.24461409 -1.8164626 4288085770
10.432091 0.24900943 -1.8329093 4288085770
9.2662506 0.2250697 -1.8224331 4288085770
-0.59039307 0.23340032 -1.8161647 4288085770
-1.3923721 0.23059863 -1.8172834 4288085770
8.3134613 0.20296925 -1.8195928 4288085770
-0.72708893 0.21724492 -1.8181025 4288085770
7.505722 0.18111965 -1.8218278 4288085770
-1.5211411 0.21748224 -1.8121578 4288085770
6.7909698 0.16106173 -1.824463 4288085770
-0.8647995 0.20206884 -1.8170427 4288085770
12.444008 0.10714912 -1.8546913 4288085770
6.1182175 0.14034256 -1.8228335 4288085770
10.98613 0.083697662 -1.8360723 4288085770
-1.0025101 0.18688829 -1.8149828 4288085770
5.4924393 0.12201671 -1.8198948 4288085770
9.7903214 0.060508169 -1.8267837 4288085770
4.9637222 0.10253228 -1.8213431 4288085770
-1.1292114 0.17180549 -1.8138524 4288085770
8.8065872 0.037145518 -1.8241456 4288085770
4.4429703 0.084099218 -1.818736 4288085770
7.9398575 0.015785113 -1.823754 4288085770
-1.235878 0.1569123 -1.8175937 4288085770
3.997261 0.065321051 -1.8206527 4288085770
7.2101898 -0.0063919388 -1.8284931 4288085770
-1.3616104 0.1428214 -1.8124528 4288085770
3.5755463 0.046738118 -1.8204156 4288085770
13.152206 -0.14069073 -1.9012184 4288085770
13.021133 -0.14588952 -1.8800744 4288085770
6.4924393 -0.026508372 -1.8231474 4288085770
3.1878204 0.02944275 -1.8199567 4288085770
11.540184 -0.15248975 -1.8725322 4288085770
-1.4662857 0.12793277 -1.8131813 4288085770
5.8567123 -0.045914304 -1.8212764 4288085770
11.572411 -0.18128979 -1.8554467 4288085770
10.274277 -0.16428283 -1.8606422 4288085770
2.8531723 0.010616072 -1.8241662 4288085770
5.3040237 -0.065605618 -1.8218781 4288085770
9.1683273 -0.17171827 -1.8487152 4288085770
10.381767 -0.2154576 -1.8411708 4288085770
2.5224838 -0.0071889535 -1.8253461 4288085770
8.2324448 -0.17767465 -1.8456995 4288085770
4.7843246 -0.085026443 -1.8202684 4288085770
2.2278061 -0.024685144 -1.8272957 4288085770
7.4485855 -0.18331549 -1.8487144 4288085770
9.3791809 -0.24900651 -1.8326949 4288085770
4.3176498 -0.1039905 -1.8203192 4288085770
-1.4581375 0.076044485 -1.8263457 4288085770
6.7046661 -0.18563902 -1.8464612 4288085770
1.9281006 -0.041240185 -1.8252729 4288085770
6.0136948 -0.18452165 -1.8418562 4288085770
-1.3489075 0.062962122 -1.8247045 4288085770
8.5696716 -0.28287256 -1.834991 4288085770
3.8919678 -0.12260724 -1.8201073 4288085770
5.3717041 -0.18299818 -1.8349376 4288085770
-1.2246857 0.050023176 -1.8269676 4288085770
12.519623 -0.44016561 -1.8864975 4288085770
1.6694489 -0.05842765 -1.8279917 4288085770
4.8457718 -0.18144801 -1.8382801 4288085770
-1.111496 0.036962599 -1.8223011 4288085770
11.017303 -0.41599938 -1.8649622 4288085770
3.5113068 -0.14083083 -1.8226072 4288085770
4.3367844 -0.17777863 -1.8355056 4288085770
7.8291245 -0.31417149 -1.8328372 4288085770
-0.9772644 0.023103885 -1.8235043 4288085770
9.8441238 -0.3969841 -1.8573531 4288085770
1.4348221 -0.076403797 -1.8325607 4288085770
3.8628006 -0.17380506 -1.8345072 4288085770
-0.83704376 0.0092919767 -1.8236688 4288085770
8.7619095 -0.37721121 -1.8461612 4288085770
-1.4682388 0.033967078 -1.8305851 4288085770
3.430809 -0.16947609 -1.8332397 4288085770
3.156662 -0.159839 -1.8239448 4288085770
-1.353096 0.023935623 -1.8288939 4288085770
-0.67579651 -0.0053216815 -1.8287033 4288085770
7.8998108 -0.36152798 -1.8455853 4288085770
3.0448227 -0.16374151 -1.8356735 4288085770
7.1735992 -0.34473929 -1.8331389 4288085770
-1.2229004 0.012043327 -1.8301145 4288085770
-0.53062439 -0.018099621 -1.8268321 4288085770
7.1427383 -0.34693572 -1.8493451 4288085770
1.1981583 -0.09341757 -1.8321384 4288085770
2.6637955 -0.1569806 -1.8340715 4288085770
-1.1007767 0.002066765 -1.8273784 4288085770
2.3357925 -0.15075116 -1.837134 4288085770
-0.36139679 -0.032653511 -1.8298151 4288085770
6.4016037 -0.33024114 -1.8449945 4288085770
-0.9696579 -0.0078337342 -1.8245845 4288085770
2.8260117 -0.17764392 -1.8251245 4288085770
2.0197678 -0.14342836 -1.8381157 4288085770
-0.18719482 -0.047174007 -1.8307666 4288085770
5.7234421 -0.31301713 -1.8392406 4288085770
-0.81346893 -0.019493606 -1.8286388 4288085770
1.7417755 -0.13676769 -1.8428583 4288085770
-0.65431976 -0.030136632 -1.8306698 4288085770
-0.00099182129 -0.061584257 -1.8336412 4288085770
5.1182938 -0.29616371 -1.8360233 4288085770
1.4416962 -0.12833005 -1.8387334 4288085770
-0.4881897 -0.0407243 -1.8316562 4288085770
0.95444489 -0.10851108 -1.826753 4288085770
1.1996765 -0.12036046 -1.8442415 4288085770
-0.3140564 -0.051240265 -1.8335912 4288085770
0.18017578 -0.075057887 -1.8315437 4288085770
4.6022034 -0.28153655 -1.8372484 4288085770
6.5660706 -0.37390026 -1.833129 4288085770
0.92456055 -0.11072367 -1.8369528 4288085770
-0.13392639 -0.061709672 -1.8344882 4288085770
0.70149231 -0.10160588 -1.8393353 4288085770
0.068199158 -0.071980357 -1.8382441 4288085770
0.45635986 -0.090706974 -1.8338504 4288085770
0.24326324 -0.081520677 -1.8321689 4288085770
0.38134766 -0.089353524 -1.8313224 4288085770
4.1100769 -0.26571465 -1.8363161 4288085770
0.59751892 -0.10351431 -1.833005 4288085770
2.5323944 -0.19612348 -1.8290712 4288085770
3.6539536 -0.25059265 -1.8341572 4288085770
0.83270264 -0.11851032 -1.83557 4288085770
3.2568436 -0.23595066 -1.8366247 4288085770
1.0698547 -0.13250193 -1.8351183 4288085770
2.8807297 -0.22113928 -1.8369578 4288085770
2.5245972 -0.20615844 -1.8371629 4288085770
1.3400497 -0.14819759 -1.8384637 4288085770
2.2275085 -0.19265422 -1.8429985 4288085770
1.9203796 -0.17825481 -1.843894 4288085770
1.6412659 -0.16461478 -1.8456143 4288085770
12.393639 -0.69929242 -1.882382 4288085770
0.75080109 -0.12523699 -1.8281194 4288085770
13.292244 -0.76270592 -1.8749248 4288085770
6.0255432 -0.40249461 -1.8326901 4288085770
12.167839 -0.72127092 -1.8679112 4288085770
