# .PCD v0.7 - Point Cloud Data file format
VERSION 0.7
FIELDS x y z rgb
SIZE 4 4 4 4
TYPE F F F U
COUNT 1 1 1 1
WIDTH 1119
HEIGHT 1
VIEWPOINT 0 0 0 1 0 0 0
POINTS 1119
DATA ascii
6.8622718 -0.30153805 -1.8264123 4288085770
6.3652725 -0.28051692 -1.827356 4288085770
9.1122665 -0.41163608 -1.8296643 4288085770
12.490255 -0.57278603 -1.8520439 4288085770
8.4212666 -0.37960768 -1.8375866 4288085770
7.050271 -0.31654626 -1.8244323 4288085770
6.5412717 -0.29252478 -1.8273749 4288085770
8.1382675 -0.36959553 -1.8365543 4288085770
13.216255 -0.61481601 -1.8421243 4288085770
7.8632674 -0.35858339 -1.834523 4288085770
6.7412705 -0.30453417 -1.8303971 4288085770
11.894256 -0.55376053 -1.8499755 4288085770
19.932232 -0.94311482 -1.8878773 4288085770
7.6072688 -0.34757209 -1.8324939 4288085770
6.9402699 -0.31554306 -1.8314191 4288085770
7.3702688 -0.33656165 -1.8314674 4288085770
7.1402698 -0.32555142 -1.8294414 4288085770
7.2792692 -0.33255744 -1.829457 4288085770
11.352258 -0.53573722 -1.8479131 4288085770
7.5082679 -0.34856784 -1.8304819 4288085770
7.3502693 -0.34255984 -1.8234637 4288085770
10.898258 -0.51971895 -1.8538611 4288085770
7.7442675 -0.36357832 -1.8305076 4288085770
10.427258 -0.50069797 -1.8488075 4288085770
7.9972663 -0.3795895 -1.8305354 4288085770
19.938231 -0.98011774 -1.8908722 4288085770
9.9952602 -0.48267898 -1.8457586 4288085770
8.2802668 -0.39660269 -1.8345665 4288085770
9.6082611 -0.46466216 -1.844715 4288085770
8.5592661 -0.41261452 -1.8325975 4288085770
8.891263 -0.42963004 -1.8386346 4288085770
8.804266 -0.42562395 -1.8256247 4288085770
9.2372627 -0.4476456 -1.8416733 4288085770
12.682253 -0.63879633 -1.844056 4288085770
18.660233 -0.95406234 -1.8787231 4288085770
18.858231 -0.97107553 -1.901744 4288085770
7.1612673 -0.35755375 -1.8254381 4288085770
8.528264 -0.44061393 -1.8255886 4288085770
18.942226 -1.0290796 -1.8867447 4288085770
12.153251 -0.66077548 -1.8389884 4288085770
17.542233 -0.96601647 -1.8705868 4288085770
6.9652667 -0.37154639 -1.8224117 4288085770
17.722229 -0.98402864 -1.8926055 4288085770
8.2792616 -0.45560503 -1.8255559 4288085770
6.7892652 -0.38554072 -1.8233876 4288085770
11.683249 -0.68375802 -1.8379278 4288085770
16.55323 -0.97897589 -1.8624656 4288085770
16.688229 -0.9919855 -1.8814797 4288085770
17.997225 -1.0730424 -1.8786242 4288085770
8.0382595 -0.47159639 -1.8245237 4288085770
6.6092639 -0.39953393 -1.819363 4288085770
11.262247 -0.70574248 -1.8378732 4288085770
15.73523 -0.99494374 -1.8613646 4288085770
15.804228 -1.0009501 -1.8793719 4288085770
7.8072591 -0.48558784 -1.8224931 4288085770
17.154222 -1.1150093 -1.8695159 4288085770
6.4542627 -0.41352886 -1.8193415 4288085770
14.994227 -1.0069175 -1.8772734 4288085770
7.6052566 -0.50158113 -1.8234657 4288085770
14.993228 -1.0119146 -1.8602725 4288085770
10.883245 -0.72872913 -1.8398234 4288085770
6.3192601 -0.42952543 -1.8233221 4288085770
16.449219 -1.1579829 -1.8674241 4288085770
14.236226 -1.0088861 -1.8711816 4288085770
7.4032555 -0.51657408 -1.8224382 4288085770
14.302226 -1.0278871 -1.8561864 4288085770
10.537243 -0.75171739 -1.8427775 4288085770
6.1782584 -0.44352099 -1.8233021 4288085770
13.554225 -1.0088581 -1.8670993 4288085770
7.2172542 -0.53156781 -1.8224127 4288085770
15.822218 -1.2009603 -1.8663415 4288085770
13.688226 -1.0438632 -1.8541098 4288085770
10.195242 -0.77370501 -1.8417324 4288085770
6.0422568 -0.45851681 -1.8232825 4288085770
12.921227 -1.0068318 -1.8620232 4288085770
7.0352526 -0.54656136 -1.8203878 4288085770
19.927189 -1.6021601 -1.9317715 4288085770
13.142223 -1.0618423 -1.8530407 4288085770
9.8852377 -0.79569423 -1.841691 4288085770
15.262213 -1.2439406 -1.8672669 4288085770
12.353226 -1.0048088 -1.8609546 4288085770
5.909255 -0.47251251 -1.8222635 4288085770
18.520189 -1.551097 -1.9116102 4288085770
6.8762503 -0.56255662 -1.8223654 4288085770
11.820226 -1.0007868 -1.8578907 4288085770
12.629222 -1.0788224 -1.8499758 4288085770
9.6012344 -0.81768471 -1.8436525 4288085770
5.7842546 -0.48650855 -1.8212453 4288085770
17.280195 -1.5040413 -1.8944682 4288085770
14.70521 -1.2819197 -1.8631934 4288085770
6.7212481 -0.57855201 -1.8233433 4288085770
11.331224 -0.995767 -1.8568324 4288085770
19.712181 -1.7791563 -1.9017175 4288085770
16.265198 -1.4679976 -1.8883516 4288085770
12.15622 -1.0958041 -1.8479155 4288085770
9.3062334 -0.8366735 -1.8386132 4288085770
5.6782513 -0.50250626 -1.8242291 4288085770
10.894223 -0.99174929 -1.8567798 4288085770
6.5612473 -0.5925464 -1.8213211 4288085770
14.225206 -1.3219026 -1.8621287 4288085770
15.368197 -1.433959 -1.8832487 4288085770
10.490223 -0.98673368 -1.8597317 4288085770
11.744218 -1.1157893 -1.8488622 4288085770
5.5652494 -0.51750326 -1.8252122 4288085770
18.467186 -1.7690995 -1.868569 4288085770
9.0662308 -0.85966587 -1.84058 4288085770
14.546202 -1.4009233 -1.8781546 4288085770
6.4132457 -0.60754144 -1.8192999 4288085770
10.097223 -0.97971755 -1.8586849 4288085770
19.554192 -1.9231285 -1.7386755 4293729569
13.784204 -1.3618877 -1.8620688 4288085770
13.8212 -1.370892 -1.8750719 4288085770
5.4622474 -0.53250068 -1.8261967 4288085770
11.360215 -1.1347753 -1.8488122 4288085770
9.726222 -0.97070199 -1.8566412 4288085770
19.13319 -1.9331098 -1.7256234 4293729569
8.8222294 -0.88065773 -1.8405464 4288085770
17.436184 -1.7650541 -1.8464451 4288085770
6.2872429 -0.62453812 -1.8212812 4288085770
13.131202 -1.3398616 -1.8689932 4288085770
9.3482237 -0.95868534 -1.850597 4288085770
18.801189 -1.9750969 -1.7145765 4293729569
5.3602452 -0.54749793 -1.8261809 4288085770
13.3512 -1.3978717 -1.8580103 4288085770
12.508204 -1.3098342 -1.8639225 4288085770
11.041212 -1.1587654 -1.8557694 4288085770
6.1512418 -0.63853377 -1.8192617 4288085770
8.585227 -0.90064931 -1.8375137 4288085770
9.0422211 -0.95167327 -1.8525609 4288085770
16.595184 -1.7700192 -1.8373427 4288085770
18.080193 -1.933064 -1.704496 4293729569
11.939204 -1.2818091 -1.8598579 4288085770
8.7362223 -0.9416604 -1.8515252 4288085770
5.2632442 -0.56249541 -1.8261658 4288085770
11.472204 -1.2607907 -1.8658046 4288085770
10.67621 -1.1747512 -1.8507222 4288085770
6.0292392 -0.65453017 -1.8192434 4288085770
12.972197 -1.4368594 -1.8579577 4288085770
8.3612251 -0.92064136 -1.8344828 4288085770
17.99719 -2.0100608 -1.6804737 4293729569
8.4332228 -0.93064737 -1.8484899 4288085770
15.901182 -1.7799925 -1.839257 4288085770
16.985195 -1.9170128 -1.6683662 4293729569
10.975205 -1.2327685 -1.8607488 4288085770
8.153223 -0.91863531 -1.8464576 4288085770
5.169241 -0.57749313 -1.8261511 4288085770
10.524207 -1.2067486 -1.8576982 4288085770
5.9222374 -0.67152798 -1.8222269 4288085770
10.371208 -1.1957407 -1.8506813 4288085770
7.8862228 -0.9066236 -1.8434268 4288085770
8.1732216 -0.94263595 -1.8364558 4288085770
12.627192 -1.474848 -1.8579094 4288085770
15.303179 -1.7939709 -1.8471823 4288085770
10.129208 -1.1847318 -1.8586537 4288085770
16.955194 -2.0080078 -1.619348 4293729569
7.6442227 -0.89561331 -1.842399 4288085770
16.496189 -1.9619987 -1.6832998 4293729569
9.7552071 -1.1617156 -1.8586118 4288085770
5.8142347 -0.68752521 -1.8232105 4288085770
7.4072232 -0.88360316 -1.8403718 4288085770
10.052206 -1.2117283 -1.8456396 4288085770
9.3762102 -1.1356984 -1.8535699 4288085770
7.979219 -0.96362966 -1.8354281 4288085770
14.674175 -1.7969459 -1.8461055 4288085770
7.1782236 -0.87059283 -1.8373458 4288085770
12.33019 -1.5148393 -1.8608667 4288085770
9.0462093 -1.1136841 -1.8525331 4288085770
6.982223 -0.85958517 -1.8403236 4288085770
16.071184 -2.0089872 -1.6992407 4293729569
16.571192 -2.0759959 -1.6152905 4293729569
5.7042332 -0.70252192 -1.8211938 4288085770
8.7182102 -1.0896691 -1.8484969 4288085770
9.7882042 -1.2337195 -1.8466034 4288085770
6.7932229 -0.84957761 -1.842302 4288085770
14.099175 -1.7979234 -1.8470354 4288085770
7.8012166 -0.98462427 -1.8354024 4288085770
8.4172106 -1.0666555 -1.8464639 4288085770
6.5932236 -0.83556831 -1.8382796 4288085770
17.078203 -2.2079892 -1.4243309 4293729569
12.025186 -1.5528295 -1.8598232 4288085770
8.1512127 -1.0466441 -1.8474345 4288085770
6.4072237 -0.82155961 -1.8352591 4288085770
5.5942316 -0.71751857 -1.819177 4288085770
15.674177 -2.0559769 -1.7151847 4293729569
7.8752131 -1.0236311 -1.8424045 4288085770
17.065266 -2.252897 -0.90232241 4293729569
16.438181 -2.1719992 -1.6332591 4293729569
6.2442241 -0.81055313 -1.8372408 4288085770
9.5342016 -1.2537111 -1.8465688 4288085770
13.596173 -1.8029051 -1.8529732 4288085770
7.6452131 -1.0046213 -1.8443795 4288085770
7.6342149 -1.0066193 -1.8353777 4288085770
17.028364 -2.277755 -0.11331423 4293729569
6.0812244 -0.79854596 -1.8362226 4288085770
17.037363 -2.2857544 -0.10731404 4293729569
16.798193 -2.2559922 -1.4872892 4293729569
7.4012141 -0.98260987 -1.8403533 4288085770
5.9142251 -0.78353792 -1.8322046 4288085770
16.97436 -2.3007569 -0.126304 4293729569
16.988264 -2.304899 -0.91430473 4293729569
7.1782155 -0.96259946 -1.8383292 4288085770
11.756182 -1.5918216 -1.8617837 4288085770
5.5072289 -0.73451716 -1.822163 4288085770
5.7692251 -0.7715317 -1.8331888 4288085770
16.940262 -2.3118958 -0.90329784 4293729569
6.9642162 -0.94158953 -1.8363063 4288085770
15.211173 -2.0919619 -1.7191229 4293729569
5.6272254 -0.75952536 -1.8321732 4288085770
13.100171 -1.8028861 -1.8569129 4288085770
9.2711992 -1.2707009 -1.8405335 4288085770
6.7862163 -0.92458236 -1.8402873 4288085770
5.5022259 -0.74752033 -1.8351598 4288085770
16.920259 -2.3529017 -0.9262889 4293729569
7.4692116 -1.026614 -1.8333538 4288085770
16.374168 -2.2790067 -1.655234 4293729569
16.705179 -2.3270066 -1.5652665 4293729569
6.5842175 -0.90357208 -1.8342659 4288085770
5.3682261 -0.73451424 -1.8341453 4288085770
6.4112182 -0.88556445 -1.8352478 4288085770
5.257226 -0.72350997 -1.8381335 4288085770
16.930355 -2.385756 -0.10428506 4293729569
16.925356 -2.3867619 -0.13728428 4293729569
6.2292194 -0.86555535 -1.8302286 4288085770
5.4252253 -0.75151598 -1.8251493 4288085770
6.0722203 -0.84754837 -1.8312123 4288085770
11.496179 -1.6298137 -1.8617456 4288085770
16.940252 -2.4169087 -0.93928093 4293729569
16.886354 -2.4097583 -0.11827587 4293729569
5.9352202 -0.83254284 -1.8351979 4288085770
12.639169 -1.8018687 -1.8608567 4288085770
5.772222 -0.81253415 -1.8291813 4288085770
16.924259 -2.4299009 -0.89427698 4293729569
5.6322227 -0.79452741 -1.8281672 4288085770
9.0731964 -1.2946956 -1.8455049 4288085770
14.863167 -2.1379523 -1.731073 4293729569
5.5102234 -0.77852231 -1.8311548 4288085770
16.522167 -2.3830154 -1.6362351 4293729569
5.3852243 -0.7625165 -1.8311421 4288085770
5.2652249 -0.7465108 -1.83113 4288085770
7.314209 -1.0476094 -1.8323306 4288085770
16.915245 -2.4699137 -0.95826942 4293729569
16.240162 -2.3740094 -1.6692026 4293729569
5.3352237 -0.76651371 -1.8241348 4288085770
16.944344 -2.504775 -0.16926773 4293729569
12.138169 -1.7898475 -1.8557974 4288085770
16.956352 -2.5097625 -0.093268402 4293729569
11.266172 -1.6698076 -1.8637105 4288085770
16.197157 -2.4140139 -1.6911908 4293729569
8.8721933 -1.3166897 -1.8464762 4288085770
16.989239 -2.5449235 -0.96926641 4293729569
16.942345 -2.5387669 -0.11226206 4293729569
14.415163 -2.165936 -1.7280139 4293729569
7.1812067 -1.0696063 -1.8343101 4288085770
5.2522216 -0.78251201 -1.8251213 4288085770
11.710166 -1.7828307 -1.8577461 4288085770
16.069157 -2.4640098 -1.6761672 4293729569
15.712151 -2.4150014 -1.7251318 4293729569
11.04217 -1.7078012 -1.8636768 4288085770
8.6631899 -1.3356822 -1.843447 4288085770
7.0412035 -1.0906024 -1.8332887 4288085770
13.989162 -2.1909204 -1.7229578 4293729569
11.332166 -1.7778168 -1.8627006 4288085770
5.1822186 -0.80051142 -1.8281088 4288085770
15.071149 -2.386977 -1.7400581 4293729569
16.002144 -2.5660155 -1.6921427 4293729569
8.4781876 -1.3566765 -1.8434205 4288085770
10.853166 -1.7497973 -1.8686465 4288085770
10.983164 -1.7748042 -1.8696582 4288085770
6.9272003 -1.1136001 -1.8362703 4288085770
14.363152 -2.3399465 -1.7389793 4293729569
13.58416 -2.2159045 -1.7169044 4293729569
10.624162 -1.7657903 -1.8726156 4288085770
8.316185 -1.3796724 -1.8453962 4288085770
15.843138 -2.6540151 -1.6971092 4293729569
13.609154 -2.2779109 -1.7268972 4293729569
10.535164 -1.7677824 -1.8476042 4288085770
6.8091974 -1.1355977 -1.8372513 4288085770
13.260156 -2.2508938 -1.716859 4293729569
10.289161 -1.7567773 -1.8755757 4288085770
12.954156 -2.2258811 -1.7188256 4293729569
8.1441822 -1.4006668 -1.8433712 4288085770
15.676131 -2.7390139 -1.6990753 4293729569
6.6951947 -1.1575949 -1.8372329 4288085770
10.160165 -1.7717624 -1.8145572 4288085770
9.9221601 -1.7377609 -1.8695335 4288085770
12.169163 -2.1428399 -1.6877429 4293729569
12.867154 -2.2688777 -1.7058078 4293729569
7.9931779 -1.4236629 -1.8443481 4288085770
9.6151609 -1.7267491 -1.8724974 4288085770
11.371171 -2.050796 -1.64666 4293729569
6.5801916 -1.1785918 -1.8362147 4288085770
15.554123 -2.8290148 -1.703046 4293729569
9.8131685 -1.7767437 -1.7825136 4293729569
9.2871609 -1.7077346 -1.8684599 4288085770
10.805175 -1.9937681 -1.6305996 4293729569
7.8401756 -1.4446584 -1.8433253 4288085770
6.4771891 -1.2005899 -1.8371975 4288085770
9.5111685 -1.7867281 -1.7564743 4293729569
15.292119 -2.8930066 -1.6910037 4293729569
9.0001593 -1.6937227 -1.8684267 4288085770
10.499172 -1.9807585 -1.6485639 4293729569
12.023153 -2.2828383 -1.6637018 4293729569
7.7001729 -1.4666543 -1.8423038 4288085770
10.228169 -1.9707515 -1.6695321 4293729569
8.7581587 -1.6847143 -1.875398 4288085770
6.3761864 -1.2225878 -1.8371806 4288085770
9.2651672 -1.8047166 -1.7384406 4293729569
15.046116 -2.954998 -1.6779636 4293729569
11.241165 -2.2097905 -1.5886176 4293729569
9.9811649 -1.9627455 -1.6925027 4293729569
8.4721584 -1.6637015 -1.8703659 4288085770
7.5661702 -1.4896511 -1.8422828 4288085770
6.2791834 -1.2455859 -1.837164 4288085770
9.7351608 -1.9527391 -1.7124739 4293729569
8.2101574 -1.6456898 -1.8673363 4288085770
9.1291647 -1.841714 -1.7384174 4293729569
15.175101 -3.0920157 -1.7049574 4293729569
10.497176 -2.1347435 -1.512538 4293729569
7.4441667 -1.5136482 -1.8432631 4288085770
9.4421597 -1.9297285 -1.7224412 4293729569
7.9461579 -1.6236774 -1.8613069 4288085770
6.1971793 -1.2695851 -1.840149 4288085770
9.1921577 -1.9127206 -1.7364129 4293729569
7.6961589 -1.6016657 -1.8552792 4288085770
8.9801607 -1.8747096 -1.734393 4293729569
10.532209 -2.214694 -1.198529 4293729569
10.41717 -2.1917467 -1.5275183 4293729569
7.3441629 -1.5406473 -1.8482457 4288085770
8.8981581 -1.8847082 -1.7393811 4293729569
7.4991579 -1.5896584 -1.8602566 4288085770
6.1121764 -1.2925839 -1.8411341 4288085770
10.5613 -2.2565639 -0.45152584 4293729569
10.504249 -2.2466373 -0.87652028 4293729569
10.520269 -2.2516077 -0.70652151 4293729569
10.648344 -2.2845066 -0.1025321 4293729569
10.586308 -2.272553 -0.3805263 4293729569
8.629159 -1.8576974 -1.744352 4293729569
8.8361578 -1.9067057 -1.7303694 4293729569
7.2931576 -1.5726494 -1.8592336 4288085770
10.329163 -2.2457488 -1.5404984 4293729569
7.2321596 -1.5646447 -1.8482271 4288085770
10.439205 -2.271693 -1.1945078 4293729569
8.374157 -1.8326869 -1.7493243 4293729569
6.020174 -1.3125814 -1.8381186 4288085770
7.0741587 -1.5506392 -1.8542098 4288085770
10.436238 -2.3026431 -0.90450239 4293729569
10.484299 -2.3145609 -0.43150654 4293729569
10.488299 -2.321558 -0.4095059 4293729569
10.455262 -2.3156097 -0.70750266 4293729569
10.518337 -2.3335063 -0.10950772 4293729569
8.1631556 -1.8136799 -1.760301 4293729569
8.6841536 -1.9357004 -1.7223454 4293729569
7.1231561 -1.5876421 -1.8472092 4288085770
6.8881583 -1.5346314 -1.8551887 4288085770
10.252154 -2.3017521 -1.5534793 4293729569
10.399199 -2.3406963 -1.1954913 4293729569
8.0061531 -1.8056773 -1.7812825 4293729569
5.9491701 -1.337581 -1.8401047 4288085770
10.423229 -2.3696525 -0.93748951 4293729569
6.7011585 -1.515623 -1.8531684 4288085770
10.465295 -2.3845613 -0.4114925 4293729569
10.44929 -2.382566 -0.44149083 4293729569
10.433257 -2.3876133 -0.71048784 4293729569
10.48933 -2.4045112 -0.11849222 4293729569
7.8971477 -1.8066787 -1.8102686 4288085770
8.5821495 -1.9736995 -1.723326 4293729569
7.0271525 -1.6136407 -1.8491924 4288085770
6.5181589 -1.4966143 -1.8491485 4288085770
10.177149 -2.3577545 -1.5644606 4293729569
10.398191 -2.4167016 -1.1994784 4293729569
7.7861423 -1.8066796 -1.8392544 4288085770
5.867167 -1.3585793 -1.8380902 4288085770
10.421219 -2.4396634 -0.97347754 4293729569
6.3631587 -1.4816084 -1.8521312 4288085770
10.45528 -2.4525769 -0.47647983 4293729569
10.47629 -2.4605634 -0.39248115 4293729569
7.6521397 -1.7996782 -1.8612387 4288085770
10.460249 -2.4706209 -0.71547729 4293729569
10.497324 -2.4835184 -0.12948002 4293729569
6.9301496 -1.638639 -1.8491756 4288085770
8.4681463 -2.009697 -1.7203053 4293729569
6.1931591 -1.4626004 -1.849113 4288085770
10.088143 -2.4097559 -1.5734408 4293729569
7.4611387 -1.7766707 -1.8672186 4288085770
10.450184 -2.5067108 -1.2084697 4293729569
5.797164 -1.3825792 -1.8400766 4288085770
10.474206 -2.5236783 -1.0164701 4293729569
6.0381589 -1.4445938 -1.8490963 4288085770
10.541269 -2.542593 -0.51647544 4293729569
7.2391405 -1.74466 -1.8641959 4288085770
5.8821592 -1.4255861 -1.8460796 4288085770
6.8461447 -1.6656383 -1.8521597 4288085770
8.3871412 -2.0506966 -1.7232881 4293729569
7.0291419 -1.7146499 -1.8611745 4288085770
10.092134 -2.4837644 -1.5944288 4293729569
14.979049 -3.7180474 -1.7248335 4293729569
5.7351599 -1.4065793 -1.8440641 4288085770
5.7111611 -1.4015763 -1.8350618 4288085770
6.8281422 -1.6836399 -1.8571543 4288085770
5.5861607 -1.3865719 -1.8390484 4288085770
6.6441436 -1.6556312 -1.8561357 4288085770
6.7671413 -1.6926378 -1.8551447 4288085770
8.3271351 -2.0976985 -1.7292724 4293729569
6.4691443 -1.6286225 -1.8541181 4288085770
5.4641604 -1.3715667 -1.8410352 4288085770
10.061126 -2.5497704 -1.6104138 4293729569
5.649157 -1.4265764 -1.8360491 4288085770
14.99704 -3.8340552 -1.7288171 4293729569
6.2961454 -1.600614 -1.8511008 4288085770
5.3481598 -1.3575624 -1.8440228 4288085770
6.6841378 -1.7176365 -1.8551296 4288085770
6.1361465 -1.5746062 -1.8500849 4288085770
5.2291598 -1.340557 -1.8440104 4288085770
8.2341318 -2.134697 -1.7262542 4293729569
5.9771476 -1.5465983 -1.8460695 4288085770
10.067116 -2.6257787 -1.6304016 4293729569
5.5821543 -1.4485756 -1.8360362 4288085770
15.02203 -3.9540632 -1.7318012 4293729569
5.8391485 -1.523592 -1.8470556 4288085770
5.6881504 -1.4955837 -1.8410413 4288085770
6.6171336 -1.7476369 -1.8591156 4288085770
5.5531511 -1.4715769 -1.840028 4288085770
8.1931248 -2.1847003 -1.7342402 4293729569
9.9941101 -2.6797805 -1.6363835 4293729569
5.5271506 -1.4735758 -1.8380243 4288085770
5.4201517 -1.4465702 -1.8370153 4288085770
5.3101521 -1.4265654 -1.8400046 4288085770
6.5411301 -1.7736359 -1.8591011 4288085770
5.1951532 -1.4045597 -1.8389935 4288085770
8.1181202 -2.2247002 -1.7342238 4293729569
9.9791012 -2.7497866 -1.6513699 4293729569
5.4621477 -1.4955751 -1.8360115 4288085770
6.4591265 -1.795634 -1.8560864 4288085770
8.063117 -2.2707014 -1.7362089 4293729569
9.9400959 -2.813791 -1.6603544 4293729569
5.4211435 -1.5235764 -1.8410008 4288085770
6.3301268 -1.8046272 -1.8390679 4288085770
13.913017 -4.0050225 -1.7286559 4288085770
8.0101099 -2.3157029 -1.7391943 4293729569
9.8750868 -2.8687928 -1.665337 4293729569
5.3681393 -1.5475763 -1.8409894 4288085770
13.373019 -3.9339967 -1.7216003 4288085770
6.1661282 -1.8016163 -1.8100471 4288085770
7.9741044 -2.3657055 -1.7441809 4293729569
9.7790833 -2.9137914 -1.6633173 4293729569
5.3261352 -1.5745776 -1.8449786 4288085770
12.850023 -3.8619714 -1.7125467 4293729569
6.0251288 -1.8036073 -1.7870283 4288085770
7.9680963 -2.4247112 -1.7551699 4293729569
9.7770748 -2.9877977 -1.6753048 4293729569
5.278132 -1.5995778 -1.8449674 4288085770
12.355024 -3.7919466 -1.7044964 4293729569
5.8891301 -1.8055986 -1.7630099 4293729569
11.894028 -3.7239244 -1.6984499 4293729569
7.9100919 -2.4677117 -1.754155 4293729569
5.2361274 -1.6255788 -1.846957 4288085770
9.7490673 -3.0528021 -1.6832904 4293729569
5.7811294 -1.8135926 -1.7469944 4293729569
11.43603 -3.651901 -1.6884041 4293729569
7.8740859 -2.5167139 -1.756142 4293729569
5.1981239 -1.6525795 -1.8489468 4288085770
9.7090616 -3.1148047 -1.6872747 4293729569
5.7161264 -1.8345909 -1.7419819 4293729569
11.084031 -3.6078858 -1.6913671 4293729569
7.8430805 -2.5677159 -1.7591292 4293729569
5.1531205 -1.6765798 -1.8489361 4288085770
9.6720543 -3.1778083 -1.6912596 4293729569
5.6571226 -1.85659 -1.73897 4293729569
10.74403 -3.5638711 -1.6943314 4293729569
5.123116 -1.7045816 -1.8529267 4288085770
7.807075 -2.6167178 -1.760116 4293729569
9.6380472 -3.241811 -1.6942446 4293729569
10.41303 -3.5178566 -1.6962972 4293729569
5.6141195 -1.8835903 -1.7389592 4293729569
5.0901117 -1.732583 -1.8549169 4288085770
10.12403 -3.4808447 -1.7022667 4293729569
7.7680693 -2.6637199 -1.7601027 4293729569
9.6070395 -3.3058143 -1.6972301 4293729569
5.5291185 -1.8955861 -1.7269455 4293729569
9.8160295 -3.4348304 -1.7032353 4293729569
7.6920662 -2.6987174 -1.7500869 4293729569
9.5870323 -3.3738184 -1.7012162 4293729569
5.452117 -1.9095825 -1.7149326 4293729569
9.520031 -3.3878169 -1.7032052 4293729569
7.6330619 -2.7377167 -1.7440727 4293729569
9.5630264 -3.4398212 -1.703202 4293729569
5.3961148 -1.929581 -1.7089214 4293729569
9.2420301 -3.3438041 -1.704177 4293729569
7.615056 -2.7907197 -1.7460611 4293729569
9.5580177 -3.5128267 -1.7081894 4293729569
5.3331122 -1.9465786 -1.6999097 4293729569
8.9720316 -3.297792 -1.7051502 4293729569
8.7130318 -3.2537801 -1.7051243 4293729569
5.2511125 -1.9545739 -1.6848972 4293729569
9.5520105 -3.5848308 -1.7111766 4293729569
7.5470529 -2.8257174 -1.7350461 4293729569
8.4640331 -3.2087684 -1.7060997 4293729569
5.2191086 -1.9825747 -1.6848876 4293729569
9.5300045 -3.6508338 -1.7111629 4293729569
7.4670501 -2.8547137 -1.7220305 4293729569
8.2310333 -3.1677577 -1.7070765 4293729569
5.1581068 -1.9975719 -1.6738764 4293729569
9.5329962 -3.7288389 -1.7141501 4293729569
8.0120335 -3.1287479 -1.7100546 4293729569
7.4110465 -2.8917127 -1.7130169 4293729569
7.8050327 -3.0907385 -1.7120341 4293729569
10.069977 -4.0028749 -1.7161738 4293729569
5.0771055 -2.0035667 -1.6568642 4293729569
9.5429869 -3.8078446 -1.7181385 4293729569
7.3910408 -2.9427149 -1.7110054 4293729569
7.6040325 -3.0527298 -1.7150145 4293729569
9.7389803 -3.9218581 -1.7171446 4293729569
5.0161047 -2.0165634 -1.6448534 4293729569
9.5539799 -3.8868501 -1.7211268 4293729569
7.3770356 -2.9957173 -1.7099944 4293729569
9.4379816 -3.8498435 -1.7201179 4293729569
7.3910336 -3.0077193 -1.7129942 4293729569
5.0050998 -2.0485656 -1.6488458 4293729569
9.127985 -3.7688272 -1.7180915 4293729569
7.1970339 -2.9677098 -1.7129756 4293729569
9.5509729 -3.9608538 -1.7201141 4293729569
7.3780289 -3.0547214 -1.7119843 4293729569
8.8439884 -3.6948125 -1.717067 4293729569
7.0050354 -2.9267001 -1.7119573 4293729569
4.9810967 -2.0765672 -1.6478372 4293729569
7.3690233 -3.1087239 -1.710974 4293729569
8.5549917 -3.6147962 -1.7130431 4293729569
6.832036 -2.8896923 -1.7129409 4293729569
4.9340935 -2.0925651 -1.6388278 4293729569
8.3169928 -3.554785 -1.7160223 4293729569
6.6770349 -2.858686 -1.7169256 4293729569
7.3800159 -3.172729 -1.7139643 4293729569
8.0769958 -3.4897723 -1.7160019 4293729569
6.502037 -2.8166769 -1.7149097 4293729569
4.8550944 -2.094559 -1.6178163 4293729569
7.8509974 -3.4277608 -1.7169827 4293729569
7.3730106 -3.2287314 -1.7119538 4293729569
6.3580365 -2.7856708 -1.7188959 4293729569
7.6290002 -3.3657494 -1.7159642 4293729569
4.8120928 -2.1115575 -1.6088073 4293729569
6.2030373 -2.7486627 -1.7178814 4293729569
7.4160028 -3.3037379 -1.7149466 4293729569
7.3920026 -3.2957366 -1.7149448 4293729569
4.7190948 -2.1045492 -1.5827955 4293729569
6.0040417 -2.6886501 -1.7028652 4293729569
7.200006 -3.2377255 -1.7099293 4293729569
5.8360448 -2.6406395 -1.693851 4293729569
7.4079962 -3.3617415 -1.7169355 4293729569
7.0230069 -3.1877172 -1.7129145 4293729569
4.6940923 -2.126549 -1.5777879 4293729569
6.8330097 -3.1297064 -1.7098992 4293729569
5.7010455 -2.6056333 -1.693839 4293729569
7.4199886 -3.4257457 -1.7169262 4293729569
6.6550126 -3.0746965 -1.7078849 4293729569
4.6540904 -2.1415474 -1.5677793 4293729569
5.5640464 -2.5696259 -1.6908267 4293729569
6.4900146 -3.0236878 -1.7068716 4293729569
10.472784 -2.4333527 -0.28660715 4293729569
5.5829043 -1.2873639 -1.8335056 4288085770
10.183584 -2.3809571 -1.5675453 4293729569
8.5226889 -1.9893692 -1.7191707 4293729569
7.4647465 -1.7419839 -1.8629326 4288085770
10.447694 -2.4532313 -0.77760774 4293729569
10.433631 -2.4681478 -1.1196089 4293729569
10.437656 -2.4741907 -0.94361115 4293729569
10.474726 -2.484303 -0.51761997 4293729569
10.368577 -2.4590504 -1.4445956 4293729569
10.517802 -2.5074337 -0.023633115 4293729569
10.528753 -2.5233788 -0.27763882 4293729569
5.5088949 -1.3063416 -1.8324981 4288085770
8.4146748 -2.0223367 -1.721161 4293729569
10.121559 -2.4409411 -1.5705498 4293729569
7.3777323 -1.773958 -1.8639262 4288085770
10.498619 -2.5502026 -0.99664021 4293729569
10.368544 -2.5210428 -1.4936109 4293729569
16.149023 -3.955915 -1.7369318 4293729569
5.4418855 -1.3263216 -1.8324922 4288085770
8.3276567 -2.0613103 -1.7271563 4293729569
10.154525 -2.5249531 -1.5885762 4293729569
7.2527227 -1.796922 -1.8549111 4288085770
10.319517 -2.5720205 -1.5376154 4293729569
5.3798761 -1.346303 -1.8324871 4288085770
10.382477 -2.6500316 -1.5986451 4293729569
8.2336407 -2.096282 -1.7311494 4293729569
10.208488 -2.6139719 -1.6076072 4293729569
7.0657234 -1.7998692 -1.8278809 4288085770
5.3298645 -1.3702875 -1.8364848 4288085770
10.246461 -2.674983 -1.6296287 4293729569
8.1306267 -2.1282516 -1.7301401 4293729569
6.8677249 -1.7998133 -1.797848 4288085770
10.283446 -2.7109971 -1.6296437 4293729569
5.2758551 -1.3912712 -1.8384812 4288085770
9.9984589 -2.667901 -1.6425855 4293729569
8.0386114 -2.1622241 -1.7321333 4293729569
6.6977253 -1.8027655 -1.7718205 4288085770
10.341409 -2.8050179 -1.6476766 4293729569
14.674991 -3.9984515 -1.7386951 4288085770
9.8144484 -2.675838 -1.6645567 4293729569
5.2148442 -1.4112533 -1.8364761 4288085770
7.9855924 -2.2052081 -1.7401351 4293729569
13.986026 -3.8882277 -1.7305527 4288085770
6.5597215 -1.8137264 -1.7528002 4293729569
9.6034451 -2.6727672 -1.6805207 4293729569
10.334377 -2.8810191 -1.6546942 4293729569
5.1648345 -1.4332384 -1.8374735 4288085770
13.321063 -3.7750123 -1.7184136 4293729569
9.4194374 -2.6747038 -1.7014906 4293729569
7.9295726 -2.2481914 -1.7471365 4293729569
6.4757104 -1.8377026 -1.7477924 4293729569
10.399338 -2.9790423 -1.6717293 4293729569
5.1118245 -1.4532228 -1.8374699 4288085770
12.713096 -3.6718144 -1.7092866 4293729569
9.1464424 -2.6486149 -1.7034386 4293729569
7.8475575 -2.2831683 -1.7461315 4293729569
6.4016986 -1.8646816 -1.7437871 4293729569
12.161126 -3.5756352 -1.7011706 4293729569
10.432301 -3.0680559 -1.6837567 4293729569
8.8884478 -2.6225305 -1.7063892 4293729569
11.632156 -3.4814632 -1.692059 4293729569
7.7905388 -2.3241513 -1.7511322 4293729569
6.3456841 -1.8966653 -1.7447858 4293729569
8.6644487 -2.6044562 -1.7133473 4293729569
10.42027 -3.1440566 -1.6867735 4293729569
11.188179 -3.4073174 -1.6909665 4293729569
8.4524517 -2.5863862 -1.7223076 4293729569
7.7505178 -2.3701396 -1.759137 4293729569
6.2536755 -1.9156398 -1.7337753 4293729569
10.394241 -3.2160532 -1.6867869 4293729569
10.792198 -3.3421867 -1.6928842 4293729569
8.2774487 -2.5773263 -1.7362761 4293729569
7.6415081 -2.3931086 -1.7491246 4293729569
10.428214 -3.2830665 -1.695809 4293729569
6.1556692 -1.9316124 -1.720763 4293729569
10.397209 -3.2970591 -1.6908073 4293729569
8.1234455 -2.5732727 -1.7542496 4293729569
10.054235 -3.2159431 -1.69473 4293729569
7.559495 -2.4240854 -1.7451187 4293729569
7.9524441 -2.5602145 -1.7662178 4288085770
6.1106544 -1.9645997 -1.721764 4293729569
10.408175 -3.3810668 -1.6948297 4293729569
9.7232523 -3.1578338 -1.6966606 4293729569
7.7224536 -2.5261397 -1.7631711 4293729569
7.5314732 -2.473078 -1.7531263 4293729569
9.3912706 -3.0947242 -1.6945895 4293729569
6.0666399 -1.9965875 -1.7217647 4293729569
10.411143 -3.4630728 -1.6968504 4293729569
7.5074625 -2.4940689 -1.7621275 4293729569
9.0732889 -3.0336196 -1.6925215 4293729569
7.5068431 -2.5179508 -1.7586513 4293729569
7.2718329 -2.4479921 -1.7526031 4293729569
6.0257664 -2.0262091 -1.721334 4293729569
8.7859268 -2.9737566 -1.691934 4293729569
10.40802 -3.5364845 -1.6942881 4293729569
7.0198245 -2.3970375 -1.7375582 4293729569
8.4779158 -2.9088094 -1.6848783 4293729569
7.4358473 -2.5509632 -1.7546518 4293729569
5.9677691 -2.0532191 -1.7163345 4293729569
10.445032 -3.6304755 -1.7003192 4293729569
6.8238177 -2.3630707 -1.733525 4293729569
8.2669077 -2.8738406 -1.6948432 4293729569
7.3928518 -2.5919683 -1.7566582 4293729569
6.6528115 -2.3360982 -1.7344968 4293729569
8.108902 -2.8558612 -1.712819 4293729569
5.9267721 -2.0852249 -1.7143384 4293729569
10.448045 -3.7134743 -1.6983429 4293729569
7.9638944 -2.8408785 -1.7337973 4293729569
6.4308043 -2.2891386 -1.7204568 4293729569
7.3048558 -2.6169846 -1.7456547 4293729569
5.8907757 -2.1182299 -1.7143434 4293729569
7.7688861 -2.804908 -1.7417637 4293729569
6.2687988 -2.260165 -1.719429 4293729569
10.49906 -3.8134627 -1.7033774 4293729569
7.5748782 -2.7669384 -1.7467296 4293729569
7.2458601 -2.6509945 -1.7416571 4293729569
6.1277938 -2.2381871 -1.7224058 4293729569
5.8457789 -2.1472366 -1.7113461 4293729569
7.3568692 -2.7189741 -1.7456896 4293729569
10.541073 -3.9114532 -1.7074101 4293729569
5.9627876 -2.2052152 -1.7173767 4293729569
7.1958642 -2.6880023 -1.7396615 4293729569
7.1398602 -2.668011 -1.7416493 4293729569
5.7937808 -2.1682446 -1.710346 4293729569
5.7747812 -2.165251 -1.6993428 4293729569
6.9138508 -2.6110504 -1.7326059 4293729569
5.6197739 -2.1272767 -1.6983135 4293729569
7.1338682 -2.7200131 -1.7326632 4293729569
6.7178426 -2.5630844 -1.7275686 4293729569
5.7237844 -2.1922598 -1.6933442 4293729569
5.4517674 -2.087307 -1.6872818 4293729569
6.5358348 -2.518115 -1.724534 4293729569
5.283761 -2.0443387 -1.6732494 4293729569
7.0928721 -2.7590194 -1.7306694 4293729569
6.3378263 -2.4651499 -1.7154953 4293729569
5.7097878 -2.2312601 -1.6963537 4293729569
5.143755 -2.0113637 -1.6652232 4293729569
6.1448169 -2.4121845 -1.7054572 4293729569
7.0608778 -2.8010237 -1.7296774 4293729569
6.0058103 -2.3792064 -1.7074312 4293729569
5.02775 -1.9863827 -1.6642023 4293729569
5.6607919 -2.2562695 -1.6883548 4293729569
5.8518033 -2.3382323 -1.7044009 4293729569
4.944746 -1.9733933 -1.6731887 4293729569
5.6707945 -2.2852659 -1.6913643 4293729569
7.0168829 -2.8380308 -1.7256826 4293729569
4.8717418 -1.9634017 -1.6841772 4293729569
5.4297848 -2.2043161 -1.6563123 4293729569
5.6097946 -2.2802789 -1.6803557 4293729569
4.7847381 -1.9464141 -1.6891619 4293729569
5.2217755 -2.1363575 -1.6302682 4293729569
6.934885 -2.858048 -1.7106786 4293729569
4.7017336 -1.9304255 -1.6951473 4293729569
5.1447706 -2.1203671 -1.6412544 4293729569
5.5717974 -2.3082857 -1.674359 4293729569
4.6367292 -1.9204328 -1.7061366 4293729569
5.0367651 -2.0903847 -1.6412331 4293729569
6.8968902 -2.8950546 -1.7056845 4293729569
4.9667602 -2.0753922 -1.6532203 4293729569
4.5807257 -1.9144374 -1.7201283 4293729569
4.8787551 -2.0524051 -1.6572033 4293729569
5.5688024 -2.3512836 -1.6793709 4293729569
4.7777495 -2.0214221 -1.6561823 4293729569
6.8848963 -2.9430547 -1.7076967 4293729569
4.7287459 -2.0134254 -1.6721742 4293729569
4.6757417 -2.0024297 -1.6851647 4293729569
5.5278053 -2.3772912 -1.6723734 4293729569
4.5797358 -1.9714468 -1.6821445 4293729569
4.507731 -1.9494568 -1.6871295 4293729569
6.8749022 -2.9930546 -1.70871 4293729569
4.4457273 -1.9324647 -1.6941173 4293729569
5.5318103 -2.4222877 -1.6773868 4293729569
6.8709087 -3.0440538 -1.7097239 4293729569
5.5268145 -2.4642866 -1.6793981 4293729569
6.8649149 -3.0940533 -1.7107377 4293729569
5.510819 -2.5002887 -1.6774065 4293729569
6.8629212 -3.1450524 -1.710752 4293729569
5.5238247 -2.5492833 -1.6844223 4293729569
6.8649282 -3.1990504 -1.7117678 4293729569
5.5318298 -2.5952795 -1.6894362 4293729569
6.8649349 -3.2500494 -1.7127823 4293729569
5.5168343 -2.6312821 -1.6854448 4293729569
6.8749423 -3.3070457 -1.7138001 4293729569
5.52984 -2.6802773 -1.6904606 4293729569
6.8859501 -3.3640428 -1.7148176 4293729569
5.42484 -2.6703022 -1.6594452 4293729569
6.8989573 -3.4210393 -1.7158357 4293729569
4.9158201 -2.4534318 -1.5053227 4293729569
7.9350491 -3.9908612 -1.7291223 4293729569
6.9059653 -3.4750371 -1.7148521 4293729569
7.7150364 -3.9218974 -1.7280763 4293729569
4.5438056 -2.2985258 -1.392234 4293729569
6.9199734 -3.5340338 -1.7148708 4293729569
7.5080242 -3.8569317 -1.7260333 4293729569
4.4548044 -2.2855477 -1.3642198 4293729569
4.5288391 -2.3316052 -1.126242 4293729569
4.5668478 -2.3556108 -1.0852534 4293729569
4.4178066 -2.2995567 -1.3512197 4293729569
4.488843 -2.3386202 -1.0942392 4293729569
4.5978737 -2.3986564 -0.90826958 4293729569
4.4658399 -2.3306203 -1.1082344 4293729569
4.4888663 -2.3606727 -0.9132458 4293729569
4.4468393 -2.3386221 -1.1102344 4293729569
4.384809 -2.3145649 -1.3392199 4293729569
4.4248409 -2.3396304 -1.094232 4293729569
4.449863 -2.3596737 -0.93024093 4293729569
4.4208379 -2.34762 -1.1302339 4293729569
4.4699044 -2.3837678 -0.59725034 4293729569
4.4238601 -2.3646719 -0.95023936 4293729569
4.3648114 -2.3345702 -1.3302234 4293729569
4.3988433 -2.3566365 -1.084234 4293729569
4.4739332 -2.3978376 -0.35625502 4293729569
4.3948345 -2.3546176 -1.1502329 4293729569
4.4028578 -2.3716686 -0.97123885 4293729569
4.4259052 -2.390779 -0.58124727 4293729569
4.3688326 -2.3616154 -1.1702319 4293729569
4.4499469 -2.4108734 -0.24625604 4293729569
4.3418136 -2.3535755 -1.3212262 4293729569
4.3758454 -2.3736424 -1.0732362 4293729569
4.4219337 -2.3998499 -0.34124953 4293729569
4.3918567 -2.3836634 -0.99324107 4293729569
4.0117507 -2.1835406 -1.6251382 4293729569
4.3538313 -2.3736105 -1.1922336 4293729569
4.3738537 -2.3906596 -1.014241 4293729569
4.4489737 -2.4339354 -0.033262677 4293729569
4.4029078 -2.4087861 -0.56724983 4293729569
4.4049439 -2.4158757 -0.26125222 4293729569
4.3308172 -2.3775783 -1.3142319 4293729569
4.0227528 -2.2055392 -1.6221458 4293729569
4.3638492 -2.3976455 -1.0662417 4293729569
4.3869357 -2.4108593 -0.32624859 4293729569
4.3398294 -2.3866057 -1.2152356 4293729569
4.3648524 -2.401654 -1.0372431 4293729569
4.3889689 -2.4279401 -0.049253907 4293729569
4.0337567 -2.228538 -1.6181539 4293729569
4.378911 -2.4257936 -0.55325198 4293729569
4.3518505 -2.4106491 -1.059244 4293729569
4.3318286 -2.4015996 -1.2392391 4293729569
4.3739424 -2.4268756 -0.27625176 4293729569
4.3508515 -2.4186497 -1.0572464 4293729569
4.3178205 -2.4005816 -1.3062371 4293729569
4.367939 -2.4298656 -0.31325188 4293729569
4.0447593 -2.2495368 -1.6141611 4293729569
4.345849 -2.4226429 -1.0822469 4293729569
4.3208265 -2.4135938 -1.2632413 4293729569
4.3639679 -2.4409387 -0.066254757 4293729569
4.3609138 -2.4447999 -0.53925538 4293729569
4.0537624 -2.2695365 -1.6081681 4293729569
4.3388476 -2.4326367 -1.1052489 4293729569
4.3569417 -2.4468727 -0.29325557 4293729569
4.3358545 -2.4396539 -1.0482507 4293729569
4.3188252 -2.4305854 -1.2892461 4293729569
4.3439407 -2.4458733 -0.29925376 4293729569
4.315824 -2.430582 -1.3022457 4293729569
4.3268447 -2.4386318 -1.1272492 4293729569
4.069766 -2.2915344 -1.6041763 4293729569
4.3449674 -2.4569364 -0.082257181 4293729569
4.3268437 -2.4516244 -1.1512531 4293729569
4.3118243 -2.4435792 -1.3132489 4293729569
4.0767694 -2.3085353 -1.5961822 4293729569
4.347918 -2.4668055 -0.52526021 4293729569
4.3449426 -2.4678693 -0.31026033 4293729569
4.3338585 -2.4656556 -1.041258 4293729569
4.3148417 -2.45662 -1.1722531 4293729569
4.3379455 -2.4718773 -0.28526065 4293729569
4.092772 -2.3295341 -1.5901901 4293729569
4.3098269 -2.4555845 -1.2952523 4293729569
4.3018217 -2.4545739 -1.3362509 4293729569
4.3279662 -2.4739335 -0.099260159 4293729569
4.3198404 -2.4716115 -1.1972582 4293729569
4.0987749 -2.3445356 -1.5801952 4293729569
4.3379216 -2.4888101 -0.5122655 4293729569
4.332942 -2.4878652 -0.3272647 4293729569
4.3038206 -2.471565 -1.3632561 4293729569
4.3058381 -2.4736078 -1.217257 4293729569
4.1067786 -2.3595369 -1.5702006 4293729569
4.3348618 -2.4936566 -1.0342664 4293729569
4.3269486 -2.492882 -0.27226549 4293729569
4.3198318 -2.4905832 -1.2922636 4293729569
4.3108363 -2.4855995 -1.2412612 4293729569
4.3169661 -2.4929297 -0.1162644 4293729569
4.1207824 -2.3775363 -1.5622075 4293729569
4.3048196 -2.4875567 -1.3892609 4293729569
4.3208356 -2.4995897 -1.2672663 4293729569
4.143786 -2.3995337 -1.5572164 4293729569
4.3419256 -2.5198119 -0.50027502 4293729569
4.3279424 -2.5118601 -0.34527114 4293729569
4.3178339 -2.5065835 -1.2892681 4293729569
4.306819 -2.5035479 -1.4162658 4293729569
4.1697893 -2.4225309 -1.5512261 4293729569
4.340867 -2.5246568 -1.0282761 4293729569
4.3178325 -2.5135765 -1.31327 4293729569
4.3229527 -2.5188861 -0.25827259 4293729569
4.3458371 -2.533577 -1.2942792 4293729569
4.1837931 -2.4375315 -1.5412323 4293729569
4.3099666 -2.514925 -0.13327001 4293729569
4.3228302 -2.5225682 -1.3362732 4293729569
4.195796 -2.4505327 -1.5292375 4293729569
4.3028169 -2.5155406 -1.4412688 4293729569
4.3218284 -2.5285618 -1.3582748 4293729569
4.2188001 -2.4685311 -1.5212452 4293729569
4.3178263 -2.5305564 -1.379275 4293729569
4.3299437 -2.5388536 -0.36327919 4293729569
4.2578044 -2.4965255 -1.5172579 4293729569
4.3399305 -2.5458155 -0.48728237 4293729569
4.3178244 -2.53355 -1.4002758 4293729569
4.2838082 -2.5155237 -1.5082667 4293729569
4.3138218 -2.5335448 -1.4202754 4293729569
4.3538704 -2.5576551 -1.0242873 4293729569
4.3198166 -2.5385282 -1.4722775 4293729569
4.297812 -2.5255256 -1.4942712 4293729569
4.3218198 -2.5405364 -1.4432783 4293729569
4.3098149 -2.5335281 -1.4792749 4293729569
4.3228178 -2.5415301 -1.4642787 4293729569
4.3159561 -2.5418909 -0.24427854 4293729569
4.3129673 -2.5409191 -0.15127793 4293729569
5.7509336 -3.4042218 -1.6996964 4293729569
4.346817 -2.5665131 -1.5072888 4293729569
4.3369451 -2.5698464 -0.38228908 4293729569
4.3559361 -2.581816 -0.47529477 4293729569
4.3968182 -2.6084921 -1.5493069 4293729569
4.4348807 -2.6326373 -1.0343186 4293729569
4.3109679 -2.5639133 -0.16928442 4293729569
4.3259625 -2.5748925 -0.23128934 4293729569
4.3628139 -2.5984931 -1.5632999 4293729569
5.8449464 -3.4971998 -1.7177346 4293729569
4.2948084 -2.5675042 -1.563283 4293729569
4.3719487 -2.6168332 -0.40430686 4293729569
4.2398033 -2.5425115 -1.5682693 4293729569
4.3339705 -2.6009035 -0.1872979 4293729569
4.3479691 -2.614892 -0.2173036 4293729569
5.8729534 -3.5491946 -1.7157531 4293729569
4.1857986 -2.5175195 -1.5712558 4293729569
4.150795 -2.5025222 -1.5812473 4293729569
4.1087904 -2.4835272 -1.5882369 4293729569
4.383976 -2.6548882 -0.20831949 4293729569
4.0607853 -2.4585342 -1.5912241 4293729569
4.0227814 -2.4385386 -1.5972137 4293729569
5.918963 -3.6121852 -1.7187768 4293729569
3.9907782 -2.4225414 -1.6052053 4293729569
3.8957622 -2.3645411 -1.6601774 4293729569
3.9197657 -2.3805392 -1.652185 4293729569
3.9687746 -2.4115419 -1.6161997 4293729569
3.9257681 -2.3855424 -1.637187 4293729569
3.9447713 -2.3975425 -1.6261928 4293729569
5.9669719 -3.6761756 -1.721801 4293729569
6.0049796 -3.7331691 -1.7208222 4293729569
6.040988 -3.7881629 -1.7178426 4293729569
6.0929971 -3.853153 -1.7198676 4293729569
6.1520076 -3.9221418 -1.7218946 4293729569
6.2150187 -3.99313 -1.7239228 4293729569
7.8504996 5.4614034 -1.6942664 4288085770
7.9645038 5.5393987 -1.6852708 4288085770
7.7304969 5.3764071 -1.7002624 4288085770
8.1155052 5.6413946 -1.6822768 4288085770
7.6294932 5.3024111 -1.7092597 4288085770
8.2675095 5.7413898 -1.6762836 4288085770
7.5264902 5.2254148 -1.7172574 4288085770
8.4255123 5.8433857 -1.672291 4288085770
7.426487 5.1484184 -1.7232553 4288085770
8.6125145 5.9633808 -1.6702999 4288085770
7.3374844 5.0784211 -1.731254 4288085770
8.7865191 6.0713763 -1.664309 4288085770
7.2304821 4.9934239 -1.7332526 4288085770
8.9945221 6.2003703 -1.6633201 4288085770
7.141479 4.918427 -1.7382523 4288085770
9.2355242 6.3493657 -1.6653329 4288085770
7.0514765 4.8424296 -1.7422522 4288085770
9.6415243 6.6063619 -1.6933537 4288085770
6.9684739 4.7704315 -1.746253 4288085770
10.79455 7.3833261 -1.6444005 4288085770
11.059556 7.5643191 -1.6374108 4288085770
10.601545 7.2503333 -1.6583933 4288085770
11.358561 7.7643113 -1.6334233 4288085770
10.431539 7.1293402 -1.6743881 4288085770
11.706566 7.9953027 -1.6334382 4288085770
10.259534 7.0053473 -1.6873828 4288085770
9.940527 6.7873559 -1.6983706 4288085770
6.8734713 4.6874342 -1.7462535 4288085770
10.061529 6.860353 -1.6953775 4288085770
9.8235264 6.6863575 -1.6933709 4288085770
10.20253 6.9393506 -1.6963869 4288085770
9.4995232 6.4523606 -1.6733614 4288085770
6.7554688 4.5874357 -1.7392536 4288085770
9.2255201 6.2503643 -1.6603544 4288085770
10.437536 7.0693426 -1.6854031 4288085770
6.6784668 4.5144382 -1.7402555 4288085770
9.0495157 6.113369 -1.6613516 4288085770
10.65554 7.1833348 -1.6704197 4288085770
8.8885117 5.9853735 -1.6643493 4288085770
6.5674653 4.4184389 -1.7332557 4288085770
8.7635078 5.8793774 -1.6713494 4288085770
10.886543 7.3023267 -1.6554376 4288085770
6.4954624 4.3474407 -1.7342582 4288085770
8.6285048 5.7653809 -1.6753494 4288085770
11.161548 7.4463186 -1.6444584 4288085770
6.4214597 4.2734427 -1.7322607 4288085770
8.5085001 5.6603861 -1.6803501 4288085770
11.473552 7.6123099 -1.6354814 4288085770
8.3884954 5.5533891 -1.6833514 4288085770
6.3634567 4.209445 -1.7352641 4288085770
11.853556 7.8163028 -1.634509 4288085770
8.2984924 5.466393 -1.6923537 4288085770
6.322453 4.1544471 -1.7412688 4288085770
8.2134886 5.3803968 -1.699357 4288085770
6.2674494 4.0904493 -1.7432729 4288085770
8.131484 5.2944002 -1.7073607 4288085770
6.2314467 4.0384517 -1.7482779 4288085770
8.0594797 5.2154036 -1.7143649 4288085770
6.1894431 3.9804533 -1.751283 4288085770
7.9764743 5.1264071 -1.7193694 4288085770
7.8954706 5.0394096 -1.7233734 4288085770
6.1504402 3.9244559 -1.7542882 4288085770
7.8304667 4.960413 -1.7293791 4288085770
6.1064367 3.8644571 -1.7552936 4288085770
7.7624631 4.8794155 -1.7333845 4288085770
6.0854335 3.8174596 -1.7623004 4288085770
7.6894584 4.7954183 -1.7353896 4288085770
6.0484295 3.7604609 -1.7633064 4288085770
7.6184549 4.7104201 -1.7363952 4288085770
6.0504251 3.7264638 -1.7743144 4288085770
7.5144525 4.6054215 -1.7293992 4288085770
6.021421 3.6724656 -1.7773213 4288085770
7.4674482 4.5344238 -1.7344065 4288085770
6.0104175 3.6294677 -1.7833292 4288085770
7.3754449 4.4364257 -1.728411 4288085770
5.9944134 3.5814693 -1.7873372 4288085770
7.3234415 4.3604274 -1.7294185 4288085770
5.9784093 3.5334709 -1.7913452 4288085770
7.2714376 4.2854285 -1.7294255 4288085770
5.9594059 3.4834723 -1.793353 4288085770
7.2144341 4.2074299 -1.7274325 4288085770
5.9524016 3.4404743 -1.7983617 4288085770
7.1944299 4.1504326 -1.7344418 4288085770
13.755532 7.923265 -1.6478602 4288085770
5.9373984 3.3914754 -1.80037 4288085770
7.1884246 4.1004348 -1.7424523 4288085770
13.453523 7.6592727 -1.6488621 4288085770
5.9273949 3.3444767 -1.802379 4288085770
7.1614208 4.0384378 -1.7464613 4288085770
13.234515 7.4432797 -1.6568691 4288085770
3.6543612 2.0395315 -1.8142333 4288085770
3.6203604 2.0205328 -1.8162311 4288085770
3.687362 2.0575304 -1.8112357 4288085770
3.6303561 2.0255375 -1.8402318 4288085770
3.7293622 2.0795298 -1.8122389 4288085770
5.9063916 3.2914774 -1.8013871 4288085770
7.128417 3.9714386 -1.7464703 4288085770
3.7753627 2.1035283 -1.8122423 4288085770
3.8163631 2.1235271 -1.8102458 4288085770
13.074505 7.2632871 -1.6708792 4288085770
3.8613636 2.1445258 -1.8092498 4288085770
3.9133637 2.1695254 -1.8102542 4288085770
3.9673636 2.1935244 -1.8112594 4288085770
4.0213633 2.2175236 -1.8112644 4288085770
7.1214128 3.9184403 -1.7524813 4288085770
5.9093881 3.2514791 -1.806397 4288085770
4.0783634 2.2415218 -1.8102702 4288085770
12.907497 7.0802932 -1.6818891 4288085770
4.1373634 2.266521 -1.811276 4288085770
4.2003632 2.2925196 -1.8112824 4288085770
4.2703629 2.3215187 -1.8132895 4288085770
7.0974088 3.856442 -1.7544909 4288085770
5.8993835 3.2034802 -1.8074062 4288085770
12.78749 6.9232998 -1.6969017 4288085770
4.3353629 2.3465171 -1.8122964 4288085770
4.4043627 2.371516 -1.8123041 4288085770
7.0874038 3.8024435 -1.7585016 4288085770
4.3413615 2.3275166 -1.807302 4288085770
4.4013615 2.3595157 -1.8103064 4288085770
4.4513621 2.3855145 -1.8083103 4288085770
5.8733802 3.1464806 -1.8024142 4288085770
4.4723625 2.3965142 -1.8103118 4288085770
4.2913604 2.2995179 -1.8072987 4288085770
4.512363 2.4175131 -1.809315 4288085770
4.2403593 2.2705188 -1.8062953 4288085770
4.5663638 2.4435115 -1.8063195 4288085770
4.1953583 2.24352 -1.8072927 4288085770
12.592482 6.7273054 -1.7019088 4288085770
4.6303639 2.47451 -1.806325 4288085770
4.1523581 2.2175214 -1.8072901 4288085770
4.7023644 2.5085087 -1.8083313 4288085770
4.5453615 2.4225125 -1.8093202 4288085770
4.1183562 2.1945231 -1.8102889 4288085770
4.7693653 2.5395069 -1.8063372 4288085770
4.0823555 2.1705239 -1.8112874 4288085770
4.8293662 2.565505 -1.802343 4288085770
4.043354 2.1435249 -1.8102858 4288085770
4.624362 2.4505112 -1.8093293 4288085770
4.9023662 2.5965028 -1.8003502 4288085770
7.0813999 3.748445 -1.7625129 4288085770
4.0103531 2.1195259 -1.8112849 4288085770
5.8673773 3.0994816 -1.8034239 4288085770
4.9793668 2.6295011 -1.7993578 4288085770
12.178477 6.4193091 -1.6728987 4288085770
4.7063608 2.4785094 -1.809339 4288085770
3.9803522 2.0965269 -1.8122844 4288085770
5.0703669 2.6684995 -1.8013668 4288085770
3.9493511 2.0725281 -1.8122838 4288085770
5.1533675 2.7014976 -1.7993754 4288085770
4.7843614 2.5035074 -1.8063487 4288085770
7.0803962 3.6974466 -1.7665244 4288085770
3.9223497 2.0495288 -1.8132837 4288085770
5.2443676 2.7384956 -1.7993848 4288085770
5.8513741 3.0484815 -1.8004324 4288085770
11.938472 6.2043133 -1.6659013 4288085770
5.3413677 2.7764938 -1.800395 4288085770
4.8703609 2.5315056 -1.805359 4288085770
3.9053473 2.0305305 -1.8172847 4288085770
5.4423676 2.8154917 -1.800406 4288085770
3.8763463 2.0055306 -1.815285 4288085770
4.9573603 2.5595038 -1.8033696 4288085770
7.085391 3.6484482 -1.7725369 4288085770
5.5523672 2.8584898 -1.8024176 4288085770
3.848345 1.9805313 -1.8132852 4288085770
5.8603692 3.0084829 -1.8034436 4288085770
11.773464 6.0323186 -1.6689086 4288085770
5.0363607 2.5815005 -1.7973801 4288085770
5.667367 2.9024878 -1.8044301 4288085770
3.8213439 1.9545318 -1.8112859 4288085770
5.7753668 2.940485 -1.8024426 4288085770
5.13836 2.6134992 -1.7993928 4288085770
3.8023422 1.9325324 -1.8112872 4288085770
7.0913863 3.5994499 -1.7775493 4288085770
5.8853674 2.978482 -1.7984556 4288085770
5.8543663 2.9614835 -1.8024533 4288085770
11.654458 5.8843231 -1.6749196 4288085770
5.2553582 2.652498 -1.8034067 4288085770
3.7923393 1.914534 -1.8152894 4288085770
6.009367 3.0224795 -1.7994697 4288085770
3.7713385 1.8905342 -1.8132907 4288085770
5.3613582 2.6834955 -1.8024205 4288085770
7.0863829 3.5444505 -1.7785611 4288085770
6.1303678 3.0634766 -1.7964841 4288085770
5.8463626 2.9124842 -1.8004631 4288085770
11.553451 5.7473269 -1.6819315 4288085770
3.7593362 1.8705351 -1.8142931 4288085770
6.2473679 3.1004729 -1.7904985 4288085770
5.4753575 2.7174935 -1.8034351 4288085770
7.1053782 3.5014524 -1.7855749 4288085770
3.7413347 1.8455355 -1.8122953 4288085770
6.3953686 3.1514704 -1.7925159 4288085770
5.5943561 2.752491 -1.8044504 4288085770
5.8453593 2.8674843 -1.7994734 4288085770
11.490442 5.6293316 -1.6939465 4288085770
6.561367 3.2084675 -1.7965356 4288085770
3.7483311 1.8335378 -1.8212994 4288085770
5.7123556 2.7844889 -1.8034663 4288085770
7.150372 3.4704542 -1.7975909 4288085770
6.6973677 3.2494636 -1.7915527 4288085770
3.72633 1.8075376 -1.8153011 4288085770
5.819356 2.8104856 -1.7974813 4288085770
5.8393564 2.8194847 -1.7964832 4288085770
11.422437 5.509336 -1.7039609 4288085770
6.8563681 3.2994604 -1.7905724 4288085770
5.937355 2.8404825 -1.7934976 4288085770
7.1223688 3.4034543 -1.7916009 4288085770
7.0293679 3.3544564 -1.790594 4288085770
11.368429 5.3973398 -1.7139763 4288085770
5.8533516 2.7804856 -1.7984951 4288085770
6.0793548 2.8784795 -1.7945169 4288085770
