# .PCD v0.7 - Point Cloud Data file format
VERSION 0.7
FIELDS x y z rgb
SIZE 4 4 4 4
TYPE F F F U
COUNT 1 1 1 1
WIDTH 1119
HEIGHT 1
VIEWPOINT 0 0 0 1 0 0 0
POINTS 1119
DATA ascii
12.060549 0.23291582 -1.9380395 4288085770
17.367193 0.34787148 -1.9767392 4288085770
7.8045592 0.1230289 -1.879302 4288085770
18.595207 0.32875204 -1.9619089 4288085770
19.507847 0.33692211 -1.967738 4288085770
6.5051179 0.092227884 -1.8621558 4288085770
18.44936 0.30209503 -1.9828218 4288085770
12.683817 0.19764277 -1.9546789 4288085770
8.0470581 0.10091373 -1.8795658 4288085770
6.6826491 0.07201954 -1.8613564 4288085770
19.514309 0.24880451 -1.9739019 4288085770
13.431079 0.16074249 -1.9814361 4288085770
8.3365612 0.078427203 -1.8858738 4288085770
6.8782229 0.053284995 -1.8635707 4288085770
14.259303 0.12146742 -2.0102723 4282675967
9.9621706 0.074665643 -1.9053836 4288085770
10.393482 0.078985117 -1.9077743 4288085770
10.831797 0.083088435 -1.9041723 4288085770
9.5268087 0.06845618 -1.8969921 4288085770
11.332083 0.085377894 -1.9046308 4288085770
9.158473 0.062286548 -1.8946626 4288085770
11.946429 0.088332303 -1.9161934 4288085770
8.6360292 0.054648697 -1.8921933 4288085770
8.7561045 0.055100724 -1.8823035 4288085770
12.664783 0.090241708 -1.9348541 4288085770
8.422761 0.047897622 -1.8770082 4288085770
7.0777402 0.032432541 -1.8637925 4288085770
13.615223 0.09236718 -1.9767289 4288085770
8.0994148 0.040397346 -1.8697227 4288085770
7.9502177 0.035788715 -1.8705932 4288085770
7.6380105 0.032952644 -1.8603096 4288085770
8.2514095 0.037937082 -1.8738678 4288085770
14.527554 0.090583019 -1.9995755 4288085770
7.3867984 0.029339202 -1.8590838 4288085770
7.7940621 0.03236828 -1.8624549 4288085770
8.5985785 0.038743161 -1.8821871 4288085770
8.9427538 0.039630286 -1.8865038 4288085770
7.1565776 0.025114223 -1.8608786 4288085770
6.9223638 0.020996235 -1.8566693 4288085770
15.334779 0.08584445 -1.9953305 4288085770
9.3498974 0.038679488 -1.8978819 4288085770
7.5166993 0.023520343 -1.8572142 4288085770
14.99233 0.075952612 -2.0140314 4282675967
6.7061138 0.015356183 -1.8554795 4288085770
9.8140421 0.037060134 -1.913314 4288085770
8.9444933 0.030599087 -1.8945216 4288085770
16.118908 0.07776656 -1.9790698 4288085770
7.2673783 0.015852265 -1.8549976 4288085770
6.4888673 0.0097402707 -1.8512888 4288085770
10.196125 0.0338201 -1.908673 4288085770
7.3032985 0.012820624 -1.868036 4288085770
6.2956376 0.0044231638 -1.8501198 4288085770
17.116081 0.068446778 -1.9750084 4288085770
10.641178 0.028738461 -1.9090935 4288085770
7.037025 0.0066275001 -1.8528011 4288085770
6.1103802 -0.0021309853 -1.8469601 4288085770
11.104198 0.022122957 -1.9055334 4288085770
18.344238 0.055353984 -1.9801672 4288085770
6.8146691 -0.002833955 -1.8496127 4288085770
9.3369703 0.0061006099 -1.9089284 4288085770
5.9251246 -0.0086886995 -1.8418006 4288085770
11.651178 0.013052627 -1.9090555 4288085770
15.670268 0.028033286 -2.0027442 4288085770
19.570263 0.03730166 -1.9703331 4288085770
7.5238318 -0.0076514482 -1.8672769 4288085770
6.6243534 -0.011227787 -1.8524517 4288085770
5.7708521 -0.01614299 -1.8446715 4288085770
12.298169 0.0030564517 -1.9206715 4288085770
6.4199963 -0.021221604 -1.8472805 4288085770
5.6125865 -0.023488555 -1.8425382 4288085770
13.126124 -0.010228559 -1.9494609 4288085770
9.7234221 -0.019228775 -1.9183311 4288085770
7.8043609 -0.02886958 -1.8765742 4288085770
5.4563212 -0.030894749 -1.8394071 4288085770
6.2356558 -0.030797455 -1.8461274 4288085770
16.419121 -0.023971587 -1.9895297 4288085770
14.087046 -0.026408494 -1.9853783 4288085770
5.3140788 -0.037711821 -1.8372878 4288085770
14.981843 -0.046679638 -1.9992417 4288085770
6.0503216 -0.040350929 -1.8409731 4288085770
10.123841 -0.045974612 -1.9237493 4288085770
8.0998802 -0.05052809 -1.8858863 4288085770
5.1937971 -0.046163224 -1.8411916 4288085770
15.749486 -0.07125584 -1.9859955 4288085770
5.8949986 -0.049776532 -1.8418465 4288085770
17.434988 -0.078789718 -1.9965674 4288085770
5.0625243 -0.054300342 -1.840085 4288085770
10.566239 -0.07395193 -1.9302084 4288085770
16.696045 -0.10107302 -1.9819241 4288085770
5.7336555 -0.060031615 -1.8387156 4288085770
8.3753834 -0.0726116 -1.8871804 4288085770
4.93925 -0.062672533 -1.8389859 4288085770
18.589788 -0.13768794 -2.0047402 4288085770
17.846508 -0.13686168 -1.9890518 4288085770
10.99562 -0.10255977 -1.9286566 4288085770
5.5972991 -0.071010485 -1.8416092 4288085770
8.703886 -0.095242336 -1.8945248 4288085770
4.825973 -0.071336783 -1.8388966 4288085770
19.049839 -0.17821786 -1.9862386 4288085770
5.4419866 -0.080446944 -1.8364825 4288085770
11.427973 -0.13226283 -1.9221097 4288085770
9.0563784 -0.11857788 -1.9018925 4288085770
5.30264 -0.091348417 -1.8333732 4288085770
11.925323 -0.16287079 -1.9186242 4288085770
9.4218626 -0.14229669 -1.908273 4288085770
5.1753139 -0.10160038 -1.8322738 4288085770
12.548635 -0.19615778 -1.9282602 4288085770
9.8013172 -0.1674322 -1.9106688 4288085770
5.0699778 -0.11248805 -1.837196 4288085770
13.362906 -0.23302698 -1.9550792 4288085770
10.232771 -0.19308904 -1.9171135 4288085770
14.292118 -0.27326441 -1.9870105 4288085770
4.9496818 -0.12195068 -1.8341017 4288085770
10.706203 -0.21997744 -1.9245995 4288085770
15.135304 -0.31401703 -1.9928631 4288085770
11.142632 -0.24680039 -1.9190512 4288085770
4.8423519 -0.1327868 -1.835022 4288085770
15.959481 -0.35523283 -1.9856987 4288085770
11.672044 -0.2753419 -1.9215918 4288085770
16.939583 -0.40102261 -1.9826869 4288085770
12.25243 -0.30537918 -1.9251821 4288085770
18.244579 -0.45431739 -2.003989 4288085770
12.973771 -0.33853754 -1.9409084 4288085770
19.645487 -0.51244748 -2.0143883 4288085770
13.871022 -0.37684157 -1.9698067 4288085770
14.726281 -0.41494381 -1.9796659 4288085770
15.569552 -0.45271456 -1.9775131 4288085770
16.508808 -0.49230421 -1.9764524 4288085770
17.789925 -0.54090005 -1.9977239 4288085770
19.123032 -0.59104902 -2.0040462 4288085770
18.330343 -0.56980926 -1.9742752 4288085770
17.000618 -0.54176313 -1.9569955 4288085770
8.2375813 -0.30588952 -1.8671011 4288085770
6.8269687 -0.26158461 -1.8552519 4288085770
4.9297304 -0.20833305 -1.8417902 4288085770
7.9721074 -0.30772731 -1.8685544 4288085770
6.6117282 -0.26697415 -1.8512191 4288085770
7.7137961 -0.31478506 -1.868516 4288085770
5.0452838 -0.22587323 -1.8428427 4288085770
6.4114542 -0.27381939 -1.8491915 4288085770
7.4285035 -0.32103187 -1.8584709 4288085770
6.2311993 -0.28027841 -1.8481672 4288085770
5.1508408 -0.24311513 -1.8388925 4288085770
7.2051797 -0.32916439 -1.858441 4288085770
6.0599422 -0.28701207 -1.8481451 4288085770
5.2703905 -0.26078138 -1.8379458 4288085770
19.662525 -0.83449602 -1.9767399 4288085770
6.9748921 -0.3360908 -1.8544077 4288085770
5.8936558 -0.29489976 -1.8471259 4288085770
18.339588 -0.81284988 -1.9774446 4288085770
5.4119253 -0.27911216 -1.8430047 4288085770
6.7835565 -0.34520248 -1.8563858 4288085770
17.065699 -0.79073811 -1.9631579 4288085770
5.732398 -0.30194604 -1.8441062 4288085770
5.5614276 -0.29868704 -1.8480672 4288085770
15.981719 -0.77444869 -1.9549183 4288085770
4.901875 -0.27444008 -1.8438966 4288085770
6.5662665 -0.35253546 -1.8483558 4288085770
5.5911021 -0.3105979 -1.8450933 4288085770
5.701961 -0.31699571 -1.8481258 4288085770
15.079654 -0.76373452 -1.9537237 4288085770
5.0304461 -0.29137677 -1.8469507 4288085770
6.3829618 -0.36089987 -1.8473339 4288085770
5.8534594 -0.33663875 -1.8491889 4288085770
5.4448404 -0.31810322 -1.8430772 4288085770
5.1490774 -0.30601627 -1.8459988 4288085770
14.284507 -0.75730008 -1.9545572 4288085770
6.0049844 -0.3552866 -1.8482503 4288085770
5.2666807 -0.32162884 -1.8420483 4288085770
6.2096238 -0.37057003 -1.8463163 4288085770
18.630833 -1.009667 -1.9828391 4288085770
5.3115449 -0.32700458 -1.842066 4288085770
13.336595 -0.74123544 -1.9223444 4288085770
6.1884637 -0.37590456 -1.8533213 4288085770
5.4122663 -0.33808658 -1.8461047 4288085770
17.367392 -0.97287399 -1.9755291 4288085770
18.872494 -1.0580897 -1.9679693 4288085770
6.3659439 -0.39634347 -1.8553907 4288085770
6.0373168 -0.37927604 -1.8432972 4288085770
12.572564 -0.73179328 -1.9041789 4288085770
5.5618496 -0.35467055 -1.8481622 4288085770
5.1902723 -0.33527049 -1.8440561 4288085770
16.17804 -0.93437314 -1.9602306 4288085770
6.5534186 -0.41709286 -1.8554628 4288085770
5.7223969 -0.37258711 -1.8522241 4288085770
17.654612 -1.0366766 -1.9666946 4288085770
15.136645 -0.8994121 -1.9479672 4288085770
11.967396 -0.72920436 -1.9000558 4288085770
6.7379231 -0.43675494 -1.8535324 4288085770
5.887969 -0.38966203 -1.8542856 4288085770
5.8789763 -0.3894088 -1.8412833 4288085770
14.213256 -0.86607492 -1.9367293 4288085770
5.0589805 -0.34423894 -1.8400456 4288085770
6.0365787 -0.40522882 -1.8493412 4288085770
6.965344 -0.45971981 -1.8596162 4288085770
16.461847 -1.0120641 -1.9504192 4288085770
13.389848 -0.83481091 -1.9245149 4288085770
11.38725 -0.72639358 -1.8909374 4288085770
6.219141 -0.42282355 -1.8524069 4288085770
12.643433 -0.80490875 -1.9143176 4288085770
7.2017598 -0.48296434 -1.8637019 4288085770
5.7416544 -0.39918065 -1.8432728 4288085770
6.4276867 -0.44120923 -1.859479 4288085770
4.9526753 -0.35396248 -1.8430411 4288085770
11.996966 -0.77806926 -1.9081451 4288085770
7.4342055 -0.50509447 -1.8637851 4288085770
15.436976 -0.99360245 -1.937187 4288085770
6.6312351 -0.4594501 -1.86155 4288085770
11.384545 -0.75028366 -1.8979777 4288085770
19.21557 -1.2274995 -1.9833268 4288085770
7.7125678 -0.53061944 -1.8718833 4288085770
6.8238196 -0.47636363 -1.8586165 4288085770
10.889035 -0.72708821 -1.887841 4288085770
10.849054 -0.72584969 -1.8938311 4288085770
17.836975 -1.1611955 -1.9709435 4288085770
7.0553498 -0.49546027 -1.8626944 4288085770
10.355573 -0.70170659 -1.8896931 4288085770
7.9670024 -0.55343008 -1.8689719 4288085770
7.3088698 -0.51523048 -1.8677778 4288085770
9.9160624 -0.67921746 -1.8875686 4288085770
5.5983391 -0.40877387 -1.8422608 4288085770
16.59831 -1.0991892 -1.958595 4288085770
7.5614181 -0.53397834 -1.8688593 4288085770
8.2673807 -0.57863694 -1.8740739 4288085770
9.4965734 -0.65634739 -1.8834474 4288085770
7.8309588 -0.55324453 -1.8719449 4288085770
14.552037 -0.97943181 -1.9279896 4288085770
9.1240301 -0.63591146 -1.8833396 4288085770
8.1534405 -0.57512534 -1.8810453 4288085770
15.528533 -1.0433675 -1.9472901 4288085770
8.4439964 -0.59404629 -1.8791348 4288085770
8.768508 -0.61500418 -1.8802341 4288085770
8.596715 -0.60573238 -1.8791846 4288085770
14.563674 -0.9917658 -1.9370129 4288085770
10.434831 -0.72813702 -1.8837539 4288085770
8.9300451 -0.63295585 -1.8812963 4288085770
13.70676 -0.94347775 -1.9277626 4288085770
9.2953873 -0.6601612 -1.8844144 4288085770
12.921783 -0.8984037 -1.9155318 4288085770
9.6786919 -0.68892103 -1.8855386 4288085770
12.244691 -0.85863119 -1.9093312 4288085770
10.08998 -0.71854037 -1.8866696 4288085770
11.613605 -0.81927758 -1.9001403 4288085770
11.052455 -0.78306592 -1.8939686 4288085770
10.55721 -0.75087178 -1.8908165 4288085770
5.470016 -0.41882411 -1.8432527 4288085770
13.748032 -0.96874809 -1.9178138 4288085770
10.001591 -0.73083103 -1.8786734 4288085770
13.031986 -0.96076447 -1.9086599 4288085770
5.3277054 -0.42845905 -1.8362409 4288085770
9.6233234 -0.73520648 -1.8776065 4288085770
12.375946 -0.95362455 -1.8995191 4288085770
5.2063832 -0.43872634 -1.8362341 4288085770
9.2680473 -0.74028993 -1.8755453 4288085770
11.806833 -0.95014864 -1.8934013 4288085770
5.103025 -0.45053959 -1.8392336 4288085770
8.9357929 -0.74508303 -1.8724881 4288085770
19.459864 -1.5558127 -1.9759363 4288085770
18.510912 -1.5076578 -1.988668 4288085770
11.278674 -0.94893008 -1.8872955 4288085770
4.9917026 -0.4611159 -1.8382295 4288085770
8.6235018 -0.7514888 -1.8694377 4288085770
18.374199 -1.5634618 -1.9657365 4288085770
17.310354 -1.4768093 -1.9733796 4288085770
10.837442 -0.95136666 -1.889213 4288085770
8.3671532 -0.76059806 -1.8744025 4288085770
4.8873768 -0.4719055 -1.8382269 4288085770
16.254728 -1.4504054 -1.9621277 4288085770
10.401241 -0.95297092 -1.8841299 4288085770
17.403543 -1.5726446 -1.9555616 4288085770
8.0898781 -0.76708364 -1.8693589 4288085770
15.319161 -1.4236895 -1.9518983 4288085770
10.029981 -0.95755863 -1.8850645 4288085770
7.8365922 -0.77430081 -1.867321 4288085770
16.512974 -1.5802937 -1.9433998 4288085770
14.459652 -1.3963138 -1.9406826 4288085770
9.6727152 -0.96258157 -1.8830026 4288085770
7.6012702 -0.78306931 -1.8652893 4288085770
13.706058 -1.3731813 -1.934495 4288085770
9.339469 -0.96734124 -1.8819448 4288085770
15.761247 -1.5951911 -1.9392773 4288085770
7.3759751 -0.79114825 -1.8622586 4288085770
12.995567 -1.3473827 -1.9243112 4288085770
9.0172224 -0.97244418 -1.87789 4288085770
12.351071 -1.3226061 -1.917142 4288085770
7.1746402 -0.80095714 -1.8622352 4288085770
15.055623 -1.6075163 -1.9301593 4288085770
18.884705 -2.0228074 -1.9966198 4288085770
8.7348967 -0.98076504 -1.8778481 4288085770
11.791505 -1.3014286 -1.9149958 4288085770
6.9713378 -0.80971175 -1.8592097 4288085770
17.578688 -1.9397563 -1.9792215 4288085770
11.237027 -1.2774199 -1.9068455 4288085770
14.43493 -1.6234406 -1.9260641 4288085770
8.4646254 -0.98745918 -1.8768059 4288085770
16.456398 -1.868335 -1.9668788 4288085770
10.763477 -1.2568855 -1.9047171 4288085770
6.7810035 -0.81986427 -1.856189 4288085770
15.449019 -1.8014443 -1.9535666 4288085770
8.1883631 -0.99397665 -1.8717622 4288085770
10.305979 -1.2348489 -1.9005892 4288085770
13.881236 -1.6404235 -1.9219836 4288085770
14.547527 -1.7398008 -1.942284 4288085770
6.6086602 -0.83056396 -1.8561727 4288085770
9.9323158 -1.2193668 -1.906489 4288085770
18.965462 -2.2671318 -1.9990515 4288085770
7.9510503 -1.0026846 -1.8697298 4288085770
13.754862 -1.6854882 -1.9360352 4288085770
9.527853 -1.196962 -1.9013709 4288085770
13.361561 -1.6574539 -1.9169098 4288085770
6.4363484 -0.84026909 -1.8541547 4288085770
13.028162 -1.6332052 -1.9278028 4288085770
9.1444063 -1.1742051 -1.8952564 4288085770
17.909893 -2.2397408 -1.9827967 4288085770
7.7406955 -1.0132128 -1.8717057 4288085770
12.3684 -1.5839754 -1.9205887 4288085770
8.7979126 -1.1535771 -1.8921527 4288085770
6.283998 -0.85158306 -1.8541434 4288085770
12.890922 -1.67399 -1.9128447 4288085770
11.774539 -1.5387648 -1.9153947 4288085770
8.4754324 -1.1326872 -1.8890533 4288085770
7.512444 -1.0202075 -1.8656722 4288085770
17.009159 -2.2200878 -1.9755853 4288085770
11.227628 -1.4959955 -1.9102138 4288085770
8.1629515 -1.1121062 -1.8849565 4288085770
6.1386471 -0.86311221 -1.8541337 4288085770
10.753558 -1.4594502 -1.9110579 4288085770
7.8874164 -1.0936521 -1.8848705 4288085770
12.439279 -1.6911151 -1.9057842 4288085770
7.3170877 -1.0312003 -1.8656517 4288085770
10.309499 -1.4228306 -1.9099078 4288085770
7.59901 -1.0708176 -1.8777746 4288085770
18.757404 -2.5355949 -1.9854665 4288085770
16.134653 -2.1932545 -1.9633669 4288085770
9.863534 -1.3831631 -1.9037521 4288085770
7.3554587 -1.0533456 -1.8776965 4288085770
19.561596 -2.6731923 -2.0018587 4288085770
6.0072598 -0.87606615 -1.8561292 4288085770
9.4534893 -1.3465976 -1.8976089 4288085770
7.1020312 -1.0315816 -1.8726094 4288085770
7.1177945 -1.0400805 -1.8616267 4288085770
12.05951 -1.7134335 -1.9057467 4288085770
9.0993252 -1.3147357 -1.8974845 4288085770
6.8755012 -1.0136366 -1.8705339 4288085770
15.320216 -2.1652679 -1.951158 4288085770
17.872431 -2.5244265 -1.9752722 4288085770
8.7452202 -1.2808856 -1.892357 4288085770
6.672956 -0.99642444 -1.8704644 4288085770
5.8719072 -0.88790452 -1.855122 4288085770
6.4734373 -0.97830588 -1.8703941 4288085770
8.4101048 -1.2476202 -1.8862342 4288085770
18.96888 -2.7239561 -1.9968275 4288085770
6.9404616 -1.0506312 -1.859609 4288085770
6.2839131 -0.96049595 -1.8693261 4288085770
8.1039429 -1.2162402 -1.8821201 4288085770
14.621597 -2.1448221 -1.9469849 4288085770
6.0914488 -0.94060212 -1.8652542 4288085770
11.693798 -1.7341887 -1.9037089 4288085770
7.8247046 -1.18768 -1.8810163 4288085770
5.9218841 -0.92440271 -1.865193 4288085770
5.7415833 -0.89889967 -1.8531141 4288085770
17.075384 -2.5169582 -1.9651015 4288085770
7.5564618 -1.1594613 -1.8779153 4288085770
5.7514048 -0.90518218 -1.8621266 4288085770
7.3132024 -1.1320059 -1.8768203 4288085770
5.5998278 -0.88953334 -1.8630699 4288085770
6.7741256 -1.0615178 -1.8585938 4288085770
7.0669465 -1.1044657 -1.8717247 4288085770
5.4283805 -0.86929065 -1.8560015 4288085770
6.8317132 -1.0762628 -1.8676304 4288085770
5.2818565 -0.8518033 -1.8539429 4288085770
13.976042 -2.1230059 -1.9438198 4288085770
18.442163 -2.7757471 -1.9928108 4288085770
6.6194057 -1.0507592 -1.865545 4288085770
5.1532636 -0.83685648 -1.856892 4288085770
5.0266976 -0.82097781 -1.8568399 4288085770
6.4330225 -1.0280449 -1.8664694 4288085770
4.9041553 -0.804223 -1.8567871 4288085770
11.375003 -1.7583784 -1.9046865 4288085770
5.6241946 -0.91228569 -1.8541129 4288085770
6.2377043 -1.0030646 -1.8633882 4288085770
6.0693092 -0.98090267 -1.8643173 4288085770
4.9040194 -0.80923039 -1.8487954 4288085770
5.884984 -0.9562633 -1.859239 4288085770
5.0334435 -0.83018738 -1.8528565 4288085770
16.341312 -2.5114243 -1.9549465 4288085770
5.7295809 -0.93450373 -1.8581711 4288085770
5.1419687 -0.84752017 -1.8479073 4288085770
5.4347606 -0.89147353 -1.8570399 4288085770
5.5851402 -0.9140749 -1.860108 4288085770
5.2863522 -0.86993384 -1.8529741 4288085770
6.6117892 -1.0725293 -1.8565798 4288085770
13.368527 -2.1003633 -1.9386607 4288085770
5.5038691 -0.92358816 -1.8521076 4288085770
17.93247 -2.8270667 -1.9857965 4288085770
11.045338 -1.7782458 -1.9006541 4288085770
15.663274 -2.5056162 -1.9428018 4288085770
6.4703832 -1.0861754 -1.8585742 4288085770
12.776191 -2.0721958 -1.9304951 4288085770
5.3914843 -0.9371317 -1.8511075 4288085770
10.751597 -1.8012139 -1.8976341 4288085770
17.467823 -2.8777678 -1.9807898 4288085770
6.3300095 -1.0988575 -1.8585672 4288085770
12.252727 -2.0491328 -1.9273518 4288085770
15.111871 -2.5136752 -1.9397057 4288085770
19.043802 -3.1649358 -2.0255885 4288085770
5.2891216 -0.94998026 -1.8521082 4288085770
11.754311 -2.0248425 -1.9232112 4288085770
6.1916652 -1.1106062 -1.856559 4288085770
10.499775 -1.8274574 -1.9006277 4288085770
17.876631 -3.0571706 -2.0081742 4288085770
17.109907 -2.9387319 -1.9818214 4288085770
14.630313 -2.5278714 -1.9396335 4288085770
5.1867619 -0.96283245 -1.8511089 4288085770
11.294875 -2.0017474 -1.9200803 4288085770
16.77346 -2.9503772 -1.987774 4288085770
6.0702543 -1.1248686 -1.8575581 4288085770
10.245017 -1.8516213 -1.8986173 4288085770
14.178772 -2.5419924 -1.9385672 4288085770
16.728191 -2.9929781 -1.9778367 4288085770
10.850522 -1.9761193 -1.915948 4288085770
5.0963683 -0.97704643 -1.853114 4288085770
15.833842 -2.8605866 -1.9744349 4288085770
5.9459066 -1.1370455 -1.8565533 4288085770
10.412288 -1.9466871 -1.9088107 4288085770
10.016218 -1.8775784 -1.8986149 4288085770
13.744259 -2.5556407 -1.9355031 4288085770
15.008889 -2.7833014 -1.9671397 4288085770
18.794828 -3.4663863 -1.8630477 4293729569
5.0009813 -0.99111265 -1.852118 4288085770
16.386393 -3.0504475 -1.9748652 4288085770
5.8255296 -1.1503441 -1.8555511 4288085770
10.058737 -1.9288323 -1.9117095 4288085770
14.20711 -2.700742 -1.95384 4288085770
9.8054104 -1.9040862 -1.899617 4288085770
4.9176135 -1.0045449 -1.8531233 4288085770
13.359659 -2.5728195 -1.9334549 4288085770
17.770615 -3.3960111 -1.8347242 4293729569
9.7083035 -1.9070809 -1.9116025 4288085770
5.7191443 -1.1640705 -1.8555523 4288085770
15.62691 -3.026226 -1.9196723 4293729569
13.506066 -2.6282666 -1.9435775 4288085770
9.3569937 -1.8813105 -1.9084884 4288085770
9.6036024 -1.9308726 -1.8996211 4288085770
12.896702 -2.5675869 -1.9413528 4288085770
16.735863 -3.3103335 -1.8003725 4293729569
13.030823 -2.5986955 -1.9374322 4288085770
5.6167302 -1.1789168 -1.8565561 4288085770
14.790231 -2.9746759 -1.8494174 4293729569
9.0177078 -1.8549136 -1.9033755 4288085770
12.318353 -2.5068657 -1.9361346 4288085770
9.4018545 -1.9556657 -1.8976218 4288085770
15.877507 -3.2470405 -1.7780937 4293729569
12.708076 -2.6217663 -1.938406 4288085770
5.5073819 -1.1915587 -1.8535547 4288085770
8.7053747 -1.8303401 -1.9002712 4288085770
11.859515 -2.4637828 -1.9439697 4288085770
14.281928 -2.9811156 -1.816326 4293729569
8.4279623 -1.8088309 -1.9011788 4288085770
11.331169 -2.4036031 -1.935762 4288085770
5.4169903 -1.2057748 -1.8545598 4288085770
9.1951752 -1.9783144 -1.8926179 4288085770
15.265084 -3.2222435 -1.7769287 4293729569
12.407321 -2.6455142 -1.9383851 4288085770
8.1247768 -1.7795502 -1.8930683 4288085770
10.811941 -2.3397143 -1.9225502 4288085770
13.992511 -3.0272155 -1.806345 4293729569
5.3206086 -1.2198125 -1.8525634 4288085770
7.8683829 -1.7576888 -1.8929795 4288085770
14.839837 -3.2271459 -1.7948513 4293729569
10.352527 -2.2826512 -1.9143616 4288085770
9.0114241 -2.0036604 -1.890623 4288085770
12.083761 -2.6625767 -1.9323481 4288085770
15.841178 -3.4656451 -1.291453 4293729569
7.6200452 -1.7340795 -1.8908896 4288085770
9.9131031 -2.2262049 -1.9041779 4288085770
13.731112 -3.073175 -1.797369 4293729569
5.2242584 -1.2328539 -1.849565 4288085770
14.343143 -3.2128854 -1.8017271 4293729569
9.5185051 -2.176127 -1.8970139 4288085770
7.3717675 -1.7084785 -1.8857962 4288085770
8.8327017 -2.0281656 -1.8866273 4288085770
11.823928 -2.689579 -1.9333408 4288085770
15.522714 -3.5128343 -1.2914678 4293729569
9.1707287 -2.1324747 -1.8948703 4288085770
7.1513829 -1.6867234 -1.885715 4288085770
15.572637 -3.5581241 -0.27055275 4293729569
5.1418409 -1.2483166 -1.8495736 4288085770
13.799019 -3.1791954 -1.7995603 4293729569
15.493068 -3.5689671 -1.2475557 4293729569
13.513478 -3.1274691 -1.7914159 4293729569
15.592219 -3.6016622 -0.86463022 4293729569
15.469951 -3.5746622 -1.0135604 4293729569
8.8508472 -2.0926754 -1.8937386 4288085770
6.921124 -1.660678 -1.8796242 4288085770
8.6758804 -2.0563364 -1.8856424 4288085770
11.571154 -2.714803 -1.9323316 4288085770
15.537984 -3.6153011 -0.11264136 4293729569
15.445798 -3.6113834 -1.3086172 4293729569
8.5449867 -2.0523071 -1.8926088 4288085770
6.7167606 -1.6384171 -1.8785453 4288085770
5.0604525 -1.2628133 -1.8485806 4288085770
13.27095 -3.1440001 -1.7973944 4293729569
15.443025 -3.6461143 -0.25667384 4293729569
15.41385 -3.6433783 -1.3116642 4293729569
8.2511187 -2.0123105 -1.8894821 4288085770
13.431022 -3.2108693 -1.8025386 4293729569
15.415074 -3.6731365 -0.88871396 4293729569
6.5213909 -1.6164325 -1.8774686 4288085770
15.419875 -3.6790884 -0.99872506 4293729569
8.5201473 -2.0815461 -1.8826525 4288085770
11.248932 -2.7209299 -1.9172761 4288085770
15.410541 -3.697283 -0.14375275 4293729569
7.9881139 -1.9772508 -1.8913697 4288085770
15.466256 -3.7319009 -1.331823 4293729569
6.3380132 -1.5948161 -1.8763949 4288085770
4.9919982 -1.2796993 -1.8515943 4288085770
12.801697 -3.1156008 -1.7992514 4293729569
15.397235 -3.7316935 -1.3818089 4293729569
15.432715 -3.758755 -0.24286017 4293729569
7.7341323 -1.9414719 -1.8912581 4288085770
6.1596327 -1.5733532 -1.8753225 4288085770
13.182802 -3.2512469 -1.7885557 4293729569
15.401822 -3.7836032 -0.92389619 4293729569
8.3912535 -2.11257 -1.8836777 4288085770
15.472173 -3.8056376 -0.98894739 4293729569
10.714281 -2.6726305 -1.8640864 4293729569
15.379506 -3.800209 -0.17791863 4293729569
7.4851775 -1.9048516 -1.889146 4288085770
12.328719 -3.0781014 -1.7960924 4293729569
5.9852791 -1.5510161 -1.8732494 4288085770
15.46709 -3.8386371 -1.4620018 4293729569
4.9185796 -1.2954407 -1.8506051 4288085770
7.2471871 -1.8695672 -1.8870385 4288085770
5.8159509 -1.5278355 -1.8701758 4288085770
7.0271544 -1.8358319 -1.885937 4288085770
13.093503 -3.3294489 -1.7946678 4293729569
8.2763205 -2.1450186 -1.8867079 4288085770
10.25529 -2.6366348 -1.8189323 4293729569
5.6655221 -1.5082264 -1.8711122 4288085770
11.844959 -3.0332844 -1.7879188 4293729569
4.8481598 -1.3112705 -1.8516165 4288085770
6.8081517 -1.8011322 -1.8828341 4288085770
5.5151229 -1.4876226 -1.8700469 4288085770
6.5892367 -1.7634439 -1.8757263 4288085770
5.3647819 -1.4650249 -1.866978 4288085770
11.388216 -2.9882946 -1.7817502 4293729569
17.177351 -4.4512477 -1.785374 4293729569
8.1713266 -2.1797714 -1.889744 4288085770
6.4060907 -1.7338372 -1.8756392 4288085770
12.884114 -3.3760128 -1.7827028 4293729569
9.8897953 -2.6184773 -1.786827 4293729569
5.2174397 -1.4425213 -1.8629102 4288085770
6.2219758 -1.7032053 -1.8735504 4288085770
5.0929623 -1.4247081 -1.8638546 4288085770
6.0488524 -1.6729087 -1.8724642 4288085770
16.052794 -4.2588763 -1.7528232 4293729569
10.962396 -2.9462509 -1.7765927 4293729569
4.9685435 -1.4049 -1.8637959 4288085770
5.8727622 -1.6415286 -1.8673756 4288085770
8.0673609 -2.2135587 -1.8917786 4288085770
9.6514759 -2.6291773 -1.7737957 4293729569
12.839581 -3.4625828 -1.7908379 4293729569
5.7255297 -1.6150196 -1.8693011 4288085770
4.8471217 -1.3851855 -1.862738 4288085770
15.286899 -4.1484232 -1.7514817 4293729569
5.5822635 -1.5896368 -1.8702286 4288085770
10.470242 -2.881211 -1.7573828 4293729569
5.4360619 -1.5621668 -1.8681526 4288085770
7.9673638 -2.2484694 -1.8938149 4288085770
5.2938852 -1.5338225 -1.8650761 4288085770
9.3973475 -2.6334062 -1.7557493 4293729569
12.653095 -3.5128512 -1.7788821 4293729569
14.70388 -4.0775352 -1.7642434 4293729569
5.1546783 -1.5065709 -1.8610017 4288085770
10.03782 -2.8259878 -1.7432013 4293729569
5.0254617 -1.479622 -1.8589301 4288085770
4.9121165 -1.457153 -1.8598691 4288085770
14.27487 -4.0413332 -1.7910943 4293729569
7.8803334 -2.2847707 -1.8978565 4288085770
9.1750841 -2.642601 -1.7417178 4293729569
9.6055756 -2.7647793 -1.7260098 4293729569
12.644307 -3.6085088 -1.7890387 4293729569
13.712084 -3.9630849 -1.7968477 4293729569
9.29848 -2.733366 -1.7268935 4293729569
7.774466 -2.3155077 -1.8958849 4288085770
8.9806871 -2.6566458 -1.7297003 4293729569
12.548261 -3.6785247 -1.7861345 4293729569
13.123705 -3.8710687 -1.796573 4293729569
9.0172501 -2.7067389 -1.7307907 4293729569
8.8160944 -2.677593 -1.7227004 4293729569
7.6815324 -2.3486373 -1.8959198 4288085770
12.549466 -3.7744985 -1.7912935 4293729569
12.465091 -3.752934 -1.7832403 4293729569
8.8055563 -2.6962214 -1.7447288 4293729569
11.936736 -3.6607745 -1.7759774 4293729569
7.6174026 -2.3886392 -1.9009721 4288085770
8.6664343 -2.7009983 -1.7157075 4293729569
8.595952 -2.6827712 -1.7576627 4293729569
12.33634 -3.8129644 -1.7733126 4293729569
11.462991 -3.5822725 -1.7757486 4293729569
8.3784723 -2.6650891 -1.7665877 4293729569
8.5317354 -2.7258589 -1.7107201 4293729569
7.5245318 -2.4197774 -1.8980038 4288085770
12.236421 -3.8788736 -1.7654005 4293729569
10.895294 -3.467941 -1.755441 4293729569
8.1363096 -2.6366656 -1.7694898 4293729569
9.1840992 -2.992027 -1.547296 4293729569
8.4465904 -2.7662189 -1.7137686 4293729569
7.4029489 -2.4410524 -1.888013 4288085770
7.9220061 -2.6130884 -1.7764057 4293729569
9.1140614 -2.9952404 -1.3372864 4293729569
8.9776363 -2.9736612 -1.5692222 4293729569
9.1052904 -3.0257449 -0.8833344 4293729569
7.708735 -2.5885451 -1.7823201 4293729569
9.1702747 -3.0644646 -0.45441148 4293729569
8.3535395 -2.8033431 -1.7138101 4293729569
7.1902356 -2.4325876 -1.853954 4288085770
8.8762703 -2.9864771 -1.607222 4293729569
9.018837 -3.0383141 -1.3263371 4293729569
9.0781364 -3.0696533 -0.44340062 4293729569
9.0730591 -3.0686994 -0.90239841 4293729569
7.4757457 -2.5544162 -1.7802147 4293729569
9.0100956 -3.0678146 -0.87538368 4293729569
8.7481613 -2.9904838 -1.6412016 4293729569
9.0435143 -3.091603 -0.42942944 4293729569
8.2635202 -2.8395615 -1.7138506 4293729569
6.9697089 -2.4178925 -1.8168827 4288085770
7.2685905 -2.5260699 -1.782124 4293729569
8.9702244 -3.0948012 -1.3214198 4293729569
9.0218401 -3.1148469 -0.47446322 4293729569
8.9661856 -3.0993598 -0.92742634 4293729569
8.5785561 -2.9772437 -1.665144 4293729569
8.9882288 -3.1331103 -0.87448657 4293729569
7.0644917 -2.4958208 -1.783031 4293729569
9.0068932 -3.1484869 -0.40751541 4293729569
8.1883993 -2.8792319 -1.7159001 4293729569
6.7680821 -2.4067721 -1.7818216 4293729569
8.4268494 -2.9675457 -1.6920958 4293729569
8.961606 -3.1579216 -0.50552148 4293729569
8.9306698 -3.1521862 -0.95950592 4293729569
8.9484158 -3.1581018 -1.3195196 4293729569
6.8812623 -2.4702046 -1.7869498 4293729569
8.254365 -2.9502256 -1.7130308 4293729569
8.9802608 -3.2018332 -0.87259805 4293729569
8.9980173 -3.2142198 -0.38462174 4293729569
8.107317 -2.917726 -1.7149462 4293729569
6.6685219 -2.4277248 -1.7718346 4293729569
8.9429884 -3.2142615 -0.53961033 4293729569
6.7060246 -2.4448338 -1.7908707 4293729569
8.9051161 -3.2063162 -0.99258971 4293729569
8.0364189 -2.914537 -1.7239257 4293729569
8.9562626 -3.2333038 -1.3196452 4293729569
6.554594 -2.4261816 -1.7998078 4288085770
9.0366297 -3.2935102 -0.87576097 4293729569
9.0287867 -3.2921598 -0.36375657 4293729569
7.8106561 -2.8726218 -1.7288089 4293729569
8.9441795 -3.2772045 -0.57471418 4293729569
8.0272923 -2.9542553 -1.7129892 4293729569
6.6076379 -2.4598446 -1.7698743 4293729569
8.9161825 -3.2735534 -1.0317026 4293729569
9.053215 -3.3392017 -1.3328401 4293729569
6.4408674 -2.4176695 -1.8157694 4288085770
7.6344428 -2.8462024 -1.743728 4293729569
9.0304794 -3.3707302 -0.61788654 4293729569
6.3350759 -2.4113963 -1.8337365 4288085770
8.9826469 -3.3614678 -1.0778615 4293729569
7.9492707 -2.9908471 -1.7110327 4293729569
7.4414792 -2.8112824 -1.7536294 4293729569
6.5615683 -2.4984112 -1.7709278 4293729569
6.2313128 -2.4041853 -1.8517025 4288085770
7.2505431 -2.7754288 -1.7615299 4293729569
7.9128318 -3.0416954 -1.7161086 4293729569
6.4591608 -2.5142848 -1.7579318 4293729569
7.0201125 -2.7223928 -1.7573932 4293729569
6.1265812 -2.3959494 -1.8676665 4288085770
6.8441663 -2.6870027 -1.7632976 4293729569
6.0347781 -2.3901036 -1.8866371 4288085770
7.8773656 -3.0935731 -1.7211863 4293729569
6.4012799 -2.5465012 -1.7539721 4293729569
6.6524396 -2.6441393 -1.7651862 4293729569
5.9113274 -2.3723109 -1.8955814 4282675967
6.4320908 -2.5884233 -1.7560476 4293729569
5.7632189 -2.3427827 -1.8955011 4282675967
7.849834 -3.1476929 -1.7262692 4293729569
6.3859239 -2.5949955 -1.7610483 4293729569
6.2731042 -2.5545549 -1.7609578 4293729569
5.6171389 -2.312319 -1.8944194 4282675967
6.1033306 -2.5133679 -1.7608536 4293729569
5.4849591 -2.2852788 -1.8943466 4282675967
7.784719 -3.1876819 -1.723321 4293729569
5.9682059 -2.4842238 -1.7687768 4293729569
6.3379488 -2.6305115 -1.759096 4293729569
5.3488708 -2.2551219 -1.8932678 4282675967
5.807426 -2.4433165 -1.7666749 4293729569
5.2048802 -2.2217314 -1.8881818 4282675967
5.6555805 -2.4046803 -1.7655789 4293729569
7.7720323 -3.2472522 -1.7304161 4293729569
6.3255911 -2.6790998 -1.765173 4293729569
5.0728459 -2.1897051 -1.8841007 4282675967
5.5255389 -2.3727009 -1.7694983 4293729569
5.417273 -2.3483791 -1.7774349 4293729569
4.9566526 -2.1631572 -1.8830321 4282675967
7.736629 -3.2971411 -1.7314904 4293729569
6.2993927 -2.7222738 -1.767238 4293729569
5.3426552 -2.3360677 -1.7943985 4288085770
4.8454261 -2.1377575 -1.8839663 4282675967
5.2858167 -2.3312879 -1.8173784 4288085770
4.7322602 -2.1103046 -1.8818967 4282675967
7.6488576 -3.3254554 -1.720518 4293729569
5.2359695 -2.3267205 -1.8413601 4288085770
6.2791319 -2.7676287 -1.769308 4293729569
5.1890626 -2.3242426 -1.8653457 4288085770
5.1204939 -2.3101194 -1.8813077 4282675967
7.62042 -3.3765583 -1.7215958 4293729569
5.0203075 -2.2830536 -1.8852416 4282675967
6.2766514 -2.8205173 -1.7763941 4293729569
4.9043679 -2.2475195 -1.8831582 4282675967
4.7993031 -2.216315 -1.8820843 4282675967
7.6127028 -3.4372871 -1.7256937 4293729569
4.694294 -2.1831148 -1.880007 4282675967
6.259387 -2.8659627 -1.7794647 4293729569
7.5892043 -3.4905407 -1.7267761 4293729569
6.2579336 -2.9178867 -1.7845494 4293729569
7.5114293 -3.5191648 -1.7148061 4293729569
6.2258325 -2.9578915 -1.7816079 4293729569
9.0816031 -4.2669253 -1.7363724 4293729569
7.4899869 -3.5704868 -1.7138858 4293729569
6.1740694 -2.9863088 -1.772643 4293729569
8.8066139 -4.1995244 -1.7372023 4293729569
7.4684892 -3.6238086 -1.7119687 4293729569
8.536624 -4.1322789 -1.7370337 4293729569
6.2031808 -3.0531521 -1.7847588 4293729569
8.2618742 -4.0568972 -1.7338508 4293729569
7.4785819 -3.6910796 -1.7170811 4293729569
6.1859479 -3.0976076 -1.7838277 4293729569
8.0168056 -3.9924152 -1.7336918 4293729569
7.4857354 -3.7562661 -1.7201896 4293729569
6.1874647 -3.1506271 -1.7869148 4288085770
7.7737947 -3.9260011 -1.7315304 4293729569
7.504703 -3.82781 -1.724311 4293729569
7.5299048 -3.8555653 -1.727362 4293729569
6.1810765 -3.2004094 -1.7879947 4288085770
7.3137269 -3.7949684 -1.7272156 4293729569
7.5177627 -3.8961744 -1.7284259 4293729569
6.1470952 -3.2363665 -1.7810462 4293729569
7.1124177 -3.7388248 -1.7270797 4293729569
7.544579 -3.9729574 -1.7325577 4293729569
6.1072087 -3.2691498 -1.7710911 4293729569
6.9210439 -3.6849837 -1.7279497 4293729569
7.55761 -4.0423265 -1.733674 4293729569
6.6933165 -3.6090572 -1.7177756 4293729569
6.1126919 -3.3232932 -1.7731807 4293729569
6.5326214 -3.5661433 -1.7236702 4293729569
7.5883908 -4.1202297 -1.7388085 4293729569
6.0905828 -3.3636115 -1.7672417 4293729569
6.4025741 -3.535156 -1.7335908 4293729569
7.6073289 -4.1927791 -1.7399316 4293729569
6.2597461 -3.4967897 -1.7384968 4293729569
6.0526953 -3.3964581 -1.7562872 4293729569
6.1495318 -3.4714031 -1.751431 4293729569
7.4589076 -4.1752429 -1.7388704 4293729569
6.01689 -3.4263716 -1.7443281 4293729569
6.0275078 -3.4396639 -1.7603521 4293729569
7.2413392 -4.093617 -1.7366892 4293729569
7.0455165 -4.0206485 -1.7375268 4293729569
5.9055409 -3.40593 -1.76827 4293729569
5.9928713 -3.4636369 -1.7363837 4293729569
6.8507228 -3.9467154 -1.7363629 4293729569
5.7521324 -3.3532603 -1.76515 4293729569
6.6579852 -3.8708479 -1.7341964 4293729569
5.9934754 -3.5136425 -1.7334657 4293729569
5.5948443 -3.2964795 -1.7580224 4293729569
6.4859934 -3.8036091 -1.7340485 4293729569
5.4474869 -3.2419994 -1.7529007 4293729569
6.316999 -3.736464 -1.7329015 4293729569
6.0206718 -3.5774455 -1.7375758 4293729569
5.3247828 -3.1992586 -1.7538037 4293729569
6.1736293 -3.6820915 -1.7357807 4293729569
6.0185599 -3.6173735 -1.7336407 4293729569
5.2060184 -3.158638 -1.7547109 4293729569
6.0281534 -3.6316586 -1.7356662 4293729569
5.8753061 -3.5590115 -1.7335136 4293729569
5.0696487 -3.1044972 -1.7475922 4293729569
5.7341065 -3.4987164 -1.7313837 4293729569
6.0464764 -3.6911983 -1.7357675 4293729569
4.9460921 -3.0567417 -1.7434868 4293729569
5.6165333 -3.4511311 -1.73428 4293729569
4.819653 -3.0049062 -1.7353739 4293729569
5.5363936 -3.4226677 -1.7472154 4293729569
5.4071221 -3.364737 -1.7450922 4293729569
6.0687642 -3.7518575 -1.7368716 4293729569
4.6903052 -2.9499846 -1.7262551 4293729569
5.3034725 -3.319577 -1.7479953 4293729569
4.5973654 -2.9151528 -1.7271774 4293729569
5.1949162 -3.2712736 -1.7478921 4293729569
6.0978994 -3.817723 -1.7389858 4293729569
5.0795674 -3.2157717 -1.743776 4293729569
4.5015421 -2.8762376 -1.7260925 4293729569
4.9710965 -3.1644766 -1.7406678 4293729569
4.4047503 -2.8362966 -1.7230055 4293729569
4.8518968 -3.1038661 -1.7325422 4293729569
4.7562928 -3.0569634 -1.7294441 4293729569
6.1250939 -3.8815336 -1.739096 4293729569
4.3099566 -2.7964184 -1.7189193 4293729569
4.6538687 -3.0038593 -1.7233347 4293729569
4.5642266 -2.958137 -1.7212399 4293729569
4.4785776 -2.9125383 -1.7181463 4293729569
4.2024636 -2.7461643 -1.7098132 4293729569
3.7101083 -2.4522853 -1.6632234 4293729569
4.3998327 -2.8701484 -1.7160594 4293729569
3.7660108 -2.4899738 -1.6682973 4293729569
4.334868 -2.83517 -1.7179879 4293729569
3.7954049 -2.5108764 -1.6623378 4293729569
4.2453661 -2.784466 -1.7088851 4293729569
4.1667042 -2.7390854 -1.7027934 4293729569
4.0831895 -2.6885643 -1.6936923 4293729569
3.8591809 -2.5528007 -1.6694205 4293729569
4.0880704 -2.692709 -1.6957 4293729569
6.1611323 -3.9506092 -1.741217 4293729569
3.9848986 -2.6306052 -1.6775757 4293729569
3.9220123 -2.5927 -1.6744998 4293729569
3.9708743 -2.6321733 -1.679575 4293729569
3.8605299 -2.5768456 -1.6634599 4293729569
6.1942301 -4.0175972 -1.742334 4293729569
3.7855916 -2.5415735 -1.6593853 4293729569
3.7195253 -2.510566 -1.65832 4293729569
3.664299 -2.4848809 -1.6612655 4293729569
6.2430487 -4.0940585 -1.7464699 4293729569
6.2751756 -4.1600218 -1.745585 4293729569
6.65769 4.4229126 -1.7844503 4288085770
6.7603116 4.4894757 -1.7823893 4288085770
6.5611162 4.3582101 -1.788511 4288085770
6.8567948 4.5501781 -1.7753348 4288085770
6.9542785 4.6108565 -1.7682809 4288085770
6.4665437 4.293458 -1.7905726 4288085770
6.3749948 4.2296357 -1.7936339 4288085770
7.0679259 4.6781569 -1.7632232 4288085770
6.2732162 4.1560478 -1.7907062 4288085770
7.1876464 4.7483153 -1.7591635 4288085770
6.1785545 4.0872946 -1.7897738 4288085770
7.3093438 4.8174248 -1.7531064 4288085770
7.4371104 4.8893914 -1.7470473 4288085770
6.0888953 4.0184236 -1.7888439 4288085770
7.575973 4.965097 -1.7419872 4288085770
5.9616561 3.9254251 -1.7749356 4288085770
7.7259507 5.0455427 -1.7379241 4288085770
5.8882093 3.8651738 -1.7759988 4288085770
7.889071 5.1316814 -1.7358576 4288085770
5.80865 3.8000615 -1.7730671 4288085770
8.6219931 5.5792971 -1.723465 4288085770
8.9206076 5.7692475 -1.7422931 4288085770
8.0501213 5.2148638 -1.7297947 4288085770
8.4512949 5.468348 -1.7255667 4288085770
9.2455721 5.9735799 -1.76411 4282675967
5.7443008 3.743597 -1.7741282 4288085770
8.2866421 5.3592572 -1.7276682 4288085770
9.4892311 6.1238112 -1.7669772 4282675967
9.6719103 6.233469 -1.7578822 4282675967
8.1321106 5.2549272 -1.7297665 4288085770
8.0059519 5.1659312 -1.7358526 4288085770
9.8615904 6.3429613 -1.7467905 4288085770
8.230382 5.3065953 -1.7257268 4288085770
5.6961856 3.696753 -1.779181 4288085770
10.055317 6.4543543 -1.7336975 4288085770
7.8797727 5.0759354 -1.7409402 4288085770
10.246904 6.5597997 -1.7196128 4288085770
7.740335 4.9752455 -1.7400392 4288085770
8.4288521 5.4069033 -1.7246529 4288085770
5.6429553 3.6450267 -1.7812393 4288085770
10.51359 6.7104793 -1.7144889 4288085770
7.6293216 4.8918915 -1.7451228 4288085770
10.811669 6.8774204 -1.7113528 4288085770
8.6546946 5.5225654 -1.7255665 4288085770
7.5294251 4.8132763 -1.7512035 4288085770
5.6008902 3.6000407 -1.7862916 4288085770
11.163451 7.0731001 -1.7141942 4288085770
7.445765 4.7442794 -1.7582761 4288085770
8.9393311 5.6708503 -1.7354537 4288085770
5.5526886 3.5491953 -1.7873505 4288085770
11.560887 7.295702 -1.7190127 4288085770
7.3600116 4.6713305 -1.764354 4288085770
9.3172722 5.8729486 -1.7592961 4288085770
12.011975 7.545042 -1.7268119 4288085770
7.2773061 4.6003084 -1.76943 4288085770
5.5166502 3.5050673 -1.7924041 4288085770
9.6372566 6.0354009 -1.7691759 4282675967
7.1986041 4.5291924 -1.774508 4288085770
5.4785681 3.4589856 -1.7954596 4288085770
7.1138091 4.4542174 -1.7765893 4288085770
9.9114246 6.1639228 -1.7670896 4282675967
5.4434881 3.4128339 -1.7985166 4288085770
7.0350633 4.3811002 -1.7796702 4288085770
10.156076 6.2711349 -1.758024 4282675967
5.4094319 3.3676577 -1.8015726 4288085770
6.9674592 4.3137217 -1.7837468 4288085770
10.394567 6.371491 -1.7459668 4288085770
6.8937402 4.2414856 -1.7858284 4288085770
5.3743329 3.3205037 -1.8026311 4288085770
10.629914 6.46592 -1.7319171 4288085770
6.8260942 4.1721039 -1.786908 4288085770
5.352397 3.280045 -1.8076847 4288085770
10.883402 6.5659223 -1.7178668 4288085770
12.647943 7.6161718 -1.7409648 4288085770
6.7462621 4.0950055 -1.7839947 4288085770
5.3243699 3.2357256 -1.8097416 4288085770
11.244354 6.7264032 -1.7167666 4288085770
6.672503 4.0207677 -1.7830793 4288085770
12.31241 7.3451471 -1.734247 4288085770
5.3074846 3.1971481 -1.8147942 4288085770
6.5916305 3.9416909 -1.7781684 4288085770
11.665004 6.9154835 -1.7216468 4288085770
12.027605 7.1039257 -1.730504 4288085770
5.2865086 3.154665 -1.8178511 4288085770
6.5259461 3.870259 -1.775252 4288085770
12.114929 7.1158738 -1.7265215 4288085770
11.761154 6.8772678 -1.7267458 4288085770
5.2776957 3.1188991 -1.8239025 4288085770
6.4774952 3.8084276 -1.7773277 4288085770
12.612366 7.3371458 -1.7323835 4288085770
11.588035 6.7054205 -1.734941 4288085770
6.406745 3.7341106 -1.7714136 4288085770
5.2627921 3.0792727 -1.8269576 4288085770
13.124866 7.5610647 -1.7372475 4288085770
11.464615 6.5624018 -1.7471119 4288085770
6.3673911 3.6760652 -1.7734871 4288085770
5.2438197 3.0367417 -1.8290153 4288085770
3.8614001 2.2364793 -1.8386862 4288085770
3.8188167 2.2124867 -1.8387059 4288085770
6.3432469 3.626663 -1.7785534 4288085770
3.9019394 2.2585156 -1.8356687 4288085770
3.7731671 2.1855645 -1.8367287 4288085770
3.9465251 2.2824581 -1.83365 4288085770
3.745748 2.1682239 -1.8427442 4288085770
11.322944 6.408812 -1.7562919 4282675967
3.9951363 2.3073075 -1.8326313 4288085770
5.2207584 2.9903052 -1.8290774 4288085770
3.7101932 2.1450684 -1.8437655 4288085770
4.0558662 2.3368776 -1.8356105 4288085770
3.6705933 2.1200035 -1.8417879 4288085770
4.1013889 2.3577967 -1.8315967 4288085770
3.6309505 2.0929406 -1.8398134 4288085770
4.1631198 2.3873401 -1.8325762 4288085770
3.6044703 2.0725749 -1.842834 4288085770
4.2197375 2.4120009 -1.8305613 4288085770
6.3180594 3.5752864 -1.7826223 4288085770
3.5658293 2.0454855 -1.8388599 4288085770
11.206624 6.2696223 -1.7664596 4282675967
4.2966104 2.4471941 -1.8355381 4288085770
5.2129073 2.9525135 -1.8321323 4288085770
3.5342398 2.0202334 -1.8368859 4288085770
4.3694143 2.4794805 -1.8385181 4288085770
3.5107646 1.9997952 -1.8389077 4288085770
4.435082 2.5059292 -1.836504 4288085770
6.2968969 3.5248146 -1.7866914 4288085770
3.4730639 1.9696805 -1.8319387 4288085770
4.5139117 2.539073 -1.8384848 4288085770
11.109588 6.1419806 -1.7786174 4282675967
5.2009654 2.9108167 -1.8331918 4288085770
4.5937195 2.5711946 -1.8404677 4288085770
3.4596848 1.9530101 -1.8369588 4288085770
6.2696657 3.4714837 -1.7887626 4288085770
4.6826205 2.6071031 -1.8434485 4288085770
3.4928832 1.9602726 -1.8639609 4288085770
5.1920924 2.8720496 -1.8362476 4288085770
10.963903 5.9874778 -1.7827967 4282675967
4.758337 2.6353166 -1.8414359 4288085770
4.701571 2.6036563 -1.8394614 4288085770
4.7623639 2.6362171 -1.8384361 4288085770
4.8332734 2.6735425 -1.8394073 4288085770
4.6295958 2.5633531 -1.8354943 4288085770
3.4440246 1.9234114 -1.8499978 4288085770
4.5758514 2.5326281 -1.8375196 4288085770
4.9021163 2.707916 -1.8393824 4288085770
4.5170178 2.4980173 -1.835549 4288085770
4.9719596 2.7422631 -1.8373579 4288085770
4.4642539 2.4662669 -1.8355764 4288085770
5.0478506 2.7784693 -1.836333 4288085770
6.259644 3.4267519 -1.7948273 4288085770
4.8431258 2.6663179 -1.8404224 4288085770
4.4074001 2.4306095 -1.8326082 4288085770
5.1298108 2.8175356 -1.8373061 4288085770
4.3637094 2.4016485 -1.834635 4288085770
5.2005906 2.8488562 -1.8312868 4288085770
4.3179741 2.3707321 -1.8336639 4288085770
4.9268684 2.6953433 -1.8384117 4288085770
5.2834854 2.8848977 -1.8292648 4288085770
5.1801319 2.8293524 -1.8363084 4288085770
10.702765 5.7726712 -1.7660218 4288085770
4.2722178 2.3388145 -1.8316945 4288085770
5.3835883 2.9295404 -1.8322368 4288085770
6.2354178 3.373348 -1.7948997 4288085770
4.2305088 2.3088033 -1.8307236 4288085770
5.0176582 2.7262046 -1.837401 4288085770
5.4745541 2.9683902 -1.829214 4288085770
5.562429 3.0033131 -1.8251958 4288085770
4.1988935 2.2825606 -1.8337511 4288085770
5.1074481 2.7570879 -1.8353897 4288085770
5.1621246 2.7847931 -1.8333694 4288085770
10.402168 5.5387831 -1.7412601 4288085770
5.6513047 3.0382092 -1.8191782 4288085770
4.1642346 2.2543855 -1.8337802 4288085770
6.2182841 3.3237808 -1.7979691 4288085770
5.7593665 3.0806613 -1.8181567 4288085770
5.2204471 2.7964344 -1.839375 4288085770
4.1184173 2.2194648 -1.8278153 4288085770
5.8552666 3.1163938 -1.8121407 4288085770
4.0877633 2.1911974 -1.8288461 4288085770
5.1633053 2.7477925 -1.8374267 4288085770
5.3212848 2.8290589 -1.8373657 4288085770
10.252569 5.3873587 -1.7384328 4288085770
5.961237 3.154892 -1.8081244 4288085770
6.2153144 3.2808824 -1.8030338 4288085770
4.0652022 2.1667407 -1.8308746 4288085770
5.4251218 2.8616152 -1.8363578 4288085770
6.0833912 3.2010133 -1.807103 4288085770
4.0294819 2.1355851 -1.8269079 4288085770
5.1331191 2.695514 -1.8294946 4288085770
6.1994324 3.242274 -1.8020867 4288085770
10.129319 5.2503176 -1.739594 4288085770
5.5400529 2.8979108 -1.8353485 4288085770
4.0028548 2.1082203 -1.8259389 4288085770
6.2052321 3.2331488 -1.8051031 4288085770
6.3356581 3.2910659 -1.8010669 4288085770
3.9832993 2.0836916 -1.8269686 4288085770
5.6549382 2.9322088 -1.8343424 4288085770
6.4577003 3.332185 -1.7950532 4288085770
5.1423945 2.6623242 -1.8345492 4288085770
10.037466 5.1295404 -1.7437429 4288085770
6.2042651 3.1902044 -1.8101686 4288085770
3.9617 2.0572104 -1.8270004 4288085770
5.7657537 2.9635987 -1.830339 4288085770
6.6009498 3.3818097 -1.7920351 4288085770
3.9380574 2.028775 -1.825034 4288085770
6.7532678 3.4342244 -1.7910162 4288085770
5.8815923 2.9958711 -1.8263363 4288085770
5.1263719 2.6167183 -1.8306127 4288085770
14.746097 7.4133844 -1.7591438 4288085770
9.950757 5.0146403 -1.7478848 4288085770
6.1941619 3.1414707 -1.8112394 4288085770
3.9316216 2.0089424 -1.8290619 4288085770
6.9136109 3.4874482 -1.7879995 4288085770
6.0014329 3.0280507 -1.8223354 4288085770
7.0789981 3.5425551 -1.7859819 4288085770
3.9170732 1.984297 -1.8300935 4288085770
5.1315818 2.5806205 -1.8326699 4288085770
14.447993 7.1584854 -1.7524155 4288085770
6.2012458 3.1003377 -1.8163053 4288085770
9.9014425 4.9158649 -1.7570169 4288085770
6.1151581 3.0553691 -1.8143394 4288085770
7.2433171 3.5946844 -1.7809685 4288085770
3.8994598 1.9567204 -1.8281285 4288085770
6.2571807 3.0950334 -1.8143362 4288085770
5.1236324 2.5378263 -1.8297322 4288085770
7.4227281 3.6504624 -1.7779555 4288085770
14.164148 6.9142437 -1.7456765 4288085770
6.2002378 3.055393 -1.8193738 4288085770
9.8248081 4.8037267 -1.7601584 4288085770
3.8909826 1.9349318 -1.8291583 4288085770
6.415319 3.1393206 -1.8153322 4288085770
7.6233459 3.7147462 -1.7779382 4288085770
3.8885307 1.9140072 -1.8331891 4288085770
5.1247983 2.4998212 -1.8297908 4288085770
6.2113681 3.0161653 -1.8244385 4288085770
13.968398 6.7149382 -1.7479041 4288085770
6.55725 3.1749837 -1.8113348 4288085770
9.7866592 4.711689 -1.7692846 4288085770
7.865376 3.7960639 -1.7839116 4288085770
3.8800125 1.8902192 -1.8332219 4288085770
8.080039 3.8620164 -1.7818973 4288085770
6.7102494 3.2133899 -1.8093379 4288085770
5.1208754 2.4579344 -1.8278532 4288085770
6.2244787 2.9758921 -1.8295054 4288085770
13.806089 6.5338435 -1.7521172 4288085770
9.7555838 4.6224837 -1.7784092 4288085770
3.8734965 1.8663845 -1.8332555 4288085770
8.3158846 3.9354739 -1.7818804 4288085770
6.864203 3.2497714 -1.8043443 4288085770
3.871027 1.8444562 -1.834288 4288085770
6.2274976 2.9318507 -1.8305742 4288085770
8.6052351 4.0296841 -1.7898531 4288085770
5.1260681 2.4208341 -1.826912 4288085770
13.694387 6.377562 -1.7603127 4288085770
9.7305784 4.5361366 -1.7875321 4288085770
7.03227 3.2908254 -1.8023493 4288085770
3.8604465 1.8177137 -1.8313243 4288085770
8.9005842 4.1237526 -1.7958285 4288085770
7.2073607 3.3327143 -1.7993561 4288085770
6.2355428 2.8886926 -1.8326435 4288085770
5.1302161 2.3817608 -1.8269732 4288085770
13.638332 6.2479763 -1.7744894 4288085770
9.6995068 4.4469314 -1.7956566 4288085770
9.1806555 4.2061763 -1.7968156 4288085770
3.8690705 1.7995324 -1.8373554 4288085770
7.3692212 3.364912 -1.7923722 4288085770
9.4748173 4.2922688 -1.796803 4288085770
6.2476115 2.8464413 -1.834713 4288085770
5.1364126 2.3446362 -1.8250324 4288085770
13.572167 6.1136231 -1.7846694 4288085770
3.8655396 1.7746261 -1.8353918 4288085770
9.6674385 4.3577456 -1.8007805 4288085770
7.561378 3.4094031 -1.7903818 4288085770
9.7729092 4.3752675 -1.7937964 4288085770
3.8660545 1.7516273 -1.8354268 4288085770
6.2546349 2.8023074 -1.8357834 4288085770
5.140563 2.305562 -1.8240938 4288085770
13.503005 5.9793396 -1.7938482 4282675967
7.7757163 3.4613783 -1.7913888 4288085770
9.6171875 4.2609835 -1.8029089 4288085770
10.098207 4.46663 -1.7927884 4288085770
3.87466 1.7324427 -1.8384594 4288085770
7.9768472 3.5046608 -1.7884039 4288085770
6.2616596 2.7581704 -1.8348535 4288085770
10.378951 4.5350313 -1.7827973 4288085770
5.1639214 2.2750411 -1.8271496 4288085770
13.402523 5.8317857 -1.7980341 4282675967
9.5821018 4.170867 -1.8070328 4288085770
3.8781786 1.7093744 -1.8384957 4288085770
8.2021389 3.5543807 -1.7874188 4288085770
