# .PCD v0.7 - Point Cloud Data file format
VERSION 0.7
FIELDS x y z rgb
SIZE 4 4 4 4
TYPE F F F U
COUNT 1 1 1 1
WIDTH 1120
HEIGHT 1
VIEWPOINT 0 0 0 1 0 0 0
POINTS 1120
DATA ascii
13.838202 0.21152663 -1.8589927 4288085770
10.65614 0.1739223 -1.8418164 4288085770
5.3770547 0.11758903 -1.8204722 4288085770
14.687192 0.19664732 -1.8683566 4288085770
11.157132 0.16041014 -1.8484631 4288085770
5.2690396 0.10371714 -1.8216268 4288085770
15.60018 0.1796838 -1.8746772 4288085770
11.653117 0.14786515 -1.8471094 4288085770
16.610168 0.16360888 -1.879913 4288085770
12.209105 0.13426864 -1.848711 4288085770
5.1760297 0.090847544 -1.8267643 4288085770
17.758156 0.14638269 -1.8850393 4288085770
12.844094 0.12159944 -1.8532425 4288085770
19.148146 0.12891951 -1.8959658 4288085770
13.57809 0.10884526 -1.8626922 4288085770
14.34508 0.097021423 -1.86511 4288085770
15.254073 0.084070422 -1.873415 4288085770
16.266068 0.072001494 -1.8806305 4288085770
17.411064 0.059791401 -1.8887361 4288085770
19.224051 0.053772397 -1.8802567 4288085770
18.725056 0.04839582 -1.8966972 4288085770
17.871037 0.046232745 -1.8764173 4288085770
16.616016 0.038543239 -1.863497 4288085770
15.596002 0.028648742 -1.8613917 4288085770
14.664985 0.018642671 -1.8562127 4288085770
13.838967 0.0085169747 -1.8499471 4288085770
19.656977 -0.015681859 -1.8822241 4288085770
13.116952 -0.0027034283 -1.8476002 4288085770
18.231949 -0.030164704 -1.8734772 4288085770
12.431932 -0.013987843 -1.8402227 4288085770
16.993931 -0.043842956 -1.8665708 4288085770
11.859921 -0.025358114 -1.8407518 4288085770
15.930906 -0.058698419 -1.8625246 4288085770
11.313904 -0.036775611 -1.8372593 4288085770
14.999887 -0.073693596 -1.859369 4288085770
10.835889 -0.049248338 -1.8377153 4288085770
14.150864 -0.087792754 -1.8531411 4288085770
10.411879 -0.060770869 -1.8401217 4288085770
13.389844 -0.10198343 -1.8478404 4288085770
10.011864 -0.073328763 -1.8405132 4288085770
12.736825 -0.11627336 -1.8464504 4288085770
9.6268482 -0.085912332 -1.8388923 4288085770
12.110805 -0.12961648 -1.8400335 4288085770
9.2878351 -0.098532006 -1.8402333 4288085770
11.582787 -0.14503336 -1.8405448 4288085770
20.009647 -0.32197428 -1.8933752 4293729569
8.9838238 -0.11217546 -1.8445499 4288085770
11.10977 -0.15950581 -1.8420058 4288085770
8.6598043 -0.12384453 -1.8388736 4288085770
18.605612 -0.3454769 -1.8846529 4288085770
10.671757 -0.17401174 -1.844438 4288085770
8.3607845 -0.1375308 -1.8351861 4288085770
10.278742 -0.18956184 -1.8478376 4288085770
17.383579 -0.3681787 -1.8757755 4288085770
8.1157742 -0.15023866 -1.8394493 4288085770
9.8737192 -0.20413649 -1.8432424 4288085770
16.337549 -0.39006391 -1.8687477 4288085770
7.8517542 -0.16396293 -1.8357329 4288085770
9.536706 -0.21875253 -1.8455911 4288085770
19.880409 -0.53880394 -1.8935051 4288085770
19.985416 -0.55178475 -1.9214793 4288085770
15.419517 -0.41207489 -1.8646141 4288085770
7.6247416 -0.17670432 -1.8369811 4288085770
9.2066889 -0.23339021 -1.8449337 4288085770
18.589397 -0.56029707 -1.9126794 4288085770
14.607489 -0.43319726 -1.8613882 4288085770
18.620363 -0.57145244 -1.8867061 4288085770
7.3867221 -0.18946645 -1.8312383 4288085770
8.8716669 -0.24705067 -1.838276 4288085770
17.324381 -0.56397712 -1.8987478 4288085770
13.877461 -0.45440921 -1.8580945 4288085770
7.1897073 -0.2032401 -1.8324665 4288085770
17.515326 -0.60028052 -1.8777599 4288085770
8.5776482 -0.26074183 -1.8345842 4288085770
16.23637 -0.56682765 -1.889665 4288085770
7.0036931 -0.21602592 -1.8336806 4288085770
19.859182 -0.74573946 -1.8964988 4288085770
13.203435 -0.47369209 -1.8527451 4288085770
8.3186321 -0.27544731 -1.8358682 4288085770
15.305363 -0.56782228 -1.886443 4288085770
16.546286 -0.62924308 -1.8717016 4288085770
6.8266788 -0.22981644 -1.835892 4288085770
14.437356 -0.56590992 -1.8781549 4288085770
8.0596132 -0.29017144 -1.8331521 4288085770
18.542164 -0.75633234 -1.888643 4288085770
12.62841 -0.49406424 -1.8513185 4288085770
13.684355 -0.56409532 -1.8757716 4288085770
15.71425 -0.65833211 -1.8705297 4288085770
6.6526628 -0.24362418 -1.835101 4288085770
7.8365974 -0.30491132 -1.8354063 4288085770
17.386145 -0.76610637 -1.8796494 4288085770
12.106388 -0.51448476 -1.8518481 4288085770
13.001356 -0.56035781 -1.8733211 4288085770
6.4816465 -0.25644004 -1.8333027 4288085770
19.733013 -0.92343611 -1.9264424 4288085770
14.964218 -0.68651068 -1.8692855 4288085770
12.361356 -0.55567694 -1.8688303 4288085770
7.6225805 -0.31967038 -1.8356529 4288085770
16.392122 -0.77903849 -1.8745358 4288085770
11.618363 -0.533952 -1.8503448 4288085770
18.307035 -0.88993865 -1.9134688 4288085770
11.810361 -0.55107498 -1.8682661 4288085770
6.333632 -0.27126154 -1.8354946 4288085770
11.288366 -0.54450983 -1.8666685 4288085770
17.024057 -0.85661227 -1.897377 4288085770
7.4095631 -0.3344349 -1.8348988 4288085770
14.266183 -0.71276528 -1.8639886 4288085770
15.518103 -0.79209727 -1.8703232 4288085770
11.167341 -0.55345953 -1.8488109 4288085770
10.80037 -0.53698695 -1.864038 4288085770
15.97908 -0.82949442 -1.892117 4288085770
6.1866169 -0.28409404 -1.8356766 4288085770
10.398379 -0.53152043 -1.8693459 4288085770
7.2055449 -0.34821892 -1.8321325 4288085770
15.061104 -0.80450624 -1.8887613 4288085770
13.641152 -0.73809022 -1.8606268 4288085770
9.9763889 -0.52207041 -1.8666514 4288085770
14.203125 -0.77859825 -1.8823515 4288085770
19.850801 -1.1175218 -1.9302603 4282675967
9.5773935 -0.51265031 -1.862938 4288085770
6.0376 -0.2979331 -1.8338646 4288085770
13.448148 -0.75379384 -1.8778611 4288085770
7.0255284 -0.36301467 -1.8323511 4288085770
9.2244015 -0.50327146 -1.8611867 4288085770
5.2846446 -0.25908959 -1.8383064 4288085770
12.787169 -0.73207814 -1.8763076 4288085770
8.8974113 -0.49391651 -1.860414 4288085770
5.406631 -0.27321082 -1.8402714 4288085770
13.090119 -0.76548171 -1.8602133 4288085770
12.162189 -0.70842588 -1.8697147 4288085770
18.635777 -1.1292529 -1.9163249 4288085770
19.595703 -1.1913384 -1.9078205 4288085770
8.5734205 -0.48257941 -1.8566293 4288085770
5.903584 -0.31177911 -1.8340404 4288085770
5.5186119 -0.28734937 -1.8362448 4288085770
6.8675137 -0.37881535 -1.836556 4288085770
11.62221 -0.68882865 -1.8710706 4288085770
8.2774296 -0.47226354 -1.8548263 4288085770
19.677677 -1.2203815 -1.9168894 4288085770
5.6515961 -0.30348226 -1.8382101 4288085770
7.9954391 -0.46096331 -1.853007 4288085770
11.115232 -0.66828227 -1.8693944 4288085770
5.7885809 -0.31762993 -1.8381629 4288085770
7.7354488 -0.45068714 -1.8511741 4288085770
5.2856174 -0.28705627 -1.8434361 4288085770
10.663251 -0.64978176 -1.8706824 4288085770
7.4844584 -0.43842611 -1.8483245 4288085770
5.9335637 -0.33378112 -1.8391185 4288085770
5.4076052 -0.29818827 -1.8433874 4288085770
5.7655659 -0.32463968 -1.8302146 4288085770
10.209271 -0.62830329 -1.8669578 4288085770
12.570087 -0.78992146 -1.8567598 4288085770
7.253469 -0.42718226 -1.8464631 4288085770
5.5375919 -0.31032893 -1.8433363 4288085770
6.0845475 -0.34893948 -1.8400644 4288085770
17.568756 -1.1401229 -1.9072621 4288085770
18.420681 -1.2001042 -1.8958375 4288085770
6.6994963 -0.39263362 -1.8347598 4288085770
7.0484815 -0.41694796 -1.8485849 4288085770
5.6765804 -0.32247487 -1.8442783 4288085770
9.8052893 -0.60886997 -1.8652015 4288085770
5.8095651 -0.33363342 -1.8412205 4288085770
6.8474941 -0.40572783 -1.8486987 4288085770
6.2365303 -0.36410844 -1.8390096 4288085770
5.9635534 -0.34579146 -1.8431498 4288085770
6.6435046 -0.39351889 -1.8458104 4288085770
6.4515152 -0.38032836 -1.8419075 4288085770
6.1135406 -0.35695958 -1.842078 4288085770
6.2905288 -0.37013817 -1.8449931 4288085770
9.4283075 -0.58947599 -1.8614228 4288085770
6.4045129 -0.38028553 -1.8399463 4288085770
9.080327 -0.5701046 -1.8596202 4288085770
6.589498 -0.39647207 -1.8428689 4288085770
8.7383432 -0.55075878 -1.8538127 4288085770
6.7724819 -0.41266587 -1.8437933 4288085770
18.762617 -1.2684181 -1.9068761 4288085770
8.4393616 -0.53243649 -1.8529744 4288085770
6.9754653 -0.42887732 -1.8457012 4288085770
8.1543779 -0.51513433 -1.8511294 4288085770
7.8783951 -0.49585205 -1.8472674 4288085770
7.169446 -0.44510245 -1.8426166 4288085770
7.6404133 -0.47958753 -1.8483883 4288085770
7.4084311 -0.46333438 -1.8485042 4288085770
5.6545529 -0.3384966 -1.8333712 4288085770
6.5334783 -0.40645856 -1.831962 4288085770
12.11306 -0.81541115 -1.857259 4288085770
16.616737 -1.1471146 -1.8990853 4288085770
17.39566 -1.2090297 -1.8847306 4288085770
5.5545397 -0.35335568 -1.8385234 4288085770
6.3884611 -0.42129207 -1.8321513 4288085770
17.907555 -1.3125347 -1.8937939 4288085770
15.791728 -1.1542125 -1.8978035 4288085770
11.692032 -0.83895004 -1.8557191 4288085770
16.52364 -1.2230936 -1.8795207 4288085770
5.4445243 -0.36722744 -1.8386791 4288085770
6.2424431 -0.43613362 -1.8303417 4288085770
15.03472 -1.1593851 -1.8964562 4288085770
11.308003 -0.8645193 -1.856158 4288085770
17.182499 -1.3567654 -1.8866045 4288085770
15.811619 -1.2432899 -1.883207 4288085770
5.3385077 -0.38110337 -1.8388317 4288085770
6.1174264 -0.45197904 -1.8325192 4288085770
14.297713 -1.1595989 -1.8910687 4288085770
10.958976 -0.89011747 -1.8585678 4288085770
15.132596 -1.2615411 -1.8828566 4288085770
5.2344928 -0.39498127 -1.8389822 4288085770
16.612442 -1.4111077 -1.8913342 4288085770
5.9914112 -0.46682814 -1.8336929 4288085770
13.645713 -1.158892 -1.8886063 4288085770
10.633949 -0.91574645 -1.8599579 4288085770
14.486574 -1.2778429 -1.8794696 4288085770
5.8743939 -0.48169178 -1.8338591 4288085770
13.01171 -1.154224 -1.8821101 4288085770
16.083391 -1.459515 -1.8920017 4288085770
19.073034 -1.7579538 -1.8519286 4288085770
10.330921 -0.94040424 -1.8603251 4288085770
12.45971 -1.1506273 -1.8795508 4288085770
13.943551 -1.2982378 -1.8800162 4288085770
5.7603769 -0.49655843 -1.8340229 4288085770
18.118071 -1.7368219 -1.8696215 4288085770
15.595334 -1.5079668 -1.8926353 4288085770
11.917714 -1.1430513 -1.8749645 4288085770
5.65236 -0.51143163 -1.8341817 4288085770
10.051894 -0.96607864 -1.862677 4288085770
13.398528 -1.3146548 -1.8755455 4288085770
17.380102 -1.7278609 -1.9011922 4288085770
18.897814 -1.8921703 -1.7617068 4293729569
11.440717 -1.1365327 -1.873329 4288085770
16.567139 -1.704904 -1.9147586 4282675967
15.157283 -1.557459 -1.8962322 4288085770
5.5443425 -0.52630931 -1.8333403 4288085770
9.7828655 -0.99077332 -1.8630161 4288085770
12.935506 -1.3351372 -1.8760259 4288085770
11.032725 -1.1330611 -1.8776507 4288085770
17.7868 -1.8800771 -1.7345715 4293729569
15.742175 -1.6719871 -1.9172877 4282675967
5.4563284 -0.54218042 -1.8384871 4288085770
10.634731 -1.12761 -1.8799549 4288085770
14.75823 -1.6069938 -1.8997968 4282675967
9.5158396 -1.0134796 -1.861344 4288085770
12.493483 -1.3536572 -1.8734796 4288085770
14.924212 -1.6341113 -1.9127873 4282675967
16.856792 -1.8771244 -1.7193291 4293729569
10.241739 -1.1191837 -1.8782406 4288085770
5.3603115 -0.55706626 -1.8386359 4288085770
14.155249 -1.594299 -1.9062372 4282675967
9.2738104 -1.0372133 -1.8596559 4288085770
12.124457 -1.3782278 -1.8769013 4288085770
9.8667479 -1.1087773 -1.876502 4288085770
14.379178 -1.6535652 -1.900331 4282675967
13.463284 -1.5575615 -1.9016374 4282675967
16.28377 -1.9054186 -1.7339382 4293729569
17.350431 -2.0506182 -1.5137365 4293729569
5.2692928 -0.57296193 -1.8377851 4288085770
17.312386 -2.0587835 -1.4698061 4293729569
9.5117579 -1.097398 -1.8737422 4288085770
12.856316 -1.5259029 -1.8999912 4282675967
11.725433 -1.3948089 -1.87131 4288085770
9.052783 -1.0609604 -1.8599504 4288085770
9.1847668 -1.0870398 -1.8729641 4288085770
14.034128 -1.7021637 -1.9028465 4282675967
15.684758 -1.9217142 -1.7425121 4293729569
12.245348 -1.4892688 -1.8923248 4282675967
17.011379 -2.1161089 -1.5403272 4293729569
8.8707771 -1.0747012 -1.8711659 4288085770
17.051292 -2.1454706 -1.472432 4293729569
11.741379 -1.4607135 -1.8926077 4288085770
11.382409 -1.4154273 -1.8706913 4288085770
8.8467569 -1.0857188 -1.8612373 4288085770
8.5677881 -1.0613889 -1.8663536 4288085770
15.208746 -1.9461012 -1.7600222 4293729569
13.657079 -1.7417656 -1.8973458 4282675967
11.201409 -1.4231765 -1.8808779 4288085770
17.094572 -2.2181935 -0.69473082 4293729569
17.074961 -2.2229247 -1.1687748 4293729569
16.715326 -2.1866412 -1.5679063 4293729569
8.2867994 -1.0490862 -1.8645281 4288085770
17.004862 -2.2422798 -1.0769233 4293729569
10.706439 -1.3876795 -1.8711203 4288085770
11.086384 -1.4400824 -1.8730526 4288085770
8.6297302 -1.1064938 -1.8565145 4288085770
16.8272 -2.2331982 -1.4750323 4293729569
17.024164 -2.2810531 -0.28408149 4293729569
8.0388126 -1.0378014 -1.8666799 4288085770
14.575746 -1.943413 -1.7575343 4293729569
16.960506 -2.2949331 -0.7162047 4293729569
10.296468 -1.3612273 -1.8713349 4288085770
13.153036 -1.7603295 -1.8708507 4288085770
16.940933 -2.2974372 -1.2382388 4293729569
16.965473 -2.3209574 -0.71132356 4293729569
7.776823 -1.0235343 -1.8618292 4288085770
16.636257 -2.2833335 -1.6114291 4293729569
9.9184961 -1.3348107 -1.8715234 4288085770
10.825358 -1.4667616 -1.8783944 4288085770
8.4607029 -1.1332833 -1.8597802 4288085770
16.919779 -2.3460028 -1.1124842 4293729569
7.5468359 -1.011279 -1.8619616 4288085770
14.027744 -1.9457939 -1.7599996 4293729569
16.853085 -2.3570976 -1.4985963 4293729569
9.5615215 -1.3094263 -1.869699 4288085770
16.936085 -2.383754 -0.32364017 4293729569
16.925903 -2.3870361 -1.3166754 4293729569
12.497 -1.7518564 -1.8173536 4288085770
16.932365 -2.4089732 -0.69776666 4293729569
7.3238487 -0.99803609 -1.8610835 4288085770
9.2195482 -1.2830542 -1.8688577 4288085770
16.972359 -2.4418607 -0.72988915 4293729569
16.554186 -2.3800275 -1.6539544 4293729569
10.560332 -1.4914504 -1.8807302 4288085770
8.2806768 -1.1560795 -1.8590361 4288085770
7.1058621 -0.98380369 -1.8591965 4288085770
13.41175 -1.9311584 -1.750441 4293729569
8.9135742 -1.259712 -1.8700007 4288085770
16.937683 -2.4637997 -1.1560265 4293729569
16.956867 -2.4826612 -1.4001024 4293729569
16.938963 -2.489048 -1.5251489 4293729569
6.9188757 -0.97258615 -1.8612981 4288085770
16.980988 -2.5035853 -0.36616954 4293729569
8.6095982 -1.234391 -1.8671325 4288085770
11.932967 -1.7474414 -1.7727994 4293729569
6.7258887 -0.95937651 -1.8603952 4288085770
8.3366251 -1.2110853 -1.8682486 4288085770
10.306306 -1.5151608 -1.881052 4288085770
8.1126499 -1.1798888 -1.8582869 4288085770
16.407122 -2.4666886 -1.6884861 4293729569
12.924755 -1.9276071 -1.7528276 4293729569
6.5249014 -0.94318211 -1.8544849 4288085770
8.0626488 -1.1857976 -1.865356 4288085770
6.3619165 -0.93098694 -1.8575618 4288085770
19.038643 -2.9423392 -1.7295519 4293729569
7.8016715 -1.1615241 -1.8624573 4288085770
11.553926 -1.768118 -1.7512106 4293729569
6.1949306 -0.91680646 -1.8566329 4288085770
10.05428 -1.536883 -1.8793628 4288085770
12.350767 -1.9060323 -1.7402011 4293729569
7.5646954 -1.1382678 -1.8615435 4288085770
7.9496212 -1.2037033 -1.8575332 4288085770
18.717632 -2.9459965 -1.7268355 4293729569
16.204058 -2.5433366 -1.713017 4293729569
6.0259428 -0.90163815 -1.8527008 4288085770
7.3417172 -1.1170266 -1.8606277 4288085770
5.8799586 -0.88847142 -1.8537594 4288085770
7.1247392 -1.0938019 -1.8576974 4288085770
18.950516 -3.0631847 -1.7381965 4293729569
11.85678 -1.8895122 -1.7345322 4293729569
5.722971 -0.87331647 -1.8498174 4288085770
6.9217615 -1.0725828 -1.8567652 4288085770
11.310881 -1.8058573 -1.7475896 4293729569
9.8222542 -1.5596267 -1.8776617 4288085770
17.422735 -2.8287148 -1.698355 4293729569
7.805594 -1.2285337 -1.857769 4288085770
6.7387838 -1.0523765 -1.8578209 4288085770
5.5889845 -0.86016792 -1.8498659 4288085770
15.961998 -2.6129653 -1.7325468 4293729569
6.5528054 -1.0311813 -1.8558747 4288085770
5.4659996 -0.84801722 -1.8529102 4288085770
6.3578238 -1.007005 -1.8479217 4288085770
5.3400145 -0.83487767 -1.8529521 4288085770
11.355793 -1.8670131 -1.7228404 4293729569
6.1978455 -0.98782426 -1.8489635 4288085770
5.2220292 -0.82174242 -1.8539876 4288085770
16.647795 -2.7848039 -1.71079 4293729569
6.0468669 -0.96865368 -1.8499978 4288085770
9.5962257 -1.5813819 -1.8749511 4288085770
18.7974 -3.1729932 -1.7398428 4293729569
10.946844 -1.8195698 -1.7219552 4293729569
7.657567 -1.2523645 -1.8570031 4288085770
5.9058871 -0.95148897 -1.8520333 4288085770
5.7559061 -0.93133849 -1.8490621 4288085770
15.632945 -2.6635666 -1.7380588 4293729569
5.6159253 -0.91219449 -1.8470875 4288085770
10.886809 -1.84354 -1.7131177 4293729569
5.4909463 -0.89404815 -1.8491052 4288085770
15.98484 -2.7519956 -1.7271849 4293729569
5.3729653 -0.8769142 -1.850122 4288085770
5.253984 -0.85978377 -1.8501394 4288085770
9.3972015 -1.6051521 -1.8752275 4288085770
7.52354 -1.2762059 -1.8572257 4288085770
10.659803 -1.8433186 -1.7063043 4293729569
18.643282 -3.279815 -1.7384757 4293729569
10.581818 -1.8431504 -1.7233682 4293729569
15.522873 -2.7483253 -1.7605509 4293729569
15.396888 -2.7272265 -1.7525556 4293729569
9.2071714 -1.6299367 -1.8745011 4288085770
7.3965116 -1.3010594 -1.8564472 4288085770
10.292827 -1.8437687 -1.7356102 4293729569
10.436762 -1.8751036 -1.6976385 4293729569
14.796934 -2.6905305 -1.7598792 4293729569
18.637146 -3.4137404 -1.7491145 4293729569
15.000846 -2.7598171 -1.7450377 4293729569
10.049835 -1.8484136 -1.7528331 4293729569
9.0471449 -1.6577351 -1.8777642 4288085770
14.124995 -2.6337907 -1.7601678 4293729569
7.2784848 -1.3259133 -1.8576614 4288085770
10.241718 -1.9109048 -1.6919684 4293729569
18.546021 -3.5306208 -1.749743 4293729569
14.721794 -2.8094873 -1.7475036 4293729569
9.7628498 -1.8420538 -1.7610404 4293729569
13.402062 -2.559067 -1.7454135 4293729569
8.9121151 -1.6895416 -1.8850256 4282675967
7.1684575 -1.3507808 -1.8578689 4288085770
10.079673 -1.9507229 -1.6902903 4293729569
12.752124 -2.492409 -1.7336367 4293729569
9.4618616 -1.8297075 -1.7632308 4293729569
18.496885 -3.6555374 -1.7523748 4293729569
14.30076 -2.8280895 -1.7319402 4293729569
19.153719 -3.8261478 -1.7726375 4288085770
8.7720842 -1.7193613 -1.8882817 4282675967
7.0664291 -1.377647 -1.8600792 4288085770
9.1788797 -1.8153816 -1.765397 4293729569
9.916626 -1.9885539 -1.6856033 4293729569
18.507744 -3.7915049 -1.7580092 4293729569
10.61014 -2.1560535 -1.315816 4293729569
18.327761 -3.7792873 -1.7621006 4288085770
10.473361 -2.1307952 -1.5498126 4293729569
8.907896 -1.8020639 -1.7685579 4293729569
8.6280556 -1.7471864 -1.8895316 4282675967
6.968401 -1.4045179 -1.8622862 4288085770
10.352372 -2.1524453 -1.5940152 4293729569
9.8355761 -2.0414076 -1.6949195 4293729569
8.6539116 -1.7887648 -1.7717049 4293729569
10.658198 -2.234014 -0.27813238 4293729569
10.510842 -2.2003689 -1.0131038 4293729569
10.518873 -2.2091439 -1.062139 4293729569
10.491091 -2.2048805 -1.3221447 4293729569
10.586436 -2.2325771 -0.56418818 4293729569
8.4120302 -1.7570144 -1.8737559 4288085770
6.8743725 -1.4313972 -1.8634899 4288085770
10.191392 -2.1630902 -1.6301988 4293729569
8.4099293 -1.7754723 -1.7758435 4293729569
10.526381 -2.2507095 -0.52132279 4293729569
9.7075291 -2.0832627 -1.6932226 4293729569
10.536127 -2.27999 -0.25244993 4293729569
10.449842 -2.2619028 -1.0944455 4293729569
10.452769 -2.2643137 -1.0084535 4293729569
10.496412 -2.279309 -0.5974834 4293729569
9.9944143 -2.1637299 -1.6593648 4293729569
10.438035 -2.2687356 -1.3374901 4293729569
8.2229443 -1.7711989 -1.7889776 4288085770
8.1810055 -1.7628545 -1.8519738 4288085770
6.7743454 -1.4552801 -1.8626844 4288085770
10.477307 -2.3166547 -0.51867461 4293729569
9.8084383 -2.1643777 -1.6895218 4293729569
8.0639591 -1.7709323 -1.8071076 4288085770
9.6274767 -2.1361315 -1.699538 4293729569
10.502034 -2.3450613 -0.22678488 4293729569
10.422806 -2.323679 -1.1327598 4293729569
10.46138 -2.3380818 -0.63479018 4293729569
10.435688 -2.3372881 -1.0068119 4293729569
7.9489818 -1.764708 -1.8271732 4288085770
10.411972 -2.3386152 -1.3538417 4293729569
9.5524712 -2.1470106 -1.7066514 4293729569
6.6883163 -1.4821684 -1.8638815 4288085770
7.9089732 -1.7706702 -1.8252342 4288085770
10.474222 -2.3926492 -0.51603574 4293729569
10.418767 -2.3904653 -1.1740788 4293729569
10.454343 -2.4028699 -0.67510229 4293729569
10.503936 -2.4181669 -0.20212808 4293729569
9.261507 -2.1176591 -1.7127531 4293729569
9.5294266 -2.1830046 -1.70084 4293729569
7.7579875 -1.7694222 -1.8413528 4288085770
10.449601 -2.4172866 -1.0071779 4293729569
7.7059608 -1.7615688 -1.7983583 4288085770
10.414907 -2.4145117 -1.3731977 4293729569
6.5992866 -1.5080627 -1.8630763 4288085770
9.0545368 -2.1053274 -1.7338659 4293729569
7.6230025 -1.7701725 -1.8614678 4288085770
10.538119 -2.4867015 -0.51642692 4293729569
10.462724 -2.4672759 -1.2214055 4293729569
10.520291 -2.4847136 -0.72043467 4293729569
10.580816 -2.508358 -0.17649005 4293729569
9.4313765 -2.2288828 -1.7011374 4293729569
8.8125687 -2.0830054 -1.7449604 4293729569
7.5129371 -1.767441 -1.7785447 4288085770
10.465831 -2.5024369 -1.397571 4293729569
7.48002 -1.766929 -1.8785702 4282675967
6.527257 -1.5359616 -1.8652666 4288085770
8.511611 -2.0426865 -1.7420183 4293729569
14.55599 -3.5541766 -1.7501621 4288085770
7.3170381 -1.7567019 -1.8876562 4282675967
9.3583231 -2.2807736 -1.7044426 4293729569
7.3339128 -1.7753187 -1.7607286 4293729569
8.2896423 -2.020391 -1.7520964 4293729569
12.748387 -3.1583729 -1.7167865 4293729569
6.4542289 -1.5638591 -1.8674579 4288085770
7.1270595 -1.7374796 -1.889722 4282675967
14.026034 -3.5105984 -1.7483947 4288085770
8.0376787 -1.9871112 -1.752147 4293729569
6.9370804 -1.7172712 -1.8887831 4282675967
9.2932682 -2.3336682 -1.7087458 4293729569
7.2198844 -1.7972052 -1.7559254 4293729569
7.7837138 -1.9508394 -1.7501851 4293729569
12.598327 -3.2151978 -1.7161791 4293729569
6.3861985 -1.5927618 -1.8696495 4288085770
13.449092 -3.4490175 -1.7365812 4288085770
6.7521024 -1.6950736 -1.8868304 4282675967
7.5457501 -1.9155852 -1.7482148 4293729569
6.5701227 -1.6728886 -1.8828756 4282675967
7.1168561 -1.821094 -1.7531226 4293729569
9.2442122 -2.3905706 -1.7150548 4293729569
7.3677797 -1.8953434 -1.7572658 4293729569
12.932143 -3.3954785 -1.7297558 4288085770
12.47426 -3.2760415 -1.7175697 4293729569
6.3221693 -1.6206694 -1.8718332 4288085770
6.3991437 -1.6517063 -1.8809161 4282675967
7.1698117 -1.8671088 -1.7602957 4293729569
7.0448246 -1.8519878 -1.7563272 4293729569
6.2391644 -1.6315268 -1.8809526 4282675967
9.1701593 -2.4394794 -1.7143466 4293729569
6.9688449 -1.8358858 -1.7603137 4293729569
12.430199 -3.3379612 -1.721899 4293729569
6.2581377 -1.6495812 -1.8730217 4288085770
12.361193 -3.338902 -1.7179606 4293729569
6.0741858 -1.6073662 -1.8759741 4288085770
6.7918744 -1.8106741 -1.7633405 4293729569
11.946252 -3.2794731 -1.7120225 4293729569
5.9312067 -1.5882056 -1.876001 4288085770
6.9567947 -1.8778882 -1.7545214 4293729569
6.633904 -1.787469 -1.7693609 4293729569
9.1301012 -2.4973965 -1.719653 4293729569
6.1981077 -1.6784976 -1.8742068 4288085770
12.259126 -3.4017699 -1.7193421 4293729569
6.5069308 -1.7722646 -1.7823937 4288085770
5.770227 -1.5630586 -1.8690144 4288085770
11.537298 -3.2360282 -1.7101552 4293729569
6.4359531 -1.7710592 -1.8084465 4288085770
5.631247 -1.542912 -1.8670335 4288085770
6.844768 -1.8957912 -1.7466974 4293729569
9.0580444 -2.5463119 -1.7179434 4293729569
6.3659759 -1.7698545 -1.8344985 4288085770
6.1360779 -1.7064115 -1.8753889 4288085770
5.4942679 -1.5207728 -1.8640414 4288085770
12.172055 -3.4696538 -1.7207353 4293729569
11.138345 -3.1896038 -1.7062653 4293729569
6.2959981 -1.767655 -1.8595457 4288085770
5.376287 -1.5036305 -1.8660574 4288085770
6.7747364 -1.9247016 -1.746891 4293729569
6.195024 -1.7554697 -1.8745713 4288085770
8.9959917 -2.5952344 -1.7172254 4293729569
5.2573061 -1.4855009 -1.8650694 4288085770
6.0940461 -1.7393283 -1.8805782 4282675967
12.085984 -3.5365434 -1.7211229 4288085770
6.058053 -1.7312981 -1.87857 4288085770
10.801383 -3.1562088 -1.7103858 4293729569
5.1433263 -1.4663731 -1.8650726 4288085770
5.9130807 -1.7031469 -1.8765562 4288085770
6.6887059 -1.9486182 -1.7420741 4293729569
5.7721095 -1.675 -1.874539 4288085770
8.9529333 -2.6521618 -1.7195297 4293729569
10.482421 -3.1238382 -1.7134964 4293729569
6.0130157 -1.7602649 -1.8727429 4288085770
5.6281371 -1.6448644 -1.8695151 4288085770
12.01191 -3.6054418 -1.7225101 4288085770
5.4951649 -1.6167315 -1.8664914 4288085770
6.6106753 -1.973539 -1.7382554 4293729569
5.3691916 -1.589606 -1.8634669 4288085770
10.164461 -3.0874741 -1.715587 4293729569
8.9158716 -2.7091019 -1.7208291 4293729569
5.2602167 -1.5674754 -1.8654519 4288085770
5.8919907 -1.76722 -1.8518742 4288085770
11.961829 -3.6823604 -1.7249155 4293729569
5.1472421 -1.5423551 -1.8644259 4288085770
9.8365059 -3.0431235 -1.7126478 4293729569
6.5546436 -2.0044549 -1.7404469 4293729569
8.8638134 -2.7610393 -1.7191172 4293729569
5.751967 -1.7671882 -1.8239882 4288085770
11.903751 -3.7562761 -1.7263134 4288085770
9.5315475 -3.0027881 -1.7117088 4293729569
6.4976101 -2.0353792 -1.7406393 4293729569
8.8037577 -2.8099778 -1.7153978 4293729569
5.6199436 -1.7671605 -1.7970957 4288085770
9.2515888 -2.9664655 -1.713768 4293729569
11.873666 -3.8382168 -1.7287259 4288085770
6.4425774 -2.0653059 -1.7408253 4293729569
8.9396381 -2.9151521 -1.7067826 4293729569
8.7177048 -2.8499167 -1.7056572 4293729569
5.4939222 -1.7671347 -1.7711982 4293729569
11.83758 -3.9191554 -1.730139 4288085770
6.382545 -2.0922418 -1.7380012 4293729569
8.7296667 -2.8948724 -1.7158599 4293729569
11.580602 -3.897872 -1.7292507 4288085770
8.7296352 -2.9218802 -1.7129874 4293729569
5.408896 -1.7800959 -1.7573283 4293729569
8.454711 -2.8495848 -1.7118722 4293729569
6.3365097 -2.1251729 -1.7391942 4293729569
11.136697 -3.8053985 -1.72618 4293729569
8.7175684 -2.9858422 -1.7152996 4293729569
5.3598671 -1.8040435 -1.7544807 4293729569
8.2787371 -2.8353181 -1.7259498 4293729569
10.742784 -3.7249694 -1.7251246 4293729569
6.2624812 -2.1461174 -1.7313533 4293729569
8.1267605 -2.8270683 -1.742036 4293729569
10.410856 -3.6615744 -1.7310988 4293729569
8.7214956 -3.0568061 -1.7206316 4293729569
5.3218369 -1.8319887 -1.7546432 4293729569
7.9697857 -2.8138232 -1.7561026 4293729569
6.2274446 -2.1810565 -1.7335465 4293729569
10.096927 -3.6011934 -1.7380722 4293729569
5.2438107 -1.8449575 -1.7407675 4293729569
8.7224236 -3.1257772 -1.7239569 4293729569
7.7788191 -2.7865796 -1.762131 4288085770
9.7570038 -3.5278232 -1.7370055 4288085770
6.1854091 -2.213002 -1.7327313 4293729569
7.6128483 -2.7663438 -1.7721719 4288085770
9.4140863 -3.4484649 -1.7329129 4293729569
5.1797824 -1.8619274 -1.7298993 4293729569
8.7343502 -3.1987555 -1.728292 4293729569
6.1443744 -2.2449439 -1.7329154 4293729569
7.4098864 -2.7311158 -1.7721723 4288085770
9.1131563 -3.3821325 -1.7328472 4293729569
5.1277547 -1.881891 -1.7230352 4293729569
8.7422771 -3.2697339 -1.7316211 4293729569
7.1839309 -2.6829021 -1.76413 4288085770
8.821228 -3.314815 -1.7317693 4293729569
6.0853438 -2.2679002 -1.7260717 4293729569
8.5722904 -3.2605202 -1.7357177 4293729569
6.9659743 -2.6356974 -1.7560858 4293729569
5.0777259 -1.9028569 -1.7161744 4293729569
8.740202 -3.338716 -1.731949 4293729569
6.0353098 -2.2948613 -1.7202396 4293729569
8.321352 -3.2022426 -1.7356486 4293729569
6.7880111 -2.6014972 -1.7560703 4293729569
5.0077019 -1.9138398 -1.701283 4293729569
8.7611237 -3.4157081 -1.735296 4293729569
8.0774145 -3.1439724 -1.7355738 4293729569
6.585053 -2.5543184 -1.7460138 4293729569
6.0152717 -2.3328116 -1.7234348 4293729569
7.8424754 -3.0857127 -1.7354915 4293729569
6.3980942 -2.5111377 -1.7399629 4293729569
4.9416776 -1.9258174 -1.6883926 4293729569
8.7880392 -3.4957027 -1.7396524 4293729569
7.6325297 -3.035475 -1.7364265 4293729569
5.9712381 -2.3597751 -1.7185979 4293729569
6.2051358 -2.4629757 -1.7288934 4293729569
7.4225869 -2.9832373 -1.7373521 4293729569
4.9056478 -1.949789 -1.6835346 4293729569
8.7959633 -3.5677006 -1.7389864 4288085770
6.0251765 -2.418812 -1.7208321 4293729569
5.9202051 -2.3847401 -1.7117571 4293729569
7.2116432 -2.9270184 -1.7342595 4293729569
5.8832088 -2.3876569 -1.7198011 4293729569
7.0186973 -2.8768044 -1.7341805 4293729569
4.8726182 -1.9737595 -1.679674 4293729569
8.8328772 -3.6527009 -1.7443582 4288085770
5.9391589 -2.4366949 -1.7229866 4293729569
5.7182465 -2.3455102 -1.7117368 4293729569
6.8397479 -2.8296058 -1.7341043 4293729569
5.5432858 -2.2973821 -1.6976525 4293729569
6.6777925 -2.7884161 -1.7360424 4293729569
4.8375883 -1.9967325 -1.6748103 4293729569
8.8627892 -3.7347126 -1.7457217 4288085770
5.9151201 -2.4716604 -1.7221711 4293729569
6.5238385 -2.74823 -1.7389789 4293729569
5.2643495 -2.2012999 -1.6504264 4293729569
6.3558879 -2.7000537 -1.7368886 4293729569
4.7955613 -2.0157127 -1.6669337 4293729569
8.8997002 -3.8217223 -1.7491031 4288085770
5.1213827 -2.1621871 -1.6403583 4293729569
5.8840842 -2.5026283 -1.7193425 4293729569
6.1899366 -2.6508887 -1.7327924 4293729569
4.975419 -2.1190767 -1.6292738 4293729569
6.0099897 -2.5937381 -1.7226694 4293729569
4.7125416 -2.0157204 -1.6440008 4293729569
8.9376097 -3.9077382 -1.7514793 4288085770
5.8650451 -2.5385997 -1.7185276 4293729569
4.8594484 -2.0889599 -1.6262261 4293729569
5.8630342 -2.5485897 -1.7195764 4293729569
4.7444797 -2.0568497 -1.6221679 4293729569
5.7110806 -2.5004497 -1.7134731 4293729569
4.6465187 -2.0227225 -1.626087 4293729569
5.8260093 -2.565583 -1.7106866 4293729569
4.636508 -2.0267467 -1.6181138 4293729569
5.541131 -2.4423294 -1.6993374 4293729569
5.2752042 -2.3382547 -1.6540626 4293729569
4.5525322 -2.0066316 -1.6220871 4293729569
4.6014934 -2.0377145 -1.6151937 4293729569
5.8249655 -2.6085546 -1.7138902 4293729569
5.0542665 -2.25318 -1.6188409 4293729569
4.5115476 -2.0055008 -1.6391152 4293729569
4.8393269 -2.1681173 -1.5826144 4293729569
4.4875607 -2.0113552 -1.6631624 4293729569
4.7083683 -2.1200304 -1.5704941 4293729569
4.5714645 -2.0596979 -1.6093212 4293729569
5.8049269 -2.6425347 -1.7110667 4293729569
4.4315805 -2.0012372 -1.6741602 4293729569
4.6483932 -2.1049099 -1.5814714 4293729569
4.5874181 -2.0887928 -1.591445 4293729569
4.3606038 -1.9831321 -1.6791323 4293729569
4.5294447 -2.0716846 -1.6004117 4293729569
4.5324383 -2.0756915 -1.5994279 4293729569
5.7968845 -2.6815135 -1.7112572 4293729569
4.4864655 -2.0625679 -1.6144035 4293729569
4.4574862 -2.0574436 -1.6334029 4293729569
4.4095078 -2.0443416 -1.6433803 4293729569
4.50741 -2.097681 -1.5935516 4293729569
5.7798448 -2.7155023 -1.7074316 4293729569
4.3625317 -2.0302362 -1.6543521 4293729569
4.3075571 -2.0111461 -1.6603067 4293729569
4.2525835 -1.9910568 -1.6662565 4293729569
5.7967954 -2.7664793 -1.7136583 4293729569
4.4823804 -2.1206708 -1.5876799 4293729569
5.8077464 -2.8144643 -1.7168761 4293729569
4.444356 -2.1346707 -1.5767763 4293729569
5.8037038 -2.8534577 -1.7150635 4293729569
4.423327 -2.1566656 -1.5708967 4293729569
5.7466769 -2.8654664 -1.6981664 4293729569
4.3952994 -2.1746664 -1.562004 4293729569
4.505022 -2.258858 -1.3343092 4293729569
4.3772707 -2.1976647 -1.5561268 4293729569
4.4500036 -2.2618744 -1.3163676 4293729569
4.3522425 -2.2166693 -1.5472363 4293729569
4.6235123 -2.3692272 -0.85972792 4293729569
4.4209785 -2.2758853 -1.305457 4293729569
4.3282161 -2.2346711 -1.5393403 4293729569
4.4955239 -2.3342226 -0.82966614 4293729569
4.5313029 -2.3563917 -0.591739 4293729569
4.3859563 -2.2868998 -1.2925369 4293729569
4.5101876 -2.3679562 -0.46680909 4293729569
4.3141861 -2.2576737 -1.5334599 4293729569
4.4515014 -2.3422413 -0.8137393 4293729569
4.4552979 -2.3473859 -0.57375771 4293729569
4.5159903 -2.3859854 -0.25088692 4293729569
4.3729272 -2.3089097 -1.285651 4293729569
4.4522028 -2.3648188 -0.48084125 4293729569
4.2901592 -2.2746851 -1.5235591 4293729569
4.4264712 -2.360266 -0.80084419 4293729569
4.4420185 -2.3718221 -0.26688007 4293729569
4.425271 -2.3624053 -0.56085259 4293729569
4.3558984 -2.3279245 -1.276754 4293729569
4.4192038 -2.3756979 -0.49691927 4293729569
4.27913 -2.2976921 -1.5176762 4293729569
4.4060245 -2.3786941 -0.28394166 4293729569
4.4014416 -2.3782902 -0.78794914 4293729569
4.4002419 -2.3794305 -0.54795277 4293729569
4.3398709 -2.3469403 -1.2678564 4293729569
4.3942051 -2.3885767 -0.51500034 4293729569
4.3910213 -2.3955843 -0.30203351 4293729569
4.2700992 -2.321701 -1.5117965 4293729569
4.383409 -2.3993182 -0.77606261 4293729569
4.3792109 -2.3984551 -0.53605926 4293729569
4.3328419 -2.3699522 -1.2619704 4293729569
4.3732023 -2.4044595 -0.53309238 4293729569
4.367022 -2.4074693 -0.31910908 4293729569
4.2680678 -2.3487029 -1.5089253 4293729569
4.3258109 -2.391974 -1.2540798 4293729569
4.3641791 -2.4194858 -0.52417028 4293729569
4.3673768 -2.4203479 -0.76417458 4293729569
4.3631968 -2.42435 -0.55219436 4293729569
4.3570175 -2.4263597 -0.33820635 4293729569
4.2780304 -2.3827085 -1.5080775 4293729569
4.3267784 -2.4189894 -1.2492063 4293729569
4.36234 -2.4463801 -0.75430113 4293729569
4.3531442 -2.4425216 -0.51228768 4293729569
4.3591871 -2.4482467 -0.5713104 4293729569
4.3490124 -2.4462528 -0.35730681 4293729569
4.2859969 -2.4137125 -1.5072172 4293729569
4.3337431 -2.4480124 -1.2443374 4293729569
4.3481832 -2.4671314 -0.59140849 4293729569
4.3401117 -2.4635556 -0.50039715 4293729569
4.3430071 -2.4661484 -0.37640563 4293729569
4.3533044 -2.4704182 -0.74242163 4293729569
4.2979608 -2.4477158 -1.5073678 4293729569
4.3427076 -2.4780326 -1.2404716 4293729569
4.3380017 -2.4860404 -0.39650363 4293729569
4.351172 -2.4940262 -0.61253315 4293729569
4.3490677 -2.4966083 -0.48954564 4293729569
4.3602619 -2.5034585 -0.73357165 4293729569
4.371665 -2.5190506 -1.2416415 4293729569
4.3279166 -2.4917195 -1.5115513 4293729569
4.3409929 -2.5099411 -0.41661412 4293729569
4.3661556 -2.5269246 -0.63567638 4293729569
4.3500276 -2.5256522 -0.47868162 4293729569
4.3742156 -2.5395074 -0.72473025 4293729569
6.2028818 -3.6456182 -1.7414836 4288085770
4.8257084 -2.817452 -1.6776878 4293729569
4.3549776 -2.5398493 -0.43774411 4293729569
4.3801398 -2.5598221 -0.65882051 4293729569
4.3929644 -2.578727 -0.4708972 4293729569
6.2418213 -3.7016556 -1.7407169 4288085770
4.3859549 -2.5797651 -0.46090764 4293729569
4.8996463 -2.8904312 -1.6969726 4293729569
6.2917571 -3.7636964 -1.7419699 4288085770
4.9825797 -2.9684205 -1.716274 4293729569
6.3486872 -3.8297441 -1.7432363 4288085770
5.0175304 -3.0174301 -1.7204773 4293729569
6.4016223 -3.891793 -1.7434869 4288085770
5.0524817 -3.0654497 -1.722676 4293729569
6.4695501 -3.9628432 -1.7467678 4288085770
5.0844336 -3.1114709 -1.7238674 4293729569
5.1193843 -3.1584961 -1.7250615 4293729569
5.154336 -3.2045267 -1.7252508 4293729569
5.1962843 -3.2545545 -1.7274534 4293729569
5.2452316 -3.307586 -1.7306644 4293729569
5.2771854 -3.3486285 -1.7278326 4293729569
5.3301296 -3.4036644 -1.73105 4293729569
5.378077 -3.4537098 -1.7312478 4293729569
5.4270229 -3.5037613 -1.7304449 4293729569
5.5019593 -3.569803 -1.7376966 4293729569
5.5539036 -3.6208627 -1.735896 4293729569
5.618845 -3.6779184 -1.7381132 4293729569
5.6937804 -3.7419794 -1.7413555 4293729569
5.7737145 -3.8070419 -1.7455986 4293729569
5.8366556 -3.8601198 -1.7427987 4293729569
5.9215889 -3.9261932 -1.7460425 4293729569
10.713791 7.5802674 -1.6175411 4288085770
10.981928 7.768043 -1.6123805 4288085770
10.487676 7.4184804 -1.6265366 4288085770
11.301094 7.9888048 -1.6120132 4288085770
10.3246 7.299685 -1.6432651 4288085770
10.166522 7.1808829 -1.6589893 4288085770
10.003437 7.0560689 -1.6717477 4288085770
9.8313437 6.9222474 -1.6815584 4288085770
9.6062117 6.7504125 -1.6806027 4288085770
9.2880125 6.5105476 -1.6600636 4288085770
9.0148401 6.3016748 -1.6443322 4288085770
8.8507404 6.1668186 -1.6481409 4288085770
8.7116518 6.0479498 -1.652849 4288085770
8.5825701 5.9340734 -1.6575236 4288085770
8.4484806 5.8151956 -1.6612272 4288085770
8.3274002 5.7053132 -1.6658752 4288085770
8.2323322 5.6104269 -1.6734265 4288085770
11.597971 7.848629 -1.6114529 4288085770
8.1372643 5.5155354 -1.6799779 4288085770
11.358821 7.6478367 -1.6166528 4288085770
8.0562038 5.4286437 -1.6884776 4288085770
11.148688 7.4660344 -1.6237335 4288085770
7.976141 5.3407464 -1.6959814 4288085770
10.995584 7.3202176 -1.6365874 4288085770
7.9080844 5.2598462 -1.7044402 4288085770
10.85649 7.1833968 -1.6503843 4288085770
7.8290195 5.1709394 -1.7099481 4288085770
10.748413 7.0645671 -1.6670657 4288085770
7.7519536 5.0830216 -1.7134492 4288085770
10.614316 6.9287267 -1.6778536 4288085770
5.0186634 3.2804883 -1.8007201 4288085770
4.9646392 3.245544 -1.8039396 4288085770
5.0746875 3.3164306 -1.7974941 4288085770
7.6928983 5.0051098 -1.7208854 4288085770
4.8956017 3.1995769 -1.8002262 4288085770
5.1467209 3.3603814 -1.7982147 4288085770
4.8455768 3.1646261 -1.8024423 4288085770
10.335128 6.6978736 -1.6642361 4288085770
5.2057424 3.3943176 -1.7939957 4288085770
4.7885451 3.1236656 -1.8016938 4288085770
5.2877803 3.4422669 -1.7956878 4288085770
4.7385168 3.0867054 -1.8019196 4288085770
5.3558049 3.480197 -1.7914414 4288085770
4.6944909 3.0517459 -1.8031303 4288085770
5.4408412 3.5271444 -1.7931358 4288085770
7.6188321 4.9171901 -1.724384 4288085770
4.664475 3.0248015 -1.8092891 4288085770
10.07195 6.4790072 -1.6505454 4288085770
5.5318775 3.5760832 -1.7938153 4288085770
4.6124401 2.9838235 -1.8055364 4288085770
5.617909 3.6210105 -1.7915188 4288085770
4.5774169 2.9518633 -1.8077244 4288085770
5.6889277 3.6549251 -1.7842895 4288085770
7.5467653 4.8292651 -1.7268807 4288085770
9.8607988 6.2931314 -1.6426468 4288085770
4.5473967 2.9219098 -1.8118981 4288085770
5.7849607 3.7018509 -1.7829744 4288085770
4.5143719 2.8889439 -1.8130891 4288085770
5.8709841 3.7417595 -1.7767026 4288085770
7.465692 4.7363305 -1.72641 4288085770
9.7316999 6.1592598 -1.6474204 4288085770
4.4723392 2.8509603 -1.8093128 4288085770
5.9630113 3.7836738 -1.7724159 4288085770
6.0980597 3.8615131 -1.7599144 4288085770
6.1750908 3.90943 -1.7546111 4288085770
6.0140204 3.8075874 -1.7622534 4288085770
5.9570003 3.7706759 -1.7714851 4288085770
6.2581229 3.9583426 -1.7492976 4288085770
5.8899684 3.7247479 -1.7757699 4288085770
6.3501606 4.012259 -1.7459515 4288085770
4.439311 2.8159847 -1.8085136 4288085770
5.832943 3.6848226 -1.7820165 4288085770
6.4441967 4.0661631 -1.7406039 4288085770
6.0450263 3.8165717 -1.7631822 4288085770
6.5452342 4.1220689 -1.7362401 4288085770
5.7759156 3.6418979 -1.788278 4288085770
9.609602 6.0293775 -1.6511681 4288085770
7.3756094 4.6353841 -1.7219864 4288085770
6.6492734 4.1789713 -1.7318691 4288085770
5.7108808 3.5949538 -1.789566 4288085770
4.4042802 2.7800066 -1.8067213 4288085770
6.1430531 3.859472 -1.7568853 4288085770
6.7533078 4.23386 -1.7245079 4288085770
5.6448436 3.5450118 -1.7908696 4288085770
6.8703489 4.294754 -1.7201059 4288085770
5.5938144 3.5030735 -1.795121 4288085770
6.2590876 3.9103796 -1.7545334 4288085770
4.377255 2.7470326 -1.8069072 4288085770
9.4935064 5.9024916 -1.6548959 4288085770
7.0204091 4.3736529 -1.7215863 4288085770
7.3215508 4.5584497 -1.7254133 4288085770
5.539782 3.4591224 -1.7963846 4288085770
7.1664643 4.4495463 -1.7210852 4288085770
6.3741188 3.9592781 -1.750192 4288085770
5.4747381 3.4061608 -1.7937022 4288085770
4.3522291 2.7150574 -1.8070863 4288085770
7.3295264 4.5324306 -1.721535 4288085770
5.4217029 3.3602047 -1.7939748 4288085770
9.3934193 5.7866025 -1.6605555 4288085770
6.4911489 4.0071707 -1.7448542 4288085770
7.2404733 4.4634976 -1.7209525 4288085770
4.3262024 2.6830785 -1.8062663 4288085770
7.4875813 4.6103063 -1.7190138 4288085770
5.3676648 3.3122451 -1.7932583 4288085770
7.6706505 4.7011867 -1.7214067 4288085770
6.6181836 4.0590658 -1.741488 4288085770
5.3226323 3.2692897 -1.7945089 4288085770
4.3061776 2.6521003 -1.8064361 4288085770
9.3073406 5.6777048 -1.6661685 4288085770
7.8657222 4.7970543 -1.7227647 4288085770
7.1874137 4.3865585 -1.7233784 4288085770
5.2886052 3.2323301 -1.796721 4288085770
6.7562208 4.1149535 -1.7380924 4288085770
4.2781458 2.6161087 -1.8026376 4288085770
8.0577879 4.886909 -1.7211549 4288085770
10.425864 6.2902131 -0.53216332 4293729569
5.2485723 3.190371 -1.7979624 4288085770
9.2212591 5.5688057 -1.6717814 4288085770
6.8892546 4.1668396 -1.7337214 4288085770
8.2498493 4.9757547 -1.7175504 4288085770
7.1343522 4.30861 -1.7238092 4288085770
4.2611222 2.5861337 -1.8037997 4288085770
5.2025342 3.1443968 -1.795229 4288085770
8.4469099 5.0645914 -1.7129414 4288085770
7.0252857 4.2177186 -1.7283523 4288085770
10.371819 6.1964355 -0.56667447 4293729569
9.1641932 5.4769011 -1.6802852 4288085770
5.1795106 3.1104407 -1.7994163 4288085770
4.2491007 2.5591555 -1.8049427 4288085770
7.0942984 4.2376666 -1.7271942 4288085770
8.6309595 5.1424146 -1.7033983 4288085770
7.1703191 4.2715869 -1.7219609 4288085770
5.1384735 3.0654681 -1.7976736 4288085770
10.222725 6.0456953 -0.594549 4293729569
8.8490248 5.237236 -1.698742 4288085770
4.2310739 2.5271721 -1.8041155 4288085770
9.1121292 5.3879929 -1.6887701 4288085770
7.3483715 4.3424702 -1.7234573 4288085770
7.0672526 4.1747236 -1.7325286 4288085770
5.0984359 3.0214853 -1.7939248 4288085770
9.0630846 5.3280458 -1.6911088 4288085770
4.2200503 2.4991884 -1.8042626 4288085770
10.084637 5.901947 -0.62237942 4293729569
7.5104084 4.4013309 -1.7180268 4288085770
9.0580635 5.2960863 -1.6972712 4288085770
5.0784111 2.9875221 -1.7971096 4288085770
9.2901468 5.4218464 -1.6834497 4288085770
7.0392046 4.1107769 -1.7368686 4288085770
4.2060246 2.469203 -1.8034222 4288085770
7.7224727 4.4862046 -1.7224246 4288085770
9.9425449 5.7561908 -0.64822316 4293729569
5.053381 2.9495547 -1.7983184 4288085770
9.5322142 5.5216417 -1.6767484 4288085770
8.9969931 5.2011642 -1.7017936 4288085770
7.0111547 4.0458255 -1.7402138 4288085770
4.210011 2.4472392 -1.8095267 4288085770
9.7862806 5.6244183 -1.668022 4288085770
7.8925076 4.5440502 -1.7149923 4288085770
5.0263486 2.9105723 -1.7965337 4288085770
9.8324699 5.6314111 -0.67393553 4293729569
8.9419241 5.1092386 -1.7062957 4288085770
10.073365 5.7431898 -1.6631883 4288085770
5.0083208 2.8756042 -1.7987217 4288085770
4.2019877 2.4192538 -1.809671 4288085770
8.1065655 4.6239076 -1.7164136 4288085770
6.9941111 3.986876 -1.7455198 4288085770
9.7484026 5.5196123 -0.69956142 4293729569
10.170335 5.7499356 -1.6250715 4293729569
4.9942951 2.8416286 -1.7999009 4288085770
8.3426332 4.7127542 -1.7187715 4288085770
8.9008627 5.0243173 -1.7137513 4288085770
4.1949625 2.390264 -1.8088195 4288085770
6.9640594 3.9209161 -1.7468714 4288085770
9.558919 5.3596606 -1.478525 4293729569
9.6773424 5.4168091 -0.72613156 4293729569
4.9732637 2.8046479 -1.7991012 4288085770
8.5836973 4.8005924 -1.7201302 4288085770
11.139545 6.2033811 -0.25598079 4293729569
4.1959448 2.3662879 -1.8119364 4288085770
8.8467913 4.9323816 -1.7162527 4288085770
9.385747 5.2164207 -1.4033815 4293729569
6.940011 3.8579574 -1.7492031 4288085770
4.9592352 2.7696681 -1.7992857 4288085770
9.6392965 5.3299861 -0.75359434 4293729569
8.8277597 4.8884187 -1.7194866 4288085770
4.1869173 2.3352947 -1.8100964 4288085770
11.062481 6.0846229 -0.29063547 4293729569
9.393672 5.1731787 -1.3545882 4293729569
8.7817135 4.8344393 -1.715793 4288085770
4.9472089 2.7356913 -1.8004632 4288085770
9.0698137 4.9692369 -1.7168794 4288085770
6.9239645 3.7979977 -1.7525129 4288085770
9.6292629 5.2591467 -0.78195405 4293729569
9.416604 5.1369419 -1.3087474 4293729569
4.1918988 2.311317 -1.8132097 4288085770
10.977412 5.9608655 -0.32432184 4293729569
8.7206383 4.7384987 -1.7163203 4288085770
4.9351788 2.7007051 -1.7996459 4288085770
9.3278732 5.0550437 -1.7142339 4288085770
9.4405355 5.0997086 -1.2639109 4293729569
9.5972176 5.1753139 -0.808397 4293729569
6.9239283 3.7470462 -1.7597648 4288085770
4.1998825 2.2893412 -1.8173106 4288085770
10.88734 5.836103 -0.35601732 4293729569
4.9231496 2.6657243 -1.7998285 4288085770
9.5909319 5.140842 -1.7105843 4288085770
8.6445541 4.6355453 -1.7118948 4288085770
9.4594631 5.0574703 -1.2171032 4293729569
9.6141939 5.1174555 -0.83666945 4293729569
4.1948543 2.2583413 -1.8144671 4288085770
6.9479055 3.7081015 -1.7719368 4288085770
4.9201241 2.6337419 -1.8009886 4288085770
10.891308 5.7612801 -0.38938525 4293729569
9.8769951 5.2336273 -1.7078806 4288085770
9.4823942 5.0182376 -1.1722775 4293729569
8.6054888 4.5515985 -1.7143435 4288085770
9.6501799 5.0685916 -0.86688107 4293729569
4.2038369 2.2353609 -1.8175721 4288085770
4.9120951 2.5997536 -1.8001627 4288085770
6.9358611 3.6501343 -1.7742333 4288085770
10.158051 5.3194027 -1.702216 4288085770
9.5103264 4.9790077 -1.1284473 4293729569
10.826243 5.6494884 -0.41899511 4293729569
3.7716801 1.9998059 -1.8421072 4282675967
8.5854321 4.4776483 -1.7187269 4288085770
3.7566442 1.9866643 -1.8111844 4288085770
3.8046577 2.0066252 -1.8100442 4288085770
9.7051697 5.0287199 -0.89803207 4293729569
4.2118177 2.211376 -1.8196827 4288085770
4.9110703 2.5687699 -1.8013158 4288085770
9.5672674 4.9527659 -1.0865282 4293729569
3.8746841 2.0356109 -1.8168408 4288085770
10.404083 5.3831606 -1.6876904 4288085770
6.9388227 3.5991714 -1.7794826 4288085770
3.937706 2.0615859 -1.820658 4288085770
10.73817 5.5276999 -0.44567406 4293729569
3.9897168 2.0805349 -1.8175194 4288085770
8.5343609 4.3886909 -1.7172107 4288085770
9.5981998 4.912539 -1.0437005 4293729569
4.0547352 2.1045053 -1.8203449 4288085770
4.9060416 2.5347803 -1.8004876 4288085770
9.8997326 5.0628867 -1.5567052 4293729569
4.2197967 2.1863868 -1.8207985 4288085770
9.7011347 4.9568672 -0.92439175 4293729569
4.1217537 2.1294634 -1.8211637 4288085770
6.9507885 3.5512118 -1.7867093 4288085770
10.73013 5.4448709 -0.47609186 4293729569
4.1917729 2.1544249 -1.8229799 4288085770
9.6361341 4.8753061 -1.0008521 4293729569
8.5123024 4.3127327 -1.7196054 4288085770
9.6535177 4.8776436 -1.4698316 4293729569
4.9070153 2.5037904 -1.8006392 4288085770
4.2457795 2.1713583 -1.8168494 4288085770
4.2267742 2.1603932 -1.8209199 4288085770
4.1597457 2.1264238 -1.8171452 4288085770
4.1007199 2.0964434 -1.8123438 4288085770
4.2127652 2.152384 -1.8169714 4288085770
9.8521662 4.9629636 -0.96323335 4293729569
4.2527738 2.1713245 -1.8108433 4288085770
4.0647097 2.0774963 -1.8174684 4288085770
4.0166893 2.0525227 -1.8156331 4288085770
4.3057909 2.1952806 -1.8096794 4288085770
3.9726698 2.0275519 -1.8147941 4288085770
4.3658104 2.2222371 -1.8094946 4288085770
3.9376576 2.0075941 -1.8179226 4288085770
4.3097906 2.1913002 -1.8136954 4288085770
4.4268308 2.2491922 -1.809309 4288085770
3.8956366 1.9826176 -1.816082 4288085770
6.9567523 3.5012467 -1.7919512 4288085770
10.701078 5.3520427 -0.50357705 4293729569
4.4958534 2.2791519 -1.8111016 4288085770
9.6860695 4.8420706 -0.95897371 4293729569
3.8546159 1.9576406 -1.8142405 4288085770
4.561872 2.3060999 -1.8099117 4288085770
4.3828077 2.2152553 -1.8145142 4288085770
9.6814423 4.8284111 -1.4250512 4293729569
3.8195984 1.9356638 -1.8133787 4288085770
4.9089894 2.4728003 -1.80079 4288085770
4.6298923 2.3340456 -1.8087151 4288085770
8.5012503 4.2427759 -1.7239611 4288085770
4.2317505 2.1333969 -1.820048 4288085770
3.7725706 1.9066669 -1.8065622 4288085770
9.76509 4.8491178 -0.97887176 4293729569
4.6979084 2.3599875 -1.8065283 4288085770
4.4578233 2.2391989 -1.813331 4288085770
3.7745776 1.9007434 -1.8215896 4288085770
4.7739296 2.3899331 -1.8063149 4288085770
9.8000345 4.8388219 -0.92389232 4293729569
10.657022 5.253221 -0.53010476 4293729569
4.8459463 2.4168668 -1.8031198 4288085770
6.9457026 3.4412649 -1.7912569 4288085770
4.5328374 2.2621377 -1.8111529 4288085770
9.7503853 4.8001766 -1.3861318 4293729569
4.9099603 2.4398069 -1.7999513 4288085770
4.9149594 2.4407933 -1.7979422 4288085770
8.4951982 4.1748157 -1.7283027 4288085770
4.2457328 2.1104133 -1.8231487 4288085770
4.6098518 2.2850757 -1.8089732 4288085770
9.8140726 4.8012362 -1.0070677 4293729569
4.9879727 2.4657176 -1.7927561 4288085770
9.8509712 4.8035855 -0.88202304 4293729569
5.0799961 2.4986525 -1.7925142 4288085770
4.6978707 2.3120255 -1.8107642 4288085770
10.641973 5.1663728 -0.55554843 4293729569
9.8473425 4.7839465 -1.3521292 4293729569
6.9536657 3.3912985 -1.796497 4288085770
4.9219398 2.4128249 -1.8030738 4288085770
5.1830263 2.5365992 -1.7962381 4288085770
8.5071554 4.1158566 -1.7355845 4288085770
4.7808843 2.3349545 -1.8075792 4288085770
4.2607126 2.0864248 -1.8252535 4288085770
9.8850651 4.7633486 -1.0371953 4293729569
5.2780476 2.5685225 -1.7939987 4288085770
9.9309187 4.7803431 -0.84306973 4293729569
5.3920784 2.6084616 -1.7977034 4288085770
9.9322901 4.7597156 -1.3161768 4293729569
