# .PCD v0.7 - Point Cloud Data file format
VERSION 0.7
FIELDS x y z rgb
SIZE 4 4 4 4
TYPE F F F U
COUNT 1 1 1 1
WIDTH 1127
HEIGHT 1
VIEWPOINT 0 0 0 1 0 0 0
POINTS 1127
DATA ascii
19.454254 -6.4188108 -2.1179979 4293729569
13.157654 -4.4159021 -2.2098358 4288085770
13.280792 -4.3468561 -2.2216876 4288085770
18.515198 -5.8242321 -2.0081699 4293729569
13.322906 -4.2508473 -2.2205756 4288085770
18.532318 -5.6852369 -2.0010378 4293729569
13.44101 -4.1778073 -2.2284281 4288085770
13.505096 -4.0877919 -2.2283046 4288085770
13.617218 -4.0097556 -2.2321575 4288085770
13.730347 -3.9317198 -2.2350085 4288085770
13.905487 -3.8706574 -2.2458293 4288085770
14.061584 -3.8016047 -2.2526572 4288085770
14.255676 -3.7395358 -2.2624633 4288085770
14.450836 -3.6764679 -2.2702672 4288085770
14.699921 -3.6223774 -2.2850406 4288085770
14.942078 -3.5652914 -2.2958152 4288085770
15.240173 -3.5171809 -2.312557 4288085770
15.533356 -3.4630752 -2.3262975 4288085770
15.897461 -3.4209399 -2.3469961 4288085770
16.200562 -3.362833 -2.356725 4288085770
16.505676 -3.2997284 -2.3644488 4288085770
16.783813 -3.2286372 -2.3651841 4288085770
17.054932 -3.154551 -2.3629215 4288085770
17.367004 -3.0834494 -2.3636329 4288085770
17.747131 -3.01932 -2.3692997 4288085770
18.111237 -2.9501987 -2.3699744 4288085770
18.45636 -2.8730898 -2.3646543 4288085770
18.877441 -2.8029504 -2.3662856 4288085770
19.430328 1.5112219 -2.2294652 4288085770
18.563446 1.5559177 -2.2242072 4288085770
17.744568 1.5976248 -2.2149088 4288085770
16.303772 1.5182686 -1.2453005 4293729569
15.60257 1.511735 -2.0359471 4293729569
15.523895 1.5440111 -1.2589834 4293729569
15.643768 1.6098108 -2.1128075 4293729569
13.71701 1.4613276 -1.1847126 4293729569
15.588928 1.6988401 -2.1757653 4288085770
13.854156 1.5584259 -1.2544882 4293729569
15.047028 1.7376471 -2.173219 4288085770
13.634308 1.619381 -1.294625 4293729569
13.603058 1.6680317 -2.037605 4293729569
13.219452 1.656249 -1.3129647 4293729569
12.735138 1.6516724 -1.9724123 4293729569
12.817596 1.6911201 -1.3292944 4293729569
12.753265 1.7347221 -2.0293105 4293729569
12.547729 1.7380428 -1.3544924 4293729569
12.794464 1.8237829 -2.0901816 4288085770
12.564911 1.8210897 -1.4073913 4293729569
12.554596 1.874711 -2.1063478 4288085770
12.420013 1.8820629 -1.4414608 4293729569
12.157715 1.9005575 -2.0946834 4288085770
12.414185 1.9630947 -1.4883826 4293729569
11.775818 1.9254093 -2.0810058 4288085770
12.28833 2.0260744 -1.5204332 4293729569
11.415924 1.9502687 -2.0683086 4288085770
12.265472 2.1050978 -1.5633724 4293729569
11.117035 1.9801569 -2.0625508 4288085770
12.184631 2.1750965 -1.5993745 4293729569
10.816162 2.007041 -2.0527976 4288085770
12.175812 2.2561226 -1.641299 4293729569
10.527313 2.0329247 -2.0420344 4288085770
12.143921 2.3351383 -1.6802475 4293729569
10.25943 2.0588188 -2.0332525 4288085770
12.192047 2.4271889 -1.7271092 4293729569
9.9975281 2.0827131 -2.0214674 4288085770
12.210205 2.5152254 -1.7700026 4293729569
9.759613 2.1086178 -2.0126584 4288085770
12.207367 2.6012516 -1.8079174 4293729569
9.5057373 2.1285114 -1.9968698 4288085770
12.32251 2.7113323 -1.8626993 4293729569
9.3018799 2.1564302 -1.9900272 4288085770
12.806671 2.9005823 -1.969064 4293729569
9.1009827 2.1833477 -1.9811838 4288085770
13.172821 3.0727806 -2.0605533 4288085770
8.9301147 2.2142773 -1.9763086 4288085770
13.051971 3.1417513 -2.0805938 4288085770
8.7152405 2.2331848 -1.9614851 4288085770
12.745087 3.1656322 -2.0708492 4288085770
8.5403442 2.2581091 -1.9516199 4288085770
12.503204 3.20154 -2.068033 4288085770
8.3874817 2.2870455 -1.94473 4288085770
12.228302 3.2264309 -2.0572588 4288085770
8.2645874 2.3219938 -1.942807 4288085770
11.983429 3.2563334 -2.0504515 4288085770
8.140686 2.3549423 -1.9388869 4288085770
11.70755 3.2752199 -2.0346839 4288085770
8.0308228 2.3898954 -1.9369519 4288085770
11.467682 3.3001232 -2.0238779 4288085770
7.9299622 2.4278526 -1.9360063 4288085770
11.199799 3.3150072 -2.0051076 4288085770
7.822052 2.4618082 -1.9320705 4288085770
11.072937 3.3659601 -2.0071719 4288085770
7.710144 2.4947567 -1.9261396 4288085770
10.942017 3.4149084 -2.0082419 4288085770
7.5823059 2.5196962 -1.9142311 4288085770
10.83017 3.4688683 -2.0112889 4288085770
7.4734192 2.5506439 -1.9063003 4288085770
10.736267 3.5258322 -2.0153167 4288085770
7.3925476 2.5876083 -1.9033363 4288085770
10.647339 3.582798 -2.0183403 4288085770
7.317627 2.6265736 -1.9003656 4288085770
10.507507 3.6247387 -2.0114253 4288085770
7.2327576 2.6615343 -1.894408 4288085770
10.37561 3.6666775 -2.0035031 4288085770
7.1689148 2.7024994 -1.8914249 4288085770
10.222717 3.6996088 -1.9906089 4288085770
7.1210022 2.7484789 -1.8924224 4288085770
10.162842 3.7635832 -1.9935987 4288085770
7.0791321 2.7954578 -1.8934133 4288085770
10.060944 3.8125362 -1.987642 4288085770
7.0282593 2.8394337 -1.8914154 4288085770
10.013092 3.8785152 -1.989619 4288085770
6.997345 2.8894167 -1.8923934 4288085770
9.9091797 3.9244661 -1.9806669 4288085770
6.9564819 2.9363937 -1.8903835 4288085770
9.8282776 3.9774237 -1.9736869 4288085770
6.9125977 2.9813662 -1.8863776 4288085770
9.7693787 4.0363922 -1.969681 4288085770
6.8796997 3.0293465 -1.8843591 4288085770
9.7405396 4.1083765 -1.9706333 4288085770
6.8728333 3.0883389 -1.8873055 4288085770
9.7036133 4.1753531 -1.9675992 4288085770
6.8449402 3.138319 -1.8842804 4288085770
9.6757202 4.2453346 -1.965553 4288085770
6.8020935 3.1812925 -1.8772757 4288085770
9.6488342 4.3153152 -1.9625061 4288085770
6.8002014 3.2412863 -1.8782165 4288085770
9.6399536 4.3933058 -1.9614341 4288085770
6.7983093 3.3012791 -1.8791573 4288085770
9.6320496 4.4712934 -1.9593618 4288085770
6.8114319 3.3682766 -1.8820775 4288085770
9.6331482 4.5532846 -1.9572766 4288085770
6.8195496 3.4322748 -1.8830044 4288085770
9.6772766 4.6542988 -1.9621336 4288085770
6.8166504 3.4922657 -1.8799474 4288085770
9.7233887 4.7573071 -1.9649861 4288085770
6.8407593 3.5642681 -1.8828523 4288085770
9.7885132 4.8693266 -1.9708126 4288085770
6.8538818 3.6322632 -1.8817708 4288085770
9.8656006 4.9883518 -1.9776204 4288085770
6.8859863 3.7082701 -1.8836639 4288085770
9.9446716 5.109376 -1.9824245 4288085770
6.9111023 3.7812729 -1.8835671 4288085770
10.041779 5.2394066 -1.9892023 4288085770
6.9452209 3.8592758 -1.883456 4288085770
10.107849 5.3554201 -1.988023 4288085770
6.991333 3.9442844 -1.886327 4288085770
10.198975 5.4844465 -1.9908073 4288085770
7.0234375 4.0212879 -1.883219 4288085770
10.298035 5.618474 -1.9925787 4288085770
7.0825195 4.1123009 -1.8860719 4288085770
10.407135 5.758503 -1.9943354 4288085770
7.1366272 4.2013121 -1.8859313 4288085770
10.551239 5.9195499 -2.0000374 4288085770
7.2197266 4.3063383 -1.8917482 4288085770
10.700348 6.082593 -2.0037334 4288085770
7.2888489 4.4063559 -1.8925822 4288085770
10.895447 6.2736626 -2.0143583 4288085770
7.3689575 4.5103769 -1.8944018 4288085770
11.067535 6.4537153 -2.0180151 4288085770
7.4630737 4.6234026 -1.8971994 4288085770
11.259583 6.6457758 -2.0216415 4288085770
7.5551758 4.7364283 -1.8989995 4288085770
11.450653 6.8388319 -2.0232675 4288085770
7.6702576 4.8634615 -1.9027631 4288085770
11.653717 7.0418959 -2.0248721 4288085770
7.7973328 4.9965038 -1.90851 4288085770
11.904755 7.272975 -2.0304039 4288085770
7.9294434 5.1345444 -1.912246 4288085770
12.230865 7.5500898 -2.0438187 4288085770
8.0875244 5.2875977 -1.9209435 4288085770
12.568878 7.8362036 -2.0562136 4288085770
8.2576294 5.4496527 -1.9286201 4288085770
8.4197388 5.6087017 -1.9323075 4288085770
8.6147766 5.7877674 -1.9399436 4288085770
8.8198547 5.9748354 -1.9465621 4288085770
9.0279541 6.1639013 -1.9521744 4288085770
9.3399963 6.4200163 -1.973624 4288085770
9.6280823 6.6631174 -1.987108 4288085770
9.9401245 6.9222288 -2.0015528 4288085770
10.221191 7.1633177 -2.0060441 4288085770
10.589233 7.4614458 -2.0213964 4288085770
10.953339 7.7585707 -2.0307529 4288085770
18.614807 -1.1977949 -2.3152835 4288085770
17.654968 -1.2091179 -2.3103445 4288085770
16.588043 -1.2044964 -2.2835104 4288085770
15.565155 -1.1928673 -2.2496231 4288085770
14.694244 -1.1841803 -2.224571 4288085770
13.889374 -1.1734695 -2.2014449 4288085770
13.237488 -1.1696968 -2.1911566 4288085770
12.540588 -1.1559525 -2.1669104 4288085770
18.988037 -1.7417121 -2.3362868 4288085770
11.962677 -1.1471586 -2.154537 4288085770
17.942139 -1.7080617 -2.3304064 4288085770
11.427826 -1.1393499 -2.1431172 4288085770
16.853241 -1.6634436 -2.307565 4288085770
10.9039 -1.1265421 -2.127681 4288085770
15.758301 -1.609838 -2.2727234 4288085770
10.401031 -1.1117287 -2.1092198 4288085770
14.742371 -1.5552135 -2.2327936 4288085770
9.959137 -1.0998907 -2.0966952 4288085770
13.839447 -1.5045462 -2.1977437 4288085770
9.5342712 -1.0860481 -2.0831497 4288085770
13.179596 -1.475771 -2.1914442 4288085770
9.083374 -1.066226 -2.0586283 4288085770
12.426697 -1.4310493 -2.1622341 4288085770
8.7154541 -1.0533609 -2.048022 4288085770
11.801758 -1.395278 -2.1428907 4288085770
8.3295898 -1.0345125 -2.0274298 4288085770
11.315918 -1.3724422 -2.1424043 4288085770
7.9907227 -1.0186443 -2.012789 4288085770
10.787994 -1.3406343 -2.1279585 4288085770
7.6968079 -1.0057526 -2.0051005 4288085770
10.289093 -1.3088179 -2.11148 4288085770
7.4159546 -0.99285698 -1.9963949 4288085770
9.828186 -1.2779865 -2.0969579 4288085770
7.1380615 -0.97796535 -1.984688 4288085770
9.3733215 -1.2441597 -2.0764301 4288085770
6.9082031 -0.96704769 -1.9829314 4288085770
8.9554443 -1.2133169 -2.0598643 4288085770
6.6793213 -0.95513248 -1.9781725 4288085770
8.5545349 -1.1824713 -2.0412791 4288085770
6.4824524 -0.94520283 -1.9783804 4288085770
8.1846619 -1.1516132 -2.0236604 4288085770
6.245575 -0.92829895 -1.9656274 4288085770
7.8517151 -1.1247416 -2.0090048 4288085770
6.0346985 -0.91338062 -1.9578464 4288085770
7.5628662 -1.1018496 -2.0023034 4288085770
5.8338013 -0.89846039 -1.949055 4288085770
7.2889404 -1.0779514 -1.9935844 4288085770
5.6379089 -0.88253975 -1.9392574 4288085770
7.0361023 -1.0560455 -1.9878433 4288085770
5.4690552 -0.87060452 -1.9354322 4288085770
6.8041992 -1.0361309 -1.984082 4288085770
5.3091736 -0.85766602 -1.9325969 4288085770
6.5653381 -1.0132227 -1.9753258 4288085770
5.1452942 -0.84273243 -1.9257648 4288085770
6.3434448 -0.99130821 -1.967551 4288085770
4.9864197 -0.82879734 -1.9189279 4288085770
6.120575 -0.96839809 -1.9567773 4288085770
4.8355408 -0.81385803 -1.9130809 4288085770
5.9157104 -0.94647789 -1.9489839 4288085770
4.6896667 -0.79891968 -1.9062293 4288085770
5.7318115 -0.92654991 -1.9431694 4288085770
5.5449524 -0.90562534 -1.9343574 4288085770
5.3780518 -0.88568974 -1.9305241 4288085770
5.2321777 -0.86874485 -1.9296701 4288085770
5.0703125 -0.8488102 -1.9218314 4288085770
4.905426 -0.82688141 -1.9109943 4288085770
4.7695312 -0.80893517 -1.9071281 4288085770
4.4700317 1.1081018 -1.8552115 4288085770
4.5871582 1.1261358 -1.8570464 4288085770
4.7182922 1.1461754 -1.8608615 4288085770
4.8414001 1.1642075 -1.8606884 4288085770
4.9885559 1.1862545 -1.8664815 4288085770
5.140686 1.207304 -1.8722689 4288085770
5.2968445 1.2283525 -1.8760512 4288085770
5.4589233 1.2504025 -1.8798254 4288085770
4.5080566 1.097064 -1.8561518 4288085770
5.6320801 1.2724571 -1.8845851 4288085770
4.6611938 1.1171188 -1.8679392 4288085770
5.814209 1.2945147 -1.8903339 4288085770
4.7843018 1.1291533 -1.8677719 4288085770
6.0083618 1.3175774 -1.8960655 4288085770
4.9254456 1.1441975 -1.8715785 4288085770
6.2164917 1.3426456 -1.9037788 4288085770
5.067627 1.157238 -1.8733857 4288085770
6.4396057 1.3687201 -1.9124715 4288085770
5.2337341 1.1752949 -1.882158 4288085770
6.6957703 1.3998127 -1.9271181 4288085770
5.382843 1.187336 -1.8829572 4288085770
6.9068909 1.4198761 -1.926831 4288085770
5.5519714 1.2023888 -1.8877289 4288085770
7.184021 1.4499722 -1.9404519 4288085770
5.7201233 1.2164412 -1.8905017 4288085770
7.4381714 1.4740524 -1.9451063 4288085770
5.9252625 1.2345095 -1.9012244 4288085770
7.7243042 1.5021477 -1.953717 4288085770
6.1184387 1.2485704 -1.9049656 4288085770
8.0244446 1.5292463 -1.9613111 4288085770
6.3365479 1.2666445 -1.9146717 4288085770
8.3455811 1.5583553 -1.9698756 4288085770
6.5626831 1.2837229 -1.9243681 4288085770
8.6647339 1.5844574 -1.975446 4288085770
6.7668457 1.2947836 -1.9250982 4288085770
9.0858765 1.624609 -1.9958742 4288085770
7.0390015 1.3148794 -1.9397337 4288085770
9.5600281 1.6687841 -2.0222323 4288085770
7.2710876 1.326951 -1.9424274 4288085770
9.9811707 1.7019253 -2.032666 4288085770
7.5372314 1.3420401 -1.9490745 4288085770
10.447327 1.7380867 -2.0470412 4288085770
7.8153687 1.3561306 -1.9567082 4288085770
10.982483 1.7802734 -2.0673225 4288085770
8.1224976 1.3722353 -1.9673026 4288085770
11.522583 1.819458 -2.0825999 4288085770
8.4646606 1.3903551 -1.9818504 4288085770
12.115723 1.8606634 -2.099808 4288085770
8.803833 1.4044676 -1.9904058 4288085770
12.736908 1.900876 -2.1149814 4288085770
9.1749878 1.4205952 -2.0029185 4288085770
12.627899 1.8377304 -2.0131724 4293729569
9.6130981 1.4427528 -2.0243409 4288085770
12.395935 1.7585316 -1.8975327 4293729569
10.038269 1.4589005 -2.0377848 4288085770
12.349976 1.7034197 -1.8096368 4293729569
10.523407 1.4780703 -2.0571501 4288085770
12.513062 1.6734095 -1.7514527 4293729569
11.029602 1.4952497 -2.0764897 4288085770
12.864105 1.6644793 -1.7150128 4293729569
11.545715 1.5094252 -2.0908191 4288085770
13.117218 1.6395035 -1.6627104 4293729569
12.123871 1.5246277 -2.1090691 4288085770
13.327301 1.6075068 -1.6044691 4293729569
12.730042 1.5378361 -2.1262853 4288085770
13.642365 1.5835543 -1.5560873 4293729569
13.369202 1.5500565 -2.14346 4288085770
14.027466 1.5646296 -1.5126121 4293729569
14.014343 1.5552692 -2.1536329 4288085770
14.449554 1.5447149 -1.4670904 4293729569
14.794495 1.5675421 -2.1766284 4288085770
14.906616 1.5218105 -1.4215276 4293729569
15.491638 1.5637674 -2.1797431 4288085770
15.503723 1.5079584 -1.382777 4293729569
15.6427 1.5047369 -2.1086013 4293729569
17.336945 1.5744019 -2.2223823 4288085770
18.293121 1.5667171 -2.2321703 4288085770
19.24826 1.5510263 -2.2359674 4288085770
5.7516785 -4.4118614 -0.67481971 4293729569
5.8068542 -4.461803 -0.71979642 4293729569
5.7880554 -4.4577756 -0.7578156 4293729569
5.7892761 -4.4667411 -0.79782176 4293729569
5.7874451 -4.4707079 -0.83682656 4293729569
5.7826233 -4.471674 -0.87683272 4293729569
5.7838135 -4.4736404 -0.91583133 4293729569
5.7870178 -4.4766035 -0.95582843 4293729569
5.7962036 -4.4805665 -0.9958179 4293729569
5.807373 -4.4845262 -1.0368059 4293729569
5.8719788 -4.4738836 -0.68070626 4293729569
5.8545837 -4.5114703 -1.0827692 4293729569
5.8691406 -4.462853 -0.71769691 4293729569
5.8707581 -4.5154285 -1.1247494 4293729569
5.840332 -4.4308329 -0.75170016 4293729569
5.8579407 -4.4964018 -1.1607454 4293729569
5.9021301 -4.5163474 -1.2057054 4293729569
8.8227234 -6.530798 -1.7778842 4293729569
8.4957581 -6.28192 -1.7700608 4293729569
6.0520935 -4.5086136 -0.92248988 4293729569
8.1998291 -6.0530305 -1.7632158 4293729569
6.0402832 -4.479588 -0.95747352 4293729569
6.0389404 -4.5441456 -1.3805425 4293729569
6.128479 -4.5155163 -1.0043905 4293729569
6.0211182 -4.5091257 -1.4125278 4293729569
6.1236572 -4.4874897 -1.0383651 4293729569
6.2323914 -4.6289802 -1.492367 4293729569
6.7388306 -4.9456701 -1.6360137 4293729569
10.919067 -7.6040745 -1.8561609 4293729569
6.5428772 -4.7847462 -1.6301072 4293729569
6.3112488 -4.5253124 -1.1681459 4293729569
6.2069092 -4.5289054 -1.5892894 4293729569
6.3734741 -4.5322552 -1.210067 4293729569
6.5372314 -4.7166901 -1.6990387 4293729569
6.3896179 -4.5082202 -1.2450173 4293729569
6.3583069 -4.5647669 -1.6891191 4293729569
6.4768066 -4.5291495 -1.2909191 4293729569
6.3484497 -4.5227461 -1.718086 4293729569
9.1562195 -6.1987448 -1.8000472 4293729569
6.2886047 -4.4477558 -1.7330859 4293729569
8.8952332 -5.9798441 -1.7921669 4293729569
6.205719 -4.3557816 -1.7410996 4293729569
6.6973877 -4.548964 -1.4186351 4293729569
6.2759399 -4.3617182 -1.7860076 4293729569
6.7626038 -4.5469084 -1.4585416 4293729569
6.3501282 -4.3686514 -1.8319128 4293729569
8.286438 -5.4370747 -1.7824113 4293729569
6.4313354 -4.3765826 -1.8788087 4293729569
7.0570374 -4.6347084 -1.5692303 4293729569
6.5135193 -4.3835149 -1.9247024 4293729569
7.1712646 -4.6546259 -1.6180937 4293729569
6.5987244 -4.3894439 -1.9715912 4288085770
7.1844177 -4.6115994 -1.6460273 4293729569
6.6899109 -4.3973713 -2.0184729 4288085770
7.5027161 -4.7464075 -1.7357347 4293729569
6.7460632 -4.38132 -2.0563776 4282675967
7.5679016 -4.7303538 -1.7726266 4293729569
6.6752319 -4.2883492 -2.0573733 4282675967
7.4469604 -4.603405 -1.7686541 4293729569
6.6062927 -4.1973782 -2.057369 4282675967
7.3790894 -4.5094285 -1.7736442 4293729569
6.5014038 -4.0854306 -2.0463908 4288085770
7.3432007 -4.4314351 -1.7846081 4293729569
6.3774719 -3.9614964 -2.0284259 4288085770
7.4293823 -4.4213743 -1.8224771 4293729569
6.3085327 -3.870532 -2.0234215 4288085770
7.5615845 -4.4342895 -1.8683083 4293729569
6.2476501 -3.7845616 -2.0204117 4288085770
7.685791 -4.4402089 -1.912142 4293729569
6.1747742 -3.6926017 -2.0114114 4288085770
7.8229675 -4.4521232 -1.9569647 4293729569
6.1558533 -3.6306095 -2.0163696 4288085770
7.9712219 -4.466032 -2.0037739 4288085770
6.09198 -3.5436454 -2.0083621 4288085770
8.1173706 -4.4769416 -2.0505831 4288085770
6.0360413 -3.462678 -2.0013511 4288085770
8.2496033 -4.4768624 -2.091399 4288085770
6.0101929 -3.3956938 -2.0003126 4288085770
8.3077393 -4.4378257 -2.1142752 4282675967
5.9873047 -3.3317089 -2.0002744 4288085770
8.2688599 -4.3498445 -2.1142313 4282675967
5.9634094 -3.2667246 -1.9992359 4288085770
8.2129517 -4.2538767 -2.1082036 4282675967
5.9345093 -3.1997452 -1.9952018 4288085770
8.1540527 -4.155911 -2.1001766 4288085770
5.9075928 -3.1337657 -1.9901669 4288085770
8.0901184 -4.0579495 -2.0901568 4288085770
5.8997498 -3.0767756 -1.989115 4288085770
8.064209 -3.9769673 -2.0871036 4288085770
5.882843 -3.0157905 -1.9860709 4288085770
8.0453186 -3.8999825 -2.0850441 4288085770
5.8719482 -2.9578047 -1.983022 4288085770
8.0194397 -3.821003 -2.0799925 4288085770
5.8730774 -2.9038129 -1.9819615 4288085770
8.0065002 -3.7460179 -2.0769274 4288085770
5.874176 -2.85182 -1.9809024 4288085770
8.008667 -3.6780252 -2.0758488 4288085770
5.8763123 -2.7988291 -1.9788411 4288085770
8.0027466 -3.607039 -2.0707786 4288085770
5.8924255 -2.7528296 -1.9797676 4288085770
8.0248718 -3.549036 -2.0726826 4288085770
5.9015198 -2.7038364 -1.9777009 4288085770
8.0450134 -3.489037 -2.0715878 4288085770
5.9276733 -2.6608305 -1.9806168 4288085770
8.072113 -3.4320335 -2.0724866 4288085770
5.935791 -2.6108389 -1.9765503 4288085770
8.0992432 -3.3750339 -2.0713856 4288085770
5.9649048 -2.5698347 -1.977464 4288085770
8.1323547 -3.3190303 -2.070277 4288085770
5.9880066 -2.524837 -1.9753821 4288085770
8.1804504 -3.2680192 -2.0721524 4288085770
6.0291138 -2.4868264 -1.9782827 4288085770
8.2375488 -3.220005 -2.0740197 4288085770
6.0642395 -2.4458218 -1.9781883 4288085770
8.3096924 -3.1789842 -2.0788724 4288085770
6.1113892 -2.4098101 -1.9810817 4288085770
8.3558044 -3.1269779 -2.0757496 4288085770
6.1605225 -2.3747973 -1.9839747 4288085770
8.4209595 -3.0809636 -2.0766075 4288085770
6.2056274 -2.3367901 -1.9838693 4288085770
8.4870605 -3.0349488 -2.0764639 4288085770
6.2597351 -2.3007779 -1.9857538 4288085770
8.591156 -2.9989147 -2.0832779 4288085770
6.3098755 -2.2637687 -1.9846423 4288085770
8.6843262 -2.9598866 -2.0861037 4288085770
6.3609924 -2.2257586 -1.9845288 4288085770
8.7824402 -2.9198585 -2.0889218 4288085770
6.4261475 -2.1917424 -1.9863994 4288085770
8.8855896 -2.8818288 -2.0907338 4288085770
6.4902649 -2.1567278 -1.9862707 4288085770
9.0057068 -2.8467922 -2.0955265 4288085770
6.5493774 -2.119719 -1.9841464 4288085770
9.1368408 -2.8147502 -2.1013067 4288085770
6.6654968 -2.0996742 -1.9959619 4288085770
9.256958 -2.7777157 -2.1020968 4288085770
6.7426453 -2.0676546 -1.9968178 4288085770
9.387085 -2.7416782 -2.1038735 4288085770
6.8427734 -2.0396237 -2.0016458 4288085770
9.5392151 -2.7106309 -2.1086252 4288085770
6.9198914 -2.0056067 -2.0005 4288085770
9.6933289 -2.680582 -2.1123755 4288085770
7.0320435 -1.9805703 -2.0063145 4288085770
9.852478 -2.6485343 -2.1151159 4288085770
7.1251221 -1.9485478 -2.0061486 4288085770
10.040588 -2.6224723 -2.1218221 4288085770
7.2042542 -1.9135332 -2.0009973 4288085770
10.218719 -2.5914178 -2.1245368 4288085770
7.346405 -1.8914828 -2.0107734 4288085770
10.424866 -2.565351 -2.1302178 4288085770
7.4795532 -1.8674397 -2.0165594 4288085770
10.621979 -2.5362916 -2.1329081 4288085770
7.6246643 -1.8433928 -2.0233285 4288085770
10.861145 -2.5122099 -2.1405447 4288085770
7.7658081 -1.8183489 -2.0271022 4288085770
11.10025 -2.4881344 -2.1451809 4288085770
7.9239502 -1.7942967 -2.0338528 4288085770
11.342438 -2.4610577 -2.1488092 4288085770
8.0950623 -1.7722397 -2.0415871 4288085770
11.577515 -2.4299884 -2.148443 4288085770
8.2652283 -1.7471833 -2.0473192 4288085770
11.85965 -2.4058976 -2.1530187 4288085770
8.4363708 -1.7221303 -2.0520504 4288085770
12.168793 -2.3847966 -2.1585596 4288085770
8.6474915 -1.7020574 -2.0617306 4288085770
12.608948 -2.3836336 -2.1839387 4288085770
8.863678 -1.6809826 -2.0714023 4288085770
13.005096 -2.3704958 -2.1963656 4288085770
9.0977783 -1.661902 -2.0820515 4288085770
13.399261 -2.3533645 -2.2057912 4288085770
9.3409119 -1.6408186 -2.0916851 4288085770
13.830414 -2.3382177 -2.2161663 4288085770
9.6010742 -1.620728 -2.1032956 4288085770
14.389557 -2.3390155 -2.2403796 4288085770
9.8722229 -1.5996351 -2.11289 4288085770
15.010742 -2.3427877 -2.2685111 4288085770
10.141357 -1.5765462 -2.119487 4288085770
15.71991 -2.3535261 -2.3035285 4288085770
10.432495 -1.5534511 -2.127054 4288085770
16.36911 -2.3493013 -2.3226125 4288085770
10.771606 -1.5343323 -2.1415565 4288085770
17.049255 -2.3420672 -2.3396499 4288085770
11.084778 -1.5082312 -2.1460884 4288085770
17.736389 -2.3288388 -2.3506711 4288085770
11.440918 -1.4851112 -2.1555626 4288085770
18.403503 -2.3066263 -2.3517091 4288085770
11.734039 -1.4520273 -2.1501138 4288085770
19.149628 -2.2873859 -2.3556397 4288085770
12.148163 -1.4298878 -2.1615078 4288085770
12.6073 -1.4087305 -2.1758392 4288085770
13.147491 -1.3915377 -2.1970618 4288085770
13.607635 -1.3623896 -2.2013824 4288085770
14.201752 -1.3401861 -2.2175238 4288085770
14.868927 -1.319952 -2.2395627 4288085770
15.600067 -1.2986975 -2.261512 4288085770
16.459259 -1.2803907 -2.2922828 4288085770
17.31842 -1.2570934 -2.3150489 4288085770
18.157532 -1.221818 -2.3238289 4288085770
18.985657 -1.1805553 -2.3226178 4288085770
15.379395 1.5301285 -1.3343947 4293729569
14.409454 1.5417728 -1.292825 4293729569
13.898529 1.5885954 -1.2845299 4293729569
13.43866 1.6344395 -1.2771585 4293729569
13.185791 1.7003613 -1.285455 4293729569
14.702881 1.9141273 -0.69293237 4293729569
12.802917 1.7472277 -1.2799675 4293729569
14.547028 1.9990997 -0.71706033 4293729569
12.528015 1.8041372 -1.2813079 4293729569
14.371185 2.0790625 -0.73822427 4293729569
12.484131 1.889142 -1.3032696 4293729569
14.25531 2.1660433 -0.75929046 4293729569
12.35025 1.9611073 -1.3153808 4293729569
14.004486 2.2319756 -0.77358365 4293729569
12.325439 2.049119 -1.3363106 4293729569
13.952606 2.3239756 -0.7945478 4293729569
12.202545 2.1200819 -1.3454072 4293729569
13.907745 2.4189777 -0.81549859 4293729569
12.160706 2.2040825 -1.362366 4293729569
13.828857 2.5069656 -0.83250833 4293729569
12.131805 2.2900858 -1.3803041 4293729569
13.913025 2.6240139 -0.85723948 4293729569
12.11496 2.3790932 -1.3962204 4293729569
13.910126 2.7270298 -0.8771174 4293729569
12.112061 2.4701052 -1.4141133 4293729569
13.741272 2.7989779 -0.88528085 4293729569
12.082214 2.557107 -1.4280512 4293729569
14.488373 3.0492735 -0.94586062 4293729569
12.130341 2.6601372 -1.4488533 4293729569
13.912506 3.0390654 -0.92673135 4293729569
12.216492 2.7701855 -1.4725897 4293729569
13.784637 3.1150265 -0.93282819 4293729569
12.232605 2.8671999 -1.4874465 4293729569
12.153839 3.0381756 -1.501354 4293729569
12.288971 3.1662397 -1.5269954 4293729569
12.297089 3.2662477 -1.5368598 4293729569
12.336182 3.3712664 -1.5486729 4293729569
17.501801 4.832571 -2.157181 4288085770
17.42392 4.9475393 -2.1551549 4288085770
17.371033 5.0685148 -2.1540844 4288085770
17.321106 5.1914883 -2.1520069 4288085770
17.315216 5.326479 -2.152849 4288085770
17.30127 5.4584646 -2.1497066 4288085770
17.342377 5.6094732 -2.1524584 4288085770
17.347473 5.7484627 -2.1492784 4288085770
17.404541 5.9024725 -2.1500032 4288085770
17.474609 6.0644894 -2.1506979 4288085770
17.595703 6.244523 -2.1552947 4288085770
17.765839 6.4435759 -2.1627944 4288085770
17.887878 6.6276045 -2.1633842 4288085770
18.085999 6.8426676 -2.1688225 4288085770
18.288055 7.0607271 -2.1742504 4282675967
18.643127 7.3408518 -2.192374 4282675967
18.883209 7.5809202 -2.1957185 4282675967
19.230255 7.8670321 -2.2068465 4282675967
19.101318 -0.53934956 -2.2969301 4288085770
18.006439 -0.54568195 -2.2966564 4288085770
16.817566 -0.54307175 -2.2735207 4288085770
15.697632 -0.53645229 -2.2412722 4288085770
14.762726 -0.53176212 -2.2217348 4288085770
13.818848 -0.52209091 -2.1882064 4288085770
13.101929 -0.516325 -2.177326 4288085770
12.332001 -0.50559616 -2.1485226 4288085770
18.388397 -0.74062061 -2.2952554 4288085770
11.720123 -0.49880028 -2.1354759 4288085770
17.262512 -0.71897316 -2.2859995 4288085770
11.117249 -0.48901176 -2.1164114 4288085770
16.015564 -0.68640041 -2.2459219 4288085770
10.583344 -0.48019505 -2.1022398 4288085770
15.035645 -0.66172409 -2.2244332 4288085770
10.110474 -0.47135353 -2.0929725 4288085770
14.06073 -0.63406277 -2.1919334 4288085770
9.6245728 -0.45952988 -2.0727222 4288085770
13.298828 -0.61231327 -2.1771047 4288085770
9.2106628 -0.44967461 -2.0603611 4288085770
12.593933 -0.59055042 -2.1611879 4288085770
8.783783 -0.43783283 -2.0410182 4288085770
11.901031 -0.56779194 -2.1382501 4288085770
8.4238892 -0.42796135 -2.0305722 4288085770
11.34314 -0.54997635 -2.1291068 4288085770
8.0889893 -0.41808128 -2.020087 4288085770
10.749237 -0.52718735 -2.1060135 4288085770
7.7510986 -0.40620708 -2.0046041 4288085770
10.244354 -0.50836086 -2.0927851 4288085770
7.4472351 -0.39431858 -1.9930675 4288085770
9.7674255 -0.48953056 -2.0765135 4288085770
7.2053528 -0.38639832 -1.9924381 4288085770
9.3285217 -0.47068691 -2.0611818 4288085770
6.9514465 -0.37548923 -1.9858248 4288085770
8.9196472 -0.45183277 -2.0468023 4288085770
6.6905518 -0.36358929 -1.9732211 4288085770
8.5347595 -0.43397331 -2.0313866 4288085770
6.4426575 -0.35168457 -1.9615967 4288085770
8.1968689 -0.41709328 -2.0218976 4288085770
6.2348022 -0.34175873 -1.9569118 4288085770
7.8579712 -0.40021896 -2.0064113 4288085770
6.0389099 -0.33183002 -1.9522078 4288085770
7.572113 -0.38431931 -1.9998424 4288085770
5.8370361 -0.31990719 -1.9435108 4288085770
7.2881775 -0.36742401 -1.989269 4288085770
5.6601562 -0.30897331 -1.9387767 4288085770
7.0203247 -0.35152245 -1.9796712 4288085770
5.4732666 -0.29704762 -1.9290559 4288085770
6.7764282 -0.33661175 -1.9710376 4288085770
5.2953796 -0.28611946 -1.9193232 4288085770
6.5315247 -0.32070637 -1.9594038 4288085770
5.1385193 -0.27517891 -1.9145572 4288085770
6.3206787 -0.30578327 -1.9537179 4288085770
5.002655 -0.26422691 -1.913758 4288085770
6.1207886 -0.2918539 -1.9490159 4288085770
4.8587646 -0.2532835 -1.9079707 4288085770
5.9368896 -0.27692223 -1.9442875 4288085770
5.7360229 -0.2620039 -1.932586 4288085770
5.5651245 -0.24806976 -1.9268382 4288085770
5.3922424 -0.23313808 -1.918093 4288085770
5.2453613 -0.2191925 -1.9153078 4288085770
5.0894775 -0.20525551 -1.9065363 4288085770
4.9556274 -0.19130707 -1.9037297 4288085770
4.8417358 -0.17834473 -1.905894 4288085770
4.5571289 1.8116932 -1.8436105 4288085770
4.6882629 1.8457317 -1.8503497 4288085770
4.8103943 1.8757639 -1.8531077 4288085770
4.9475403 1.9088039 -1.8588369 4288085770
5.087677 1.9418421 -1.862561 4288085770
5.2348022 1.9758854 -1.8672721 4288085770
5.3879395 2.0109262 -1.8719723 4288085770
5.5530701 2.0469761 -1.8786504 4288085770
4.577179 1.7656555 -1.8506229 4288085770
5.7472229 2.0920439 -1.8922698 4288085770
4.6943054 1.7866831 -1.8514006 4288085770
5.9053345 2.1230812 -1.8919661 4288085770
4.8344116 1.8137236 -1.8581326 4288085770
6.0884705 2.1601334 -1.8966134 4288085770
4.9775696 1.840766 -1.8648589 4288085770
6.2415771 2.1861639 -1.8923242 4288085770
5.1157227 1.863802 -1.8675988 4288085770
6.4877319 2.2392502 -1.9098461 4288085770
5.2678528 1.8908482 -1.8743107 4288085770
6.6938477 2.2783079 -1.9144523 4288085770
5.4299622 1.9188967 -1.8820045 4288085770
6.8760071 2.3073473 -1.9111102 4288085770
5.5771179 1.9409332 -1.8837302 4288085770
7.084137 2.3424015 -1.9117181 4288085770
5.7922974 1.9810152 -1.9033201 4288085770
7.3132629 2.3804646 -1.9152863 4288085770
5.9223938 1.9940348 -1.896086 4288085770
7.5793762 2.4285469 -1.9237807 4288085770
6.10849 2.0210905 -1.9027402 4288085770
7.8615112 2.4766312 -1.9342482 4288085770
6.2876587 2.0451365 -1.9054101 4288085770
8.0986328 2.5096893 -1.9318097 4288085770
6.4707947 2.0681877 -1.9090745 4288085770
8.3657837 2.5487585 -1.9323127 4288085770
6.6839294 2.0972509 -1.9156811 4288085770
8.6838989 2.5988541 -1.9407184 4288085770
6.874054 2.1172972 -1.9163373 4288085770
9.0360718 2.653964 -1.953059 4288085770
7.0802002 2.1383553 -1.9189661 4288085770
9.4492188 2.7221012 -1.9722822 4288085770
7.3293457 2.1694307 -1.9285095 4288085770
9.8453369 2.7822218 -1.985544 4288085770
7.5724487 2.1975021 -1.9360673 4288085770
10.520538 2.9094868 -2.0452549 4288085770
7.8246155 2.2235746 -1.9426119 4288085770
10.803619 2.9305382 -2.0287535 4288085770
8.0717468 2.2456427 -1.9451702 4288085770
11.094757 2.9495926 -2.0112407 4288085770
8.322876 2.2667103 -1.9477232 4288085770
11.704895 3.0438013 -2.043102 4288085770
8.6290283 2.2968044 -1.9581726 4288085770
12.355042 3.1400204 -2.0748932 4288085770
8.979187 2.334919 -1.9755385 4288085770
12.864197 3.1971645 -2.0789678 4288085770
9.3523254 2.3740425 -1.9938643 4288085770
12.430115 3.0308504 -1.9408991 4293729569
9.6904907 2.4011431 -2.0022633 4288085770
12.098145 2.8915949 -1.8236253 4293729569
10.059601 2.4302559 -2.0126088 4288085770
11.996124 2.8054485 -1.7409012 4293729569
10.424744 2.45436 -2.0199664 4288085770
12.027222 2.7473679 -1.6779196 4293729569
10.746887 2.4654427 -2.0174124 4288085770
11.970245 2.6702471 -1.6051095 4293729569
11.090027 2.4765301 -2.0158226 4288085770
12.001282 2.6111689 -1.5441296 4293729569
11.53717 2.5046663 -2.0280378 4288085770
11.986328 2.541069 -1.4782407 4293729569
12.157318 2.5608826 -2.0639288 4288085770
12.018372 2.4809923 -1.4192603 4293729569
12.616516 2.5800152 -2.0701344 4288085770
12.044403 2.4199152 -1.3602912 4293729569
12.757568 2.5339899 -2.0269544 4293729569
12.125488 2.3658619 -1.3082211 4293729569
12.133484 2.3476 -1.8722303 4293729569
12.307556 2.3288488 -1.264961 4293729569
12.117554 2.2735043 -1.8093479 4293729569
12.48761 2.289834 -1.2207072 4293729569
11.999573 2.1823645 -1.7336581 4293729569
12.765686 2.2628574 -1.1852739 4293729569
11.968628 2.1062651 -1.6718037 4293729569
13.027771 2.2308731 -1.1458738 4293729569
12.031708 2.0442114 -1.6227744 4293729569
13.249878 2.187871 -1.1025536 4293729569
12.048767 1.9751377 -1.5688307 4293729569
13.755951 2.1849756 -1.0787089 4293729569
12.177856 1.9211121 -1.528681 4293729569
14.098053 2.1530142 -1.0411742 4293729569
12.33194 1.8681002 -1.4914887 4293729569
14.088104 2.0659218 -0.97829843 4293729569
12.34903 1.7950287 -1.4395502 4293729569
13.997162 1.9688005 -0.91357112 4293729569
12.397095 1.7249699 -1.391557 4293729569
13.846191 1.8656607 -0.84595227 4293729569
12.711182 1.6870241 -1.3710768 4293729569
14.260284 1.8297243 -0.81030202 4293729569
13.007294 1.6430702 -1.347635 4293729569
14.888367 1.8148584 -0.78326774 4293729569
13.507446 1.6191978 -1.3418257 4293729569
14.045593 1.590333 -1.3359597 4293729569
14.587708 1.5554705 -1.3280947 4293729569
15.311859 1.5316744 -1.3329098 4293729569
18.50769 -5.6023226 -0.27659488 4293729569
18.464905 -5.7293096 -0.30283046 4293729569
14.440857 -5.7221513 -0.58460164 4293729569
9.5853577 -4.6583323 -0.77741981 4293729569
9.4395447 -4.6613412 -0.80667043 4293729569
9.2837219 -4.6553545 -0.83592629 4293729569
8.8990479 -4.5994096 -0.88550496 4293729569
8.8182068 -4.623394 -0.92067313 4293729569
8.5546265 -4.6134009 -0.98110604 4293729569
8.3450012 -4.6213884 -1.0454729 4293729569
8.1003723 -4.6023874 -1.1068623 4293729569
8.0185547 -4.6103706 -1.1420119 4293729569
7.8878479 -4.5560064 -0.69816041 4293729569
13.834991 -7.8636665 -1.9634135 4293729569
7.8260498 -4.5689793 -0.73728251 4293729569
7.8339539 -4.6103468 -1.2083247 4293729569
7.7472534 -4.5709567 -0.775419 4293729569
7.7321167 -4.6023402 -1.2404873 4293729569
11.809052 -6.965332 -1.9006703 4293729569
7.5866699 -4.5689158 -0.84968877 4293729569
7.5795288 -4.6082993 -1.3117535 4293729569
7.5068665 -4.5648961 -0.88681865 4293729569
7.4897156 -4.6012869 -1.345897 4293729569
10.171143 -6.2098837 -1.843457 4293729569
7.2840576 -4.5632763 -1.4061964 4293729569
7.3064575 -4.5628166 -1.0021555 4293729569
7.3103027 -4.6182055 -1.459224 4293729569
7.2306519 -4.5527983 -1.0382712 4293729569
7.2284851 -4.6061897 -1.492347 4293729569
7.2268677 -4.5847445 -1.0843194 4293729569
8.5453796 -5.4384251 -1.7952034 4293729569
8.109436 -5.2135916 -1.7666485 4293729569
12.243408 -7.6792564 -1.9128606 4293729569
7.02005 -4.584125 -1.5986717 4293729569
7.0344238 -4.5586667 -1.1976111 4293729569
6.9872742 -4.5950847 -1.6407421 4293729569
7.0226746 -4.5776148 -1.242656 4293729569
7.2056274 -4.7598996 -1.7385871 4293729569
6.9608765 -4.565588 -1.2807448 4293729569
7.0277405 -4.6779413 -1.7497818 4293729569
6.9580994 -4.5865355 -1.3267767 4293729569
6.790863 -4.5560174 -1.7460239 4293729569
9.4454956 -6.1531954 -1.8156054 4293729569
6.5519409 -4.4291034 -1.737263 4293729569
8.9995422 -5.902349 -1.7980335 4293729569
6.433075 -4.3761158 -1.757395 4293729569
8.6185608 -5.6864777 -1.7863972 4293729569
6.3892517 -4.3680854 -1.7944586 4293729569
8.2856445 -5.4975843 -1.7807138 4293729569
6.3654785 -4.3710427 -1.8355024 4293729569
6.3477173 -4.3769975 -1.8775403 4293729569
6.7883301 -4.5832801 -1.5810578 4293729569
6.3128967 -4.3689609 -1.9165885 4293729569
6.7695312 -4.5822358 -1.6230881 4293729569
6.2991333 -4.3729148 -1.9596164 4288085770
7.0299072 -4.7560277 -1.7288721 4293729569
6.281311 -4.37187 -2.0016453 4288085770
6.888031 -4.6730533 -1.7440035 4293729569
6.2645264 -4.3708262 -2.0426719 4282675967
6.6620789 -4.535131 -1.7382066 4293729569
6.1496582 -4.3038483 -2.0547788 4282675967
6.4572144 -4.4072008 -1.7343857 4293729569
5.9847717 -4.2009077 -2.0489233 4282675967
6.4073792 -4.3761792 -1.7654293 4293729569
5.7658081 -4.0620079 -2.0251129 4282675967
6.4076233 -4.3751259 -1.8094261 4293729569
5.5238342 -3.9051304 -1.9893177 4288085770
6.4137878 -4.3760724 -1.8534162 4293729569
5.3899536 -3.8181787 -1.985431 4288085770
6.4270325 -4.3810158 -1.8983986 4293729569
5.2560425 -3.7282314 -1.9795401 4288085770
6.4512329 -4.3899498 -1.9463675 4288085770
5.1271667 -3.6412845 -1.9716442 4288085770
6.4534607 -4.3818984 -1.9883521 4288085770
5.0102844 -3.5593276 -1.9677346 4288085770
6.4576416 -4.3748488 -2.0303342 4288085770
4.8823242 -3.4703851 -1.9578354 4288085770
6.3928223 -4.3208447 -2.0513718 4282675967
4.7764282 -3.3934264 -1.952914 4288085770
6.2649231 -4.2268848 -2.0524652 4282675967
4.6805725 -3.322464 -1.9499829 4288085770
6.0789795 -4.0949688 -2.0336072 4288085770
4.5806885 -3.2465076 -1.9430521 4288085770
5.8650513 -3.9440761 -2.0037725 4288085770
4.4957886 -3.180541 -1.9411094 4288085770
5.7241211 -3.8391356 -1.9928734 4288085770
5.5991821 -3.7421885 -1.9849575 4288085770
5.4843445 -3.6512337 -1.9790323 4288085770
5.3864136 -3.5702724 -1.9760911 4288085770
5.2885132 -3.4883137 -1.9711492 4288085770
5.1946106 -3.4073539 -1.9652016 4288085770
5.1117554 -3.3333893 -1.9612439 4288085770
5.0298462 -3.2594233 -1.9572852 4288085770
4.9469604 -3.1834626 -1.9503253 4288085770
4.8740234 -3.1144962 -1.9453571 4288085770
4.8141174 -3.0515218 -1.9433753 4288085770
4.7502441 -2.9865541 -1.9383972 4288085770
4.6983643 -2.9275775 -1.9364064 4288085770
4.6545105 -2.8725972 -1.9364073 4288085770
4.5996094 -2.8116255 -1.9314191 4288085770
4.5557251 -2.7566481 -1.9284198 4288085770
4.5158691 -2.7026696 -1.9254153 4288085770
4.4789734 -2.6506901 -1.9234078 4288085770
4.8259583 -1.5858121 -1.9263165 4288085770
4.8740845 -1.5618062 -1.9261978 4288085770
4.9332581 -1.5407929 -1.9290636 4288085770
5.0013733 -1.5217743 -1.9329164 4288085770
5.0684814 -1.5017595 -1.9357698 4288085770
5.1256409 -1.4787531 -1.9346359 4288085770
5.2067566 -1.46173 -1.940469 4288085770
5.2789001 -1.4407139 -1.9423115 4288085770
5.3510437 -1.420701 -1.9421556 4288085770
5.4161682 -1.3976946 -1.9390075 4288085770
5.5013123 -1.3796749 -1.9418309 4288085770
5.5914307 -1.360652 -1.9446447 4288085770
5.7205811 -1.350606 -1.9574015 4288085770
5.8127136 -1.3305864 -1.9582098 4288085770
5.9168701 -1.3135614 -1.9610007 4288085770
6.0409851 -1.2995253 -1.9677608 4288085770
6.1721497 -1.2854843 -1.975508 4288085770
4.9010315 -1.026906 -1.9253953 4288085770
6.2912598 -1.2684574 -1.9772727 4288085770
4.9851685 -1.0088892 -1.9262207 4288085770
6.4223938 -1.2524233 -1.9810169 4288085770
5.083313 -0.99386311 -1.9300249 4288085770
6.5325317 -1.2314053 -1.9777911 4288085770
5.181427 -0.97783947 -1.9328282 4288085770
6.7026978 -1.2213507 -1.9884741 4288085770
5.2755737 -0.9598217 -1.9326355 4288085770
6.8318176 -1.202323 -1.9872177 4288085770
5.3737183 -0.94379997 -1.9334381 4288085770
6.9809265 -1.186286 -1.9899294 4288085770
5.4888306 -0.92777061 -1.9372108 4288085770
7.1220703 -1.1672583 -1.9866517 4288085770
5.6149902 -0.91373348 -1.9429672 4288085770
7.3251953 -1.1571932 -1.998276 4288085770
5.7211304 -0.89671516 -1.9407542 4288085770
7.5073547 -1.1421452 -2.0019305 4288085770
5.8812561 -0.88566208 -1.9534538 4288085770
7.6985168 -1.1270962 -2.0045688 4288085770
6.0114136 -0.87062931 -1.9552004 4288085770
7.9066467 -1.1140394 -2.0101793 4288085770
6.1615601 -0.85658741 -1.9609129 4288085770
8.1447754 -1.1029682 -2.0187399 4288085770
6.3256836 -0.84254074 -1.9676011 4288085770
8.4089355 -1.0928879 -2.0302546 4288085770
6.4728088 -0.82650566 -1.9683163 4288085770
8.7070923 -1.0857916 -2.0457137 4288085770
6.625946 -0.80947113 -1.9680188 4288085770
9.0172424 -1.077693 -2.060149 4288085770
6.8330994 -0.79840565 -1.9796336 4288085770
9.3263855 -1.0676022 -2.0705841 4288085770
7.0222168 -0.78435326 -1.9852769 4288085770
9.6665649 -1.0584974 -2.0829642 4288085770
7.2443848 -0.77228546 -1.9948637 4288085770
10.009705 -1.0473995 -2.0913365 4288085770
7.4405212 -0.75623703 -1.9964912 4288085770
10.423889 -1.0412683 -2.1095893 4288085770
7.6656799 -0.74117661 -2.0010674 4288085770
10.825012 -1.0301523 -2.1188576 4288085770
7.9107971 -0.72710705 -2.007611 4288085770
11.263184 -1.0220222 -2.1320651 4288085770
8.1859741 -0.71602249 -2.0191038 4288085770
11.740356 -1.0128813 -2.1442001 4288085770
8.4920959 -0.70392704 -2.0325401 4288085770
12.218445 -1.0007477 -2.1513293 4288085770
8.8202515 -0.69182587 -2.0469372 4288085770
12.870667 -1.000536 -2.1801651 4288085770
9.1673889 -0.68071747 -2.0613019 4288085770
13.45282 -0.9903717 -2.1891105 4288085770
9.5466003 -0.66959858 -2.0766079 4288085770
14.127991 -0.98317051 -2.2058947 4288085770
9.9287415 -0.65548515 -2.0889056 4288085770
14.910156 -0.97893238 -2.2274916 4288085770
10.345917 -0.64336014 -2.1011426 4288085770
15.758331 -0.9746809 -2.2479708 4288085770
10.792023 -0.62922859 -2.1133254 4288085770
16.754486 -0.97337437 -2.27719 4288085770
11.282227 -0.61508179 -2.1274283 4288085770
17.830688 -0.97204971 -2.3042648 4288085770
11.829346 -0.60191536 -2.1444323 4288085770
18.790833 -0.9577961 -2.3035285 4288085770
12.370544 -0.58676052 -2.1544425 4288085770
13.066681 -0.57554054 -2.1811817 4288085770
13.661835 -0.55738163 -2.1840909 4288085770
14.497009 -0.54511929 -2.212579 4288085770
15.384216 -0.53085041 -2.2369721 4288085770
16.347351 -0.51356697 -2.2572243 4288085770
17.509552 -0.5002079 -2.2921259 4288085770
18.536713 -0.47693253 -2.2932532 4288085770
14.830444 1.8246584 -0.77935958 4293729569
14.512543 1.8945398 -0.76237464 4293729569
14.362671 1.9814806 -0.7523725 4293729569
14.322784 2.0824566 -0.74635911 4293729569
14.342834 2.1914549 -0.74133849 4293729569
14.260986 2.2854156 -0.7313292 4293729569
14.305054 2.3994226 -0.72630668 4293729569
14.270172 2.4984007 -0.71529222 4293729569
14.325226 2.6154079 -0.70726752 4293729569
14.337341 2.7244043 -0.69524789 4293729569
14.319458 2.8273878 -0.68123078 4293729569
19.048798 -0.017745972 -2.2864201 4288085770
17.914948 -0.011101723 -2.2866299 4288085770
16.718079 -0.0034818649 -2.2608531 4288085770
15.663208 0.0051832199 -2.2380502 4288085770
14.681305 0.013868332 -2.2112329 4288085770
13.744446 0.023568153 -2.1784084 4288085770
12.966583 0.032318115 -2.156554 4288085770
19.343658 0.068292618 -2.2792952 4288085770
12.285675 0.042099953 -2.140681 4288085770
18.151794 0.081918716 -2.2735193 4288085770
11.659821 0.050897598 -2.1257975 4288085770
17.006897 0.096556664 -2.2597344 4288085770
11.03894 0.060696602 -2.1019132 4288085770
15.924011 0.10921288 -2.2349389 4288085770
10.49408 0.070518494 -2.0810149 4288085770
14.989166 0.12291527 -2.2171147 4288085770
10.005188 0.080358505 -2.0661061 4288085770
13.989258 0.13459492 -2.1763046 4288085770
9.5473328 0.090208054 -2.0491908 4288085770
13.208374 0.14734364 -2.1554515 4288085770
9.1304626 0.10007095 -2.0342686 4288085770
12.507507 0.15911865 -2.1355841 4288085770
8.7525635 0.10994625 -2.0223391 4288085770
11.909668 0.1719265 -2.1256959 4288085770
8.3917236 0.11982536 -2.0084059 4288085770
11.291809 0.18372631 -2.1038125 4288085770
8.0608521 0.12971401 -1.9964669 4288085770
10.736938 0.1955471 -2.0849168 4288085770
7.76297 0.14061737 -1.9875219 4288085770
10.210052 0.20637417 -2.0620167 4288085770
7.4880981 0.15052319 -1.9795721 4288085770
9.7611389 0.21822739 -2.0471013 4288085770
7.2422485 0.16144085 -1.9756176 4288085770
9.3352966 0.23008728 -2.0301807 4288085770
6.984375 0.17135143 -1.9646657 4288085770
8.9534302 0.24096012 -2.0182526 4288085770
6.7294922 0.18126678 -1.9497125 4288085770
8.5975647 0.2528429 -2.0053189 4288085770
6.5036316 0.1911869 -1.9407537 4288085770
8.2596741 0.2637291 -1.9913828 4288085770
6.3217773 0.20312595 -1.9397867 4288085770
7.9477844 0.27462578 -1.9794414 4288085770
6.1308899 0.21306038 -1.9338214 4288085770
7.658905 0.28652763 -1.9684951 4288085770
5.9330139 0.22399139 -1.9238575 4288085770
7.4150696 0.2984457 -1.9645393 4288085770
5.7611389 0.23393059 -1.9178894 4288085770
7.1752014 0.31036663 -1.9575837 4288085770
5.5932922 0.24487114 -1.9109194 4288085770
6.9533386 0.32229042 -1.9516246 4288085770
5.4463806 0.25581837 -1.9079459 4288085770
6.7164307 0.33320999 -1.9396694 4288085770
5.2835388 0.26676083 -1.8979752 4288085770
6.4985962 0.34413242 -1.9287093 4288085770
5.1306763 0.27670479 -1.8890035 4288085770
6.3087158 0.3560667 -1.9227445 4288085770
5.0197754 0.28866673 -1.8920224 4288085770
6.1468506 0.36901093 -1.9227731 4288085770
5.9569397 0.3799448 -1.9108083 4288085770
5.7940979 0.39188576 -1.9058378 4288085770
5.6542358 0.40383816 -1.9038627 4288085770
5.4933777 0.41578007 -1.894892 4288085770
5.3515015 0.42673016 -1.8879178 4288085770
5.225647 0.43968201 -1.8859398 4288085770
5.087738 0.4506321 -1.8769653 4288085770
5.0321045 2.7769537 -1.8263018 4288085770
5.1682434 2.8319883 -1.8312523 4288085770
5.3113403 2.8900232 -1.8362005 4288085770
5.4574585 2.9480629 -1.8411477 4288085770
5.6105652 3.0061007 -1.845093 4288085770
5.7796936 3.0711451 -1.8510325 4288085770
5.9698181 3.1441975 -1.8629644 4288085770
6.1559448 3.2132473 -1.8698986 4288085770
6.3650513 3.2903042 -1.8808248 4288085770
5.1072998 2.7359209 -1.8342717 4288085770
6.5632019 3.3613567 -1.8867538 4288085770
5.2593994 2.7869625 -1.8432186 4288085770
6.7452698 3.4204025 -1.8856909 4288085770
5.3995361 2.8299961 -1.8441699 4288085770
6.9504089 3.4884577 -1.8876193 4288085770
5.5616455 2.8810377 -1.8511145 4288085770
7.1735535 3.5625172 -1.8935406 4288085770
5.7187805 2.9290771 -1.8550603 4288085770
7.4146118 3.6415815 -1.8994572 4288085770
5.8778992 2.9741182 -1.8580058 4288085770
7.6957703 3.73666 -1.9133584 4288085770
6.0710144 3.0331697 -1.8679397 4288085770
7.9778442 3.8287392 -1.9232609 4288085770
6.2371521 3.0772114 -1.8688834 4288085770
8.2449646 3.9098101 -1.9271686 4288085770
6.458252 3.1442728 -1.882807 4288085770
8.5250854 3.9938869 -1.9310725 4288085770
6.635376 3.1893187 -1.8827474 4288085770
8.8702087 4.101984 -1.9459531 4288085770
6.8164673 3.2323647 -1.8826873 4288085770
9.2333069 4.2140884 -1.9608281 4288085770
7.035614 3.2904243 -1.8906128 4288085770
9.6184082 4.3321953 -1.9756949 4288085770
7.2727356 3.3524876 -1.899534 4288085770
10.052521 4.4643202 -1.9965456 4288085770
7.507843 3.410552 -1.9064553 4288085770
10.472595 4.5854387 -2.0094025 4288085770
7.7289734 3.459609 -1.9073822 4288085770
10.943726 4.7235737 -2.0282404 4288085770
8.0361023 3.5406981 -1.9262779 4288085770
11.441833 4.8657179 -2.0470707 4288085770
8.2802124 3.5937614 -1.9291971 4288085770
11.908936 4.9898472 -2.0569127 4288085770
8.5693359 3.6598425 -1.939101 4288085770
12.443024 5.1339998 -2.0717318 4288085770
8.8754578 3.7299252 -1.95 4288085770
12.924072 5.2501335 -2.0745714 4288085770
9.2015686 3.8030176 -1.9618919 4288085770
13.447205 5.3772821 -2.0783961 4288085770
9.5737 3.8891239 -1.9807684 4288085770
14.244324 5.6005163 -2.1191242 4288085770
9.9527893 3.9732294 -1.9976432 4288085770
14.967377 5.7857237 -2.1408818 4288085770
10.303925 4.0413284 -2.0065281 4288085770
15.636475 5.9429111 -2.1496603 4288085770
10.66803 4.1104279 -2.0144126 4288085770
16.544556 6.1761808 -2.1833556 4282675967
11.01416 4.1675243 -2.0173018 4288085770
17.241638 6.3253765 -2.1851265 4282675967
11.492249 4.2666636 -2.0391457 4288085770
18.116699 6.5246325 -2.2008369 4282675967
11.959381 4.3547964 -2.0569937 4288085770
19.007782 6.7188864 -2.2135432 4282675967
12.380463 4.4219151 -2.0628603 4288085770
12.901581 4.5160656 -2.0826919 4288085770
13.439728 4.6102209 -2.1005189 4288085770
13.987823 4.6983795 -2.1163437 4288085770
14.530945 4.7775354 -2.1281722 4288085770
14.983032 4.821661 -2.1250322 4288085770
15.605164 4.9118433 -2.1418355 4288085770
16.3703 5.0340662 -2.171591 4288085770
17.006378 5.1092501 -2.1833928 4282675967
17.578491 5.1574125 -2.1832178 4288085770
18.240662 5.2226028 -2.1900127 4288085770
18.970764 5.2968121 -2.2017868 4288085770
12.392181 3.4316969 -1.4170244 4293729569
12.154388 3.2856064 -1.3471186 4293729569
12.181519 3.2095976 -1.306124 4293729569
12.2677 3.1456099 -1.2721097 4293729569
12.355804 3.0816221 -1.2390954 4293729569
12.481964 3.0246449 -1.2100689 4293729569
12.642059 2.9736805 -1.1860316 4293729569
12.84024 2.9297285 -1.1639817 4293729569
13.016357 2.8767662 -1.1399395 4293729569
13.076538 2.7977695 -1.1079361 4293729569
14.054657 2.9000616 -1.1476324 4293729569
14.142792 2.8170738 -1.1166217 4293729569
14.019958 2.6950216 -1.0716794 4293729569
13.212158 2.4537582 -0.98095679 4293729569
13.4263 2.3968115 -0.96290469 4293729569
13.492401 2.3128157 -0.93690133 4293729569
13.48056 2.2148008 -0.9069221 4293729569
13.797729 2.1678858 -0.8978374 4293729569
13.780914 2.0668678 -0.86886096 4293729569
13.739044 1.9638424 -0.8408916 4293729569
13.846191 1.8818636 -0.82187486 4293729569
14.274353 1.8339834 -0.82075906 4293729569
14.873474 1.801157 -0.82859063 4293729569
19.87674 -5.6123648 -2.1675212 4293729569
19.204865 -5.5555696 -2.1667087 4293729569
18.530975 -5.4907756 -2.1638949 4293729569
18.005096 -5.4569354 -2.1740439 4293729569
18.5 -5.669992 -1.357939 4293729569
17.25119 -5.3491688 -2.1542461 4293729569
18.45517 -5.7769952 -1.4269731 4293729569
16.383301 -5.1934404 -2.1174719 4293729569
15.715363 -5.0916491 -2.0996501 4293729569
14.947449 -4.9468913 -2.0658491 4293729569
14.274567 -4.8231025 -2.040024 4293729569
13.831696 -4.7692389 -2.042145 4293729569
13.454773 -4.7303557 -2.0512493 4293729569
13.877716 -4.9093833 -1.4471586 4293729569
13.177948 -4.7224364 -2.0743301 4293729569
13.5979 -4.8994622 -1.4832394 4293729569
