# .PCD v0.7 - Point Cloud Data file format
VERSION 0.7
FIELDS x y z rgb
SIZE 4 4 4 4
TYPE F F F U
COUNT 1 1 1 1
WIDTH 1128
HEIGHT 1
VIEWPOINT 0 0 0 1 0 0 0
POINTS 1128
DATA ascii
0.085342407 1.8243458 -1.8198479 4288085770
2.333725 2.7973697 -1.7998486 4288085770
2.390625 2.8197029 -1.7987535 4288085770
10.886879 6.4911661 -1.8123772 4288085770
3.9081879 3.4543383 -1.802544 4288085770
8.8530731 5.5787349 -1.7878163 4288085770
1.5769196 2.4509571 -1.8087003 4288085770
0.72503662 2.0850174 -1.81686 4288085770
2.4727097 2.8341806 -1.7964675 4288085770
11.534286 6.6657877 -1.8186234 4288085770
0.10887146 1.8044424 -1.8215668 4288085770
2.6276932 2.8740735 -1.7940331 4288085770
1.6830215 2.4715941 -1.8033472 4288085770
2.4152908 2.7798045 -1.8002973 4288085770
0.74957275 2.0621212 -1.8185481 4288085770
3.9229202 3.3994086 -1.8010098 4288085770
8.7652893 5.442174 -1.791103 4288085770
2.7936554 2.9180212 -1.7925781 4288085770
1.8320923 2.5083926 -1.8079169 4288085770
12.280579 6.869925 -1.8306258 4288085770
0.12743378 1.7805352 -1.8202764 4288085770
2.9726181 2.9650257 -1.793084 4288085770
2.4369659 2.7379055 -1.7998389 4288085770
1.972168 2.5401738 -1.8084887 4288085770
0.77410889 2.0382323 -1.8192278 4288085770
3.938652 3.3444846 -1.7994707 4288085770
8.6185989 5.2823601 -1.7844869 4288085770
3.158577 3.0130703 -1.793564 4288085770
13.017921 7.0610504 -1.8375624 4288085770
2.1182556 2.5719795 -1.8100309 4288085770
0.14496613 1.756639 -1.8169911 4288085770
3.3465271 3.060143 -1.7920256 4288085770
2.4706497 2.7000411 -1.8033551 4288085770
0.80264282 2.0153582 -1.8208961 4288085770
2.2513428 2.5977619 -1.8055867 4288085770
8.5288086 5.1468129 -1.7847923 4288085770
3.9803772 3.2986658 -1.8028791 4288085770
13.823196 7.2675486 -1.8462898 4288085770
3.5544891 3.1113129 -1.7924221 4288085770
0.17050934 1.735755 -1.8176917 4288085770
2.4044418 2.6286242 -1.8050858 4288085770
2.496315 2.6591647 -1.8028858 4288085770
0.83120728 1.991483 -1.8225563 4288085770
3.7874146 3.1715922 -1.7967712 4288085770
8.462944 5.0243955 -1.7860894 4288085770
4.0030975 3.2457898 -1.8003223 4288085770
14.631485 7.465106 -1.8499261 4288085770
2.5595322 2.659507 -1.803575 4288085770
4.0183487 3.2278929 -1.7970963 4288085770
0.20304108 1.7178946 -1.8203828 4288085770
0.85874176 1.9676197 -1.8222213 4288085770
2.5259781 2.6203108 -1.8024133 4288085770
2.7086411 2.6853795 -1.7990518 4288085770
4.2652893 3.2872684 -1.7993677 4288085770
8.3970871 4.9009776 -1.7873781 4288085770
15.549637 7.6932421 -1.8592724 4288085770
4.015831 3.1888728 -1.7957814 4288085770
0.21659851 1.6909914 -1.8150922 4288085770
2.8847351 2.7193644 -1.7994627 4288085770
4.5112305 3.3436627 -1.7986188 4288085770
0.88728333 1.9437618 -1.8218814 4288085770
2.5666275 2.5844953 -1.8049121 4288085770
8.346199 4.7846432 -1.7886521 4288085770
4.0475464 3.139039 -1.7942058 4288085770
3.0708313 2.7553988 -1.8008409 4288085770
4.7861328 3.409198 -1.8008027 4288085770
0.24913025 1.6721394 -1.8167751 4288085770
0.91583252 1.9189117 -1.820533 4288085770
15.540695 7.4491997 -1.851257 4288085770
2.6193008 2.5517225 -1.8103769 4288085770
5.0830307 3.4788501 -1.8039116 4288085770
3.246933 2.7854168 -1.797218 4288085770
8.3282623 4.6814666 -1.7938732 4288085770
4.0852585 3.0902398 -1.7926092 4288085770
0.27768707 1.6502881 -1.8154523 4288085770
5.375946 3.5425127 -1.8029896 4288085770
0.95237732 1.8970742 -1.8231704 4288085770
3.4520264 2.8235505 -1.7995192 4288085770
15.296494 7.2038422 -1.8424041 4288085770
2.6439743 2.5088651 -1.8068957 4288085770
8.285347 4.5691867 -1.794142 4288085770
4.1289825 3.0424654 -1.7919914 4288085770
5.7198181 3.621408 -1.8089423 4288085770
3.6531372 2.857686 -1.7988063 4288085770
0.30823517 1.6294405 -1.8151283 4288085770
0.99394226 1.8752735 -1.8247833 4288085770
15.161087 7.0030408 -1.8413852 4288085770
6.0776749 3.7023916 -1.8138425 4288085770
2.6806412 2.4700511 -1.8063891 4288085770
3.8592377 2.8918583 -1.797069 4288085770
8.234436 4.4548874 -1.7914335 4288085770
4.1856766 2.9997497 -1.7933513 4288085770
0.34277344 1.6096077 -1.815793 4288085770
1.02948 1.8524554 -1.8244172 4288085770
6.4025803 3.767262 -1.8097711 4288085770
4.0673523 2.9230587 -1.7932963 4288085770
15.074547 6.8245025 -1.8423107 4288085770
2.7372971 2.4373178 -1.8098341 4288085770
8.1944962 4.3456426 -1.789713 4288085770
4.234375 2.9540131 -1.7917258 4288085770
6.7564697 3.8372886 -1.8065981 4288085770
4.3134613 2.9644175 -1.7964202 4288085770
0.37332916 1.5877602 -1.8154607 4288085770
1.0660324 1.8286424 -1.8240381 4288085770
14.842247 6.594254 -1.8285265 4288085770
7.13134 3.9114275 -1.8043554 4288085770
2.7869568 2.4015696 -1.8102888 4288085770
4.5555725 3.0017786 -1.79653 4288085770
4.3030472 2.9143574 -1.7940521 4288085770
8.1395569 4.2323451 -1.7840332 4288085770
1.1075668 1.8068504 -1.8246511 4288085770
0.40987396 1.5679467 -1.8151155 4288085770
7.5192184 3.984657 -1.8000399 4288085770
14.707771 6.4015083 -1.8215716 4288085770
4.8056793 3.0391936 -1.7956004 4288085770
2.8336258 2.3648047 -1.8107497 4288085770
4.3737488 2.8737214 -1.79536 4288085770
8.204483 4.1595907 -1.7950985 4288085770
7.9940033 4.0823083 -1.8044972 4288085770
0.44540405 1.5481284 -1.8147751 4288085770
1.1431274 1.7810564 -1.82126 4288085770
5.0618057 3.0736589 -1.7926158 4288085770
14.592247 6.2168708 -1.8145906 4288085770
8.4238663 4.1587863 -1.7989993 4288085770
2.901268 2.3341343 -1.8141575 4288085770
4.4544296 2.8361335 -1.7976441 4288085770
8.2524261 4.0807734 -1.8021972 4288085770
1.1856689 1.7592702 -1.8218678 4288085770
0.47496796 1.5242996 -1.8114308 4288085770
5.3389206 3.1132193 -1.7925694 4288085770
8.9356537 4.255681 -1.7992653 4288085770
14.538605 6.055553 -1.8114979 4288085770
2.9579391 2.2984259 -1.8145776 4288085770
5.6130447 3.1477878 -1.7894958 4288085770
4.5331039 2.7965512 -1.7979212 4288085770
8.24543 3.9827163 -1.8004073 4288085770
1.2312241 1.7365086 -1.8214526 4288085770
0.52351379 1.5075212 -1.8150517 4288085770
9.4724121 4.3567119 -1.8004415 4288085770
14.54586 5.9155512 -1.8122817 4288085770
5.9221649 3.1895139 -1.7913082 4288085770
3.0245819 2.2657578 -1.8169734 4288085770
10.066139 4.467051 -1.803412 4288085770
1.2737656 1.7127469 -1.819044 4288085770
4.6167679 2.7579896 -1.7991819 4288085770
8.2703857 3.8968084 -1.8025608 4288085770
0.56204987 1.4867358 -1.8126884 4288085770
6.247261 3.2333398 -1.7920582 4288085770
14.52813 5.7684407 -1.8091302 4288085770
10.683846 4.5785441 -1.8042723 4288085770
3.0882339 2.23209 -1.817376 4288085770
1.321312 1.6900053 -1.817619 4288085770
4.7024612 2.718447 -1.7994246 4288085770
8.3212967 3.8190413 -1.8056537 4288085770
0.60260773 1.4649537 -1.8113067 4288085770
6.6003723 3.2793083 -1.794687 4288085770
11.286613 4.6760106 -1.7980886 4288085770
14.561333 5.6366043 -1.8078536 4288085770
1.3728485 1.6682782 -1.8171825 4288085770
3.1618652 2.2004709 -1.8187459 4288085770
4.7911224 2.6799302 -1.7986608 4288085770
6.9594803 3.3233204 -1.7962689 4288085770
0.64916229 1.4451888 -1.8119121 4288085770
8.3402405 3.7311332 -1.8038203 4288085770
12.010269 4.8020911 -1.8005431 4288085770
14.588547 5.5027413 -1.8055898 4288085770
1.4273911 1.6455765 -1.8157231 4288085770
7.3316116 3.3664141 -1.7967782 4288085770
3.2245178 2.1648138 -1.8171366 4288085770
12.771889 4.931416 -1.7998352 4288085770
0.69168091 1.4254272 -1.8095375 4288085770
4.8937683 2.6444776 -1.7998532 4288085770
8.3821716 3.6493316 -1.804924 4288085770
7.7307205 3.4126468 -1.7991794 4288085770
14.670685 5.3841767 -1.8051813 4288085770
1.4899292 1.6258955 -1.8172493 4288085770
13.563515 5.0589199 -1.7979621 4288085770
3.3071442 2.1342373 -1.8194703 4288085770
0.73921967 1.4056768 -1.8091381 4288085770
4.9954147 2.6080272 -1.800042 4288085770
8.4141159 3.562505 -1.802035 4288085770
8.1598358 3.4610326 -1.803449 4288085770
14.508011 5.2182231 -1.8045945 4288085770
1.5554733 1.6062322 -1.8187605 4288085770
14.782791 5.2727661 -1.8066838 4288085770
3.3777924 2.0996177 -1.8188298 4288085770
0.79277039 1.385952 -1.8097091 4288085770
5.1120605 2.5746546 -1.8011823 4288085770
8.4440308 3.4776759 -1.7981731 4288085770
8.568985 3.4993629 -1.800733 4288085770
15.538445 5.3890171 -1.810895 4288085770
1.6139984 1.5835619 -1.8162813 4288085770
14.898888 5.161396 -1.8061669 4288085770
0.8433075 1.3662274 -1.8082948 4288085770
3.4694138 2.0700934 -1.8211278 4288085770
5.2287064 2.53929 -1.8013055 4288085770
9.0511017 3.5500515 -1.8047575 4288085770
8.5189209 3.4030626 -1.7991731 4288085770
1.6775436 1.5619035 -1.8157856 4288085770
15.030952 5.0531254 -1.8045964 4288085770
0.89382172 1.346503 -1.8068807 4288085770
3.552063 2.0355504 -1.8194283 4288085770
9.6091766 3.6151085 -1.8165244 4288085770
5.3583374 2.5059912 -1.8023816 4288085770
8.5668411 3.3203361 -1.7952393 4288085770
1.7470474 1.5422797 -1.8152772 4288085770
0.95136261 1.3268096 -1.8064319 4288085770
15.195 4.9520202 -1.804927 4288085770
10.113319 3.6579478 -1.8173724 4288085770
3.6526718 2.0070782 -1.8216902 4288085770
5.5029755 2.4747612 -1.8054003 4288085770
8.6297226 3.2416952 -1.7912654 4288085770
1.8215866 1.5216763 -1.8157359 4288085770
10.64946 3.70297 -1.818079 4288085770
1.0238953 1.3111608 -1.8109425 4288085770
15.417969 4.8632369 -1.8070676 4288085770
3.7413025 1.9735613 -1.8209693 4288085770
5.6615982 2.445612 -1.8083667 4288085770
0.10738373 1.0700459 -1.7964844 4288085770
8.7175903 3.169173 -1.7902185 4288085770
0.1933136 1.0894952 -1.8012199 4288085770
0.2692337 1.1069205 -1.8019882 4288085770
1.8961182 1.5010815 -1.8151945 4288085770
0.35417938 1.1253881 -1.8037205 4288085770
0.43510437 1.1428499 -1.8034642 4288085770
11.15667 3.7328763 -1.8128023 4288085770
0.51205444 1.1583129 -1.8002108 4288085770
0.1925354 1.0804256 -1.8081492 4288085770
0.60501099 1.1768258 -1.8019038 4288085770
1.0894241 1.2925053 -1.8114625 4288085770
0.27153778 1.0938814 -1.8068691 4288085770
0.69194794 1.1943376 -1.799618 4288085770
0.79389191 1.2148936 -1.8022833 4288085770
3.8439178 1.9431171 -1.8212044 4288085770
5.7762375 2.4042947 -1.8014497 4288085770
0.36056519 1.1083691 -1.8085482 4288085770
0.89485931 1.2334676 -1.8019367 4288085770
0.44654846 1.1228738 -1.8062421 4288085770
1.0038147 1.2540712 -1.8035675 4288085770
1.9816284 1.4825406 -1.8156154 4288085770
8.8024368 3.0966501 -1.7871867 4288085770
1.1147842 1.2736938 -1.8041803 4288085770
0.53957367 1.137392 -1.8069017 4288085770
11.727852 3.7711067 -1.8122766 4288085770
1.2267609 1.2933304 -1.8037878 4288085770
1.1589355 1.2748656 -1.8129712 4288085770
0.62559509 1.1499045 -1.8035789 4288085770
1.345726 1.3139989 -1.8043693 4288085770
0.73062134 1.1664746 -1.8061956 4288085770
5.9128571 2.3680699 -1.7984657 4288085770
3.9505463 1.911695 -1.8214116 4288085770
1.4597244 1.3316708 -1.8009504 4288085770
0.83164215 1.181056 -1.8048155 4288085770
2.0621414 1.4619803 -1.8150442 4288085770
1.5926971 1.3534184 -1.8014711 4288085770
8.9252853 3.0293107 -1.7880092 4288085770
12.369019 3.8167036 -1.8154641 4288085770
0.94168091 1.1966708 -1.8053995 4288085770
1.7366791 1.3772042 -1.8049543 4288085770
1.2244568 1.2552269 -1.811483 4288085770
1.8836746 1.4000227 -1.8064144 4288085770
1.0507278 1.211288 -1.8049799 4288085770
6.0934753 2.3390546 -1.8003237 4288085770
4.0491409 1.8782616 -1.8176416 4288085770
2.0416718 1.4239037 -1.8078285 4288085770
1.1747894 1.2279578 -1.8085029 4288085770
2.1386642 1.4394217 -1.8114763 4288085770
13.037209 3.8594551 -1.8184925 4288085770
2.182663 1.4437294 -1.8042932 4288085770
1.2958298 1.2436435 -1.8080323 4288085770
9.0461197 2.9619775 -1.7868418 4288085770
1.2949677 1.2366092 -1.8109784 4288085770
2.357666 1.4696908 -1.8076402 4288085770
1.4258881 1.2603633 -1.8095258 4288085770
2.5406723 1.4956973 -1.8109475 4288085770
6.2770844 2.3090651 -1.8011582 4288085770
4.1897583 1.8519921 -1.8227227 4288085770
1.5489502 1.2740765 -1.8070289 4288085770
2.226181 1.4189098 -1.8098706 4288085770
13.728409 3.8973627 -1.818365 4288085770
2.7256775 1.5207322 -1.8122369 4288085770
1.6740189 1.2868176 -1.8025135 4288085770
9.1919479 2.8967695 -1.7875676 4288085770
1.3684769 1.2180083 -1.810459 4288085770
2.9146805 1.5457978 -1.8125064 4288085770
1.8260803 1.3056381 -1.8069152 4288085770
3.1206818 1.5729442 -1.8147088 4288085770
6.4546661 2.277076 -1.7980058 4288085770
4.3043594 1.8196414 -1.8198819 4288085770
2.3166809 1.3984151 -1.8082501 4288085770
1.9771652 1.3214855 -1.8072964 4288085770
14.428627 3.9303219 -1.8181506 4288085770
3.3396988 1.6011724 -1.8158554 4288085770
1.4449844 1.1994251 -1.8099247 4288085770
9.3857269 2.8428037 -1.7921492 4288085770
2.1372452 1.3383763 -1.8086416 4288085770
3.5597229 1.6264141 -1.8159719 4288085770
6.6792755 2.2502959 -1.801663 4288085770
2.4201813 1.3799779 -1.8085821 4288085770
2.2993393 1.3542864 -1.8089687 4288085770
4.4379501 1.790375 -1.8199726 4288085770
3.779747 1.6506805 -1.8130797 4288085770
15.304787 3.9871867 -1.8292603 4288085770
1.5284729 1.1818736 -1.8103641 4288085770
2.4594269 1.3682096 -1.806289 4288085770
4.0207596 1.678051 -1.8121094 4288085770
9.5485535 2.7777014 -1.7917912 4288085770
2.6325302 1.3831899 -1.8055533 4288085770
2.5166702 1.3595262 -1.805932 4288085770
4.2777786 1.7055125 -1.8110597 4288085770
6.8968506 2.2225094 -1.8013467 4288085770
4.5785446 1.7611485 -1.8200285 4288085770
2.8266449 1.400265 -1.8077304 4288085770
1.6009827 1.161293 -1.8068331 4288085770
4.5537949 1.7360654 -1.8119416 4288085770
9.7673569 2.7218781 -1.7962326 4288085770
3.0107422 1.4153173 -1.8059404 4288085770
2.6351776 1.342159 -1.8081983 4288085770
4.8578262 1.7677612 -1.8146935 4288085770
7.1224365 2.1927774 -1.7999737 4288085770
4.7081451 1.7278924 -1.8161052 4288085770
1.6894684 1.1437703 -1.8072478 4288085770
3.2198639 1.4314864 -1.8070351 4288085770
5.1588669 1.7964735 -1.8134348 4288085770
2.7576523 1.324831 -1.8084449 4288085770
9.9701462 2.6619968 -1.7967191 4288085770
5.4778824 1.8272886 -1.8121042 4288085770
3.4419861 1.4487212 -1.809074 4288085770
7.3720093 2.1661661 -1.8005075 4288085770
4.8817215 1.7028213 -1.8200319 4288085770
1.791954 1.1283033 -1.8106103 4288085770
5.8059235 1.8551795 -1.807704 4288085770
3.6631241 1.4639664 -1.8091012 4288085770
2.8761444 1.3054888 -1.8076943 4288085770
6.1609421 1.8862159 -1.8041955 4288085770
10.2369 2.6114392 -1.8019654 4288085770
3.8952637 1.4782829 -1.8080655 4288085770
7.6495819 2.1407061 -1.8019114 4288085770
5.0293045 1.6696684 -1.8160198 4288085770
1.888443 1.1098346 -1.8099771 4288085770
6.5319824 1.9163439 -1.8005995 4288085770
4.1554031 1.4957263 -1.8109164 4288085770
2.9985962 1.2871788 -1.8059325 4288085770
6.9320145 1.9466457 -1.7958601 4288085770
10.497688 2.5558643 -1.805199 4288085770
7.9381332 2.1153178 -1.8022609 4288085770
4.4125443 1.5101855 -1.8097571 4288085770
5.1868744 1.6385725 -1.811975 4288085770
1.9829178 1.0903637 -1.8083453 4288085770
7.3780518 1.982177 -1.7949357 4288085770
3.137085 1.2689428 -1.8060917 4288085770
4.6837006 1.524724 -1.8085287 4288085770
8.2566757 2.0920937 -1.803479 4288085770
10.835449 2.5096717 -1.8151283 4288085770
2.0843887 1.0719328 -1.8066875 4288085770
7.8740845 2.0219686 -1.7967974 4288085770
5.3844452 1.6116564 -1.813766 4288085770
4.9838715 1.540395 -1.8111651 4288085770
3.2955475 1.2537966 -1.8091772 4288085770
8.3851089 2.058871 -1.79556 4288085770
5.2900391 1.5551176 -1.8117636 4288085770
2.2138672 1.0576046 -1.8119248 4288085770
8.5912399 2.0669682 -1.803601 4288085770
5.5710068 1.5827019 -1.8125948 4288085770
11.162224 2.4574575 -1.8200612 4288085770
8.9391327 2.0980277 -1.7931269 4288085770
3.4560089 1.2376703 -1.8112441 4288085770
5.6082153 1.5679238 -1.8102859 4288085770
2.3283234 1.0402318 -1.812211 4288085770
9.5731506 2.1435993 -1.7953488 4288085770
8.9647675 2.0460503 -1.805564 4288085770
5.9184036 1.5757265 -1.8038057 4288085770
5.7605743 1.5507898 -1.8083835 4288085770
3.6124725 1.2195466 -1.8103142 4288085770
11.502998 2.4043238 -1.8249165 4288085770
10.335152 2.2018108 -1.8080389 4288085770
6.2465973 1.5836236 -1.7982364 4288085770
2.4377747 1.0208644 -1.8085053 4288085770
9.3752975 2.0263269 -1.8093525 4288085770
5.9751205 1.5220041 -1.806074 4288085770
3.7809143 1.2024832 -1.8103334 4288085770
11.155144 2.2623708 -1.8184595 4288085770
11.814766 2.343091 -1.821848 4288085770
6.6498108 1.5988655 -1.8023552 4288085770
2.5692368 1.0035887 -1.8087074 4288085770
11.919159 2.3057349 -1.8140136 4288085770
9.8647995 2.014014 -1.8178095 4288085770
3.9583588 1.1854713 -1.810308 4288085770
6.2226715 1.4953659 -1.8086179 4288085770
7.070015 1.6122296 -1.8033732 4288085770
12.153549 2.2820048 -1.8196459 4288085770
2.6976852 0.98531342 -1.806916 4288085770
12.707176 2.345278 -1.8044155 4288085770
7.4882431 1.6206069 -1.8013591 4288085770
4.1497955 1.1685483 -1.8092136 4288085770
10.45031 2.0081911 -1.8328424 4288085770
6.4882202 1.4698386 -1.8100814 4288085770
0.86937714 0.7198838 -1.8088076 4288085770
13.636169 2.3955684 -1.8012046 4288085770
2.8471069 0.97012579 -1.809046 4288085770
7.9694824 1.6323109 -1.8030585 4288085770
12.550316 2.2252164 -1.821191 4288085770
4.3622284 1.1527201 -1.8110235 4288085770
11.051796 2.0004859 -1.8447791 4288085770
0.93878174 0.70428872 -1.8053334 4288085770
14.690163 2.4505565 -1.7994095 4288085770
6.7557755 1.4403479 -1.8085012 4288085770
8.4557266 1.6390686 -1.8016912 4288085770
2.9875488 0.95191914 -1.8071953 4288085770
4.5686569 1.1358838 -1.8098549 4288085770
12.986076 2.1686509 -1.8225431 4288085770
1.0281601 0.69175905 -1.8077854 4288085770
11.636292 1.9837575 -1.8477244 4288085770
8.9749908 1.6460063 -1.8011607 4288085770
7.0473175 1.4119866 -1.8078109 4288085770
3.1469803 0.93480521 -1.8072591 4288085770
4.7860794 1.118118 -1.8076233 4288085770
1.1165543 0.67823982 -1.8082337 4288085770
13.453835 2.1122777 -1.8227373 4288085770
9.5832748 1.6554103 -1.8052068 4288085770
12.164795 1.9548182 -1.8378456 4288085770
7.3408356 1.3826542 -1.8051025 4288085770
3.3194122 0.91775745 -1.8082584 4288085770
1.9922485 0.76423997 -1.8045893 4288085770
1.8463516 0.74740481 -1.8051758 4288085770
1.6954346 0.72957474 -1.8017788 4288085770
2.150177 0.78113413 -1.8049437 4288085770
1.5555267 0.71279091 -1.8003358 4288085770
2.2900696 0.79597574 -1.7993702 4288085770
1.4336472 0.69707572 -1.802812 4288085770
2.4700012 0.81497902 -1.8016325 4288085770
1.315773 0.68139172 -1.8042687 4288085770
2.6479187 0.83299571 -1.8008964 4288085770
1.0669556 0.65195936 -1.8062629 4288085770
0.96704102 0.64035404 -1.8106641 4288085770
5.0374985 1.1025224 -1.8082404 4288085770
1.1909103 0.66464269 -1.8087513 4288085770
1.2049026 0.66573888 -1.8066906 4288085770
1.3178558 0.67835116 -1.8102334 4288085770
2.8438644 0.85109782 -1.8020713 4288085770
1.2139587 0.6647476 -1.8116378 4288085770
1.4398117 0.6900562 -1.8087234 4288085770
3.033783 0.8691988 -1.7992762 4288085770
1.0950317 0.65010822 -1.8071079 4288085770
1.5757675 0.70282388 -1.8091528 4288085770
3.2487259 0.88841796 -1.7993656 4288085770
0.9851532 0.63448584 -1.8065252 4288085770
1.702713 0.71457374 -1.8056182 4288085770
10.296555 1.6723316 -1.8187928 4288085770
1.8567047 0.72742677 -1.8079585 4288085770
3.4796906 0.90771109 -1.8013762 4288085770
2.0136795 0.74130607 -1.8092924 4288085770
12.78228 1.9313548 -1.8315691 4288085770
3.7156372 0.92705762 -1.800362 4288085770
3.4948273 0.90172714 -1.8092513 4288085770
14.000603 2.057322 -1.8265493 4288085770
2.1666489 0.75319499 -1.8066295 4288085770
7.6673737 1.3535013 -1.8032306 4288085770
3.9725952 0.94751549 -1.8002526 4288085770
2.342659 0.7661733 -1.8088613 4288085770
5.3249054 1.0900989 -1.8127048 4288085770
4.2605591 0.97011781 -1.8040066 4288085770
1.3043289 0.65025735 -1.8100679 4288085770
2.5016327 0.77712113 -1.8031604 4288085770
4.5325241 0.98868567 -1.8008063 4288085770
11.142868 1.6939378 -1.8407545 4288085770
2.6956482 0.79020238 -1.8053033 4288085770
4.8484955 1.0104635 -1.8024136 4288085770
2.8826599 0.80128413 -1.802464 4288085770
3.6982498 0.88683188 -1.8131142 4288085770
13.487747 1.9123614 -1.8288909 4288085770
5.1634674 1.0312767 -1.7990175 4288085770
5.5733109 1.0715282 -1.8083116 4288085770
3.0986938 0.8144899 -1.8044978 4288085770
8.0429001 1.3275962 -1.8051419 4288085770
1.4026947 0.63680476 -1.8094668 4288085770
14.552383 1.9954371 -1.8252774 4288085770
5.5324402 1.0553405 -1.8023797 4288085770
3.3197021 0.82774132 -1.8045074 4288085770
11.836212 1.690886 -1.8372711 4288085770
3.5507431 0.84004098 -1.8054589 4288085770
5.9074326 1.0774708 -1.8016956 4288085770
3.8876495 0.86989933 -1.8120295 4288085770
14.328209 1.9000895 -1.831596 4288085770
3.8068008 0.85247433 -1.8072869 4288085770
6.3454208 1.1039205 -1.8057337 4288085770
5.870697 1.0562046 -1.8077013 4288085770
1.5090866 0.6223805 -1.8108178 4288085770
8.4304123 1.2997763 -1.8049769 4288085770
4.0538406 0.86289859 -1.8041428 4288085770
6.7894058 1.1294286 -1.8067335 4288085770
12.557556 1.6830111 -1.831607 4288085770
15.339157 1.9507451 -1.8409785 4288085770
4.0970459 0.85307282 -1.811846 4288085770
4.3399048 0.87549484 -1.8068224 4288085770
7.2404022 1.151026 -1.8016657 4288085770
6.180069 1.0409665 -1.8050318 4288085770
1.6114426 0.6079675 -1.8081888 4288085770
15.426643 1.90416 -1.8491516 4288085770
4.6419678 0.88819134 -1.808423 4288085770
7.7443848 1.1759021 -1.7993608 4288085770
8.8639374 1.2722113 -1.8055847 4288085770
13.315926 1.6693799 -1.8217096 4288085770
4.9680481 0.90002388 -1.8098967 4288085770
8.3113785 1.2021291 -1.797753 4288085770
4.3304367 0.83835816 -1.8145603 4288085770
1.7327957 0.59561425 -1.8114824 4288085770
6.5344467 1.0279444 -1.8071564 4288085770
1.0091858 0.5284909 -1.812529 4288085770
5.3061295 0.9119333 -1.8103111 4288085770
8.9153748 1.2295592 -1.7969707 4288085770
9.3334579 1.2438524 -1.8060057 4288085770
5.6472168 0.92088485 -1.8076854 4288085770
14.285332 1.6658137 -1.8278444 4288085770
9.6213837 1.26053 -1.8007094 4288085770
4.5618286 0.82065761 -1.8142596 4288085770
1.8511581 0.58127666 -1.810774 4288085770
6.8948135 1.0129819 -1.8062347 4288085770
1.1035461 0.51502383 -1.810948 4288085770
6.034317 0.93106556 -1.8088405 4288085770
10.478401 1.3002815 -1.8137686 4288085770
6.4224243 0.93928528 -1.8059742 4288085770
4.8362122 0.80617052 -1.8177713 4288085770
9.882988 1.2179093 -1.8110482 4288085770
11.44342 1.343616 -1.8303192 4288085770
1.9805069 0.5679853 -1.8120196 4288085770
15.421761 1.6651356 -1.8411701 4288085770
7.3221817 1.001369 -1.8090069 4288085770
1.2108917 0.50259888 -1.8133107 4288085770
6.8565445 0.94775069 -1.8048804 4288085770
12.331406 1.3737025 -1.8241417 4288085770
5.1055984 0.78868759 -1.8172826 4288085770
2.1108475 0.55370867 -1.8122518 4288085770
7.2716599 0.95117408 -1.7958386 4288085770
1.3192368 0.490188 -1.8146687 4288085770
7.8205643 0.99210435 -1.8184446 4288085770
10.500511 1.193338 -1.8177627 4288085770
13.347404 1.4064944 -1.8203481 4288085770
7.8718338 0.96547151 -1.8079658 4288085770
5.3869553 0.77228236 -1.815743 4288085770
2.2521896 0.54048693 -1.8134379 4288085770
14.682419 1.4559431 -1.8351035 4288085770
1.4335709 0.47780356 -1.8169967 4288085770
8.2428894 0.97457176 -1.8081914 4288085770
8.3549805 0.96629167 -1.7975626 4288085770
11.202042 1.1692233 -1.827062 4288085770
2.3935165 0.52628171 -1.8126159 4288085770
5.7083359 0.75608045 -1.8170055 4288085770
1.559906 0.46548766 -1.8192655 4288085770
8.7532272 0.96047568 -1.805528 4288085770
8.9531326 0.97169334 -1.7956245 4288085770
11.864563 1.1359848 -1.8244786 4288085770
2.5488281 0.51315749 -1.8117329 4288085770
9.6173248 0.97645563 -1.7953515 4288085770
6.0016556 0.73778653 -1.8103899 4288085770
1.6632004 0.45209926 -1.8146398 4288085770
9.315567 0.94766116 -1.8046161 4288085770
10.389534 0.98277718 -1.8015527 4288085770
2.7151489 0.50007129 -1.8137953 4288085770
1.7905197 0.4388063 -1.8148953 4288085770
6.373024 0.72186267 -1.8124051 4288085770
12.592072 1.1031272 -1.8205738 4288085770
10.005905 0.93951142 -1.8111048 4288085770
11.240768 0.98754227 -1.8083465 4288085770
2.8934784 0.48704535 -1.8167984 4288085770
1.9208145 0.42653954 -1.8141443 4288085770
6.754364 0.7050302 -1.8103626 4288085770
10.781235 0.93284029 -1.8181814 4288085770
13.449593 1.0709711 -1.8210262 4288085770
12.105003 0.98644698 -1.8070257 4288085770
3.0557632 0.471995 -1.8118641 4288085770
2.0701294 0.41434795 -1.817299 4288085770
7.1756973 0.68841779 -1.8091223 4288085770
11.590553 0.92340451 -1.8200649 4288085770
13.105263 0.98509651 -1.809024 4288085770
3.2630844 0.45912665 -1.8157238 4288085770
14.452133 1.0396028 -1.8257614 4288085770
2.2004013 0.40110675 -1.8135397 4288085770
7.6390228 0.6730299 -1.8096827 4288085770
12.505867 0.91457599 -1.8214244 4288085770
14.227554 0.98143393 -1.8113939 4288085770
3.4583511 0.44623274 -1.8146428 4288085770
2.3596878 0.38898975 -1.8146454 4288085770
8.1673737 0.6569885 -1.8129132 4288085770
13.548164 0.90845686 -1.8241727 4288085770
15.656906 0.98139328 -1.8282622 4288085770
3.7006683 0.43354076 -1.8213291 4288085770
2.5259705 0.37691322 -1.815716 4288085770
8.7116852 0.6410805 -1.8110647 4288085770
14.764458 0.90429097 -1.8310694 4288085770
3.9299469 0.41983271 -1.8210717 4288085770
2.7012405 0.36488035 -1.8177425 4288085770
9.3150024 0.62449372 -1.8109159 4288085770
4.1842346 0.40724319 -1.8236988 4288085770
2.8815002 0.35289279 -1.8177439 4288085770
10.024323 0.61047161 -1.8152599 4288085770
4.4534912 0.39474806 -1.8252517 4288085770
3.0667496 0.33995053 -1.8157125 4288085770
7.7388687 0.50759876 -1.8018022 4288085770
8.3027573 0.5278312 -1.7981578 4288085770
7.2179871 0.48761982 -1.8042341 4288085770
8.9416504 0.54945922 -1.7981509 4288085770
6.7340851 0.46887732 -1.803492 4288085770
9.6575699 0.57152671 -1.7977633 4288085770
6.2751999 0.44928586 -1.8016176 4288085770
10.465485 0.59509492 -1.7999293 4288085770
5.8863525 0.4310354 -1.8064055 4288085770
11.384415 0.62028933 -1.802555 4288085770
5.5475006 0.41404599 -1.8139547 4288085770
10.793648 0.59479356 -1.8192904 4288085770
12.417351 0.64612627 -1.8056173 4288085770
4.7267456 0.38130111 -1.8237767 4288085770
5.3625641 0.40302876 -1.8097852 4288085770
5.018631 0.39107025 -1.8104013 4288085770
5.7195129 0.41408587 -1.8060964 4288085770
5.2026367 0.39607203 -1.8155254 4288085770
4.7127228 0.37929577 -1.8148296 4288085770
6.1144562 0.42534369 -1.80422 4288085770
3.2779999 0.32911599 -1.8185688 4288085770
4.4217987 0.36763126 -1.8161837 4288085770
13.492249 0.67129493 -1.7974639 4288085770
6.5464172 0.43680379 -1.8031607 4288085770
4.1298828 0.35497755 -1.8155345 4288085770
4.8707657 0.37918881 -1.8150402 4288085770
7.0244064 0.44751033 -1.8038652 4288085770
3.8479538 0.34241414 -1.8108361 4288085770
14.821175 0.70082414 -1.7990799 4288085770
7.54039 0.45844209 -1.803382 4288085770
3.6000519 0.33000326 -1.8109695 4288085770
4.5509186 0.36038998 -1.8124793 4288085770
3.3541489 0.31762019 -1.8090931 4288085770
8.1093979 0.46866804 -1.8036284 4288085770
11.65596 0.57965451 -1.8218609 4288085770
5.0550232 0.36910227 -1.8300377 4288085770
4.2660675 0.34376621 -1.8127618 4288085770
3.4912338 0.31731838 -1.8184073 4288085770
8.700386 0.47806141 -1.798758 4288085770
3.1352615 0.30438191 -1.8080748 4288085770
4.0022202 0.32725406 -1.8139406 4288085770
9.4064026 0.48805386 -1.8003188 4288085770
2.9253845 0.29218748 -1.8080205 4288085770
3.7423859 0.30978909 -1.8120916 4288085770
2.7365189 0.28009582 -1.8098623 4288085770
10.161438 0.49634171 -1.7996205 4288085770
5.3482513 0.35479525 -1.8254553 4288085770
12.631256 0.56416237 -1.8238646 4288085770
3.7374954 0.30566734 -1.823082 4288085770
11.056503 0.50638109 -1.8042383 4288085770
3.4945374 0.29340103 -1.8091915 4288085770
2.5536652 0.26704618 -1.8106661 4288085770
12.028572 0.51389259 -1.8044504 4288085770
2.3718033 0.25402716 -1.8084651 4288085770
5.6784668 0.34169143 -1.8216985 4288085770
3.281723 0.27717906 -1.8101184 4288085770
3.9917374 0.29407138 -1.8267174 4288085770
13.700554 0.5472331 -1.8223866 4288085770
13.164673 0.52129161 -1.8098432 4288085770
2.2189713 0.24211551 -1.8131289 4288085770
3.0648956 0.26095909 -1.8080652 4288085770
6.0186691 0.32865387 -1.816892 4288085770
14.376747 0.52620018 -1.8058352 4288085770
4.2629623 0.28258902 -1.8282689 4288085770
2.0621338 0.22922182 -1.8128043 4288085770
15.056885 0.5338285 -1.8335061 4288085770
2.8790817 0.24587481 -1.8108672 4288085770
1.905304 0.21633667 -1.81148 4288085770
6.4349136 0.31599259 -1.8187097 4288085770
4.5301666 0.27111742 -1.8258402 4288085770
2.6912842 0.22980329 -1.8106707 4288085770
1.7594757 0.20351356 -1.8101013 4288085770
6.8771286 0.30348021 -1.8203987 4288085770
2.5094681 0.21478292 -1.8084531 4288085770
4.8273697 0.25979289 -1.826263 4288085770
1.6246643 0.19073679 -1.8106681 4288085770
7.3643494 0.29123402 -1.8208653 4288085770
5.1365509 0.24955447 -1.824635 4288085770
2.3396683 0.19882184 -1.8071678 4288085770
1.4908524 0.17798185 -1.8092302 4288085770
7.8885422 0.27919954 -1.821149 4288085770
5.4797363 0.23849358 -1.8248302 4288085770
2.1918945 0.1839534 -1.8097819 4288085770
1.3730316 0.1662855 -1.8117214 4288085770
5.8388977 0.22854127 -1.822955 4288085770
8.4487457 0.26637924 -1.8202461 4288085770
2.0421066 0.16909821 -1.8094062 4288085770
1.251236 0.1535985 -1.8102243 4288085770
9.0909424 0.25500363 -1.8219461 4288085770
6.2200546 0.21772313 -1.8199624 4288085770
1.9023285 0.15429145 -1.8099811 4288085770
6.6642303 0.20821562 -1.8226665 4288085770
9.8051147 0.24403991 -1.8232905 4288085770
7.1453934 0.19893676 -1.8231878 4288085770
10.608292 0.23357676 -1.8251944 4288085770
1.7685623 0.13951898 -1.8105264 4288085770
7.6605148 0.18986937 -1.8215412 4288085770
11.520485 0.22272868 -1.8275511 4288085770
8.2276688 0.18108268 -1.8216373 4288085770
12.512642 0.21236344 -1.8265122 4288085770
1.6257782 0.12473603 -1.8061165 4288085770
8.8507996 0.17261648 -1.8214564 4288085770
13.673805 0.20193951 -1.8276297 4288085770
9.5529175 0.16559383 -1.8218933 4288085770
15.043983 0.19366091 -1.8337216 4288085770
10.358025 0.1611277 -1.8258379 4288085770
1.5050125 0.11102881 -1.807606 4288085770
11.224129 0.15504356 -1.825464 4288085770
12.255257 0.1508362 -1.8322824 4288085770
15.301247 0.15823308 -1.8191402 4288085770
13.364304 0.1481505 -1.8297242 4288085770
14.724419 0.14778328 -1.8399329 4288085770
13.866341 0.13813516 -1.8131338 4288085770
12.702469 0.12051126 -1.8147957 4288085770
1.3982773 0.096393123 -1.8100178 4288085770
11.629601 0.10144874 -1.8109913 4288085770
10.717735 0.084273219 -1.8103992 4288085770
1.2835388 0.0817357 -1.8094695 4288085770
9.9058838 0.067677528 -1.8083128 4288085770
9.2040558 0.050668657 -1.8106742 4288085770
14.292358 0.028539211 -1.81109 4288085770
1.177803 0.067121774 -1.8098766 4288085770
8.5212097 0.033826113 -1.8059419 4288085770
13.09256 0.0057240874 -1.8108882 4288085770
7.9574051 0.017588973 -1.8096209 4288085770
12.046761 -0.015235126 -1.8129333 4288085770
7.4245911 0.0015534759 -1.8101469 4288085770
11.079926 -0.034685642 -1.8075968 4288085770
6.9518051 -0.01515606 -1.8123679 4288085770
10.264145 -0.054339051 -1.8095051 4288085770
6.4909897 -0.030763626 -1.8105383 4288085770
9.5153503 -0.073585361 -1.8080823 4288085770
6.0871964 -0.046070665 -1.8114265 4288085770
8.844574 -0.092394084 -1.8072739 4288085770
5.7144318 -0.062209427 -1.8131534 4288085770
8.2538071 -0.1107628 -1.8080701 4288085770
5.371666 -0.078177005 -1.8147321 4288085770
14.727997 -0.25414437 -1.8205501 4288085770
7.7230453 -0.12880486 -1.8105695 4288085770
5.0438919 -0.093042135 -1.814245 4288085770
7.228302 -0.14662501 -1.8108913 4288085770
13.545334 -0.28684145 -1.8171806 4288085770
4.744133 -0.10876423 -1.8156111 4288085770
6.7785492 -0.16418841 -1.8109906 4288085770
12.578728 -0.31938761 -1.8227348 4288085770
4.4603882 -0.12437883 -1.8148983 4288085770
6.3598022 -0.18157434 -1.8109367 4288085770
4.2236557 -0.13978285 -1.8209528 4288085770
11.635063 -0.3487193 -1.8182011 4288085770
5.9860687 -0.19872046 -1.8126602 4288085770
14.84906 -0.47065425 -1.8371351 4288085770
3.9719162 -0.15521502 -1.8200817 4288085770
10.798386 -0.37543935 -1.8131553 4288085770
5.6323471 -0.21574414 -1.8132852 4288085770
13.646294 -0.48648208 -1.836008 4288085770
3.7481995 -0.17051244 -1.8220723 4288085770
5.3066254 -0.23260808 -1.8137717 4288085770
10.093773 -0.40347993 -1.8164397 4288085770
12.580528 -0.49954337 -1.8362206 4288085770
3.4994354 -0.18487805 -1.8151954 4288085770
4.9918976 -0.24939284 -1.8122039 4288085770
11.575676 -0.5062052 -1.8301822 4288085770
9.4161224 -0.42930835 -1.812608 4288085770
3.2756958 -0.19912606 -1.8111948 4288085770
4.724205 -0.2659505 -1.8154036 4288085770
10.697845 -0.51216614 -1.8265163 4288085770
8.828476 -0.45364738 -1.8113397 4288085770
14.917221 -0.71522218 -1.8237487 4288085770
3.0870056 -0.21522453 -1.8130041 4288085770
9.9230042 -0.51556265 -1.8253573 4288085770
4.4545059 -0.28249526 -1.8156135 4288085770
9.2211456 -0.51754934 -1.824846 4288085770
8.307869 -0.47963727 -1.8137232 4288085770
13.78051 -0.73365796 -1.8202707 4288085770
2.9123001 -0.23023462 -1.8137528 4288085770
4.2088165 -0.29991114 -1.8166963 4288085770
8.596283 -0.5181042 -1.8249625 4288085770
2.7516403 -0.24619809 -1.8184236 4288085770
12.800858 -0.75323874 -1.8209995 4288085770
7.8082275 -0.50246519 -1.8110285 4288085770
14.734543 -0.85141188 -1.8375227 4288085770
8.0134048 -0.51741892 -1.8248798 4288085770
3.9711227 -0.31526512 -1.8157567 4288085770
3.6648407 -2.3613894 -1.8442304 4288085770
12.176918 -5.1197152 -1.8866682 4288085770
1.929985 -1.8067005 -1.8640933 4288085770
5.682518 -3.0228257 -1.8574787 4288085770
6.1887512 -3.2230761 -1.8450288 4288085770
3.9487686 -2.4898565 -1.8371773 4288085770
3.4810028 -2.3374059 -1.8481274 4288085770
5.3734741 -2.9654732 -1.8571113 4288085770
12.116821 -5.2229233 -1.8671523 4288085770
1.8725281 -1.83201 -1.8611333 4288085770
3.2821045 -2.3074675 -1.847127 4288085770
5.0804291 -2.9110353 -1.8566597 4288085770
6.1274872 -3.280427 -1.8448513 4288085770
3.9114838 -2.5390944 -1.8389642 4288085770
3.0952225 -2.2794714 -1.847065 4288085770
4.7903595 -2.8535666 -1.8542182 4288085770
1.8321075 -1.8612638 -1.8630781 4288085770
11.762032 -5.2244477 -1.8135352 4288085770
4.5213165 -2.7999935 -1.852666 4288085770
2.9213638 -2.2534277 -1.8499377 4288085770
6.0852737 -3.3446903 -1.8465489 4288085770
3.8701477 -2.5853319 -1.8377892 4288085770
1.7896652 -1.8885138 -1.8630452 4288085770
4.2602539 -2.7463701 -1.8500825 4288085770
11.45134 -5.2377653 -1.7636591 4293729569
2.7404556 -2.223386 -1.8478673 4288085770
4.0121841 -2.6936769 -1.8474412 4288085770
6.03302 -3.4039862 -1.8453221 4288085770
3.829834 -2.632565 -1.8366029 4288085770
2.58358 -2.1982508 -1.8506666 4288085770
1.7582626 -1.9207268 -1.8659332 4288085770
11.233826 -5.2796574 -1.7232088 4293729569
3.790184 -2.6488669 -1.84764 4288085770
2.421669 -2.1701136 -1.8495077 4288085770
5.9988022 -3.4692066 -1.8469816 4288085770
3.5741425 -2.6020164 -1.8468305 4288085770
3.8095779 -2.6867197 -1.8392876 4288085770
2.2768097 -2.1469147 -1.8522456 4288085770
1.6987534 -1.9410179 -1.8590181 4288085770
11.145592 -5.3639598 -1.6959419 4293729569
3.369133 -2.5581079 -1.8459557 4288085770
2.1279068 -2.1197152 -1.8520287 4288085770
5.990654 -3.5443096 -1.8514669 4288085770
3.776268 -2.7359149 -1.8380597 4288085770
3.1731186 -2.5151582 -1.8460391 4288085770
1.6482773 -1.9652758 -1.8540387 4288085770
1.9860001 -2.0934854 -1.8527771 4288085770
11.094421 -5.4600778 -1.6704434 4293729569
2.9700317 -2.4662025 -1.8401936 4288085770
1.8611374 -2.0721858 -1.8564228 4288085770
2.7900085 -2.4241595 -1.8392072 4288085770
5.94841 -3.6065452 -1.8491799 4288085770
3.7650299 -2.7930281 -1.8416877 4288085770
1.6208496 -1.9954598 -1.855926 4288085770
11.005173 -5.5423713 -1.6411957 4293729569
1.7472687 -2.0528338 -1.861011 4288085770
2.6240082 -2.3860559 -1.840137 4288085770
1.6263657 -2.0295053 -1.863656 4288085770
2.4650116 -2.3499081 -1.8400251 4288085770
5.9382553 -3.6806519 -1.8526806 4288085770
3.7256927 -2.8392413 -1.8385054 4288085770
1.5843887 -2.0226636 -1.8538704 4288085770
10.833664 -5.5890236 -1.6015307 4293729569
2.3129959 -2.3127291 -1.8408931 4288085770
1.5064545 -2.0051498 -1.8633043 4288085770
2.1800308 -2.2824697 -1.8446361 4288085770
1.3935394 -1.9817708 -1.864918 4288085770
5.911026 -3.7478068 -1.8502989 4288085770
3.7104263 -2.8943548 -1.839164 4288085770
1.5649948 -2.0568192 -1.8576971 4288085770
2.0510483 -2.2511883 -1.8483708 4288085770
10.601021 -5.6119514 -1.5552818 4293729569
1.2836533 -1.9603803 -1.8675086 4288085770
1.9230576 -2.2198846 -1.8501054 4288085770
1.1927719 -1.9429114 -1.8729942 4288085770
10.539314 -5.6593347 -0.99516636 4293729569
5.9038467 -3.8218801 -1.851795 4288085770
1.8030777 -2.1905482 -1.8527917 4288085770
1.5225143 -2.0810308 -1.8526919 4288085770
3.6981659 -2.9514489 -1.8398024 4288085770
10.331215 -5.6130371 -1.5033414 4293729569
1.1089096 -1.9274259 -1.8814375 4288085770
1.6810608 -2.1582074 -1.8535075 4288085770
10.419121 -5.6912484 -0.32439053 4293729569
1.5660553 -2.1278362 -1.8551816 4288085770
10.300804 -5.6600718 -0.77609903 4293729569
10.40612 -5.7073708 -1.03835 4293729569
1.4940567 -2.1101983 -1.8515933 4288085770
5.8846436 -3.891999 -1.8503655 4288085770
1.4419937 -2.0924776 -1.851927 4288085770
3.6798553 -3.0035634 -1.8384987 4288085770
10.217819 -5.6764107 -1.4673336 4293729569
1.3450241 -2.0670311 -1.8564943 4288085770
10.38414 -5.7768106 -0.37391514 4293729569
1.2550583 -2.0435541 -1.8620197 4288085770
10.380203 -5.7998991 -1.0897887 4293729569
10.238525 -5.7412157 -0.74576104 4293729569
1.4685974 -2.1393495 -1.8504832 4288085770
5.8965149 -3.9739883 -1.8537278 4288085770
1.1540222 -2.0140924 -1.8616318 4288085770
3.6695786 -3.0596426 -1.838135 4288085770
10.180595 -5.7674274 -1.4378254 4293729569
1.0780487 -1.9935539 -1.8690805 4288085770
10.36721 -5.8692904 -0.42531872 4293729569
10.388351 -5.9042802 -1.1460074 4293729569
10.213318 -5.8391614 -0.71515542 4293729569
1.4411316 -2.1675043 -1.8483881 4288085770
5.8893356 -4.0490437 -1.8522158 4288085770
3.6653214 -3.1186965 -1.838726 4288085770
10.216545 -5.889102 -1.4148068 4293729569
1.4206772 -2.1976359 -1.8482512 4288085770
5.9011841 -4.1310172 -1.8535787 4288085770
3.6720963 -3.1827061 -1.8412379 4288085770
1.3871765 -2.2228014 -1.8432016 4288085770
5.9140244 -4.2129722 -1.8529379 4288085770
3.6728363 -3.242733 -1.8418025 4288085770
1.3657074 -2.2519236 -1.8410763 4288085770
5.9238586 -4.2939363 -1.8513166 4288085770
3.6725693 -3.302758 -1.8413713 4288085770
1.3492432 -2.2830193 -1.8389168 4288085770
5.9527588 -4.3848257 -1.8535485 4288085770
3.6883621 -3.3707187 -1.8438195 4288085770
1.3307648 -2.3121319 -1.8377799 4288085770
5.9786301 -4.4727111 -1.8528142 4288085770
3.7011032 -3.4356809 -1.8443017 4288085770
1.3122711 -2.3412306 -1.834643 4288085770
6.011528 -4.5655646 -1.8530165 4288085770
3.7148666 -3.5026376 -1.8447655 4288085770
1.3148575 -2.3792593 -1.8373587 4288085770
10.713348 -6.8514338 -1.6649326 4293729569
6.080513 -4.674262 -1.8579623 4288085770
3.7236023 -3.5666065 -1.8432709 4288085770
1.3123932 -2.4143064 -1.8391161 4288085770
10.063492 -6.6358399 -1.6580609 4293729569
6.1745911 -4.7968531 -1.8667092 4288085770
1.3059158 -2.4473541 -1.8379035 4288085770
3.7534027 -3.6404986 -1.8466218 4288085770
9.7215271 -6.5618372 -1.6819513 4293729569
6.253624 -4.9125028 -1.8725656 4288085770
1.3124771 -2.4863603 -1.8405967 4288085770
3.7731705 -3.7104158 -1.846041 4288085770
9.3905487 -6.4877753 -1.7057987 4293729569
1.3019638 -2.5164149 -1.8374219 4288085770
6.2644043 -4.9944172 -1.864935 4288085770
9.0013351 -6.3789458 -1.7191266 4293729569
3.7929077 -3.7783253 -1.844475 4288085770
1.3084869 -2.553406 -1.8381299 4288085770
6.1678085 -5.0217485 -1.836122 4288085770
8.5920105 -6.2541885 -1.7276486 4293729569
3.8256912 -3.8531859 -1.8458077 4288085770
1.3180313 -2.5923951 -1.8408115 4288085770
8.2077103 -6.1352911 -1.7350289 4293729569
6.0170059 -5.0192981 -1.7977375 4288085770
3.8634872 -3.9320199 -1.8470918 4288085770
1.3175278 -2.6264024 -1.8385689 4288085770
7.9327469 -6.0689154 -1.7565986 4293729569
5.9454575 -5.0555239 -1.7727616 4293729569
3.8972626 -4.0088611 -1.8464067 4288085770
1.3210068 -2.660394 -1.8373108 4288085770
7.6095886 -5.9727335 -1.7695735 4293729569
5.9311066 -5.1205082 -1.7563527 4293729569
1.3395386 -2.7023339 -1.8399359 4288085770
3.94207 -4.0906572 -1.8476422 4288085770
7.2873764 -5.8715172 -1.7785805 4288085770
5.9588852 -5.2073231 -1.7476201 4293729569
1.347023 -2.7383039 -1.8386478 4288085770
6.8948593 -5.7265773 -1.7741798 4288085770
3.9858704 -4.1724515 -1.8478819 4288085770
1.3665466 -2.7802305 -1.8402692 4288085770
6.0699387 -5.337779 -1.7502446 4293729569
6.4902649 -5.5706658 -1.7649056 4293729569
4.0376892 -4.2582088 -1.8490616 4288085770
1.3800201 -2.8181746 -1.8399433 4288085770
5.934082 -5.326344 -1.7258664 4293729569
6.2763367 -5.5218453 -1.7691067 4293729569
4.0914993 -4.3449554 -1.8502265 4288085770
1.4035263 -2.861079 -1.8415422 4288085770
5.5444183 -5.1653032 -1.709569 4293729569
6.4185028 -5.6721563 -1.7744657 4288085770
1.423996 -2.901978 -1.8401675 4288085770
4.1292343 -4.4227529 -1.8465192 4288085770
5.3343735 -5.0995154 -1.7218763 4293729569
6.5255127 -5.8026032 -1.7731068 4288085770
1.4424515 -2.940887 -1.838815 4288085770
5.1955795 -5.0714402 -1.7466305 4293729569
4.1860428 -4.511476 -1.8466583 4288085770
8.1898422 -6.784646 -1.7464558 4293729569
1.4739609 -2.9867544 -1.841361 4288085770
6.6134567 -5.9241242 -1.7678877 4293729569
5.0396881 -5.0304122 -1.7655454 4293729569
7.715889 -6.5701156 -1.7398775 4293729569
4.2900085 -4.6260099 -1.8554254 4288085770
1.4973907 -3.026629 -1.8389821 4288085770
4.9038391 -4.9983053 -1.7883167 4288085770
7.3041 -6.3852882 -1.7378392 4293729569
6.6762848 -6.0287361 -1.7568895 4293729569
1.5328674 -3.0724735 -1.8415126 4288085770
0.5568924 -2.5096514 -1.8454236 4288085770
4.3909607 -4.7405467 -1.8622047 4288085770
6.9334106 -6.2192698 -1.739503 4293729569
4.7890549 -4.9760938 -1.8119336 4288085770
6.7662125 -6.1512246 -1.7486558 4293729569
1.5733566 -3.121284 -1.8430022 4288085770
6.6480103 -6.098866 -1.7505012 4293729569
0.57534027 -2.5445819 -1.8470997 4288085770
4.705368 -4.9697714 -1.8433131 4288085770
4.4989395 -4.8590589 -1.8709277 4288085770
1.6068039 -3.1661177 -1.842548 4288085770
6.3786163 -5.9823699 -1.7604076 4293729569
6.8761978 -6.2846198 -1.7422646 4293729569
0.58873749 -2.5755169 -1.8458247 4288085770
4.5674591 -4.9306464 -1.8621428 4288085770
1.6482544 -3.2139153 -1.8430408 4288085770
5.9756699 -5.7834024 -1.7454346 4293729569
4.5416489 -4.9397984 -1.8631805 4288085770
0.6031189 -2.6064396 -1.8435456 4288085770
4.3521881 -4.8407927 -1.8616426 4288085770
7.049408 -6.4557405 -1.7443522 4293729569
1.7007217 -3.2666738 -1.8464546 4288085770
5.3277054 -5.4333878 -1.6825154 4293729569
4.1198196 -4.738987 -1.8552958 4288085770
0.63156891 -2.6453288 -1.847154 4288085770
4.4909363 -4.9628811 -1.8342166 4288085770
1.7461624 -3.3154488 -1.8469247 4288085770
4.9888992 -5.2630916 -1.669082 4293729569
7.2617645 -6.6506939 -1.7521143 4293729569
4.8277588 -5.1960654 -1.6852037 4293729569
1.7915802 -3.3632159 -1.8464022 4288085770
3.9075012 -4.6450953 -1.8518126 4288085770
0.65396881 -2.6802218 -1.846815 4288085770
4.3860168 -4.9521751 -1.79471 4288085770
4.6806412 -5.1349711 -1.702227 4293729569
1.8419952 -3.412956 -1.8458457 4288085770
7.5082321 -6.8674726 -1.7605842 4293729569
3.7102051 -4.5571227 -1.8482273 4288085770
0.68037415 -2.7171001 -1.847446 4288085770
4.5455399 -5.0778189 -1.7201744 4293729569
1.899437 -3.4666648 -1.846233 4288085770
3.5189056 -4.470118 -1.8446112 4288085770
4.3714218 -4.993114 -1.7724754 4293729569
4.4345169 -5.0335593 -1.7409338 4293729569
1.9598618 -3.5203643 -1.8476086 4288085770
0.70474243 -2.7509742 -1.8461064 4288085770
4.3696442 -5.0151091 -1.7693253 4293729569
2.0142365 -3.5700674 -1.8450365 4288085770
3.3556747 -4.3969917 -1.844784 4288085770
0.7341156 -2.7878351 -1.8467257 4288085770
4.2555771 -4.9658518 -1.7881324 4288085770
2.0776291 -3.6237357 -1.8444004 4288085770
4.3558044 -5.0330577 -1.7502517 4293729569
3.1964493 -4.3248425 -1.8449339 4288085770
4.1956787 -4.9463668 -1.8155113 4288085770
2.1430206 -3.6773925 -1.8437566 4288085770
0.75745392 -2.8197062 -1.8444046 4288085770
4.163887 -4.9437737 -1.8486577 4288085770
2.2214279 -3.7379863 -1.8440113 4288085770
3.0391922 -4.2506685 -1.8430903 4288085770
4.0607681 -4.8934412 -1.8654289 4288085770
4.3160858 -5.0560803 -1.7212449 4293729569
2.2968292 -3.7965963 -1.844292 4288085770
0.79180908 -2.8575389 -1.8449972 4288085770
3.8692322 -4.7854166 -1.8599637 4288085770
2.3852463 -3.8611495 -1.8464787 4288085770
2.9040222 -4.1884122 -1.8460737 4288085770
3.6696472 -4.6714072 -1.8505731 4288085770
2.4696274 -3.9217031 -1.8457099 4288085770
3.5021515 -4.5742617 -1.8459342 4288085770
0.82315063 -2.8933671 -1.842616 4288085770
2.5519714 -3.980252 -1.8429635 4288085770
3.3517075 -4.4860377 -1.843164 4288085770
2.6493683 -4.0467424 -1.8431004 4288085770
3.217308 -4.4057417 -1.842273 4288085770
2.753746 -4.114193 -1.8432027 4288085770
2.7567902 -4.1181917 -1.8451622 4288085770
3.0939331 -4.3314013 -1.8432957 4288085770
2.8631592 -4.186625 -1.8442494 4288085770
4.2773285 -5.0771041 -1.6932486 4293729569
2.9735336 -4.2570367 -1.8433065 4288085770
0.86449432 -2.9331679 -1.8441669 4288085770
2.6345749 -4.0578427 -1.8450803 4288085770
0.90885925 -2.9749527 -1.8456914 4288085770
2.5133743 -3.9975026 -1.8469942 4288085770
4.2937851 -5.1319032 -1.6747916 4293729569
0.95017242 -3.0137389 -1.8452498 4288085770
2.3961716 -3.938134 -1.8478855 4288085770
0.9884491 -3.0485263 -1.8428485 4288085770
2.2829514 -3.8797367 -1.8477538 4288085770
4.3032074 -5.181726 -1.654398 4293729569
1.0397797 -3.092272 -1.8443316 4288085770
2.1767349 -3.8233078 -1.84858 4288085770
1.1051559 -3.1429701 -1.8497092 4288085770
2.0714951 -3.765866 -1.8484095 4288085770
1.1463852 -3.1777263 -1.8452963 4288085770
1.967247 -3.7074049 -1.8462424 4288085770
1.2097168 -3.2254128 -1.8477033 4288085770
1.8850708 -3.6618676 -1.8498952 4288085770
4.2915115 -5.215631 -1.6302022 4293729569
1.2719955 -3.2700903 -1.8481362 4288085770
1.7918167 -3.6073532 -1.8486562 4288085770
1.3312531 -3.3127694 -1.8465952 4288085770
1.7146149 -3.5617814 -1.8512894 4288085770
1.4005432 -3.360415 -1.8479788 4288085770
1.6343689 -3.5122101 -1.8519632 4288085770
1.4677734 -3.4050498 -1.8463922 4288085770
1.5370255 -3.4506807 -1.8457904 4288085770
4.2817841 -5.2485123 -1.6040057 4293729569
4.3001938 -5.2992849 -1.5835698 4293729569
4.3064957 -5.3391004 -1.5602601 4293729569
4.2806625 -5.357038 -1.5302346 4293729569
4.2768936 -5.3878779 -1.503029 4293729569
4.3132706 -5.443553 -1.4824865 4293729569
4.2250824 -5.4127288 -1.4400573 4293729569
4.2310562 -5.441658 -0.86480832 4293729569
4.1921158 -5.4176812 -1.4071528 4293729569
4.2001343 -5.4341526 -0.6269775 4293729569
4.2341614 -5.4634433 -0.83563989 4293729569
4.1621399 -5.4216089 -1.3732433 4293729569
4.2015381 -5.4593983 -0.66179335 4293729569
4.1880569 -5.4514489 -0.80090845 4293729569
4.1462021 -5.4344831 -1.3422146 4293729569
4.1710281 -5.4553127 -0.76794791 4293729569
4.17379 -5.4617853 -0.69488841 4293729569
4.1449432 -5.4512239 -0.73508036 4293729569
4.125206 -5.4403758 -1.3102554 4293729569
4.1299744 -5.4522376 -0.7251327 4293729569
4.131897 -5.454072 -0.70311123 4293729569
4.1888199 -5.4944959 -0.37958515 4293729569
4.1011963 -5.4432712 -1.2763299 4293729569
4.1258545 -5.4598823 -0.67109299 4293729569
4.1719894 -5.4928141 -0.4116655 4293729569
4.1112213 -5.4565678 -0.75717801 4293729569
4.1097412 -5.4567318 -0.63717878 4293729569
4.1400833 -5.4782114 -0.44389814 4293729569
4.1257248 -5.4724369 -0.60700202 4293729569
4.1262131 -5.4735122 -0.47598815 4293729569
4.100235 -5.4590702 -1.2462202 4293729569
4.1175995 -5.4702487 -0.57404906 4293729569
4.130394 -5.4797301 -0.50992829 4293729569
4.1265182 -5.4779763 -0.54195732 4293729569
4.0914307 -5.4579034 -0.7892487 4293729569
4.0862122 -5.4639173 -1.2132407 4293729569
4.0856934 -5.4681778 -0.82319969 4293729569
4.086235 -5.4767103 -1.1831489 4293729569
4.0749054 -5.4724641 -0.85521346 4293729569
4.0681229 -5.4735699 -1.1492424 4293729569
4.0681152 -5.4767418 -0.8892113 4293729569
4.0630493 -5.4773746 -1.1172347 4293729569
