# .PCD v0.7 - Point Cloud Data file format
VERSION 0.7
FIELDS x y z rgb
SIZE 4 4 4 4
TYPE F F F U
COUNT 1 1 1 1
WIDTH 1101
HEIGHT 1
VIEWPOINT 0 0 0 1 0 0 0
POINTS 1101
DATA ascii
9.3582306 0.76776212 -1.8470552 4288085770
-1.8117218 0.4086318 -1.8011944 4288085770
4.8495789 0.61089069 -1.8173039 4288085770
10.485497 0.76650459 -1.8492198 4288085770
5.5199051 0.60500902 -1.8256109 4288085770
-1.6763611 0.39625353 -1.804172 4288085770
11.837761 0.76897019 -1.8548477 4282675967
6.2301865 0.59963924 -1.8306434 4288085770
-1.5299835 0.38400251 -1.8080745 4288085770
7.0965118 0.59711117 -1.8446121 4288085770
8.0768509 0.59495908 -1.8607917 4288085770
-2.1725922 0.35713696 -1.809356 4288085770
-1.395668 0.37164086 -1.8070593 4288085770
9.0881042 0.59325927 -1.8667591 4282675967
-2.0582809 0.34652293 -1.8094919 4288085770
10.170319 0.59147221 -1.8662329 4282675967
-1.2543411 0.35837203 -1.8049891 4288085770
11.553581 0.59427625 -1.8776476 4282675967
12.690285 0.61039454 -1.8448617 4288085770
9.7788162 0.55174798 -1.8566837 4288085770
10.940613 0.57299477 -1.8487594 4288085770
8.7019653 0.53060013 -1.8560185 4288085770
12.346504 0.59614724 -1.8511534 4282675967
11.344666 0.5758974 -1.8529735 4288085770
7.6800919 0.50917631 -1.8479698 4288085770
-1.9419861 0.33495492 -1.8066072 4288085770
6.6921539 0.48625463 -1.8276742 4288085770
12.95874 0.59547108 -1.8718987 4282675967
10.076004 0.54139477 -1.8535504 4288085770
5.8832855 0.46643454 -1.8191569 4288085770
-1.1080322 0.34616488 -1.802892 4288085770
9.0003357 0.51123625 -1.8558166 4288085770
5.165451 0.44671601 -1.8120084 4288085770
4.5206146 0.42788512 -1.8053589 4288085770
7.99263 0.48095429 -1.8516099 4288085770
-1.8217163 0.32442933 -1.8047016 4288085770
3.9618149 0.41006577 -1.8041193 4288085770
6.9287643 0.45114279 -1.8257952 4288085770
-0.92267609 0.33437163 -1.8095264 4288085770
3.4900513 0.39327693 -1.8072824 4288085770
6.1270523 0.42438602 -1.8201818 4288085770
-1.6924515 0.31400692 -1.8037343 4288085770
3.0422745 0.37679672 -1.8082807 4288085770
5.3983078 0.39953852 -1.8120747 4288085770
-0.75136566 0.32145703 -1.8092504 4288085770
2.6205063 0.36063504 -1.8091009 4288085770
4.7565613 0.37672925 -1.8073773 4288085770
-1.5401764 0.30483115 -1.807616 4288085770
2.2527695 0.34411359 -1.8125436 4288085770
-0.55204773 0.30985045 -1.8137891 4288085770
4.169838 0.35359371 -1.8022957 4288085770
1.8870163 0.32765222 -1.8109727 4288085770
-1.3878784 0.29366964 -1.809484 4288085770
3.708168 0.3329125 -1.8073626 4288085770
-0.36273956 0.29715663 -1.8133893 4288085770
1.5562897 0.31060547 -1.8111548 4288085770
-1.2276077 0.28360653 -1.8113039 4288085770
3.2314758 0.31110388 -1.8045259 4288085770
-0.1584549 0.28563297 -1.814894 4288085770
1.2405319 0.29475689 -1.8092411 4288085770
-1.0733719 0.27349836 -1.8091652 4288085770
2.8228378 0.29007167 -1.8092222 4288085770
0.95880127 0.27930349 -1.8100934 4288085770
0.03981781 0.27307153 -1.8114328 4288085770
-0.89512634 0.26366353 -1.8098617 4288085770
2.4441605 0.27043593 -1.80972 4288085770
0.68709564 0.26297945 -1.8098707 4288085770
0.2831192 0.26101196 -1.8146627 4288085770
-0.69983673 0.25300854 -1.8144345 4288085770
2.0884857 0.25107461 -1.81106 4288085770
0.54743195 0.2482028 -1.8187418 4288085770
0.4233551 0.24776083 -1.8085999 4288085770
-0.50060272 0.24342418 -1.8159871 4288085770
0.80569458 0.23636234 -1.8178713 4288085770
-0.30437469 0.23383117 -1.8145626 4288085770
1.7638321 0.23209977 -1.8121893 4288085770
0.19667053 0.23198014 -1.8100708 4288085770
1.1100006 0.22402966 -1.8236756 4288085770
-0.086166382 0.2244873 -1.8149846 4288085770
12.754868 0.1948474 -1.8726199 4288085770
12.703156 0.18605179 -1.8949208 4282675967
1.462204 0.21238571 -1.8151512 4288085770
-0.023017883 0.21628582 -1.8104906 4288085770
1.3932419 0.21150386 -1.8206244 4288085770
0.15206146 0.21537447 -1.8172691 4288085770
11.223236 0.16902566 -1.888082 4282675967
0.42230988 0.20661849 -1.8243339 4288085770
1.7124939 0.20039111 -1.8213327 4288085770
11.319305 0.15634418 -1.8673282 4288085770
9.9663162 0.15669793 -1.8847268 4282675967
0.66947937 0.19765228 -1.821557 4288085770
-0.24273682 0.20160621 -1.8089178 4288085770
1.1715469 0.19382805 -1.8150446 4288085770
2.0567551 0.18759215 -1.8208561 4288085770
8.8263016 0.14783376 -1.8765826 4288085770
0.9376297 0.18993652 -1.819643 4288085770
7.7912369 0.14227146 -1.865732 4288085770
2.4159851 0.17598444 -1.8192832 4288085770
1.2408295 0.18162125 -1.8214817 4288085770
10.141785 0.12093914 -1.869266 4288085770
6.7860641 0.14014143 -1.8456967 4288085770
1.5629883 0.1745466 -1.822197 4288085770
2.7961731 0.16564196 -1.8165734 4288085770
5.9719849 0.13826758 -1.8363366 4288085770
-0.436409 0.18622327 -1.8101592 4288085770
0.90089417 0.17550778 -1.8158009 4288085770
1.8961258 0.16762125 -1.820837 4288085770
5.2498779 0.13850778 -1.8283522 4288085770
3.2203979 0.15383154 -1.8145478 4288085770
2.265274 0.16111594 -1.8222296 4288085770
4.5967636 0.14057964 -1.8219013 4288085770
2.6423798 0.15573049 -1.8205748 4288085770
3.9916306 0.1432476 -1.814121 4288085770
3.0464706 0.15069038 -1.8167346 4288085770
3.5235825 0.14649564 -1.8193932 4288085770
3.7176514 0.14287388 -1.8180213 4288085770
9.025177 0.088346779 -1.8617995 4288085770
4.1968231 0.13275224 -1.8136253 4288085770
11.673019 0.05648452 -1.8871987 4282675967
4.8101044 0.12118143 -1.8212888 4288085770
10.331787 0.063156962 -1.8805571 4288085770
5.4963837 0.11049831 -1.8294516 4288085770
0.62719727 0.15818691 -1.8115847 4288085770
9.1675568 0.07097137 -1.8766942 4288085770
-0.62809753 0.17088634 -1.8083873 4288085770
6.234642 0.10045296 -1.8372576 4288085770
7.1069565 0.090000808 -1.8511305 4288085770
8.1173172 0.079205096 -1.8690424 4288085770
8.0335617 0.057286561 -1.8534753 4288085770
-0.82278442 0.1555261 -1.8046358 4288085770
0.36753082 0.14004415 -1.8062656 4288085770
7.0788269 0.030751288 -1.8349252 4288085770
-0.98344421 0.14054734 -1.8056509 4288085770
0.15391541 0.12240815 -1.8086305 4288085770
6.2631531 0.0048699975 -1.8224142 4288085770
-1.1300888 0.12572563 -1.8085699 4288085770
-0.052742004 0.10587275 -1.8089542 4288085770
12.167046 -0.14640331 -1.8663964 4288085770
5.5925446 -0.020298004 -1.8179009 4288085770
-1.2987671 0.11069107 -1.8036399 4288085770
-0.25435638 0.088404775 -1.8082371 4288085770
10.865379 -0.17326456 -1.8602536 4288085770
4.9539108 -0.04505223 -1.8101683 4288085770
-1.4374008 0.095974445 -1.8055038 4288085770
-0.44396973 0.071076632 -1.8084373 4288085770
9.7087326 -0.1993416 -1.8521092 4288085770
4.3832855 -0.067987055 -1.8039758 4288085770
12.15036 -0.2917307 -1.8765304 4288085770
-1.5960999 0.082076609 -1.7985125 4288085770
12.552498 -0.30672401 -1.8626359 4288085770
-0.6266098 0.05484885 -1.8065963 4288085770
8.6720428 -0.22295398 -1.8441479 4288085770
3.9127502 -0.091753632 -1.8050833 4288085770
10.910698 -0.31486082 -1.8739824 4288085770
-1.7157211 0.067585289 -1.8012459 4288085770
-0.8052597 0.038684189 -1.8027282 4288085770
11.456345 -0.36014694 -1.8648865 4288085770
7.8114548 -0.24745938 -1.8419588 4288085770
3.4852066 -0.11500713 -1.8078954 4288085770
9.697876 -0.33058831 -1.8612978 4288085770
-1.8262939 0.052189589 -1.8059108 4288085770
-0.97689819 0.022605062 -1.7988119 4288085770
6.9547424 -0.26784411 -1.8297696 4288085770
3.0776672 -0.13799453 -1.8075705 4288085770
10.342949 -0.40367058 -1.8523233 4288085770
8.647049 -0.34335798 -1.8515081 4288085770
-1.9418945 0.036760986 -1.8066101 4288085770
-1.1194687 0.0058383346 -1.8006895 4288085770
6.2491379 -0.29044193 -1.8255167 4288085770
7.7602768 -0.35518792 -1.8505862 4288085770
2.7041168 -0.15957189 -1.8080189 4288085770
9.3756104 -0.44643322 -1.842751 4288085770
-1.2480469 -0.010771006 -1.8044708 4288085770
-2.0565033 0.022351801 -1.8063092 4288085770
6.9113617 -0.36048788 -1.840445 4288085770
5.5985184 -0.31135863 -1.8198934 4288085770
2.3796158 -0.18257052 -1.8111176 4288085770
-1.3876419 -0.026479989 -1.8033347 4288085770
6.1394501 -0.36486471 -1.8327756 4288085770
8.559288 -0.48739442 -1.8391426 4288085770
5.003891 -0.33158898 -1.8138857 4288085770
2.058075 -0.20351797 -1.8122091 4288085770
5.4615402 -0.36711037 -1.8274679 4288085770
-1.5112076 -0.04301405 -1.8050818 4288085770
12.286118 -0.72825325 -1.8806338 4288085770
4.8336029 -0.36774948 -1.8228242 4288085770
4.4873352 -0.35289893 -1.8123288 4288085770
7.8660431 -0.52889091 -1.8406758 4288085770
1.7645721 -0.22512969 -1.8141017 4288085770
10.85273 -0.70365489 -1.8667533 4288085770
-1.6368027 -0.058551461 -1.8038495 4288085770
4.2446365 -0.36590362 -1.8169267 4288085770
4.0237579 -0.37355903 -1.8104086 4288085770
9.5983658 -0.67887568 -1.8536313 4288085770
3.7617569 -0.36682224 -1.8192739 4288085770
1.4980698 -0.24641764 -1.8168092 4288085770
7.200676 -0.56499368 -1.835052 4288085770
-1.7633972 -0.074087083 -1.8006241 4288085770
8.5601273 -0.65851974 -1.8489788 4288085770
3.2998123 -0.3644616 -1.8184979 4288085770
3.6032333 -0.39471364 -1.8111858 4288085770
7.6789856 -0.6422888 -1.8502078 4288085770
2.8488083 -0.35994452 -1.8146605 4288085770
1.226532 -0.26673138 -1.8145578 4288085770
6.5883026 -0.59945434 -1.830071 4288085770
-1.8699417 -0.090413481 -1.8022544 4288085770
6.8006821 -0.61994231 -1.8404579 4288085770
2.4769211 -0.35853049 -1.8202531 4288085770
3.2147064 -0.41546893 -1.8107438 4288085770
12.284081 -0.98438323 -1.8829126 4288085770
6.0324326 -0.59927541 -1.8339326 4288085770
2.1119537 -0.35399443 -1.8208187 4288085770
0.97800446 -0.28677756 -1.8141482 4288085770
-1.9704742 -0.10667339 -1.8048434 4288085770
1.7880249 -0.34999099 -1.8260958 4288085770
5.3662567 -0.58140105 -1.8326797 4288085770
6.0329666 -0.63422346 -1.8256917 4288085770
2.8561783 -0.43585664 -1.8100958 4288085770
1.4570236 -0.34403071 -1.8254349 4288085770
4.711998 -0.56132185 -1.8233588 4288085770
11.209549 -1.0084937 -1.8792105 4288085770
0.7434845 -0.30664498 -1.8126428 4288085770
1.1429672 -0.33584708 -1.8226714 4288085770
4.1397858 -0.5422802 -1.8194616 4288085770
-2.0700455 -0.12190688 -1.8054326 4288085770
0.85594177 -0.32835382 -1.8227155 4288085770
3.6556473 -0.52620208 -1.8209326 4288085770
5.5596924 -0.67003024 -1.8267362 4288085770
2.5467072 -0.45767933 -1.8140976 4288085770
0.56083679 -0.31891575 -1.8168287 4288085770
3.1724396 -0.50807589 -1.8174109 4288085770
12.091576 -1.147743 -1.8761411 4288085770
0.29876709 -0.31010133 -1.8147085 4288085770
10.026566 -1.0107555 -1.8524084 4288085770
0.50793457 -0.32550359 -1.8081512 4288085770
2.7452698 -0.49128446 -1.8164914 4288085770
0.075759888 -0.30285186 -1.8183067 4288085770
2.3721619 -0.47686699 -1.8201802 4288085770
-0.1783905 -0.2918959 -1.8101456 4288085770
2.2602386 -0.47922742 -1.8189416 4288085770
2.0350723 -0.46302143 -1.8256154 4288085770
-0.38043976 -0.28338104 -1.8126066 4288085770
12.345917 -1.2406137 -1.8687446 4288085770
5.0923157 -0.7017203 -1.8217669 4288085770
-0.58052826 -0.27382731 -1.813061 4288085770
1.7209549 -0.44888735 -1.8298926 4288085770
0.30441284 -0.3439984 -1.8074398 4288085770
10.933777 -1.1597348 -1.8540983 4288085770
9.087822 -1.021162 -1.8428562 4288085770
-2.1250458 -0.16062981 -1.8085539 4288085770
-0.76758575 -0.26512122 -1.8144193 4288085770
1.3867645 -0.4319478 -1.8273284 4288085770
-0.96272278 -0.25447714 -1.8108463 4288085770
-2.0028152 -0.17414966 -1.8096137 4288085770
1.0625229 -0.41386411 -1.8217025 4288085770
-1.1318207 -0.24454987 -1.8120883 4288085770
-1.8946304 -0.18679884 -1.8047767 4288085770
-1.3029556 -0.2336255 -1.8103507 4288085770
0.7592926 -0.39652982 -1.8169255 4288085770
-1.4650803 -0.22359079 -1.8085446 4288085770
-1.6142273 -0.21240345 -1.807656 4288085770
-1.7603989 -0.20116439 -1.8047471 4288085770
-2.0055923 -0.18221804 -1.8135788 4288085770
-2.1377487 -0.17181465 -1.8115671 4288085770
0.49710846 -0.38072836 -1.8168535 4288085770
-1.7483215 -0.20306766 -1.8116508 4288085770
-1.8844528 -0.19272795 -1.8116663 4288085770
1.9887695 -0.50057769 -1.8216825 4288085770
-1.6091309 -0.21636432 -1.8105941 4288085770
0.24290466 -0.36481446 -1.8147268 4288085770
-1.4699402 -0.22965401 -1.8085375 4288085770
-0.0043029785 -0.34880775 -1.8115518 4288085770
-1.3177032 -0.24480578 -1.8093777 4288085770
-0.21749115 -0.3334192 -1.8131368 4288085770
-1.1605072 -0.25888887 -1.8091905 4288085770
-0.43169403 -0.31801444 -1.8107285 4288085770
-0.98828888 -0.27379495 -1.8098934 4288085770
-0.6248703 -0.30337381 -1.8111694 4288085770
-0.82109833 -0.28774783 -1.8086379 4288085770
0.11792755 -0.36429924 -1.8085978 4288085770
4.6619644 -0.73297143 -1.8185432 4288085770
8.346283 -1.0372676 -1.8478963 4288085770
11.549858 -1.2992685 -1.8558736 4288085770
9.9761581 -1.1783541 -1.8416209 4288085770
1.715271 -0.52092403 -1.8204441 4288085770
-0.055541992 -0.38444805 -1.8106668 4288085770
7.6296387 -1.0480449 -1.8497996 4288085770
4.2666092 -0.76379371 -1.8150797 4288085770
9.2407837 -1.2073663 -1.8435307 4288085770
10.82682 -1.3570498 -1.8455012 4288085770
1.4918442 -0.54271442 -1.826849 4288085770
-0.24607849 -0.40175557 -1.8058729 4288085770
6.9408722 -1.0524428 -1.8465524 4288085770
3.9223175 -0.7960192 -1.8152523 4288085770
8.6225052 -1.2409798 -1.8495958 4288085770
1.2192764 -0.5600059 -1.8196244 4288085770
10.194778 -1.4137297 -1.8365045 4288085770
6.279068 -1.0535027 -1.8421407 4288085770
-0.38349152 -0.42349207 -1.8116806 4288085770
3.6310959 -0.83063114 -1.8200402 4288085770
8.0772629 -1.275713 -1.857146 4288085770
0.97973633 -0.57791376 -1.8151665 4288085770
5.7163391 -1.0573987 -1.8440216 4288085770
-0.53896332 -0.44240633 -1.8116326 4288085770
9.7339783 -1.4804137 -1.840251 4288085770
12.668114 -1.7798331 -1.8648446 4288085770
3.3468246 -0.86314243 -1.8227937 4288085770
0.76926422 -0.59750235 -1.8154957 4288085770
5.1865692 -1.0578897 -1.8456972 4288085770
7.516922 -1.3045726 -1.8568408 4288085770
11.449692 -1.7356868 -1.8616042 4288085770
-0.68843842 -0.46124026 -1.8105433 4288085770
9.258049 -1.5402384 -1.8381488 4288085770
4.6135559 -1.047807 -1.833744 4288085770
0.56277466 -0.6160208 -1.8128045 4288085770
3.0855789 -0.89637256 -1.8253825 4288085770
10.200966 -1.6767931 -1.8426738 4288085770
7.0065842 -1.3338337 -1.8581855 4288085770
-0.82591248 -0.47993419 -1.8103719 4288085770
4.1397247 -1.044597 -1.8330562 4288085770
9.2987595 -1.6448438 -1.8471551 4288085770
0.37529755 -0.63532054 -1.8119755 4288085770
8.9002991 -1.6086812 -1.8441675 4288085770
2.8523788 -0.93128097 -1.8307652 4288085770
6.5853424 -1.3670396 -1.8638847 4288085770
-0.95435333 -0.49952522 -1.8111315 4288085770
3.7199402 -1.0427535 -1.835984 4288085770
8.5006256 -1.6166413 -1.8538885 4288085770
0.20285034 -0.65544397 -1.8120368 4288085770
3.3140564 -1.0367157 -1.8358433 4288085770
8.544487 -1.673085 -1.8481998 4288085770
2.6462097 -0.96687293 -1.8379555 4288085770
7.7955551 -1.5923269 -1.8639495 4288085770
-1.0948792 -0.51622027 -1.8059943 4288085770
6.1981277 -1.4018359 -1.870337 4288085770
2.9602661 -1.0340843 -1.8413181 4288085770
0.040405273 -0.67544484 -1.8120294 4288085770
7.0873718 -1.5619988 -1.8670731 4288085770
-1.2083054 -0.5356347 -1.8076508 4288085770
2.4540329 -1.0022855 -1.8440497 4288085770
8.2016449 -1.7363153 -1.8501496 4288085770
5.8158875 -1.4345498 -1.8737683 4288085770
2.6234512 -1.0302441 -1.8466833 4288085770
6.4482117 -1.5328391 -1.8717091 4288085770
-0.1080246 -0.69528788 -1.813926 4288085770
2.3206558 -1.0270082 -1.8548081 4288085770
-1.3087082 -0.55590433 -1.8112111 4288085770
5.8490219 -1.5031743 -1.8740714 4288085770
2.286911 -1.039421 -1.8539581 4288085770
5.4535904 -1.4649971 -1.8740766 4288085770
7.896843 -1.8010864 -1.8528247 4288085770
2.0157928 -1.0207608 -1.8579679 4288085770
-0.27451324 -0.71330237 -1.8089597 4288085770
5.2858276 -1.4730611 -1.8751867 4288085770
-1.4201355 -0.57528025 -1.8108537 4288085770
1.6928253 -1.009691 -1.8552859 4288085770
2.1197662 -1.0755421 -1.8618736 4288085770
4.686409 -1.4333025 -1.8646183 4288085770
5.0902481 -1.4924349 -1.8714123 4288085770
-0.4169693 -0.73205817 -1.8088217 4288085770
7.6120377 -1.8656132 -1.8553624 4288085770
1.343689 -0.99087507 -1.8438375 4288085770
4.1350327 -1.3949627 -1.854707 4288085770
-1.5306091 -0.59262973 -1.8085034 4288085770
1.0296097 -0.97465134 -1.8351285 4288085770
1.9606171 -1.1115512 -1.867734 4288085770
4.7127838 -1.5140014 -1.8628855 4288085770
3.6978989 -1.3693187 -1.8569167 4288085770
-0.53533173 -0.75454164 -1.8114913 4288085770
7.352211 -1.928833 -1.8577352 4288085770
0.76060486 -0.96191883 -1.8320827 4288085770
3.2877274 -1.3423431 -1.858948 4288085770
-1.6280212 -0.61183459 -1.8080499 4288085770
1.796402 -1.1446066 -1.8716493 4288085770
0.49356842 -0.94715464 -1.8280375 4288085770
4.4114914 -1.5436938 -1.8617747 4288085770
-0.66475677 -0.77413833 -1.8112571 4288085770
2.9557495 -1.325483 -1.8703682 4288085770
7.0813293 -1.9881663 -1.8572106 4288085770
0.2274704 -0.93034899 -1.8199992 4288085770
2.5905991 -1.2999556 -1.8720772 4288085770
-1.7344818 -0.6291278 -1.8046718 4288085770
0.0075073242 -0.91904426 -1.8206036 4288085770
-0.7821579 -0.79459542 -1.8119335 4288085770
1.6302109 -1.1776731 -1.8735783 4288085770
4.1021118 -1.5684555 -1.8567533 4288085770
2.2815781 -1.280792 -1.8803539 4282675967
-0.21054077 -0.90469277 -1.8182154 4288085770
1.9764709 -1.2585502 -1.8846238 4282675967
-1.8148499 -0.65015292 -1.8080876 4288085770
6.8284531 -2.0482724 -1.8555558 4288085770
-0.40049744 -0.89403421 -1.8206072 4288085770
1.6662979 -1.2333405 -1.884949 4282675967
-0.89957428 -0.81404579 -1.8116169 4288085770
1.4398346 -1.2029757 -1.8677273 4288085770
3.8779755 -1.6052613 -1.8630586 4288085770
1.3008499 -1.1956831 -1.868742 4288085770
-0.59552765 -0.88040769 -1.8190541 4288085770
-1.8801575 -0.67302334 -1.8153861 4288085770
6.5835419 -2.1062722 -1.8528595 4288085770
0.9172821 -1.1531885 -1.8446937 4288085770
-0.77552795 -0.86861169 -1.8193843 4288085770
12.662994 -3.1463585 -1.8645635 4288085770
-1.0029678 -0.83433801 -1.8131969 4288085770
3.6437531 -1.638154 -1.86446 4288085770
1.2685547 -1.2320677 -1.8647182 4288085770
0.62298584 -1.123718 -1.8359373 4288085770
-0.95555115 -0.85480857 -1.8187287 4288085770
-1.9625778 -0.69104415 -1.8148365 4288085770
0.36776733 -1.0978119 -1.8328857 4288085770
-1.1165619 -0.84278619 -1.8199286 4288085770
11.836052 -3.1284435 -1.861424 4288085770
6.3677063 -2.1679316 -1.8519361 4288085770
-1.1093826 -0.8536461 -1.8118045 4288085770
0.089431763 -1.0671237 -1.8210268 4288085770
-1.2866287 -0.82784593 -1.8172114 4288085770
3.433548 -1.6717598 -1.8666899 4288085770
1.0841522 -1.2552755 -1.8558397 4288085770
-0.13375092 -1.0438392 -1.8197351 4288085770
-1.4205856 -0.81752837 -1.8232124 4288085770
-2.0389557 -0.71100628 -1.8162313 4288085770
-0.33590698 -1.0223119 -1.8202853 4288085770
-1.5997772 -0.79864025 -1.8125846 4288085770
11.061073 -3.1068978 -1.8589485 4288085770
-1.2047653 -0.87483382 -1.8123229 4288085770
-0.53809357 -0.99976277 -1.8178427 4288085770
6.1919327 -2.234122 -1.8537037 4288085770
-1.7247467 -0.78820515 -1.817524 4288085770
3.2393799 -1.7071764 -1.8697958 4288085770
0.90375519 -1.2784276 -1.8459337 4288085770
-0.72124481 -0.97900921 -1.8192561 4288085770
-1.8658295 -0.77391541 -1.8156009 4288085770
-2.1223831 -0.72902578 -1.813688 4288085770
-0.89438629 -0.95912588 -1.8195937 4288085770
-1.9798126 -0.76334536 -1.8204648 4288085770
-1.0695724 -0.93824553 -1.8169525 4288085770
-1.2901001 -0.8969208 -1.8157651 4288085770
10.345139 -3.0876505 -1.8590474 4288085770
-2.1099167 -0.74792022 -1.8184733 4288085770
-1.2357712 -0.91626137 -1.8152564 4288085770
5.9880219 -2.2916124 -1.8497255 4288085770
3.0702667 -1.7453012 -1.8747094 4288085770
0.78759003 -1.3118956 -1.8495121 4288085770
-1.3778763 -0.8990193 -1.8183608 4288085770
12.752251 -3.6313357 -1.8516247 4288085770
-1.525032 -0.87981641 -1.8185134 4288085770
-1.6782761 -0.85765111 -1.8137283 4288085770
9.6340561 -3.0583129 -1.8551815 4288085770
-1.3754578 -0.91799313 -1.8172147 4288085770
-1.813446 -0.83830094 -1.8137989 4288085770
-1.9426193 -0.81986988 -1.8128214 4288085770
5.8081665 -2.3528233 -1.8475542 4288085770
2.9031372 -1.7823946 -1.8786159 4288085770
-2.0497208 -0.80421203 -1.817672 4288085770
0.66133118 -1.34145 -1.8481867 4288085770
12.389503 -3.7027833 -1.8496516 4288085770
8.9760132 -3.0313396 -1.852931 4288085770
-1.4558411 -0.93899703 -1.8176296 4288085770
5.6141815 -2.4061694 -1.8405347 4288085770
2.7259445 -1.816582 -1.8786118 4288085770
0.56720734 -1.3776629 -1.8535929 4288085770
8.3409195 -3.0000844 -1.8505507 4288085770
12.103928 -3.7853155 -1.8510666 4288085770
-1.5321732 -0.96096671 -1.8200099 4288085770
2.550705 -1.8477376 -1.8776145 4288085770
5.4703674 -2.4699459 -1.8390956 4288085770
0.42084503 -1.4014053 -1.8444462 4288085770
7.7428207 -2.9683826 -1.8489165 4288085770
-1.6034927 -0.98387486 -1.8223493 4288085770
11.829361 -3.8687129 -1.8523991 4288085770
2.4115753 -1.8854802 -1.8803217 4288085770
0.32566833 -1.4346089 -1.8468797 4288085770
7.1847305 -2.9371903 -1.8470013 4288085770
5.2803802 -2.5232286 -1.8300478 4288085770
-1.6748581 -1.004776 -1.8237021 4288085770
11.585815 -3.9547226 -1.8524976 4288085770
6.675705 -2.9094257 -1.8487222 4288085770
2.2614059 -1.9203367 -1.8801246 4288085770
0.20839691 -1.4630319 -1.8424988 4288085770
5.1615829 -2.5877059 -1.8294296 4288085770
-1.745224 -1.0256577 -1.824048 4288085770
11.354271 -4.0405779 -1.8515134 4288085770
6.1866684 -2.8804088 -1.849313 4288085770
2.1232605 -1.9560533 -1.8808382 4288085770
0.10415649 -1.49231 -1.8400218 4288085770
-1.8085327 -1.048468 -1.8263319 4288085770
5.0588608 -2.6569943 -1.8296666 4288085770
11.152802 -4.1320801 -1.8522816 4288085770
5.6994934 -2.8443453 -1.8469386 4288085770
1.9689865 -1.9859226 -1.8757036 4288085770
-1.8779144 -1.0683231 -1.8246779 4288085770
0.037055969 -1.529192 -1.8452351 4288085770
4.9651413 -2.7271726 -1.8298347 4288085770
12.060249 -4.4522176 -1.870791 4288085770
5.232338 -2.8080368 -1.8444273 4288085770
10.97438 -4.2262936 -1.8518708 4288085770
1.8167267 -2.0157673 -1.8705544 4288085770
-1.9432831 -1.0891365 -1.8239892 4288085770
-0.063194275 -1.558414 -1.8417304 4288085770
11.120979 -4.3286743 -1.8711514 4288085770
4.8052368 -2.7752593 -1.844614 4288085770
4.8734131 -2.7963116 -1.8279958 4288085770
10.846069 -4.3289227 -1.8550541 4288085770
10.219688 -4.2046442 -1.8682516 4288085770
-1.9935684 -1.1127951 -1.8271768 4288085770
1.6864853 -2.0473568 -1.8672409 4288085770
4.3960953 -2.7402465 -1.8426912 4288085770
-0.13936615 -1.5913777 -1.8430326 4288085770
4.8117599 -2.8711114 -1.8299091 4288085770
9.3975067 -4.0896592 -1.8667412 4288085770
10.70472 -4.4296823 -1.8543403 4288085770
3.9818878 -2.7012877 -1.8398304 4288085770
-2.0489197 -1.134493 -1.8274126 4288085770
1.583374 -2.0856445 -1.8676932 4288085770
-0.20147705 -1.6281841 -1.8462112 4288085770
4.7410736 -2.9440002 -1.8288977 4288085770
8.6193161 -3.9751132 -1.8619227 4288085770
3.6318436 -2.6715877 -1.8424613 4288085770
10.611519 -4.5408759 -1.8562202 4288085770
-2.0861511 -1.1610137 -1.8334897 4288085770
1.4762192 -2.1219738 -1.8671863 4288085770
-0.26560974 -1.6630082 -1.848417 4288085770
7.9032364 -3.8688214 -1.8586168 4288085770
3.2977982 -2.6426911 -1.8449759 4288085770
4.7025375 -3.0255332 -1.8326039 4288085770
10.543419 -4.6587763 -1.8598797 4288085770
7.2342148 -3.7669539 -1.8549545 4288085770
1.3479309 -2.1505101 -1.8598793 4288085770
2.9857635 -2.6145318 -1.8483329 4288085770
-0.37700653 -1.6843071 -1.837043 4288085770
4.6599426 -3.1050858 -1.8323512 4288085770
6.6313248 -3.674305 -1.8547702 4288085770
10.471268 -4.774704 -1.8605802 4288085770
2.7068558 -2.5940044 -1.8564074 4288085770
1.2367096 -2.1828597 -1.8554275 4288085770
-0.4381485 -1.7190866 -1.8382282 4288085770
6.0434036 -3.5804515 -1.8514903 4288085770
4.6143341 -3.1836751 -1.8321257 4288085770
2.4479675 -2.5742385 -1.8653381 4288085770
10.36393 -4.8790178 -1.8556035 4288085770
1.1405334 -2.2180393 -1.8528519 4288085770
5.5116043 -3.4959254 -1.8497572 4288085770
-0.50534821 -1.7509186 -1.8364751 4288085770
2.1377563 -2.5360041 -1.8617513 4288085770
4.6008606 -3.2709012 -1.835618 4288085770
5.0078278 -3.4130561 -1.8478186 4288085770
10.02153 -4.9119978 -1.8247457 4288085770
1.0634613 -2.2590082 -1.8531039 4288085770
1.8264694 -2.4937601 -1.8551991 4288085770
-0.56149292 -1.7856297 -1.8366256 4288085770
4.5390854 -3.3337574 -1.8456125 4288085770
4.5773239 -3.3552279 -1.8361988 4288085770
1.5513 -2.4581177 -1.8543513 4288085770
9.6047134 -4.9178123 -1.7845895 4293729569
0.9642334 -2.2912035 -1.8475695 4288085770
4.0863419 -3.2552552 -1.8422902 4288085770
-0.60457611 -1.8242035 -1.8396587 4288085770
1.2971802 -2.4262254 -1.8543317 4288085770
4.5557785 -3.4395161 -1.8347661 4288085770
3.6686478 -3.1813309 -1.8396931 4288085770
9.3083954 -4.9562354 -1.7543738 4293729569
0.89515686 -2.3320739 -1.8477662 4288085770
1.041008 -2.390343 -1.852354 4288085770
-0.66478729 -1.8559422 -1.8368573 4288085770
3.2911072 -3.1159456 -1.8407595 4288085770
4.5633926 -3.5334845 -1.8380644 4288085770
0.7877655 -2.3524015 -1.8473699 4288085770
9.0240173 -4.9915109 -1.7240968 4293729569
0.81298065 -2.367075 -1.8440938 4288085770
2.9466248 -3.0561693 -1.8435581 4288085770
-0.70485687 -1.8944793 -1.8398697 4288085770
0.56365204 -2.321141 -1.8471382 4288085770
4.5579147 -3.6235836 -1.8374794 4288085770
2.6412964 -3.0059445 -1.8500197 4288085770
8.846138 -5.0605526 -1.7028511 4293729569
0.73784637 -2.4049911 -1.8413546 4288085770
0.34449005 -2.2878053 -1.8458889 4288085770
-0.73388672 -1.9358895 -1.8447881 4288085770
2.3570023 -2.9584625 -1.8573194 4288085770
12.412819 -6.3032207 -1.6945672 4293729569
4.5836029 -3.7243252 -1.8406088 4288085770
0.12529755 -2.2524617 -1.8426521 4288085770
2.0354156 -2.8943615 -1.8539901 4288085770
8.6903152 -5.133347 -1.6834283 4293729569
0.67272949 -2.4447916 -1.8385322 4288085770
-0.78504944 -1.9705186 -1.8419049 4288085770
11.737137 -6.2115922 -1.7118812 4293729569
-0.069839478 -2.2218454 -1.842216 4288085770
1.7117691 -2.8272557 -1.8466959 4288085770
4.5881729 -3.8182952 -1.8389294 4288085770
8.7052689 -5.2611799 -1.6794422 4293729569
0.61967468 -2.4874663 -1.8386064 4288085770
1.4051437 -2.7619486 -1.840271 4288085770
-0.26399994 -2.1892092 -1.8407869 4288085770
10.951729 -6.0711775 -1.7132909 4293729569
-0.83525085 -2.0031347 -1.8390288 4288085770
1.1608047 -2.7149534 -1.8432887 4288085770
4.6148453 -3.920017 -1.8400431 4288085770
-0.45417786 -2.1565168 -1.8383305 4288085770
0.55451202 -2.5242593 -1.8348048 4288085770
8.8438873 -5.4355917 -1.6862781 4293729569
10.183228 -5.9245386 -1.7126262 4293729569
0.90836334 -2.6620276 -1.8424032 4288085770
-0.86633301 -2.0425544 -1.8409734 4288085770
-0.61521912 -2.131505 -1.8406196 4288085770
4.6485748 -4.0246525 -1.8410873 4288085770
0.65485382 -2.606092 -1.8385456 4288085770
-0.78435516 -2.1015692 -1.8399985 4288085770
0.52154541 -2.5737035 -1.8366928 4288085770
8.9292297 -5.5916028 -1.6866093 4293729569
9.2537537 -5.7097025 -1.6915462 4293729569
0.44152069 -2.561702 -1.83933 4288085770
-0.91452789 -2.0751464 -1.8380828 4288085770
-0.94750214 -2.071553 -1.8383362 4288085770
4.69133 -4.1331787 -1.8420417 4288085770
0.22915649 -2.5152924 -1.8391221 4288085770
8.5381851 -5.5603924 -1.6875324 4293729569
0.4644165 -2.6124055 -1.8338215 4288085770
9.1462631 -5.7970953 -1.6976862 4293729569
-1.0855103 -2.0492802 -1.8434467 4288085770
0.017776489 -2.4678636 -1.837914 4288085770
-0.95466614 -2.1116474 -1.8361096 4288085770
-1.2306213 -2.0220573 -1.8436403 4288085770
4.7320862 -4.2417207 -1.8420093 4288085770
7.8717041 -5.4174747 -1.6821344 4293729569
-0.19067383 -2.4183753 -1.8336997 4288085770
0.42338562 -2.6579258 -1.8327918 4288085770
9.3572693 -6.0026531 -1.707804 4293729569
-1.4039459 -1.9831047 -1.8341098 4288085770
-0.37097931 -2.3775802 -1.8342304 4288085770
-0.98781586 -2.1480622 -1.8340883 4288085770
7.0773926 -5.2179747 -1.6590118 4293729569
4.7788544 -4.3531823 -1.8409145 4288085770
-1.5249634 -1.961616 -1.8380971 4288085770
-0.54631805 -2.335716 -1.8337343 4288085770
0.3802948 -2.7004559 -1.8297966 4288085770
9.6809464 -6.2569036 -1.7258043 4293729569
-0.70153809 -2.3006361 -1.8370519 4288085770
-1.6540604 -1.9361963 -1.8381672 4288085770
-1.0219345 -2.185497 -1.8330667 4288085770
6.4559021 -5.0744901 -1.6513057 4293729569
4.8668823 -4.4811854 -1.8454196 4288085770
-0.86284637 -2.2616005 -1.8364391 4288085770
-1.7771378 -1.9117105 -1.8391891 4288085770
0.35231781 -2.7498314 -1.8306494 4288085770
9.960434 -6.4986434 -1.7371962 4293729569
-1.0221939 -2.2205329 -1.8348267 4288085770
-1.8992767 -1.8851972 -1.8382187 4288085770
6.0333557 -4.9987307 -1.6627548 4293729569
-1.0480499 -2.2238405 -1.8329828 4288085770
-1.1775436 -2.1804016 -1.8311799 4288085770
5.010231 -4.6325645 -1.8563797 4288085770
-2.0214386 -1.8576772 -1.8362548 4288085770
0.32329559 -2.7962115 -1.8305297 4288085770
-1.321846 -2.1431501 -1.8294368 4288085770
5.773674 -4.9821301 -1.692668 4293729569
-2.1345596 -1.8320529 -1.8352158 4288085770
-1.4621811 -2.1048486 -1.8276732 4288085770
-1.0640869 -2.267076 -1.8347955 4288085770
5.0409164 -4.7401786 -1.8494213 4288085770
-2.2446899 -1.8063998 -1.835156 4288085770
-1.5854034 -2.0733609 -1.8287444 4288085770
0.30836487 -2.8494346 -1.8322649 4288085770
5.4375076 -4.932374 -1.711339 4293729569
-1.6986237 -2.0427644 -1.8317404 4288085770
-2.337738 -1.7865593 -1.8379378 4288085770
-1.0892105 -2.3053997 -1.8337045 4288085770
-1.8158646 -2.0111957 -1.8317707 4288085770
4.9076233 -4.7825952 -1.8170476 4288085770
-1.9371796 -1.975661 -1.8298564 4288085770
5.1565475 -4.8979726 -1.7335217 4293729569
0.28636169 -2.8987215 -1.8310759 4288085770
-2.0424194 -1.9459445 -1.8297908 4288085770
6.2011871 -5.3637238 -1.2410426 4293729569
-1.1143494 -2.3437161 -1.8316133 4288085770
-2.1486969 -1.9142327 -1.8287461 4288085770
4.8222198 -4.8381629 -1.7482493 4293729569
4.6766586 -4.7800918 -1.7706597 4293729569
-2.2499695 -1.8834598 -1.8276601 4288085770
0.28045654 -2.953841 -1.8337352 4288085770
6.0953369 -5.4024348 -1.2955081 4293729569
5.9676056 -5.3518758 -1.2807415 4293729569
-2.3412094 -1.8555779 -1.8284848 4288085770
-1.124382 -2.3878779 -1.8333774 4288085770
4.5512085 -4.800631 -1.7693844 4293729569
4.5704193 -4.8271909 -1.7400658 4293729569
6.0407333 -5.4595566 -1.3544915 4293729569
0.26043701 -3.0030956 -1.8315322 4288085770
5.9077759 -5.4284539 -1.2556219 4293729569
6.0140152 -5.493711 0.038628399 4293729569
4.3626633 -4.7951746 -1.8007269 4288085770
-1.1424789 -2.4291158 -1.8322167 4288085770
6.0344162 -5.5371342 -1.418999 4293729569
4.5386276 -4.90447 -1.7207475 4293729569
0.25855255 -3.0601664 -1.8341496 4288085770
5.8761063 -5.5167117 -1.2332258 4293729569
4.1841431 -4.7906094 -1.8339942 4288085770
5.9444962 -5.5638509 0.0026340187 4293729569
6.0804214 -5.6361318 -1.4909961 4293729569
-1.1565704 -2.4703114 -1.8320289 4288085770
4.5350266 -4.9954205 -1.7031393 4293729569
0.25463867 -3.1162465 -1.8347874 4288085770
3.9240112 -4.7459202 -1.852103 4288085770
5.9228897 -5.6390548 -1.2160509 4293729569
6.0137329 -5.6864076 -1.55111 4293729569
5.9463272 -5.6621346 -0.034671336 4293729569
-1.1646347 -2.5144408 -1.8327789 4288085770
4.5485077 -5.0921836 -1.6883724 4293729569
3.5933533 -4.6659884 -1.8569436 4288085770
5.8503647 -5.688766 -1.5992241 4293729569
0.25775909 -3.1752484 -1.8363559 4288085770
-1.1767044 -2.5576048 -1.8315625 4288085770
3.2294083 -4.5673962 -1.8531435 4288085770
5.5913391 -5.6451874 -1.6343181 4293729569
4.6394577 -5.2230692 -1.6818328 4293729569
0.27294922 -3.2391169 -1.8398073 4288085770
5.3292084 -5.5956311 -1.6674745 4293729569
2.8955231 -4.4744496 -1.8510962 4288085770
-1.1827698 -2.6017025 -1.8312984 4288085770
4.8391342 -5.4057388 -1.6891818 4293729569
0.26799774 -3.2941949 -1.8384585 4288085770
4.9381714 -5.4834909 -1.6809559 4293729569
2.563591 -4.379457 -1.8460495 4288085770
-1.1908722 -2.6448169 -1.8300548 4288085770
4.9170227 -5.5347462 -1.6777444 4293729569
4.6003876 -5.3897371 -1.6989417 4293729569
0.27508545 -3.3531322 -1.8379993 4288085770
2.2718811 -4.2990103 -1.845624 4288085770
4.2504654 -5.2870941 -1.7120731 4293729569
-1.1959534 -2.6888945 -1.8287833 4288085770
1.9831238 -4.2165117 -1.8431919 4288085770
5.0190735 -5.6754813 -1.6690578 4293729569
0.2902298 -3.4159858 -1.8394573 4288085770
3.8409958 -5.1490798 -1.7128611 4293729569
1.7073593 -4.1348538 -1.8406646 4288085770
-1.1829147 -2.7407875 -1.8323324 4288085770
5.0526352 -5.782969 -1.6500754 4293729569
3.4898834 -5.0354056 -1.7200768 4293729569
0.29633331 -3.4759288 -1.8379974 4288085770
1.4708405 -4.0697613 -1.843751 4288085770
3.1537781 -4.9245257 -1.7241695 4293729569
-1.1749268 -2.7907269 -1.8339295 4288085770
5.2906342 -5.993166 -1.6559665 4293729569
0.30944061 -3.5377922 -1.8374755 4288085770
1.2292099 -3.9977086 -1.8439207 4288085770
2.9112778 -4.8556142 -1.7423241 4293729569
-1.1729584 -2.838726 -1.8335814 4288085770
1.0107117 -3.9343946 -1.8468702 4288085770
5.5195541 -6.2004428 -1.6579397 4293729569
0.34268188 -3.6084392 -1.8407533 4288085770
2.6485367 -4.7718897 -1.7527211 4293729569
0.77600098 -3.8592267 -1.8430138 4288085770
2.5288239 -4.758606 -1.7866409 4293729569
-1.1670227 -2.8866751 -1.8332062 4288085770
5.829071 -6.4508123 -1.6690559 4293729569
0.36080933 -3.672241 -1.840183 4288085770
0.56041718 -3.7918475 -1.8419712 4288085770
2.4352646 -4.7560401 -1.8253059 4288085770
-1.1520081 -2.9395285 -1.834734 4288085770
0.39807892 -3.7458324 -1.8424122 4288085770
2.2691269 -4.7142396 -1.8487444 4288085770
0.35682678 -3.7263131 -1.839833 4288085770
2.0142212 -4.623373 -1.853137 4288085770
0.15622711 -3.6597419 -1.8376811 4288085770
-1.134964 -2.9933646 -1.8372407 4288085770
0.42526245 -3.8145237 -1.8417447 4288085770
1.7663345 -4.5334139 -1.8564746 4288085770
-0.026290894 -3.5999646 -1.8373573 4288085770
1.4709854 -4.4139276 -1.8463454 4288085770
-1.1240158 -3.0432448 -1.8358169 4288085770
0.46852875 -3.8900473 -1.8449185 4288085770
-0.19674683 -3.5440474 -1.8379233 4288085770
1.2168884 -4.3129826 -1.8418024 4288085770
-0.36726379 -3.4861155 -1.8365037 4288085770
0.50473022 -3.961628 -1.8441682 4288085770
0.98389435 -4.2198019 -1.8400598 4288085770
-1.1040115 -3.0970364 -1.8373032 4288085770
-0.51159668 -3.4389081 -1.8408289 4288085770
0.77001953 -4.1353955 -1.8391237 4288085770
-2.6880417 -2.2730935 -1.8209832 4288085770
0.53690338 -4.0322495 -1.842452 4288085770
-1.0789795 -3.1537664 -1.8387339 4288085770
0.5701828 -4.0548248 -1.8390646 4288085770
-0.67313385 -3.3808579 -1.8383482 4288085770
-2.6664963 -2.3028343 -1.8196268 4288085770
0.38137054 -3.9771185 -1.8389091 4288085770
-0.81656647 -3.3296087 -1.838695 4288085770
0.56905365 -4.1018572 -1.838743 4288085770
-2.6319046 -2.3374367 -1.8211467 4288085770
0.18648529 -3.894464 -1.8358302 4288085770
-1.0680771 -3.2026386 -1.8363166 4288085770
-0.95296478 -3.2812741 -1.8389733 4288085770
-2.6003265 -2.3710616 -1.820694 4288085770
0.020774841 -3.8254826 -1.8364546 4288085770
0.61325836 -4.1763391 -1.8379164 4288085770
-0.12983704 -3.7633393 -1.8399274 4288085770
-2.5748444 -2.399745 -1.8183174 4288085770
-1.0934525 -3.227973 -1.8373144 4288085770
-1.0359879 -3.2632895 -1.838671 4288085770
-0.27750397 -3.6991441 -1.8413942 4288085770
-2.5383072 -2.4333076 -1.817831 4288085770
-1.2168579 -3.1814854 -1.8384898 4288085770
-0.42922211 -3.6319835 -1.8409095 4288085770
-2.5027618 -2.4668753 -1.8163512 4288085770
0.66957092 -4.2586808 -1.8379514 4288085770
-0.99888611 -3.325887 -1.8419771 4288085770
-0.57292175 -3.5667176 -1.8393562 4288085770
-1.3473206 -3.1310546 -1.8357415 4288085770
-2.4612045 -2.5023835 -1.8168166 4288085770
-0.70050812 -3.5102842 -1.8416302 4288085770
-2.4156494 -2.5388422 -1.8172474 4288085770
-1.4627304 -3.0854614 -1.835856 4288085770
-0.83117676 -3.4488657 -1.8409605 4288085770
-2.3660736 -2.5772591 -1.8186369 4288085770
0.76418304 -4.3626223 -1.8465714 4288085770
-0.96692657 -3.3834789 -1.8363533 4288085770
-0.96582794 -3.3865178 -1.8433247 4288085770
-2.3094635 -2.618597 -1.8209577 4288085770
-1.5832138 -3.035907 -1.8330326 4288085770
-1.091629 -3.3219717 -1.833643 4288085770
-2.2488403 -2.6618857 -1.8232369 4288085770
-1.207283 -3.2643681 -1.8328431 4288085770
-2.1973267 -2.6982625 -1.8226273 4288085770
-1.6926117 -2.9912326 -1.8320992 4288085770
-1.3088531 -3.2136004 -1.8328981 4288085770
-2.143837 -2.7346072 -1.8210042 4288085770
0.87794495 -4.4763517 -1.8579912 4288085770
-1.4013901 -3.165736 -1.8348708 4288085770
-2.072197 -2.7817602 -1.8231804 4288085770
-1.4969864 -3.1148868 -1.8338854 4288085770
-2.0015945 -2.8259254 -1.8253851 4288085770
-1.6047211 -3.0561552 -1.8290386 4288085770
-0.93380737 -3.4451537 -1.8436933 4288085770
-1.8192596 -2.9337075 -1.8233738 4288085770
-1.9350662 -2.8671174 -1.8246381 4288085770
-1.6902847 -3.0091903 -1.8289571 4288085770
-1.8635483 -2.9092474 -1.8238504 4288085770
-1.7779083 -2.9592347 -1.8269105 4288085770
-1.8984451 -2.9037235 -1.8301296 4288085770
0.97253418 -4.5802712 -1.863611 4288085770
-2.0110168 -2.8520412 -1.8232667 4288085770
-0.90079498 -3.5047698 -1.8430476 4288085770
-2.0943375 -2.8160689 -1.8250926 4288085770
1.0307922 -4.6625652 -1.8606319 4288085770
-2.1787033 -2.7781012 -1.8259399 4288085770
-0.85770416 -3.5692778 -1.8442984 4288085770
-2.2661285 -2.7371483 -1.8238287 4288085770
-2.3505478 -2.6971583 -1.8216903 4288085770
1.0052719 -4.6937246 -1.8375874 4288085770
-2.4208908 -2.6630254 -1.8234138 4288085770
-2.4993439 -2.6229541 -1.820235 4288085770
-0.81666565 -3.6318097 -1.845577 4288085770
-2.5586472 -2.5927002 -1.8238556 4288085770
-2.6209869 -2.5604615 -1.8245108 4288085770
-2.6813736 -2.5271907 -1.8241599 4288085770
-2.7467957 -2.4909732 -1.8228643 4288085770
0.94139099 -4.701283 -1.8059714 4288085770
-2.7951126 -2.4635763 -1.8253891 4288085770
-2.8495102 -2.4312308 -1.8249903 4288085770
-0.77867126 -3.6923563 -1.8438902 4288085770
0.85427094 -4.69208 -1.7686331 4293729569
-0.72555542 -3.7617407 -1.8450375 4288085770
0.80242157 -4.7025061 -1.7389143 4293729569
-0.68153381 -3.8252208 -1.8442883 4288085770
0.83528137 -4.7620258 -1.7252688 4293729569
-0.62643433 -3.894573 -1.8444216 4288085770
0.80454254 -4.7812152 -1.6983435 4293729569
0.8201828 -4.8269057 -1.6799135 4293729569
-0.56632996 -3.9658711 -1.8455071 4288085770
0.86708832 -4.8922606 -1.6671302 4293729569
-0.49514771 -4.0430479 -1.8484747 4288085770
0.88166046 -4.934948 -1.6467283 4293729569
-0.44316101 -4.108407 -1.8446572 4288085770
0.9103241 -4.9844856 -1.6291811 4293729569
-0.39020538 -4.1727533 -1.8408399 4288085770
0.99141693 -5.0664444 -1.6190462 4293729569
-0.32011414 -4.2469196 -1.8408358 4288085770
1.0815659 -5.1523066 -1.6108217 4293729569
1.2756577 -5.3050442 -1.6204131 4293729569
-0.21672821 -4.3417335 -1.8474581 4288085770
1.6826553 -5.5954723 -1.6655738 4293729569
-0.11032104 -4.4385095 -1.8540459 4288085770
1.9392319 -5.7865009 -1.6814666 4293729569
0.0010757446 -4.5362234 -1.8605924 4288085770
2.2371674 -6.005064 -1.7018814 4293729569
2.4906464 -6.1930771 -1.7108161 4293729569
0.08014679 -4.6132574 -1.857506 4288085770
2.7178116 -6.3613653 -1.7140701 4293729569
0.10967255 -4.6547885 -1.8410096 4288085770
2.9823151 -6.5542288 -1.7208948 4293729569
0.085655212 -4.6598611 -1.810137 4288085770
0.058570862 -4.6609626 -1.7783134 4293729569
0.038513184 -4.6649919 -1.7484207 4293729569
2.7287827 -6.4803185 -1.7201538 4293729569
0.058807373 -4.6935964 -1.7270784 4293729569
2.4416733 -6.3057547 -1.7153549 4293729569
0.091201782 -4.7290683 -1.7076049 4293729569
2.1413803 -6.1193142 -1.7057297 4293729569
0.121521 -4.7605572 -1.6871736 4293729569
1.6582642 -5.8058152 -1.6602535 4293729569
0.1548233 -4.7930012 -1.6657147 4293729569
1.1811142 -5.4922128 -1.6107376 4293729569
0.19314575 -4.8263912 -1.6452153 4293729569
0.79377747 -5.2376223 -1.5741892 4293729569
0.25968933 -4.8764739 -1.6294045 4293729569
0.61434174 -5.1207824 -1.5732446 4293729569
0.33428955 -4.9314661 -1.6145039 4293729569
0.43508148 -5.0011683 -1.6033199 4293729569
0.51262665 -5.0541077 -1.5864136 4293729569
1.2386703 6.0990267 -1.7967377 4288085770
1.4082794 6.2200103 -1.7970619 4288085770
1.0680847 5.9760571 -1.7934012 4288085770
1.6047287 6.3572655 -1.8024158 4288085770
0.92832184 5.8724046 -1.7951035 4288085770
1.8041763 6.4945793 -1.8047593 4288085770
0.78063965 5.7606835 -1.793772 4288085770
2.0016937 6.6268854 -1.8050711 4288085770
0.6468811 5.6571183 -1.7934535 4288085770
2.2409134 6.7866311 -1.8114452 4288085770
0.53200531 5.5657463 -1.7961612 4288085770
2.4811554 6.9444032 -1.8158 4288085770
0.4171524 5.4723825 -1.7978537 4288085770
2.7462769 7.115458 -1.8211684 4288085770
0.31423187 5.3861589 -1.7995584 4288085770
3.034256 7.2997599 -1.828557 4288085770
0.21134949 5.2979407 -1.8002474 4288085770
3.3331985 7.4882088 -1.8339381 4288085770
0.12934113 5.2229338 -1.8049641 4288085770
4.4466095 8.2460709 -1.8537886 4288085770
3.6510315 7.6858768 -1.8393228 4288085770
4.128273 8.015398 -1.847152 4288085770
3.8258743 7.7919073 -1.8405132 4288085770
0.042388916 5.1428862 -1.8076591 4288085770
3.5562439 7.5907764 -1.8369298 4288085770
3.9887848 7.8927755 -1.844707 4288085770
3.2856522 7.3856659 -1.829319 4288085770
-0.041564941 5.0638819 -1.8093517 4288085770
4.3414536 8.1068411 -1.8510931 4288085770
3.0378952 7.1958132 -1.8227437 4288085770
-0.11954498 4.9879365 -1.8120463 4288085770
2.8070679 7.0141416 -1.8181713 4288085770
2.5950928 6.8456974 -1.812633 4288085770
-0.2004776 4.9079814 -1.8117206 4288085770
2.3940659 6.683373 -1.8081028 4288085770
-1.1703873 4.2244563 -1.8319309 4282675967
-1.0920029 4.2773876 -1.8300576 4282675967
-1.2556992 4.1644745 -1.8297744 4288085770
-1.0106277 4.3313632 -1.8271818 4288085770
-1.336998 4.1055317 -1.8286114 4288085770
-0.88353729 4.4157658 -1.8373773 4282675967
-0.28932953 4.8219571 -1.8083766 4288085770
-1.4192657 4.0445919 -1.8254366 4288085770
-0.79515839 4.4708295 -1.8334846 4282675967
2.2198639 6.5373373 -1.806602 4288085770
-1.4886246 3.9917865 -1.8242784 4288085770
-0.69680786 4.5309925 -1.8315959 4282675967
-1.5599136 3.9349666 -1.8220961 4288085770
-0.59445953 4.5922012 -1.8297007 4288085770
2.0466843 6.3903279 -1.8030899 4288085770
-0.34441376 4.7582626 -1.8130839 4288085770
-1.6232758 3.8842301 -1.8209324 4288085770
-0.49111938 4.6534305 -1.8268023 4288085770
-1.6915436 3.8274517 -1.8177395 4288085770
-0.35593414 4.732965 -1.8319311 4282675967
1.878479 6.2463851 -1.798584 4288085770
-1.7578201 3.771697 -1.8145478 4288085770
-0.42826843 4.6733041 -1.8087299 4288085770
-0.23265076 4.8024087 -1.8310246 4288085770
-1.8161392 3.7200336 -1.8113587 4288085770
1.7331238 6.1166844 -1.7971058 4288085770
-0.098419189 4.8779635 -1.8321259 4282675967
-1.8624954 3.6744766 -1.8121741 4288085770
0.049751282 4.959672 -1.8342247 4288085770
1.6036758 5.9971604 -1.796649 4288085770
0.44696045 5.2093577 -1.8287253 4288085770
0.56999207 5.2918196 -1.8259196 4288085770
-1.9297256 3.6157422 -1.8049626 4288085770
0.33190155 5.1299787 -1.8325262 4288085770
0.19396973 5.0373583 -1.833307 4288085770
0.70597839 5.3804245 -1.824115 4288085770
0.22480774 5.0546932 -1.8363302 4288085770
0.84098053 5.4670343 -1.8202984 4288085770
0.11673737 4.9774189 -1.837122 4288085770
1.0048141 5.5709386 -1.821512 4288085770
-0.0022201538 4.8900433 -1.8348751 4282675967
1.1686935 5.6718688 -1.8197026 4288085770
1.4772263 5.8776798 -1.7951818 4288085770
-1.9591599 3.5803485 -1.8097959 4288085770
0.33626556 5.1100378 -1.8303571 4288085770
-0.11122894 4.8087735 -1.8336396 4282675967
1.3465042 5.7799425 -1.8198981 4288085770
-0.20135498 4.7386999 -1.835423 4282675967
1.5491714 5.9022741 -1.8241148 4288085770
0.49943542 5.1939354 -1.8304191 4288085770
-2.0094223 3.5287857 -1.8055789 4288085770
1.3577423 5.762279 -1.7937212 4288085770
1.7488708 6.0206122 -1.8233111 4288085770
-0.29640961 4.6635919 -1.8341849 4282675967
-0.38549042 4.5915451 -1.8339493 4282675967
1.9804077 6.15628 -1.827527 4288085770
0.64971924 5.267715 -1.8264492 4288085770
-2.0567017 3.4792488 -1.8023667 4288085770
2.21595 6.2920089 -1.8297288 4288085770
-0.45964813 4.5276566 -1.8357232 4282675967
2.4733734 6.4389772 -1.8339393 4288085770
0.82984161 5.357811 -1.8264983 4288085770
-0.53575897 4.4607606 -1.8354805 4282675967
-2.0950317 3.4357989 -1.8011699 4288085770
2.7496948 6.5951743 -1.8371527 4288085770
-0.59695435 4.4030046 -1.8392553 4282675967
1.0020447 5.4408369 -1.8235211 4288085770
-2.1353302 3.3893342 -1.7989569 4288085770
3.0489273 6.7616138 -1.8433633 4288085770
-0.70185852 4.3158526 -1.8289597 4288085770
1.1901855 5.5300488 -1.8205345 4288085770
3.3879013 6.9514995 -1.8516123 4288085770
-2.1676483 3.3469541 -1.7977464 4288085770
-0.7640152 4.2551098 -1.8297148 4288085770
3.7448196 7.1475959 -1.8598444 4282675967
1.4031982 5.6325092 -1.822561 4288085770
-0.80925751 4.2045388 -1.8334877 4282675967
-2.1940079 3.3086262 -1.7985461 4288085770
4.125618 7.3549685 -1.8680782 4282675967
-0.87136841 4.1418114 -1.8322272 4282675967
1.6162491 5.7320013 -1.8205645 4288085770
-2.2302704 3.2622235 -1.7943189 4288085770
4.5223694 7.5665426 -1.8742869 4282675967
-0.93347168 4.0780916 -1.8299592 4288085770
1.8660965 5.8508663 -1.8255856 4288085770
4.9529419 7.7944946 -1.8825006 4282675967
-2.2536087 3.223938 -1.7941079 4288085770
-0.99554443 4.0133877 -1.8256834 4288085770
2.1179733 5.9677787 -1.827584 4288085770
5.4232941 8.0428963 -1.8927295 4282675967
-2.260994 3.193789 -1.7999029 4288085770
-1.0466919 3.9557867 -1.8244231 4288085770
2.3837967 6.0898538 -1.8295722 4288085770
5.9493484 8.3199205 -1.9059794 4282675967
-1.0898743 3.9022708 -1.8241661 4288085770
-2.2803497 3.1575496 -1.7996936 4288085770
2.6655655 6.2171144 -1.8315434 4288085770
-1.1340256 3.8467498 -1.822897 4288085770
-2.2867126 3.1264274 -1.8034773 4288085770
2.9712219 6.3556361 -1.8355157 4288085770
-1.1791382 3.7892346 -1.8196158 4288085770
-2.3000412 3.0912404 -1.8052547 4288085770
3.2987976 6.5024052 -1.8404732 4288085770
-1.2192917 3.7357597 -1.8183482 4288085770
-2.3163452 3.0540433 -1.8040271 4288085770
3.6661987 6.6666131 -1.8484221 4288085770
-1.2683716 3.6752214 -1.8120577 4288085770
-2.3286438 3.0178835 -1.8037932 4288085770
-1.2965622 3.6268773 -1.8117869 4288085770
-2.3379669 2.9837506 -1.8045642 4288085770
1.21241 5.6684346 -1.767885 4288085770
2.642128 6.4463606 -1.7695208 4288085770
-0.18634796 4.5357022 -1.8132846 4288085770
2.4869537 6.2947264 -1.7658951 4288085770
-0.23345184 4.4731627 -1.8159368 4288085770
2.3466797 6.1532407 -1.7632873 4288085770
-0.27754974 4.4116545 -1.8185828 4288085770
2.2262726 6.025939 -1.7637098 4288085770
1.5234604 5.557085 -1.7979631 4288085770
-0.3415451 4.3360057 -1.8141985 4288085770
2.1009293 5.893611 -1.7611101 4288085770
1.4317322 5.4580989 -1.7975037 4288085770
-0.38162994 4.2755394 -1.816833 4288085770
1.3529587 5.3662195 -1.8000436 4288085770
2.0024261 5.778522 -1.7635329 4288085770
-0.4058075 4.2242236 -1.8214703 4288085770
5.8701019 8.2183552 -1.8083141 4288085770
1.2771683 5.2753844 -1.8015776 4288085770
1.9019318 5.6624393 -1.7629566 4288085770
-0.45085907 4.1597347 -1.8210926 4288085770
-2.4146576 2.9020944 -1.7884991 4288085770
-2.3639755 2.9336245 -1.7895315 4288085770
-2.461319 2.8715863 -1.7894554 4288085770
5.5442581 7.9380074 -1.7933643 4288085770
-2.3182678 2.9611418 -1.7865515 4288085770
-2.4960327 2.8481753 -1.793416 4288085770
1.2153168 5.1926761 -1.8051152 4288085770
-2.5397034 2.8187087 -1.7933664 4288085770
-2.2585907 2.9957581 -1.7885654 4288085770
-2.1999054 3.0293825 -1.7885749 4288085770
-2.5793381 2.7892847 -1.7932956 4288085770
-2.1312485 3.0680838 -1.7915804 4288085770
1.8173752 5.5554972 -1.765383 4288085770
-2.6120071 2.7639148 -1.7952263 4288085770
-0.49588776 4.0942664 -1.8187051 4288085770
-2.0675583 3.102761 -1.7915733 4288085770
-2.6456604 2.737534 -1.797153 4288085770
-2.0078278 3.1334267 -1.7885487 4288085770
-2.6802902 2.7091625 -1.7970655 4288085770
5.3188019 7.7226219 -1.7895026 4288085770
1.1614151 5.1150517 -1.8086593 4288085770
-1.9361267 3.1701791 -1.7895193 4288085770
-2.7089233 2.6838453 -1.7979751 4288085770
-1.8813477 3.1958225 -1.7834728 4288085770
1.7377701 5.4526091 -1.767822 4288085770
-0.53795624 4.0308294 -1.8163214 4288085770
-2.7375488 2.657527 -1.7988753 4288085770
