# .PCD v0.7 - Point Cloud Data file format
VERSION 0.7
FIELDS x y z rgb
SIZE 4 4 4 4
TYPE F F F U
COUNT 1 1 1 1
WIDTH 1113
HEIGHT 1
VIEWPOINT 0 0 0 1 0 0 0
POINTS 1113
DATA ascii
8.5972176 2.0264323 -1.7947584 4288085770
4.7315488 1.1302878 -1.8230687 4288085770
6.0937748 1.438289 -1.8273158 4288085770
12.909936 3.0042653 -1.8005395 4288085770
7.3569889 1.7183481 -1.8025477 4288085770
15.330309 3.531513 -1.8529894 4288085770
6.2367873 1.452183 -1.824351 4288085770
5.4776583 1.2747376 -1.8172162 4288085770
7.5720086 1.7441899 -1.8015984 4288085770
11.301626 2.5824475 -1.8012782 4288085770
4.7935371 1.113245 -1.8250952 4288085770
8.7361946 1.9963342 -1.8018155 4288085770
13.449967 3.0478728 -1.8106791 4288085770
6.4017992 1.4680624 -1.8243917 4288085770
7.7920294 1.7700275 -1.7996507 4288085770
6.5708122 1.4849385 -1.8244332 4288085770
15.514255 3.4583812 -1.864084 4288085770
5.5536461 1.2566837 -1.8182473 4288085770
8.0340519 1.7988499 -1.7997079 4288085770
4.849525 1.0942044 -1.8231208 4288085770
11.503601 2.5473003 -1.8043575 4288085770
14.137011 3.1153803 -1.8378507 4288085770
8.8481684 1.9592518 -1.8008682 4288085770
6.7448244 1.4998106 -1.8234773 4288085770
8.2950754 1.8286582 -1.7997706 4288085770
5.6366334 1.2396256 -1.8212802 4288085770
6.9028339 1.5096916 -1.8165193 4288085770
15.666196 3.3772709 -1.8701735 4288085770
8.5870991 1.8624463 -1.8048403 4288085770
4.9155135 1.077158 -1.8241487 4288085770
14.840053 3.1788743 -1.8620294 4288085770
11.700575 2.5081549 -1.8044374 4288085770
8.9931469 1.9271481 -1.8059283 4288085770
7.0768452 1.5215615 -1.811565 4288085770
8.8911228 1.8972249 -1.8089132 4288085770
5.7296214 1.2225605 -1.8253163 4288085770
7.2788572 1.5374138 -1.8126169 4288085770
15.802135 3.2911701 -1.8722606 4288085770
9.2261505 1.9349817 -1.8149941 4288085770
15.47008 3.2174141 -1.8721995 4288085770
4.9725008 1.0571164 -1.8211752 4288085770
11.901548 2.4680057 -1.8025193 4288085770
9.1721258 1.9010215 -1.8149956 4288085770
7.478869 1.5512661 -1.8106695 4288085770
9.5001698 1.9567753 -1.806065 4288085770
5.8126087 1.2035003 -1.8243506 4288085770
16.006092 3.2290154 -1.8673558 4288085770
5.0254879 1.0360758 -1.815201 4288085770
7.7058821 1.5681005 -1.8127286 4288085770
15.92507 3.201077 -1.871346 4288085770
9.8251934 1.9865347 -1.8031472 4288085770
12.151525 2.4358227 -1.8066118 4288085770
9.3181028 1.8669157 -1.8170573 4288085770
7.9438949 1.5849268 -1.8147913 4288085770
10.19422 2.022264 -1.8052396 4288085770
5.8955956 1.18444 -1.8233846 4288085770
16.508097 3.2256384 -1.8565098 4288085770
5.0984759 1.0190243 -1.8162311 4288085770
16.07501 3.1129649 -1.8714387 4288085770
10.598248 2.0599685 -1.8093415 4288085770
8.215909 1.6047299 -1.8208625 4288085770
12.386499 2.398649 -1.8057024 4288085770
9.4770784 1.8337997 -1.8191223 4288085770
5.9905829 1.1663724 -1.8254219 4288085770
11.004274 2.0946686 -1.8084457 4288085770
16.959091 3.2072945 -1.8376565 4288085770
8.4619198 1.6185484 -1.8199292 4288085770
5.1744642 1.0019698 -1.816262 4288085770
16.266953 3.0328221 -1.87354 4288085770
12.632473 2.3594661 -1.8037976 4288085770
11.4213 2.1273596 -1.8055545 4288085770
9.6470537 1.8006762 -1.8221908 4288085770
8.7879362 1.6433146 -1.8320143 4288085770
6.076571 1.1463083 -1.8214576 4288085770
17.40008 3.1819568 -1.8168042 4288085770
5.2454529 0.9829179 -1.8142924 4288085770
11.864328 2.1600306 -1.8016711 4288085770
9.0609474 1.6561127 -1.8300899 4288085770
12.92045 2.3262534 -1.8049024 4288085770
16.405888 2.9397151 -1.8686322 4288085770
6.1775584 1.1282355 -1.822497 4288085770
9.8310299 1.7665417 -1.8242642 4288085770
12.349356 2.1956716 -1.799799 4288085770
18.020081 3.1794941 -1.8109941 4288085770
9.331953 1.6639109 -1.8261673 4288085770
5.3334413 0.966856 -1.8173267 4288085770
6.2925453 1.1111535 -1.8255398 4288085770
12.879386 2.2342796 -1.798939 4288085770
13.249427 2.2960119 -1.8090184 4288085770
9.6509647 1.6776763 -1.8272564 4288085770
16.560822 2.8485959 -1.8627285 4288085770
10.013006 1.7324083 -1.8253371 4288085770
5.4074287 0.94780135 -1.8143581 4288085770
18.747089 3.1859562 -1.812212 4288085770
13.469418 2.2768447 -1.8010955 4288085770
9.9439726 1.6844571 -1.8213414 4288085770
6.4075341 1.0940703 -1.8265829 4288085770
13.599407 2.2667539 -1.8121402 4288085770
10.239984 1.7032443 -1.8324211 4288085770
16.733759 2.7584631 -1.8568295 4288085770
5.5124178 0.93372828 -1.8203964 4288085770
14.20546 2.3363078 -1.8152872 4288085770
19.533094 3.1923754 -1.8164481 4288085770
10.325986 1.7011783 -1.8274481 4288085770
6.5185208 1.0749887 -1.8256258 4288085770
15.160515 2.4246194 -1.8495303 4288085770
14.012389 2.2434521 -1.8202783 4288085770
5.583405 0.91267365 -1.8134282 4288085770
10.694993 1.7119063 -1.8285544 4288085770
10.433958 1.6661001 -1.8304993 4288085770
16.877695 2.6623492 -1.8459252 4288085770
6.6325088 1.0559047 -1.8236698 4288085770
15.983556 2.4820147 -1.8577501 4288085770
11.079001 1.7206223 -1.827666 4288085770
14.548378 2.2340648 -1.8394464 4288085770
5.6803932 0.89560378 -1.8144658 4288085770
10.690937 1.6379144 -1.8385921 4288085770
17.090633 2.5741863 -1.8400376 4288085770
16.674587 2.5104954 -1.8429452 4288085770
6.7454967 1.0358204 -1.8197141 4288085770
11.473007 1.72733 -1.8257821 4288085770
5.783381 0.87852955 -1.815505 4288085770
15.098365 2.2196655 -1.8556215 4288085770
17.37661 2.5339658 -1.8251467 4288085770
10.944913 1.6047281 -1.8416867 4288085770
11.866012 1.7290361 -1.8199005 4288085770
6.8614826 1.0147334 -1.8157597 4288085770
17.329575 2.4910049 -1.8351555 4288085770
5.8833694 0.86045581 -1.8135442 4288085770
18.185637 2.5643582 -1.810377 4288085770
15.64935 2.201262 -1.8667992 4288085770
12.332018 1.7366923 -1.8220381 4288085770
6.9984703 0.99663246 -1.8148103 4288085770
11.191888 1.5695454 -1.8417805 4288085770
5.2142825 0.74095017 -1.8104035 4288085770
17.599516 2.4057996 -1.829284 4288085770
5.0992713 0.72503477 -1.809377 4288085770
5.3212938 0.75486904 -1.8064287 4288085770
5.4473066 0.77177632 -1.8074578 4288085770
6.0213585 0.8473596 -1.8225923 4288085770
5.5693183 0.78668517 -1.805487 4288085770
4.9782586 0.70712221 -1.8053496 4288085770
19.280682 2.6245494 -1.8156787 4288085770
4.8732481 0.69219995 -1.8053256 4288085770
5.7113299 0.80358124 -1.8075211 4288085770
5.860343 0.82147217 -1.809557 4288085770
4.8492427 0.68621987 -1.8093214 4288085770
6.0173554 0.83935767 -1.812595 4288085770
4.9592509 0.69813913 -1.8103484 4288085770
12.856024 1.7453073 -1.8281929 4288085770
6.1743684 0.85724217 -1.8136333 4288085770
5.0712595 0.71005648 -1.8103759 4288085770
16.185333 2.1748664 -1.8709773 4288085770
5.197269 0.72396559 -1.814407 4288085770
6.3463812 0.87511611 -1.8156759 4288085770
7.1574593 0.98051727 -1.8178667 4288085770
5.3182783 0.73587579 -1.8134372 4288085770
6.5133948 0.89199227 -1.8147178 4288085770
11.455862 1.53435 -1.8418794 4288085770
5.4372883 0.7467863 -1.8104675 4288085770
6.7094073 0.9118495 -1.8187666 4288085770
6.8724217 0.92672497 -1.8108081 4288085770
5.5722971 0.75868672 -1.8105019 4288085770
6.1263461 0.82828152 -1.8196335 4288085770
5.7063055 0.77058733 -1.8095363 4288085770
7.0644345 0.94358253 -1.8098575 4288085770
13.42503 1.7538888 -1.8343618 4288085770
17.921457 2.3235579 -1.8264267 4288085770
5.851315 0.7824803 -1.8095739 4288085770
7.2634487 0.96043408 -1.806909 4288085770
7.2974472 0.96141183 -1.8129187 4288085770
16.662308 2.1345072 -1.8621445 4288085770
6.0273242 0.79735398 -1.8166193 4288085770
7.4964628 0.98026288 -1.8089691 4288085770
11.736838 1.4991416 -1.8419837 4288085770
6.1883326 0.80923557 -1.8176619 4288085770
7.7504773 1.0010777 -1.8140352 4288085770
6.2543344 0.81218886 -1.8216803 4288085770
6.3473415 0.82011718 -1.8157043 4288085770
7.9934912 1.019897 -1.812099 4288085770
14.077036 1.7654116 -1.8465543 4288085770
6.5313511 0.8329823 -1.8177533 4288085770
7.4784346 0.94528079 -1.8169818 4288085770
8.2865076 1.0426829 -1.8171759 4288085770
18.331404 2.2512531 -1.8295912 4288085770
6.7323599 0.84683639 -1.8228068 4288085770
17.160282 2.0941315 -1.8523185 4288085770
8.5915232 1.0654597 -1.8222566 4288085770
6.3683219 0.79310352 -1.8177245 4288085770
12.036813 1.4619186 -1.8410949 4288085770
6.9083691 0.85570377 -1.8178556 4288085770
8.9245396 1.0892165 -1.8283453 4288085770
14.827044 1.7828656 -1.8667738 4288085770
7.0743771 0.86257607 -1.8079021 4288085770
7.6524234 0.92815274 -1.8170433 4288085770
9.2225542 1.1069934 -1.8234265 4288085770
7.3033862 0.87540889 -1.811965 4288085770
18.774351 2.1759236 -1.8317677 4288085770
9.6155729 1.133707 -1.8325319 4288085770
17.721254 2.0537088 -1.842512 4288085770
6.4913101 0.77501243 -1.8157707 4288085770
15.60605 1.7952965 -1.8840051 4288085770
7.5203943 0.88524741 -1.8100256 4288085770
12.398789 1.4306525 -1.8462218 4288085770
9.9755888 1.1534394 -1.830631 4288085770
7.8614116 0.91300166 -1.8231148 4288085770
7.7764025 0.89706022 -1.814097 4288085770
10.406605 1.1791234 -1.8367485 4288085770
6.6312985 0.75790966 -1.8158218 4288085770
8.0454102 0.90886319 -1.8181727 4288085770
18.456238 2.0291636 -1.84475 4288085770
16.245045 1.7818187 -1.8782078 4288085770
10.861624 1.2047883 -1.8408736 4288085770
19.291296 2.1045403 -1.8369647 4288085770
12.770765 1.3963779 -1.8493538 4288085770
8.0603991 0.89585543 -1.8241839 4288085770
8.3014183 0.91767275 -1.8162458 4288085770
11.343642 1.2294332 -1.8450073 4288085770
6.7722874 0.74080515 -1.8138733 4288085770
8.5814257 0.92746556 -1.8163257 4288085770
11.819659 1.2510784 -1.8411412 4288085770
16.886032 1.761337 -1.868415 4288085770
19.267221 2.0025606 -1.8460128 4288085770
8.2723875 0.87969881 -1.8242568 4288085770
8.9114332 0.93922424 -1.82242 4288085770
19.825241 2.0291431 -1.8401693 4288085770
13.259742 1.3700225 -1.8645173 4288085770
12.354677 1.2746811 -1.8402919 4288085770
6.930275 0.72368926 -1.8149301 4288085770
9.2094402 0.94500148 -1.8185078 4288085770
13.011699 1.3051989 -1.8504761 4288085770
8.4723749 0.8605485 -1.8193276 4288085770
17.54302 1.7348417 -1.8556304 4288085770
9.5654469 0.95473969 -1.822611 4288085770
13.786719 1.3436388 -1.8796926 4288085770
13.776721 1.3426399 -1.8676901 4288085770
7.1012635 0.70756435 -1.8169904 4288085770
9.9464512 0.96345878 -1.8257226 4288085770
8.7373638 0.84535551 -1.8254163 4288085770
14.700748 1.3879682 -1.8949482 4288085770
18.332005 1.7112521 -1.8508849 4288085770
10.370458 0.97314799 -1.8328468 4288085770
7.2642512 0.68944317 -1.8150493 4288085770
15.634775 1.428284 -1.9132123 4288085770
14.349693 1.3142273 -1.8938806 4288085770
9.024353 0.8311466 -1.8325112 4288085770
4.9540906 0.47315609 -1.8124585 4288085770
10.811462 0.98182404 -1.8389769 4288085770
16.407793 1.4487041 -1.9024379 4288085770
19.353994 1.6994979 -1.8632046 4288085770
7.4752398 0.67529088 -1.8221208 4288085770
11.284469 0.98947561 -1.8441174 4288085770
9.3123398 0.81593519 -1.8366071 4288085770
15.038671 1.2907276 -1.9181042 4288085770
5.0430813 0.45909119 -1.8124924 4288085770
17.172812 1.4601243 -1.8806664 4288085770
11.717469 0.98814988 -1.8362504 4288085770
7.6662283 0.65814978 -1.8221879 4288085770
18.119831 1.4814141 -1.8689451 4288085770
9.639328 0.80169582 -1.8427144 4288085770
5.1350708 0.44402462 -1.8135277 4288085770
15.652644 1.2562745 -1.926311 4288085770
12.265472 0.99274552 -1.8414156 4288085770
19.309855 1.511529 -1.8682936 4288085770
7.8612156 0.64000446 -1.8202568 4288085770
9.9223185 0.78348339 -1.8378105 4288085770
12.830473 0.99332571 -1.8415883 4288085770
5.2340598 0.42995268 -1.8145649 4288085770
16.248615 1.2118295 -1.9245179 4288085770
8.0822048 0.62384099 -1.8203328 4288085770
13.533475 0.99980986 -1.8548002 4288085770
10.296306 0.76920927 -1.8449324 4288085770
5.3270512 0.41588306 -1.8116001 4288085770
8.3271923 0.60766149 -1.8244158 4288085770
14.363475 1.0072037 -1.8760506 4288085770
10.706295 0.75590885 -1.853065 4288085770
16.776583 1.1594276 -1.9087082 4288085770
5.4330411 0.40180585 -1.8126394 4288085770
8.5571795 0.58948898 -1.8204957 4288085770
15.298474 1.0155213 -1.901333 4288085770
11.130282 0.74059588 -1.8572031 4288085770
5.5380316 0.38672778 -1.8106791 4288085770
17.349548 1.105992 -1.8929131 4288085770
8.8461666 0.57327712 -1.8255926 4288085770
16.140471 1.0088967 -1.9055948 4288085770
11.59227 0.72525537 -1.8633529 4288085770
5.6450214 0.37164819 -1.8087193 4288085770
9.1601543 0.55804706 -1.8316967 4288085770
16.873465 0.98934197 -1.8888305 4288085770
18.137516 1.0584036 -1.8911811 4288085770
12.080258 0.70989394 -1.8665107 4288085770
5.0529804 0.31909266 -1.8155652 4288085770
5.7700109 0.35755658 -1.8097647 4288085770
9.4601412 0.53982377 -1.8307983 4288085770
17.664452 0.96574283 -1.8700863 4288085770
12.480247 0.6875875 -1.8496455 4288085770
19.083481 1.0137007 -1.8964962 4288085770
5.8950014 0.34346443 -1.8098099 4288085770
5.1639709 0.30601218 -1.8176057 4288085770
9.77913 0.52158564 -1.8289059 4288085770
18.841438 0.95187175 -1.8814555 4288085770
13.030236 0.6701771 -1.8478237 4288085770
5.2639623 0.29293764 -1.8156428 4288085770
6.0249901 0.32836857 -1.8098574 4288085770
10.187118 0.50728798 -1.8400384 4288085770
13.687224 0.65569156 -1.8550332 4288085770
6.1669807 0.31426367 -1.809908 4288085770
5.385952 0.27984983 -1.8196868 4288085770
10.558105 0.48901093 -1.8381621 4288085770
14.498212 0.64509583 -1.8712881 4288085770
5.4949436 0.26676801 -1.8167266 4288085770
6.2999711 0.29916388 -1.8069564 4288085770
10.975092 0.47170061 -1.8382993 4288085770
15.407199 0.63442755 -1.8885732 4288085770
5.6079345 0.25368363 -1.814768 4288085770
6.4659595 0.28504249 -1.8100145 4288085770
11.472077 0.4543342 -1.8454614 4288085770
16.29719 0.61876577 -1.8918552 4288085770
5.7329254 0.24059077 -1.8138127 4288085770
6.6279502 0.27092251 -1.8100715 4288085770
11.982064 0.43695539 -1.8476273 4288085770
17.202179 0.59908706 -1.8841444 4288085770
5.8539171 0.22749983 -1.8108565 4288085770
6.8059397 0.25679156 -1.8121333 4288085770
12.481052 0.41758052 -1.8417912 4288085770
18.297169 0.58327025 -1.8834898 4288085770
6.9909286 0.24265532 -1.8141975 4288085770
6.0049071 0.21438961 -1.8139095 4288085770
13.085038 0.39913192 -1.8449869 4288085770
19.632156 0.56927967 -1.8929083 4288085770
6.1388988 0.2012883 -1.8099573 4288085770
7.1839185 0.22751205 -1.8142645 4288085770
13.742026 0.38064224 -1.8451989 4288085770
6.3108888 0.18916331 -1.8150163 4288085770
7.3859072 0.21336146 -1.813334 4288085770
14.55501 0.36404285 -1.858458 4288085770
6.4598808 0.17605127 -1.8120688 4288085770
7.611896 0.198195 -1.8164113 4288085770
14.960998 0.33873057 -1.8405968 4288085770
14.079986 0.32138342 -1.8333349 4288085770
15.983008 0.35797471 -1.8519008 4288085770
13.294974 0.30396575 -1.8281028 4288085770
15.482994 0.34635806 -1.8727533 4288085770
17.066023 0.37516767 -1.8522247 4288085770
12.603963 0.28747803 -1.822899 4288085770
18.356037 0.39521155 -1.8626109 4288085770
11.998953 0.27192828 -1.8217213 4288085770
19.747049 0.41317436 -1.8620294 4288085770
11.43694 0.25634551 -1.8185568 4288085770
10.745928 0.23785831 -1.8143542 4288085770
10.93893 0.24071603 -1.8174119 4288085770
10.292921 0.22919591 -1.8142194 4288085770
11.270932 0.24647017 -1.820511 4288085770
6.6498699 0.16391273 -1.8171334 4288085770
11.818938 0.25506285 -1.822675 4288085770
9.8629131 0.21951534 -1.8120923 4288085770
7.8548856 0.18401583 -1.8194933 4288085770
12.418944 0.26161575 -1.8228561 4288085770
9.4829082 0.2097985 -1.8119805 4288085770
10.471917 0.22506358 -1.8162766 4288085770
16.341982 0.32471377 -1.8660295 4288085770
13.079947 0.2681241 -1.8250561 4288085770
9.1209011 0.20006727 -1.8098743 4288085770
13.857951 0.27454835 -1.833292 4288085770
8.8278913 0.19028927 -1.8167893 4288085770
10.035908 0.20938744 -1.8141508 4288085770
14.671953 0.27894306 -1.8365402 4288085770
8.5088844 0.17952552 -1.8136969 4288085770
9.6628962 0.19466598 -1.8150439 4288085770
6.8358603 0.15077506 -1.8181975 4288085770
15.622956 0.28323722 -1.8428307 4288085770
8.1088724 0.16882834 -1.8225796 4288085770
8.2368755 0.16972986 -1.8166184 4288085770
17.459965 0.30488339 -1.8733845 4288085770
16.701956 0.28543687 -1.8511618 4288085770
9.3018847 0.1789351 -1.8149412 4288085770
7.9398699 0.15894824 -1.8105328 4288085770
17.933954 0.28652236 -1.8595406 4288085770
8.9848719 0.16417301 -1.8178514 4288085770
7.6958599 0.14713126 -1.8124639 4288085770
7.0288515 0.1376316 -1.8182636 4288085770
8.3628626 0.15463874 -1.8216652 4288085770
18.729948 0.28494009 -1.8817866 4288085770
19.276955 0.28352234 -1.8629558 4288085770
7.4588518 0.1363081 -1.8123966 4288085770
8.6628618 0.14941159 -1.8147602 4288085770
7.2198439 0.125488 -1.8153288 4288085770
7.2258449 0.12448044 -1.8093312 4288085770
8.6558523 0.13942154 -1.8237635 4288085770
8.3698511 0.13462962 -1.8136778 4288085770
7.0288358 0.11362907 -1.8122761 4288085770
8.1028404 0.12082937 -1.814603 4288085770
7.4568324 0.11331417 -1.820408 4288085770
8.9538403 0.12420003 -1.8248632 4288085770
6.8348274 0.10177448 -1.8132224 4288085770
7.8348317 0.10602732 -1.8105283 4288085770
7.6938229 0.10013875 -1.822488 4288085770
9.2848291 0.10895385 -1.8259732 4288085770
6.6278195 0.089926541 -1.808165 4288085770
7.6018195 0.091201827 -1.8114642 4288085770
7.9288158 0.08796218 -1.8195666 4288085770
6.4588113 0.079053909 -1.8101186 4288085770
9.6318178 0.093695149 -1.8260883 4288085770
7.3698096 0.076374099 -1.8094006 4288085770
8.2128048 0.075753614 -1.8256606 4288085770
6.2898026 0.067179799 -1.8090726 4288085770
9.9868088 0.078428358 -1.8222057 4288085770
7.1538 0.062534466 -1.8073413 4288085770
8.5027943 0.063538507 -1.8277563 4288085770
10.425796 0.063104004 -1.8283492 4288085770
6.1257944 0.055302005 -1.8080281 4288085770
8.7847872 0.051326703 -1.8248496 4288085770
6.9627886 0.047677819 -1.80829 4288085770
10.880784 0.047766086 -1.8314977 4288085770
5.9817853 0.043410886 -1.80999 4288085770
9.1187773 0.040079158 -1.8279586 4288085770
11.361772 0.032407682 -1.8326541 4288085770
6.77178 0.034820143 -1.807238 4288085770
9.4527693 0.027828466 -1.825068 4288085770
5.8317771 0.032522704 -1.8089494 4288085770
11.898761 0.017007943 -1.834828 4288085770
9.8447609 0.016538586 -1.8301948 4288085770
12.486748 0.00056958944 -1.8360181 4288085770
6.5857706 0.020958301 -1.8051878 4288085770
10.232753 0.0052480213 -1.8283206 4288085770
5.6767712 0.02063578 -1.8029075 4288085770
13.179733 -0.015943579 -1.8442408 4288085770
10.683744 -0.0060875192 -1.8304657 4288085770
13.901722 -0.032481536 -1.8464723 4288085770
11.172736 -0.017451465 -1.8326226 4288085770
6.4177608 0.0070835985 -1.8041432 4288085770
11.689728 -0.027836848 -1.8337877 4288085770
14.759706 -0.049117431 -1.8557459 4288085770
5.5797586 0.0087143593 -1.8138837 4288085770
18.900682 -0.08420375 -1.8660419 4288085770
12.296719 -0.038287371 -1.8389804 4288085770
15.675694 -0.066799253 -1.8600379 4288085770
12.94171 -0.048766807 -1.8431852 4288085770
19.038666 -0.097296715 -1.8860916 4288085770
13.684701 -0.058318868 -1.8484194 4288085770
17.665672 -0.091277108 -1.8756648 4288085770
16.719681 -0.084577166 -1.8633696 4288085770
14.495692 -0.067921698 -1.8536748 4288085770
15.415686 -0.075605355 -1.8599626 4288085770
16.470682 -0.084389262 -1.8672928 4288085770
17.575674 -0.098218843 -1.858641 4288085770
17.956665 -0.10249554 -1.8737608 4288085770
19.385647 -0.12155672 -1.8852119 4288085770
6.2707486 -0.0078041106 -1.8081053 4288085770
5.4567485 -0.004192695 -1.8148525 4288085770
16.394665 -0.1113423 -1.8492841 4288085770
15.360656 -0.12457487 -1.8409723 4288085770
6.1247382 -0.02169409 -1.8090676 4288085770
5.3347402 -0.016101006 -1.8148208 4288085770
14.509645 -0.13893983 -1.8407178 4288085770
5.9787278 -0.035584509 -1.8090295 4288085770
5.2227316 -0.028016735 -1.8147922 4288085770
13.714634 -0.15334907 -1.8354802 4288085770
19.417551 -0.2595925 -1.8682978 4288085770
13.010626 -0.16682513 -1.8322704 4288085770
5.8507175 -0.0494873 -1.8109971 4288085770
18.038544 -0.27156797 -1.8588789 4288085770
12.356617 -0.18133996 -1.8260763 4288085770
5.7037086 -0.063379422 -1.8059587 4288085770
16.865536 -0.28569502 -1.8535248 4288085770
11.806606 -0.19492875 -1.8269138 4288085770
15.836525 -0.29892945 -1.8482144 4288085770
5.5846987 -0.077289321 -1.8069291 4288085770
11.292597 -0.20954536 -1.8257631 4288085770
14.922517 -0.31225017 -1.8419396 4288085770
10.840585 -0.22520664 -1.827632 4288085770
5.4806867 -0.091208324 -1.8119041 4288085770
14.103506 -0.32664067 -1.8376945 4288085770
10.403574 -0.23888113 -1.8255042 4288085770
19.37138 -0.48856023 -1.8744097 4288085770
19.623363 -0.49973625 -1.8984936 4288085770
5.3686767 -0.10512385 -1.8118763 4288085770
13.373499 -0.34009755 -1.8334764 4288085770
10.045562 -0.25461039 -1.8314021 4288085770
18.26136 -0.50772387 -1.8890775 4288085770
18.117361 -0.51762891 -1.8650385 4288085770
12.760487 -0.35463959 -1.833295 4288085770
5.2636662 -0.11904402 -1.8128507 4288085770
9.6765509 -0.26933497 -1.8302958 4288085770
17.010359 -0.5117957 -1.8766935 4288085770
12.165479 -0.36919707 -1.8291191 4288085770
17.056339 -0.54683995 -1.858727 4288085770
5.1626558 -0.13296714 -1.8138266 4288085770
15.993356 -0.51503801 -1.8723812 4288085770
9.3275404 -0.28307545 -1.8271952 4288085770
11.666468 -0.3838231 -1.8309727 4288085770
15.055358 -0.51534021 -1.8660917 4288085770
9.0185299 -0.29784364 -1.8281076 4288085770
16.089321 -0.57412112 -1.8524432 4288085770
14.200362 -0.51370478 -1.8588266 4288085770
11.194454 -0.39947018 -1.8308351 4288085770
8.7175207 -0.31261978 -1.8250222 4288085770
13.453365 -0.51114833 -1.8545942 4288085770
15.270299 -0.60150993 -1.8512052 4288085770
10.781443 -0.41515979 -1.8337159 4288085770
12.793367 -0.50765538 -1.8533883 4288085770
8.43151 -0.32640666 -1.8229409 4288085770
12.157373 -0.50218225 -1.8481886 4288085770
19.208122 -0.82343352 -1.8985438 4288085770
10.379432 -0.42985904 -1.8335994 4288085770
14.524282 -0.62695467 -1.8469886 4288085770
11.594379 -0.49576259 -1.845011 4288085770
17.843147 -0.79341847 -1.8871056 4288085770
5.2396054 -0.20001851 -1.8198845 4288085770
8.1745005 -0.34121394 -1.8228691 4288085770
11.117381 -0.49140409 -1.8478612 4288085770
16.648172 -0.76552987 -1.876721 4288085770
5.3535948 -0.21410342 -1.8199272 4288085770
9.987421 -0.44456717 -1.8304859 4288085770
10.648387 -0.48405364 -1.8467119 4288085770
15.63719 -0.74077618 -1.8713949 4288085770
13.833266 -0.65144145 -1.8407882 4288085770
5.4745841 -0.22919363 -1.8199724 4288085770
7.9264903 -0.35602948 -1.8198 4288085770
10.233391 -0.47774196 -1.84858 4288085770
14.719211 -0.71609241 -1.8650975 4288085770
5.593574 -0.24328338 -1.8180168 4288085770
9.8193998 -0.46843356 -1.8454466 4288085770
9.6594086 -0.46032047 -1.8323927 4288085770
13.899229 -0.69348145 -1.8598315 4288085770
5.7245641 -0.25738114 -1.8180647 4288085770
9.431407 -0.45914513 -1.8413215 4288085770
7.7014799 -0.36986062 -1.8197374 4288085770
13.181245 -0.67194551 -1.8565975 4288085770
5.2355771 -0.23701063 -1.825902 4288085770
13.245247 -0.67700177 -1.8406203 4288085770
5.8695526 -0.27248839 -1.8201176 4288085770
9.0864143 -0.44988677 -1.8412097 4288085770
19.980953 -1.0560218 -1.8889111 4288085770
5.3585677 -0.24910247 -1.8259466 4288085770
12.514263 -0.64944887 -1.8513789 4288085770
8.7444239 -0.43963265 -1.837098 4288085770
6.0125418 -0.28759572 -1.8191698 4288085770
9.3204002 -0.47406858 -1.8282951 4288085770
5.4845595 -0.26019663 -1.8259915 4288085770
19.98093 -1.0820187 -1.8959253 4288085770
8.4524298 -0.4304134 -1.8380027 4288085770
11.929279 -0.63001144 -1.8501874 4288085770
6.1625309 -0.30170786 -1.8192238 4288085770
5.6145511 -0.27229428 -1.8250381 4288085770
8.1484404 -0.41918826 -1.8329024 4288085770
19.013956 -1.0452939 -1.8976063 4288085770
11.379294 -0.60960114 -1.847006 4288085770
5.7455435 -0.28339383 -1.8220845 4288085770
7.4904695 -0.38470218 -1.8196797 4288085770
6.3285184 -0.31783089 -1.8212837 4288085770
7.8824472 -0.40898901 -1.8328143 4288085770
5.8935347 -0.295504 -1.8231369 4288085770
7.6294556 -0.3978 -1.8317298 4288085770
10.937304 -0.59326661 -1.8538603 4288085770
6.4885092 -0.33195218 -1.818341 4288085770
6.0455265 -0.30661824 -1.8221899 4288085770
12.707229 -0.70059991 -1.8394666 4288085770
7.3994632 -0.38762766 -1.831653 4288085770
6.2145162 -0.3187432 -1.8252488 4288085770
7.1684728 -0.37545565 -1.8295748 4288085770
18.749947 -1.0661057 -1.8805361 4288085770
6.3825083 -0.32986954 -1.8243068 4288085770
10.46232 -0.57291335 -1.848702 4288085770
6.9564815 -0.3642973 -1.8285033 4288085770
6.7574902 -0.35314882 -1.8274355 4288085770
6.6884942 -0.34909868 -1.824412 4288085770
9.021389 -0.48884496 -1.8272102 4288085770
6.5614991 -0.34200305 -1.8253688 4288085770
6.8814836 -0.36424258 -1.8254799 4288085770
10.024337 -0.55358744 -1.8445561 4288085770
9.637351 -0.53529805 -1.8434261 4288085770
7.0774713 -0.38038984 -1.8245492 4288085770
9.2693663 -0.51702392 -1.8403021 4288085770
7.3044572 -0.39755774 -1.8286288 4288085770
8.9293795 -0.49876973 -1.839187 4288085770
7.5294452 -0.41372675 -1.8277073 4288085770
8.5893955 -0.47951865 -1.8320712 4288085770
7.292459 -0.39955333 -1.8196261 4288085770
7.7724338 -0.42990819 -1.8287914 4288085770
8.3074074 -0.46330693 -1.832975 4288085770
8.0334196 -0.4471027 -1.8308814 4288085770
17.917948 -1.0594785 -1.8902752 4288085770
18.993898 -1.1312861 -1.8876475 4288085770
8.7293806 -0.50362808 -1.8231275 4288085770
12.206213 -0.72522616 -1.8373247 4288085770
17.637943 -1.0762804 -1.869198 4288085770
7.1134462 -0.41541761 -1.8215787 4288085770
16.903944 -1.0707238 -1.8829678 4288085770
8.4743681 -0.51943618 -1.8240567 4288085770
18.107866 -1.1776285 -1.8793992 4288085770
11.754195 -0.74788892 -1.8351971 4288085770
16.695934 -1.0895784 -1.8639139 4288085770
6.9294362 -0.43028012 -1.8195294 4288085770
16.003937 -1.0780531 -1.8776935 4288085770
8.2353573 -0.53425664 -1.8239903 4288085770
11.347178 -0.77258354 -1.8360841 4288085770
15.891921 -1.1069776 -1.8626746 4288085770
6.7634254 -0.44515502 -1.8194853 4288085770
17.303837 -1.2210326 -1.8701743 4288085770
15.208932 -1.0844593 -1.8754508 4288085770
7.9973478 -0.54907936 -1.8209243 4288085770
10.97016 -0.79630059 -1.8369802 4288085770
6.6024156 -0.45903409 -1.8184426 4288085770
15.152909 -1.1224263 -1.8594544 4288085770
14.468933 -1.0869074 -1.8712231 4288085770
7.7923355 -0.56492406 -1.8228688 4288085770
16.603802 -1.2655122 -1.8649822 4288085770
6.4434056 -0.4739151 -1.8164006 4288085770
10.63514 -0.82104796 -1.8398894 4288085770
14.500896 -1.140939 -1.8582625 4288085770
13.783934 -1.0873963 -1.8670112 4288085770
7.595324 -0.58077532 -1.8238161 4288085770
16.014771 -1.311072 -1.864825 4288085770
6.314393 -0.48981544 -1.8203688 4288085770
13.165934 -1.0879339 -1.8658198 4288085770
10.333121 -0.84581918 -1.8438091 4288085770
13.886888 -1.1554818 -1.8530802 4288085770
7.4023137 -0.59563053 -1.8227636 4288085770
6.1763821 -0.50471103 -1.8203334 4288085770
12.586936 -1.084502 -1.8616382 4288085770
15.49673 -1.3586835 -1.8676907 4288085770
10.018104 -0.86758387 -1.8417228 4288085770
7.2163033 -0.61049128 -1.8207134 4288085770
13.348871 -1.1750786 -1.8529241 4288085770
19.040461 -1.7013183 -1.9179771 4288085770
12.036942 -1.079091 -1.8584647 4288085770
6.0433712 -0.51961076 -1.8192995 4288085770
17.856495 -1.6574351 -1.9095862 4288085770
7.0422921 -0.62636089 -1.8186674 4288085770
12.84786 -1.1927043 -1.8507782 4288085770
9.7350874 -0.89137131 -1.8416479 4288085770
14.959701 -1.4002844 -1.8625469 4288085770
11.530949 -1.0737134 -1.8543046 4288085770
5.9263597 -0.53552097 -1.8212711 4288085770
16.787533 -1.6146386 -1.9002315 4288085770
6.89328 -0.64224678 -1.8216292 4288085770
11.078952 -1.0673741 -1.8541607 4288085770
12.379848 -1.209355 -1.8476422 4288085770
9.4320755 -0.91014725 -1.8345635 4288085770
15.827562 -1.5739224 -1.8919115 4288085770
14.519667 -1.4459542 -1.8644357 4288085770
5.8083487 -0.55043131 -1.8212417 4288085770
10.708949 -1.0670922 -1.8620455 4288085770
6.7442679 -0.65913403 -1.8215915 4288085770
14.963593 -1.5362779 -1.8846229 4288085770
11.953835 -1.2280365 -1.84552 4288085770
9.2150555 -0.93598086 -1.8405098 4288085770
10.291958 -1.05778 -1.8599107 4288085770
5.6913385 -0.56534338 -1.8192127 4288085770
14.106634 -1.4896445 -1.8653314 4288085770
14.186622 -1.499698 -1.8783618 4288085770
6.5902572 -0.67401856 -1.8195511 4288085770
9.915966 -1.0494986 -1.8577893 4288085770
19.934168 -2.1660898 -1.7415113 4293729569
11.615815 -1.2527797 -1.8514283 4288085770
8.9730396 -0.95779973 -1.838446 4288085770
13.508646 -1.46919 -1.8761346 4288085770
5.5953245 -0.58226812 -1.8231914 4288085770
9.5449743 -1.0382222 -1.8526677 4288085770
6.4512458 -0.68991375 -1.8185159 4288085770
13.7356 -1.5333657 -1.8672404 4288085770
12.862672 -1.4357074 -1.8709157 4288085770
9.2089825 -1.0279701 -1.8515573 4288085770
17.214369 -1.9701369 -1.5685599 4293729569
11.217806 -1.2674851 -1.8433125 4288085770
8.7560225 -0.98063618 -1.8383907 4288085770
5.490314 -0.59718794 -1.823166 4288085770
12.248699 -1.4022498 -1.8637066 4288085770
17.275354 -2.0082045 -1.5275999 4293729569
6.3222351 -0.70581532 -1.8194836 4288085770
8.9009905 -1.0177385 -1.8514558 4288085770
17.204332 -2.0361528 -1.5255934 4293729569
11.735721 -1.3748645 -1.8635321 4288085770
13.389567 -1.577106 -1.8681567 4288085770
10.873794 -1.285228 -1.840215 4288085770
8.5999994 -1.0065129 -1.8493557 4288085770
8.5420074 -1.0014755 -1.8373349 4288085770
5.3933024 -0.61311334 -1.8241436 4288085770
16.854315 -2.0328541 -1.5954829 4293729569
11.200747 -1.3414663 -1.8553475 4288085770
6.2022223 -0.7217235 -1.8204544 4288085770
8.3090096 -0.99429518 -1.8462584 4288085770
17.056282 -2.1000373 -1.5365827 4293729569
10.720773 -1.3111089 -1.8481816 4288085770
16.89827 -2.1039062 -1.5615358 4293729569
13.057534 -1.6198567 -1.869077 4288085770
10.544784 -1.3029828 -1.8361223 4288085770
5.2992916 -0.62804139 -1.8241217 4288085770
8.0490198 -0.98309988 -1.8451711 4288085770
8.347991 -1.0243295 -1.8362865 4288085770
10.309791 -1.2857993 -1.8490397 4288085770
6.0832105 -0.73763347 -1.8194252 4288085770
16.576254 -2.103631 -1.6264359 4293729569
7.7910299 -0.96990639 -1.8430833 4288085770
9.9358082 -1.2625169 -1.8509103 4288085770
16.745224 -2.1778061 -1.5355291 4293729569
7.5500407 -0.9567259 -1.8410008 4288085770
16.60321 -2.169667 -1.5984807 4293729569
5.2092805 -0.6439718 -1.8251015 4288085770
10.286762 -1.327786 -1.8410552 4288085770
12.732506 -1.6596138 -1.8669977 4288085770
8.1589746 -1.0461872 -1.8352391 4288085770
9.599822 -1.2412618 -1.854794 4288085770
17.043402 -2.2514124 -0.8006621 4293729569
5.972199 -0.75454837 -1.820399 4288085770
17.040384 -2.2563884 -0.84266394 4293729569
7.3210502 -0.94455421 -1.8389226 4288085770
16.385181 -2.1834702 -1.6634207 4293729569
17.011389 -2.2753975 -0.78366548 4293729569
9.2448435 -1.215996 -1.8516697 4288085770
17.022625 -2.2858076 -0.0086743059 4293729569
16.972485 -2.2895401 -0.45266107 4293729569
7.1170588 -0.9333998 -1.8398527 4288085770
8.9248619 -1.1917555 -1.8505565 4288085770
16.983601 -2.319778 -0.010680993 4293729569
10.020747 -1.3485863 -1.8399836 4288085770
16.432137 -2.247515 -1.6474707 4293729569
16.709131 -2.2907703 -1.5565804 4293729569
7.98596 -1.0680562 -1.8351966 4288085770
5.868186 -0.7714684 -1.8213751 4288085770
6.9140692 -0.92024708 -1.8387821 4288085770
12.452475 -1.7024038 -1.8669339 4288085770
16.953297 -2.3472936 -0.90268725 4293729569
8.6128826 -1.1665226 -1.8464454 4288085770
16.937317 -2.356324 -0.82168734 4293729569
16.134117 -2.252269 -1.6903807 4293729569
6.7210789 -0.90710187 -1.8377144 4288085770
8.3398981 -1.1453159 -1.8483487 4288085770
16.951298 -2.3873446 -0.80370879 4293729569
16.937542 -2.3917339 -0.032706533 4293729569
16.932411 -2.4005296 -0.41971004 4293729569
6.5250916 -0.89295602 -1.8336455 4288085770
9.7797298 -1.3714042 -1.8409206 4288085770
8.0649147 -1.1221099 -1.8452501 4288085770
5.7641745 -0.78738946 -1.8203505 4288085770
16.184076 -2.3113084 -1.6884289 4293729569
7.8249421 -1.0909343 -1.8351583 4288085770
6.3501015 -0.87982386 -1.8335836 4288085770
16.802027 -2.4218273 -1.586682 4293729569
16.954199 -2.448262 -0.96974349 4293729569
12.169444 -1.7421925 -1.8648674 4288085770
7.7969346 -1.0979095 -1.8421533 4288085770
6.1871104 -0.86770016 -1.8345257 4288085770
16.955214 -2.4793251 -0.85076094 4293729569
15.826067 -2.3120291 -1.708318 4293729569
7.5669508 -1.0767359 -1.8420699 4288085770
6.0381188 -0.85558653 -1.8364725 4288085770
17.015194 -2.5183823 -0.8288011 4293729569
5.6701627 -0.80331641 -1.8223292 4288085770
7.3359675 -1.0555627 -1.8399861 4288085770
16.977436 -2.5177517 -0.060788702 4293729569
9.5437155 -1.3922269 -1.8398581 4288085770
17.023325 -2.5286164 -0.38880914 4293729569
15.825032 -2.3540251 -1.7163409 4293729569
7.6649261 -1.1138136 -1.8341203 4288085770
5.8701315 -0.84046215 -1.8314115 4288085770
7.1159849 -1.0333983 -1.8369052 4288085770
5.7211428 -0.82635063 -1.8293571 4288085770
11.743442 -1.7558866 -1.8367422 4288085770
6.9210005 -1.0132501 -1.8388333 4288085770
16.844923 -2.5478487 -1.6117649 4293729569
5.5891514 -0.81424928 -1.8323092 4288085770
6.7260156 -0.99310398 -1.8367612 4288085770
15.517019 -2.3687904 -1.7232535 4293729569
5.4621601 -0.80215269 -1.8332628 4288085770
5.5691519 -0.81924057 -1.8193054 4288085770
6.5370321 -0.97196239 -1.8346907 4288085770
9.3376961 -1.4170697 -1.8428071 4288085770
15.350014 -2.3726609 -1.7312037 4293729569
5.3371696 -0.78905773 -1.8342164 4288085770
7.5179095 -1.135702 -1.8340858 4288085770
6.3440514 -0.94982028 -1.8276182 4288085770
5.2111807 -0.77596343 -1.8321699 4288085770
6.1930633 -0.93270475 -1.8305616 4288085770
6.043076 -0.91459036 -1.8325047 4288085770
11.192466 -1.7464975 -1.7865652 4288085770
17.026798 -2.6959691 -1.6489036 4293729569
5.8920903 -0.89647686 -1.8314477 4288085770
5.7451053 -0.87736696 -1.8293912 4288085770
5.4901376 -0.83717769 -1.8232898 4288085770
15.11599 -2.4064889 -1.7251495 4293729569
5.6021204 -0.85826045 -1.826336 4288085770
9.1646729 -1.4449359 -1.8487679 4288085770
5.4711347 -0.8401621 -1.8252852 4288085770
14.855 -2.384284 -1.7410561 4293729569
5.3601446 -0.82507563 -1.8302423 4288085770
5.2331595 -0.80598128 -1.8271922 4288085770
7.3848901 -1.1605999 -1.8360573 4288085770
10.749476 -1.7481834 -1.7484279 4293729569
5.4061255 -0.85411304 -1.8232719 4288085770
17.044697 -2.821975 -1.6679789 4293729569
14.800951 -2.4552488 -1.7320784 4293729569
8.9656572 -1.4657859 -1.8477169 4288085770
14.272011 -2.3728468 -1.7378683 4293729569
7.2468758 -1.1814959 -1.8340249 4288085770
5.3261123 -0.87105078 -1.8242552 4288085770
10.476463 -1.7729844 -1.7353559 4293729569
8.7696428 -1.486639 -1.8446666 4288085770
17.095591 -2.9530051 -1.6890675 4293729569
13.649034 -2.3473845 -1.7256604 4293729569
14.34594 -2.4759135 -1.7199483 4293729569
7.1218572 -1.2054001 -1.8349981 4288085770
5.2490997 -0.88799077 -1.8252395 4288085770
10.275438 -1.8078347 -1.731312 4293729569
13.096054 -2.3249719 -1.7174757 4293729569
8.6056242 -1.5115139 -1.8466284 4288085770
17.076498 -3.0719867 -1.7011275 4293729569
14.056905 -2.5196948 -1.7228823 4293729569
7.0208373 -1.2313204 -1.83998 4288085770
12.48209 -2.2855186 -1.6982626 4293729569
10.072415 -1.8406847 -1.7252662 4293729569
8.4526052 -1.5363966 -1.8485937 4288085770
6.90382 -1.2542315 -1.8389554 4288085770
13.713883 -2.5514402 -1.7167931 4293729569
16.996416 -3.1809266 -1.7051632 4293729569
18.818096 -3.5912895 -1.7339575 4293729569
8.3045874 -1.5612838 -1.8495606 4288085770
9.8643961 -1.8705325 -1.7152172 4293729569
6.788805 -1.2761451 -1.8359305 4288085770
13.379863 -2.5801928 -1.7097046 4293729569
16.947327 -3.2958887 -1.7112117 4293729569
10.780278 -2.0882974 -1.5756227 4293729569
17.735186 -3.4794807 -1.7195587 4293729569
8.1655674 -1.5871778 -1.8505307 4288085770
9.6943703 -1.905406 -1.7111828 4293729569
6.6867876 -1.3000662 -1.8369108 4288085770
10.678308 -2.1233146 -1.3936098 4293729569
10.458278 -2.0830505 -1.5825189 4293729569
16.867249 -3.3978262 -1.7192433 4293729569
16.903238 -3.4098551 -1.7162613 4293729569
8.0405455 -1.6140809 -1.8535057 4288085770
6.5987673 -1.3249971 -1.8398962 4288085770
9.5303469 -1.9402844 -1.7061503 4293729569
10.283254 -2.103904 -1.6094754 4293729569
16.055305 -3.3192146 -1.717947 4293729569
10.560267 -2.1742208 -1.4036005 4293729569
10.601354 -2.194416 -1.0876242 4293729569
7.9095259 -1.6399804 -1.8544784 4288085770
10.527308 -2.2133095 -1.1856112 4293729569
10.090235 -2.1197455 -1.6334234 4293729569
6.4997516 -1.3479221 -1.8378769 4288085770
10.577485 -2.2316568 -0.59063673 4293729569
9.4043169 -1.9801888 -1.7061323 4293729569
10.451225 -2.2251339 -1.412594 4293729569
10.511409 -2.2525096 -0.77762765 4293729569
10.474319 -2.2443254 -1.0776116 4293729569
10.563553 -2.273807 -0.28165531 4293729569
10.463262 -2.2542367 -1.2326136 4293729569
9.9022188 -2.1315913 -1.656371 4293729569
7.773509 -1.6628784 -1.8514477 4288085770
6.3987346 -1.3708454 -1.8358569 4288085770
10.486442 -2.2895894 -0.58763993 4293729569
9.2882843 -2.0221007 -1.7061186 4293729569
10.410171 -2.2910936 -1.4296172 4293729569
10.428211 -2.3011832 -1.2836283 4293729569
9.7172022 -2.1434395 -1.6793191 4293729569
10.453356 -2.3114526 -0.80264145 4293729569
10.440266 -2.3143001 -1.0766391 4293729569
10.539594 -2.3379352 -0.00068261381 4293729569
10.497501 -2.3297427 -0.30966508 4293729569
7.6534915 -1.6877872 -1.8504231 4288085770
6.3167176 -1.3947822 -1.8358434 4288085770
9.1952496 -2.0680282 -1.7091142 4293729569
10.463387 -2.3625722 -0.58767247 4293729569
10.404158 -2.3491385 -1.3356469 4293729569
9.4672041 -2.1362455 -1.6882367 4293729569
10.382113 -2.360064 -1.4466459 4293729569
10.441295 -2.3804276 -0.83367538 4293729569
10.475442 -2.3957112 -0.33869419 4293729569
10.437209 -2.3902979 -1.0766795 4293729569
10.517537 -2.4119155 -0.0077160811 4293729569
7.5694647 -1.7197193 -1.8574136 4288085770
10.396101 -2.4001033 -1.3916723 4293729569
9.2302065 -2.1300597 -1.6991589 4293729569
6.2376971 -1.42072 -1.8378319 4288085770
9.0712223 -2.1059353 -1.7060957 4293729569
10.474325 -2.4435813 -0.58772016 4293729569
10.370052 -2.432045 -1.4656814 4293729569
10.469225 -2.458431 -0.86872673 4293729569
10.492375 -2.4717071 -0.37174106 4293729569
10.383046 -2.449065 -1.4466949 4293729569
7.4694438 -1.7476416 -1.8593969 4288085770
10.478142 -2.4783268 -1.0817404 4293729569
10.539473 -2.4949288 -0.014768311 4293729569
9.028203 -2.1288984 -1.7140946 4293729569
6.1676769 -1.4466645 -1.8398234 4288085770
8.9561949 -2.1428502 -1.7020794 4293729569
10.368991 -2.4980247 -1.5037172 4293729569
10.390985 -2.5130501 -1.4877322 4293729569
8.7902088 -2.1167138 -1.722013 4293729569
7.3504286 -1.7695529 -1.8543708 4288085770
6.0996571 -1.4726106 -1.8418154 4288085770
10.285954 -2.5279374 -1.5497075 4293729569
8.5362225 -2.0975204 -1.7229223 4293729569
8.8841581 -2.1917934 -1.7060832 4293729569
7.1904259 -1.780439 -1.8383259 4288085770
10.170924 -2.5488293 -1.5906827 4293729569
8.3342276 -2.0883615 -1.7328538 4293729569
6.0286388 -1.4975555 -1.8418057 4288085770
8.7961254 -2.2347264 -1.7050786 4293729569
10.023905 -2.5586984 -1.6276418 4293729569
11.266642 -2.89663 -1.6502174 4293729569
8.094244 -2.0661786 -1.7337657 4293729569
6.9894366 -1.7783003 -1.8102609 4288085770
5.9616194 -1.5235026 -1.842798 4288085770
9.8338985 -2.5555401 -1.6545802 4293729569
7.8502636 -2.0409946 -1.7306747 4293729569
8.7070932 -2.2766595 -1.7030733 4293729569
11.300565 -2.9886436 -1.6732786 4293729569
6.7994466 -1.7771695 -1.7821997 4288085770
9.6029053 -2.5383546 -1.6734982 4293729569
7.6482763 -2.0228388 -1.733601 4293729569
5.9025984 -1.5504552 -1.8447932 4288085770
9.346921 -2.5121536 -1.686403 4293729569
8.6540537 -2.3276167 -1.7070841 4293729569
7.4272952 -1.9986714 -1.7315178 4293729569
11.242509 -3.0575962 -1.681298 4293729569
6.6434498 -1.7820603 -1.7621526 4293729569
9.0889425 -2.4819529 -1.6953053 4293729569
5.8415794 -1.5764074 -1.8447872 4288085770
7.19732 -1.9684995 -1.7254285 4293729569
8.5930195 -2.3745687 -1.7080901 4293729569
8.8339634 -2.4497547 -1.703207 4293729569
6.5074496 -1.7899646 -1.7451135 4293729569
11.16446 -3.1205351 -1.6853082 4293729569
7.0183334 -1.9503613 -1.7283618 4293729569
5.7845592 -1.6023622 -1.8457828 4288085770
8.596983 -2.4195702 -1.7111158 4293729569
8.5439777 -2.4265299 -1.7111028 4293729569
6.8323503 -1.9282194 -1.7282907 4293729569
6.4114375 -1.808894 -1.7380927 4293729569
11.073416 -3.1774664 -1.6853108 4293729569
8.3710022 -2.390394 -1.7190284 4293729569
5.7225423 -1.6263146 -1.8437754 4288085770
6.6943545 -1.9181085 -1.7382411 4293729569
8.1950111 -2.3732507 -1.7359632 4293729569
8.4889412 -2.4744871 -1.7121112 4293729569
6.3264232 -1.8298309 -1.7330766 4293729569
10.997368 -3.2394075 -1.6873209 4293729569
6.5393672 -1.9009879 -1.7421825 4293729569
7.9940281 -2.3460922 -1.745885 4293729569
5.6765208 -1.6542764 -1.8467753 4288085770
6.3843803 -1.8818676 -1.7451228 4293729569
7.7950468 -2.3179371 -1.7528064 4293729569
6.2684021 -1.857785 -1.7340728 4293729569
8.4479017 -2.5264537 -1.7141265 4293729569
10.936319 -3.3033605 -1.6893368 4293729569
6.2213984 -1.8587435 -1.7440583 4293729569
7.5670767 -2.2787638 -1.7517128 4293729569
5.6264992 -1.6812367 -1.8467734 4288085770
6.0664158 -1.8366253 -1.7429967 4293729569
7.3061199 -2.2265704 -1.7406015 4293729569
6.1973848 -1.8817312 -1.7310627 4293729569
8.4088612 -2.5794225 -1.7161428 4293729569
10.856275 -3.3623004 -1.688344 4293729569
7.0661597 -2.1783924 -1.7304991 4293729569
5.9304276 -1.8195194 -1.7459439 4293729569
5.5714817 -1.7061939 -1.8457686 4288085770
6.8681893 -2.1412413 -1.7294159 4293729569
6.0963802 -1.8946598 -1.7180371 4293729569
5.7954426 -1.7994149 -1.7478899 4293729569
8.3688202 -2.6313908 -1.7171582 4293729569
10.803225 -3.4272602 -1.689363 4293729569
6.6672196 -2.1020906 -1.7243308 4293729569
5.5344582 -1.7361627 -1.8487724 4288085770
5.6944461 -1.7903314 -1.7588525 4293729569
6.4892473 -2.0669551 -1.7232548 4293729569
6.0353618 -1.919613 -1.7160307 4293729569
5.6214414 -1.788265 -1.7778279 4288085770
8.3277807 -2.6823592 -1.7171729 4293729569
10.763169 -3.4982278 -1.6923894 4293729569
6.3132763 -2.030822 -1.7201791 4293729569
5.4804411 -1.7601215 -1.8457675 4288085770
5.5474386 -1.7851989 -1.7948024 4288085770
6.1532993 -1.9996995 -1.7201111 4293729569
5.9873405 -1.9485749 -1.7160305 4293729569
5.4834318 -1.7851388 -1.8147815 4288085770
8.2987385 -2.7383354 -1.7191941 4293729569
10.727114 -3.5701997 -1.6944176 4293729569
6.0013237 -1.9685831 -1.7200456 4293729569
5.3984346 -1.7740642 -1.8327482 4288085770
5.4024329 -1.7780691 -1.8287517 4288085770
5.8483491 -1.9354669 -1.7179787 4293729569
5.9383183 -1.9765364 -1.7160295 4293729569
5.3374295 -1.7750093 -1.846729 4288085770
5.7113714 -1.9063618 -1.7179191 4293729569
8.2487049 -2.7852986 -1.7152035 4293729569
5.3045263 0.21150132 -1.8221706 4288085770
8.2406054 0.29899472 -1.8272765 4288085770
5.9195304 0.22596826 -1.8097764 4288085770
16.700844 0.52779388 -1.880834 4288085770
5.1815133 0.19860511 -1.8202561 4288085770
10.419646 0.34613079 -1.8258824 4288085770
5.7795186 0.2120872 -1.8088732 4288085770
8.5035944 0.28476921 -1.8271213 4288085770
5.6545062 0.198195 -1.8109605 4288085770
10.871638 0.33174685 -1.8316089 4288085770
17.632812 0.49799025 -1.8722697 4288085770
8.7965813 0.27151853 -1.8279468 4288085770
5.5244927 0.18430534 -1.8100512 4288085770
11.354628 0.31733525 -1.8353161 4288085770
9.103569 0.25725588 -1.8287638 4288085770
18.900797 0.47191119 -1.884493 4288085770
5.4194851 0.17139843 -1.8161255 4288085770
11.865614 0.30189839 -1.8370063 4288085770
9.4255552 0.24297912 -1.8275717 4288085770
5.3014717 0.15749852 -1.8152086 4288085770
12.398598 0.28544036 -1.8346835 4288085770
9.7685423 0.22968452 -1.8263658 4288085770
5.1964598 0.14358923 -1.8172835 4288085770
13.026587 0.27090454 -1.8382999 4288085770
10.167532 0.21634363 -1.8281248 4288085770
13.745577 0.25529245 -1.84486 4288085770
10.59152 0.20198132 -1.8298689 4288085770
14.513567 0.23963608 -1.8473895 4288085770
11.05751 0.18858303 -1.831586 4288085770
15.416557 0.22386695 -1.8548343 4288085770
11.549497 0.17516132 -1.8312868 4288085770
16.43755 0.20899747 -1.8632047 4288085770
12.114489 0.16167943 -1.8349419 4288085770
17.519537 0.19207098 -1.8635384 4288085770
12.747479 0.14914051 -1.8405536 4288085770
18.883532 0.17591001 -1.8756948 4288085770
13.452471 0.13553929 -1.8451211 4288085770
5.1394029 0.079639509 -1.8223622 4288085770
14.196461 0.12190293 -1.8466642 4288085770
15.118457 0.1091194 -1.8570954 4288085770
16.085451 0.09629266 -1.859498 4288085770
5.2463913 0.066547588 -1.8223039 4288085770
17.210443 0.084334716 -1.8688015 4288085770
19.319433 0.079522088 -1.8564841 4288085770
17.885422 0.072744563 -1.8483864 4288085770
18.532442 0.072208673 -1.8789815 4288085770
16.715414 0.065745071 -1.8471234 4288085770
15.646401 0.056657251 -1.8427986 4288085770
5.3543768 0.052454185 -1.8212458 4288085770
14.691388 0.047470067 -1.8354025 4288085770
19.702398 0.037193198 -1.8572716 4288085770
13.839376 0.039195281 -1.8289415 4288085770
18.24538 0.023435134 -1.8491927 4288085770
13.113365 0.028814886 -1.8264028 4288085770
16.979362 0.0085146539 -1.842995 4288085770
5.4663644 0.039357383 -1.8201845 4288085770
12.438352 0.018389653 -1.8218322 4288085770
15.905343 -0.006568484 -1.8396775 4288085770
11.847342 0.0078948401 -1.8212092 4288085770
14.959327 -0.021761231 -1.8362797 4288085770
11.304331 -0.0036411211 -1.8205568 4288085770
5.5823512 0.025257107 -1.8191211 4288085770
14.08431 -0.036016487 -1.829837 4288085770
10.826322 -0.015231546 -1.8218637 4288085770
5.700336 0.011153948 -1.8160566 4288085770
10.36931 -0.026841708 -1.8201574 4288085770
13.347296 -0.051386435 -1.8293084 4288085770
9.9622965 -0.039493553 -1.8204206 4288085770
12.655277 -0.065798387 -1.8227512 4288085770
5.8363237 -0.0029617064 -1.8179809 4288085770
9.5902872 -0.051174738 -1.8216614 4288085770
5.2263284 -0.0034345537 -1.8263633 4288085770
12.066265 -0.080293849 -1.8241296 4288085770
5.9893136 -0.01709076 -1.8218945 4288085770
9.2252731 -0.063864276 -1.8188982 4288085770
11.525252 -0.094832167 -1.8224778 4288085770
5.3493185 -0.015538435 -1.8292944 4288085770
6.1303005 -0.031212475 -1.8208156 4288085770
8.9212637 -0.07660196 -1.8230971 4288085770
11.038237 -0.10941555 -1.8227923 4288085770
5.4663062 -0.027640115 -1.8272293 4288085770
6.2952886 -0.046352446 -1.8237222 4288085770
8.5972509 -0.088327736 -1.8183076 4288085770
10.600225 -0.12404029 -1.8240763 4288085770
5.5962958 -0.03975118 -1.828156 4288085770
6.4402723 -0.060479946 -1.8186408 4288085770
19.259108 -0.29943472 -1.8657665 4288085770
5.7112818 -0.050853476 -1.8220912 4288085770
8.3312397 -0.10109851 -1.8214829 4288085770
19.409107 -0.31355199 -1.8856816 4288085770
10.198213 -0.1396953 -1.8263383 4288085770
6.6272621 -0.075637601 -1.8235337 4288085770
5.858273 -0.062977947 -1.8250072 4288085770
17.989096 -0.3153435 -1.8735722 4288085770
8.0592279 -0.11386707 -1.8196616 4288085770
17.961082 -0.32232797 -1.8595942 4288085770
6.8102493 -0.089794159 -1.8244283 4288085770
9.8261976 -0.15437657 -1.827581 4288085770
6.010263 -0.075107872 -1.8259201 4288085770
16.813095 -0.31633809 -1.8713095 4288085770
6.9962358 -0.10495449 -1.8233218 4288085770
6.1582508 -0.087235555 -1.8248353 4288085770
7.822217 -0.12666267 -1.8228185 4288085770
15.748088 -0.31443056 -1.8639753 4288085770
9.4651852 -0.16906838 -1.8268168 4288085770
16.798054 -0.34333792 -1.8513364 4288085770
6.332243 -0.098383158 -1.8277338 4288085770
7.1982226 -0.12012736 -1.8242054 4288085770
14.819087 -0.31063715 -1.8605549 4288085770
6.4872293 -0.1105186 -1.8236446 4288085770
7.4322128 -0.13532533 -1.8290687 4288085770
7.5832033 -0.13946007 -1.8199768 4288085770
13.965086 -0.30591017 -1.8530867 4288085770
9.13517 -0.18378675 -1.8260334 4288085770
15.811031 -0.36549568 -1.8479691 4288085770
6.681221 -0.12268279 -1.8275311 4288085770
13.223087 -0.30027682 -1.849548 4288085770
7.6611991 -0.15052192 -1.8289353 4288085770
6.8752117 -0.1338487 -1.8284168 4288085770
12.55109 -0.29370281 -1.8469648 4288085770
7.8921838 -0.16572142 -1.8268005 4288085770
7.3611908 -0.15227024 -1.8201244 4288085770
7.0802026 -0.14502345 -1.8302957 4288085770
11.931092 -0.28617442 -1.8423483 4288085770
8.8061533 -0.19750826 -1.8212487 4288085770
