# .PCD v0.7 - Point Cloud Data file format
VERSION 0.7
FIELDS x y z rgb
SIZE 4 4 4 4
TYPE F F F U
COUNT 1 1 1 1
WIDTH 1106
HEIGHT 1
VIEWPOINT 0 0 0 1 0 0 0
POINTS 1106
DATA ascii
-1.6958008 -1.5127336 -1.7171955 4288085770
0.050720215 -1.9107457 -1.7358875 4288085770
-1.6096191 -1.4809994 -1.728137 4288085770
0.14822388 -1.869747 -1.7431459 4288085770
-1.5498352 -1.4413267 -1.7308989 4288085770
0.21136475 -1.8188533 -1.7405634 4288085770
-1.4762573 -1.4045545 -1.735836 4288085770
0.33071899 -1.7826754 -1.7506638 4288085770
-1.3624878 -1.3766857 -1.7531862 4288085770
0.41067505 -1.7336537 -1.7505636 4288085770
-1.3063354 -1.3338865 -1.7507029 4288085770
0.51950073 -1.6914181 -1.7548761 4288085770
-1.2373352 -1.2930292 -1.7513323 4288085770
0.64996338 -1.6540695 -1.7640219 4288085770
-1.1350403 -1.2600776 -1.761776 4288085770
0.77670288 -1.6136614 -1.7699156 4288085770
-1.0570984 -1.2201346 -1.763195 4288085770
0.89263916 -1.5702943 -1.7729082 4288085770
-0.97998047 -1.1801349 -1.7625322 4288085770
1.0136108 -1.5268449 -1.775362 4288085770
-0.88613892 -1.1430725 -1.7663097 4288085770
1.169281 -1.4891604 -1.7838039 4288085770
-0.81774902 -1.0990595 -1.7619686 4288085770
1.315155 -1.4485043 -1.7894402 4288085770
-0.70605469 -1.063857 -1.768322 4288085770
1.4562988 -1.4047669 -1.7907343 4288085770
-0.58932495 -1.0285736 -1.7741356 4288085770
1.6300659 -1.3658444 -1.7988625 4288085770
-0.4234314 -1.0000796 -1.7922516 4288085770
1.7841797 -1.3209842 -1.8013754 4288085770
-0.27514648 -0.96762514 -1.8048697 4288085770
1.9593201 -1.2788881 -1.8047142 4288085770
-0.16796875 -0.92727387 -1.8049564 4288085770
2.1700439 -1.2415816 -1.8151598 4288085770
-0.068389893 -0.88386643 -1.8004265 4288085770
2.3760071 -1.2012249 -1.822258 4288085770
0.044036865 -0.84336877 -1.7979822 4288085770
2.6365356 -1.1664404 -1.8371716 4288085770
0.17224121 -0.80278301 -1.7989893 4288085770
2.8754578 -1.1257378 -1.8462877 4288085770
0.30154419 -0.76112461 -1.7981281 4288085770
3.1451721 -1.0867704 -1.8591652 4288085770
0.44586182 -0.72032249 -1.7986059 4288085770
3.4764099 -1.0533143 -1.8804941 4288085770
0.59317017 -0.67949164 -1.7993565 4288085770
3.780304 -1.0118934 -1.8925581 4288085770
0.74847412 -0.63655281 -1.7999077 4288085770
4.125946 -0.97313952 -1.9103508 4288085770
0.91098022 -0.59448147 -1.7990732 4288085770
4.5350952 -0.93784308 -1.9358454 4288085770
1.0646362 -0.54943061 -1.7955236 4288085770
4.9386292 -0.89847231 -1.9569416 4288085770
1.2677917 -0.50803471 -1.8003912 4288085770
5.3642883 -0.85579598 -1.9771566 4288085770
1.4602051 -0.46464562 -1.8013334 4288085770
5.8021545 -0.81090641 -1.9955454 4288085770
1.6774597 -0.42105174 -1.8055534 4288085770
6.2770691 -0.76459992 -2.0153532 4288085770
1.9147034 -0.37723756 -1.8106022 4288085770
6.7404175 -0.71221185 -2.028286 4288085770
2.1974487 -0.33611596 -1.8237343 4288085770
7.2607117 -0.65924907 -2.0454273 4288085770
2.4844055 -0.29285789 -1.8343115 4288085770
7.8031311 -0.60497916 -2.0616207 4288085770
2.815033 -0.25025046 -1.8508625 4288085770
8.4303894 -0.54983509 -2.0835857 4288085770
3.1557922 -0.2034502 -1.8654699 4288085770
9.2286072 -0.49819195 -2.1250715 4288085770
3.5512695 -0.15716159 -1.8860607 4288085770
10.07019 -0.44091117 -2.1636744 4288085770
3.9687805 -0.10859787 -1.9067326 4288085770
10.957092 -0.37900448 -2.2005415 4288085770
4.4607544 -0.060423851 -1.9372053 4288085770
4.9473267 -0.007075429 -1.9603243 4288085770
5.4787598 0.049730301 -1.9866505 4288085770
6.0285339 0.109873 -2.0097418 4288085770
6.6004944 0.17435348 -2.0309868 4288085770
7.2393494 0.24153495 -2.0564222 4288085770
7.9482117 0.31450981 -2.0844269 4288085770
8.6963501 0.39301813 -2.1111765 4288085770
9.684021 0.47567585 -2.163969 4288085770
10.755981 0.56839216 -2.2167578 4288085770
10.83728 0.93079478 -2.2258911 4288085770
9.9248047 1.020004 -2.1809225 4288085770
9.1579895 1.1046509 -2.1470604 4288085770
8.4463501 1.1829203 -2.114996 4288085770
7.8184204 1.2590117 -2.0894842 4288085770
7.274231 1.3318927 -2.0714912 4288085770
6.7732544 1.4013133 -2.0533018 4288085770
6.2992859 1.4690216 -2.0365105 4288085770
5.8327942 1.530969 -2.0151863 4288085770
5.3865051 1.5891728 -1.9935627 4288085770
4.9604797 1.6437016 -1.9696484 4288085770
4.6295166 1.702925 -1.9605761 4288085770
4.2949524 1.7572484 -1.9469967 4288085770
10.983002 2.4405413 -2.250843 4288085770
3.9548035 1.8076534 -1.9287596 4288085770
10.240173 2.4906645 -2.2109737 4288085770
3.6741333 1.8625175 -1.9191008 4288085770
9.5463257 2.5393136 -2.1735125 4288085770
3.4064331 1.9155037 -1.9105606 4288085770
9.0452271 2.5996406 -2.1580191 4288085770
3.1499634 1.9646956 -1.8999071 4288085770
8.5574036 2.6582236 -2.1396627 4288085770
2.969574 2.0224042 -1.9024963 4288085770
8.0907898 2.7120757 -2.121067 4288085770
2.7579346 2.0730174 -1.8959732 4288085770
7.7017517 2.7716548 -2.1097345 4288085770
2.5543518 2.1237388 -1.8891821 4288085770
7.2962341 2.8252139 -2.0926781 4288085770
2.379425 2.1766665 -1.8870878 4288085770
6.9365845 2.8782365 -2.078783 4288085770
2.1940002 2.2236271 -1.8798141 4288085770
6.6285095 2.9376755 -2.0718079 4288085770
2.0036926 2.270576 -1.8710928 4288085770
4.0191345 2.6232758 -1.6707544 4293729569
1.8382568 2.3187573 -1.8646784 4288085770
3.5336914 2.6298957 -1.6207237 4293729569
1.6748962 2.3659923 -1.857419 4288085770
2.9982605 2.6232834 -1.5586605 4293729569
1.5313416 2.4143796 -1.8530083 4288085770
2.602478 2.6327462 -1.5168915 4293729569
1.3743286 2.4577746 -1.8431787 4288085770
2.2097778 2.6392722 -1.4743004 4293729569
1.236969 2.5052881 -1.8372917 4288085770
1.8618164 2.6492162 -1.4359045 4293729569
1.0879822 2.5487885 -1.8271971 4288085770
1.5741882 2.6665936 -1.4072723 4293729569
0.99221802 2.5996253 -1.8272219 4288085770
1.3361816 2.6904006 -1.3843832 4293729569
0.88482666 2.6484525 -1.8231039 4288085770
1.0430908 2.6998959 -1.349967 4293729569
0.76269531 2.6932068 -1.8154984 4288085770
0.68725586 2.6910748 -1.3011761 4293729569
0.69766235 2.7492971 -1.8195047 4288085770
0.56503296 2.7317653 -1.2954321 4293729569
0.58865356 2.7952409 -1.8111267 4288085770
0.47528076 2.7806611 -1.2959404 4293729569
0.51098633 2.847311 -1.810833 4288085770
0.4005127 2.8307283 -1.2968493 4293729569
0.41882324 2.8943796 -1.8050299 4288085770
0.35440063 2.8869953 -1.3025856 4293729569
0.34741211 2.94561 -1.8022652 4288085770
0.31039429 2.9423156 -1.307476 4293729569
0.29071045 3.0009098 -1.8029871 4288085770
0.27526855 3.0017171 -1.3133163 4293729569
0.26739502 3.0643873 -1.8110447 4288085770
0.24127197 3.061162 -1.3182535 4293729569
0.18249512 3.1106238 -1.8028622 4288085770
0.21716309 3.1227012 -1.3241653 4293729569
0.11239624 3.160965 -1.7971706 4288085770
0.17337036 3.1791215 -1.3261042 4293729569
0.029754639 3.2053232 -1.7861176 4288085770
0.18484497 3.2509232 -1.3376093 4293729569
-0.032318115 3.2557702 -1.780158 4288085770
0.16003418 3.3125525 -1.3404455 4293729569
-0.069854736 3.3133469 -1.7796898 4288085770
0.16473389 3.3823576 -1.3492584 4293729569
-0.12677002 3.3649106 -1.7722282 4288085770
0.15872192 3.4511604 -1.3540525 4293729569
-0.14352417 3.427649 -1.7748308 4288085770
0.16162109 3.5210118 -1.3606939 4293729569
-0.17977905 3.4843369 -1.7714338 4288085770
0.14797974 3.586843 -1.3616762 4293729569
-0.17593384 3.5561972 -1.7782316 4288085770
0.14904785 3.6577458 -1.3661776 4293729569
-0.18655396 3.6220574 -1.7794886 4288085770
0.16497803 3.7337828 -1.3722076 4293729569
-0.17373657 3.6960335 -1.7861757 4288085770
0.162323 3.8037472 -1.3733273 4293729569
-0.15487671 3.7720652 -1.7934742 4288085770
0.17459106 3.8778491 -1.3759432 4293729569
-0.11248779 3.8592472 -1.8053083 4288085770
0.21240234 3.9641218 -1.3833075 4293729569
-0.053466797 3.9524832 -1.8218708 4288085770
0.20217896 4.0321474 -1.379652 4293729569
-0.0041503906 4.0437279 -1.8344727 4288085770
0.25186157 4.1245279 -1.3883047 4293729569
0.033691406 4.1299968 -1.8418369 4288085770
0.31848145 4.2230964 -1.3977051 4293729569
0.064697266 4.2162724 -1.8465748 4288085770
0.41552734 4.3348436 -1.4133387 4293729569
0.1133728 4.3086424 -1.8551359 4288085770
3.5700378 5.7185121 -2.0609045 4288085770
0.17675781 4.4080806 -1.8672838 4288085770
3.7035828 5.8746443 -2.0793514 4288085770
0.22470093 4.5025401 -1.8728342 4288085770
3.7892151 6.0105686 -2.0857182 4288085770
0.26190186 4.5919676 -1.8752308 4288085770
3.9152527 6.1657944 -2.0984278 4288085770
0.30517578 4.6844826 -1.8772755 4288085770
4.073822 6.336256 -2.116622 4288085770
0.35931396 4.7820959 -1.8804846 4288085770
4.2089844 6.49966 -2.1274261 4288085770
0.41741943 4.8837481 -1.8841896 4288085770
4.4081421 6.6955218 -2.1491747 4288085770
0.515625 5.0046 -1.8972225 4288085770
4.6026001 6.892436 -2.1675138 4288085770
0.59545898 5.1174493 -1.9032879 4288085770
4.8257141 7.1036124 -2.1889496 4288085770
0.68618774 5.2373958 -1.9105844 4288085770
5.0586853 7.3238754 -2.2115898 4288085770
0.79953003 5.3684826 -1.9223232 4288085770
5.2940979 7.5473223 -2.2295341 4288085770
0.91690063 5.5036721 -1.9325666 4288085770
5.5423279 7.7818871 -2.2490215 4288085770
1.0598755 5.6530318 -1.9476252 4288085770
5.8321228 8.0388632 -2.2720537 4288085770
1.2156982 5.8105025 -1.9641285 4288085770
6.183075 8.3333254 -2.3039284 4288085770
1.3726501 5.9720511 -1.9788628 4288085770
1.53479 6.1367431 -1.9911623 4288085770
1.7565918 6.3357482 -2.0170937 4288085770
1.9376831 6.515677 -2.0296249 4288085770
2.1902161 6.7369928 -2.0581007 4288085770
2.447113 6.9615107 -2.0820627 4288085770
2.7021179 7.1890435 -2.1049452 4288085770
3.0074463 7.4470005 -2.1344442 4288085770
3.3405457 7.7242703 -2.165122 4288085770
3.6151428 7.9713054 -2.1804018 4288085770
4.0349731 8.306262 -2.223938 4288085770
10.657257 0.60811126 -2.2025747 4288085770
9.4672852 0.53530145 -2.1451235 4288085770
8.3663025 0.47148246 -2.0910482 4288085770
7.5001831 0.4158147 -2.0596123 4288085770
6.7060547 0.36594707 -2.0309038 4288085770
5.9572144 0.32269537 -2.0005093 4288085770
5.2842712 0.28424984 -1.9741688 4288085770
4.5842896 0.25187922 -1.9355278 4288085770
10.670776 0.12964749 -2.1794233 4288085770
3.9490662 0.22314411 -1.9018993 4288085770
9.4280396 0.09916383 -2.1236401 4288085770
3.3805847 0.19702768 -1.874424 4288085770
8.2984619 0.072963953 -2.0712605 4288085770
2.8471985 0.17536998 -1.8462791 4288085770
7.3939209 0.048858404 -2.0394163 4288085770
2.3933411 0.15538669 -1.8274298 4288085770
6.6091003 0.027967095 -2.0155582 4288085770
1.9585266 0.1376431 -1.8083811 4288085770
5.8595581 0.010566115 -1.9900036 4288085770
1.5595703 0.12123525 -1.7926369 4288085770
5.1317444 -0.0023357272 -1.9575319 4288085770
1.2062988 0.10621858 -1.7821026 4288085770
4.4104309 -0.0099490285 -1.9188013 4288085770
0.90454102 0.09258157 -1.7793121 4288085770
3.7738342 -0.016739309 -1.8868027 4288085770
0.62759399 0.079142988 -1.779789 4288085770
3.2090759 -0.022828281 -1.8603506 4288085770
0.34402466 0.067773402 -1.7757139 4288085770
2.696167 -0.027401984 -1.8376608 4288085770
0.077514648 0.0586285 -1.7712593 4288085770
2.2359924 -0.031485617 -1.8197899 4288085770
-0.12692261 0.04679966 -1.7803946 4288085770
1.7940674 -0.033298552 -1.8006334 4288085770
-0.38711548 0.040844738 -1.772603 4288085770
1.4185791 -0.036593735 -1.7904854 4288085770
-0.60784912 0.034124017 -1.7723942 4288085770
1.0719299 -0.039620042 -1.7829723 4288085770
-0.83322144 0.029492557 -1.7678165 4288085770
0.77102661 -0.042253613 -1.7806358 4288085770
-1.0202026 0.024052501 -1.7717266 4288085770
0.48217773 -0.043741822 -1.7784271 4288085770
-1.2530212 0.022549391 -1.7605486 4288085770
0.19851685 -0.043082952 -1.7737532 4288085770
-1.4102783 0.018319905 -1.7692099 4288085770
-0.045532227 -0.044155538 -1.7756338 4288085770
-1.5643921 0.014187813 -1.7761507 4282675967
-0.24212646 -0.046915948 -1.7857924 4288085770
-1.7622375 0.015072525 -1.7662287 4282675967
-0.50915527 -0.041840672 -1.7747421 4288085770
-1.9657288 0.0180071 -1.7528429 4282675967
-0.74945068 -0.03858161 -1.7680693 4288085770
-2.1769104 0.022999346 -1.7348137 4282675967
-0.96606445 -0.035168231 -1.7655687 4288085770
-2.5046997 0.037991643 -1.6733665 4288085770
-1.1608276 -0.031585276 -1.7660627 4288085770
-2.6841125 0.042246163 -1.6592073 4288085770
-1.3553162 -0.027899742 -1.7635708 4288085770
-2.8759155 0.04958415 -1.6379948 4288085770
-1.4978333 -0.026027739 -1.7747869 4282675967
-3.0471497 0.054981411 -1.6226063 4288085770
-1.7017822 -0.018232524 -1.7655468 4282675967
-3.1850586 0.059491038 -1.6162462 4288085770
-1.8917236 -0.01127547 -1.7565498 4282675967
-3.3111877 0.064044595 -1.6129675 4288085770
-2.0854492 -0.0022881031 -1.745265 4282675967
-3.4391785 0.068646729 -1.6075153 4288085770
-2.4494934 0.02162981 -1.6727905 4288085770
-3.5650635 0.074300826 -1.601284 4288085770
-2.6338806 0.031835914 -1.6583757 4288085770
-3.691803 0.081011891 -1.5930023 4288085770
-2.8121948 0.042164683 -1.6425161 4288085770
-2.9806213 0.052553654 -1.628561 4288085770
-3.1409607 0.063050866 -1.614337 4288085770
-3.278717 0.072625101 -1.6061516 4288085770
-3.4066772 0.082258999 -1.5998697 4288085770
-3.5248108 0.09091717 -1.5964537 4288085770
-3.6534729 0.10164362 -1.5871286 4288085770
-3.7644653 0.11143416 -1.5823927 4288085770
-1.0346375 3.1235542 -4.5030775 4282675967
-3.7280273 2.0174844 -1.6023636 4288085770
-3.6228638 2.0326729 -1.6054029 4288085770
-3.5088806 2.0499105 -1.6103201 4288085770
-3.3734741 2.0721745 -1.6223764 4288085770
-3.2437744 2.0914869 -1.6308031 4288085770
-3.1089783 2.1108792 -1.6386881 4288085770
-2.9634399 2.1313057 -1.6495943 4288085770
-2.8244324 2.1488051 -1.6557865 4288085770
-3.6954346 1.937704 -1.6046124 4288085770
-2.6843567 2.1653473 -1.6610403 4288085770
-3.5699158 1.9518812 -1.6154966 4288085770
-2.5567932 2.1769125 -1.6609669 4288085770
-3.4577026 1.9611387 -1.6189718 4288085770
-2.3872681 2.1975918 -1.6730576 4288085770
-3.3213196 1.9753817 -1.6318502 4288085770
-2.2165222 2.21735 -1.6832142 4288085770
-3.2002563 1.9846872 -1.6371393 4288085770
-2.0340271 2.2371488 -1.6964512 4288085770
-3.0644226 1.9960616 -1.6458454 4288085770
-1.8610535 2.2539935 -1.7047005 4288085770
-2.9276428 2.006443 -1.6546087 4288085770
-1.6625671 2.2749751 -1.7184277 4288085770
-2.7876282 2.0149243 -1.6615887 4288085770
-1.4803467 2.2900038 -1.7244406 4288085770
-2.6456604 2.0234201 -1.6687498 4288085770
-1.2677917 2.309149 -1.7383776 4288085770
-2.5123291 2.0279384 -1.6719751 4288085770
-1.0461731 2.3294063 -1.7521677 4288085770
-2.3739929 2.0325069 -1.6756563 4288085770
-0.86743164 2.3365736 -1.7525768 4288085770
-2.2218323 2.0381644 -1.6816339 4288085770
-0.66888428 2.3468907 -1.7558956 4288085770
-2.0471497 2.0468979 -1.6937809 4288085770
-0.43783569 2.3613739 -1.766324 4288085770
-1.8674622 2.0546761 -1.7063484 4288085770
-0.1635437 2.3830838 -1.7859545 4288085770
-1.6798401 2.0625277 -1.7196426 4288085770
0.074737549 2.3937311 -1.7938986 4288085770
-1.4949951 2.0674238 -1.7305727 4288085770
0.30838013 2.4014411 -1.7983046 4288085770
-1.3147278 2.0694077 -1.7369699 4288085770
0.574646 2.4113793 -1.8077602 4288085770
-1.1461487 2.0663548 -1.7401218 4288085770
0.85394287 2.4214737 -1.8174038 4288085770
-0.96069336 2.0644562 -1.7448492 4288085770
1.1677246 2.4357519 -1.8343363 4288085770
-0.77130127 2.0615621 -1.7509012 4288085770
1.5035095 2.4502637 -1.8522701 4288085770
-0.59146118 2.0547152 -1.7519341 4288085770
1.8670349 2.4659967 -1.8737736 4288085770
-0.37417603 2.0520766 -1.7605276 4288085770
2.2191772 2.4747963 -1.8889809 4288085770
-0.15890503 2.0474184 -1.7688732 4288085770
2.5863342 2.4827666 -1.9045191 4288085770
0.04888916 2.0378301 -1.7723475 4288085770
2.9902649 2.4930406 -1.9244795 4288085770
0.29022217 2.0304518 -1.7819595 4288085770
3.4053955 2.4995208 -1.942317 4288085770
0.52081299 2.0200381 -1.7884827 4288085770
3.8287964 2.5021451 -1.9587593 4288085770
0.77423096 2.0098038 -1.7980881 4288085770
4.2702026 2.5039668 -1.9758072 4288085770
1.043457 1.9996789 -1.8101416 4288085770
4.7572937 2.506176 -1.998024 4288085770
1.3295593 1.9876808 -1.824666 4288085770
5.2566833 2.5056005 -2.0182447 4288085770
1.6513367 1.9769405 -1.8444834 4288085770
5.7654724 2.4992456 -2.0351019 4288085770
1.9646606 1.9612932 -1.8583403 4288085770
6.3289795 2.4933958 -2.0569515 4288085770
2.2791138 1.9416913 -1.8711605 4288085770
6.9295349 2.4859228 -2.0810986 4288085770
2.6133728 1.9202386 -1.8867245 4288085770
7.5977173 2.4790702 -2.1114159 4288085770
2.9135437 1.8927059 -1.8919458 4288085770
8.2427979 2.4622409 -2.1322575 4288085770
3.2464294 1.8634119 -1.9020882 4288085770
8.9158936 2.4407053 -2.1544781 4288085770
3.6149597 1.8333772 -1.9174538 4288085770
9.73526 2.4254835 -2.1912031 4288085770
3.9985657 1.8015172 -1.9331207 4288085770
10.66803 2.4112697 -2.2392683 4288085770
4.4129944 1.7669084 -1.9524956 4288085770
4.8553162 1.7295573 -1.9743118 4288085770
5.3069153 1.6873934 -1.9937944 4288085770
5.7546997 1.6402304 -2.0117512 4288085770
6.2148438 1.5862837 -2.0275822 4288085770
6.7107849 1.5296681 -2.0465794 4288085770
7.2416077 1.4693419 -2.0696163 4288085770
7.7709045 1.400138 -2.0881901 4288085770
8.363739 1.3284547 -2.1144657 4288085770
8.9906616 1.2511207 -2.1426325 4288085770
9.653656 1.1651897 -2.1717768 4288085770
10.306122 1.071265 -2.1966724 4288085770
11.10556 0.97152793 -2.2397442 4288085770
4.7110901 -4.7333035 -0.5339613 4293729569
4.6808167 -4.8245096 -0.55721474 4293729569
5.8565674 -7.3609457 -1.5222874 4293729569
5.3038635 -7.1600943 -1.508112 4293729569
4.7702637 -6.9619999 -1.4935703 4293729569
4.3145752 -6.7982388 -1.4869385 4293729569
3.8450317 -6.6185131 -1.4765806 4293729569
3.4156494 -6.456377 -1.4682598 4293729569
2.9833984 -6.2841721 -1.4570131 4293729569
2.5613098 -6.1108069 -1.4447184 4293729569
2.1552734 -5.9412584 -1.4327469 4293729569
1.7822876 -5.7853999 -1.4233055 4293729569
1.4292603 -5.6353564 -1.4154806 4293729569
1.0973511 -5.4930806 -1.4083014 4293729569
0.79641724 -5.3635464 -1.4045 4293729569
0.48861694 -5.2259812 -1.3973408 4293729569
3.943634 -7.313118 -1.424448 4293729569
0.23059082 -5.1150775 -1.3978071 4293729569
3.43396 -7.0579305 -1.4170561 4293729569
-0.024291992 -5.0000811 -1.3966856 4293729569
2.971405 -6.8242979 -1.4132023 4293729569
-0.27902222 -4.8830166 -1.3936415 4293729569
2.5211487 -6.5924191 -1.4063873 4293729569
-0.52267456 -4.7678156 -1.3905334 4293729569
2.1170654 -6.3830709 -1.4019899 4293729569
-0.70388794 -4.6892915 -1.3998785 4293729569
1.71521 -6.1706047 -1.3948879 4293729569
-0.93731689 -4.5728974 -1.3947258 4293729569
1.3534241 -5.9777622 -1.3907509 4293729569
-1.1182251 -4.4872403 -1.400321 4293729569
0.98596191 -5.7758417 -1.3823881 4293729569
-1.2960205 -4.4004884 -1.4042311 4293729569
0.67645264 -5.6074376 -1.3801508 4293729569
-1.4776306 -4.3087096 -1.4059534 4293729569
0.36117554 -5.4309916 -1.37465 4293729569
-1.6659546 -4.2088585 -1.403327 4293729569
0.14627075 -5.3159289 -1.3862076 4293729569
-1.8413696 -4.1159205 -1.4026413 4293729569
-0.12686157 -5.1600523 -1.3828249 4293729569
-2.0215759 -4.0159311 -1.3987484 4293729569
-0.38388062 -5.0099916 -1.3797007 4293729569
-2.1916504 -3.9198122 -1.3946371 4293729569
-0.61392212 -4.87571 -1.3794909 4293729569
-2.3548279 -3.8256621 -1.3920889 4293729569
-0.7973938 -4.769187 -1.388588 4293729569
-2.4390564 -3.7832632 -1.4100018 4293729569
-1.0141602 -4.6376805 -1.3864727 4293729569
-2.4565125 -3.7847638 -1.4485512 4293729569
-1.2091064 -4.5170445 -1.3879728 4293729569
-2.4630127 -3.7912011 -1.4889212 4293729569
-1.3582764 -4.4251313 -1.397666 4293729569
-2.4656067 -3.7996292 -1.5305853 4288085770
-1.5429688 -4.3072915 -1.3969917 4293729569
-2.4898682 -3.7900982 -1.565877 4288085770
-1.7116089 -4.1973 -1.3975048 4293729569
-2.625824 -3.7015967 -1.5625925 4288085770
-1.8701172 -4.0911803 -1.3977976 4293729569
-2.7547607 -3.6170282 -1.5598106 4288085770
-2.0305176 -3.9830127 -1.3959846 4293729569
-2.8894653 -3.5254159 -1.553731 4288085770
-2.1925659 -3.8727603 -1.3910723 4293729569
-2.9828491 -3.460711 -1.5595236 4288085770
-2.3013611 -3.7953048 -1.3989201 4293729569
-3.1034851 -3.3759351 -1.5534868 4288085770
-2.3126526 -3.780622 -1.4345617 4293729569
-3.20047 -3.3050995 -1.5541401 4288085770
-2.2796631 -3.7948551 -1.4832754 4293729569
-3.2973633 -3.2332306 -1.5538311 4288085770
-2.2447205 -3.8080707 -1.5322027 4288085770
-3.4048767 -3.1522975 -1.5478468 4288085770
-2.2432251 -3.7973371 -1.5708809 4288085770
-3.5083008 -3.0732923 -1.5411634 4288085770
-2.3760681 -3.6947131 -1.5653496 4288085770
-3.592041 -3.0052342 -1.5399113 4288085770
-2.4978943 -3.5989857 -1.5605822 4288085770
-3.671875 -2.9401727 -1.539917 4288085770
-2.5940857 -3.5191827 -1.5626183 4288085770
-2.6980286 -3.4323521 -1.5611792 4288085770
-2.7949219 -3.3494225 -1.5592442 4288085770
-2.891571 -3.2664237 -1.5553207 4288085770
-2.9588318 -3.2003818 -1.5605202 4288085770
-3.042572 -3.1232948 -1.5585718 4288085770
-3.1027222 -3.061152 -1.5632782 4288085770
-3.1783447 -2.987957 -1.5609283 4288085770
-3.2489929 -2.9167137 -1.5589647 4288085770
-3.3009644 -2.8564272 -1.5623417 4288085770
-3.3605652 -2.791081 -1.5611782 4288085770
-3.4132385 -2.729702 -1.561511 4288085770
-3.4561157 -2.6732974 -1.5645761 4288085770
-3.5056763 -2.6128564 -1.5641546 4288085770
-3.5453491 -2.5573564 -1.5654678 4288085770
-3.5732422 -2.5098424 -1.570591 4288085770
-3.6224976 -2.4472651 -1.5662546 4288085770
-3.6599121 -2.3926435 -1.5647316 4288085770
-3.688446 -2.3430042 -1.5658493 4288085770
-3.7256775 -2.2863145 -1.5624018 4288085770
-3.739502 -2.2436371 -1.5676336 4288085770
-3.7574463 -1.3372737 -1.561882 4288085770
-3.7101746 -1.3149947 -1.5709543 4288085770
-3.681366 -1.2856871 -1.572566 4288085770
-3.6572571 -1.2533242 -1.570837 4288085770
-3.6166077 -1.2279733 -1.5753937 4288085770
-3.5700684 -1.2026044 -1.5814886 4288085770
-3.5351868 -1.1742073 -1.5826159 4288085770
-3.5128174 -1.1417598 -1.5777197 4288085770
-3.4445496 -1.1232868 -1.5885639 4288085770
-3.3909302 -1.0988168 -1.5942669 4288085770
-3.3469849 -1.0723044 -1.5951462 4288085770
-3.2921753 -1.0477579 -1.5989494 4288085770
-3.233429 -1.0231754 -1.6031141 4288085770
-3.181427 -0.9975878 -1.6046886 4288085770
-3.128418 -0.96995902 -1.605423 4288085770
-3.0606689 -0.94729388 -1.6103363 4288085770
-2.9889526 -0.9255923 -1.6155815 4288085770
-2.9053955 -0.90484798 -1.6238708 4288085770
-2.8315735 -0.88109374 -1.6283684 4288085770
-2.7633972 -0.85625803 -1.6283722 4288085770
-3.7428894 -0.64274645 -1.5900373 4288085770
-2.6923218 -0.83142996 -1.6296444 4288085770
-3.6887512 -0.61907125 -1.589736 4288085770
-2.6064758 -0.809533 -1.6341667 4288085770
-3.6169739 -0.59836841 -1.5949469 4288085770
-2.4590454 -0.79956806 -1.6589327 4288085770
-3.553009 -0.57666874 -1.597476 4288085770
-2.1397705 -0.82342458 -1.7403297 4282675967
-3.4742432 -0.55790138 -1.6032553 4288085770
-1.9510193 -0.81828213 -1.7747087 4282675967
-3.3857727 -0.54014492 -1.612895 4288085770
-1.8362427 -0.79712009 -1.7818279 4282675967
-3.3136902 -0.51730669 -1.614192 4288085770
-1.7273254 -0.77294731 -1.7865105 4282675967
-3.2571106 -0.49244404 -1.609127 4288085770
-1.6065063 -0.75069845 -1.793211 4282675967
-3.1693115 -0.47256005 -1.6147614 4288085770
-1.5275574 -0.71943486 -1.7843676 4282675967
-3.0522156 -0.45664239 -1.6299486 4288085770
-1.411377 -0.69509578 -1.7867002 4282675967
-2.966156 -0.43567669 -1.6324472 4288085770
-1.3371277 -0.66277456 -1.7744522 4282675967
-2.8545837 -0.41764319 -1.6421804 4288085770
-1.2118835 -0.63832009 -1.7766047 4282675967
-2.7536621 -0.39757323 -1.6470032 4288085770
-1.0434265 -0.61870337 -1.789547 4282675967
-2.645874 -0.37747467 -1.6534548 4288085770
-0.92572021 -0.591151 -1.7860975 4288085770
-2.5359192 -0.35729063 -1.6580954 4288085770
-0.76571655 -0.56841159 -1.7923527 4288085770
-2.3176575 -0.35101438 -1.6992092 4288085770
-0.63198853 -0.54168093 -1.7893257 4288085770
-1.797699 -0.38437521 -1.8386707 4282675967
-0.47576904 -0.51587725 -1.7923298 4288085770
-1.6861572 -0.35894561 -1.8366013 4282675967
-0.26226807 -0.49778223 -1.8072948 4288085770
-1.6166077 -0.32856715 -1.8208475 4282675967
-0.10549927 -0.46977568 -1.8043947 4288085770
-1.5526733 -0.2961061 -1.8006353 4282675967
0.029876709 -0.4387635 -1.7936287 4288085770
-1.4641724 -0.26755393 -1.7865362 4282675967
0.18112183 -0.40864038 -1.7852736 4288085770
-1.3854675 -0.23602498 -1.76964 4288085770
0.3757019 -0.38332093 -1.7867146 4288085770
-1.2527466 -0.21130204 -1.7664557 4288085770
0.55484009 -0.35394371 -1.7808647 4288085770
-1.0553589 -0.19142139 -1.7820282 4288085770
0.79122925 -0.32924294 -1.7860794 4288085770
-0.91851807 -0.16559505 -1.7772484 4288085770
1.0317078 -0.30347204 -1.7906952 4288085770
-0.7628479 -0.14066279 -1.7761497 4288085770
1.29422 -0.27846646 -1.7962761 4288085770
-0.59906006 -0.11559033 -1.7737837 4288085770
1.5550232 -0.25134468 -1.797761 4288085770
-0.39096069 -0.091312885 -1.7814379 4288085770
1.8772583 -0.22579575 -1.8087807 4288085770
-0.16903687 -0.068944156 -1.7912884 4288085770
2.2391052 -0.20298636 -1.8263121 4288085770
-0.009552002 -0.03964597 -1.7806406 4288085770
2.6310425 -0.17780232 -1.8436451 4288085770
0.19616699 -0.014157951 -1.7810869 4288085770
3.0293579 -0.15242815 -1.8575392 4288085770
0.41799927 0.012541831 -1.7810268 4288085770
3.5020752 -0.12747538 -1.8811855 4288085770
0.66949463 0.038446188 -1.7856445 4288085770
4.0178528 -0.1010325 -1.9057751 4288085770
0.9291687 0.065490067 -1.7890291 4288085770
4.6130676 -0.075966716 -1.9405375 4288085770
1.2028503 0.093695402 -1.7927208 4288085770
5.2446594 -0.04836911 -1.9726591 4288085770
1.5192261 0.12125427 -1.8012714 4288085770
5.9036255 -0.017323077 -2.0013542 4288085770
1.8733826 0.14812607 -1.814229 4288085770
6.591095 0.017212451 -2.0257196 4288085770
2.2663879 0.17635065 -1.8307562 4288085770
7.3010864 0.054187655 -2.0451794 4288085770
2.6934509 0.20595086 -1.8484077 4288085770
8.1415405 0.091349006 -2.076479 4288085770
3.1820374 0.23504311 -1.8736362 4288085770
9.1830444 0.12930524 -2.1270533 4288085770
3.6967468 0.26647359 -1.8983021 4288085770
10.330933 0.1715309 -2.1783781 4288085770
4.3179321 0.29880512 -1.934659 4288085770
5.0178833 0.33291864 -1.9762182 4288085770
5.7047424 0.37124562 -2.0066872 4288085770
6.4596558 0.41232318 -2.0394068 4288085770
7.2649841 0.45609206 -2.0697556 4288085770
8.1225891 0.50353581 -2.0989475 4288085770
9.1844177 0.55486888 -2.145792 4288085770
10.470367 0.61127234 -2.2121372 4288085770
10.942902 1.2441247 -2.2349243 4288085770
10.499115 1.361589 -2.2128801 4288085770
10.121246 1.4746802 -2.1956444 4288085770
9.704834 1.5825305 -2.1717272 4288085770
9.3998108 1.6913139 -2.159936 4288085770
9.112915 1.7963277 -2.1476488 4288085770
8.8994751 1.9039347 -2.1441135 4288085770
8.6466064 2.0072908 -2.1338415 4288085770
8.4929199 2.1164341 -2.1357718 4288085770
8.3048096 2.2204037 -2.1303854 4288085770
8.1554565 2.3266883 -2.129591 4288085770
8.0102539 2.4310794 -2.1271019 4288085770
7.8573303 2.5314708 -2.1217632 4288085770
7.7480164 2.6371825 -2.1225662 4288085770
7.5974731 2.7357316 -2.1133623 4288085770
7.4706726 2.8374593 -2.1074257 4288085770
7.4261169 2.9477839 -2.1132488 4288085770
7.269043 3.0404134 -2.0992279 4288085770
3.9028015 2.6098008 -1.5604563 4293729569
3.4391479 2.6245689 -1.490859 4293729569
4.1790771 2.7857838 -0.97972775 4293729569
2.9431152 2.6261568 -1.414855 4293729569
3.7374878 2.8000426 -0.9332056 4293729569
2.502594 2.6301746 -1.345974 4293729569
3.2713013 2.8021529 -0.88202763 4293729569
2.1017456 2.6354797 -1.2827377 4293729569
2.8656616 2.811769 -0.8375988 4293729569
1.776062 2.6533179 -1.2307634 4293729569
2.5019531 2.8227954 -0.79600906 4293729569
1.4751892 2.6683464 -1.1819439 4293729569
2.296051 2.8621569 -0.77170372 4293729569
1.2169495 2.6876869 -1.139142 4293729569
1.9623413 2.8704886 -0.73173332 4293729569
0.94604492 2.7019839 -1.0930052 4293729569
1.7775574 2.9081047 -0.70727062 4293729569
0.77090454 2.73493 -1.0622225 4293729569
2.0083618 3.0381646 -0.73067856 4293729569
0.65219116 2.7772722 -1.0398846 4293729569
2.2383118 3.1722808 -0.75214195 4293729569
0.56915283 2.8268981 -1.0220346 4293729569
1.9585266 3.184164 -0.715168 4293729569
0.52655029 2.8867822 -1.011219 4293729569
1.6650391 3.1899943 -0.67473412 4293729569
0.4979248 2.949821 -1.0007744 4293729569
1.8138733 3.3055282 -0.6841917 4293729569
0.5088501 3.021142 -0.99620819 4293729569
1.7833862 3.3766165 -0.67184544 4293729569
0.49328613 3.0863309 -0.98601246 4293729569
1.8947144 3.485918 -0.6746769 4293729569
0.4994812 3.1577115 -0.97800922 4293729569
1.880188 3.5601792 -0.66288471 4293729569
0.51657104 3.2311568 -0.97206402 4293729569
1.9938049 3.6716046 -0.66297913 4293729569
0.5743103 3.3179569 -0.97026539 4293729569
1.9596558 3.7407961 -0.64622307 4293729569
0.61825562 3.4016705 -0.96610641 4293729569
2.0198059 3.8388143 -0.63900471 4293729569
0.64852905 3.4803195 -0.95851517 4293729569
2.057312 3.9296923 -0.62747288 4293729569
0.72427368 3.5753465 -0.95662117 4293729569
2.134613 4.0339642 -0.61900616 4293729569
0.80209351 3.6714239 -0.95394802 4293729569
2.1672974 4.1258774 -0.60506821 4293729569
0.89776611 3.7746572 -0.95313931 4293729569
1.0281372 3.8911977 -0.95593452 4293729569
1.1181946 3.9955134 -0.95063591 4293729569
1.2784424 4.126379 -0.95462418 4293729569
1.4763794 4.2715731 -0.96252346 4293729569
1.7070923 4.433085 -0.97295189 4293729569
1.7698975 4.534399 -0.95805264 4293729569
10.273621 0.64459437 -2.1935711 4288085770
8.9742432 0.60813725 -2.1321936 4288085770
7.8843384 0.57866919 -2.0859585 4288085770
6.967804 0.55380654 -2.0535402 4288085770
6.1422729 0.53188491 -2.025423 4288085770
5.3484497 0.51458442 -1.9902868 4288085770
4.6218567 0.49908265 -1.9552612 4288085770
10.607635 0.51328313 -2.1968985 4288085770
3.9047546 0.48687142 -1.9151793 4288085770
9.2646484 0.49722648 -2.1383352 4288085770
3.26651 0.47742522 -1.8803062 4288085770
8.1078186 0.48516038 -2.0866737 4288085770
2.718811 0.46877146 -1.8536406 4288085770
7.150177 0.47588286 -2.0520964 4288085770
2.2269287 0.4626219 -1.8321018 4288085770
6.3103333 0.46776277 -2.0251865 4288085770
1.7837524 0.45687002 -1.8159809 4288085770
5.5130005 0.46229026 -1.994174 4288085770
1.3727417 0.45253789 -1.7988005 4288085770
4.7424316 0.45936343 -1.9566212 4288085770
1.0259705 0.44956952 -1.7934923 4288085770
4.0143127 0.45808497 -1.9149294 4288085770
0.68664551 0.44787246 -1.7828789 4288085770
3.382782 0.45766276 -1.8819923 4288085770
0.39190674 0.44646677 -1.7793131 4288085770
2.8210144 0.45785722 -1.8553724 4288085770
0.13378906 0.44531873 -1.7810774 4288085770
2.3268433 0.45861521 -1.835886 4288085770
-0.11022949 0.44532844 -1.783145 4288085770
1.8688049 0.46079746 -1.8166952 4288085770
-0.34039307 0.4464598 -1.7865095 4288085770
1.4576416 0.46342838 -1.8007526 4288085770
-0.59649658 0.44770336 -1.7774839 4288085770
1.083313 0.46738368 -1.7881832 4288085770
-0.85150146 0.45102572 -1.7666283 4288085770
0.78317261 0.47079164 -1.7883186 4288085770
-1.0592041 0.45356071 -1.7660408 4288085770
0.4637146 0.47526696 -1.7797174 4288085770
-1.2744141 0.45720044 -1.7597895 4288085770
0.19775391 0.48011449 -1.7789755 4288085770
-1.4434814 0.46100977 -1.7647467 4288085770
-0.045379639 0.48512912 -1.7813034 4288085770
-1.6884155 0.46582961 -1.742795 4288085770
-0.26278687 0.49030438 -1.7879705 4288085770
-1.8833923 0.47178531 -1.734437 4288085770
-0.50231934 0.49659005 -1.783638 4288085770
-2.0800781 0.47682744 -1.7228775 4288085770
-0.74554443 0.50394547 -1.7759924 4288085770
-2.2929688 0.4830004 -1.7018595 4288085770
-0.99142456 0.51041496 -1.7640629 4288085770
-2.5202332 0.49028608 -1.6725521 4288085770
-1.2261658 0.51805186 -1.7511683 4288085770
-2.7112427 0.49665093 -1.6535177 4288085770
-1.4196167 0.52584815 -1.7480364 4288085770
-2.8329773 0.50308383 -1.6568146 4288085770
-1.6138306 0.53373969 -1.741827 4288085770
-3.0234375 0.51065946 -1.6318426 4288085770
-1.8330994 0.54271865 -1.7243509 4288085770
-3.161377 0.51722294 -1.6256447 4288085770
-2.026825 0.55078602 -1.7131672 4288085770
-3.2854614 0.52487391 -1.6217384 4288085770
-2.2211914 0.55898464 -1.6979122 4288085770
-3.4239502 0.53260171 -1.610507 4288085770
-2.4552307 0.56727844 -1.6660194 4288085770
-3.546814 0.54036582 -1.6037054 4288085770
-2.6287231 0.57666063 -1.6526928 4288085770
-3.6616516 0.54720283 -1.5975933 4288085770
-2.755249 0.58511937 -1.6536188 4288085770
-2.8903503 0.59467065 -1.6487885 4288085770
-3.0505066 0.60431015 -1.6326551 4288085770
-3.2026978 0.61302042 -1.6172104 4288085770
-3.3207397 0.62275708 -1.6129198 4288085770
-3.4347534 0.63356411 -1.6080294 4288085770
-3.5641174 0.64244044 -1.5956545 4288085770
-3.6769409 0.65232754 -1.588829 4288085770
-3.7750854 0.66324067 -1.5863781 4288085770
-3.7752991 2.7534738 -1.5945168 4288085770
-3.6781921 2.7795792 -1.596158 4288085770
-3.5588684 2.8156378 -1.6071806 4288085770
-3.4498901 2.844811 -1.6109991 4288085770
-3.3360596 2.874994 -1.6162987 4288085770
-3.2113647 2.908236 -1.6236868 4288085770
-3.09729 2.9354935 -1.6268921 4288085770
-2.9568176 2.971837 -1.6368189 4288085770
-3.7627258 2.6630588 -1.6075191 4288085770
-2.8240662 3.0031853 -1.6438627 4288085770
-3.6847839 2.6732149 -1.6008387 4288085770
-2.6561279 3.0476298 -1.6605663 4288085770
-3.5827637 2.6923008 -1.6046791 4288085770
-2.477478 3.0940962 -1.6803188 4288085770
-3.4593201 2.7183967 -1.6157188 4288085770
-2.3519287 3.1166282 -1.6793671 4288085770
-3.3385925 2.7415745 -1.6233988 4288085770
-2.2194519 3.1412172 -1.6791134 4288085770
-3.2148743 2.7647793 -1.6313486 4288085770
-2.0654907 3.170857 -1.6849928 4288085770
-3.1074524 2.7800512 -1.6315203 4288085770
-1.8861084 3.2095752 -1.6975031 4288085770
-2.9622803 2.8083041 -1.6456032 4288085770
-1.7161865 3.2413521 -1.7048912 4288085770
-2.8430481 2.8236103 -1.6488466 4288085770
-1.5597534 3.2661858 -1.7058029 4288085770
-2.7014465 2.8469722 -1.6584167 4288085770
-1.3554688 3.3071222 -1.7206316 4288085770
-2.5587769 2.8683441 -1.6680069 4288085770
-1.1598206 3.3420911 -1.7314587 4288085770
-2.3760376 2.9018192 -1.6886683 4288085770
-0.97271729 3.3711224 -1.7372885 4288085770
-2.2427979 2.9162836 -1.6921415 4288085770
-0.76113892 3.407228 -1.7495899 4288085770
-2.084137 2.9368296 -1.7021427 4288085770
-0.52279663 3.4475336 -1.7654552 4288085770
-1.9438171 2.9493909 -1.7051811 4288085770
-0.28839111 3.4858384 -1.7798948 4288085770
-1.7654114 2.9730411 -1.7190762 4288085770
-0.066314697 3.516212 -1.7879143 4288085770
-1.6063538 2.9876986 -1.7258854 4288085770
0.17837524 3.5507102 -1.8001299 4288085770
-1.4354858 3.0044236 -1.7348385 4288085770
0.42721558 3.5842834 -1.811677 4288085770
-1.2899475 3.0101023 -1.7360945 4288085770
0.14440918 3.4410057 -1.6896944 4293729569
-1.0837402 3.0339608 -1.7535057 4288085770
0.012054443 3.3481259 -1.6091728 4293729569
-0.92028809 3.0397978 -1.756382 4288085770
-0.060577393 3.2754502 -1.5437899 4293729569
-0.76165771 3.0446286 -1.7577801 4288085770
-0.086364746 3.2178993 -1.4912043 4293729569
-0.54226685 3.0636744 -1.7741976 4288085770
-0.071929932 3.1724916 -1.4486942 4293729569
-0.31997681 3.0817094 -1.7918453 4288085770
-0.063537598 3.1239972 -1.4065361 4293729569
-0.11984253 3.0897985 -1.8001108 4288085770
-0.029663086 3.0836191 -1.3699799 4293729569
0.052886963 3.0877886 -1.8015318 4288085770
-0.0016479492 3.0401917 -1.3327799 4293729569
0.25421143 3.09096 -1.807725 4288085770
0.031311035 2.9958076 -1.2959957 4293729569
0.45275879 3.0911431 -1.8125496 4288085770
0.062042236 2.9523339 -1.2610559 4293729569
0.66796875 3.092401 -1.8209286 4288085770
0.09197998 2.906888 -1.2249622 4293729569
0.378479 2.9568224 -1.7056484 4293729569
0.20147705 2.8818207 -1.2058048 4293729569
0.12197876 2.8332508 -1.6018057 4293729569
0.2677002 2.8435206 -1.1782579 4293729569
0.15847778 2.7877257 -1.570322 4293729569
0.30737305 2.7980914 -1.1450548 4293729569
0.21960449 2.7463131 -1.5442133 4293729569
0.40600586 2.765933 -1.1246653 4293729569
0.33267212 2.7161057 -1.53022 4293729569
0.52255249 2.7359319 -1.1059666 4293729569
0.50479126 2.6981685 -1.529007 4293729569
0.65789795 2.7090571 -1.0900755 4293729569
0.84793091 2.7170238 -1.5646 4293729569
0.89297485 2.7018042 -1.0908947 4293729569
0.95733643 2.6788588 -1.5479813 4293729569
1.1508179 2.6977181 -1.094883 4293729569
1.2987976 2.6897705 -1.5811281 4293729569
1.3989868 2.6866179 -1.0957394 4293729569
1.5450745 2.6763091 -1.5917797 4293729569
1.6580811 2.675612 -1.0975847 4293729569
1.8416748 2.6681144 -1.6121693 4293729569
1.960907 2.6689539 -1.1045237 4293729569
2.112793 2.6528363 -1.6259956 4293729569
2.249939 2.6552162 -1.1089668 4293729569
2.5052185 2.6552367 -1.662426 4293729569
2.5975342 2.6489501 -1.1199532 4293729569
3.0505981 2.6805139 -1.7265034 4293729569
3.0066528 2.6481516 -1.1386843 4293729569
3.3162842 2.6493347 -1.7352552 4293729569
3.4179077 2.643409 -1.1564617 4293729569
3.5820312 2.6151586 -1.743906 4293729569
3.9819641 2.6568575 -1.1926641 4293729569
5.3733826 2.8218842 -2.0250931 4288085770
5.6919861 2.7791657 -2.0381975 4288085770
6.0237122 2.7326069 -2.0513468 4288085770
6.3584595 2.6810763 -2.0645914 4288085770
6.6567383 2.6203351 -2.0712109 4288085770
7.0005188 2.562885 -2.0850573 4288085770
7.3434143 2.4984341 -2.0985746 4288085770
7.7269287 2.434268 -2.1177702 4288085770
8.0323792 2.3575945 -2.1244659 4288085770
8.3397827 2.2759085 -2.132165 4288085770
8.649292 2.191277 -2.1389456 4288085770
9.0518799 2.1082525 -2.1601896 4288085770
9.3347778 2.0094287 -2.1630621 4288085770
9.6374207 1.908711 -2.1696539 4288085770
10.00647 1.8074372 -2.186223 4288085770
10.341766 1.7019031 -2.1985979 4288085770
10.708801 1.5915809 -2.2156706 4288085770
11.164062 1.4798589 -2.2456598 4288085770
11.04599 -3.516788 -2.1404076 4288085770
10.693787 -3.5844316 -2.1233568 4288085770
10.282837 -3.6314969 -2.0987368 4288085770
9.8927612 -3.6784143 -2.0770016 4288085770
9.4904785 -3.7184753 -2.0554228 4288085770
9.1100769 -3.757381 -2.0368547 4288085770
8.7664185 -3.7989984 -2.0225067 4288085770
8.4225769 -3.8366871 -2.0102882 4288085770
7.997345 -3.8468604 -1.9846907 4288085770
7.6365967 -3.8706369 -1.9694357 4288085770
7.2399902 -3.8766313 -1.948575 4288085770
10.762939 -4.8933449 -1.5634508 4293729569
6.8305664 -3.8746719 -1.9248333 4288085770
10.673187 -5.0058451 -1.6025858 4293729569
6.4676514 -3.8814406 -1.9089899 4288085770
6.1315918 -3.8880072 -1.8965712 4288085770
5.7667542 -3.8827295 -1.8789721 4288085770
5.4137878 -3.8763828 -1.8634834 4288085770
10.766693 -5.5859938 -1.8294001 4293729569
5.0935364 -3.8748155 -1.8527813 4288085770
10.050659 -5.4914236 -1.8004379 4293729569
4.7862549 -3.8721352 -1.8432846 4288085770
9.3964233 -5.4083405 -1.7776375 4293729569
4.4878845 -3.8683772 -1.8346319 4288085770
8.7483521 -5.3171034 -1.7526665 4293729569
4.1598206 -3.8487506 -1.8198509 4288085770
8.1322021 -5.2255526 -1.7295799 4293729569
3.8445435 -3.83108 -1.8081617 4288085770
7.5501404 -5.1396646 -1.7083511 4293729569
3.5541382 -3.8162231 -1.799614 4288085770
6.9720764 -5.0446796 -1.6858025 4293729569
3.2479858 -3.7903724 -1.786026 4288085770
6.4707031 -4.9711142 -1.6724091 4293729569
2.9606323 -3.7684245 -1.7759991 4288085770
5.9466858 -4.8805838 -1.6525574 4293729569
2.6702576 -3.7405057 -1.7659101 4288085770
5.4386597 -4.7878785 -1.6332197 4293729569
2.3830872 -3.7104559 -1.7531748 4288085770
4.8959961 -4.6763139 -1.6064119 4293729569
2.0790405 -3.6684885 -1.7373352 4288085770
4.4777832 -4.6048479 -1.5954084 4293729569
1.8205872 -3.6402574 -1.7291307 4288085770
4.0744629 -4.5312514 -1.585824 4293729569
1.5700989 -3.6119547 -1.7216463 4288085770
3.6407166 -4.4406867 -1.567071 4293729569
1.3373718 -3.5855646 -1.7177038 4288085770
3.260498 -4.3658204 -1.5576 4293729569
1.1285095 -3.5670309 -1.7176352 4288085770
2.9143066 -4.2996168 -1.5498819 4293729569
0.85739136 -3.5177131 -1.7030153 4288085770
2.5700989 -4.2293973 -1.5424833 4293729569
0.63186646 -3.4851584 -1.6969252 4288085770
2.2418823 -4.1610041 -1.5354586 4293729569
0.43707275 -3.4624348 -1.6962624 4288085770
1.922821 -4.0904613 -1.5273247 4293729569
0.21551514 -3.4238172 -1.689744 4288085770
1.59198 -4.0119214 -1.5153999 4293729569
0.0089416504 -3.3890629 -1.6844368 4288085770
1.3048401 -3.9460959 -1.5099726 4293729569
-0.20153809 -3.3493133 -1.677947 4288085770
1.035614 -3.8861475 -1.5069513 4293729569
-0.41589355 -3.3055277 -1.6692457 4288085770
0.83279419 -3.8518462 -1.5160284 4293729569
-0.61425781 -3.2646017 -1.6618814 4288085770
0.67254639 -3.8343382 -1.5333624 4293729569
-0.81567383 -3.2187057 -1.6544189 4288085770
0.56774902 -3.8405738 -1.5618734 4293729569
-0.99920654 -3.1796861 -1.6493282 4288085770
0.47183228 -3.8487663 -1.5921202 4293729569
-1.1708984 -3.1436272 -1.6472073 4288085770
0.36694336 -3.8510065 -1.6207685 4293729569
-1.3690186 -3.0915327 -1.6352453 4288085770
0.26416016 -3.8511939 -1.6486712 4288085770
-1.5483093 -3.0453739 -1.6277723 4288085770
0.11203003 -3.8255148 -1.6640148 4288085770
-1.7275391 -2.9961457 -1.618413 4288085770
-0.092285156 -3.7709613 -1.6656427 4288085770
-1.9007263 -2.947865 -1.6095591 4288085770
-0.33303833 -3.6944594 -1.6567373 4288085770
-2.058136 -2.9045134 -1.6039629 4288085770
-0.53317261 -3.634768 -1.6559105 4288085770
-2.229126 -2.8511119 -1.5924759 4288085770
-0.73306274 -3.5729699 -1.6521673 4288085770
-2.3608704 -2.8166685 -1.5928888 4288085770
-0.94082642 -3.5041747 -1.645957 4288085770
-2.5013123 -2.7761679 -1.5887184 4288085770
-1.156189 -3.4272776 -1.6343269 4288085770
-2.6260071 -2.7406297 -1.5888014 4288085770
-1.3282166 -3.3702698 -1.6339264 4288085770
-2.7467346 -2.7060561 -1.5892096 4288085770
-1.5267334 -3.2972579 -1.6246824 4288085770
-2.8820496 -2.6604438 -1.5836706 4288085770
-1.7141418 -3.2271123 -1.6153297 4288085770
-2.9967041 -2.6247835 -1.5836573 4288085770
-1.9083252 -3.1509252 -1.6025696 4288085770
-3.1200256 -2.5820632 -1.5790977 4288085770
-2.0885925 -3.0786495 -1.5919266 4288085770
-3.2424011 -2.5383353 -1.5746603 4288085770
-2.2402954 -3.0202904 -1.5883846 4288085770
-3.3528442 -2.4995356 -1.5721264 4288085770
-2.37323 -2.9698668 -1.5892601 4288085770
-3.4466248 -2.4677253 -1.5748606 4288085770
-2.5275574 -2.9053612 -1.5806799 4288085770
-3.5394287 -2.4349079 -1.5777178 4288085770
-2.6679993 -2.8467984 -1.5751429 4288085770
-3.6623535 -2.3829808 -1.5674963 4288085770
-2.7741699 -2.806241 -1.581089 4288085770
-3.7499695 -2.3500476 -1.5688143 4288085770
-2.8959351 -2.7536168 -1.5800381 4288085770
-3.0164795 -2.700913 -1.5770884 4288085770
-3.1428528 -2.642159 -1.5708189 4288085770
-3.2435608 -2.5963469 -1.5714178 4288085770
-3.3491821 -2.5465121 -1.5697126 4288085770
-3.4448242 -2.5006208 -1.569766 4288085770
-3.5307007 -2.4587126 -1.5725698 4288085770
-3.6281433 -2.4087358 -1.5695953 4288085770
-3.7243958 -2.3576798 -1.5647545 4288085770
-3.7683716 -0.12001288 -1.5829039 4288085770
-3.6825562 -0.10621715 -1.5890951 4288085770
-3.5996094 -0.090376258 -1.5930977 4288085770
-3.5038452 -0.076493859 -1.6001873 4288085770
-3.4139099 -0.061592579 -1.6047831 4288085770
-3.3111877 -0.047648311 -1.6125021 4288085770
-3.2305908 -0.030585468 -1.6093016 4288085770
-3.1236877 -0.016537189 -1.6153898 4288085770
-3.0040894 -0.0034829974 -1.625596 4288085770
-2.8667297 0.0086557865 -1.6393747 4288085770
-3.7735291 0.10084325 -1.5872984 4288085770
-2.7351379 0.02284807 -1.6496983 4288085770
-3.6834412 0.11478281 -1.5908642 4288085770
-2.5712585 0.034076869 -1.6698494 4288085770
-3.5719299 0.1267311 -1.6013126 4288085770
-2.4187927 0.046415687 -1.6829844 4288085770
-3.4864807 0.14176852 -1.6004839 4288085770
-2.1433411 0.050812244 -1.7360229 4282675967
-3.3650208 0.15380347 -1.6118298 4288085770
-1.9622192 0.063329637 -1.7537527 4282675967
-3.2637329 0.16794276 -1.6133966 4288085770
-1.8071289 0.07893151 -1.7602043 4282675967
-3.1430054 0.18107677 -1.6217022 4288085770
-1.6411438 0.093629718 -1.7676077 4282675967
-3.0287476 0.19432753 -1.624402 4288085770
-1.4837646 0.11039007 -1.7702904 4288085770
-2.8696594 0.20558411 -1.6421127 4288085770
-1.3457642 0.12819272 -1.7652407 4288085770
-2.7142944 0.21791375 -1.6565142 4288085770
-1.1850586 0.14511985 -1.7642107 4288085770
-2.5549011 0.23031127 -1.6702757 4288085770
-1.0143433 0.16113615 -1.7640448 4288085770
-2.311554 0.23874152 -1.7115307 4288085770
-0.82281494 0.17729622 -1.7667599 4288085770
-2.0989685 0.25035536 -1.7370768 4282675967
-0.6232605 0.19456118 -1.7692318 4288085770
-1.9251404 0.26305181 -1.7471199 4288085770
-0.41763306 0.2109127 -1.7712135 4288085770
-1.7374573 0.27683204 -1.7594509 4288085770
-0.15490723 0.22548062 -1.7862959 4288085770
-1.5730591 0.29065514 -1.7626581 4288085770
0.041564941 0.24306619 -1.7784557 4288085770
-1.3956604 0.30462563 -1.7660379 4288085770
0.28729248 0.25986826 -1.7810431 4288085770
-1.2141418 0.31966412 -1.7688141 4288085770
0.51858521 0.27671987 -1.7773056 4288085770
-1.0480652 0.33477938 -1.764183 4288085770
0.82284546 0.29292393 -1.7881422 4288085770
-0.8309021 0.34805739 -1.7721148 4288085770
1.1029663 0.31023192 -1.7878084 4288085770
-0.63104248 0.36342996 -1.7715311 4288085770
1.4315491 0.32681781 -1.7958212 4288085770
-0.38986206 0.37695092 -1.7806234 4288085770
1.8197327 0.34285259 -1.8111782 4288085770
-0.15814209 0.39159817 -1.7828779 4288085770
2.2321167 0.35919839 -1.8257046 4288085770
0.054321289 0.40632176 -1.77637 4288085770
2.6971741 0.37596369 -1.8459845 4288085770
0.32492065 0.42030621 -1.7820921 4288085770
3.2358398 0.39233106 -1.8738689 4288085770
0.57818604 0.43538234 -1.7792645 4288085770
3.804657 0.41006356 -1.9014978 4288085770
0.89855957 0.44979453 -1.7894754 4288085770
4.4770508 0.42768735 -1.938426 4288085770
1.2193909 0.46438506 -1.7947092 4288085770
5.2164307 0.44599548 -1.9783869 4288085770
1.6036682 0.47838497 -1.8096361 4288085770
5.9685669 0.46572646 -2.010499 4288085770
2.0258179 0.49274561 -1.8269806 4288085770
6.7463989 0.48699155 -2.0359325 4288085770
2.486908 0.50747699 -1.8468294 4288085770
7.6607666 0.50847042 -2.0726366 4288085770
2.9682922 0.52252412 -1.8644943 4288085770
8.6703796 0.5320121 -2.1109371 4288085770
3.5656738 0.53736186 -1.8986006 4288085770
9.8962708 0.55549246 -2.1666603 4288085770
4.2152405 0.55282456 -1.9323988 4288085770
4.9673157 0.56913513 -1.9764385 4288085770
5.6976318 0.58567715 -2.0064697 4288085770
6.5110779 0.60314494 -2.0379801 4288085770
7.3897095 0.62034827 -2.0703125 4288085770
8.3815918 0.63880891 -2.1048288 4288085770
9.6707764 0.65962422 -2.172163 4288085770
11.100525 0.68110436 -2.2390909 4288085770
3.2750854 2.9234262 -0.67454624 4293729569
3.0663147 2.960681 -0.62702942 4293729569
10.342743 0.70651937 -2.1933508 4288085770
9.0378113 0.70751697 -2.1347332 4288085770
7.9355164 0.71038812 -2.0893164 4288085770
6.9801636 0.71470433 -2.0510912 4288085770
6.1543579 0.72013825 -2.0235109 4288085770
5.4019165 0.72543722 -1.9954643 4288085770
4.6294861 0.73096275 -1.9545898 4288085770
10.714325 0.87128067 -2.2085171 4288085770
3.9499207 0.73633593 -1.9200172 4288085770
9.3556824 0.872868 -2.1441078 4288085770
3.3461304 0.743379 -1.8912897 4288085770
8.2225037 0.87648439 -2.0959539 4288085770
2.7895813 0.74999565 -1.8617601 4288085770
7.2599487 0.88167173 -2.0591307 4288085770
2.3341675 0.75828034 -1.8463745 4288085770
6.4321594 0.88809061 -2.0314102 4288085770
1.8881836 0.76582128 -1.8267832 4288085770
5.6598206 0.89522552 -2.0016479 4288085770
1.4869995 0.77373773 -1.8112202 4288085770
4.9457092 0.90106183 -1.971035 4288085770
1.142395 0.78305423 -1.8027887 4288085770
4.2601318 0.90738732 -1.9359627 4288085770
0.8031311 0.7925607 -1.7908239 4288085770
3.6187439 0.91322464 -1.9008131 4288085770
0.50256348 0.80231738 -1.7843418 4288085770
3.0757751 0.92081338 -1.8765545 4288085770
0.2199707 0.8122617 -1.7784758 4288085770
2.5759277 0.92886996 -1.8531599 4288085770
-0.022003174 0.82347304 -1.778307 4288085770
2.1446533 0.93846256 -1.8369741 4288085770
-0.23709106 0.8348726 -1.7815523 4288085770
1.7237549 0.94628739 -1.8176336 4288085770
-0.44616699 0.84635806 -1.784338 4288085770
1.3554077 0.95647877 -1.8050995 4288085770
-0.67553711 0.85692537 -1.7782412 4288085770
1.0171509 0.96699256 -1.7932596 4288085770
-0.89959717 0.86764455 -1.7696085 4288085770
0.728302 0.97777748 -1.7898798 4288085770
-1.1293335 0.87745941 -1.7564192 4288085770
