# .PCD v0.7 - Point Cloud Data file format
VERSION 0.7
FIELDS x y z rgb
SIZE 4 4 4 4
TYPE F F F U
COUNT 1 1 1 1
WIDTH 1123
HEIGHT 1
VIEWPOINT 0 0 0 1 0 0 0
POINTS 1123
DATA ascii
8.2623291 -2.2529659 -1.7762804 4288085770
12.025055 -3.1966581 -1.9101334 4288085770
7.9944763 -2.2323704 -1.7756872 4288085770
11.407257 -3.1042404 -1.8884716 4288085770
7.7386475 -2.2118034 -1.775033 4288085770
10.823425 -3.0118942 -1.8656359 4288085770
7.4988098 -2.1932755 -1.7762928 4288085770
10.297668 -2.9296865 -1.8464851 4288085770
7.2590027 -2.170742 -1.7745619 4288085770
9.8638916 -2.8667049 -1.8388243 4288085770
7.0481567 -2.1532822 -1.7776728 4288085770
9.4560852 -2.8057842 -1.8310289 4288085770
6.8183289 -2.1277685 -1.7748966 4288085770
9.0312805 -2.7358093 -1.8153381 4288085770
6.5954895 -2.1022701 -1.7720861 4288085770
8.563446 -2.6487169 -1.7889032 4288085770
6.4046631 -2.0828533 -1.7740984 4288085770
8.2316589 -2.594965 -1.7817059 4288085770
6.2258301 -2.065465 -1.7770462 4288085770
7.9378662 -2.5503111 -1.7802963 4288085770
6.0720215 -2.0521412 -1.7848587 4288085770
7.657074 -2.5056858 -1.77882 4288085770
5.8501587 -2.0176296 -1.7740612 4288085770
7.3862915 -2.4610796 -1.7762928 4288085770
5.701355 -2.0023146 -1.7808523 4288085770
7.1174927 -2.413476 -1.7717628 4288085770
5.5335388 -1.9799452 -1.780756 4288085770
6.8996887 -2.3799982 -1.773942 4288085770
5.383728 -1.9596195 -1.7825632 4288085770
6.6789246 -2.3415098 -1.7741489 4288085770
5.2078857 -1.9302206 -1.7765217 4288085770
6.4480896 -2.2989941 -1.7714138 4288085770
5.0770569 -1.9139442 -1.7822227 4288085770
6.2683105 -2.2696085 -1.7773924 4288085770
4.9312134 -1.8906212 -1.7810154 4288085770
6.0765076 -2.2341843 -1.7774448 4288085770
4.7954102 -1.8683224 -1.7817554 4288085770
5.8757019 -2.1937361 -1.7745533 4288085770
4.6555481 -1.8440142 -1.7805204 4288085770
5.7019043 -2.1603527 -1.7755098 4288085770
4.5247192 -1.8217258 -1.7802362 4288085770
5.5421448 -2.1290083 -1.7793913 4288085770
4.4069214 -1.8014727 -1.7828798 4288085770
5.3872986 -2.098671 -1.7812443 4288085770
4.2830811 -1.7771978 -1.7815628 4288085770
5.2165222 -2.0612888 -1.7781935 4288085770
4.1662598 -1.7549429 -1.7822056 4288085770
5.0567322 -2.0249329 -1.7760859 4288085770
4.9139099 -1.993619 -1.7768793 4288085770
4.7971191 -1.9693775 -1.7835274 4288085770
4.6572876 -1.9350653 -1.781312 4288085770
4.5134583 -1.8987408 -1.7771235 4288085770
4.4006653 -1.8724976 -1.7797537 4288085770
4.2698364 -1.8382034 -1.776494 4288085770
4.14505 -1.8039227 -1.7732038 4288085770
4.0482483 -1.7787199 -1.7767506 4288085770
4.0930786 0.20661068 -1.7401457 4288085770
4.2022095 0.21835804 -1.7395868 4288085770
4.3113403 0.23010731 -1.7380285 4288085770
4.4225159 0.24185562 -1.7344599 4288085770
4.5536499 0.25455093 -1.7357855 4288085770
4.6867981 0.26624298 -1.7350998 4288085770
4.84198 0.27887821 -1.7392979 4288085770
3.9820251 0.27781868 -1.7418556 4288085770
4.9841309 0.2915554 -1.737565 4288085770
4.085144 0.28658867 -1.7373228 4288085770
5.1573181 0.30414581 -1.7426672 4288085770
4.2022705 0.29631996 -1.7367172 4288085770
5.3144531 0.31579018 -1.739852 4288085770
4.3344727 0.30700588 -1.7400341 4288085770
5.5066223 0.32933998 -1.744854 4288085770
4.4746704 0.316679 -1.7423067 4288085770
5.6867981 0.34092522 -1.744915 4288085770
4.600769 0.32539558 -1.7386494 4288085770
5.8699036 0.35251141 -1.7419605 4288085770
4.7449341 0.33506107 -1.7389002 4288085770
6.0770874 0.3650341 -1.7428799 4288085770
4.8850403 0.34374237 -1.7361689 4288085770
6.3032837 0.37750721 -1.745697 4288085770
5.0622253 0.35332489 -1.7412424 4288085770
6.5133972 0.38903713 -1.7405968 4288085770
5.2363892 0.36291981 -1.7443314 4288085770
6.7425537 0.40051556 -1.7383957 4288085770
5.4035339 0.37153625 -1.7434549 4288085770
6.9706421 0.41200447 -1.7321987 4288085770
5.6076965 0.38005829 -1.7483816 4288085770
7.2408142 0.42338848 -1.7307787 4288085770
5.7968445 0.38862514 -1.7473879 4288085770
7.5259399 0.43573666 -1.730278 4288085770
6.0180359 0.39710808 -1.752224 4288085770
7.8341064 0.44803524 -1.7296562 4288085770
6.2371826 0.40560532 -1.753068 4288085770
8.1722717 0.4602623 -1.7288733 4288085770
6.4342957 0.41216564 -1.7450275 4288085770
8.5133972 0.47148705 -1.7260704 4288085770
6.6443787 0.41769886 -1.7369127 4288085770
8.9906311 0.48737335 -1.7405519 4288085770
6.8865051 0.42415047 -1.7336311 4288085770
9.3877869 0.49947166 -1.7364521 4288085770
7.1476135 0.43055534 -1.7322464 4288085770
9.9180298 0.51524162 -1.7476492 4288085770
7.4447937 0.43787193 -1.7336702 4288085770
10.547302 0.53276825 -1.7683201 4288085770
7.7419434 0.44319534 -1.7320919 4288085770
11.352692 0.55586243 -1.8050632 4288085770
8.0760803 0.44843102 -1.7323132 4288085770
12.313141 0.58159256 -1.8509827 4288085770
8.4252014 0.45363903 -1.729455 4288085770
13.311554 0.60724449 -1.8906965 4288085770
8.8734436 0.46158981 -1.7420731 4288085770
14.378937 0.6317482 -1.9250383 4288085770
9.2565002 0.46472549 -1.7360268 4288085770
15.546295 0.65603447 -1.9568434 4288085770
9.7757568 0.4705162 -1.7482595 4288085770
17.407074 0.70062637 -2.0499868 4288085770
10.391022 0.47807693 -1.7679815 4288085770
11.152344 0.48827744 -1.8019276 4288085770
12.058746 0.49913216 -1.8450994 4288085770
13.016113 0.5088768 -1.8839941 4288085770
14.132477 0.5182476 -1.9290361 4288085770
15.404938 0.52725983 -1.9782429 4288085770
16.835358 0.53390694 -2.0295963 4288085770
18.890106 0.54904747 -2.1286278 4288085770
7.4936829 -4.9977608 0.079187393 4293729569
7.526062 -4.9719028 0.038322449 4293729569
7.5504456 -4.9380274 -0.0035896301 4293729569
8.3578491 -4.6917038 -0.47680569 4293729569
8.4941711 -4.6950922 -0.51611805 4293729569
8.6853943 -4.7216158 -0.55912685 4293729569
9.0090027 -4.7385168 -0.6404829 4293729569
9.1843262 -4.7489996 -0.68159103 4293729569
9.5379333 -4.7599716 -0.76380348 4293729569
9.7262573 -4.7664862 -0.80485153 4293729569
9.9385681 -4.7820606 -0.84776783 4293729569
10.326202 -4.7831144 -0.92982006 4293729569
10.593506 -4.8108253 -0.97644711 4293729569
10.844818 -4.8264952 -1.0211668 4293729569
11.115143 -4.8462124 -1.0677881 4293729569
11.313263 -4.8177929 -0.4558363 4293729569
11.320465 -4.8357649 -1.1077681 4293729569
11.624512 -4.8455915 -0.490242 4293729569
11.703735 -4.8907633 -1.1627798 4293729569
11.923737 -4.8653584 -0.52371502 4293729569
11.946106 -4.8864088 -1.2045679 4293729569
12.227997 -4.8801365 -0.55617046 4293729569
12.211426 -4.8881102 -1.2482328 4293729569
12.587219 -4.9130478 -0.59032726 4293729569
12.555756 -4.9130068 -1.2974739 4293729569
12.924469 -4.9299049 -0.62361431 4293729569
12.947083 -4.9490261 -1.3524675 4293729569
13.270752 -4.9467831 -0.65585423 4293729569
13.256409 -4.9528341 -1.3969078 4293729569
13.603973 -4.9536285 -0.68717098 4293729569
13.602753 -4.9637356 -1.4451542 4293729569
14.029205 -4.9877005 -0.72299385 4293729569
13.993103 -4.9847469 -1.4971676 4293729569
14.472473 -5.0188122 -0.75773048 4293729569
14.442444 -5.0169058 -1.5528727 4293729569
14.918701 -5.0469322 -0.79245472 4293729569
14.865814 -5.0359974 -1.6057215 4293729569
15.333923 -5.0559721 -0.82335472 4293729569
15.405121 -5.0843801 -1.6689539 4293729569
15.834198 -5.089221 -0.85780048 4293729569
16.117432 -5.1782007 -1.7492638 4293729569
16.379395 -5.1255798 -0.89401531 4293729569
16.630798 -5.203516 -1.8076515 4293729569
16.934631 -5.1579599 -0.92918491 4293729569
16.86319 -5.1371145 -1.8345575 4293729569
17.487885 -5.1793337 -0.96237659 4293729569
17.055634 -5.0556126 -1.8566828 4293729569
18.080078 -5.2078009 -0.99736214 4293729569
17.420044 -5.0215425 -1.894887 4293729569
18.618378 -5.211133 -1.0266485 4293729569
17.998444 -5.0380125 -1.9529581 4293729569
18.660828 -5.0686922 -2.0175905 4293729569
19.427216 -5.1166315 -2.0906763 4293729569
19.158173 1.1259003 -2.1583147 4288085770
17.647949 1.1336269 -2.0961084 4288085770
16.303741 1.1399479 -2.0379391 4288085770
15.021423 1.1371326 -1.9693995 4288085770
14.165436 1.1552258 -1.9434023 4288085770
13.336365 1.1672668 -1.9112415 4288085770
12.603363 1.1800709 -1.8835249 4288085770
11.939362 1.1917019 -1.8564043 4288085770
11.24527 1.1954269 -1.8184538 4288085770
10.65921 1.2028809 -1.7878771 4288085770
19.229675 2.0906887 -2.1427984 4288085770
10.104187 1.2082577 -1.7571192 4288085770
17.67215 2.0345554 -2.0638208 4288085770
9.6992493 1.2242451 -1.7444983 4288085770
16.583984 2.0132294 -2.0241432 4288085770
9.3513489 1.2420902 -1.7365446 4288085770
15.500732 1.9829121 -1.9734297 4288085770
9.0715637 1.2657604 -1.7362032 4288085770
14.667633 1.9719563 -1.9442759 4288085770
8.8347473 1.2933159 -1.7416143 4288085770
13.96463 1.9696751 -1.9223757 4288085770
8.5759277 1.3159313 -1.7411499 4288085770
13.260559 1.9614086 -1.8944759 4288085770
8.3391418 1.3394966 -1.7405596 4288085770
12.597504 1.9520473 -1.8653383 4288085770
8.1163025 1.3630295 -1.7398872 4288085770
12.021454 1.947464 -1.8406963 4288085770
7.9275208 1.3884716 -1.7430182 4288085770
11.429352 1.9349346 -1.8091421 4288085770
7.7507019 1.4148846 -1.7470808 4288085770
10.904266 1.9262371 -1.7811995 4288085770
7.5488892 1.4363747 -1.7432861 4288085770
10.449249 1.9233608 -1.7588568 4288085770
7.3590393 1.4568272 -1.7404203 4288085770
10.04129 1.924366 -1.740243 4288085770
7.2012329 1.4811993 -1.7413702 4288085770
9.6802979 1.9282551 -1.7243576 4288085770
7.0764465 1.5104828 -1.7481346 4288085770
9.3914185 1.9419575 -1.7170639 4288085770
6.903595 1.5299034 -1.7431688 4288085770
9.1435852 1.9605503 -1.7145348 4288085770
6.7667847 1.5552235 -1.7440004 4288085770
8.974823 1.992939 -1.7225599 4288085770
6.6409912 1.5805206 -1.7447672 4288085770
8.7259521 2.006546 -1.7150326 4288085770
6.5292053 1.6077785 -1.748455 4288085770
8.5451355 2.0319729 -1.7161207 4288085770
6.4173889 1.6340408 -1.7501411 4288085770
8.3552856 2.0534267 -1.7142572 4288085770
6.2975769 1.6583233 -1.7488718 4288085770
8.1924744 2.0798092 -1.7162428 4288085770
6.1827393 1.6815987 -1.7465734 4288085770
8.0426941 2.1061649 -1.7171526 4288085770
6.0869446 1.7088184 -1.7491693 4288085770
7.8868713 2.130518 -1.7161236 4288085770
6.0051575 1.7379875 -1.7527132 4288085770
7.7540588 2.1588287 -1.7179356 4288085770
5.9033508 1.7622318 -1.7503405 4288085770
7.6112671 2.1831684 -1.7168016 4288085770
5.8014832 1.7834797 -1.7459631 4288085770
7.5104675 2.2154007 -1.7204304 4288085770
5.7377014 1.8146191 -1.7513762 4288085770
7.3756409 2.2397232 -1.7172508 4288085770
5.6228333 1.8329029 -1.7420731 4288085770
7.2678223 2.2689781 -1.7179193 4288085770
5.5520325 1.8610649 -1.7425251 4288085770
7.1469727 2.2932682 -1.7146587 4288085770
5.4832153 1.8882294 -1.7419634 4288085770
7.0892944 2.3343849 -1.7240477 4288085770
5.4354553 1.922327 -1.7482862 4288085770
6.9824829 2.3606434 -1.7207079 4288085770
5.338562 1.9405689 -1.7388802 4288085770
6.8936462 2.3918514 -1.7202673 4288085770
5.2757568 1.9687157 -1.7372847 4288085770
6.8198853 2.4270191 -1.7227449 4288085770
5.2189941 1.9988461 -1.7376585 4288085770
6.7280273 2.4552402 -1.7183189 4288085770
5.1541443 2.0250034 -1.7340727 4288085770
6.6452332 2.4854374 -1.7168436 4288085770
5.1143494 2.0590897 -1.736351 4288085770
6.5774536 2.5195961 -1.7162867 4288085770
5.0605469 2.0872154 -1.734704 4288085770
6.515686 2.5557384 -1.7166948 4288085770
5.0157776 2.1183186 -1.7340069 4288085770
6.4508972 2.5898895 -1.7151194 4288085770
4.9679565 2.1484318 -1.7323275 4288085770
6.3930664 2.6250286 -1.7135029 4288085770
4.9341431 2.1825066 -1.7325706 4288085770
6.3372803 2.6611576 -1.7118778 4288085770
4.8903503 2.2136097 -1.7298698 4288085770
6.2864685 2.699276 -1.7112255 4288085770
4.8475647 2.2437115 -1.7271624 4288085770
6.2356873 2.7353954 -1.7085705 4288085770
4.8097229 2.2758026 -1.7244263 4288085770
6.2109375 2.7814465 -1.7107744 4288085770
4.7889709 2.3138409 -1.7265987 4288085770
6.176178 2.8225231 -1.7110319 4288085770
4.7611389 2.3479042 -1.7248077 4288085770
6.1534119 2.8695736 -1.7122269 4288085770
4.7433777 2.3869419 -1.7259636 4288085770
6.1196594 2.9106483 -1.7104788 4288085770
4.7236023 2.4249821 -1.725131 4288085770
6.1079102 2.9606647 -1.7126122 4288085770
4.6907654 2.4560642 -1.7203655 4288085770
6.0921631 3.0086994 -1.7127666 4288085770
4.6930237 2.503046 -1.7244139 4288085770
6.0723877 3.0557461 -1.7109432 4288085770
4.676239 2.5410843 -1.7225637 4288085770
6.0786438 3.1117172 -1.7149773 4288085770
4.6614685 2.5801182 -1.7207022 4288085770
6.0759583 3.1657181 -1.7150631 4288085770
4.6466675 2.6181526 -1.7178402 4288085770
6.0732117 3.2187176 -1.715148 4288085770
4.625824 2.6542072 -1.7120104 4288085770
6.0854797 3.2796783 -1.7171526 4288085770
4.6361084 2.7041721 -1.714016 4288085770
6.1078186 3.3456135 -1.7211056 4288085770
4.6262817 2.7441959 -1.7101259 4288085770
6.1300964 3.4105511 -1.7230587 4288085770
4.6265259 2.7881927 -1.7081823 4288085770
6.1423645 3.4705143 -1.7230616 4288085770
4.6367493 2.8371639 -1.7081861 4288085770
6.1636658 3.5354576 -1.7230196 4288085770
4.651062 2.8891201 -1.7091703 4288085770
6.1769104 3.5964241 -1.7200193 4288085770
4.6763306 2.9470501 -1.7120962 4288085770
6.2102051 3.6683369 -1.7209139 4288085770
4.6925659 2.9990063 -1.7110682 4288085770
6.2425232 3.739254 -1.7208147 4288085770
4.7168274 3.0559368 -1.7119999 4288085770
6.2898254 3.8171349 -1.7216358 4288085770
4.743103 3.1128712 -1.7119198 4288085770
6.3351746 3.8960152 -1.7224684 4288085770
4.7964478 3.1847267 -1.719697 4288085770
6.3965149 3.9818592 -1.725214 4288085770
4.8367615 3.2516193 -1.7215452 4288085770
6.4448242 4.0617409 -1.723031 4288085770
4.8619995 3.3085556 -1.7184706 4288085770
6.5121765 4.1525726 -1.7247467 4288085770
4.9253845 3.3863869 -1.7251959 4288085770
6.5765381 4.2414112 -1.7234793 4288085770
4.9816895 3.4612427 -1.7279587 4288085770
6.6248169 4.3223 -1.7162971 4288085770
5.0510864 3.5440578 -1.7346563 4288085770
6.7402649 4.4400005 -1.724762 4288085770
5.1073914 3.6189156 -1.7354183 4288085770
6.8266296 4.5427895 -1.7243814 4288085770
5.1556702 3.6887989 -1.7322216 4288085770
6.9410706 4.6615028 -1.7278528 4288085770
5.210968 3.762661 -1.7299881 4288085770
7.0585327 4.7822094 -1.7303104 4288085770
5.2772827 3.8424969 -1.7296963 4288085770
7.2070312 4.9218349 -1.7376051 4288085770
5.3526306 3.9293118 -1.7293615 4288085770
7.3485413 5.0584793 -1.7409401 4288085770
5.4440308 4.0240784 -1.7329407 4288085770
7.4899902 5.1961346 -1.7412729 4288085770
5.5393982 4.1228371 -1.7354994 4288085770
7.6214294 5.3268166 -1.738657 4288085770
5.6127014 4.206665 -1.7301702 4288085770
7.7999573 5.4873734 -1.7427998 4288085770
5.7040405 4.3014412 -1.7287474 4288085770
7.9654541 5.6399746 -1.7410088 4288085770
5.800415 4.3992081 -1.7262974 4288085770
8.1730347 5.819458 -1.7460003 4288085770
5.9248047 4.5148964 -1.7287035 4288085770
8.3735962 5.9949722 -1.7450285 4288085770
6.0632935 4.6395512 -1.7330389 4288085770
8.616272 6.1973743 -1.7498398 4288085770
6.2027283 4.7642059 -1.7353659 4288085770
8.8929749 6.42169 -1.7574749 4288085770
6.3491821 4.8928471 -1.7366552 4288085770
9.1817322 6.6549778 -1.7630501 4288085770
6.5196838 5.0374222 -1.7418213 4288085770
9.5987549 6.9719296 -1.7859678 4288085770
6.7142944 5.1969337 -1.7498627 4288085770
9.9475708 7.2450695 -1.7942324 4288085770
6.8877563 5.341507 -1.7500095 4288085770
10.515991 7.6646347 -1.8313789 4288085770
7.07724 5.4970474 -1.7500725 4288085770
7.2948608 5.669508 -1.7549896 4288085770
7.5003662 5.8350124 -1.7519674 4288085770
7.7489624 6.0274029 -1.755722 4288085770
7.9985657 6.2197933 -1.7564688 4288085770
8.3022766 6.4470444 -1.7629366 4288085770
8.6200256 6.6832619 -1.7693291 4288085770
8.9598083 6.9324303 -1.7736073 4288085770
9.2985535 7.1796093 -1.7738838 4288085770
9.914978 7.6170464 -1.8167467 4288085770
18.684723 -1.6626549 -2.1856127 4288085770
17.198456 -1.616951 -2.1176138 4288085770
15.890228 -1.5726862 -2.0554276 4288085770
14.791138 -1.5379534 -2.0078278 4288085770
13.868042 -1.5096645 -1.9710388 4288085770
12.998962 -1.4795074 -1.9348946 4288085770
12.288971 -1.4587555 -1.9106712 4288085770
11.633972 -1.4371386 -1.8880816 4288085770
10.994995 -1.4115534 -1.8613949 4288085770
18.630249 -2.3655996 -2.1992817 4288085770
10.432983 -1.389164 -1.8401899 4288085770
17.105133 -2.2478018 -2.1317101 4288085770
9.9450684 -1.3719654 -1.8264771 4288085770
15.687042 -2.1322613 -2.0634212 4288085770
9.486145 -1.3538389 -1.8125753 4288085770
14.552032 -2.0424366 -2.0141878 4288085770
9.0622253 -1.3367958 -1.7994375 4288085770
13.604095 -1.9700909 -1.9796686 4288085770
8.6402893 -1.3157549 -1.7832966 4288085770
12.786163 -1.9060698 -1.950263 4288085770
8.2993774 -1.3019247 -1.776597 4288085770
11.992188 -1.8400974 -1.9167023 4288085770
8.0155334 -1.2942476 -1.7785044 4288085770
11.289246 -1.7813568 -1.8895197 4288085770
7.7086487 -1.2805033 -1.7735796 4288085770
10.654327 -1.7267838 -1.8638744 4288085770
7.4377747 -1.2688522 -1.7724085 4288085770
10.093414 -1.6783981 -1.8437204 4288085770
7.1749268 -1.256217 -1.7691879 4288085770
9.5444946 -1.6270342 -1.8194952 4288085770
6.9561157 -1.248702 -1.7736616 4288085770
9.0915833 -1.5879192 -1.8046007 4288085770
6.7332458 -1.2391729 -1.7761669 4288085770
8.6667175 -1.5488749 -1.7915211 4288085770
6.5354309 -1.2307081 -1.7805033 4288085770
8.290863 -1.5149555 -1.7821016 4288085770
6.337616 -1.2212429 -1.7838421 4288085770
7.9800415 -1.4902086 -1.7812281 4288085770
6.158783 -1.2128267 -1.7890501 4288085770
7.6742249 -1.462471 -1.778327 4288085770
5.9368896 -1.1942816 -1.7815704 4288085770
7.3883972 -1.43678 -1.7752905 4288085770
5.7670898 -1.1838808 -1.7847242 4288085770
7.1225586 -1.4111404 -1.773118 4288085770
5.5762024 -1.1684198 -1.7800312 4288085770
6.8997192 -1.3926153 -1.7776423 4288085770
5.4143372 -1.1560345 -1.7811356 4288085770
6.664917 -1.36905 -1.7762594 4288085770
5.2525024 -1.1426497 -1.7802439 4288085770
6.4620972 -1.3495741 -1.780653 4288085770
5.0976868 -1.1292772 -1.7793055 4288085770
6.2743225 -1.3311338 -1.7849445 4288085770
4.9508057 -1.1149273 -1.779315 4288085770
6.0805054 -1.3106756 -1.787281 4288085770
4.8009644 -1.1005669 -1.7763462 4288085770
5.9147034 -1.2942886 -1.7924204 4288085770
4.6641235 -1.0862389 -1.7752886 4288085770
5.6918335 -1.2647352 -1.7809734 4288085770
4.5613403 -1.0780134 -1.7839909 4288085770
5.5210266 -1.2433281 -1.7811594 4288085770
5.3411865 -1.2198915 -1.7774096 4288085770
5.1833191 -1.1985168 -1.7765083 4288085770
5.0264587 -1.1771393 -1.774601 4288085770
4.890686 -1.1598206 -1.777545 4288085770
4.757843 -1.1405087 -1.778471 4288085770
4.6069641 -1.1171389 -1.7725286 4288085770
4.4881592 -1.0988607 -1.7743607 4288085770
4.5776062 0.84829903 -1.7408924 4288085770
4.6917114 0.86103058 -1.7350864 4288085770
4.8438721 0.87864876 -1.7390146 4288085770
4.9920959 0.8942852 -1.7399683 4288085770
5.1462708 0.90990448 -1.7408791 4288085770
5.299408 0.92453575 -1.737793 4288085770
5.4525146 0.93816566 -1.7337036 4288085770
4.5154419 0.83840752 -1.7432499 4288085770
5.6276855 0.95373535 -1.7344589 4288085770
4.641571 0.84810257 -1.7413502 4288085770
5.8018494 0.96831894 -1.7312202 4288085770
4.7767029 0.85777283 -1.7403831 4288085770
6.0110779 0.98679733 -1.735734 4288085770
4.9359131 0.87037468 -1.7442493 4288085770
6.2012024 1.0013409 -1.7313757 4288085770
5.0890503 0.8809967 -1.7451544 4288085770
6.4143982 1.0168209 -1.730855 4288085770
5.2392273 0.88963318 -1.7430763 4288085770
6.6225281 1.0313225 -1.726366 4288085770
5.4023132 0.89923668 -1.7419052 4288085770
6.8416443 1.044796 -1.7227945 4288085770
5.5614929 0.90685081 -1.738759 4288085770
7.1048584 1.0631504 -1.7239132 4288085770
5.7315979 0.91544151 -1.7355337 4288085770
7.3790283 1.0804825 -1.7249489 4288085770
5.9388123 0.92592621 -1.7400436 4288085770
7.6762695 1.098753 -1.7278194 4288085770
6.1359558 0.93444633 -1.7396212 4288085770
7.9994202 1.1189613 -1.7305031 4288085770
6.3270569 0.94098663 -1.7352371 4288085770
8.3146362 1.1351986 -1.7292376 4288085770
6.5722961 0.95237923 -1.7404718 4288085770
8.6407471 1.1504173 -1.7238865 4288085770
6.7874146 0.95786285 -1.7359104 4288085770
9.0730286 1.1753445 -1.734786 4288085770
6.9954834 0.96137238 -1.7273951 4288085770
9.492218 1.1953259 -1.7367697 4288085770
7.2616272 0.96871948 -1.7294655 4288085770
10.012543 1.2240372 -1.7510347 4288085770
7.5617981 0.97898102 -1.7342939 4288085770
10.737091 1.2702103 -1.7898521 4288085770
7.828949 0.98233795 -1.7303467 4288085770
11.523651 1.317234 -1.8282175 4288085770
8.1321106 0.98760223 -1.7291412 4288085770
12.35614 1.3631516 -1.863245 4288085770
8.4662476 0.99378777 -1.7297106 4288085770
13.361786 1.4206276 -1.912034 4288085770
8.8965454 1.0067177 -1.7445946 4288085770
14.299286 1.4643078 -1.9392853 4288085770
9.2406311 1.0068893 -1.7390766 4288085770
15.506927 1.5252934 -1.9876051 4288085770
9.6337585 1.0089397 -1.7372046 4288085770
16.992767 1.6015759 -2.0539284 4288085770
10.179077 1.0215836 -1.7552462 4288085770
18.737732 1.6872177 -2.1293831 4288085770
10.938629 1.0466576 -1.8007545 4288085770
11.688019 1.0658016 -1.8343267 4288085770
12.599579 1.0905094 -1.8817415 4288085770
13.548096 1.110136 -1.9238749 4288085770
14.448425 1.1199074 -1.949337 4288085770
15.600983 1.1380348 -1.9949799 4288085770
17.207855 1.1739902 -2.0803537 4288085770
18.769531 1.1940975 -2.1430206 4288085770
5.6745605 -4.5586929 -0.40563679 4293729569
5.6969299 -4.5668297 -0.44645119 4293729569
5.7233887 -4.5759754 -0.48823357 4293729569
5.7467957 -4.5801134 -0.52804756 4293729569
5.7612 -4.5772276 -0.56794167 4293729569
5.785614 -4.5793657 -0.6077528 4293729569
5.8230286 -4.5875416 -0.64945507 4293729569
5.8394775 -4.5796585 -0.688344 4293729569
5.8968811 -4.5988827 -0.73087597 4293729569
6.0161438 -4.6054144 -0.85296249 4293729569
6.0396118 -4.5925493 -0.89180851 4293729569
6.1048584 -4.5619879 -0.50936508 4293729569
6.0940247 -4.5987654 -0.93338585 4293729569
6.1642761 -4.5672102 -0.54790878 4293729569
6.0944824 -4.5668344 -0.96743965 4293729569
6.2536926 -4.5895071 -0.58919525 4293729569
6.1599121 -4.5760784 -1.0099306 4293729569
6.2473145 -4.5973806 -1.0562334 4293729569
6.4224548 -4.6220808 -0.67086506 4293729569
8.8607788 -6.2595186 -1.4885626 4293729569
6.4688721 -4.6102638 -0.70653629 4293729569
6.4151917 -4.6279659 -1.1459131 4293729569
6.511322 -4.595439 -0.74224281 4293729569
6.4336548 -4.5990791 -1.1798267 4293729569
6.4960632 -4.5963125 -1.2203608 4293729569
6.7011108 -4.6240606 -0.82376194 4293729569
8.04422 -5.5216122 -1.5140352 4293729569
6.7785339 -4.6243229 -0.8611784 4293729569
6.6859436 -4.6229506 -1.3108826 4293729569
7.4446106 -4.9791374 -0.96652126 4293729569
6.7693787 -4.6262388 -1.354248 4293729569
6.9553223 -4.6319056 -0.93783188 4293729569
6.9348145 -4.6767492 -1.4109106 4293729569
7.0606995 -4.6412392 -0.97802162 4293729569
6.9902649 -4.657958 -1.4475279 4293729569
11.511292 -7.202116 -1.5688782 4293729569
7.2526855 -4.7607374 -1.5223656 4293729569
7.2755432 -4.6569166 -1.057375 4293729569
7.1771545 -4.6585798 -1.5331182 4293729569
10.7258 -6.5781746 -1.5409164 4293729569
7.1045837 -4.5594263 -1.5428438 4293729569
7.4763489 -4.6555548 -1.132864 4293729569
7.0619812 -4.4783554 -1.5563107 4293729569
10.159088 -6.0947866 -1.5270557 4293729569
7.1284485 -4.4575853 -1.590847 4293729569
7.7481689 -4.6833773 -1.215766 4293729569
7.2489014 -4.4659653 -1.6349258 4293729569
7.8216248 -4.6606197 -1.2472534 4293729569
7.3733215 -4.4733553 -1.6799746 4293729569
8.0410156 -4.7132521 -1.2995043 4293729569
7.4937744 -4.4767313 -1.7230606 4293729569
9.0862732 -5.199111 -1.4727497 4293729569
7.6222534 -4.4811306 -1.7670851 4288085770
8.2868042 -4.7069941 -1.3726635 4293729569
7.7807007 -4.4996099 -1.8158579 4288085770
8.8352051 -4.9185143 -1.4731464 4293729569
7.9091492 -4.4990063 -1.8588905 4288085770
8.5786438 -4.7128563 -1.4514513 4293729569
7.9545593 -4.4521646 -1.8826332 4282675967
8.6510925 -4.6760855 -1.4769716 4293729569
7.8659363 -4.337945 -1.8765078 4282675967
8.7404785 -4.6463575 -1.5043507 4293729569
7.7632446 -4.2186794 -1.8654957 4288085770
8.6898804 -4.5472479 -1.5089102 4293729569
7.6805725 -4.108469 -1.8573179 4288085770
8.8292847 -4.5386524 -1.5428743 4293729569
7.5918884 -3.9982386 -1.8461857 4288085770
9.0236816 -4.5532045 -1.5833817 4293729569
7.5541992 -3.9121494 -1.8446255 4288085770
9.2080688 -4.5617275 -1.6219749 4293729569
7.4974976 -3.819005 -1.8382215 4288085770
9.3954773 -4.5662556 -1.6595516 4293729569
7.4598083 -3.7349119 -1.8346567 4288085770
9.5939026 -4.5748148 -1.6990404 4293729569
7.4371033 -3.6568604 -1.8339691 4288085770
9.7982788 -4.5803862 -1.7374868 4293729569
7.4074097 -3.5757837 -1.82934 4288085770
10.028717 -4.5950251 -1.7787218 4293729569
7.40271 -3.5057802 -1.8305016 4288085770
10.256165 -4.6036558 -1.8189898 4293729569
7.3839722 -3.4317322 -1.8267765 4288085770
10.496552 -4.6163177 -1.8601513 4288085770
7.3692322 -3.3596916 -1.8220177 4288085770
10.742981 -4.6269922 -1.899272 4288085770
7.3765259 -3.2967157 -1.8220758 4288085770
10.903351 -4.599432 -1.9251099 4288085770
7.3917847 -3.2367582 -1.8230686 4288085770
10.952698 -4.527566 -1.9298649 4288085770
7.3880615 -3.1697445 -1.8182182 4288085770
10.973999 -4.4436207 -1.9288521 4288085770
7.4073486 -3.110795 -1.8181791 4288085770
11.003326 -4.3616943 -1.9277773 4288085770
7.4275513 -3.0528479 -1.8171301 4288085770
11.071625 -4.2958698 -1.9313784 4288085770
7.4608154 -2.9989328 -1.8169765 4288085770
11.137939 -4.2270403 -1.934 4288085770
7.4750671 -2.9379616 -1.8119793 4288085770
11.180237 -4.1501398 -1.9308176 4288085770
7.5083008 -2.8840437 -1.8108244 4288085770
11.259521 -4.0843391 -1.9323349 4288085770
7.5535278 -2.8331594 -1.8105745 4288085770
11.347839 -4.0225601 -1.9337778 4288085770
7.5687866 -2.7731838 -1.8025684 4288085770
11.436096 -3.9587784 -1.9342222 4288085770
7.6190186 -2.7243099 -1.8022766 4288085770
11.560303 -3.9060631 -1.9373865 4288085770
7.6831665 -2.6784449 -1.802887 4288085770
11.686615 -3.8523788 -1.940547 4288085770
7.7484436 -2.633606 -1.8024893 4288085770
11.794891 -3.7906418 -1.9388609 4288085770
7.8116455 -2.5877619 -1.8021097 4288085770
11.941132 -3.7400036 -1.941865 4288085770
7.8748779 -2.5399113 -1.7987328 4288085770
12.064423 -3.6813002 -1.9390593 4288085770
7.9521179 -2.4961014 -1.7982426 4288085770
12.278687 -3.6478405 -1.9485207 4288085770
8.0193176 -2.4492617 -1.7948332 4288085770
12.434906 -3.5942202 -1.9474564 4288085770
8.0985413 -2.4054518 -1.7923279 4288085770
12.643219 -3.5547352 -1.9519758 4288085770
8.1897583 -2.3626728 -1.7907314 4288085770
12.880432 -3.5183249 -1.9582691 4288085770
8.3170166 -2.3279924 -1.7948484 4288085770
13.161743 -3.4910278 -1.9692163 4288085770
8.4191895 -2.287241 -1.7931633 4288085770
13.442993 -3.4607267 -1.9771681 4288085770
8.563446 -2.2556019 -1.7981462 4288085770
13.738251 -3.4314594 -1.985013 4288085770
8.7637329 -2.235116 -1.8116875 4288085770
14.07251 -3.4052887 -1.9945583 4288085770
8.9119568 -2.2004805 -1.8136463 4288085770
14.500824 -3.3973627 -2.0133629 4288085770
9.1092224 -2.1749792 -1.8222198 4288085770
14.947144 -3.3884811 -2.0320349 4288085770
9.2684326 -2.139369 -1.8230972 4288085770
15.484436 -3.3938303 -2.0579948 4288085770
9.4666748 -2.1098642 -1.8296709 4288085770
16.094788 -3.4063663 -2.0883932 4288085770
9.6828918 -2.0814028 -1.8361063 4288085770
16.76413 -3.4240503 -2.1213388 4288085770
9.9321899 -2.0580311 -1.8472862 4288085770
17.508484 -3.4489231 -2.1587057 4288085770
10.174438 -2.0316343 -1.8545227 4288085770
18.305847 -3.4739237 -2.1956758 4288085770
10.411713 -1.9992161 -1.8578081 4288085770
19.153229 -3.4970417 -2.2312737 4288085770
10.713959 -1.9769735 -1.869586 4288085770
11.046265 -1.9568081 -1.8841343 4288085770
11.33252 -1.9255095 -1.888051 4288085770
11.746826 -1.910552 -1.9079733 4288085770
12.116058 -1.8844681 -1.9172544 4288085770
12.559418 -1.8665762 -1.9349661 4288085770
13.039703 -1.8477726 -1.9524002 4288085770
13.48999 -1.8188839 -1.9620781 4288085770
14.02832 -1.7972202 -1.9790821 4288085770
14.683685 -1.7838583 -2.0051918 4288085770
15.442078 -1.7747564 -2.0385189 4288085770
16.287567 -1.765871 -2.074192 4288085770
17.287048 -1.7643766 -2.1206951 4288085770
18.462677 -1.7693291 -2.1778641 4288085770
18.729431 2.4039497 -2.1054182 4288085770
17.865326 2.4231071 -2.0688343 4288085770
17.022186 2.4352226 -2.0280828 4288085770
16.28006 2.4500771 -1.9935884 4288085770
15.694061 2.4785366 -1.9709692 4288085770
15.178101 2.5108166 -1.9528379 4288085770
14.665131 2.5390949 -1.9316797 4288085770
14.224213 2.5711899 -1.9149952 4288085770
13.863342 2.6130791 -1.9057379 4288085770
13.4534 2.6410999 -1.8878174 4288085770
13.109497 2.6769543 -1.874424 4288085770
12.770569 2.7098007 -1.8589869 4288085770
12.459656 2.7425747 -1.8453426 4288085770
12.115662 2.7664452 -1.8249264 4288085770
11.841766 2.8011265 -1.8110142 4288085770
11.571869 2.8328018 -1.7970667 4288085770
11.352997 2.8733463 -1.7877579 4288085770
11.150146 2.9148502 -1.7783318 4288085770
10.945282 2.9533615 -1.7679167 4288085770
10.785461 2.9997559 -1.7611828 4288085770
10.618622 3.0431747 -1.7524958 4288085770
10.519897 3.101408 -1.753334 4288085770
10.432159 3.1626167 -1.754096 4288085770
10.302338 3.2109394 -1.7471437 4288085770
10.235657 3.2760944 -1.7487583 4288085770
19.460327 5.9460201 -2.1426611 4288085770
10.144867 3.3333187 -1.7445335 4288085770
19.413879 6.0841122 -2.1532583 4288085770
10.088165 3.4004517 -1.7450771 4288085770
19.164062 6.1587334 -2.1402369 4288085770
10.028442 3.4645939 -1.743638 4288085770
19.071503 6.279953 -2.1421442 4288085770
9.9917297 3.5366764 -1.7450409 4288085770
18.911774 6.3793507 -2.133503 4288085770
9.9399719 3.6038055 -1.742548 4288085770
18.865265 6.5134583 -2.1360922 4288085770
9.9233398 3.6818371 -1.7448158 4288085770
18.679474 6.6009312 -2.1206226 4288085770
9.9186707 3.7638416 -1.7480011 4288085770
18.554779 6.7082481 -2.1107388 4293729569
9.9240112 3.8488178 -1.7501192 4288085770
18.512177 6.8413525 -2.107295 4293729569
9.9203491 3.9328232 -1.7513018 4288085770
18.449554 6.967514 -2.0989876 4293729569
9.9156494 4.0138302 -1.7504854 4288085770
18.655365 7.190979 -2.1188793 4293729569
9.9370422 4.1067715 -1.7524996 4288085770
18.806091 7.3985901 -2.1281471 4293729569
9.9072876 4.1798515 -1.7458525 4288085770
19.016846 7.6290493 -2.1440134 4293729569
9.9486389 4.2807426 -1.7487335 4288085770
19.359894 7.9171696 -2.17101 4288085770
10.030151 4.3995247 -1.7573509 4288085770
10.094574 4.5103588 -1.7610788 4288085770
10.200043 4.6410828 -1.7705393 4288085770
10.32959 4.781744 -1.7818422 4288085770
10.432129 4.914484 -1.7873297 4288085770
10.574677 5.0661182 -1.797555 4288085770
10.739288 5.2276936 -1.8096361 4288085770
10.878845 5.3823395 -1.8158894 4288085770
11.05545 5.5538902 -1.8259001 4288085770
11.229065 5.7284508 -1.8339386 4288085770
11.416687 5.9099789 -1.8408852 4288085770
11.653412 6.119379 -1.8535194 4288085770
11.969299 6.3715725 -1.874649 4288085770
12.245117 6.6068783 -1.887043 4288085770
12.536896 6.8551483 -1.8983421 4288085770
12.753571 7.0676212 -1.8961315 4288085770
13.174622 7.3895531 -1.9206104 4288085770
13.630798 7.7343998 -1.9448729 4288085770
18.871552 -0.86524105 -2.1676521 4288085770
17.074158 -0.83475494 -2.0865059 4288085770
15.551819 -0.80595398 -2.0153971 4288085770
14.365601 -0.78700638 -1.9688797 4288085770
13.373474 -0.77054596 -1.9329777 4288085770
12.483368 -0.75433826 -1.9003468 4288085770
11.711334 -0.73942471 -1.8728743 4288085770
10.997284 -0.72365475 -1.8459892 4288085770
18.291534 -1.1938229 -2.1484537 4288085770
10.326202 -0.70698166 -1.8167982 4288085770
16.381134 -1.1070337 -2.0471811 4288085770
9.7171631 -0.68946552 -1.788167 4288085770
15.054962 -1.0527411 -1.9967051 4288085770
9.2532043 -0.68032932 -1.7794905 4288085770
13.865845 -1.000783 -1.9472513 4288085770
8.8373108 -0.67131233 -1.7724724 4288085770
12.922791 -0.9604454 -1.9140282 4288085770
8.4414062 -0.66134167 -1.7643137 4288085770
12.106812 -0.92542934 -1.8888941 4288085770
8.1375427 -0.6556139 -1.7694941 4288085770
11.327789 -0.88949585 -1.8594961 4288085770
7.8036804 -0.64679909 -1.7648907 4288085770
10.607758 -0.85370445 -1.8276787 4288085770
7.5227966 -0.64012527 -1.7659073 4288085770
9.9787292 -0.82114124 -1.802207 4288085770
7.2398987 -0.6304388 -1.7639418 4288085770
9.4377747 -0.79380322 -1.783103 4288085770
6.9980774 -0.62385941 -1.7676811 4288085770
9.000885 -0.7727375 -1.7762489 4288085770
6.7732544 -0.61632442 -1.7722988 4288085770
8.5669861 -0.74966621 -1.7633772 4288085770
6.543396 -0.60777092 -1.7719555 4288085770
8.256134 -0.73592567 -1.7696161 4288085770
6.3154907 -0.59721661 -1.7695999 4288085770
7.9313049 -0.71813679 -1.7679625 4288085770
6.1026306 -0.58770084 -1.7681341 4288085770
7.62146 -0.70138359 -1.7651978 4288085770
5.9308167 -0.58029938 -1.7753763 4288085770
7.3336182 -0.68368626 -1.7642784 4288085770
5.7409668 -0.57083988 -1.7737474 4288085770
7.0617371 -0.66702843 -1.7622433 4288085770
5.5621033 -0.56040859 -1.7730417 4288085770
6.8188782 -0.65144253 -1.7630005 4288085770
5.400238 -0.55102158 -1.7752142 4288085770
6.605072 -0.63793468 -1.7665482 4288085770
5.240387 -0.54163837 -1.7753716 4288085770
6.3842163 -0.62240028 -1.767148 4288085770
5.069519 -0.52921963 -1.7706108 4288085770
6.1743774 -0.60689354 -1.7656698 4288085770
4.9096069 -0.51782703 -1.76577 4288085770
5.9865112 -0.59344482 -1.768033 4288085770
4.7657776 -0.50648212 -1.7648172 4288085770
5.8067017 -0.57901764 -1.77034 4288085770
4.6479492 -0.49820423 -1.7696743 4288085770
5.6348572 -0.56460381 -1.7715893 4288085770
4.5301208 -0.48792839 -1.7735338 4288085770
5.4559937 -0.54916763 -1.76789 4288085770
5.2861328 -0.53275585 -1.7661276 4288085770
5.1503296 -0.52043629 -1.7711191 4288085770
4.9854431 -0.50403214 -1.7653208 4288085770
4.8405762 -0.48868179 -1.7633791 4288085770
4.7077332 -0.47436237 -1.7633505 4288085770
4.5838928 -0.46106625 -1.7642565 4288085770
4.5443726 1.4925976 -1.7221031 4288085770
4.6615295 1.5123119 -1.7193108 4288085770
4.8157959 1.5409241 -1.7262716 4288085770
4.9449768 1.5616112 -1.7243977 4288085770
5.1142273 1.592186 -1.732255 4288085770
5.2584229 1.6138325 -1.7312765 4288085770
5.4075623 1.6364727 -1.7292633 4288085770
4.492157 1.4336758 -1.7344027 4288085770
5.5877991 1.6650238 -1.7350407 4288085770
4.5772095 1.4394836 -1.7228155 4288085770
5.7650146 1.6905861 -1.7368355 4288085770
4.7133789 1.4571457 -1.7258863 4288085770
5.9692688 1.7220783 -1.7434483 4288085770
4.8405457 1.4718361 -1.7240171 4288085770
6.1514282 1.7456341 -1.743206 4288085770
4.9887695 1.4894676 -1.7280035 4288085770
6.337616 1.7691822 -1.7409334 4288085770
5.1429443 1.5070839 -1.7309475 4288085770
6.5368347 1.7936993 -1.7395716 4288085770
5.2961426 1.5237083 -1.7328978 4288085770
6.7720337 1.8241177 -1.7449646 4288085770
5.4573364 1.5403118 -1.7347927 4288085770
6.9631653 1.8426628 -1.7366505 4288085770
5.6084595 1.5519447 -1.7317495 4288085770
7.1833191 1.8661308 -1.733139 4288085770
5.8056641 1.5734539 -1.739397 4288085770
7.4194946 1.8905602 -1.7305183 4288085770
6.0319824 1.5988808 -1.7528458 4288085770
7.6786804 1.9169292 -1.7287359 4288085770
6.1910706 1.6085014 -1.7467442 4288085770
7.9538879 1.9452591 -1.7288456 4288085770
6.3762207 1.621048 -1.7454624 4288085770
8.2049866 1.9656601 -1.7211123 4288085770
6.5773926 1.6345596 -1.7460709 4288085770
8.4841614 1.988987 -1.7161856 4288085770
6.7585144 1.6431255 -1.7398129 4288085770
8.7993774 2.0162201 -1.7150116 4288085770
6.9706421 1.6546097 -1.7383404 4288085770
9.1315308 2.0444164 -1.7127199 4288085770
7.1867981 1.6660862 -1.7368402 4288085770
9.5317993 2.0824375 -1.7179642 4288085770
7.4209595 1.6775169 -1.7352123 4288085770
10.009155 2.1312542 -1.7326822 4288085770
7.6761169 1.6908932 -1.7364407 4288085770
10.593628 2.1957989 -1.7586699 4288085770
7.9262695 1.700285 -1.7356977 4288085770
11.250183 2.2671623 -1.7891607 4288085770
8.1853943 1.7086563 -1.7328901 4288085770
12.059875 2.3591347 -1.8336067 4288085770
8.4895935 1.7219143 -1.735774 4288085770
12.875458 2.4441032 -1.8699999 4288085770
8.7596741 1.726265 -1.7298822 4288085770
13.759094 2.5339031 -1.9089203 4288085770
9.0548401 1.7325478 -1.726819 4288085770
14.691742 2.622591 -1.9444952 4288085770
9.3428955 1.7328606 -1.7187958 4288085770
15.707367 2.7140789 -1.9794912 4288085770
9.7531738 1.7508469 -1.7299404 4288085770
16.99118 2.8368855 -2.0356464 4288085770
10.311584 1.7864494 -1.7590675 4288085770
18.598328 2.9958782 -2.114584 4288085770
10.859955 1.8150826 -1.7822571 4288085770
11.476379 1.8475475 -1.8099728 4288085770
12.197876 1.8887405 -1.8489628 4288085770
12.943359 1.9228859 -1.881773 4288085770
13.691772 1.9510288 -1.9095545 4288085770
14.458099 1.9731369 -1.9331999 4288085770
15.386658 2.0058308 -1.9707222 4288085770
16.480194 2.046114 -2.0170937 4288085770
17.715851 2.0910358 -2.0724726 4288085770
19.250732 2.1522102 -2.1477728 4288085770
7.3847656 -4.6420994 -0.47419548 4293729569
7.3101501 -4.6499739 -0.50870419 4293729569
7.2115173 -4.6397886 -0.54240799 4293729569
7.6464233 -4.9489498 -0.61486626 4293729569
7.5854187 -4.9421644 -0.17629147 4293729569
7.037262 -4.6314764 -0.61063576 4293729569
7.5038147 -4.9390306 -0.21686363 4293729569
6.9486694 -4.6233168 -0.64526558 4293729569
7.4891663 -4.9750633 -0.25990582 4293729569
7.4555664 -4.9776726 -0.73214722 4293729569
7.4775085 -5.0101042 -0.30392742 4293729569
7.4259338 -5.0046673 -0.77430725 4293729569
7.428894 -5.0210514 -0.34624577 4293729569
6.8227234 -4.6711941 -0.76006126 4293729569
7.4142761 -5.0510845 -0.39029694 4293729569
6.7011414 -4.6339483 -0.78996944 4293729569
7.4255981 -5.0971832 -0.43613815 4293729569
6.6678162 -4.6523609 -0.43915558 4293729569
6.5532837 -4.6111393 -0.47402096 4293729569
6.5053711 -4.614646 -0.89836216 4293729569
6.5176697 -4.6171169 -0.51425648 4293729569
6.4197388 -4.5914917 -0.93099499 4293729569
6.4631042 -4.6100454 -0.55264759 4293729569
6.4071655 -4.6135292 -0.9740448 4293729569
6.4265137 -4.6120205 -0.59289551 4293729569
9.9056396 -6.9397774 -1.5157976 4293729569
6.3549194 -4.5889044 -0.62942982 4293729569
9.3713989 -6.6264715 -1.5020361 4293729569
8.9081421 -6.3553457 -1.4947109 4293729569
6.2267456 -4.5963316 -1.12432 4293729569
6.1771545 -4.5842686 -1.1606827 4293729569
6.246582 -4.5948954 -0.79016113 4293729569
6.1375732 -4.5772343 -1.198967 4293729569
6.2359924 -4.6029367 -0.83221722 4293729569
6.1069946 -4.5742216 -1.2381811 4293729569
6.1824341 -4.5808649 -0.86862183 4293729569
6.0973816 -4.5832653 -1.2802296 4293729569
6.1518555 -4.5708504 -0.906847 4293729569
6.0908203 -4.5923166 -1.3232555 4293729569
6.1362915 -4.5698795 -0.94895172 4293729569
6.0892029 -4.6033831 -1.3672438 4293729569
6.1376953 -4.5779505 -0.99092293 4293729569
6.0516663 -4.5883484 -1.4035254 4293729569
6.1240845 -4.5739794 -1.0310173 4293729569
6.0820618 -4.6165037 -1.4552603 4293729569
6.1174927 -4.5730286 -1.0720587 4293729569
6.095459 -4.6326084 -1.5011339 4293729569
6.1189575 -4.575098 -1.1140394 4293729569
6.0859375 -4.629652 -1.5431995 4293729569
6.1193848 -4.5751648 -1.1560287 4293729569
5.9603577 -4.5453758 -1.5582104 4293729569
6.1238098 -4.5762444 -1.1989889 4293729569
5.7957764 -4.4329863 -1.5615396 4293729569
6.1312256 -4.5763283 -1.2409286 4293729569
5.7542114 -4.4029369 -1.5928745 4293729569
6.1366577 -4.5744066 -1.2828856 4293729569
5.7576294 -4.4010115 -1.6348448 4293729569
6.1620789 -4.5825377 -1.3276863 4293729569
5.7720337 -4.4051142 -1.6777296 4293729569
6.2214966 -4.611763 -1.3792124 4293729569
5.7904968 -4.4102297 -1.7225847 4293729569
6.2579346 -4.6249237 -1.4259272 4293729569
5.8029175 -4.4093266 -1.7654905 4288085770
6.6263733 -4.8559895 -1.5429544 4293729569
5.8293457 -4.4154625 -1.8112879 4288085770
6.4668274 -4.7316179 -1.5492668 4293729569
5.8518066 -4.4175882 -1.8561182 4282675967
6.3032532 -4.6052313 -1.5516119 4293729569
5.788208 -4.3584671 -1.8746519 4282675967
6.1487122 -4.4828663 -1.5538864 4293729569
5.6575928 -4.2531528 -1.8727322 4282675967
6.0911255 -4.4237652 -1.5763769 4293729569
5.5229187 -4.1438265 -1.8678455 4282675967
6.120575 -4.4199009 -1.6171665 4293729569
5.3622437 -4.0164194 -1.8521738 4288085770
6.1689758 -4.4270897 -1.6628027 4293729569
5.2515564 -3.9221525 -1.8490963 4288085770
6.2144165 -4.4292679 -1.7064695 4293729569
5.1609192 -3.8389425 -1.8508596 4288085770
6.2598877 -4.4294472 -1.7501373 4293729569
5.0562439 -3.7476883 -1.846735 4288085770
6.3203125 -4.4376659 -1.7966871 4288085770
4.9775391 -3.6705046 -1.8484049 4288085770
6.3757629 -4.4398708 -1.8422813 4288085770
4.8738403 -3.5772467 -1.8402777 4288085770
6.3981934 -4.4189825 -1.8781443 4282675967
4.7951355 -3.4990625 -1.8399496 4288085770
6.2715454 -4.3036737 -1.8722115 4282675967
4.7144165 -3.4198647 -1.8356371 4288085770
6.1539307 -4.1943874 -1.8672066 4282675967
4.6457214 -3.347702 -1.8342295 4288085770
5.9912415 -4.057971 -1.8485632 4288085770
4.5740051 -3.2735281 -1.8298473 4288085770
5.9005737 -3.9647541 -1.8463411 4288085770
4.5192566 -3.2094011 -1.830327 4288085770
5.7938843 -3.8624907 -1.8392477 4288085770
5.7282104 -3.7843399 -1.840827 4288085770
5.6495361 -3.6981506 -1.8385105 4288085770
5.5718079 -3.6129608 -1.8331852 4288085770
5.5111084 -3.5368166 -1.8317251 4288085770
5.4473877 -3.4596624 -1.828289 4288085770
5.3986816 -3.3905497 -1.827733 4288085770
5.348999 -3.3214321 -1.8261862 4288085770
5.2972412 -3.2503061 -1.8226566 4288085770
5.2575073 -3.1862116 -1.8210297 4288085770
5.224762 -3.1261377 -1.8203468 4288085770
5.190033 -3.0650539 -1.8176813 4288085770
5.1612854 -3.0059881 -1.8159685 4288085770
5.1405334 -2.9519424 -1.8161926 4288085770
5.1097717 -2.8918657 -1.8114958 4288085770
5.105011 -2.8458643 -1.8145924 4288085770
5.0792847 -2.7887974 -1.808857 4288085770
5.068512 -2.7387743 -1.8080025 4288085770
5.067749 -2.693779 -1.8090696 4288085770
5.0579834 -2.6447563 -1.8062067 4288085770
5.0572205 -2.5997581 -1.805275 4288085770
5.062439 -2.556776 -1.805295 4288085770
5.0586548 -2.5097656 -1.8013859 4288085770
5.0658875 -2.4667854 -1.8003931 4288085770
5.0800781 -2.427824 -1.8003435 4288085770
5.0973206 -2.3898697 -1.800271 4288085770
5.10849 -2.348897 -1.797246 4288085770
5.1287231 -2.3119497 -1.7961512 4288085770
5.1509705 -2.2760067 -1.7960396 4288085770
5.1721191 -2.238059 -1.7929392 4288085770
5.2023315 -2.2041349 -1.7927666 4288085770
5.2395325 -2.1732321 -1.793539 4288085770
5.270752 -2.1383095 -1.7923622 4288085770
5.3109436 -2.1074104 -1.7921143 4288085770
5.3581848 -2.0775299 -1.7928123 4288085770
5.3973694 -2.0456266 -1.7905731 4288085770
5.4485474 -2.0167551 -1.7912426 4288085770
5.4967346 -1.9868727 -1.7899351 4288085770
5.5569458 -1.9610233 -1.790534 4288085770
5.6191711 -1.9341784 -1.7911215 4288085770
5.6672974 -1.9032946 -1.7878132 4288085770
4.5141602 -1.5625219 -1.7876215 4288085770
5.7415466 -1.878479 -1.7893114 4288085770
4.5613403 -1.5366383 -1.7863159 4288085770
5.8016968 -1.8506241 -1.7859135 4288085770
4.615509 -1.513772 -1.7859564 4288085770
5.8788757 -1.8258162 -1.7863884 4288085770
4.6717224 -1.4899111 -1.7855835 4288085770
5.9430542 -1.7969685 -1.7819633 4288085770
4.7238464 -1.4650383 -1.7832394 4288085770
6.0452576 -1.7782259 -1.7872486 4288085770
4.7890625 -1.4442015 -1.7847967 4288085770
6.1304626 -1.7544336 -1.786665 4288085770
4.8652649 -1.4253941 -1.7872705 4288085770
6.2216187 -1.731658 -1.7860346 4288085770
4.9234314 -1.4005356 -1.7848835 4288085770
6.3188171 -1.7088966 -1.7863617 4288085770
4.989563 -1.377696 -1.7824354 4288085770
6.440033 -1.6901989 -1.7905092 4288085770
5.0678101 -1.3568888 -1.7828989 4288085770
6.5412292 -1.6674442 -1.7888079 4288085770
5.1499634 -1.336092 -1.7833328 4288085770
6.6373596 -1.641674 -1.7841454 4288085770
5.2241516 -1.3132725 -1.7808256 4288085770
6.7415161 -1.6169214 -1.7794237 4288085770
5.3223267 -1.2955179 -1.7841396 4288085770
6.8686829 -1.5962315 -1.7795296 4288085770
5.4005127 -1.2727051 -1.7806044 4288085770
6.9958801 -1.5755396 -1.7776365 4288085770
5.5057068 -1.2549658 -1.7828665 4288085770
7.1230164 -1.552845 -1.774744 4288085770
5.6048889 -1.2352085 -1.7831745 4288085770
7.2702026 -1.5342045 -1.7747021 4288085770
5.7420959 -1.2215567 -1.7911987 4288085770
7.4353943 -1.5166073 -1.775528 4288085770
5.8312073 -1.1977673 -1.7855844 4288085770
7.5975647 -1.4980021 -1.7753773 4288085770
5.9334106 -1.1760111 -1.7818747 4288085770
7.7817383 -1.4814501 -1.7770634 4288085770
6.0866089 -1.1633949 -1.7897806 4288085770
7.9659424 -1.4638968 -1.7767515 4288085770
6.1917419 -1.140645 -1.784049 4288085770
8.1711121 -1.4473944 -1.7772846 4288085770
6.3409119 -1.1250143 -1.7879877 4288085770
8.3832397 -1.4319105 -1.7777662 4288085770
6.4541016 -1.1012812 -1.7811985 4288085770
8.6324768 -1.4195223 -1.7829742 4288085770
6.5802002 -1.0795784 -1.774313 4288085770
8.9176941 -1.410223 -1.7909174 4288085770
6.7193909 -1.0589123 -1.7713308 4288085770
9.2239075 -1.4019785 -1.8007069 4288085770
6.8875732 -1.0413218 -1.7721348 4288085770
9.5371094 -1.3917456 -1.8074465 4288085770
7.0567017 -1.0227327 -1.7709312 4288085770
9.9204102 -1.3886938 -1.822669 4288085770
7.2449036 -1.0051889 -1.7715893 4288085770
10.313629 -1.3836603 -1.8348217 4288085770
7.4390564 -0.9876585 -1.7702036 4288085770
10.73584 -1.3786983 -1.8467627 4288085770
7.6442566 -0.97015572 -1.7707376 4288085770
11.236145 -1.3809347 -1.8671274 4288085770
7.8614502 -0.95168209 -1.7701855 4288085770
11.757385 -1.381216 -1.8843422 4288085770
8.1156616 -0.93630314 -1.7743607 4288085770
12.365723 -1.3847189 -1.9079208 4288085770
8.3697815 -0.91992092 -1.7755356 4288085770
13.005035 -1.3882904 -1.9292727 4288085770
8.6219788 -0.90052509 -1.7727299 4288085770
13.764374 -1.3981628 -1.958745 4288085770
8.9812317 -0.89041328 -1.7861347 4288085770
14.585693 -1.4081831 -1.9877672 4288085770
9.3114319 -0.87421799 -1.7907581 4288085770
15.546082 -1.4235487 -2.0237713 4288085770
9.73172 -0.864254 -1.8057175 4288085770
16.833588 -1.4597416 -2.0883732 4288085770
10.186981 -0.85437679 -1.8214245 4288085770
18.222168 -1.494174 -2.1502419 4288085770
10.684296 -0.84460258 -1.8398237 4288085770
11.296661 -0.83911896 -1.8683834 4288085770
11.912994 -0.83063793 -1.8899155 4288085770
12.618317 -0.82337666 -1.917799 4288085770
13.342682 -0.81215096 -1.93855 4288085770
14.279144 -0.808465 -1.9787483 4288085770
15.308594 -0.80300045 -2.0182724 4288085770
16.551147 -0.80206871 -2.0712433 4288085770
18.175873 -0.81109333 -2.152421 4288085770
17.730103 -0.27921867 -2.0987225 4288085770
16.018585 -0.2601099 -2.0206423 4288085770
14.714294 -0.24699688 -1.9722481 4288085770
13.55304 -0.23321819 -1.9246941 4288085770
12.588867 -0.22092056 -1.8895388 4288085770
11.73172 -0.20787334 -1.8555164 4288085770
10.95459 -0.19601345 -1.8228426 4288085770
18.119934 -0.31614494 -2.1064396 4288085770
10.282501 -0.18441105 -1.7973175 4288085770
16.388489 -0.28400135 -2.0335493 4288085770
9.6834412 -0.17298412 -1.7741985 4288085770
14.999146 -0.25667953 -1.9778728 4288085770
9.1764526 -0.16278267 -1.7593298 4288085770
13.79892 -0.23181248 -1.9296589 4288085770
8.798584 -0.15490723 -1.7604103 4288085770
12.808777 -0.21045208 -1.893733 4288085770
8.389679 -0.14494514 -1.7517462 4288085770
11.937653 -0.19037247 -1.8598394 4288085770
8.0718384 -0.1372118 -1.7543392 4288085770
11.136475 -0.17145824 -1.826375 4288085770
7.7689514 -0.12851429 -1.7558126 4288085770
10.447418 -0.15381432 -1.7989998 4288085770
7.4710999 -0.11881924 -1.7532473 4288085770
9.8203735 -0.1363163 -1.7721205 4288085770
7.1902161 -0.10916805 -1.751543 4288085770
9.3394165 -0.12218285 -1.7620487 4288085770
6.9483643 -0.10061359 -1.7545204 4288085770
8.92453 -0.10821438 -1.758441 4288085770
6.7365417 -0.09113121 -1.7602558 4288085770
8.5316162 -0.094293594 -1.7516546 4288085770
6.4976807 -0.081577301 -1.7572126 4288085770
8.1837463 -0.081483841 -1.7495012 4288085770
6.2958374 -0.072114944 -1.7598667 4288085770
7.8748779 -0.068767548 -1.7490301 4288085770
6.1150208 -0.062705994 -1.7653513 4288085770
7.5950623 -0.056123734 -1.7513247 4288085770
5.9231567 -0.053260803 -1.764925 4288085770
7.3161926 -0.042476654 -1.7496119 4288085770
5.7413025 -0.042841911 -1.7644196 4288085770
7.0683289 -0.029905319 -1.7506456 4288085770
5.5604248 -0.032420158 -1.7619066 4288085770
6.832489 -0.018360138 -1.7505808 4288085770
5.4025574 -0.02205658 -1.7622061 4288085770
