# .PCD v0.7 - Point Cloud Data file format
VERSION 0.7
FIELDS x y z rgb
SIZE 4 4 4 4
TYPE F F F U
COUNT 1 1 1 1
WIDTH 1106
HEIGHT 1
VIEWPOINT 0 0 0 1 0 0 0
POINTS 1106
DATA ascii
-0.090515137 1.1772451 -1.7662611 4288085770
-1.1499023 1.0717573 -1.7735634 4288085770
0.1116333 1.1901531 -1.7664146 4288085770
-1.0116577 1.0766764 -1.7704201 4288085770
0.31481934 1.2010565 -1.7656012 4288085770
-0.84658813 1.0846186 -1.7738247 4288085770
0.52111816 1.2109423 -1.7618551 4288085770
-0.69433594 1.0905313 -1.7709694 4288085770
0.75030518 1.2228317 -1.7605801 4288085770
-0.51821899 1.0964603 -1.7726145 4288085770
0.99746704 1.234725 -1.7616806 4288085770
-0.33407593 1.1033859 -1.7744226 4288085770
1.2616272 1.2466087 -1.7621374 4288085770
-0.14794922 1.108305 -1.7752819 4288085770
1.5169373 1.2554607 -1.7564211 4288085770
0.049224854 1.1132174 -1.7753716 4288085770
1.7713013 1.2623062 -1.7486944 4288085770
0.24047852 1.1161194 -1.7733479 4288085770
2.0884399 1.2741737 -1.7502604 4288085770
0.449646 1.1190138 -1.771698 4288085770
2.4316101 1.2860241 -1.7513695 4288085770
0.68179321 1.1229134 -1.7725248 4288085770
2.8047791 1.2978792 -1.755105 4288085770
0.89511108 1.1227875 -1.7669744 4288085770
3.1531372 1.3056879 -1.7483387 4288085770
1.1493225 1.1256762 -1.7672663 4288085770
3.543396 1.3144989 -1.7454453 4288085770
1.391571 1.1245461 -1.7633266 4288085770
4.0414734 1.3293285 -1.7547798 4288085770
1.6468201 1.1224117 -1.7596636 4288085770
4.5455933 1.3421345 -1.7602491 4288085770
1.9250488 1.1202698 -1.7564821 4288085770
5.134613 1.3579359 -1.7714815 4288085770
2.2232971 1.1181278 -1.7547169 4288085770
6.066864 1.396801 -1.8227911 4288085770
2.5674438 1.1169863 -1.7569103 4288085770
7.1230164 1.4396439 -1.879673 4288085770
2.9206238 1.112834 -1.7573061 4288085770
8.1615601 1.4724083 -1.9202299 4288085770
3.3048401 1.1086683 -1.7583504 4288085770
9.2631531 1.5021305 -1.9581194 4288085770
3.7110596 1.1024923 -1.7588644 4288085770
10.623474 1.5418224 -2.0113716 4288085770
4.2050781 1.0983305 -1.769208 4288085770
12.420288 1.5984888 -2.0946789 4288085770
4.7859497 1.0971718 -1.7873526 4288085770
5.2722168 1.083951 -1.785574 4288085770
6.1644897 1.0898237 -1.8342047 4288085770
7.0989075 1.0916605 -1.879734 4288085770
8.1382751 1.0894566 -1.9254789 4288085770
9.2546692 1.082222 -1.9718571 4288085770
10.395325 1.0659161 -2.0067835 4288085770
11.957306 1.0566206 -2.0774937 4288085770
-0.38653564 -4.3145046 -0.49951744 4293729569
-0.38226318 -4.3112659 -0.53957176 4293729569
-0.33538818 -4.3145676 -0.65953064 4293729569
-0.29415894 -4.3293343 -0.70247269 4293729569
-0.30081177 -4.3091021 -0.74019146 4293729569
-0.27655029 -4.3088713 -0.78068542 4293729569
-0.21835327 -4.3286381 -0.82501316 4293729569
-0.21600342 -4.3094101 -0.86292744 4293729569
-0.1222229 -4.3137531 -0.49482059 4293729569
-0.057952881 -4.3295431 -0.53625011 4293729569
4.4735107 -7.4459662 -1.5868721 4293729569
-0.040588379 -4.3113279 -0.57348347 4293729569
4.0547485 -7.1177039 -1.5860119 4293729569
0.049621582 -4.3411236 -0.61654472 4293729569
-0.04498291 -4.3204994 -1.0305195 4293729569
0.049041748 -4.3079062 -0.65230846 4293729569
0.03414917 -4.3422585 -1.0782986 4293729569
0.050506592 -4.321044 -1.1154928 4293729569
0.21151733 -4.3434963 -0.73690128 4293729569
2.7284546 -6.0458431 -1.5884047 4293729569
0.22494507 -4.3152924 -0.77198887 4293729569
2.5184326 -5.8596516 -1.5978146 4293729569
0.31417847 -4.3330927 -0.81395149 4293729569
0.23022461 -4.3293734 -1.2442589 4293729569
0.31539917 -4.3441401 -1.2911186 4293729569
0.49169922 -4.3606882 -0.89880562 4293729569
1.9345398 -5.3311644 -1.6172047 4293729569
0.55999756 -4.3594913 -0.93821049 4293729569
1.4438782 -4.97019 -1.562644 4293729569
5.6463013 -7.4465003 -1.6260033 4293729569
1.1834106 -4.7561245 -1.5468264 4293729569
5.1429138 -7.0602899 -1.608017 4293729569
0.74807739 -4.3299189 -1.0519037 4293729569
0.76422119 -4.3959913 -1.5257502 4293729569
4.3597107 -6.4349174 -1.5876513 4293729569
1.130188 -4.5665989 -1.6274633 4293729569
1.0034485 -4.3785219 -1.1435118 4293729569
1.0192566 -4.4465065 -1.6313658 4293729569
1.0907288 -4.3743343 -1.1832914 4293729569
0.89141846 -4.3164253 -1.631855 4293729569
1.1322327 -4.3431683 -1.214942 4293729569
0.806427 -4.2113333 -1.6383953 4293729569
3.4253845 -5.591301 -1.5917072 4293729569
0.83303833 -4.1711779 -1.6666784 4293729569
1.4275818 -4.3937778 -1.309392 4293729569
0.94421387 -4.1789646 -1.7130327 4293729569
1.5050049 -4.3756161 -1.343873 4293729569
1.0574036 -4.1847582 -1.7584143 4293729569
1.8774109 -4.5183449 -1.4265308 4293729569
1.1665955 -4.1865492 -1.803689 4293729569
1.7715149 -4.3962536 -1.4305267 4293729569
1.2828064 -4.1893435 -1.8491144 4293729569
1.8778687 -4.3880882 -1.4686737 4293729569
1.4189758 -4.2001305 -1.8980045 4288085770
2.019104 -4.3959131 -1.5116491 4293729569
1.5451355 -4.2029238 -1.9446363 4288085770
2.3357544 -4.4906702 -1.5838337 4293729569
1.5280457 -4.1288404 -1.956789 4288085770
2.3664246 -4.4355469 -1.6071033 4293729569
1.4104919 -4.0018501 -1.9435101 4288085770
2.3263855 -4.3434649 -1.6166611 4293729569
1.309845 -3.8848515 -1.9336462 4288085770
2.2794495 -4.2483988 -1.6230555 4293729569
1.209259 -3.768857 -1.9227905 4288085770
2.3809204 -4.2262669 -1.6550083 4293729569
1.1425171 -3.6708488 -1.9177551 4288085770
2.5471802 -4.2331104 -1.6974945 4293729569
1.0758057 -3.5738459 -1.9117289 4288085770
2.7294617 -4.2439556 -1.7413397 4293729569
1.0210571 -3.4838428 -1.9069948 4288085770
2.8967896 -4.244813 -1.7818079 4293729569
0.98028564 -3.3998356 -1.9045897 4288085770
3.0960083 -4.2576599 -1.8270159 4293729569
0.91564941 -3.3048601 -1.894618 4288085770
3.2932434 -4.2655125 -1.8711491 4288085770
0.89279175 -3.2308464 -1.8946505 4288085770
3.4955139 -4.2733679 -1.9153862 4288085770
0.86801147 -3.1558475 -1.8926353 4288085770
3.6350098 -4.2512608 -1.9471245 4288085770
0.8442688 -3.082859 -1.8886547 4288085770
3.6061707 -4.1552515 -1.9458847 4288085770
0.83743286 -3.0168552 -1.8890705 4288085770
3.5415649 -4.0452681 -1.9368105 4288085770
0.82162476 -2.946867 -1.8862743 4288085770
3.4889221 -3.9412918 -1.9280252 4288085770
0.81088257 -2.8788853 -1.8825951 4288085770
3.4571838 -3.8463058 -1.9227314 4288085770
0.80807495 -2.8148947 -1.8811073 4288085770
3.4434509 -3.7593184 -1.9198627 4288085770
0.81323242 -2.7549095 -1.8798113 4288085770
3.456604 -3.6823292 -1.9196177 4288085770
0.80853271 -2.690937 -1.8752832 4288085770
3.4448853 -3.5973597 -1.9138031 4288085770
0.82266235 -2.6339502 -1.8751907 4288085770
3.4421692 -3.5153894 -1.909194 4288085770
0.81796265 -2.5699911 -1.8686628 4288085770
3.4793396 -3.4474125 -1.9095049 4288085770
0.85110474 -2.5200062 -1.8700104 4288085770
3.4875793 -3.3694515 -1.9041491 4288085770
0.86535645 -2.4620371 -1.8669138 4288085770
3.5227966 -3.3014879 -1.9024172 4288085770
0.89749146 -2.4110661 -1.8662338 4288085770
3.5690002 -3.2355204 -1.901927 4288085770
0.92871094 -2.3590984 -1.8645267 4288085770
3.617218 -3.1705685 -1.8994837 4288085770
0.96090698 -2.3081322 -1.8628483 4288085770
3.6694641 -3.1076174 -1.8971357 4288085770
0.99014282 -2.256176 -1.8590994 4288085770
3.7505798 -3.0516615 -1.8984327 4288085770
1.0462646 -2.2122021 -1.86096 4288085770
3.8317566 -2.9947138 -1.8987226 4288085770
1.0785217 -2.1592617 -1.8552685 4288085770
3.9298706 -2.9437666 -1.900403 4288085770
1.1277466 -2.1123085 -1.8529654 4288085770
4.0429993 -2.895813 -1.9044132 4288085770
1.1929016 -2.0693464 -1.8540182 4288085770
4.1651306 -2.8488712 -1.9076147 4288085770
1.236145 -2.0194101 -1.8485718 4288085770
4.3131714 -2.8089294 -1.9133987 4288085770
1.3063354 -1.9774561 -1.8487358 4288085770
4.4163818 -2.7550106 -1.9111614 4288085770
1.3695374 -1.932518 -1.8457336 4288085770
4.5764771 -2.7140799 -1.9161873 4288085770
1.4686584 -1.8955574 -1.8495283 4288085770
4.6867371 -2.6571817 -1.9110756 4288085770
1.5259705 -1.8486404 -1.8423901 4288085770
4.855896 -2.6152687 -1.9142799 4288085770
1.6111755 -1.8067055 -1.8408613 4288085770
5.0011597 -2.5663815 -1.9109421 4288085770
1.6983643 -1.7657738 -1.8393812 4288085770
5.2001953 -2.5284767 -1.9157906 4288085770
1.7935791 -1.7258425 -1.8380747 4288085770
5.4152832 -2.4925728 -1.9219847 4288085770
1.8997498 -1.6859179 -1.8369923 4288085770
5.6384277 -2.4536915 -1.9253225 4288085770
2.0188904 -1.6489868 -1.8381977 4288085770
5.9114075 -2.4248037 -1.9347553 4288085770
2.1231689 -1.6070805 -1.8340607 4288085770
6.2014465 -2.394928 -1.9435339 4288085770
2.2563171 -1.5701618 -1.8345547 4288085770
6.4675598 -2.3590698 -1.9477768 4288085770
2.3974915 -1.5332479 -1.8352137 4288085770
6.7786255 -2.3272181 -1.9549732 4288085770
2.5437012 -1.4963417 -1.8349752 4288085770
7.1246643 -2.2973776 -1.9639053 4288085770
2.6859131 -1.457448 -1.8326406 4288085770
7.5634766 -2.2825317 -1.9828539 4288085770
2.8471069 -1.4205494 -1.8327112 4288085770
8.1410522 -2.2866774 -2.0167942 4288085770
3.0292358 -1.3856544 -1.8342266 4288085770
8.6788025 -2.2758608 -2.0408106 4288085770
3.1954651 -1.3457775 -1.8313799 4288085770
9.259552 -2.2660694 -2.0647192 4288085770
3.4155884 -1.3128891 -1.8356915 4288085770
9.8473816 -2.2513008 -2.0857382 4288085770
3.6616516 -1.2820015 -1.8425522 4288085770
10.542053 -2.2455463 -2.1150227 4288085770
3.9067383 -1.2481232 -1.8473721 4288085770
11.272766 -2.2368288 -2.1420288 4288085770
4.1847839 -1.2172556 -1.8538914 4288085770
12.223145 -2.2501278 -2.1877165 4288085770
4.4579163 -1.1813984 -1.8582745 4288085770
13.404205 -2.2824497 -2.2522917 4288085770
4.783905 -1.1505423 -1.8677826 4288085770
5.1349487 -1.1196976 -1.8778048 4288085770
5.5189209 -1.0878611 -1.8895006 4288085770
5.9428711 -1.0570402 -1.9030275 4288085770
6.4487 -1.0302191 -1.9242687 4288085770
6.9456177 -0.9974308 -1.9392843 4288085770
7.5035095 -0.96365929 -1.95755 4288085770
8.149292 -0.93190575 -1.9816418 4288085770
8.8141479 -0.89617825 -2.0030966 4288085770
9.665741 -0.86547279 -2.0394373 4288085770
10.591278 -0.83280373 -2.0772877 4288085770
11.65976 -0.79818249 -2.1210699 4288085770
13.059784 -0.7696085 -2.1897306 4288085770
13.317963 1.6105757 -2.1268015 4288085770
12.281616 1.6618357 -2.0920382 4288085770
11.134674 1.6909914 -2.0342493 4288085770
10.133606 1.7211313 -1.9843264 4288085770
9.3612061 1.7582865 -1.952858 4288085770
8.7745056 1.8044643 -1.9379854 4288085770
8.1789856 1.8435955 -1.915988 4288085770
7.5375977 1.8706875 -1.8841686 4288085770
6.9951172 1.9017773 -1.8592691 4288085770
6.462677 1.9288425 -1.8315954 4288085770
5.938324 1.9508839 -1.801116 4288085770
5.568634 1.9859734 -1.7885904 4288085770
5.1531982 2.0100136 -1.7652397 4288085770
4.7796326 2.0370579 -1.7456961 4288085770
4.5068359 2.074131 -1.7380648 4288085770
4.2501221 2.1101971 -1.7297573 4288085770
12.676544 3.4797287 -2.069993 4288085770
4.0691528 2.1562958 -1.7318726 4288085770
11.89917 3.4828644 -2.0366697 4288085770
3.9380798 2.2094154 -1.7409229 4288085770
11.204803 3.4879742 -2.0049629 4288085770
3.6914368 2.2404499 -1.7288485 4288085770
10.603271 3.5040932 -1.9810095 4288085770
3.529541 2.2855225 -1.7283459 4288085770
10.153564 3.5412216 -1.9688988 4288085770
3.3896179 2.3315983 -1.7302694 4288085770
9.6220703 3.5543022 -1.9443426 4288085770
3.2357788 2.3746529 -1.7279396 4288085770
9.2413635 3.594408 -1.9335699 4288085770
3.0829468 2.4157047 -1.7246456 4288085770
8.844696 3.6244907 -1.9185534 4288085770
2.9600525 2.460762 -1.7249098 4288085770
8.4670715 3.654562 -1.9029102 4288085770
2.8332214 2.5038109 -1.7231121 4288085770
8.1144104 3.6846237 -1.8877573 4288085770
2.7323303 2.5518665 -1.7247896 4288085770
7.8067322 3.7216873 -1.8754406 4288085770
2.6333923 2.5989189 -1.7255135 4288085770
7.4741821 3.748724 -1.8577032 4288085770
2.535553 2.6469631 -1.7252512 4288085770
7.167572 3.7797508 -1.8404503 4288085770
2.4616394 2.6980114 -1.7274389 4288085770
6.9368286 3.8237991 -1.8316002 4288085770
2.3478699 2.7390289 -1.7219114 4288085770
6.6891785 3.8608284 -1.8184652 4288085770
2.2649841 2.7860584 -1.7209511 4288085770
6.4904785 3.9088593 -1.8092175 4288085770
2.1861572 2.8340836 -1.7190619 4288085770
6.2997742 3.9538898 -1.8001451 4288085770
2.1083374 2.8801022 -1.7162075 4288085770
6.0821533 3.9908943 -1.7856016 4288085770
2.0534668 2.9331379 -1.7177563 4288085770
5.9313965 4.043911 -1.7772617 4288085770
1.9786377 2.9801502 -1.713954 4288085770
5.7876587 4.0979309 -1.7700529 4288085770
1.9457092 3.0381794 -1.7158995 4288085770
5.6988525 4.1659622 -1.767828 4288085770
1.901886 3.0931988 -1.7156515 4288085770
5.6190186 4.2369881 -1.7657595 4288085770
1.8619995 3.1492176 -1.7154741 4288085770
5.5232239 4.3010082 -1.7614241 4288085770
1.8301392 3.2072315 -1.7154417 4288085770
5.4743958 4.3810234 -1.7599049 4288085770
1.7922974 3.2632465 -1.7143049 4288085770
5.3666687 4.4400158 -1.750371 4288085770
1.7784119 3.3262634 -1.7155895 4288085770
5.3517761 4.5300407 -1.7524471 4288085770
1.7814636 3.3962955 -1.7201595 4288085770
5.3957825 4.640089 -1.7615433 4288085770
1.7706299 3.4613056 -1.7204905 4288085770
5.401886 4.7371082 -1.7639837 4288085770
1.784668 3.5353317 -1.7252493 4288085770
5.4269409 4.8421307 -1.7677422 4288085770
1.7718811 3.5993252 -1.7225485 4288085770
5.4959717 4.9631634 -1.7762537 4288085770
1.769989 3.6673241 -1.7220345 4288085770
5.5351257 5.0741692 -1.7782459 4288085770
1.7721863 3.7373238 -1.7215853 4288085770
5.6470642 5.2152042 -1.7894621 4288085770
1.7773743 3.809309 -1.7191839 4288085770
5.7251282 5.3452187 -1.7950888 4288085770
1.826416 3.8993359 -1.7255192 4288085770
5.801239 5.4752178 -1.7986755 4288085770
1.8296204 3.9713058 -1.721076 4288085770
5.8734131 5.6051998 -1.7991848 4288085770
1.8408508 4.0462837 -1.7177706 4288085770
5.9934692 5.7552013 -1.8054962 4288085770
1.8750305 4.1312714 -1.7168465 4288085770
6.1145935 5.9091949 -1.8108006 4288085770
1.8982544 4.2112446 -1.7137413 4288085770
6.2356873 6.0651684 -1.8130913 4288085770
1.9314575 4.2972164 -1.7107916 4288085770
6.3738708 6.2281399 -1.8156672 4288085770
1.9876099 4.3922005 -1.7112284 4288085770
6.6108093 6.4381447 -1.8298578 4288085770
2.0627136 4.4981899 -1.7139635 4288085770
6.8727417 6.6651516 -1.8454247 4288085770
2.0830688 4.5781212 -1.7038002 4288085770
7.1247559 6.8901348 -1.8568068 4288085770
2.1841431 4.6981182 -1.7089481 4288085770
7.3787842 7.1181068 -1.8662071 4288085770
2.2842407 4.8171024 -1.7120819 4288085770
7.565033 7.3190327 -1.8644609 4288085770
2.4043579 4.9490948 -1.7175198 4288085770
7.8252258 7.556963 -1.8679094 4288085770
2.5294495 5.0830746 -1.7210407 4288085770
8.2670593 7.8869591 -1.892292 4288085770
2.6595764 5.2220554 -1.7256241 4288085770
8.6949463 8.2189293 -1.9113855 4288085770
2.7867432 5.3600082 -1.7251558 4288085770
2.9169312 5.5019665 -1.7257204 4288085770
3.0511475 5.6459045 -1.7233467 4288085770
3.1903992 5.7958355 -1.7200308 4288085770
3.3825378 5.9757938 -1.7245464 4288085770
3.5867004 6.1637402 -1.7272406 4288085770
3.7759705 6.344656 -1.7246895 4288085770
4.0380249 6.5676098 -1.7322769 4288085770
4.3450623 6.8205681 -1.7425423 4288085770
4.7848511 7.1545849 -1.7698526 4288085770
5.1100159 7.4234982 -1.7743549 4288085770
5.6228027 7.8084965 -1.8027411 4288085770
6.1446533 8.2034607 -1.826232 4288085770
12.795593 -0.31443405 -2.1473646 4288085770
11.041931 -0.31950855 -2.0672398 4288085770
9.6578369 -0.32651234 -2.0121136 4288085770
8.4916077 -0.33151627 -1.966094 4288085770
7.5151672 -0.33647728 -1.9336634 4288085770
6.6487427 -0.33945274 -1.9032974 4288085770
5.8422852 -0.3404541 -1.872056 4288085770
5.0599976 -0.33550358 -1.8342314 4288085770
12.732391 -0.76031971 -2.1527748 4288085770
4.4334412 -0.33448696 -1.812377 4288085770
10.83197 -0.70546055 -2.0585127 4288085770
3.9635315 -0.33838558 -1.809514 4288085770
9.474762 -0.67144203 -2.0086489 4288085770
3.474823 -0.33834267 -1.7972708 4288085770
8.3104858 -0.64143276 -1.9654551 4288085770
3.0968323 -0.3412323 -1.7991419 4288085770
7.2941589 -0.61342335 -1.9280701 4288085770
2.7329102 -0.3431406 -1.7992706 4288085770
6.4117432 -0.5884037 -1.897233 4288085770
2.3809814 -0.34306622 -1.7966137 4288085770
5.5953369 -0.56241417 -1.8646374 4288085770
2.0570984 -0.34199715 -1.7944803 4288085770
4.8599243 -0.53743458 -1.8335791 4288085770
1.7591858 -0.3419199 -1.7948446 4288085770
4.2493286 -0.51841164 -1.8139181 4288085770
1.5031433 -0.34181499 -1.8010006 4288085770
3.7494812 -0.50434399 -1.8053818 4288085770
1.2640991 -0.34171295 -1.807478 4288085770
3.3076477 -0.49125385 -1.8019457 4288085770
1.0380554 -0.34060955 -1.8141947 4288085770
2.9117126 -0.47917271 -1.7993832 4288085770
0.77923584 -0.33558083 -1.8092661 4288085770
2.5447998 -0.46808624 -1.7983761 4288085770
0.55630493 -0.33151245 -1.8110228 4288085770
2.2009583 -0.45601749 -1.7957983 4288085770
0.32150269 -0.32548428 -1.8065414 4288085770
1.9009399 -0.4459219 -1.7990608 4288085770
0.11953735 -0.32042694 -1.8076897 4288085770
1.6369019 -0.43781471 -1.8050175 4288085770
-0.082305908 -0.31439781 -1.8048315 4288085770
1.3739319 -0.42673206 -1.8079739 4288085770
-0.26818848 -0.30834961 -1.8052759 4288085770
1.1100464 -0.41567326 -1.8069124 4288085770
-0.45108032 -0.30131817 -1.8037701 4288085770
0.85116577 -0.40262222 -1.8049345 4288085770
-0.60705566 -0.2962513 -1.807786 4288085770
0.62625122 -0.39155674 -1.8066092 4288085770
-0.76199341 -0.29020977 -1.808815 4288085770
0.40829468 -0.37949944 -1.8074102 4288085770
-0.92282104 -0.2821846 -1.8067198 4288085770
0.18444824 -0.36646843 -1.8040953 4288085770
-1.0677795 -0.27514267 -1.8079319 4288085770
-0.0015258789 -0.35540104 -1.8075056 4288085770
-1.2126465 -0.26711369 -1.8071384 4288085770
-0.21929932 -0.34140396 -1.7992992 4288085770
-1.3296509 -0.26004124 -1.8138762 4288085770
-0.38024902 -0.33033371 -1.8041821 4288085770
-1.4595337 -0.25300884 -1.814373 4288085770
-0.55514526 -0.31829453 -1.8037968 4288085770
-0.7071228 -0.30723953 -1.8068504 4288085770
-0.85406494 -0.29519081 -1.8089924 4288085770
-0.99996948 -0.28315067 -1.810154 4288085770
-1.1567688 -0.26914787 -1.8050985 4288085770
-1.2936707 -0.25711346 -1.8054314 4288085770
-1.4076538 -0.2460556 -1.8102007 4288085770
-1.5385132 -0.23303795 -1.8086414 4288085770
-1.5491943 1.6964273 -1.7472086 4288085770
-1.4280396 1.7144098 -1.7473068 4288085770
-1.296875 1.7333899 -1.7475824 4288085770
-1.1736755 1.75035 -1.7447252 4288085770
-1.0345459 1.7683296 -1.7451553 4288085770
-0.88046265 1.7893257 -1.747839 4288085770
-0.73126221 1.8082981 -1.7474461 4288085770
-0.5920105 1.8222389 -1.7419033 4288085770
-1.5053101 1.6324224 -1.7503662 4288085770
-0.42987061 1.8412113 -1.7417488 4288085770
-1.3871155 1.6423969 -1.749464 4288085770
-0.26171875 1.8601875 -1.741704 4288085770
-1.2400513 1.6574068 -1.7540607 4288085770
-0.074615479 1.881176 -1.7439957 4288085770
-1.1277771 1.6643486 -1.7480698 4288085770
0.11453247 1.9001541 -1.7453365 4288085770
-0.9916687 1.6743298 -1.748498 4288085770
0.33059692 1.9241581 -1.7501392 4288085770
-0.85842896 1.6822824 -1.7448854 4288085770
0.54174805 1.9451389 -1.7518711 4288085770
-0.6854248 1.6973047 -1.7519588 4288085770
0.77084351 1.9671268 -1.7549267 4288085770
-0.55813599 1.701231 -1.7442636 4288085770
0.99304199 1.9860878 -1.7538738 4288085770
-0.41293335 1.7071848 -1.7408838 4288085770
1.2331848 2.0060616 -1.755146 4288085770
-0.22686768 1.7201967 -1.7462101 4288085770
1.4664001 2.0220089 -1.7523165 4288085770
-0.055664062 1.7281618 -1.7452955 4288085770
1.7325134 2.0429745 -1.7530594 4288085770
0.13043213 1.7381516 -1.7476416 4288085770
1.9658508 2.0538864 -1.7452631 4288085770
0.32354736 1.7461338 -1.7491312 4288085770
2.2500305 2.0728416 -1.7443495 4288085770
0.52468872 1.7541151 -1.7507677 4288085770
2.5362549 2.0887794 -1.7414942 4288085770
0.73779297 1.762105 -1.753624 4288085770
2.8494568 2.1067276 -1.7401199 4288085770
0.96389771 1.7700958 -1.7567186 4288085770
3.1517334 2.1196556 -1.7355785 4288085770
1.1900635 1.7760715 -1.7578278 4288085770
3.4989319 2.1365948 -1.7338371 4288085770
1.4072266 1.7780247 -1.7557993 4288085770
3.8721313 2.154541 -1.7335663 4288085770
1.6414185 1.7799816 -1.7540817 4288085770
4.2025146 2.1624184 -1.7225742 4288085770
1.8726807 1.7789211 -1.7503319 4288085770
4.6955261 2.1914291 -1.7334337 4288085770
2.1308289 1.778883 -1.7500696 4288085770
5.3522034 2.2415524 -1.7631607 4288085770
2.381073 1.775816 -1.7456808 4288085770
6.0549316 2.2916603 -1.7917347 4288085770
2.6932068 1.7788086 -1.750391 4288085770
6.9143677 2.35886 -1.8360748 4288085770
2.9993286 1.7777786 -1.752017 4288085770
7.7929688 2.4180031 -1.8728209 4288085770
3.3015442 1.771719 -1.7496042 4288085770
8.7375793 2.4791451 -1.9107637 4288085770
3.6227417 1.7656689 -1.7485409 4288085770
9.7402344 2.5362625 -1.9458027 4288085770
3.946991 1.7565966 -1.7445536 4288085770
10.839813 2.5953827 -1.9826078 4288085770
4.241333 1.7384844 -1.7340765 4288085770
12.317017 2.689661 -2.0491199 4288085770
4.7073669 1.7395096 -1.7466288 4288085770
5.3260193 1.7516518 -1.777915 4288085770
5.9447632 1.7577553 -1.8042421 4288085770
6.6942749 1.7709332 -1.842927 4288085770
7.460907 1.7770748 -1.8769741 4288085770
8.2904663 1.7802296 -1.9141979 4288085770
9.0603333 1.7682915 -1.9364252 4288085770
9.9809875 1.7604074 -1.9693966 4288085770
11.063446 1.7555952 -2.0153217 4288085770
12.435547 1.7589045 -2.0835209 4288085770
2.5444336 -4.701004 -0.42824459 4293729569
2.4719238 -4.7287569 -0.46212292 4293729569
2.4034119 -4.7545023 -0.49705887 4293729569
1.7023926 -4.4304419 -0.49591351 4293729569
1.7118835 -4.4931746 -0.53354168 4293729569
1.4146118 -4.3820133 -0.55230999 4293729569
1.146759 -4.3325853 -0.60906696 4293729569
1.0932312 -4.3523378 -0.64323521 4293729569
1.0077515 -4.3510981 -0.67566776 4293729569
0.83789062 -4.3416338 -0.73850441 4293729569
0.74841309 -4.3313961 -0.77079964 4293729569
0.56884766 -4.3456373 -0.87463665 4293729569
0.50131226 -4.3403826 -0.90936947 4293729569
0.46652222 -4.3272314 -0.51756287 4293729569
5.6824646 -7.681704 -1.6242237 4293729569
0.44192505 -4.3429527 -0.5562315 4293729569
4.8551331 -7.2109098 -1.5847101 4293729569
0.29684448 -4.3146477 -1.0094643 4293729569
0.28887939 -4.3054323 -0.62717533 4293729569
0.29714966 -4.3463287 -1.0537052 4293729569
0.30923462 -4.3451204 -0.67084026 4293729569
0.22665405 -4.3300877 -1.0863047 4293729569
0.22665405 -4.3178663 -0.70514107 4293729569
0.21405029 -4.3497934 -1.127223 4293729569
0.23306274 -4.3455629 -0.74746323 4293729569
2.6554871 -5.9967613 -1.5767708 4293729569
2.3623962 -5.8346653 -1.5862503 4293729569
0.038574219 -4.3070478 -1.2287235 4293729569
0.04284668 -4.3317223 -1.2739868 4293729569
0.04019165 -4.3101864 -0.93671131 4293729569
0.038513184 -4.3218756 -0.97977066 4293729569
-0.033935547 -4.3308668 -1.3915949 4293729569
0.04788208 -4.3385649 -1.0230684 4293729569
0.3380127 -4.5990009 -1.5153427 4293729569
0.040252686 -4.3422623 -1.0649605 4293729569
-0.08807373 -4.3203058 -1.4685411 4293729569
0.034606934 -4.3459587 -1.1068888 4293729569
0.14434814 -4.4896269 -1.5650225 4293729569
3.0517578e-05 -4.3276873 -1.1441307 4293729569
0.19146729 -4.5302229 -1.6211834 4293729569
-0.027526855 -4.3124142 -1.1815214 4293729569
-0.0014343262 -4.4032097 -1.6207418 4293729569
-0.04510498 -4.3021355 -1.22013 4293729569
-0.17837524 -4.285181 -1.6226568 4293729569
-0.05368042 -4.295845 -1.2599316 4293729569
-0.3293457 -4.1831303 -1.6281624 4293729569
-0.41363525 -4.1249571 -1.6481686 4293729569
0.80514526 -4.8700676 -1.5117588 4293729569
-0.40228271 -4.1306448 -1.6914215 4293729569
0.55233765 -4.692091 -1.5058546 4293729569
-0.40386963 -4.1263552 -1.7313662 4293729569
0.039520264 -4.3365135 -1.4419098 4293729569
-0.39651489 -4.12605 -1.7735023 4293729569
0.079772949 -4.3531685 -1.4897699 4293729569
-0.37820435 -4.1297293 -1.8178673 4293729569
0.46572876 -4.6002922 -1.6146164 4293729569
-0.37081909 -4.1254387 -1.857975 4293729569
0.28579712 -4.4642735 -1.6153469 4293729569
-0.33956909 -4.1350937 -1.9056196 4288085770
0.11587524 -4.33426 -1.6153011 4293729569
-0.38885498 -4.0879183 -1.9293804 4288085770
-0.015106201 -4.229208 -1.6211472 4293729569
-0.53063965 -3.975955 -1.9229774 4288085770
-0.10726929 -4.1480951 -1.6358776 4293729569
-0.64950562 -3.8789587 -1.9211016 4288085770
-0.084899902 -4.1408033 -1.6762342 4293729569
-0.78326416 -3.7700109 -1.9128675 4288085770
-0.051513672 -4.1395025 -1.7178364 4293729569
-0.90203857 -3.6710463 -1.9069796 4288085770
-0.009185791 -4.1421804 -1.7626295 4293729569
-1.0019226 -3.5830488 -1.9055147 4288085770
0.041137695 -4.1468487 -1.8085842 4293729569
-1.092804 -3.5000458 -1.9052515 4288085770
0.091400146 -4.1505175 -1.8545284 4293729569
-1.1856384 -3.4150639 -1.9019365 4288085770
0.14471436 -4.1531858 -1.9005222 4288085770
-1.2695312 -3.3360682 -1.9008293 4288085770
0.1333313 -4.1129856 -1.9280214 4288085770
-1.3552856 -3.2541008 -1.8956661 4288085770
0.032470703 -4.015974 -1.9284735 4288085770
-1.4281616 -3.1801043 -1.8947954 4288085770
-0.085388184 -3.9070091 -1.9225273 4288085770
-1.5188904 -3.0941734 -1.884511 4288085770
-0.21005249 -3.7950764 -1.9124346 4288085770
-0.31283569 -3.6951094 -1.9068279 4288085770
-0.39276123 -3.6091042 -1.9067411 4288085770
-0.48254395 -3.5171385 -1.9014301 4288085770
-0.55740356 -3.4341478 -1.899456 4288085770
-0.63223267 -3.350173 -1.8954754 4288085770
-0.70202637 -3.2702045 -1.8906145 4288085770
-0.76586914 -3.1942291 -1.8868923 4288085770
-0.82666016 -3.1182537 -1.8832254 4288085770
-0.86956787 -3.0522461 -1.883956 4288085770
-0.91738892 -2.9852619 -1.8815899 4288085770
-0.96224976 -2.9182835 -1.8782787 4288085770
-1.0020752 -2.855299 -1.8760872 4288085770
-1.0250244 -2.8012829 -1.8782692 4288085770
-1.0697327 -2.7343349 -1.8709583 4288085770
-1.0975952 -2.6773481 -1.8690281 4288085770
-1.1124878 -2.626339 -1.8703775 4288085770
-1.1293945 -2.5743465 -1.8696833 4288085770
-1.1571655 -2.5173731 -1.8657541 4288085770
-1.1620789 -2.4713707 -1.8663216 4288085770
-1.1748962 -2.4223833 -1.8647213 4288085770
-1.2076111 -2.3624563 -1.8546791 4288085770
-1.1945801 -2.3244228 -1.8596315 4288085770
-1.1934509 -2.2814274 -1.8593302 4288085770
-1.1962891 -2.2354469 -1.8569326 4288085770
-1.1881409 -2.1954498 -1.8567801 4288085770
-1.1829834 -2.1524611 -1.8555508 4288085770
-1.1708984 -2.1134644 -1.8554764 4288085770
-1.1687012 -2.0704985 -1.8511925 4288085770
-1.1584778 -2.0295219 -1.8480682 4288085770
-1.1383972 -1.9925241 -1.8481541 4288085770
-1.1222229 -1.9555426 -1.8461676 4288085770
-1.1060486 -1.9165668 -1.8431664 4288085770
-1.0818481 -1.8805838 -1.8413324 4288085770
-1.0606995 -1.8436089 -1.8384361 4288085770
-1.0265503 -1.8116169 -1.8378124 4288085770
-0.99938965 -1.7766399 -1.8350382 4288085770
-0.96520996 -1.7436571 -1.8334055 4288085770
-0.91116333 -1.7176323 -1.8371878 4288085770
-0.86999512 -1.6866493 -1.8356962 4288085770
-0.82983398 -1.654664 -1.8341799 4288085770
-0.77774048 -1.6266699 -1.83391 4288085770
-0.71960449 -1.6006613 -1.835763 4288085770
-0.66247559 -1.5726671 -1.8355827 4288085770
-0.60931396 -1.5436878 -1.8333225 4288085770
-0.55609131 -1.5137177 -1.8300552 4288085770
-0.48300171 -1.489707 -1.8321934 4288085770
-0.42977905 -1.4587498 -1.8269186 4288085770
-1.5329895 -1.1606665 -1.8307409 4288085770
-0.34667969 -1.436738 -1.8292532 4288085770
-1.4778442 -1.1366787 -1.8295536 4288085770
-0.27349854 -1.4097567 -1.8273687 4288085770
-1.4137268 -1.1146774 -1.8305435 4288085770
-0.19439697 -1.3857679 -1.8266144 4288085770
-1.3605652 -1.0896988 -1.8283138 4288085770
-0.11715698 -1.3587933 -1.823802 4288085770
-1.2944336 -1.0667038 -1.8283319 4288085770
-0.036987305 -1.332819 -1.8210516 4288085770
-1.228241 -1.0447159 -1.8273602 4288085770
0.062133789 -1.3108215 -1.8216724 4288085770
-1.1610718 -1.0207367 -1.8253889 4288085770
0.16726685 -1.2888222 -1.822403 4288085770
-1.0928955 -0.99776363 -1.822444 4288085770
0.30725098 -1.2737589 -1.8318167 4288085770
-1.0187683 -0.97577477 -1.8216143 4288085770
0.3805542 -1.2438364 -1.821909 4288085770
-0.93661499 -0.9537859 -1.8209286 4288085770
0.52362061 -1.2277966 -1.8283691 4288085770
-0.85842896 -0.9308033 -1.8191643 4288085770
0.65869141 -1.2077866 -1.8306541 4288085770
-0.7623291 -0.91179752 -1.8207531 4288085770
0.77990723 -1.1848145 -1.8276644 4288085770
-0.68908691 -0.88684654 -1.8148823 4288085770
0.87719727 -1.1558819 -1.8191977 4288085770
-0.57601929 -0.86981678 -1.8197918 4288085770
1.0273132 -1.1368866 -1.8197603 4288085770
-0.47088623 -0.84982395 -1.8195362 4288085770
1.1595459 -1.1129208 -1.8159618 4288085770
-0.37667847 -0.82686329 -1.8150587 4288085770
1.3057251 -1.0899534 -1.8124218 4288085770
-0.26449585 -0.80587006 -1.8149214 4288085770
1.4629211 -1.0689783 -1.8100958 4288085770
-0.1394043 -0.78686047 -1.8170328 4288085770
1.6271362 -1.0470076 -1.8068895 4288085770
-0.031188965 -0.76490498 -1.8118143 4288085770
1.8143005 -1.0270224 -1.8061123 4288085770
0.10195923 -0.74490452 -1.8130627 4288085770
1.9945374 -1.0050583 -1.8021927 4288085770
0.26101685 -0.72786808 -1.8188009 4288085770
2.199707 -0.9850769 -1.8007383 4288085770
0.40811157 -0.70887089 -1.8193092 4288085770
2.4308472 -0.96707916 -1.8017693 4288085770
0.5652771 -0.68987465 -1.8199968 4288085770
2.684967 -0.9500618 -1.8052216 4288085770
0.71447754 -0.66789913 -1.8175173 4288085770
2.9271545 -0.93009186 -1.8024349 4288085770
0.87268066 -0.64692879 -1.814208 4288085770
3.2073364 -0.91308689 -1.8043547 4288085770
1.0348816 -0.62495995 -1.8109627 4288085770
3.5014954 -0.89509583 -1.8045216 4288085770
1.2200317 -0.60497284 -1.8101463 4288085770
3.8804626 -0.88502026 -1.8162775 4288085770
1.3982544 -0.58300972 -1.8061886 4288085770
4.2754517 -0.87295914 -1.8263092 4288085770
1.6034546 -0.56203556 -1.8037262 4288085770
4.7084656 -0.86090088 -1.8360243 4288085770
1.8136902 -0.54006958 -1.8003464 4288085770
5.2153931 -0.85377979 -1.8541117 4288085770
2.0308838 -0.51810169 -1.7970905 4288085770
5.747345 -0.84468746 -1.8686342 4288085770
2.2740784 -0.49712276 -1.7953129 4288085770
6.4110413 -0.84349632 -1.896596 4288085770
2.5632019 -0.47810078 -1.7993774 4288085770
7.0848999 -0.8383503 -1.9187069 4288085770
2.8643494 -0.45809364 -1.801651 4288085770
7.9035645 -0.83812809 -1.9514694 4288085770
3.1575623 -0.4361248 -1.7987652 4288085770
8.7733154 -0.834939 -1.9801283 4288085770
3.4777832 -0.41314507 -1.7973585 4288085770
9.8158569 -0.83865643 -2.0209579 4288085770
3.9087219 -0.3960619 -1.8099947 4288085770
11.033325 -0.84532928 -2.068965 4288085770
4.3049011 -0.37405682 -1.811964 4288085770
12.638336 -0.86679363 -2.1460762 4288085770
4.7818909 -0.35499001 -1.8224144 4288085770
5.4375916 -0.34078598 -1.852128 4288085770
6.1771851 -0.3275404 -1.8873615 4288085770
6.9070435 -0.3083849 -1.9103699 4288085770
7.7467651 -0.28819466 -1.9383526 4288085770
8.7373657 -0.26992607 -1.9770689 4288085770
9.8789062 -0.24963188 -2.0194902 4288085770
11.154449 -0.22632408 -2.0643034 4288085770
12.913361 -0.20675659 -2.144866 4288085770
12.692352 0.079268456 -2.1312475 4288085770
10.815674 0.079065323 -2.0471859 4288085770
9.3605042 0.079206467 -1.9913225 4288085770
8.1152954 0.079465866 -1.9430456 4288085770
7.0409851 0.081820488 -1.900671 4288085770
6.1195984 0.085271835 -1.8649015 4288085770
5.3001404 0.088770866 -1.831872 4288085770
13.238983 -0.042363167 -2.1512117 4288085770
4.5756531 0.093325615 -1.8024569 4288085770
11.29126 -0.019600868 -2.0667858 4288085770
4.0279541 0.096089363 -1.7930555 4288085770
9.6873169 0.00040245056 -2.0002203 4288085770
3.5321045 0.098887444 -1.7855501 4288085770
8.3781433 0.018604279 -1.9477177 4288085770
3.1241455 0.10177898 -1.7865458 4288085770
7.3147278 0.034000397 -1.9104309 4288085770
2.7462158 0.10567284 -1.7870474 4288085770
6.3833313 0.048459053 -1.8764076 4288085770
2.3922729 0.11057186 -1.7869501 4288085770
5.4770508 0.063854218 -1.8338099 4288085770
2.0473938 0.115448 -1.7840109 4288085770
4.7475281 0.077420235 -1.806241 4288085770
1.7494202 0.12038231 -1.7868719 4288085770
4.1677551 0.088157654 -1.7942505 4288085770
1.4884338 0.12535191 -1.7923651 4288085770
3.6838989 0.098972321 -1.7888985 4288085770
1.2294312 0.13031197 -1.7968931 4288085770
3.2240295 0.10978985 -1.7829542 4288085770
0.98348999 0.13725281 -1.7986279 4288085770
2.8560791 0.11870575 -1.785593 4288085770
0.76251221 0.14323044 -1.8037968 4288085770
2.4812012 0.12956619 -1.7820997 4288085770
0.5177002 0.15012264 -1.7995539 4288085770
2.1402893 0.13945961 -1.7811947 4288085770
0.29779053 0.1570425 -1.7977362 4288085770
1.8293762 0.15037251 -1.7817926 4288085770
0.086914062 0.16496468 -1.7960644 4288085770
1.5743408 0.1593504 -1.7883606 4288085770
-0.10995483 0.17289257 -1.794632 4288085770
1.3193359 0.17030239 -1.791913 4288085770
-0.31176758 0.18078899 -1.7891169 4288085770
1.0714111 0.18024826 -1.7945957 4288085770
-0.47470093 0.18876266 -1.792264 4288085770
0.83151245 0.19116688 -1.7934065 4288085770
-0.62567139 0.19674301 -1.7956161 4288085770
0.61453247 0.20112705 -1.7966166 4288085770
-0.78158569 0.20569706 -1.7958755 4288085770
0.39364624 0.21205425 -1.7957544 4288085770
-0.95837402 0.21457767 -1.7877817 4288085770
0.16885376 0.22392941 -1.7888184 4288085770
-1.0753784 0.2226038 -1.7957125 4288085770
-0.024047852 0.23386765 -1.7884417 4288085770
-1.216217 0.23153973 -1.793231 4288085770
-0.20294189 0.24481201 -1.7882957 4288085770
-1.3471069 0.24049568 -1.7929192 4288085770
-0.38482666 0.2567358 -1.7860918 4288085770
-1.4481506 0.25053692 -1.8021088 4288085770
-0.54473877 0.26769543 -1.7872705 4288085770
-0.69665527 0.27865028 -1.7875862 4288085770
-0.84152222 0.289608 -1.7880201 4288085770
-0.97747803 0.30057716 -1.789608 4288085770
-1.1143494 0.31252193 -1.7881727 4288085770
-1.2471619 0.32346821 -1.7868128 4288085770
-1.354187 0.33447552 -1.791894 4288085770
-1.4690857 0.34543705 -1.7918406 4288085770
-1.5557251 2.4577332 -1.7278376 4288085770
-1.4436035 2.487772 -1.7274227 4288085770
-1.3264465 2.5178013 -1.7250891 4288085770
-1.1963196 2.5528698 -1.7269287 4288085770
-1.0691833 2.5839119 -1.72575 4288085770
-0.92803955 2.6189747 -1.7267685 4288085770
-0.78396606 2.6540337 -1.7268362 4288085770
-0.62387085 2.6931343 -1.7311325 4288085770
-1.5578003 2.3667679 -1.7343941 4288085770
-0.46676636 2.7301998 -1.7313957 4288085770
-1.4466553 2.3878002 -1.7330341 4288085770
-0.31161499 2.7632599 -1.7306585 4288085770
-1.3345032 2.4078255 -1.7306976 4288085770
-0.14352417 2.7993317 -1.7311077 4288085770
-1.1646118 2.4480152 -1.7451487 4288085770
0.030609131 2.8374081 -1.7316399 4288085770
-1.0275269 2.4740868 -1.7471733 4288085770
0.20477295 2.8714676 -1.7302036 4288085770
-0.94116211 2.4790096 -1.733531 4288085770
0.38394165 2.9065323 -1.7288408 4288085770
-0.81396484 2.4980354 -1.7304468 4288085770
0.56414795 2.9385719 -1.7245178 4288085770
-0.62109375 2.5382366 -1.7452726 4288085770
0.77124023 2.9776592 -1.7245798 4288085770
-0.48291016 2.5572701 -1.7423687 4288085770
0.99234009 3.0187683 -1.7268543 4288085770
-0.33969116 2.5752983 -1.738554 4288085770
1.1975708 3.052824 -1.7229233 4288085770
-0.15072632 2.6084499 -1.7473688 4288085770
1.4386597 3.0959492 -1.7255068 4288085770
0.0074157715 2.6285114 -1.7467813 4288085770
1.6549072 3.1279926 -1.7197704 4288085770
0.16760254 2.6475639 -1.7452345 4288085770
1.9110107 3.1701088 -1.7206059 4288085770
0.34072876 2.667635 -1.7448921 4288085770
2.1731567 3.2112179 -1.7205477 4288085770
0.4720459 2.6715908 -1.7329912 4288085770
2.4303284 3.2472973 -1.7164469 4288085770
0.69708252 2.7047634 -1.7423935 4288085770
2.7075195 3.2864017 -1.7146492 4288085770
0.87921143 2.7218227 -1.7402201 4288085770
3.0186157 3.33255 -1.7163496 4288085770
1.0823364 2.741909 -1.740365 4288085770
3.3577271 3.3827209 -1.7194748 4288085770
1.2725525 2.7549648 -1.7373543 4288085770
3.745697 3.443964 -1.7283106 4288085770
1.4537964 2.7639942 -1.7312279 4288085770
4.1008301 3.4901314 -1.7297268 4288085770
1.6619873 2.779068 -1.7294941 4288085770
4.4929504 3.5433273 -1.7326908 4288085770
1.8612061 2.7881165 -1.7246599 4288085770
5.0456543 3.6367836 -1.7589626 4288085770
2.109314 2.8082371 -1.7265368 4288085770
5.6264343 3.7292271 -1.7816992 4288085770
2.3165894 2.8132725 -1.7198648 4288085770
6.2821045 3.8357544 -1.8105459 4288085770
2.5906677 2.8334255 -1.7241669 4288085770
6.9977417 3.9503422 -1.8433065 4288085770
2.8398438 2.8435173 -1.7221384 4288085770
7.7723083 4.070961 -1.8769808 4288085770
3.0780945 2.847578 -1.716979 4288085770
8.5909729 4.1936016 -1.9103565 4288085770
3.3582458 2.8587036 -1.7174492 4288085770
9.3997192 4.3021755 -1.9366779 4288085770
3.614502 2.8607769 -1.7125978 4288085770
10.355286 4.437912 -1.9741802 4288085770
3.9325867 2.8749504 -1.7166615 4288085770
11.504608 4.6058502 -2.0255909 4288085770
4.2567139 2.8851128 -1.7188549 4288085770
12.97052 4.8321438 -2.1027079 4288085770
4.6576843 2.90839 -1.7311983 4288085770
5.1723633 2.9518433 -1.7582407 4288085770
5.6412659 2.9791965 -1.7756596 4288085770
6.1700745 3.0116177 -1.7980165 4288085770
6.7997437 3.0591793 -1.8318977 4288085770
7.465332 3.1047554 -1.8653803 4288085770
8.1479797 3.1453438 -1.8991795 4288085770
8.8057556 3.1718502 -1.9246817 4288085770
9.5234985 3.2004242 -1.9551449 4288085770
10.177429 3.2068577 -1.9717388 4288085770
11.069946 3.2456207 -2.0149708 4288085770
11.89267 3.2622452 -2.0452356 4288085770
12.961029 3.3041706 -2.0983086 4288085770
13.311981 -4.9497728 -1.3457575 4293729569
12.72403 -4.9350376 -1.3470888 4293729569
12.00415 -4.8754568 -1.3379221 4293729569
11.480164 -4.8606663 -1.3422937 4293729569
11.052032 -4.8667679 -1.3543863 4293729569
10.483093 -4.8250427 -1.353816 4293729569
9.9350891 -4.7802973 -1.3545609 4293729569
9.4570618 -4.7494907 -1.3585539 4293729569
8.9900208 -4.7166624 -1.3647099 4293729569
8.6069031 -4.7037468 -1.3763876 4293729569
8.3928223 -4.7100735 -0.63785172 4293729569
8.2537537 -4.6938047 -1.389575 4293729569
7.9664307 -4.6720705 -0.66263008 4293729569
7.9645691 -4.699789 -1.4079275 4293729569
7.6600342 -4.6689472 -0.69463253 4293729569
7.5475464 -4.6599312 -1.4148417 4293729569
7.3086548 -4.6458797 -0.7227478 4293729569
7.2063904 -4.6389818 -1.4281368 4293729569
7.0252686 -4.6407614 -0.75310898 4293729569
6.9002075 -4.6259947 -1.4440651 4293729569
6.7058716 -4.6176758 -0.7817421 4293729569
6.6430054 -4.6269522 -1.4638996 4293729569
6.4334717 -4.6095505 -0.81225967 4293729569
6.3407898 -4.6059637 -1.4798288 4293729569
6.1101074 -4.5774851 -0.83875847 4293729569
6.0576172 -4.5879641 -1.4960899 4293729569
5.8147583 -4.5493927 -0.86674404 4293729569
5.7245483 -4.5460463 -1.505352 4293729569
5.4643555 -4.5300159 -1.524004 4293729569
5.4538269 -4.5759764 -0.93710423 4293729569
5.2550964 -4.5289268 -1.5466003 4293729569
5.2354126 -4.5668201 -0.96848774 4293729569
5.046814 -4.5258293 -1.5701981 4293729569
4.9630737 -4.5347214 -0.99581623 4293729569
4.8615112 -4.5277004 -1.5962076 4293729569
4.7506714 -4.5225687 -1.0262756 4293729569
4.5683594 -4.4827509 -1.6070957 4293729569
4.5092773 -4.4944439 -1.0551367 4293729569
4.1256104 -4.3680763 -1.5939999 4293729569
4.3158875 -4.4832706 -1.0869122 4293729569
3.7577209 -4.2802963 -1.5893345 4293729569
4.182373 -4.4950256 -1.1238432 4293729569
3.5644836 -4.263216 -1.6100645 4293729569
3.9989929 -4.4828463 -1.1557732 4293729569
3.387207 -4.2501173 -1.6320848 4293729569
3.8554993 -4.4846163 -1.1914597 4293729569
3.244873 -4.2499533 -1.6597757 4293729569
3.6362 -4.4495039 -1.2176237 4293729569
3.1015625 -4.2477999 -1.6864357 4293729569
3.5686646 -4.4811745 -1.2607813 4293729569
2.9572449 -4.2416468 -1.713047 4293729569
6.2906189 -5.8244648 -1.6606302 4293729569
2.8289185 -4.2414742 -1.7409649 4293729569
3.2507935 -4.4527845 -1.3254013 4293729569
2.7095642 -4.2432785 -1.7710447 4293729569
4.9231873 -5.3185663 -1.6094246 4293729569
2.5782166 -4.2371082 -1.7988663 4293729569
3.0039062 -4.447299 -1.3973541 4293729569
2.4518738 -4.2309284 -1.8277693 4293729569
3.7886963 -4.8904762 -1.5676126 4293729569
2.3385315 -4.2287292 -1.857914 4293729569
3.0843201 -4.5972433 -1.5178528 4293729569
2.2351379 -4.2295065 -1.8902445 4288085770
2.7952271 -4.5053062 -1.5274315 4293729569
2.1207886 -4.2223186 -1.9193325 4288085770
2.5799866 -4.4452429 -1.5474615 4293729569
2.0083923 -4.2141275 -1.9484453 4288085770
2.5822449 -4.4957733 -1.6029005 4293729569
1.8033752 -4.156168 -1.955658 4288085770
2.3001709 -4.3958664 -1.6085291 4293729569
1.5405273 -4.0633583 -1.9486523 4288085770
2.0690613 -4.318882 -1.6201658 4293729569
1.2757568 -3.9665756 -1.9385862 4288085770
1.8299561 -4.2349215 -1.6296186 4293729569
1.0448608 -3.8837357 -1.9331799 4288085770
1.700592 -4.2067509 -1.6572952 4293729569
0.79904175 -3.7889509 -1.9224348 4288085770
1.6241455 -4.2034636 -1.6960258 4293729569
0.59613037 -3.7150755 -1.9195538 4288085770
1.5496216 -4.1991806 -1.7337809 4293729569
0.40826416 -3.6461763 -1.9189548 4288085770
1.4831238 -4.1978846 -1.7726889 4293729569
0.22033691 -3.5742931 -1.9163313 4288085770
1.4246521 -4.198575 -1.8127413 4293729569
0.031463623 -3.4994278 -1.9116688 4288085770
1.3660889 -4.198267 -1.8527861 4293729569
-0.14041138 -3.4305353 -1.9093275 4288085770
1.3085938 -4.1949558 -1.8928223 4288085770
-0.31329346 -3.3596601 -1.9049568 4288085770
1.2570496 -4.1946325 -1.933979 4288085770
-0.4821167 -3.2877913 -1.899641 4288085770
1.0989075 -4.1315937 -1.9479065 4288085770
-0.62210083 -3.2298527 -1.9009047 4288085770
0.86105347 -4.0207796 -1.9401608 4288085770
-0.76898193 -3.1669436 -1.8990173 4288085770
0.64022827 -3.9169455 -1.9337454 4288085770
-0.91384888 -3.1020508 -1.8951454 4288085770
0.40844727 -3.8041697 -1.9210825 4288085770
-1.04776 -3.0421257 -1.8944912 4288085770
0.2244873 -3.7162685 -1.920393 4288085770
-1.1905823 -2.9752569 -1.8876362 4288085770
0.041656494 -3.6254101 -1.9146957 4288085770
-1.2995605 -2.9252892 -1.8904657 4288085770
-0.12231445 -3.5444956 -1.9143848 4288085770
-1.4223938 -2.8653822 -1.8869886 4288085770
-0.2991333 -3.4536495 -1.906786 4288085770
-1.5432739 -2.8054829 -1.8825445 4288085770
-0.45202637 -3.3737459 -1.9046612 4288085770
-0.60488892 -3.2928686 -1.8995285 4288085770
-0.74279785 -3.218955 -1.8976946 4288085770
-0.86972046 -3.1500263 -1.8970785 4288085770
-1.0055542 -3.0731449 -1.8912525 4288085770
-1.1244202 -3.0062275 -1.8887806 4288085770
-1.2423096 -2.9373188 -1.8853102 4288085770
-1.368103 -2.8624487 -1.8776617 4288085770
-1.4431458 -2.8164263 -1.885067 4288085770
-1.5430298 -2.7544975 -1.8829412 4288085770
-1.5539246 -0.53610229 -1.8212614 4288085770
-1.4708252 -0.52105618 -1.8213968 4288085770
-1.3896484 -0.50502586 -1.8194914 4288085770
-1.3154297 -0.48802662 -1.8144693 4288085770
-1.2402039 -0.47002506 -1.8084326 4288085770
-1.1500244 -0.45499992 -1.8056688 4288085770
-1.0329285 -0.44189262 -1.810338 4288085770
-0.93276978 -0.4268589 -1.8077269 4288085770
-0.82168579 -0.41278744 -1.8082924 4288085770
-0.69854736 -0.39970493 -1.810051 4288085770
-0.58435059 -0.38466835 -1.806653 4288085770
-1.5376282 -0.2571497 -1.8148251 4288085770
-0.46221924 -0.36961651 -1.8043756 4288085770
-1.4424438 -0.24411106 -1.8131552 4288085770
-0.33996582 -0.35457611 -1.8010988 4288085770
-1.3343506 -0.23102951 -1.8156824 4288085770
-0.18991089 -0.34247017 -1.8032761 4288085770
-1.222229 -0.21795082 -1.8172703 4288085770
-0.023834229 -0.33032799 -1.8086977 4288085770
-1.1270447 -0.20295334 -1.8105783 4288085770
0.13830566 -0.31722164 -1.81005 4288085770
-1.0098877 -0.18988037 -1.8112421 4288085770
0.3024292 -0.30413914 -1.8084288 4288085770
-0.88375854 -0.17680931 -1.8110428 4288085770
0.49252319 -0.291996 -1.8122168 4288085770
-0.76257324 -0.16375923 -1.8087645 4288085770
0.67071533 -0.2779026 -1.8108006 4288085770
-0.63143921 -0.15069389 -1.8076391 4288085770
0.85888672 -0.26481152 -1.8085451 4288085770
-0.47735596 -0.13856792 -1.8118753 4288085770
1.0769653 -0.25265598 -1.8117561 4288085770
-0.34814453 -0.12453747 -1.8067083 4288085770
1.2941284 -0.23953438 -1.8109417 4288085770
-0.19595337 -0.11147308 -1.8039007 4288085770
1.5193481 -0.22642326 -1.8082495 4288085770
-0.014892578 -0.100317 -1.809556 4288085770
1.7425537 -0.21134281 -1.8025055 4288085770
0.17022705 -0.088194847 -1.8112602 4288085770
1.987793 -0.19823551 -1.7981148 4288085770
0.35235596 -0.075080872 -1.8119097 4288085770
2.2789001 -0.18604279 -1.800436 4288085770
0.53955078 -0.061998367 -1.8086329 4288085770
2.5760498 -0.17288017 -1.7988377 4288085770
0.76165771 -0.050829887 -1.8129082 4288085770
2.9161682 -0.16165733 -1.8009129 4288085770
0.97479248 -0.037711143 -1.8120279 4288085770
3.2663574 -0.14845467 -1.8001232 4288085770
1.177002 -0.023651123 -1.8049679 4288085770
3.6375427 -0.13524532 -1.7986498 4288085770
1.4341431 -0.011482239 -1.8067646 4288085770
4.1156006 -0.12586308 -1.8098459 4288085770
1.6614075 0.0015859604 -1.7990923 4288085770
4.6345825 -0.11644936 -1.8216648 4288085770
1.9266052 0.014716148 -1.7959986 4288085770
5.2923889 -0.1098299 -1.8476315 4288085770
2.2307739 0.026904106 -1.7965078 4288085770
6.0671082 -0.10407829 -1.8803902 4288085770
2.5549316 0.039105415 -1.7973194 4288085770
6.8738708 -0.097345352 -1.9086227 4288085770
2.901062 0.052313805 -1.7974558 4288085770
7.8544922 -0.093398094 -1.9495344 4288085770
3.261261 0.064507484 -1.7948122 4288085770
8.933197 -0.087421417 -1.9869175 4288085770
3.6943665 0.076815605 -1.8002806 4288085770
10.245636 -0.083169937 -2.0398827 4288085770
4.1514893 0.08912468 -1.8041105 4288085770
11.856934 -0.082597733 -2.1084375 4288085770
4.7234192 0.099606514 -1.8197088 4288085770
5.4172363 0.11024857 -1.8451653 4288085770
6.2398987 0.11906433 -1.8815994 4288085770
7.1715698 0.12996101 -1.919672 4288085770
8.2241516 0.13995647 -1.9605904 4288085770
9.4617004 0.15114403 -2.010314 4288085770
10.898132 0.16249466 -2.0650558 4288085770
12.760193 0.1733551 -2.148284 4288085770
12.579315 0.44658184 -2.115015 4288085770
10.757324 0.45215225 -2.036437 4288085770
9.335022 0.45932102 -1.9820023 4288085770
8.0646973 0.46564865 -1.9295416 4288085770
7.0033264 0.47224903 -1.8857746 4288085770
6.0588379 0.47999287 -1.8455076 4288085770
5.2723083 0.48697472 -1.8152847 4288085770
13.31076 0.64350986 -2.1359921 4288085770
4.5966492 0.49512959 -1.7924824 4288085770
11.317902 0.64079952 -2.0453482 4288085770
4.0339355 0.50347042 -1.7781334 4288085770
9.8206787 0.64285564 -1.9870386 4288085770
3.5840454 0.51402569 -1.7752171 4288085770
8.5412903 0.64619732 -1.9375248 4288085770
3.1582031 0.52358341 -1.7706223 4288085770
7.467865 0.64981937 -1.8976603 4288085770
2.7982483 0.53426838 -1.7728662 4288085770
6.4515076 0.65242767 -1.8505459 4288085770
2.4543152 0.54494953 -1.7733173 4288085770
5.6439209 0.65838432 -1.8200836 4288085770
2.1214905 0.55560684 -1.7699137 4288085770
4.9233704 0.66344357 -1.7917528 4288085770
1.8415222 0.56637383 -1.7731905 4288085770
4.3366699 0.67173672 -1.7751112 4288085770
1.601532 0.57822323 -1.7809706 4288085770
3.9017334 0.68233109 -1.7753983 4288085770
1.3366089 0.58896637 -1.7804432 4288085770
3.4329529 0.69079685 -1.765275 4288085770
1.1266479 0.60183811 -1.7876024 4288085770
3.0550537 0.70242405 -1.7632885 4288085770
0.89373779 0.61261654 -1.7874889 4288085770
2.7061462 0.7130909 -1.7626848 4288085770
0.67584229 0.6234026 -1.7865696 4288085770
2.3892517 0.72479916 -1.763483 4288085770
0.4619751 0.63418293 -1.7847023 4288085770
2.0773315 0.73547649 -1.7603588 4288085770
0.25912476 0.64496422 -1.7819777 4288085770
1.8203735 0.74727726 -1.7649279 4288085770
0.078186035 0.65679646 -1.782526 4288085770
1.5784302 0.76009464 -1.769681 4288085770
-0.098693848 0.66761589 -1.7811375 4288085770
1.3415222 0.77287769 -1.7705011 4288085770
-0.27453613 0.67942619 -1.7787533 4288085770
1.1086121 0.78465557 -1.7703838 4288085770
-0.43939209 0.690238 -1.7755203 4288085770
0.90567017 0.79750443 -1.774641 4288085770
-0.58331299 0.70211029 -1.7765455 4288085770
0.69378662 0.80928612 -1.7727957 4288085770
-0.72518921 0.71296406 -1.7756081 4288085770
0.48794556 0.8200531 -1.7690372 4288085770
-0.86407471 0.72482204 -1.7747002 4288085770
0.31002808 0.83188915 -1.7696276 4288085770
-0.9949646 0.73667908 -1.7728958 4288085770
0.13613892 0.84472084 -1.7692614 4288085770
-1.105896 0.74960423 -1.7763367 4288085770
-0.022766113 0.85657692 -1.7700977 4288085770
-1.211792 0.76253605 -1.7798424 4288085770
-0.18862915 0.86838531 -1.7668457 4288085770
-1.3356323 0.77237225 -1.7751493 4288085770
