# .PCD v0.7 - Point Cloud Data file format
VERSION 0.7
FIELDS x y z rgb
SIZE 4 4 4 4
TYPE F F F U
COUNT 1 1 1 1
WIDTH 1110
HEIGHT 1
VIEWPOINT 0 0 0 1 0 0 0
POINTS 1110
DATA ascii
9.0477209 0.031790711 -1.8653266 4288085770
11.257639 0.032818705 -1.8844637 4288085770
6.7839394 0.024133138 -1.8266715 4288085770
5.8329492 0.018492095 -1.8216324 4288085770
9.3707314 0.019713156 -1.8644605 4288085770
11.792606 0.016562343 -1.8900678 4288085770
9.7397194 0.0095614344 -1.8669655 4288085770
6.5989485 0.011230104 -1.824085 4288085770
12.354589 0.0023309961 -1.8939061 4288085770
5.6869731 0.0076091811 -1.817367 4288085770
10.137698 -0.0026203245 -1.870645 4288085770
13.030516 -0.014075249 -1.9055369 4288085770
10.587653 -0.013878621 -1.8777213 4288085770
6.4199653 -0.0036568269 -1.8205057 4288085770
13.74147 -0.030422989 -1.9134235 4288085770
5.57093 -0.0054502264 -1.8222816 4288085770
11.056639 -0.025071777 -1.8809369 4288085770
14.559401 -0.046869963 -1.9250892 4288085770
11.573615 -0.036303133 -1.885502 4288085770
12.13759 -0.04655413 -1.8904277 4288085770
15.506305 -0.064425156 -1.9406761 4288085770
6.2689447 -0.017646812 -1.822148 4288085770
12.790533 -0.056915157 -1.9000015 4288085770
16.558224 -0.08098755 -1.9550467 4288085770
5.4549017 -0.017473228 -1.825215 4288085770
18.922171 -0.097930141 -1.9699782 4288085770
13.526461 -0.067347161 -1.9121796 4288085770
14.349379 -0.076833673 -1.9260095 4288085770
17.724142 -0.099578761 -1.9692115 4288085770
18.785025 -0.10823727 -1.9887933 4288085770
15.258299 -0.085337766 -1.9394847 4288085770
17.427151 -0.10145525 -1.9670111 4288085770
16.266233 -0.093846425 -1.9516815 4288085770
19.103033 -0.11731333 -1.9879459 4288085770
17.568266 -0.11120202 -1.9508587 4288085770
6.1169467 -0.031581573 -1.8207831 4288085770
5.3219252 -0.029361308 -1.821026 4288085770
16.424341 -0.12461582 -1.9362684 4288085770
15.411392 -0.13912034 -1.9246141 4288085770
5.9739404 -0.045538288 -1.8204837 4288085770
5.2109113 -0.041349817 -1.821996 4288085770
14.508457 -0.15263408 -1.9117795 4288085770
5.8319497 -0.059458882 -1.818192 4288085770
13.70352 -0.16618845 -1.8996588 4288085770
5.1039052 -0.054321527 -1.821977 4288085770
19.443113 -0.2611258 -1.9707924 4288085770
12.990564 -0.17881766 -1.8902266 4288085770
5.6829872 -0.073303476 -1.8118498 4288085770
18.079199 -0.27442989 -1.9535992 4288085770
12.352608 -0.19347769 -1.8813039 4288085770
16.878271 -0.28781989 -1.9385935 4288085770
5.5779443 -0.087367222 -1.8168261 4288085770
11.781629 -0.20722041 -1.875887 4288085770
15.83734 -0.3022761 -1.924735 4288085770
11.282631 -0.22202939 -1.8729759 4288085770
5.4689155 -0.10239259 -1.8197552 4288085770
14.929391 -0.31582421 -1.9138632 4288085770
10.808656 -0.23579404 -1.8672657 4288085770
5.350924 -0.11532319 -1.8176564 4288085770
14.128438 -0.3304165 -1.9037528 4288085770
10.389657 -0.25063613 -1.8649373 4288085770
13.389484 -0.34403461 -1.8941121 4288085770
5.2419243 -0.12927562 -1.8166044 4288085770
9.9986572 -0.26448998 -1.8628314 4288085770
12.762498 -0.35877213 -1.8892686 4288085770
9.6576328 -0.28041908 -1.8640522 4288085770
5.1409178 -0.14324959 -1.8166106 4288085770
12.165542 -0.373449 -1.8806443 4288085770
9.2976704 -0.2941944 -1.8571727 4288085770
11.632561 -0.3882072 -1.8754855 4288085770
8.9916611 -0.30910158 -1.8566672 4288085770
11.175547 -0.40307 -1.8748796 4288085770
19.491745 -0.73370737 -1.9965097 4288085770
8.6607189 -0.32183424 -1.8470178 4288085770
19.104919 -0.75012445 -1.9703833 4288085770
10.754541 -0.41892931 -1.8735179 4288085770
18.166874 -0.74391818 -1.9736558 4288085770
8.3977156 -0.33674094 -1.8458254 4288085770
10.342557 -0.4347375 -1.8692223 4288085770
18.01499 -0.78753901 -1.9547466 4288085770
8.1447058 -0.35167003 -1.8457059 4288085770
17.02697 -0.75327873 -1.9561672 4288085770
9.9535866 -0.4495188 -1.8631127 4288085770
16.030046 -0.75873584 -1.941793 4288085770
7.8827472 -0.36546764 -1.8385403 4288085770
17.048061 -0.82300466 -1.9400426 4288085770
9.6085863 -0.46439144 -1.8613231 4288085770
15.153084 -0.76333398 -1.9333105 4288085770
7.6707282 -0.38143176 -1.8397007 4288085770
9.2646303 -0.47815502 -1.8535599 4288085770
16.189112 -0.85655183 -1.9281614 4288085770
14.326159 -0.76386219 -1.9202665 4288085770
7.4477468 -0.3953003 -1.8358185 4288085770
8.958643 -0.49400705 -1.8500361 4288085770
13.592209 -0.76348394 -1.9109176 4288085770
15.463131 -0.89122725 -1.9212302 4288085770
7.2297797 -0.40913436 -1.8299732 4288085770
12.932242 -0.76217288 -1.9041259 4288085770
8.675662 -0.50785077 -1.8457168 4288085770
19.762533 -1.2099607 -2.000778 4288085770
7.0537601 -0.42511344 -1.8313956 4288085770
12.335283 -0.75887012 -1.89683 4288085770
14.78017 -0.92286593 -1.9116676 4288085770
8.426652 -0.52478105 -1.8455895 4288085770
18.343695 -1.1711016 -1.9761344 4288085770
11.773323 -0.75458193 -1.8898073 4288085770
6.8777628 -0.44003779 -1.829837 4288085770
17.090855 -1.1342931 -1.951664 4288085770
8.1836557 -0.53967762 -1.8435427 4288085770
11.271346 -0.74935538 -1.8852397 4288085770
14.183187 -0.95559502 -1.9057127 4288085770
16.069914 -1.1058172 -1.9417354 4288085770
6.7177429 -0.4560234 -1.831376 4288085770
10.823339 -0.74522406 -1.8850466 4288085770
19.93144 -1.3871182 -2.0047719 4288085770
7.9426827 -0.55452019 -1.8385111 4288085770
15.155975 -1.0783675 -1.9315684 4288085770
10.405337 -0.74008709 -1.8840905 4288085770
13.634212 -0.98632598 -1.8991442 4288085770
6.5387897 -0.46883714 -1.8238331 4288085770
14.314037 -1.0509474 -1.921926 4288085770
9.9813824 -0.73183858 -1.8771468 4288085770
18.760572 -1.4003737 -1.9819845 4288085770
7.727694 -0.56941009 -1.8356684 4288085770
13.554111 -1.0235251 -1.9108815 4288085770
9.588418 -0.72262114 -1.871447 4288085770
6.3887844 -0.48379049 -1.8234636 4288085770
13.109248 -1.0160304 -1.890769 4288085770
12.872165 -0.99817145 -1.9023683 4288085770
9.2394304 -0.71347696 -1.8690673 4288085770
19.900442 -1.5719541 -1.9941648 4288085770
7.5316825 -0.58536249 -1.8359452 4288085770
17.686726 -1.4056158 -1.9570503 4288085770
12.253211 -0.97386211 -1.895296 4288085770
8.9034586 -0.70430154 -1.8647828 4288085770
6.255764 -0.49978721 -1.8251991 4288085770
8.585494 -0.69411552 -1.8596478 4288085770
11.694247 -0.95159554 -1.889624 4288085770
12.675239 -1.0478818 -1.8890193 4288085770
19.458445 -1.6177645 -1.9901024 4288085770
7.3346996 -0.60024154 -1.8322339 4288085770
8.2715416 -0.68289471 -1.8525608 4288085770
11.188276 -0.92936945 -1.8853379 4288085770
18.791574 -1.5802361 -1.9719204 4288085770
16.778786 -1.4171451 -1.9452137 4288085770
8.0025606 -0.67276573 -1.8497826 4288085770
10.745265 -0.91026044 -1.8864554 4288085770
6.1187654 -0.51472771 -1.8239244 4288085770
7.7335935 -0.6606003 -1.8450413 4288085770
10.307299 -0.88904411 -1.881647 4288085770
7.147717 -0.61612451 -1.8285768 4288085770
7.5145655 -0.65260124 -1.8485898 4288085770
12.235268 -1.0756401 -1.8822999 4288085770
9.8743687 -0.86573887 -1.8719124 4288085770
16.031782 -1.4298874 -1.9425308 4288085770
7.271606 -0.64042842 -1.8430383 4288085770
17.844656 -1.594694 -1.9567455 4288085770
18.762486 -1.6783758 -1.9789156 4288085770
9.5033846 -0.8455869 -1.8695736 4288085770
5.9867678 -0.52967018 -1.822686 4288085770
7.0526228 -0.6283204 -1.8406612 4288085770
9.1404305 -0.82436532 -1.8633121 4288085770
6.851625 -0.61825609 -1.8403784 4288085770
6.9727268 -0.63103092 -1.8260254 4288085770
8.8184462 -0.8052336 -1.8613122 4288085770
6.6476564 -0.60511798 -1.8361294 4288085770
8.4924974 -0.78400922 -1.8543205 4288085770
6.456687 -0.59298497 -1.8319569 4288085770
11.841287 -1.1054353 -1.8768785 4288085770
15.285823 -1.4355211 -1.9339836 4288085770
6.2856808 -0.58195168 -1.8329108 4288085770
8.1975336 -0.763834 -1.8495364 4288085770
17.047697 -1.613305 -1.9475895 4288085770
5.872746 -0.54667461 -1.8245414 4288085770
6.1226888 -0.57088512 -1.8319236 4288085770
5.1567702 -0.47942153 -1.8225472 4288085770
7.9275608 -0.74568725 -1.8458974 4288085770
5.9607043 -0.55880088 -1.8299621 4288085770
18.062578 -1.7298589 -1.9608651 4288085770
7.6795659 -0.72760445 -1.8454185 4288085770
5.8047271 -0.54670089 -1.8270446 4288085770
5.2647848 -0.49440965 -1.8200601 4288085770
5.6517491 -0.5336023 -1.8241674 4288085770
6.829699 -0.64804161 -1.8286695 4288085770
7.4455853 -0.70949107 -1.843042 4288085770
5.5227342 -0.5226047 -1.8264276 4288085770
5.3867779 -0.50945842 -1.8206749 4288085770
5.4027185 -0.51161093 -1.8287535 4288085770
5.1457539 -0.48745218 -1.8243194 4288085770
5.2787251 -0.50056064 -1.8280505 4288085770
7.2036343 -0.69030136 -1.8366262 4288085770
5.5067849 -0.52446991 -1.8192754 4288085770
6.9896526 -0.67219627 -1.8343954 4288085770
5.6397772 -0.5395233 -1.8199704 4288085770
6.8036399 -0.65717548 -1.8363132 4288085770
5.786747 -0.55663699 -1.8237302 4288085770
6.6006875 -0.63800204 -1.8301818 4288085770
5.9377313 -0.572716 -1.8255379 4288085770
6.4187045 -0.62091011 -1.8281662 4288085770
6.2457218 -0.60382205 -1.8262163 4288085770
6.0877304 -0.58875823 -1.8253388 4288085770
14.567889 -1.4351127 -1.9227511 4288085770
11.477305 -1.1332431 -1.8717124 4288085770
5.7407694 -0.56056237 -1.8203217 4288085770
16.325727 -1.6339653 -1.939943 4288085770
6.6747012 -0.6639744 -1.8272452 4288085770
17.274796 -1.7640151 -1.9264867 4288085770
13.931922 -1.4358108 -1.9160966 4288085770
5.6277785 -0.57449454 -1.81824 4288085770
11.159294 -1.163143 -1.8708442 4288085770
6.52771 -0.67889225 -1.8248978 4288085770
15.683756 -1.6556584 -1.932861 4288085770
13.340955 -1.4355279 -1.9097883 4288085770
16.317202 -1.7706659 -1.8673673 4288085770
5.5217729 -0.59046578 -1.8181723 4288085770
18.638708 -2.0389915 -1.7913845 4293729569
6.3787422 -0.69375455 -1.819536 4288085770
10.865274 -1.1950709 -1.8711141 4288085770
15.095774 -1.6773925 -1.9271725 4282675967
12.758025 -1.428158 -1.8986672 4288085770
5.4307437 -0.60649812 -1.8212134 4288085770
17.083113 -1.9405161 -1.7358246 4293729569
15.554504 -1.7866336 -1.8225018 4293729569
6.2487435 -0.70969778 -1.8182936 4288085770
10.558307 -1.2208661 -1.8644003 4288085770
12.209096 -1.4198023 -1.887812 4288085770
14.585769 -1.7042127 -1.9249603 4282675967
16.499846 -1.9459846 -1.7704757 4293729569
5.3317442 -0.62245399 -1.8201967 4288085770
6.1297302 -0.72568184 -1.8191311 4288085770
17.171995 -2.0682359 -1.6081135 4293729569
11.737111 -1.4146059 -1.884462 4288085770
14.978674 -1.8179879 -1.7957217 4293729569
10.31727 -1.2528522 -1.8670558 4288085770
15.836699 -1.9341296 -1.7888573 4293729569
14.089793 -1.7269664 -1.9189239 4282675967
5.2367449 -0.63741165 -1.8192275 4288085770
17.345184 -2.1567457 -1.3037003 4293729569
11.306112 -1.4094632 -1.8834101 4288085770
6.0137239 -0.74264878 -1.8189722 4288085770
15.105662 -1.9069928 -1.7930202 4293729569
16.751804 -2.1205289 -1.6300961 4293729569
10.04231 -1.2786425 -1.8595752 4288085770
14.526773 -1.8585567 -1.7786789 4293729569
13.633809 -1.7507546 -1.9141603 4282675967
5.1457381 -0.6533891 -1.8192689 4288085770
10.84719 -1.3971269 -1.8722839 4288085770
5.9037247 -0.75860006 -1.8178754 4288085770
14.402649 -1.8758131 -1.7944608 4293729569
17.047029 -2.2219784 -1.3203356 4293729569
16.987276 -2.2323315 -1.2857039 4293729569
16.517479 -2.1932073 -1.6700654 4293729569
10.440227 -1.3859036 -1.8665175 4288085770
9.8073101 -1.3065403 -1.8573482 4288085770
13.740657 -1.843596 -1.7932187 4288085770
13.198853 -1.7724791 -1.9055871 4282675967
17.003925 -2.2706687 -0.9200539 4293729569
14.233747 -1.9154818 -1.7784997 4293729569
16.986225 -2.2719123 -0.87889409 4293729569
5.7967253 -0.77455264 -1.8168005 4288085770
16.946785 -2.2794859 -0.52739984 4293729569
16.990999 -2.2859559 -0.49759844 4293729569
16.98699 -2.2944486 -0.086334348 4293729569
10.10021 -1.3808351 -1.8681284 4288085770
16.888775 -2.3144851 -1.3494959 4293729569
13.220558 -1.8256733 -1.8057532 4288085770
16.302143 -2.2639303 -1.7122096 4293729569
16.877237 -2.3373089 -1.2849821 4293729569
9.5843115 -1.335443 -1.8551905 4288085770
16.91346 -2.3597336 -0.97877723 4293729569
12.75792 -1.7901464 -1.8940437 4282675967
5.6927271 -0.79050648 -1.8157475 4288085770
9.7392321 -1.3696673 -1.8646969 4288085770
13.78289 -1.9479424 -1.7556112 4293729569
16.900024 -2.3803012 -0.90028811 4293729569
12.797408 -1.815918 -1.8258473 4288085770
16.900974 -2.3869057 -0.49509588 4293729569
16.91593 -2.3970203 -0.50102127 4293729569
16.902771 -2.4018929 -0.11076066 4293729569
16.910423 -2.4342825 -1.3914722 4293729569
9.4242306 -1.3605733 -1.8645635 4288085770
15.952918 -2.312326 -1.7387818 4293729569
12.383271 -1.8041297 -1.8440436 4288085770
5.5867491 -0.80540466 -1.8116986 4288085770
9.370326 -1.363313 -1.8511171 4288085770
16.890146 -2.4584451 -1.2908632 4293729569
16.93293 -2.4649887 -1.0460086 4293729569
12.255103 -1.7935159 -1.8673067 4288085770
13.52387 -2.0038636 -1.7546982 4293729569
9.119236 -1.3504653 -1.8635212 4288085770
16.927765 -2.5048635 -0.92921942 4293729569
16.951166 -2.5103457 -0.4621996 4293729569
12.054071 -1.8005223 -1.8707118 4288085770
16.990831 -2.5291817 -0.50715351 4293729569
16.979521 -2.529439 -0.1379948 4293729569
15.489801 -2.3364398 -1.751964 4293729569
16.943077 -2.556066 -1.4324926 4293729569
5.5117049 -0.82447976 -1.8168007 4288085770
9.1962881 -1.3953269 -1.8542608 4288085770
8.8192558 -1.3383231 -1.8605524 4288085770
11.735339 -1.7897515 -1.8335751 4288085770
11.700926 -1.7897778 -1.8903345 4282675967
13.258872 -2.0557277 -1.7508148 4293729569
8.5322847 -1.3241682 -1.8567152 4288085770
11.263925 -1.7616535 -1.890659 4282675967
5.419713 -0.84042007 -1.8148352 4288085770
15.110621 -2.3697338 -1.7735924 4293729569
9.0192795 -1.4252669 -1.8534197 4288085770
11.221614 -1.7798988 -1.7949976 4288085770
8.2682962 -1.3120592 -1.8550086 4288085770
10.861908 -1.73558 -1.8932017 4282675967
12.989904 -2.1035178 -1.7429761 4293729569
5.3366985 -0.85741889 -1.8159163 4288085770
8.0143166 -1.2979362 -1.8524116 4288085770
14.41676 -2.3451736 -1.7539738 4293729569
10.43796 -1.7013342 -1.8867317 4288085770
8.8632555 -1.4572515 -1.8546947 4288085770
10.797811 -1.7802649 -1.7668915 4293729569
7.7723446 -1.2838002 -1.8489023 4288085770
10.039011 -1.6680987 -1.8804259 4288085770
5.2566915 -0.87440062 -1.8160194 4288085770
13.948709 -2.3501418 -1.7594678 4293729569
12.694983 -2.1431885 -1.7290952 4293729569
7.5393639 -1.2696861 -1.8464584 4288085770
9.6610613 -1.6348718 -1.8742729 4288085770
8.6962566 -1.4861776 -1.852945 4288085770
10.455936 -1.7898283 -1.7482167 4293729569
19.597277 -3.3753316 -1.7799566 4293729569
7.3233666 -1.2566153 -1.8461198 4288085770
9.2991266 -1.6016151 -1.866237 4288085770
5.1796913 -0.89136535 -1.8151445 4288085770
13.387774 -2.3337998 -1.7496706 4293729569
8.9781523 -1.5724663 -1.8634259 4288085770
7.1073937 -1.2414901 -1.8428183 4288085770
12.357126 -2.1726959 -1.707085 4293729569
8.5282784 -1.5130484 -1.8482249 4288085770
10.212955 -1.8146865 -1.7439867 4293729569
8.6811762 -1.5453271 -1.8607532 4288085770
6.918396 -1.2284307 -1.8426765 4288085770
19.100323 -3.4210091 -1.7694942 4293729569
12.762937 -2.297215 -1.7277741 4293729569
8.3772373 -1.5140944 -1.8531034 4288085770
6.7254148 -1.2133335 -1.8405424 4288085770
12.106198 -2.2124035 -1.6945245 4293729569
8.1232405 -1.4900274 -1.8536887 4288085770
6.5284634 -1.1951618 -1.8344349 4288085770
8.3972454 -1.5450617 -1.8506819 4288085770
9.9899702 -1.8395532 -1.7399024 4293729569
18.670351 -3.4737499 -1.7613918 4293729569
12.161119 -2.2565849 -1.7031192 4293729569
19.382153 -3.6213751 -1.7828929 4293729569
7.8533001 -1.4608085 -1.8462503 4288085770
6.3524885 -1.1800534 -1.831425 4288085770
7.6123228 -1.4346927 -1.8439676 4288085770
6.2074599 -1.169085 -1.8355666 4288085770
8.2712278 -1.5760409 -1.851194 4288085770
9.7779865 -1.8644243 -1.7358984 4293729569
11.265656 -2.1520188 -1.6324801 4293729569
7.3873367 -1.4096016 -1.8427831 4288085770
18.194351 -3.4985662 -1.7584643 4293729569
6.0355 -1.1519421 -1.830623 4288085770
18.27037 -3.5305207 -1.7544346 4293729569
7.1813512 -1.3865182 -1.8417003 4288085770
5.8735323 -1.1348215 -1.8267519 4288085770
6.9653869 -1.3603764 -1.8376004 4288085770
10.574028 -2.0769176 -1.5837941 4293729569
5.736526 -1.1228019 -1.8279707 4288085770
11.061986 -2.1751089 -1.5855615 4293729569
17.24543 -3.4091084 -1.7491723 4293729569
8.1372261 -1.6059803 -1.8496665 4288085770
9.5690165 -1.8892603 -1.7299165 4293729569
6.7823844 -1.3393388 -1.8386483 4288085770
5.5805807 -1.1036294 -1.8211807 4288085770
17.939363 -3.5953746 -1.7508337 4293729569
6.5884275 -1.3141878 -1.8336908 4288085770
5.4695368 -1.0937116 -1.8275518 4288085770
6.4114542 -1.2910799 -1.8308201 4288085770
10.368855 -2.0942674 -1.6059827 4293729569
16.396498 -3.3297274 -1.742426 4293729569
5.3355675 -1.0776026 -1.8238666 4288085770
6.235496 -1.2669362 -1.8259751 4288085770
10.465498 -2.1316597 -1.5159869 4293729569
9.3500776 -1.9090195 -1.7199537 4293729569
8.0282011 -1.6399843 -1.8512473 4288085770
5.2215533 -1.065611 -1.8262532 4288085770
6.0815001 -1.2458923 -1.8262351 4288085770
17.662342 -3.6662674 -1.7485167 4293729569
5.9384956 -1.2268714 -1.8275384 4288085770
10.200652 -2.115705 -1.6323671 4293729569
15.638537 -3.2584195 -1.7381961 4293729569
5.7765512 -1.2016971 -1.8208145 4288085770
5.6445541 -1.1826624 -1.8211983 4288085770
9.1760921 -1.9349064 -1.7162082 4293729569
7.9141903 -1.6699501 -1.8508652 4282675967
10.410419 -2.1957927 -1.5234128 4293729569
5.5065794 -1.1615707 -1.8185756 4288085770
10.497646 -2.2262204 -1.2164338 4293729569
9.9795198 -2.124958 -1.6495862 4293729569
5.3746042 -1.1404815 -1.8159963 4288085770
10.483871 -2.2311475 -1.0482104 4293729569
5.2685757 -1.1245303 -1.8205143 4288085770
10.585453 -2.2491858 -0.28147379 4293729569
5.1515932 -1.1044656 -1.8190264 4288085770
10.590398 -2.2593126 -0.014272872 4293729569
10.463889 -2.2600603 -0.76948166 4293729569
10.467599 -2.2627912 -0.80946654 4293729569
8.9811535 -1.9546753 -1.7064203 4293729569
7.7981963 -1.6998786 -1.848469 4282675967
10.424297 -2.2660425 -1.2621784 4293729569
9.8023405 -2.1393375 -1.6730335 4293729569
10.33637 -2.2558444 -1.5267742 4293729569
10.5282 -2.2767787 -0.31455734 4293729569
10.418792 -2.2942758 -1.0555817 4293729569
10.490518 -2.3059564 -0.26973969 4293729569
10.389915 -2.3129528 -1.3120788 4293729569
9.5602617 -2.1374555 -1.6833013 4293729569
10.41838 -2.3242738 -0.83598751 4293729569
8.8810892 -1.9937738 -1.7129748 4293729569
10.424948 -2.3268523 -0.75797325 4293729569
7.6961851 -1.7308495 -1.8481561 4282675967
10.467985 -2.3332574 -0.34108955 4293729569
10.27332 -2.3179007 -1.5301789 4293729569
10.366516 -2.3619041 -1.3640225 4293729569
10.392695 -2.3654559 -1.0650909 4293729569
9.3281755 -2.1345956 -1.6946605 4293729569
10.461573 -2.3757529 -0.25824931 4293729569
10.392145 -2.3908019 -0.86458445 4293729569
8.7580633 -2.0277719 -1.7144539 4293729569
7.6101584 -1.7648629 -1.8499047 4282675967
10.408003 -2.3986533 -0.74653387 4293729569
10.438744 -2.3988025 -0.37068275 4293729569
10.250222 -2.3890822 -1.5397102 4293729569
10.350095 -2.4129121 -1.4189804 4293729569
9.0931139 -2.12868 -1.703053 4293729569
10.408578 -2.4466894 -1.0767232 4293729569
10.475625 -2.4555657 -0.24688993 4293729569
10.438846 -2.4735041 -0.90142012 4293729569
10.33169 -2.4598837 -1.4719969 4293729569
8.6250687 -2.0576932 -1.711934 4293729569
10.472482 -2.4764094 -0.40251592 4293729569
8.8980036 -2.1278901 -1.7176447 4293729569
7.517148 -1.797837 -1.8496208 4282675967
10.463022 -2.488555 -0.73929 4293729569
10.161219 -2.4440191 -1.5370544 4293729569
10.273305 -2.4988031 -1.5228686 4293729569
10.478412 -2.5420527 -1.0944927 4293729569
8.6469898 -2.1118596 -1.7201043 4293729569
8.4830894 -2.0845749 -1.7074034 4293729569
7.3452978 -1.8083978 -1.828167 4288085770
10.195073 -2.5283325 -1.5527625 4293729569
10.17398 -2.5255609 -1.5656618 4293729569
8.385006 -2.0907519 -1.7185757 4293729569
10.355883 -0.13130137 -1.867376 4288085770
8.4279566 -0.111066 -1.8488562 4288085770
8.1569557 -0.12321719 -1.8486818 4288085770
9.978879 -0.14651707 -1.8673819 4288085770
7.8849993 -0.13625848 -1.8424829 4288085770
9.5969105 -0.16164325 -1.862353 4288085770
7.6500034 -0.14837512 -1.8415685 4288085770
9.243948 -0.17573848 -1.8565516 4288085770
7.4290018 -0.16150333 -1.8417363 4288085770
8.9359512 -0.19190443 -1.8560374 4288085770
7.2060356 -0.17454071 -1.8368907 4288085770
8.6110096 -0.20593192 -1.8474385 4288085770
6.994061 -0.18659171 -1.8331425 4288085770
8.3320236 -0.22004876 -1.8451703 4288085770
19.468487 -0.51011419 -1.977105 4288085770
19.112349 -0.52566922 -1.9962591 4288085770
6.8100657 -0.20068432 -1.8325592 4288085770
8.0890226 -0.23518577 -1.8451428 4288085770
18.204586 -0.54153377 -1.9604236 4288085770
17.77647 -0.53203547 -1.9745163 4288085770
6.6400614 -0.21378931 -1.833095 4288085770
7.8350511 -0.25025415 -1.841037 4288085770
16.622561 -0.53639483 -1.958122 4288085770
6.4600863 -0.22682524 -1.8295592 4288085770
17.085688 -0.56987137 -1.9438429 4288085770
7.6020713 -0.26533136 -1.8380821 4288085770
15.619622 -0.53974259 -1.9458345 4288085770
6.2911115 -0.23985612 -1.8261027 4288085770
7.3950768 -0.279434 -1.837333 4288085770
14.701694 -0.53901714 -1.9322333 4288085770
16.122774 -0.59717661 -1.9304053 4288085770
13.887764 -0.53724611 -1.9194002 4288085770
6.1441064 -0.2529504 -1.8268043 4288085770
7.179111 -0.29446661 -1.8325011 4288085770
13.16581 -0.53448951 -1.9102488 4288085770
5.1620636 -0.22251585 -1.8272871 4288085770
15.29082 -0.62449688 -1.9219112 4288085770
12.501861 -0.53068936 -1.9005338 4288085770
5.2710829 -0.23642549 -1.8258175 4288085770
6.0051017 -0.26704052 -1.827545 4288085770
6.9851298 -0.30852643 -1.829846 4288085770
11.915872 -0.52594656 -1.8963988 4288085770
5.3860941 -0.25035101 -1.8253909 4288085770
18.635548 -0.81572926 -1.9835182 4288085770
14.520883 -0.65075296 -1.9118834 4288085770
11.358919 -0.52009982 -1.8874922 4288085770
5.8551335 -0.27904457 -1.8232441 4288085770
5.5100975 -0.26429105 -1.8260292 4288085770
17.315653 -0.78809541 -1.9625121 4288085770
6.8121333 -0.32361308 -1.8293234 4288085770
10.894897 -0.51537651 -1.8882362 4288085770
16.203714 -0.76346087 -1.9479505 4288085770
5.6410947 -0.27924606 -1.8276993 4288085770
10.43692 -0.50854141 -1.8830614 4288085770
5.7780981 -0.29318079 -1.8284315 4288085770
5.1600475 -0.26458699 -1.8315029 4288085770
15.231763 -0.74080068 -1.9363617 4288085770
13.840935 -0.67598778 -1.9035224 4288085770
5.7271347 -0.29211164 -1.8230828 4288085770
6.6461372 -0.33769685 -1.8288698 4288085770
10.021934 -0.50070602 -1.8792146 4288085770
5.282043 -0.27654722 -1.8331633 4288085770
5.926095 -0.30812877 -1.8302242 4288085770
14.356814 -0.71907926 -1.9244542 4288085770
9.6469154 -0.4939259 -1.8796374 4288085770
5.4020543 -0.28847188 -1.8328093 4288085770
6.079092 -0.3230747 -1.8320532 4288085770
13.577851 -0.69735223 -1.915239 4288085770
9.2629499 -0.48402262 -1.8730514 4288085770
5.5370421 -0.30044505 -1.8355632 4288085770
8.9159737 -0.47412145 -1.8677319 4288085770
6.235096 -0.33800119 -1.832904 4288085770
12.863893 -0.67657816 -1.9054742 4288085770
5.6021447 -0.30615842 -1.8219249 4288085770
19.882528 -1.0363997 -2.003469 4288085770
5.6580887 -0.31027895 -1.8302542 4288085770
6.4741702 -0.35270926 -1.8243554 4288085770
13.232977 -0.70020914 -1.8966988 4288085770
8.5989838 -0.46524343 -1.8646103 4288085770
5.807076 -0.32224631 -1.8331089 4288085770
6.3990993 -0.35292432 -1.8338125 4288085770
12.241919 -0.65680021 -1.8983542 4288085770
8.2940073 -0.45432431 -1.8596122 4288085770
5.9550786 -0.33417755 -1.8339568 4288085770
6.5780954 -0.36785945 -1.8358291 4288085770
11.667938 -0.63801897 -1.8925622 4288085770
8.0060225 -0.44441572 -1.8557183 4288085770
6.1200662 -0.34613821 -1.8369272 4288085770
7.7440381 -0.43349618 -1.85203 4288085770
6.7670846 -0.3828086 -1.8389175 4288085770
19.811663 -1.0821446 -1.9871188 4288085770
6.2810755 -0.35704619 -1.8368872 4288085770
11.16294 -0.61924434 -1.8892672 4288085770
7.4980454 -0.42358768 -1.8494388 4288085770
6.4480915 -0.36793333 -1.835891 4288085770
7.2710457 -0.41268963 -1.8480027 4288085770
7.052052 -0.40176988 -1.8456244 4288085770
6.6440644 -0.37991744 -1.8410846 4288085770
6.8400588 -0.39084709 -1.8432968 4288085770
6.9650884 -0.39871693 -1.8400528 4288085770
10.713905 -0.60353589 -1.8913203 4288085770
5.4941249 -0.32027084 -1.8248889 4288085770
6.3211803 -0.36676857 -1.8229955 4288085770
7.1690912 -0.4136233 -1.8412499 4288085770
10.249944 -0.58365208 -1.8833405 4288085770
7.4090514 -0.43062311 -1.8486688 4288085770
18.639648 -1.0527382 -1.9832135 4288085770
9.8379641 -0.56578159 -1.8776985 4288085770
12.68101 -0.72542334 -1.8912607 4288085770
7.6430545 -0.44651622 -1.8500639 4288085770
9.4579782 -0.54791558 -1.8732874 4288085770
18.72477 -1.0694038 -1.9675189 4288085770
9.1079845 -0.5310545 -1.8700739 4288085770
7.8830638 -0.46238852 -1.8505026 4288085770
8.1660299 -0.47935167 -1.8572319 4288085770
8.7550259 -0.5131036 -1.8618581 4288085770
8.4460392 -0.4962064 -1.8579408 4288085770
5.3851185 -0.33334735 -1.8258643 4288085770
6.1731973 -0.38080716 -1.820672 4288085770
18.820766 -1.1314371 -1.9720768 4288085770
17.54974 -1.0670642 -1.9670976 4288085770
12.173049 -0.74959993 -1.8851581 4288085770
17.608875 -1.0807053 -1.9492707 4288085770
5.2761278 -0.34738654 -1.8248218 4288085770
6.0531721 -0.39694244 -1.8245128 4288085770
16.542841 -1.0743184 -1.9497088 4288085770
11.717081 -0.77277184 -1.8804489 4288085770
17.907885 -1.1756409 -1.9546895 4288085770
16.636957 -1.0939974 -1.9350241 4288085770
5.169136 -0.36042508 -1.823812 4288085770
5.9211812 -0.410992 -1.8233044 4288085770
15.688872 -1.0836692 -1.942385 4288085770
11.307096 -0.7969597 -1.8780526 4288085770
15.832992 -1.1113244 -1.9279145 4288085770
17.120977 -1.2188441 -1.9412286 4288085770
5.7941985 -0.42602038 -1.8211141 4288085770
14.891932 -1.0889225 -1.9315461 4288085770
10.918124 -0.82010168 -1.8738264 4288085770
15.087033 -1.128607 -1.9202236 4288085770
5.6692224 -0.44002977 -1.8179564 4288085770
16.435045 -1.2620574 -1.9314955 4288085770
14.160977 -1.0911655 -1.9222379 4288085770
10.582116 -0.84531116 -1.8749448 4288085770
14.407079 -1.1448421 -1.912027 4288085770
5.567203 -0.4551385 -1.8209454 4288085770
13.504007 -1.0924129 -1.9154814 4288085770
15.853068 -1.3083338 -1.9284564 4288085770
5.4651971 -0.47021046 -1.8219346 4288085770
10.269114 -0.86949223 -1.8752477 4288085770
13.800118 -1.162063 -1.9053385 4288085770
12.879057 -1.0905918 -1.9060109 4288085770
19.817759 -1.7046034 -2.0097849 4282675967
5.3592134 -0.48422939 -1.8199139 4288085770
12.288111 -1.0857382 -1.8958405 4288085770
15.313098 -1.3535732 -1.9247386 4288085770
13.265147 -1.18127 -1.9001324 4288085770
9.9351664 -0.89053655 -1.8674555 4288085770
18.432903 -1.6528711 -1.9817497 4288085770
11.771129 -1.0829428 -1.8911667 4288085770
5.2622218 -0.49926206 -1.8189396 4288085770
17.310957 -1.6132401 -1.9673897 4288085770
12.759175 -1.199464 -1.8951539 4288085770
9.6631651 -0.91369945 -1.8680723 4288085770
14.793149 -1.3957492 -1.9182205 4288085770
11.300138 -1.0791461 -1.8878424 4288085770
19.201509 -1.8221394 -1.9101772 4288085770
16.284025 -1.5745306 -1.951697 4288085770
5.175209 -0.51434535 -1.8210367 4288085770
10.875121 -1.0753839 -1.8878493 4288085770
12.275231 -1.216575 -1.8863529 4288085770
9.3841963 -0.93577373 -1.8636578 4288085770
15.322116 -1.5327197 -1.9325287 4288085770
14.322189 -1.4369221 -1.9130739 4288085770
17.934818 -1.8029617 -1.8613939 4293729569
10.498086 -1.0736551 -1.8911655 4288085770
14.549125 -1.5030431 -1.9265019 4288085770
11.848256 -1.2347339 -1.8819439 4288085770
9.1212263 -0.95684111 -1.8593769 4288085770
10.077147 -1.0626915 -1.8803314 4288085770
19.861326 -2.0780303 -1.8142323 4293729569
13.89922 -1.4790915 -1.9092549 4288085770
13.83214 -1.4723234 -1.9198973 4282675967
17.017927 -1.8071375 -1.8427089 4293729569
9.7141428 -1.0548664 -1.8788589 4288085770
19.390408 -2.0890675 -1.8016359 4293729569
11.446299 -1.2528448 -1.8757156 4288085770
8.8892355 -0.97994912 -1.8582826 4288085770
13.149173 -1.4405346 -1.9105569 4288085770
9.3451805 -1.0439351 -1.8713993 4288085770
19.285458 -2.1470611 -1.7978188 4293729569
16.242985 -1.8153781 -1.8319738 4293729569
12.508213 -1.4087086 -1.9005197 4288085770
13.477281 -1.5171882 -1.9015169 4288085770
9.0361691 -1.0361047 -1.8713162 4288085770
18.083765 -2.0587804 -1.7457664 4293729569
11.137267 -1.2780964 -1.8800281 4288085770
8.6622667 -1.002 -1.854243 4288085770
11.927253 -1.3778563 -1.8908968 4288085770
8.7131968 -1.0241717 -1.8652064 4288085770
15.558007 -1.8256699 -1.8268501 4288085770
11.386292 -1.3479863 -1.8815441 4288085770
13.146281 -1.5613897 -1.9023242 4282675967
17.158558 -2.0261757 -1.6296753 4293729569
8.4132195 -1.0122471 -1.8602624 4288085770
10.768333 -1.2941196 -1.8700752 4288085770
8.4572744 -1.0250957 -1.8533434 4288085770
16.877125 -2.025413 -1.6886731 4293729569
10.942266 -1.3252369 -1.8817613 4288085770
8.1402245 -1.0013468 -1.8574942 4288085770
14.955982 -1.8370346 -1.8283056 4288085770
10.499277 -1.2993964 -1.8770416 4288085770
7.8672523 -0.98839235 -1.8517634 4288085770
12.829289 -1.6045668 -1.9022506 4282675967
10.448365 -1.313212 -1.8654197 4288085770
16.829603 -2.1043146 -1.6268761 4293729569
8.2453175 -1.044104 -1.8474672 4288085770
10.104265 -1.276589 -1.8756126 4288085770
16.50699 -2.0839953 -1.7089394 4293729569
7.6272521 -0.97749621 -1.8502332 4288085770
9.7322607 -1.2537534 -1.8733497 4288085770
14.326017 -1.8372493 -1.8207619 4288085770
7.4072428 -0.96660995 -1.8498471 4288085770
17.278448 -2.2295508 -1.3797717 4293729569
9.3842554 -1.2299079 -1.8712783 4288085770
10.172375 -1.3353392 -1.8640263 4288085770
12.512318 -1.6446893 -1.8992326 4282675967
8.071311 -1.0682219 -1.8487723 4288085770
7.175262 -0.9536559 -1.8454117 4288085770
16.58461 -2.1895065 -1.6295539 4293729569
9.0472631 -1.2070204 -1.8672682 4288085770
17.151264 -2.2625842 -1.2682298 4293729569
16.179853 -2.1465759 -1.7304424 4293729569
13.786011 -1.8415333 -1.8197931 4288085770
6.9842386 -0.94379336 -1.847216 4288085770
8.7202873 -1.1820928 -1.8613672 4288085770
16.910082 -2.271704 -1.431357 4293729569
17.02759 -2.271543 -0.11395235 4293729569
6.7782569 -0.9298287 -1.8429865 4288085770
16.991966 -2.2898407 -0.89451176 4293729569
16.986479 -2.274853 -0.12959869 4293729569
9.8974037 -1.3544117 -1.8596954 4288085770
8.415308 -1.1581551 -1.8556067 4288085770
7.8853474 -1.089236 -1.8440468 4288085770
6.5782819 -0.91584307 -1.8378005 4288085770
12.230339 -1.6868141 -1.8974303 4282675967
16.935911 -2.3190393 -0.90357572 4293729569
8.1462965 -1.1372927 -1.85505 4288085770
13.253014 -1.8417784 -1.8169481 4288085770
15.815767 -2.2000279 -1.7438447 4293729569
16.534513 -2.2989004 -1.6491961 4293729569
16.882103 -2.3402092 -1.2938762 4293729569
6.3982854 -0.90390307 -1.8357214 4288085770
16.801579 -2.3451209 -1.5052471 4293729569
7.8793097 -1.1143569 -1.8505449 4288085770
6.2312746 -0.89099467 -1.8357542 4288085770
16.930803 -2.3607497 -0.50469923 4293729569
9.6633997 -1.3785563 -1.8605677 4288085770
16.915745 -2.36431 -0.097446978 4293729569
7.6383042 -1.0944638 -1.849172 4288085770
16.904886 -2.3709652 -0.078243345 4293729569
7.7263541 -1.1113113 -1.843497 4288085770
16.919727 -2.3773596 -0.10023758 4293729569
16.928869 -2.3992405 -0.91406041 4293729569
6.0722647 -0.88008213 -1.835808 4288085770
7.4033046 -1.0735505 -1.846861 4288085770
12.773002 -1.841037 -1.8165034 4288085770
11.958358 -1.7269351 -1.8957366 4282675967
5.9122739 -0.86611617 -1.8329101 4288085770
7.1753182 -1.0515978 -1.8426191 4288085770
16.819004 -2.4336624 -1.5897697 4293729569
16.906063 -2.4338017 -0.88925928 4293729569
15.4587 -2.2504222 -1.7543527 4293729569
5.7582836 -0.8521477 -1.8300556 4288085770
16.869825 -2.4500449 -1.3387879 4293729569
16.483427 -2.4072585 -1.6668499 4293729569
6.9653263 -1.0316551 -1.8394701 4288085770
5.6083007 -0.83815926 -1.8262299 4288085770
9.4244289 -1.3986124 -1.8564782 4288085770
16.925528 -2.4725814 -0.54962474 4293729569
6.7753048 -1.0127767 -1.8404466 4288085770
7.5653753 -1.1333505 -1.8409333 4288085770
5.4882617 -0.82830316 -1.830546 4288085770
6.5813198 -0.99180931 -1.8364316 4288085770
12.241063 -1.8271199 -1.8049232 4288085770
16.902884 -2.4840999 -0.085161313 4293729569
16.940889 -2.5000796 -0.085142896 4293729569
5.3562641 -0.81534344 -1.8288318 4288085770
16.98374 -2.5266764 -0.93913007 4293729569
6.4023199 -0.97287142 -1.8344879 4288085770
16.700497 -2.5030847 -1.6636606 4293729569
11.689401 -1.7659994 -1.8910834 4282675967
5.229259 -0.80239987 -1.8281533 4288085770
6.2253413 -0.9528783 -1.8295776 4288085770
6.0693274 -0.9349671 -1.8297809 4288085770
16.879227 -2.5485258 -0.8729648 4293729569
15.112649 -2.2997754 -1.7629586 4293729569
17.000454 -2.5830688 -1.3983078 4293729569
5.9183197 -0.91703564 -1.8290207 4288085770
16.462334 -2.5206389 -1.6866283 4293729569
9.2034435 -1.4206963 -1.8544816 4288085770
5.7613425 -0.8980338 -1.8242364 4288085770
11.800061 -1.8223255 -1.8028333 4288085770
7.4223828 -1.1564182 -1.8404807 4288085770
5.6253352 -0.88109565 -1.8235662 4288085770
5.4983144 -0.86419058 -1.8249604 4288085770
16.329161 -2.5291505 -1.7105179 4293729569
5.3802934 -0.84828144 -1.8264014 4288085770
5.2552943 -0.83132052 -1.8248106 4288085770
11.386507 -1.794898 -1.8763696 4288085770
14.778617 -2.3480682 -1.7686702 4293729569
11.36308 -1.8114758 -1.7978823 4288085770
9.014432 -1.4448391 -1.8566782 4288085770
15.939837 -2.5481713 -1.7543737 4293729569
7.2754097 -1.1774329 -1.8370361 4288085770
16.350315 -2.6188426 -1.6940268 4293729569
10.965751 -1.8024863 -1.8411925 4288085770
11.019013 -1.8118024 -1.8053988 4288085770
15.337694 -2.5277987 -1.7704113 4293729569
8.8274403 -1.4689258 -1.8558902 4288085770
14.36067 -2.3771644 -1.7611254 4293729569
7.1414232 -1.2004778 -1.8356487 4288085770
16.376215 -2.7412188 -1.7149795 4293729569
10.684961 -1.8100888 -1.8110243 4288085770
14.68663 -2.4902313 -1.7744085 4293729569
10.504074 -1.7978752 -1.7939411 4288085770
8.6564417 -1.4940236 -1.8561987 4288085770
19.448092 -3.3427372 -1.7801228 4293729569
13.906783 -2.3961122 -1.7445056 4293729569
7.0244222 -1.2245517 -1.836365 4288085770
10.395881 -1.8114278 -1.8209189 4288085770
13.897717 -2.4223096 -1.7549632 4293729569
16.249235 -2.837338 -1.7173073 4293729569
10.17526 -1.8105682 -1.7673345 4293729569
8.4714689 -1.5140553 -1.8524984 4288085770
10.141765 -1.8158425 -1.8360099 4288085770
18.568188 -3.3138824 -1.761308 4293729569
13.194771 -2.3614409 -1.741009 4293729569
13.598795 -2.4342678 -1.7435886 4293729569
6.8974419 -1.2455755 -1.8340646 4288085770
16.063307 -2.9203391 -1.7114488 4293729569
9.8906612 -1.8182198 -1.8491595 4288085770
12.487885 -2.2924099 -1.7181742 4293729569
8.3054905 -1.5360962 -1.8498987 4288085770
9.9083967 -1.8303608 -1.7480457 4293729569
17.806234 -3.2931025 -1.7501963 4293729569
6.7974277 -1.2706782 -1.836885 4288085770
13.268848 -2.4673231 -1.7366054 4293729569
9.6675377 -1.8226392 -1.865474 4288085770
11.592217 -2.179867 -1.6617683 4293729569
16.076254 -3.0385933 -1.7253822 4293729569
8.1505041 -1.5601499 -1.8483413 4288085770
9.7264462 -1.8643504 -1.7421116 4293729569
17.103262 -3.2753506 -1.7424549 4293729569
6.6784606 -1.2916616 -1.8326426 4288085770
9.4204531 -1.8189611 -1.8757629 4282675967
10.84847 -2.0884724 -1.6180727 4293729569
12.895959 -2.4862359 -1.7205696 4293729569
16.057238 -3.1527717 -1.7341588 4293729569
8.0055189 -1.5831996 -1.8468744 4288085770
10.44543 -2.0557225 -1.619768 4293729569
9.1464233 -1.8071504 -1.8780047 4282675967
9.5694752 -1.901384 -1.7393024 4293729569
16.490255 -3.2646496 -1.7402335 4293729569
6.5764742 -1.3156918 -1.8314674 4288085770
12.626999 -2.5233002 -1.715953 4293729569
10.253198 -2.062403 -1.6512666 4293729569
8.8734131 -1.7932844 -1.8772908 4282675967
7.8625398 -1.60623 -1.8444221 4288085770
15.985266 -3.255847 -1.7357556 4293729569
15.917231 -3.2539673 -1.7403007 4293729569
6.4784794 -1.3387387 -1.8313392 4288085770
9.3685722 -1.9272554 -1.7263788 4293729569
9.9950466 -2.0538957 -1.6705657 4293729569
8.5974216 -1.7743663 -1.8736472 4282675967
10.650564 -2.1999021 -1.4715799 4293729569
9.7638807 -2.0464134 -1.6920409 4293729569
8.3434086 -1.7584924 -1.8731071 4282675967
7.7345471 -1.6312898 -1.844041 4288085770
15.349225 -3.2362294 -1.7375319 4293729569
10.57788 -2.2260869 -1.1515154 4293729569
6.3894849 -1.3627812 -1.8312577 4288085770
9.2326021 -1.9652792 -1.7237029 4293729569
9.5107555 -2.0328317 -1.7074683 4293729569
10.465586 -2.2349658 -1.4696051 4293729569
8.1024046 -1.7415953 -1.8716791 4282675967
10.566468 -2.2540271 -0.65582645 4293729569
10.583249 -2.2655163 -0.40968955 4293729569
7.6215405 -1.6583788 -1.8457309 4288085770
9.2406683 -2.0121496 -1.716902 4293729569
10.462363 -2.267493 -1.2249396 4293729569
10.510981 -2.2733061 -0.724087 4293729569
7.827467 -1.7155315 -1.8601722 4282675967
6.2974968 -1.3858069 -1.830173 4288085770
10.450967 -2.2759762 -1.1416862 4293729569
9.0766697 -1.9952035 -1.7150298 4293729569
10.388522 -2.2912166 -1.481023 4293729569
8.936635 -1.9813378 -1.7182751 4293729569
7.6004744 -1.696592 -1.8568821 4282675967
10.554923 -2.316797 -0.041476231 4293729569
10.465512 -2.3100138 -0.65207392 4293729569
7.5175352 -1.6864644 -1.847469 4288085770
10.487437 -2.3171363 -0.38605163 4293729569
10.407127 -2.3221748 -1.2605497 4293729569
10.441734 -2.3220141 -0.76070565 4293729569
8.7015429 -1.9626592 -1.7289262 4293729569
6.2125106 -1.4098299 -1.8291221 4288085770
10.396016 -2.339942 -1.1381214 4293729569
7.3964553 -1.6807159 -1.8577042 4282675967
8.9856663 -2.0392985 -1.7175698 4293729569
10.333442 -2.3545125 -1.4954734 4293729569
8.4764576 -1.9439572 -1.7386487 4293729569
10.49591 -2.3809292 -0.046881747 4293729569
7.4115429 -1.712515 -1.8472295 4288085770
7.1774821 -1.6597188 -1.8515095 4282675967
10.432545 -2.3800232 -0.65155846 4293729569
10.368861 -2.3789222 -1.3002449 4293729569
10.41447 -2.3807559 -0.80044365 4293729569
10.455625 -2.3827443 -0.36361948 4293729569
6.1345086 -1.4348857 -1.8301022 4288085770
8.2144299 -1.915109 -1.7392889 4293729569
10.394035 -2.4169731 -1.1396999 4293729569
6.9844823 -1.6417831 -1.8494465 4288085770
8.8936691 -2.0843749 -1.7190838 4293729569
10.308348 -2.4228299 -1.5120476 4293729569
7.9723973 -1.8872703 -1.7410547 4288085770
10.374557 -2.4457583 -1.3460734 4293729569
10.415179 -2.4455585 -0.84427321 4293729569
7.3185291 -1.7416136 -1.850028 4282675967
10.483892 -2.4560564 -0.053423781 4293729569
10.444819 -2.4533238 -0.3402476 4293729569
6.7924809 -1.6218475 -1.8474276 4288085770
10.440571 -2.4590316 -0.65217286 4293729569
6.0525274 -1.4578888 -1.8280905 4288085770
7.7343779 -1.8583933 -1.740868 4293729569
10.412049 -2.498013 -1.1423495 4293729569
6.6124811 -1.6039063 -1.8454585 4288085770
8.7986774 -2.1264353 -1.7196311 4293729569
10.45287 -2.5183983 -0.89122277 4293729569
10.386239 -2.5136285 -1.3939267 4293729569
10.243295 -2.4830563 -1.5224808 4293729569
7.5782509 -1.8467702 -1.756959 4288085770
7.2225356 -1.7676592 -1.8498607 4282675967
10.527011 -2.546895 -0.31912577 4293729569
6.4354939 -1.5839275 -1.8415478 4288085770
10.55687 -2.5511794 -0.062213007 4293729569
10.567569 -2.5680914 -0.65909606 4293729569
5.9815326 -1.4819241 -1.8281398 4288085770
7.470057 -1.8463067 -1.7831931 4288085770
6.2645063 -1.5639461 -1.8376806 4288085770
15.895474 -3.9421215 -1.7455702 4288085770
8.6777391 -2.1613615 -1.7121203 4293729569
10.411901 -2.5855467 -1.4448074 4293729569
7.361876 -1.8438072 -1.8074641 4288085770
10.259169 -2.5614457 -1.5441669 4293729569
7.1255498 -1.7936871 -1.848686 4282675967
6.1065054 -1.5459955 -1.83587 4288085770
7.262681 -1.8423407 -1.8337816 4288085770
5.913537 -1.5069569 -1.828192 4288085770
11.085978 -2.8208334 -1.5893908 4293729569
5.9584904 -1.5290769 -1.8361129 4288085770
7.1345477 -1.8327234 -1.8510376 4282675967
8.5697794 -2.1973372 -1.7076844 4293729569
10.433906 -2.6831596 -1.58821 4293729569
7.0086102 -1.8125969 -1.8404964 4288085770
5.8104959 -1.5101041 -1.833393 4288085770
6.9495211 -1.8058417 -1.8521963 4282675967
5.8395562 -1.5299563 -1.826238 4288085770
11.015686 -2.8716512 -1.6319643 4293729569
5.6545291 -1.4880621 -1.826671 4288085770
6.759522 -1.7768896 -1.8493562 4282675967
8.5107698 -2.2464345 -1.7113627 4293729569
6.5655427 -1.744885 -1.8435426 4288085770
5.5135412 -1.4680682 -1.8230201 4288085770
6.9056511 -1.8355545 -1.8353338 4288085770
10.5507 -2.7917366 -1.6230738 4293729569
10.735599 -2.8629868 -1.6421072 4293729569
6.4025316 -1.7189575 -1.8428421 4288085770
5.7695742 -1.5529541 -1.8243129 4288085770
5.4014997 -1.4552066 -1.8274487 4288085770
6.2265453 -1.6889632 -1.8381214 4288085770
5.2864847 -1.4402738 -1.8278929 4288085770
8.4118261 -2.2833691 -1.7049737 4293729569
6.7398124 -1.8382142 -1.8120859 4288085770
10.5656 -2.8750703 -1.641662 4293729569
6.0675473 -1.6619976 -1.8354683 4288085770
10.401575 -2.8361669 -1.6421918 4293729569
5.1584969 -1.4202747 -1.8243356 4288085770
5.9205422 -1.6360449 -1.8338832 4288085770
5.717566 -1.5810159 -1.8264253 4288085770
5.7735443 -1.610074 -1.8312985 4288085770
8.356822 -2.3314471 -1.7076993 4293729569
10.092545 -2.8123536 -1.6434011 4293729569
6.5709939 -1.83982 -1.7858353 4288085770
5.62956 -1.5830655 -1.8267539 4288085770
5.4875827 -1.5550385 -1.8212422 4288085770
5.6605721 -1.6070435 -1.8265388 4288085770
5.3705649 -1.5331092 -1.8217999 4288085770
9.8674297 -2.8077378 -1.6578668 4293729569
5.2585397 -1.5121956 -1.8233752 4288085770
6.4081674 -1.8394421 -1.760664 4288085770
8.3108196 -2.3815205 -1.7104533 4293729569
10.506509 -3.0164707 -1.6616566 4293729569
5.1355572 -1.4871783 -1.8189455 4288085770
5.6045761 -1.6320711 -1.8266776 4288085770
9.6543064 -2.8041346 -1.6734005 4293729569
6.2613282 -1.8430929 -1.7375348 4293729569
8.2688084 -2.4326105 -1.7142177 4293729569
13.419603 -3.9479275 -1.7156295 4288085770
10.476477 -3.0886431 -1.6701231 4293729569
9.4122295 -2.7894185 -1.6819274 4293729569
5.5505881 -1.6570797 -1.8258309 4288085770
12.804626 -3.8380275 -1.7032057 4288085770
6.1404486 -1.8518412 -1.7205005 4293729569
8.2128334 -2.4786158 -1.7129734 4293729569
9.1541901 -2.7656009 -1.6845044 4293729569
10.409485 -3.1477063 -1.6715616 4293729569
5.5015864 -1.6841217 -1.8269835 4288085770
12.241644 -3.7361209 -1.6920108 4288085770
8.8941574 -2.7377675 -1.6861402 4293729569
6.072474 -1.8758193 -1.7175715 4293729569
8.1768322 -2.5306845 -1.7157629 4293729569
10.344509 -3.2067316 -1.6710148 4293729569
11.706656 -3.6372201 -1.6819625 4293729569
5.4486051 -1.7081118 -1.8251626 4288085770
8.6511154 -2.7119436 -1.6888616 4293729569
6.017488 -1.9028281 -1.7166811 4293729569
11.249648 -3.5563543 -1.6761471 4293729569
8.167798 -2.591831 -1.7235816 4293729569
10.302508 -3.272819 -1.6745054 4293729569
8.4490376 -2.6962104 -1.697695 4293729569
5.4125905 -1.7381841 -1.8283536 4288085770
10.841608 -3.4855571 -1.6755016 4293729569
5.9654942 -1.9308535 -1.7167939 4293729569
8.2769241 -2.6875541 -1.7116158 4293729569
8.1388035 -2.6458781 -1.7253851 4288085770
10.262515 -3.3398874 -1.6769922 4293729569
10.51252 -3.4348681 -1.6830586 4293729569
5.3646097 -1.7631714 -1.8265505 4288085770
8.1218004 -2.6819265 -1.7276042 4288085770
5.8735871 -1.944661 -1.7038765 4293729569
10.131498 -3.3630049 -1.6796263 4293729569
8.1008234 -2.6958933 -1.7251973 4288085770
10.237516 -3.4099665 -1.6805321 4293729569
5.3286009 -1.792226 -1.8287599 4288085770
7.9557023 -2.6712315 -1.7396052 4288085770
9.7854691 -3.2991612 -1.6782999 4293729569
5.8086338 -1.9665835 -1.6980064 4293729569
8.0558548 -2.7438748 -1.7229958 4288085770
7.7566538 -2.6464076 -1.7436254 4288085770
10.198538 -3.4769976 -1.6810265 4293729569
5.2995868 -1.8222955 -1.8320013 4288085770
9.452446 -3.2352931 -1.6760676 4293729569
5.7277126 -1.9814229 -1.6871496 4293729569
7.5556335 -2.6175117 -1.743705 4288085770
9.1354284 -3.1724002 -1.6729324 4293729569
8.027874 -2.7968848 -1.7228252 4288085770
10.174552 -3.5480397 -1.6825557 4293729569
5.2246804 -1.837095 -1.8191882 4288085770
7.2707324 -2.5573108 -1.7247487 4288085770
8.8404007 -3.1125338 -1.6719007 4293729569
5.6827331 -2.0094085 -1.6853132 4293729569
7.9719338 -2.8407993 -1.7166182 4288085770
7.0397902 -2.5122116 -1.7129066 4293729569
10.161555 -3.6221128 -1.6861092 4288085770
8.568368 -3.0596738 -1.6719065 4293729569
5.1178522 -1.8386916 -1.794384 4288085770
5.6367521 -2.0353949 -1.6835061 4293729569
6.8348079 -2.4752095 -1.7071047 4293729569
8.2753782 -2.9946978 -1.6649815 4293729569
7.8900442 -2.8735809 -1.7024261 4288085770
10.138586 -3.6941178 -1.6856277 4288085770
5.0140262 -1.8402867 -1.7696013 4288085770
8.0323467 -2.9438255 -1.6651603 4293729569
6.6557984 -2.4432685 -1.705398 4293729569
5.59478 -2.062361 -1.6807098 4293729569
7.8752136 -2.9232025 -1.681408 4293729569
6.4658232 -2.4062419 -1.6987042 4293729569
7.7941661 -2.9003329 -1.6862428 4293729569
10.132607 -3.7711508 -1.6871771 4288085770
4.9052186 -1.8378301 -1.7418562 4293729569
5.5258522 -2.0782132 -1.6709211 4293729569
7.7121005 -2.8985283 -1.6946862 4293729569
6.2678733 -2.3631463 -1.6880633 4293729569
7.7492318 -2.9442239 -1.6791154 4293729569
7.5479999 -2.8708189 -1.7060121 4288085770
10.10665 -3.841121 -1.6847109 4288085770
4.8173709 -1.8424726 -1.7201337 4293729569
6.1198454 -2.3372459 -1.6894702 4293729569
5.451951 -2.0909951 -1.6571518 4293729569
7.3679309 -2.8350258 -1.7123699 4288085770
5.947876 -2.3001928 -1.6819063 4293729569
7.7322607 -3.00021 -1.6779693 4293729569
10.102677 -3.9201348 -1.6852382 4288085770
7.1359587 -2.7759862 -1.7037756 4293729569
4.7634425 -1.8583176 -1.710453 4293729569
5.3910241 -2.1088431 -1.6473842 4293729569
5.7789145 -2.2621207 -1.6733828 4293729569
6.9339628 -2.7270045 -1.6992142 4293729569
5.6199455 -2.2250633 -1.6659129 4293729569
7.7402644 -3.0642576 -1.6808567 4293729569
10.109696 -4.002161 -1.68679 4288085770
4.7204871 -1.8782306 -1.7047778 4293729569
6.7499404 -2.6830876 -1.6986905 4293729569
5.3111439 -2.1175735 -1.6306453 4293729569
5.4280629 -2.1737843 -1.6454631 4293729569
6.5479708 -2.6290336 -1.6902212 4293729569
7.7342873 -3.1232574 -1.6807351 4293729569
5.2421737 -2.1225214 -1.6260563 4293729569
4.6825323 -1.8991413 -1.6991204 4293729569
6.3679748 -2.5820422 -1.685782 4293729569
5.234262 -2.1263025 -1.6139278 4293729569
5.0932322 -2.0843856 -1.6146777 4293729569
6.1750183 -2.5269487 -1.6753963 4293729569
7.7333112 -3.1842546 -1.6806128 4293729569
4.6276178 -1.9139503 -1.687451 4293729569
6.0190115 -2.4869821 -1.6730018 4293729569
5.0141544 -2.0735993 -1.6243063 4293729569
5.1823344 -2.1441464 -1.6042252 4293729569
5.8480439 -2.4379146 -1.6646646 4293729569
4.9260888 -2.0587811 -1.6319438 4293729569
7.7393298 -3.2482665 -1.6814862 4293729569
5.6721096 -2.3837585 -1.6513839 4293729569
4.5936632 -1.9348594 -1.6818224 4293729569
5.1433816 -2.167058 -1.598524 4293729569
4.8260694 -2.0368414 -1.6326238 4293729569
5.4961824 -2.3285849 -1.6371214 4293729569
4.7569766 -2.0270875 -1.6443062 4293729569
5.2564054 -2.2440238 -1.5999316 4293729569
7.7443542 -3.3112609 -1.6813709 4293729569
4.5626945 -1.9568036 -1.6781968 4293729569
5.1174011 -2.194036 -1.5968429 4293729569
4.7048588 -2.0243979 -1.6599823 4293729569
5.1274147 -2.2060089 -1.5956957 4293729569
5.0124106 -2.172025 -1.5934874 4293729569
4.5968785 -1.9943542 -1.6547519 4293729569
7.7653618 -3.3823018 -1.6842241 4288085770
4.5097938 -1.9695756 -1.6645789 4293729569
5.0644941 -2.2088268 -1.5841881 4293729569
4.9203691 -2.1481378 -1.5972613 4293729569
4.5248199 -1.9805112 -1.6614867 4293729569
4.8093796 -2.1131163 -1.5931003 4293729569
4.4497747 -1.9636335 -1.666255 4293729569
4.7452922 -2.099344 -1.6038921 4293729569
5.0405211 -2.2357857 -1.5815216 4293729569
4.4638705 -1.9834 -1.6539927 4293729569
7.7664084 -3.444243 -1.6810987 4288085770
4.6891909 -2.0866051 -1.6167229 4293729569
4.5872021 -2.0535786 -1.6125904 4293729569
4.4942069 -2.0225668 -1.6094862 4293729569
5.0135617 -2.26071 -1.5768701 4293729569
4.4299293 -2.0022731 -1.6464008 4293729569
7.7884302 -3.5162466 -1.6819412 4288085770
4.4620676 -2.0189259 -1.6283245 4293729569
4.4159751 -2.0081649 -1.6401912 4293729569
4.376862 -1.9994551 -1.6550711 4293729569
4.923739 -2.2562833 -1.5512983 4293729569
4.4029756 -2.0231795 -1.6408228 4293729569
7.8024645 -3.5832188 -1.6808178 4288085770
