# .PCD v0.7 - Point Cloud Data file format
VERSION 0.7
FIELDS x y z rgb
SIZE 4 4 4 4
TYPE F F F U
COUNT 1 1 1 1
WIDTH 1135
HEIGHT 1
VIEWPOINT 0 0 0 1 0 0 0
POINTS 1135
DATA ascii
5.5645542 3.1499283 -1.8026929 4288085770
8.5266037 4.814981 -0.91008252 4293729569
8.709486 4.9009433 -0.67098033 4293729569
8.6417475 4.8429155 -1.1380142 4293729569
8.6728563 4.8508849 -1.311996 4293729569
4.637362 2.6012542 -1.8121911 4288085770
8.621582 4.820951 -0.87802339 4293729569
5.5565395 3.1129301 -1.8066911 4288085770
3.6341653 2.0386074 -1.8167359 4288085770
3.6761749 2.0615919 -1.8187127 4288085770
3.6281731 2.0346076 -1.8317389 4288085770
3.7121801 2.0805795 -1.8166929 4288085770
3.7491846 2.0995669 -1.8136725 4288085770
3.7991955 2.1255488 -1.8166449 4288085770
3.8381987 2.1435356 -1.8126228 4288085770
8.8545113 4.9208875 -0.70589197 4293729569
3.8832049 2.1645198 -1.8115973 4288085770
3.9302104 2.1865034 -1.8095709 4288085770
8.7315645 4.8329153 -0.84795576 4293729569
8.8427916 4.8938389 -1.1858952 4293729569
8.8298502 4.8848319 -1.290902 4293729569
5.5365191 3.0689371 -1.8056955 4288085770
4.6323452 2.5682557 -1.8111874 4288085770
3.9912212 2.2134814 -1.813536 4288085770
4.0482297 2.2384608 -1.8145037 4288085770
4.1072383 2.2644398 -1.81547 4288085770
8.8585491 4.8518734 -0.8178786 4293729569
8.8268003 4.8288369 -1.2468952 4293729569
4.1672444 2.2884185 -1.8144354 4288085770
5.5184975 3.0239434 -1.8036987 4288085770
12.567794 6.8604674 -1.7018549 4288085770
4.6223269 2.5312586 -1.8091862 4288085770
4.2282519 2.3133972 -1.8144003 4288085770
4.2892575 2.3363757 -1.8123648 4288085770
9.0285435 4.8918161 -0.79077768 4293729569
8.9987974 4.8657784 -1.2267926 4293729569
5.5034781 2.9809482 -1.8026999 4288085770
4.3562632 2.361352 -1.8113257 4288085770
12.21768 6.5815921 -1.6840335 4288085770
4.6323152 2.5052543 -1.813174 4288085770
4.4302735 2.3903258 -1.813283 4288085770
4.4252691 2.3813272 -1.8132842 4288085770
4.3692584 2.351347 -1.812315 4288085770
4.3122454 2.3203676 -1.809346 4288085770
4.4762764 2.4073095 -1.810256 4288085770
4.2602339 2.2913861 -1.808374 4288085770
4.5362868 2.4372888 -1.8102229 4288085770
4.5982976 2.4682662 -1.8111886 4288085770
4.2082214 2.2604043 -1.8064017 4288085770
4.5052805 2.417299 -1.8132392 4288085770
12.958798 6.9163289 -1.6906199 4288085770
5.4874573 2.9379539 -1.8007021 4288085770
4.1762171 2.2404151 -1.8114187 4288085770
4.6573048 2.4952459 -1.8081553 4288085770
4.1372089 2.216429 -1.8124391 4288085770
4.7323194 2.531219 -1.8111136 4288085770
11.886571 6.3187108 -1.6652023 4288085770
4.0981984 2.1904426 -1.8124592 4288085770
4.6282973 2.4712553 -1.8111695 4288085770
4.5702844 2.4392765 -1.8092009 4288085770
4.7913246 2.5561988 -1.80708 4288085770
4.0621896 2.1664548 -1.8134778 4288085770
4.8523302 2.5831776 -1.8020456 4288085770
4.029181 2.1424665 -1.8144943 4288085770
4.933342 2.6181488 -1.8029996 4288085770
4.6662984 2.4752412 -1.8151453 4288085770
13.370834 7.0501852 -1.6793834 4288085770
5.4874415 2.9019535 -1.802695 4288085770
3.9981725 2.1194773 -1.8155098 4288085770
5.0033484 2.6461244 -1.7989596 4288085770
3.9601605 2.091491 -1.8135288 4288085770
5.0913606 2.6830935 -1.7999095 4288085770
4.7383022 2.4982164 -1.8111027 4288085770
4.6342835 2.4422529 -1.8131593 4288085770
11.7045 6.136775 -1.6652896 4288085770
5.1803722 2.7200615 -1.7998589 4288085770
3.9391537 2.0714979 -1.8165381 4288085770
4.817307 2.5231888 -1.808056 4288085770
13.853885 7.2140145 -1.674107 4288085770
5.279386 2.7600262 -1.8018025 4288085770
3.9131446 2.0495067 -1.8175504 4288085770
5.4814234 2.8629549 -1.8026915 4288085770
5.3753977 2.7969925 -1.8017472 4288085770
4.8963108 2.5471609 -1.8050092 4288085770
3.8931372 2.028513 -1.8205588 4288085770
4.6312642 2.4072537 -1.8111539 4288085770
11.579447 5.9868174 -1.6723459 4288085770
5.475409 2.8349569 -1.8006897 4288085770
3.8611233 2.0015244 -1.8165739 4288085770
14.317926 7.3608527 -1.6628401 4288085770
4.988318 2.5761285 -1.8039551 4288085770
5.4784045 2.8239555 -1.8026857 4288085770
5.5904241 2.878916 -1.8036239 4288085770
3.8371117 1.9775332 -1.8155842 4288085770
5.082325 2.6060953 -1.8028998 4288085770
5.7054391 2.9228752 -1.8055578 4288085770
4.6432519 2.3802488 -1.8141402 4288085770
11.456391 5.8378596 -1.676401 4288085770
3.8151016 1.9545406 -1.8155935 4288085770
14.831973 7.525672 -1.6525453 4288085770
5.8084464 2.9578388 -1.8014981 4288085770
5.4853892 2.7899525 -1.8056746 4288085770
5.1843333 2.637059 -1.8028396 4288085770
3.7960916 1.9325472 -1.815601 4288085770
5.9254589 2.9997978 -1.8004307 4288085770
5.2873416 2.6690226 -1.8027791 4288085770
4.6542368 2.3512442 -1.8151267 4288085770
11.370347 5.7098889 -1.6854361 4288085770
3.7840834 1.9135509 -1.8176044 4288085770
6.042469 3.0387566 -1.7973627 4288085770
15.427036 7.7224617 -1.6492049 4288085770
5.4753666 2.7469561 -1.8016727 4288085770
5.3943496 2.6989841 -1.8027155 4288085770
3.7660725 1.8905573 -1.8166108 4288085770
6.1734819 3.08371 -1.7972869 4288085770
4.6512175 2.3152454 -1.812121 4288085770
11.306307 5.5939097 -1.6964593 4288085770
6.2944903 3.1226678 -1.7922164 4288085770
3.8381016 1.911527 -1.8575678 4282675967
16.114115 7.9572186 -1.6498133 4288085770
5.5223632 2.7399385 -1.8066407 4288085770
5.4793496 2.7099543 -1.8026628 4288085770
6.451508 3.1756117 -1.7951257 4288085770
3.7640622 1.8595562 -1.8276049 4288085770
5.6343703 2.7708988 -1.8055745 4288085770
4.6642022 2.2872403 -1.8131064 4288085770
6.6015234 3.225559 -1.7950389 4288085770
11.235265 5.4729333 -1.7054859 4288085770
5.4863319 2.6749511 -1.8026514 4288085770
5.7543788 2.8038566 -1.8045036 4288085770
6.7485347 3.2705069 -1.7919533 4288085770
16.508106 7.9450784 -1.65557 4288085770
5.862381 2.8298185 -1.7984391 4288085770
4.6751866 2.2582359 -1.8130932 4288085770
11.19423 5.368947 -1.7174964 4288085770
6.9035473 3.3184524 -1.7888631 4288085770
5.4893126 2.63695 -1.8016419 4288085770
5.9893885 2.8627737 -1.7963638 4288085770
7.0765634 3.372391 -1.7887626 4288085770
16.306028 7.7241483 -1.6636654 4288085770
4.7001767 2.2352259 -1.818072 4288085770
11.163195 5.2679553 -1.7295012 4288085770
6.1203947 2.8947277 -1.7942858 4288085770
7.2585797 3.4283266 -1.7886569 4288085770
5.5062981 2.605943 -1.8046248 4288085770
7.4686027 3.4942517 -1.7935355 4288085770
16.148956 7.5262027 -1.6747364 4288085770
6.2634053 2.932677 -1.7952015 4288085770
4.7051578 2.2022243 -1.8150615 4288085770
11.114158 5.1599712 -1.7375158 4288085770
5.5102777 2.5679421 -1.801615 4288085770
7.6696205 3.5551808 -1.792419 4288085770
6.4134145 2.9706235 -1.7951128 4288085770
16.052902 7.357234 -1.6897742 4288085770
7.8736377 3.6141088 -1.7913007 4288085770
4.7291451 2.1772151 -1.819041 4288085770
5.5262623 2.5349355 -1.8035988 4288085770
11.051115 5.0459924 -1.7435395 4288085770
6.5624218 3.0055714 -1.793025 4288085770
8.0706482 3.666039 -1.7861861 4288085770
6.729434 3.0475113 -1.7949271 4288085770
15.952845 7.1872654 -1.7028157 4288085770
4.7531319 2.1512055 -1.8210205 4288085770
5.525239 2.4939353 -1.7985921 4288085770
8.2536564 3.7109747 -1.7750794 4288085770
10.989071 4.9320116 -1.7475629 4288085770
6.9224524 3.0984416 -1.8008145 4288085770
8.4406614 3.7549095 -1.7639699 4288085770
15.891795 7.0382833 -1.7178358 4288085770
4.7671146 2.1211994 -1.8200057 4288085770
5.5592275 2.4679217 -1.8035659 4288085770
10.889018 4.8040457 -1.7446077 4288085770
7.0864592 3.133383 -1.7977175 4288085770
8.6576719 3.8088322 -1.7568436 4288085770
15.748727 6.854331 -1.7229017 4288085770
7.2664685 3.1743186 -1.7956117 4288085770
3.7589607 1.6535516 -1.8465595 4288085770
4.7891002 2.0941906 -1.8209862 4288085770
5.5592041 2.4269211 -1.7975585 4288085770
8.8826828 3.8627534 -1.7477125 4288085770
10.753958 4.6620932 -1.734672 4288085770
7.4574804 3.2172501 -1.7964995 4288085770
3.6929181 1.603578 -1.8115911 4288085770
9.1176929 3.9186699 -1.7395755 4288085770
15.42262 6.5924454 -1.7060692 4288085770
5.5991936 2.4019053 -1.8035287 4288085770
4.8050828 2.0641842 -1.8189702 4288085770
10.612893 4.5181432 -1.7227395 4288085770
7.6624932 3.2631764 -1.7973794 4288085770
9.3957138 3.9895709 -1.7364146 4288085770
3.7099123 1.5895706 -1.8175769 4288085770
15.111515 6.3415551 -1.6882287 4288085770
5.6091723 2.3649011 -1.7995157 4288085770
7.8605013 3.3021059 -1.7952626 4288085770
9.6907349 4.064465 -1.7342438 4288085770
4.8280668 2.0361748 -1.8189501 4288085770
3.7128994 1.5695691 -1.8155702 4288085770
10.545848 4.4071646 -1.7207661 4288085770
10.004756 4.1423535 -1.7310619 4288085770
8.0895157 3.3530238 -1.7971286 4288085770
14.912436 6.1416245 -1.6823262 4293729569
3.7258904 1.5525633 -1.8175578 4288085770
5.6281528 2.3298934 -1.7974976 4288085770
4.8430486 2.0051684 -1.8159344 4288085770
10.51381 4.311173 -1.723773 4288085770
10.332779 4.2222371 -1.727872 4288085770
8.3245316 3.4019394 -1.7989907 4288085770
3.7358785 1.5335591 -1.8175468 4288085770
14.854383 6.0006413 -1.6883452 4288085770
5.6601381 2.3008804 -1.7994722 4288085770
4.8630314 1.9761606 -1.813916 4288085770
10.652796 4.2941232 -1.7206861 4288085770
8.5305357 3.4368658 -1.7928689 4288085770
10.47277 4.2131863 -1.7247854 4288085770
3.7408648 1.5125568 -1.8145387 4288085770
11.039827 4.3889852 -1.7204627 4288085770
5.7011256 2.2748644 -1.8034419 4288085770
14.800333 5.862658 -1.6943622 4288085770
8.758543 3.4777849 -1.7887347 4288085770
4.8870144 1.948151 -1.8128952 4288085770
10.484742 4.135179 -1.7327679 4288085770
3.7518539 1.4945519 -1.8145273 4288085770
11.447857 4.4878402 -1.7202271 4288085770
8.9845495 3.5137038 -1.7836012 4288085770
5.7301097 2.2438529 -1.8034182 4288085770
14.799293 5.746654 -1.7043496 4288085770
4.9109974 1.9201416 -1.8108746 4288085770
3.7698441 1.4775447 -1.8165118 4288085770
11.949905 4.6166601 -1.7299384 4288085770
10.47771 4.0501795 -1.7377613 4288085770
9.2345581 3.5566149 -1.7794539 4288085770
3.6628356 1.4235797 -1.8385684 4288085770
3.6868248 1.4265729 -1.8215535 4288085770
5.7560887 2.2098429 -1.8003958 4288085770
3.7828321 1.4595394 -1.8154991 4288085770
14.797251 5.6306524 -1.7133378 4288085770
12.525963 4.7674537 -1.7446078 4288085770
3.7458286 1.4425519 -1.8205191 4288085770
4.9529872 1.8981252 -1.8158436 4288085770
9.494566 3.5995219 -1.776301 4288085770
10.481678 3.970176 -1.7417483 4288085770
3.8068326 1.4585299 -1.8204833 4288085770
3.6878111 1.412573 -1.8115497 4288085770
3.7048318 1.4185635 -1.84354 4288085770
3.7438197 1.4325531 -1.8145181 4288085770
3.7958262 1.4515344 -1.814489 4288085770
3.8558345 1.4715128 -1.8174548 4288085770
3.915843 1.4924912 -1.8194208 4288085770
3.8748388 1.4765054 -1.8224437 4288085770
3.9918563 1.5184634 -1.8273777 4288085770
13.033001 4.8852715 -1.7453156 4288085770
4.0648656 1.541437 -1.8313358 4288085770
3.7918181 1.4385356 -1.8124886 4288085770
3.9448447 1.4944801 -1.8244026 4288085770
4.1368756 1.565411 -1.835295 4288085770
5.7950749 2.1818275 -1.8023665 4288085770
14.834217 5.528635 -1.7253039 4288085770
4.1968784 1.58239 -1.8322603 4288085770
9.7775774 3.6474204 -1.7751346 4288085770
4.984972 1.8721125 -1.8158184 4288085770
4.037858 1.5204458 -1.8343486 4288085770
4.2698879 1.6053636 -1.8342184 4288085770
10.494647 3.8931692 -1.7477305 4288085770
4.3438945 1.6263371 -1.8351758 4288085770
4.1198659 1.541416 -1.8383005 4288085770
13.563039 5.0050826 -1.7450097 4288085770
4.4038963 1.6433165 -1.8291409 4288085770
3.8158095 1.4225258 -1.8164692 4288085770
4.4769001 1.6622906 -1.8270985 4288085770
4.1938701 1.5583894 -1.8382568 4288085770
5.8250566 2.1498165 -1.799342 4288085770
10.045585 3.6863246 -1.7689766 4288085770
4.5549064 1.6842628 -1.8260533 4288085770
14.86218 5.4226227 -1.7342752 4288085770
4.2768764 1.5783595 -1.8402082 4288085770
5.0139542 1.8431013 -1.8137944 4288085770
4.6439147 1.7082307 -1.8280016 4288085770
14.127079 5.1298814 -1.7436842 4288085770
10.520619 3.8201573 -1.7547052 4288085770
4.7229185 1.7282028 -1.8249557 4288085770
4.3558803 1.5953314 -1.8401614 4288085770
3.8397999 1.4065162 -1.8184501 4288085770
10.327589 3.7262242 -1.7628103 4288085770
4.8019199 1.7471752 -1.8199095 4288085770
4.4438868 1.6152995 -1.8421096 4288085770
5.8630404 2.1198015 -1.7993131 4288085770
4.8869247 1.7681451 -1.81686 4288085770
14.713118 5.2536721 -1.7403458 4288085770
14.905143 5.3206038 -1.7442378 4288085770
5.0449381 1.8170893 -1.8127699 4288085770
4.5208869 1.6302723 -1.8370638 4288085770
4.9709268 1.7871156 -1.8118107 4288085770
3.8647916 1.3915062 -1.8214306 4288085770
10.563596 3.7531393 -1.7626705 4288085770
10.623596 3.7671189 -1.7566359 4288085770
5.0709324 1.8110799 -1.8107525 4288085770
4.6058888 1.647242 -1.8350134 4288085770
15.278146 5.3654714 -1.7310188 4288085770
5.1669369 1.8330458 -1.8076962 4288085770
5.9160261 2.0937815 -1.8022754 4288085770
4.6868896 1.6612134 -1.830965 4288085770
14.940105 5.2175884 -1.7512051 4288085770
5.086925 1.7930731 -1.8137389 4288085770
5.2719412 1.8560084 -1.8046348 4288085770
3.8867798 1.3734976 -1.8214122 4288085770
10.926601 3.8060105 -1.7504572 4288085770
4.768888 1.6751841 -1.8249161 4288085770
10.618572 3.6901171 -1.7716291 4288085770
5.3889494 1.8829665 -1.8055665 4288085770
15.897182 5.4872508 -1.7226607 4288085770
4.8568892 1.691153 -1.8208637 4288085770
5.9480071 2.0617692 -1.7982501 4288085770
5.507956 1.9089239 -1.8054969 4288085770
15.013073 5.1255589 -1.761151 4288085770
3.9087679 1.3554888 -1.8213941 4288085770
11.25761 3.8498921 -1.7452624 4288085770
5.1319122 1.7700558 -1.8167063 4288085770
4.9528913 1.7081188 -1.8188066 4288085770
5.6329641 1.9368793 -1.805424 4288085770
16.62723 5.636991 -1.7202395 4288085770
10.689552 3.6320894 -1.7825785 4288085770
5.7459669 1.9588393 -1.8003576 4288085770
5.0588946 1.7270808 -1.8177438 4288085770
5.998992 2.0347495 -1.7992136 4288085770
11.626621 3.9017599 -1.7440457 4288085770
5.8799734 1.9857916 -1.7992789 4288085770
3.9387591 1.3394768 -1.8243712 4288085770
5.1568952 1.742046 -1.8136853 4288085770
5.1688967 1.7440413 -1.8156781 4288085770
15.046033 5.021544 -1.7661196 4288085770
17.399281 5.7917147 -1.7177942 4288085770
6.0109782 2.0117447 -1.7962022 4288085770
10.741529 3.5670679 -1.7895386 4288085770
5.2759004 1.7630032 -1.8146147 4288085770
6.0539784 2.0087283 -1.801175 4288085770
12.004634 3.9526246 -1.7418239 4288085770
6.1639876 2.04269 -1.7981126 4288085770
3.9707506 1.3244642 -1.8273474 4288085770
5.3799 1.7789663 -1.8095529 4288085770
18.241331 5.958415 -1.7143085 4288085770
5.2278867 1.7240187 -1.8206373 4288085770
15.083992 4.9175286 -1.7680854 4288085770
6.3259983 2.0756316 -1.8000182 4288085770
10.7895 3.4990485 -1.7945009 4288085770
5.4919004 1.794926 -1.806486 4288085770
12.392646 4.0004859 -1.7385958 4288085770
6.4750037 2.1025789 -1.7969306 4288085770
6.1039615 1.9807094 -1.8001393 4288085770
3.9997389 1.307453 -1.8273251 4288085770
19.130383 6.1290975 -1.7097955 4288085770
5.63691 1.8208736 -1.8114007 4288085770
5.2768731 1.7010001 -1.8226025 4288085770
6.6430116 2.1335182 -1.7958322 4288085770
15.167958 4.8284955 -1.7760249 4288085770
5.7609124 1.8388293 -1.8093268 4288085770
12.822659 4.0553308 -1.7373435 4288085770
10.847475 3.4350257 -1.7994577 4288085770
6.8140192 2.1644571 -1.794732 4288085770
4.0287266 1.2894417 -1.8283025 4288085770
6.1719503 1.9576837 -1.8040932 4288085770
5.8989162 1.8587794 -1.8092448 4288085770
7.0030289 2.1983893 -1.7956214 4288085770
5.3118539 1.6719869 -1.8175752 4288085770
15.107897 4.6935153 -1.764046 4288085770
13.255672 4.1071754 -1.7350897 4288085770
10.887444 3.3640094 -1.8014245 4288085770
6.0309176 1.8767323 -1.8061664 4288085770
4.051713 1.2704328 -1.8252838 4288085770
7.1900363 2.2303224 -1.7945118 4288085770
6.226933 1.928663 -1.8020543 4288085770
7.3900452 2.2642505 -1.7933946 4288085770
6.1899238 1.8996751 -1.8080722 4288085770
5.3648415 1.6489667 -1.8195379 4288085770
14.993829 4.5445557 -1.7460977 4288085770
13.730686 4.1630054 -1.7348111 4288085770
4.0967069 1.2574154 -1.8312523 4288085770
10.948418 3.2989852 -1.8053795 4288085770
7.5970531 2.298177 -1.7922734 4288085770
6.3419271 1.9196204 -1.8069819 4288085770
6.3079233 1.9086324 -1.808001 4288085770
7.8200631 2.3350968 -1.792143 4288085770
14.196696 4.2108388 -1.7315373 4293729569
5.419827 1.6249458 -1.8204993 4288085770
6.4809256 1.9345709 -1.800899 4288085770
15.01578 4.4355464 -1.7410724 4293729569
4.1296945 1.2394025 -1.8312274 4288085770
11.003389 3.2309637 -1.8073379 4288085770
8.0590744 2.3730109 -1.7920029 4288085770
6.3659072 1.8796105 -1.8069605 4288085770
6.6519303 1.9565095 -1.8017977 4288085770
14.697707 4.2616591 -1.7282431 4293729569
5.485816 1.6049206 -1.8244549 4288085770
8.3050833 2.4109228 -1.7918589 4288085770
4.1706858 1.2243867 -1.8341984 4288085770
15.065736 4.3345265 -1.7370313 4293729569
6.8279347 1.9784459 -1.8016934 4288085770
11.069362 3.1659379 -1.8102899 4288085770
6.443893 1.8555812 -1.8089085 4288085770
8.570096 2.4518278 -1.7927039 4288085770
15.315735 4.3394365 -1.7358824 4293729569
6.9989352 1.9963847 -1.7985916 4288085770
4.2056742 1.2063732 -1.8341725 4288085770
5.5357995 1.5779018 -1.8224189 4288085770
8.8321037 2.4887338 -1.7895503 4288085770
15.229712 4.2664652 -1.7459257 4293729569
7.1869383 2.0163169 -1.7974801 4288085770
6.5118771 1.8285559 -1.8078625 4288085770
11.141334 3.1009102 -1.8122383 4288085770
15.911754 4.4012222 -1.7385335 4293729569
9.1261158 2.5326283 -1.7903786 4288085770
4.2516651 1.1923558 -1.8371404 4288085770
5.6047878 1.5578756 -1.8253727 4288085770
7.3899441 2.0392439 -1.7983599 4288085770
15.426689 4.2053914 -1.7558014 4293729569
9.432128 2.5755186 -1.7901995 4288085770
6.593864 1.804525 -1.8098083 4288085770
11.196303 3.0328891 -1.8101968 4288085770
16.537773 4.4639969 -1.740167 4293729569
7.5909457 2.0591722 -1.7962407 4288085770
4.2766495 1.1713463 -1.8321202 4288085770
9.7801456 2.6253936 -1.7939963 4288085770
5.6717753 1.5348505 -1.8273271 4288085770
15.627667 4.1433167 -1.764675 4288085770
7.8229537 2.0850883 -1.8001037 4288085770
6.6758499 1.7804948 -1.8097543 4288085770
17.260801 4.5427365 -1.7497449 4288085770
10.103154 2.6662776 -1.7908072 4288085770
11.241268 2.9608712 -1.8061608 4288085770
4.3236394 1.1553283 -1.8340874 4288085770
5.7357602 1.5108266 -1.8262836 4288085770
8.0389547 2.1040106 -1.7979755 4288085770
10.496173 2.7211361 -1.795578 4288085770
15.796637 4.0692534 -1.7675662 4288085770
6.7448306 1.7504692 -1.8057072 4288085770
18.031828 4.6224594 -1.7582946 4288085770
4.3566251 1.1363162 -1.8300627 4288085770
11.313238 2.8948443 -1.8051095 4288085770
8.2869596 2.1279213 -1.7998289 4288085770
10.904189 2.7749898 -1.7983398 4288085770
5.8127499 1.4907975 -1.8302326 4288085770
15.978607 3.9961865 -1.7704498 4288085770
8.5149593 2.1438396 -1.7956934 4288085770
6.84582 1.7294316 -1.8096423 4288085770
18.987879 4.7371144 -1.7807384 4288085770
11.333207 2.8298354 -1.8010893 4288085770
4.3996124 1.1182998 -1.8290319 4288085770
11.389206 2.8298151 -1.8020558 4288085770
5.8877358 1.4677695 -1.8311827 4288085770
8.7899685 2.16974 -1.7995311 4288085770
11.722214 2.8706968 -1.7938613 4288085770
6.9378061 1.7053975 -1.8095825 4288085770
16.186581 3.9301093 -1.7743191 4288085770
4.4446011 1.1012827 -1.8290005 4288085770
11.472177 2.7657838 -1.8009982 4288085770
9.0419664 2.1856496 -1.7953813 4288085770
12.19723 2.9265261 -1.7945842 4288085770
5.9757257 1.4477365 -1.8351253 4288085770
7.0477948 1.6843567 -1.8125123 4288085770
4.4965906 1.085263 -1.8299649 4288085770
16.419556 3.8660233 -1.7791737 4288085770
9.345973 2.2105398 -1.7992018 4288085770
12.703249 2.9843445 -1.7962885 4288085770
11.594152 2.7087383 -1.8029182 4288085770
6.0497112 1.424709 -1.8340763 4288085770
9.6309748 2.2284374 -1.797033 4288085770
4.5455794 1.0682447 -1.829931 4288085770
7.1567807 1.6613164 -1.8134425 4288085770
13.327279 3.0641193 -1.8089257 4288085770
16.679529 3.8039279 -1.7830126 4288085770
11.692122 2.6457016 -1.799852 4288085770
6.1266956 1.4006803 -1.8330251 4288085770
9.930975 2.2453291 -1.7948551 4288085770
14.11133 3.170836 -1.8354708 4288085770
4.5895643 1.0492284 -1.8258998 4288085770
7.2607665 1.636278 -1.8133756 4288085770
16.951504 3.7398279 -1.7868446 4288085770
10.26798 2.2672081 -1.7966561 4288085770
14.966384 3.2855268 -1.8629748 4288085770
6.2256851 1.3806434 -1.8369615 4288085770
11.838099 2.5916474 -1.8037581 4288085770
4.646554 1.0332069 -1.8268614 4288085770
7.3817544 1.6142335 -1.8152993 4288085770
10.640989 2.2930729 -1.8024362 4288085770
15.672407 3.359273 -1.8665634 4288085770
4.4845324 0.98526442 -1.8239511 4288085770
4.5735383 1.0022328 -1.8238999 4288085770
17.254478 3.6807165 -1.7906585 4288085770
4.6645451 1.0202004 -1.8238477 4288085770
4.7545485 1.0361682 -1.8217956 4288085770
4.8635573 1.0551287 -1.8267326 4288085770
6.3106709 1.356612 -1.8359057 4288085770
4.95856 1.0710953 -1.8226774 4288085770
4.7015414 1.0161866 -1.825824 4288085770
11.978072 2.5345953 -1.8036677 4288085770
5.0665669 1.0900565 -1.8236151 4288085770
4.5125289 0.97425354 -1.8289315 4288085770
7.5027409 1.5911889 -1.8152225 4288085770
5.163568 1.1050224 -1.8185588 4288085770
16.263411 3.3990622 -1.8502169 4288085770
11.001989 2.309943 -1.8022226 4288085770
4.602529 0.98622143 -1.8258786 4288085770
5.2765732 1.1229821 -1.8174931 4288085770
4.7105365 1.0021824 -1.8298156 4288085770
5.3955784 1.1409395 -1.8174239 4288085770
17.576454 3.6225994 -1.7944618 4288085770
4.8045387 1.0151489 -1.8277606 4288085770
5.5325871 1.1618899 -1.8203442 4288085770
6.4186611 1.3375715 -1.8408371 4288085770
4.7635317 1.0001634 -1.8267827 4288085770
5.6835976 1.1848352 -1.8262565 4288085770
4.9105415 1.0281107 -1.8266984 4288085770
16.832403 3.4288602 -1.8268826 4288085770
12.126045 2.4785404 -1.8035729 4288085770
11.373989 2.325809 -1.8010025 4288085770
7.6467304 1.5711358 -1.8191328 4288085770
5.8286047 1.2057829 -1.8281721 4288085770
5.0085425 1.0400759 -1.8236407 4288085770
5.9886146 1.2287251 -1.833079 4288085770
5.1205463 1.0540357 -1.8235751 4288085770
6.1366196 1.2486722 -1.8319927 4288085770
5.2285457 1.0649973 -1.8195112 4288085770
17.896425 3.5594823 -1.7942659 4288085770
4.8335228 0.98513687 -1.8297368 4288085770
17.398388 3.4496593 -1.7985494 4288085770
6.5086451 1.3125386 -1.8377784 4288085770
6.3036275 1.2706121 -1.8338953 4288085770
11.794995 2.346657 -1.8037541 4288085770
5.3315434 1.0749608 -1.8124504 4288085770
7.813724 1.5550741 -1.8270298 4288085770
12.300025 2.426476 -1.806463 4288085770
6.4686322 1.2915529 -1.8327991 4288085770
5.4745517 1.0919088 -1.8183666 4288085770
6.6336365 1.3104941 -1.8307025 4288085770
18.172396 3.5043826 -1.7870969 4288085770
5.6135564 1.1068588 -1.8202848 4288085770
4.8845081 0.96611822 -1.8247018 4288085770
12.197992 2.3585119 -1.8005155 4288085770
6.813642 1.3324294 -1.8305974 4288085770
6.6156321 1.291499 -1.8387103 4288085770
18.298407 3.5083358 -1.7990227 4288085770
5.7655625 1.1238039 -1.8241959 4288085770
6.961638 1.3453776 -1.8185103 4288085770
7.9647131 1.5340185 -1.828936 4288085770
12.467996 2.3694143 -1.8053563 4288085770
5.9235692 1.1397465 -1.8281028 4288085770
7.1836486 1.3712974 -1.8233808 4288085770
19.122419 3.5820417 -1.7855427 4288085770
12.626991 2.3693576 -1.7982618 4288085770
4.9504972 0.95009387 -1.8246585 4288085770
6.0755715 1.1536918 -1.8280133 4288085770
7.3906541 1.393223 -1.8222597 4288085770
6.7156177 1.2674624 -1.837646 4288085770
18.731384 3.4581783 -1.8047615 4288085770
8.1156988 1.5109633 -1.8288419 4288085770
6.2625809 1.1726238 -1.8359035 4288085770
7.61166 1.4161438 -1.8211303 4288085770
12.640968 2.3123507 -1.8032467 4288085770
13.086991 2.3821917 -1.79899 4288085770
6.423583 1.1855659 -1.8348085 4288085770
7.8676691 1.4430516 -1.8249806 4288085770
5.0144839 0.93207014 -1.8226159 4288085770
6.8116002 1.2424275 -1.8325841 4288085770
6.5945835 1.1985047 -1.8327076 4288085770
8.1296787 1.4689572 -1.8278275 4288085770
19.229366 3.4139967 -1.8114629 4288085770
8.2946901 1.4918975 -1.833732 4288085770
8.3976841 1.493861 -1.8276708 4288085770
13.594991 2.3950088 -1.7996899 4288085770
6.7695842 1.2104417 -1.8306041 4288085770
12.854946 2.2602723 -1.8051136 4288085770
5.0924749 0.91704112 -1.8245655 4288085770
6.9015808 1.2153946 -1.8255256 4288085770
8.7307005 1.5277402 -1.8384762 4288085770
6.9295812 1.2193849 -1.8235096 4288085770
8.4816799 1.4738289 -1.8376176 4288085770
19.761349 3.3708034 -1.8181446 4288085770
9.0317078 1.5536319 -1.8393002 4288085770
14.311018 2.4377484 -1.8252703 4288085770
7.116581 1.2303177 -1.8203989 4288085770
5.1574616 0.89901727 -1.8205225 4288085770
13.077923 2.2091904 -1.8069756 4288085770
9.3207111 1.5755287 -1.8331306 4288085770
7.3355851 1.2452387 -1.8232698 4288085770
7.0095654 1.1913552 -1.822457 4288085770
8.6946726 1.4577507 -1.8454881 4288085770
9.6587181 1.6024073 -1.8339329 4288085770
15.081042 2.4794688 -1.850819 4288085770
5.2474542 0.88498378 -1.8244654 4288085770
7.5395842 1.2551657 -1.819149 4288085770
13.359905 2.1640866 -1.8138032 4288085770
9.9917202 1.6262881 -1.8287377 4288085770
7.1395516 1.1693076 -1.8213754 4288085770
7.7755871 1.2690804 -1.8210099 4288085770
8.9036627 1.4386741 -1.8493607 4288085770
15.747049 2.496228 -1.8594269 4288085770
5.3244414 0.86795551 -1.8224154 4288085770
10.394731 1.657143 -1.8325018 4288085770
8.0725985 1.2899723 -1.8338354 4288085770
10.811739 1.6869929 -1.8332579 4288085770
7.2805395 1.1482559 -1.8222878 4288085770
13.631883 2.1139872 -1.8166364 4288085770
8.3195992 1.3008833 -1.8316896 4288085770
9.0936499 1.4156051 -1.8472443 4288085770
5.4034286 0.84992653 -1.8193644 4288085770
16.364044 2.4960058 -1.8580624 4288085770
11.221744 1.7128459 -1.8290175 4288085770
8.6326084 1.3187697 -1.8415055 4288085770
7.4095244 1.1242089 -1.8192068 4288085770
11.659747 1.7376891 -1.8237609 4288085770
9.2896328 1.390534 -1.843124 4288085770
13.992869 2.0738544 -1.8284184 4288085770
5.4974194 0.83489174 -1.821305 4288085770
8.943614 1.3336573 -1.8463222 4288085770
16.861017 2.4698279 -1.8397663 4288085770
4.8103819 0.73113722 -1.8216994 4288085770
12.137752 1.7655174 -1.8204811 4288085770
9.2136078 1.3395605 -1.8391623 4288085770
7.5595117 1.1031538 -1.819114 4288085770
9.5336218 1.3714452 -1.8459765 4288085770
5.5874085 0.8188588 -1.8202479 4288085770
14.355854 2.0317218 -1.837199 4288085770
4.8903732 0.71710742 -1.8236482 4288085770
12.68076 1.7973224 -1.8201632 4288085770
17.408997 2.4446313 -1.8234402 4288085770
9.5246077 1.3494487 -1.8379788 4288085770
7.7305012 1.0830914 -1.822009 4288085770
13.299772 1.8340995 -1.8238013 4288085770
5.6853981 0.80282271 -1.8201861 4288085770
9.7606087 1.3493629 -1.8438388 4288085770
9.8576069 1.3573288 -1.8367822 4288085770
4.9653606 0.70107996 -1.8205998 4288085770
18.07198 2.4283929 -1.8170478 4288085770
14.802844 1.993558 -1.8529309 4288085770
13.980786 1.873854 -1.8294033 4288085770
10.221608 1.3671973 -1.8385675 4288085770
7.9144902 1.063024 -1.8248963 4288085770
5.7883883 0.78678495 -1.8201214 4288085770
10.017596 1.3282694 -1.8436834 4288085770
5.0443501 0.68505096 -1.819549 4288085770
14.834814 1.9285452 -1.848905 4288085770
18.812967 2.4121258 -1.8146095 4288085770
10.606609 1.3760585 -1.8403404 4288085770
15.311839 1.9603716 -1.8726269 4288085770
5.890377 0.77074766 -1.8180575 4288085770
8.1144819 1.0439506 -1.8297745 4288085770
15.730839 1.981222 -1.8633821 4288085770
10.316587 1.3101609 -1.8475039 4288085770
5.1463442 0.67201298 -1.8244852 4288085770
11.046614 1.3878993 -1.8460815 4288085770
19.689966 2.4018087 -1.8200923 4288085770
16.531845 2.0129344 -1.8569132 4288085770
6.0083671 0.75470436 -1.818984 4288085770
15.75382 1.9122105 -1.8793613 4288085770
8.3014698 1.0218827 -1.8286601 4288085770
11.46961 1.392747 -1.8438319 4288085770
5.2443357 0.65797681 -1.8264238 4288085770
10.625576 1.2910485 -1.8493185 4288085770
17.247833 2.0296788 -1.836493 4288085770
6.1193557 0.73866397 -1.8169149 4288085770
11.896605 1.3935934 -1.8405795 4288085770
5.3473272 0.64393884 -1.8283594 4288085770
8.486454 0.99881542 -1.8255471 4288085770
10.979569 1.2749196 -1.8551072 4288085770
16.192797 1.8590509 -1.8820969 4288085770
18.095831 2.0523758 -1.8209962 4288085770
12.368602 1.3964233 -1.8383009 4288085770
6.2483463 0.72261661 -1.8178352 4288085770
5.4403167 0.62790489 -1.8263009 4288085770
8.7004414 0.9767375 -1.8254172 4288085770
11.326558 1.2547941 -1.8548994 4288085770
19.214842 2.0959735 -1.8213422 4288085770
16.632771 1.8018909 -1.8818319 4288085770
12.956605 1.4042107 -1.8469549 4288085770
6.3673344 0.70657349 -1.8147615 4288085770
5.5423059 0.61286753 -1.8252369 4288085770
8.9514313 0.95764601 -1.8302658 4288085770
11.690545 1.2336624 -1.853682 4288085770
13.622615 1.4149692 -1.8615636 4288085770
6.5053239 0.69052315 -1.8146768 4288085770
17.044739 1.7377421 -1.8725832 4288085770
5.6302919 0.5958358 -1.8191813 4288085770
9.1904202 0.93555915 -1.8291212 4288085770
12.076532 1.2135229 -1.851452 4288085770
14.427631 1.4316767 -1.8870913 4288085770
6.6473155 0.67447138 -1.8145897 4288085770
5.742281 0.57979488 -1.8181118 4288085770
17.53771 1.6765634 -1.869287 4288085770
9.4564085 0.91446251 -1.8309612 4288085770
12.516522 1.1953639 -1.8521904 4288085770
15.268644 1.4433718 -1.9085975 4288085770
6.82231 0.66140711 -1.8204838 4288085770
6.3132858 0.61459082 -1.8077782 4288085770
6.4842901 0.6295296 -1.8076792 4288085770
6.6843004 0.64745724 -1.8135633 4288085770
6.1542797 0.59864765 -1.8088698 4288085770
6.8803072 0.66438687 -1.8144498 4288085770
7.0843134 0.68131363 -1.8153316 4288085770
6.0102763 0.58369881 -1.8119531 4288085770
5.85427 0.56875491 -1.811043 4288085770
7.2813158 0.69624335 -1.811217 4288085770
5.7212663 0.55380201 -1.8141196 4288085770
7.5433273 0.71614861 -1.8190649 4288085770
5.8552713 0.56475383 -1.8160418 4288085770
5.3502574 0.51793402 -1.8223338 4288085770
5.4742599 0.52888978 -1.820262 4288085770
5.579258 0.53785312 -1.8112012 4288085770
5.6072636 0.53984213 -1.8201848 4288085770
5.227252 0.50597817 -1.8214048 4288085770
7.7503281 0.730075 -1.8119444 4288085770
5.7322645 0.54979783 -1.8151122 4288085770
5.8752689 0.56174654 -1.8150294 4288085770
5.1032462 0.49302274 -1.8194761 4288085770
5.4492521 0.52289969 -1.811276 4288085770
4.9802403 0.48106706 -1.8165473 4288085770
6.0342736 0.57368946 -1.8159369 4288085770
8.0303383 0.74997401 -1.8167816 4288085770
6.1702719 0.58264136 -1.8088576 4288085770
5.3442507 0.50993645 -1.8173358 4288085770
8.3043432 0.76787561 -1.8176219 4288085770
9.7533979 0.89435464 -1.8337831 4288085770
13.06452 1.1821649 -1.8628663 4288085770
16.024643 1.4390988 -1.9121524 4288085770
6.3562779 0.59457403 -1.8137493 4288085770
18.149683 1.6193415 -1.8709215 4288085770
5.2302451 0.494977 -1.818401 4288085770
6.9873009 0.64634705 -1.8203835 4288085770
8.5853472 0.78477484 -1.8154583 4288085770
6.5292807 0.60551208 -1.8116485 4288085770
5.1142383 0.48001856 -1.817467 4288085770
6.7282863 0.61744016 -1.8155324 4288085770
8.906354 0.80365944 -1.8172711 4288085770
5.9922638 0.55070353 -1.8189579 4288085770
4.9982295 0.46506023 -1.8145332 4288085770
6.9302893 0.62836766 -1.8154144 4288085770
9.2953691 0.82651848 -1.8290445 4288085770
7.153295 0.6402871 -1.8192842 4288085770
9.6673765 0.84638447 -1.8318276 4288085770
7.3883004 0.65220237 -1.8221469 4288085770
10.066389 0.87324083 -1.8365958 4288085770
13.682519 1.1709405 -1.8755013 4288085770
16.688623 1.4188604 -1.89876 4288085770
7.1652918 0.63028216 -1.8222755 4288085770
10.058383 0.86624396 -1.8325994 4288085770
7.6143017 0.66112113 -1.8210144 4288085770
6.1002498 0.5336647 -1.8118908 4288085770
10.482391 0.88709134 -1.8353522 4288085770
18.863663 1.5630825 -1.8774968 4288085770
7.8373013 0.6700415 -1.815884 4288085770
10.9814 0.90991127 -1.8420609 4288085770
8.1143045 0.68094158 -1.8187219 4288085770
7.3432827 0.61521751 -1.8211678 4288085770
14.421524 1.1646719 -1.8950659 4288085770
10.42938 0.85310864 -1.8433791 4288085770
17.315596 1.3876364 -1.8753885 4288085770
11.49141 0.93172753 -1.8457632 4288085770
8.3883066 0.68984306 -1.8175611 4288085770
6.2552447 0.52060765 -1.8177967 4288085770
11.985412 0.94955063 -1.8394744 4288085770
8.6723061 0.69774109 -1.8153948 4288085770
19.561634 1.5018296 -1.8770812 4288085770
7.5562768 0.60113972 -1.8270398 4288085770
12.558419 0.97134471 -1.8391398 4288085770
9.024313 0.70861375 -1.8221887 4288085770
15.266534 1.160365 -1.9195687 4282675967
10.803373 0.83297288 -1.8481563 4288085770
18.20858 1.3683145 -1.8728622 4288085770
6.3942347 0.50555724 -1.815712 4288085770
9.3823166 0.71848452 -1.8259788 4288085770
13.258432 0.99809194 -1.8497313 4288085770
9.7763233 0.72834194 -1.8327479 4288085770
7.7512665 0.58506918 -1.8239222 4288085770
14.110455 1.0307837 -1.8702341 4288085770
16.024529 1.1450909 -1.9251219 4282675967
11.235367 0.81381571 -1.8568996 4288085770
6.5502257 0.49050045 -1.8156171 4288085770
10.170324 0.73619998 -1.8345169 4288085770
15.134487 1.0714123 -1.901637 4288085770
19.249575 1.3489388 -1.8772496 4288085770
7.9512539 0.56799692 -1.8208016 4288085770
10.62433 0.74403608 -1.8392506 4288085770
16.106503 1.1020617 -1.9120693 4288085770
6.710218 0.47644222 -1.8165201 4288085770
16.672506 1.1178586 -1.9077388 4288085770
11.647355 0.79166663 -1.8576547 4288085770
11.121334 0.75185639 -1.8469592 4288085770
16.913496 1.1157734 -1.8925972 4288085770
8.2062502 0.55490398 -1.8266494 4288085770
11.650339 0.75866526 -1.852649 4288085770
17.87149 1.1334304 -1.878037 4288085770
6.8782082 0.46138132 -1.8154186 4288085770
17.388479 1.089602 -1.8903159 4288085770
12.087342 0.76750749 -1.8573933 4288085770
12.138333 0.75949013 -1.8463622 4288085770
8.4372387 0.53782052 -1.8235109 4288085770
19.096498 1.1599897 -1.8793211 4288085770
7.0601997 0.44631511 -1.8163087 4288085770
12.677328 0.76029652 -1.8410459 4288085770
18.355467 1.0712535 -1.888747 4288085770
12.495322 0.73936105 -1.8461502 4288085770
8.7262344 0.52371538 -1.8293388 4288085770
13.267323 0.75908446 -1.8366992 4288085770
7.2721953 0.43323773 -1.8211818 4288085770
19.510462 1.0568372 -1.8920686 4288085770
9.0412312 0.51060075 -1.8361516 4288085770
12.994308 0.71318114 -1.8418543 4288085770
14.045328 0.76280302 -1.8492432 4288085770
7.4771872 0.41916332 -1.8220589 4288085770
14.978343 0.76846486 -1.8706965 4288085770
9.3302193 0.49449641 -1.8339796 4288085770
13.615301 0.69095629 -1.8484875 4288085770
7.6841784 0.40408838 -1.8209347 4288085770
15.900344 0.76713192 -1.8791559 4288085770
9.6402111 0.47838449 -1.8317953 4288085770
7.9091702 0.38900688 -1.8208002 4288085770
14.4013 0.67167085 -1.8670247 4288085770
16.756332 0.75482464 -1.8686531 4288085770
9.9732008 0.46226448 -1.8285977 4288085770
8.1861658 0.37590584 -1.8286355 4288085770
15.248299 0.65036362 -1.8835258 4288085770
17.689318 0.7394895 -1.8571048 4288085770
10.416201 0.45010328 -1.8413361 4288085770
8.4481592 0.3618111 -1.8284795 4288085770
10.80319 0.43396389 -1.8371071 4288085770
18.937315 0.72803915 -1.8653728 4288085770
16.079288 0.62406355 -1.8860363 4288085770
8.7231522 0.34671161 -1.8283161 4288085770
11.291185 0.4197872 -1.8428192 4288085770
16.897268 0.59276927 -1.8775542 4288085770
9.0361462 0.33259824 -1.8311305 4288085770
11.783178 0.4046095 -1.8445292 4288085770
9.3351345 0.31749052 -1.8269531 4288085770
17.870255 0.56141877 -1.8739814 4288085770
12.292169 0.38842624 -1.840229 4288085770
9.6901283 0.30336213 -1.8287432 4288085770
19.133245 0.53296244 -1.8842397 4288085770
12.888162 0.37321118 -1.8418782 4288085770
10.053121 0.28823119 -1.8275285 4288085770
13.579158 0.35796148 -1.8474721 4288085770
5.1680689 0.16198722 -1.8213738 4288085770
10.466115 0.27408186 -1.8302848 4288085770
14.318151 0.34269482 -1.8500378 4288085770
5.2710614 0.14894974 -1.8203107 4288085770
10.92611 0.26091558 -1.8330138 4288085770
15.235154 0.32936308 -1.8635 4288085770
11.414103 0.24573952 -1.8337264 4288085770
5.3820543 0.13490918 -1.821243 4288085770
16.15415 0.31403184 -1.8649608 4288085770
11.955098 0.23154405 -1.8374082 4288085770
17.210144 0.29865122 -1.8673416 4288085770
5.491045 0.12086967 -1.8191764 4288085770
12.536093 0.21733439 -1.8390666 4288085770
18.440138 0.28320783 -1.871621 4288085770
13.199088 0.2030952 -1.8416773 4288085770
19.885136 0.26868653 -1.8807749 4288085770
5.6060371 0.106828 -1.8171065 4288085770
13.943086 0.18982643 -1.8482407 4288085770
14.792086 0.17551979 -1.8557428 4288085770
5.7360296 0.092780627 -1.818028 4288085770
15.755082 0.1621722 -1.8631787 4288085770
5.134027 0.077995904 -1.8263775 4288085770
16.796078 0.14779684 -1.8675686 4288085770
5.8780236 0.078728728 -1.8209424 4288085770
18.002081 0.13436183 -1.8748627 4288085770
16.713058 0.12382827 -1.8476149 4288085770
19.67207 0.1377632 -1.8538872 4288085770
17.927063 0.1293911 -1.8519059 4288085770
19.354071 0.13487703 -1.8590727 4288085770
15.64605 0.11621258 -1.8422376 4288085770
14.685043 0.10855895 -1.8347983 4288085770
18.219057 0.12128619 -1.8487346 4288085770
5.2460203 0.065955274 -1.8253096 4288085770
13.847038 0.099860631 -1.831287 4288085770
19.429079 0.12084714 -1.8840276 4288085770
16.996048 0.10472632 -1.8444475 4288085770
13.082029 0.090136252 -1.8257331 4288085770
6.0170169 0.064678259 -1.8208588 4288085770
12.415025 0.08037629 -1.8231217 4288085770
15.920039 0.089113377 -1.8420748 4288085770
11.823019 0.070589118 -1.8224666 4288085770
14.945029 0.073464505 -1.8356428 4288085770
5.3570118 0.052915074 -1.8232423 4288085770
11.281014 0.059784032 -1.8207821 4288085770
6.1610088 0.050626069 -1.8197721 4288085770
14.07202 0.057778917 -1.8291512 4288085770
10.80301 0.048955612 -1.8220599 4288085770
13.332011 0.04204496 -1.8275816 4288085770
16.885277 -2.4478102 -1.5117149 4293729569
6.3190303 -0.89756942 -1.8281187 4288085770
16.710297 -2.4398839 -1.60276 4293729569
16.934212 -2.496408 -1.2566284 4293729569
9.7407942 -1.428144 -1.8456476 4288085770
16.997118 -2.5226362 -0.77657449 4293729569
12.151608 -1.7990525 -1.7376156 4293729569
16.988062 -2.530112 -0.46456382 4293729569
12.059613 -1.7860043 -1.7336531 4293729569
7.4589438 -1.0920955 -1.8346007 4288085770
16.971045 -2.5359745 -0.38655752 4293729569
16.996119 -2.5427601 -0.8505429 4293729569
16.892256 -2.5349598 -1.5975754 4293729569
6.2140222 -0.9175263 -1.8301071 4288085770
16.728247 -2.5609326 -1.6245644 4293729569
11.72961 -1.7948689 -1.7407001 4293729569
9.5627794 -1.4610705 -1.8486286 4288085770
16.531252 -2.5638866 -1.6495961 4293729569
7.3179345 -1.1130363 -1.836594 4288085770
11.746602 -1.8118639 -1.7326699 4293729569
6.1060133 -0.93647838 -1.8300973 4288085770
11.341614 -1.7927059 -1.7467749 4293729569
16.140251 -2.5817912 -1.6966397 4293729569
16.831192 -2.6960328 -1.6543312 4293729569
7.1669273 -1.1299644 -1.8335953 4288085770
9.3757658 -1.4919879 -1.8486143 4288085770
11.398592 -1.8296942 -1.7237059 4293729569
6.0050054 -0.95543534 -1.8310864 4288085770
10.956617 -1.7855372 -1.7488576 4293729569
15.613256 -2.5736043 -1.7257499 4293729569
7.0259185 -1.1488985 -1.8315917 4288085770
16.754143 -2.805021 -1.6651725 4293729569
9.2097521 -1.5249181 -1.8505931 4288085770
11.024586 -1.8395009 -1.7077596 4293729569
10.532624 -1.7663339 -1.7409664 4293729569
5.8929973 -0.97238058 -1.8280807 4288085770
14.989274 -2.5413473 -1.738916 4293729569
6.90591 -1.1688485 -1.8335826 4288085770
10.276625 -1.7722499 -1.7590044 4293729569
9.0367393 -1.55484 -1.8495778 4288085770
16.736094 -2.9210401 -1.6789917 4293729569
10.667579 -1.8473135 -1.6908132 4293729569
14.166305 -2.4669507 -1.7231857 4293729569
5.8059893 -0.99334544 -1.8300641 4288085770
6.7879014 -1.1887981 -1.8345734 4288085770
9.9996262 -1.7721447 -1.7700559 4288085770
13.509328 -2.4136493 -1.7193915 4293729569
19.256845 -3.485265 -1.7266322 4293729569
8.9007235 -1.5897866 -1.8535479 4288085770
10.405569 -1.870187 -1.6848257 4293729569
16.657045 -3.0280201 -1.6858367 4293729569
5.7139807 -1.0123047 -1.8300515 4288085770
9.7686291 -1.7760699 -1.7870926 4288085770
12.795358 -2.3433003 -1.7026348 4293729569
6.6698923 -1.2087438 -1.833564 4288085770
18.406858 -3.4508665 -1.7158434 4293729569
8.7817078 -1.6257445 -1.8595133 4288085770
10.198555 -1.8990972 -1.6858183 4293729569
5.6289721 -1.0312669 -1.8300377 4288085770
9.5636292 -1.7830136 -1.8081197 4288085770
11.985394 -2.2468736 -1.6659372 4293729569
16.655994 -3.1470439 -1.6976482 4293729569
6.5648837 -1.2286991 -1.8345522 4288085770
9.3496304 -1.7849463 -1.8251565 4288085770
10.969447 -2.1022909 -1.591354 4293729569
17.668869 -3.4255266 -1.7100197 4293729569
8.6386938 -1.6566799 -1.8584912 4288085770
5.5449638 -1.0502295 -1.8300238 4288085770
10.000542 -1.9280096 -1.6858094 4293729569
16.576946 -3.2520187 -1.7014964 4293729569
6.4598742 -1.2486527 -1.8345406 4288085770
10.482469 -2.0530586 -1.5835221 4293729569
9.1336327 -1.7848749 -1.8401967 4288085770
17.009876 -3.407232 -1.7101704 4293729569
5.4779549 -1.0712067 -1.8340033 4288085770
8.4786825 -1.6836008 -1.8534786 4288085770
9.8185282 -1.958931 -1.6867943 4293729569
10.29947 -2.0610352 -1.6185436 4293729569
8.936636 -1.7848151 -1.8572335 4282675967
16.549894 -3.3690207 -1.7073159 4293729569
6.3608656 -1.2696085 -1.8345262 4288085770
10.098474 -2.0639956 -1.6485764 4293729569
8.72964 -1.7817457 -1.8712771 4282675967
16.356888 -3.3799348 -1.7073343 4293729569
5.3989468 -1.0901701 -1.8329885 4288085770
8.4066639 -1.7265897 -1.8654242 4282675967
9.6555138 -1.991864 -1.6897727 4293729569
6.2578573 -1.2875596 -1.8325171 4288085770
9.8794804 -2.0599408 -1.6746235 4293729569
8.5126448 -1.7726617 -1.8793318 4282675967
10.563316 -2.2113013 -1.1042563 4293729569
10.648177 -2.2401001 -0.360194 4293729569
10.521317 -2.2253563 -1.148242 4293729569
10.590225 -2.2445545 -0.64819819 4293729569
5.3329377 -1.1111457 -1.8359683 4288085770
9.6254902 -2.0448551 -1.6916946 4293729569
10.606166 -2.260057 -0.3451702 4293729569
10.537218 -2.2464657 -0.60920495 4293729569
8.3096466 -1.7645557 -1.8703824 4282675967
8.2576532 -1.7535453 -1.8784096 4282675967
9.5054979 -2.0268028 -1.6927456 4293729569
6.1688476 -1.3085203 -1.8325009 4288085770
10.45629 -2.2652419 -1.096191 4293729569
9.3665009 -2.0267608 -1.7047715 4293729569
10.525153 -2.2870057 -0.3351427 4293729569
7.9976635 -1.7304184 -1.8724945 4282675967
10.432302 -2.2723727 -1.1811845 4293729569
10.483211 -2.286566 -0.68315178 4293729569
5.261929 -1.1301128 -1.834952 4288085770
10.501146 -2.3130341 -0.35810611 4293729569
8.1406364 -1.7854589 -1.8573811 4282675967
9.3584833 -2.0597396 -1.6937209 4293729569
10.46719 -2.3084335 -0.6071201 4293729569
9.094512 -2.0026548 -1.7148603 4293729569
6.0858388 -1.3294851 -1.8334838 4288085770
7.7276745 -1.7022784 -1.8615894 4282675967
10.429258 -2.3362319 -1.0960839 4293729569
10.41328 -2.3344333 -1.22109 4293729569
10.484122 -2.3509524 -0.31304932 4293729569
10.442193 -2.3426132 -0.72107095 4293729569
8.8455248 -1.9805597 -1.7249416 4293729569
5.1949205 -1.1500846 -1.8359333 4288085770
7.5226817 -1.6861894 -1.8636532 4282675967
7.9116292 -1.7903099 -1.8294162 4288085770
9.2134686 -2.0926759 -1.693696 4293729569
10.467116 -2.3820477 -0.3740035 4293729569
6.00283 -1.3504484 -1.8334665 4288085770
10.445158 -2.3804259 -0.60701048 4293729569
8.5635405 -1.9494359 -1.7270434 4293729569
7.309691 -1.6660904 -1.8617249 4282675967
10.393261 -2.3954959 -1.2629974 4293729569
10.435172 -2.4056823 -0.76297277 4293729569
10.485085 -2.4249175 -0.28993231 4293729569
10.404226 -2.4072216 -1.0949767 4293729569
8.2915545 -1.9163117 -1.7261465 4293729569
7.106699 -1.6469954 -1.8597928 4282675967
5.9248195 -1.3714137 -1.8334484 4288085770
7.6756239 -1.7901509 -1.7974608 4288085770
9.092453 -2.1286273 -1.6966619 4293729569
10.480085 -2.4610884 -0.39287627 4293729569
10.479118 -2.4664471 -0.6088683 4293729569
8.093565 -1.899246 -1.7402104 4293729569
10.462147 -2.4767728 -0.80885553 4293729569
10.409235 -2.4655838 -1.3098838 4293729569
6.9197078 -1.6279109 -1.8598579 4282675967
10.538042 -2.5089071 -0.26778978 4293729569
10.477185 -2.5012701 -1.1028144 4293729569
7.8495793 -1.8681358 -1.7403053 4293729569
5.8518114 -1.392383 -1.8344293 4288085770
6.7207174 -1.605813 -1.8549303 4288085770
8.9514408 -2.1585619 -1.6946412 4293729569
7.4526186 -1.791001 -1.7675012 4288085770
7.6185918 -1.8390332 -1.7413945 4293729569
10.46321 -2.5437 -1.3637505 4293729569
6.5477262 -1.5867332 -1.8539928 4288085770
7.4076047 -1.812943 -1.7444752 4293729569
5.7798009 -1.4143496 -1.8334085 4288085770
6.3837337 -1.5686591 -1.8540522 4288085770
8.8634205 -2.2005339 -1.7005914 4293729569
7.2626119 -1.7968742 -1.7425276 4293729569
12.497996 -3.1261568 -1.6804514 4293729569
7.2546144 -1.7978972 -1.7585276 4288085770
6.2137432 -1.5475774 -1.8511174 4288085770
7.1526194 -1.7958947 -1.7845501 4288085770
5.7087913 -1.4343181 -1.8333907 4288085770
12.005018 -3.0739183 -1.6706258 4293729569
6.0517516 -1.5274992 -1.8481795 4288085770
7.0616241 -1.7948973 -1.8105688 4288085770
8.7594032 -2.2374914 -1.7025528 4293729569
7.1506 -1.8208129 -1.7355111 4293729569
5.9117603 -1.5104392 -1.8502328 4288085770
6.9766293 -1.7939074 -1.8395863 4288085770
11.585035 -3.0357244 -1.6677647 4293729569
5.6407819 -1.4562862 -1.8323691 4288085770
5.7577691 -1.4893612 -1.8452952 4288085770
6.8596368 -1.7838845 -1.8576243 4282675967
8.6593876 -2.2744493 -1.7035133 4293729569
7.0725856 -1.8517771 -1.7344772 4293729569
6.6966486 -1.7598157 -1.8606929 4282675967
5.6197777 -1.4702972 -1.8443512 4288085770
11.125058 -2.9804986 -1.6569377 4293729569
6.5206618 -1.7307346 -1.8597717 4282675967
5.478786 -1.4492249 -1.8394111 4288085770
5.5837722 -1.4792644 -1.834344 4288085770
6.3496747 -1.7016521 -1.8568499 4282675967
8.5543709 -2.3094015 -1.7024779 4293729569
6.9935713 -1.8827391 -1.7324435 4293729569
5.361794 -1.4331752 -1.8414586 4288085770
6.1826873 -1.6715711 -1.8539288 4288085770
10.848065 -2.9703944 -1.6690055 4293729569
5.2438016 -1.4171234 -1.8425062 4288085770
5.5207624 -1.500235 -1.8333232 4288085770
6.0326991 -1.6455015 -1.8529981 4288085770
5.1378098 -1.4010805 -1.8455515 4288085770
8.4623556 -2.3463631 -1.7034371 4293729569
5.8877106 -1.6194341 -1.8520665 4288085770
6.9235573 -1.9147083 -1.7324065 4293729569
10.39709 -2.9081657 -1.6541882 4293729569
5.7337236 -1.5893542 -1.846143 4288085770
5.4687519 -1.5232136 -1.8342972 4288085770
5.5907359 -1.5612826 -1.8422142 4288085770
5.4567475 -1.5352167 -1.8392806 4288085770
10.116101 -2.8890543 -1.663271 4293729569
8.4073343 -2.3933513 -1.7103734 4293729569
6.8205452 -1.936646 -1.7223915 4293729569
5.3377585 -1.5121626 -1.8393395 4288085770
5.2237682 -1.4891092 -1.8383974 4288085770
5.4157419 -1.5461919 -1.8352714 4288085770
5.1227779 -1.4690682 -1.8414481 4288085770
9.8121138 -2.8589208 -1.6653756 4293729569
8.3343172 -2.4333229 -1.7123243 4293729569
6.7635298 -1.9706227 -1.723349 4293729569
5.3737311 -1.5711783 -1.8382401 4288085770
9.5941191 -2.8508477 -1.6804295 4293729569
8.2752972 -2.4783044 -1.7162646 4293729569
6.697515 -2.0015891 -1.7203128 4293729569
9.3641291 -2.8357625 -1.6914963 4293729569
5.3267207 -1.595161 -1.8402116 4288085770
12.712638 -3.9123204 -1.7051694 4288085770
8.2222757 -2.5242884 -1.7202023 4293729569
6.6514988 -2.0385723 -1.7222636 4293729569
9.1111412 -2.8106565 -1.6965836 4293729569
5.2827096 -1.6191432 -1.8411826 4288085770
12.152686 -3.8040497 -1.6954452 4293729569
8.8301582 -2.7725263 -1.6946965 4293729569
8.2042522 -2.5802996 -1.7311175 4293729569
6.5814848 -2.0675333 -1.7172314 4293729569
11.628732 -3.7007968 -1.6867064 4293729569
5.2436986 -1.6441294 -1.843151 4288085770
8.6311665 -2.7574546 -1.7057579 4293729569
11.18277 -3.6185918 -1.6849198 4293729569
8.1562309 -2.6282847 -1.7340511 4293729569
6.5404682 -2.1045189 -1.7191811 4293729569
5.2036877 -1.6681134 -1.8441212 4288085770
8.4021797 -2.7303593 -1.7108439 4293729569
10.799802 -3.5504234 -1.688099 4293729569
8.0872145 -2.6672533 -1.7330017 4293729569
8.2511864 -2.7263219 -1.7288774 4293729569
6.5084519 -2.1445122 -1.7231233 4293729569
5.1696782 -1.6951041 -1.8470845 4288085770
10.440832 -3.4852672 -1.6922669 4293729569
8.0881939 -2.7152712 -1.742924 4288085770
8.0491915 -2.7162423 -1.735929 4293729569
10.11686 -3.4281282 -1.6974159 4293729569
5.1346679 -1.7200921 -1.8490505 4288085770
6.451438 -2.1754806 -1.7190833 4293729569
7.9212017 -2.7022181 -1.7559743 4288085770
9.7708912 -3.3589694 -1.6965883 4293729569
8.0091715 -2.7642305 -1.7388586 4288085770
