# .PCD v0.7 - Point Cloud Data file format
VERSION 0.7
FIELDS x y z rgb
SIZE 4 4 4 4
TYPE F F F U
COUNT 1 1 1 1
WIDTH 1098
HEIGHT 1
VIEWPOINT 0 0 0 1 0 0 0
POINTS 1098
DATA ascii
-2.5532227 4.7759027 -1.7194214 4288085770
0.033721924 6.2647943 -1.7031784 4288085770
-2.4655457 4.877244 -1.7162075 4288085770
0.19314575 6.4234076 -1.6990719 4288085770
-2.3537598 4.9926567 -1.7173443 4288085770
0.31137085 6.5588989 -1.6840801 4288085770
-2.2390442 5.1100912 -1.7174015 4288085770
0.46969604 6.7185249 -1.6750069 4288085770
-2.1063232 5.2395868 -1.7179756 4288085770
0.800354 6.9867373 -1.6882954 4288085770
-1.950592 5.3831635 -1.7219315 4288085770
1.0686646 7.2177505 -1.6892662 4288085770
-1.7767944 5.5387974 -1.7284012 4288085770
1.3318787 7.4457626 -1.6843739 4288085770
-1.6061096 5.6934414 -1.7299595 4288085770
1.6381226 7.7039261 -1.6833324 4288085770
-1.4284973 5.8521051 -1.7313271 4288085770
1.9842834 7.9882402 -1.6832218 4288085770
-1.2670593 5.9997311 -1.7261276 4288085770
2.3694458 8.2996969 -1.6840668 4288085770
-1.0815125 6.1634398 -1.7242832 4288085770
-0.87908936 6.338212 -1.7209854 4288085770
-0.67666626 6.5129919 -1.7166901 4288085770
-0.48043823 6.6827669 -1.705555 4288085770
-0.17196655 6.9289188 -1.7114182 4288085770
0.11035156 7.1559954 -1.7089748 4288085770
0.41760254 7.4001675 -1.7068691 4288085770
0.70367432 7.6282825 -1.6963215 4288085770
1.1138916 7.9418221 -1.701458 4288085770
1.5360107 8.2624245 -1.7022724 4288085770
9.4555359 -0.87414885 -1.6527443 4288085770
8.6022034 -0.89648581 -1.6800385 4288085770
7.8911133 -0.9233036 -1.7142696 4288085770
7.17276 -0.94112492 -1.7407246 4288085770
6.4732971 -0.95386028 -1.7626553 4288085770
5.1382141 -0.96508217 -1.8001995 4288085770
4.4711304 -0.95989752 -1.8047009 4288085770
10.298889 -1.5460172 -1.6547832 4288085770
3.8300476 -0.95259094 -1.8054886 4288085770
9.364624 -1.5290589 -1.6927319 4288085770
3.2178345 -0.94215488 -1.8034821 4288085770
8.4491272 -1.5049944 -1.7221756 4288085770
2.6828003 -0.93341112 -1.8063335 4288085770
7.6135254 -1.4815845 -1.7484016 4288085770
2.1626282 -0.92159176 -1.804781 4288085770
6.868042 -1.4608021 -1.7761269 4288085770
1.7518311 -0.91834879 -1.8141842 4288085770
6.1764526 -1.4387789 -1.7993584 4288085770
1.375061 -0.91496325 -1.8236408 4288085770
5.4616089 -1.4078274 -1.8142567 4288085770
0.93087769 -0.89981937 -1.8199921 4288085770
4.7595215 -1.3728023 -1.8228073 4288085770
0.5307312 -0.88649607 -1.8181171 4288085770
4.0441589 -1.3307962 -1.8207378 4288085770
0.18075562 -0.87597609 -1.8208485 4288085770
3.3395691 -1.2837305 -1.8133793 4288085770
-0.14916992 -0.86537457 -1.8240261 4288085770
2.7181702 -1.242321 -1.8077049 4288085770
-0.40380859 -0.86249352 -1.8381004 4288085770
2.164856 -1.2056389 -1.8061314 4288085770
-0.67663574 -0.85366344 -1.8446941 4288085770
1.7169189 -1.1785455 -1.8136215 4288085770
-0.98474121 -0.8379488 -1.8412762 4288085770
1.3200684 -1.1562467 -1.8236847 4288085770
-1.2477417 -0.82606459 -1.8436012 4288085770
0.91702271 -1.1289539 -1.8279285 4288085770
-1.4936218 -0.81511259 -1.8474503 4288085770
0.50283813 -1.0966864 -1.8254929 4288085770
-1.7366333 -0.80113983 -1.8482265 4288085770
0.10055542 -1.0633659 -1.8217297 4288085770
-1.9676208 -0.78811693 -1.8496704 4288085770
-0.17010498 -1.0475531 -1.8362827 4288085770
-2.192627 -0.77406454 -1.8489456 4288085770
-0.45690918 -1.0277891 -1.8452911 4288085770
-2.4086609 -0.75897551 -1.848978 4288085770
-0.75897217 -1.0020642 -1.8467331 4288085770
-2.6207275 -0.74286318 -1.8469009 4288085770
-1.0359192 -0.97924614 -1.8514748 4288085770
-2.7915649 -0.7326045 -1.8526707 4288085770
-1.3331299 -0.95048523 -1.8477879 4288085770
-2.9845886 -0.71641254 -1.8510685 4288085770
-1.5740662 -0.92851305 -1.8515301 4288085770
-3.2029419 -0.69529915 -1.8401718 4288085770
-1.8312378 -0.90158796 -1.8487301 4288085770
-3.400238 -0.67510509 -1.8316956 4288085770
-2.0440979 -0.88150454 -1.8546886 4288085770
-3.5440979 -0.66272688 -1.835722 4288085770
-2.280304 -0.85548592 -1.8503056 4288085770
-3.6990967 -0.64838028 -1.835062 4288085770
-2.5014343 -0.83041096 -1.8485031 4288085770
-3.8733215 -0.62909031 -1.8269405 4288085770
-2.6822815 -0.81119156 -1.8535728 4288085770
-4.0092773 -0.61467171 -1.8287544 4288085770
-2.9126892 -0.78212643 -1.8420334 4288085770
-3.0967407 -0.75890017 -1.841198 4288085770
-3.2929688 -0.73270702 -1.8347054 4288085770
-3.4661255 -0.71042871 -1.8315678 4288085770
-3.6190796 -0.69007635 -1.8318653 4288085770
-3.7772522 -0.66673422 -1.8283138 4288085770
-3.932373 -0.64437819 -1.8246765 4288085770
-4.063324 -0.62493801 -1.8263626 4288085770
-3.9839478 1.3727875 -1.7798405 4288085770
-3.8297424 1.3934135 -1.7837334 4288085770
-3.679657 1.4130373 -1.7837353 4288085770
-3.5245361 1.4326811 -1.7836037 4288085770
-3.3684692 1.451333 -1.7814407 4288085770
-3.2044067 1.4700193 -1.7800636 4288085770
-3.0303345 1.489748 -1.7784176 4288085770
-4.0448608 1.3564682 -1.7865791 4288085770
-2.8262024 1.5125885 -1.7809658 4288085770
-3.8946838 1.3720846 -1.7885704 4288085770
-2.6361084 1.5323858 -1.7788868 4288085770
-3.7455139 1.3867016 -1.7895851 4288085770
-2.4289856 1.5532503 -1.7783527 4288085770
-3.6015015 1.3983097 -1.7857304 4288085770
-2.2038574 1.5751848 -1.7783318 4288085770
-3.4464111 1.4109602 -1.7835789 4288085770
-1.9255066 1.6043158 -1.7878952 4288085770
-3.2531128 1.4287405 -1.790411 4288085770
-1.6794128 1.627346 -1.7863102 4288085770
-3.1051941 1.4383802 -1.782444 4288085770
-1.4595337 1.6442928 -1.7764168 4288085770
-2.9029541 1.4542093 -1.786026 4288085770
-1.1582947 1.6715345 -1.7803555 4288085770
-2.698761 1.4700508 -1.7885609 4288085770
-0.86419678 1.6957626 -1.7794781 4288085770
-2.5036621 1.4818726 -1.7853241 4288085770
-0.55706787 1.7200518 -1.7772465 4288085770
-2.3026123 1.4937191 -1.7819271 4288085770
-0.2210083 1.7454596 -1.7752342 4288085770
-2.0614014 1.5097132 -1.7844601 4288085770
0.1461792 1.7729893 -1.7763901 4288085770
-1.8292847 1.5216866 -1.7822227 4288085770
0.57846069 1.8067751 -1.7817993 4288085770
-1.5700684 1.5357647 -1.7832642 4288085770
0.96044922 1.8313894 -1.7755451 4288085770
-1.3139648 1.5478401 -1.7803802 4288085770
1.3664246 1.8561087 -1.7676449 4288085770
-1.0539246 1.5579386 -1.7753849 4288085770
1.8114319 1.8819876 -1.7606907 4288085770
-0.74066162 1.5732355 -1.7779694 4288085770
2.3175354 1.9131098 -1.7580967 4288085770
-0.41949463 1.5865774 -1.7773323 4288085770
2.857605 1.9433889 -1.751585 4288085770
-0.062164307 1.6020584 -1.7807236 4288085770
3.3693848 1.9675732 -1.7368183 4288085770
0.28192139 1.6135054 -1.7764606 4288085770
3.9823914 1.9971666 -1.7273312 4288085770
0.71530151 1.6312952 -1.7828045 4288085770
4.6794128 2.033102 -1.719593 4288085770
1.1113892 1.6409626 -1.7781296 4288085770
5.3623047 2.0610065 -1.7042122 4288085770
1.5184937 1.6496801 -1.7721577 4288085770
6.0960693 2.0901346 -1.6854553 4288085770
1.95755 1.6575356 -1.7653179 4288085770
6.8817444 2.1174898 -1.6632938 4288085770
2.4317017 1.6655283 -1.7585373 4288085770
7.7103882 2.1420336 -1.635973 4288085770
2.9669189 1.6747742 -1.7551041 4288085770
8.5949097 2.1668339 -1.6041298 4288085770
3.4929504 1.6800032 -1.7449055 4288085770
9.5403137 2.1879053 -1.567627 4288085770
4.0699768 1.6834478 -1.7343235 4288085770
10.674774 2.2177649 -1.5320377 4288085770
4.7412109 1.6892729 -1.7282028 4288085770
5.4212341 1.6911554 -1.7158318 4288085770
6.1121826 1.688096 -1.6991558 4288085770
6.8670959 1.6823139 -1.6797409 4288085770
7.606781 1.668499 -1.650713 4288085770
8.4856262 1.6572495 -1.6269341 4288085770
9.3903809 1.6381302 -1.5964298 4288085770
10.398132 1.6184444 -1.5651436 4288085770
-3.1186523 -4.0677757 -0.53101158 4293729569
-2.983429 -4.101881 -0.73148346 4293729569
-2.9924927 -4.0790377 -0.76683044 4293729569
-2.9099121 -4.1158438 -0.81255722 4293729569
-2.9028931 -4.098938 -0.84945679 4293729569
-2.9039001 -4.0750604 -0.88459396 4293729569
-2.8495789 -4.0869718 -0.92614746 4293729569
-2.7423401 -4.0863476 -0.5561676 4293729569
-2.7650757 -4.1157703 -0.97184563 4293729569
1.3712158 -6.8334069 -1.5744553 4293729569
-2.5907288 -4.1229792 -0.63609123 4293729569
1.063446 -6.5807314 -1.5844765 4293729569
-2.5727844 -4.1000209 -0.67071915 4293729569
-2.5810852 -4.1454248 -1.0989666 4293729569
-2.4985352 -4.1118364 -0.70874023 4293729569
-2.5732117 -4.1155047 -1.132885 4293729569
-2.5028687 -4.125351 -1.1750202 4293729569
-2.3570862 -4.1255035 -0.78600693 4293729569
-0.10336304 -5.6216531 -1.5916557 4293729569
-2.3211365 -4.1074638 -0.81914139 4293729569
-2.3249817 -4.1609058 -1.2652512 4293729569
-2.2560425 -4.1063137 -0.85544968 4293729569
-2.2557068 -4.1627531 -1.3064404 4293729569
-0.74954224 -5.0563841 -1.5956993 4293729569
-2.0523682 -4.1407328 -0.93699646 4293729569
-1.322113 -4.6495681 -1.5282078 4293729569
-1.9883118 -4.1315832 -0.9723568 4293729569
-1.5693054 -4.4465628 -1.5144367 4293729569
2.6177368 -6.8252153 -1.5636539 4293729569
-1.8599548 -4.2197022 -1.4888935 4293729569
-1.7304688 -4.1847878 -1.0574112 4293729569
-1.7192078 -4.2532854 -1.5410881 4293729569
2.0680237 -6.3425565 -1.5738525 4293729569
-1.4585876 -4.3534403 -1.6158943 4293729569
-1.5129395 -4.2031393 -1.1356449 4293729569
-1.5628052 -4.2358966 -1.6210575 4293729569
-1.4661255 -4.174047 -1.1665249 4293729569
-1.7075195 -4.096489 -1.6153622 4293729569
-1.2934875 -4.2134781 -1.2128525 4293729569
-1.753418 -4.0147266 -1.6278667 4293729569
-1.2034607 -4.204217 -1.2475262 4293729569
-1.6491394 -4.0174265 -1.6691265 4293729569
1.1472778 -5.4295335 -1.6053619 4293729569
-1.5307617 -4.025074 -1.7119942 4293729569
-0.93185425 -4.2303457 -1.3273029 4293729569
-1.4134521 -4.0297256 -1.7549019 4293729569
-0.77542114 -4.2498331 -1.3701248 4293729569
-1.2941284 -4.0333648 -1.7967567 4293729569
-0.65130615 -4.249433 -1.4058666 4293729569
-1.147644 -4.0489082 -1.8438587 4293729569
-1.0142822 -4.0544939 -1.8873386 4288085770
-0.42019653 -4.2326975 -1.4748554 4293729569
-0.97674561 -4.0074129 -1.9095211 4288085770
-0.12301636 -4.312655 -1.535759 4293729569
-1.0571899 -3.9007411 -1.9050159 4288085770
0.16009521 -4.3816614 -1.5940704 4293729569
-1.0842896 -3.8208749 -1.9100094 4288085770
0.1552124 -4.3047228 -1.6054726 4293729569
-1.2041626 -3.6953325 -1.8946056 4288085770
0.12915039 -4.2178583 -1.6124649 4293729569
-1.2464294 -3.6085119 -1.8940239 4288085770
0.13226318 -4.1438894 -1.6246452 4293729569
-1.2746277 -3.5276394 -1.89505 4288085770
0.22494507 -4.1105824 -1.6483269 4293729569
-1.303833 -3.4477663 -1.8951015 4288085770
0.40911865 -4.1179361 -1.6854534 4293729569
-1.3492432 -3.3599448 -1.8896027 4288085770
0.60943604 -4.1292295 -1.7251415 4293729569
-1.3734741 -3.2840481 -1.8885059 4288085770
0.82177734 -4.1444712 -1.7644997 4293729569
-1.3846436 -3.2131009 -1.8890495 4288085770
1.0491333 -4.160655 -1.80546 4293729569
-1.4028931 -3.139173 -1.885788 4288085770
1.2462463 -4.1609468 -1.8402672 4288085770
-1.4151306 -3.068224 -1.8843555 4288085770
1.3094788 -4.1017237 -1.8518085 4288085770
-1.4062195 -3.0061951 -1.8853378 4288085770
1.2861328 -4.0078182 -1.848753 4288085770
-1.4094543 -2.9392052 -1.8826561 4288085770
1.2677612 -3.9158857 -1.8445568 4288085770
-1.4127197 -2.8722129 -1.878973 4288085770
1.2633667 -3.8298943 -1.8399696 4288085770
-1.3836975 -2.8191047 -1.8813953 4288085770
1.3123779 -3.7637067 -1.8439083 4288085770
-1.3668823 -2.7590346 -1.8801613 4288085770
1.3431702 -3.6915817 -1.8433475 4288085770
-1.323822 -2.7098737 -1.8841972 4288085770
1.3679199 -3.6154752 -1.8409576 4288085770
-1.2989807 -2.6547699 -1.8827343 4288085770
1.4127808 -3.5482891 -1.8400078 4288085770
-1.2902527 -2.5917201 -1.8767223 4288085770
1.456604 -3.4791045 -1.8380928 4288085770
-1.2382507 -2.5455127 -1.8785114 4288085770
1.5214539 -3.4178367 -1.8375931 4288085770
-1.2013855 -2.4933572 -1.8767204 4288085770
1.602417 -3.3605065 -1.8386574 4288085770
-1.1473999 -2.4451389 -1.8774643 4288085770
1.6933594 -3.307137 -1.8404446 4288085770
-1.1005554 -2.3959417 -1.8753986 4288085770
1.793335 -3.2557249 -1.8409863 4288085770
-1.0375671 -2.3516984 -1.8758888 4288085770
1.9104004 -3.207263 -1.8440609 4288085770
-0.98068237 -2.30446 -1.8735466 4288085770
2.0253601 -3.1567888 -1.8441963 4288085770
-0.93188477 -2.2542481 -1.8694286 4288085770
2.1483459 -3.109282 -1.845108 4288085770
-0.84786987 -2.2129049 -1.8703518 4288085770
2.2843018 -3.061717 -1.8446808 4288085770
-0.7628479 -2.1715531 -1.8702469 4288085770
2.4473877 -3.0210495 -1.8475094 4288085770
-0.70407104 -2.1222959 -1.8648605 4288085770
2.6235046 -2.9833255 -1.8499889 4288085770
-0.63522339 -2.0759959 -1.8591995 4288085770
2.8106384 -2.9455576 -1.8531742 4288085770
-0.53927612 -2.034595 -1.8578072 4288085770
3.0238037 -2.9136848 -1.8576546 4288085770
-0.44540405 -1.9931979 -1.8544674 4288085770
3.2399902 -2.8787947 -1.861063 4288085770
-0.33538818 -1.9547396 -1.853693 4288085770
3.4690857 -2.845849 -1.8631248 4288085770
-0.25360107 -1.9093809 -1.8466873 4288085770
3.7343445 -2.81776 -1.8682156 4288085770
-0.15777588 -1.864965 -1.8403072 4288085770
4.0256348 -2.7945657 -1.8746033 4288085770
-0.034851074 -1.8264461 -1.8371906 4288085770
4.2947693 -2.7624483 -1.8756027 4288085770
0.096099854 -1.789896 -1.834856 4288085770
4.59198 -2.7342162 -1.8778496 4282675967
0.25213623 -1.7562494 -1.8348522 4288085770
4.842804 -2.6911478 -1.870369 4288085770
0.42022705 -1.7245569 -1.8365231 4288085770
5.081543 -2.6451211 -1.860218 4288085770
0.61340332 -1.6967621 -1.8395176 4288085770
5.3724365 -2.6058841 -1.8526669 4288085770
0.79644775 -1.6640034 -1.8397961 4288085770
5.676239 -2.5645895 -1.8437786 4288085770
0.99853516 -1.6321607 -1.8395672 4288085770
5.9770203 -2.5213008 -1.8329792 4288085770
1.2126465 -1.601275 -1.8410187 4288085770
6.3228455 -2.4818239 -1.8219776 4288085770
1.4095459 -1.5654407 -1.8359413 4288085770
6.7217407 -2.4491343 -1.8145504 4288085770
1.6295776 -1.5305171 -1.83325 4288085770
7.1416931 -2.4153528 -1.8055725 4288085770
1.8474426 -1.4935884 -1.826622 4288085770
7.5503845 -2.3766007 -1.790905 4288085770
2.0894165 -1.4595704 -1.8233471 4288085770
7.8636475 -2.3182073 -1.7638206 4288085770
2.3614502 -1.4264278 -1.8202744 4288085770
8.3614502 -2.2840796 -1.7487831 4288085770
2.699707 -1.4020295 -1.8244267 4288085770
8.8761597 -2.2468781 -1.7323112 4288085770
3.0348206 -1.372633 -1.8246784 4288085770
9.4749756 -2.2163296 -1.7175961 4288085770
3.3899841 -1.3421497 -1.8244038 4288085770
10.00238 -2.1700401 -1.690815 4288085770
3.8193054 -1.3193793 -1.8311462 4288085770
10.802521 -2.1546664 -1.6817322 4288085770
4.2655945 -1.2935266 -1.8344517 4288085770
4.6806335 -1.2597823 -1.8306065 4288085770
5.1677551 -1.2277427 -1.8288517 4288085770
5.6145935 -1.1878448 -1.8191833 4288085770
6.0904236 -1.1468186 -1.8067551 4288085770
6.5440674 -1.0998673 -1.7889328 4288085770
7.0737305 -1.0546002 -1.7720966 4288085770
7.6002808 -1.0053344 -1.7513542 4288085770
8.1567078 -0.95092487 -1.7248402 4288085770
8.79422 -0.89918518 -1.7011776 4288085770
9.4957275 -0.84617186 -1.675827 4288085770
10.426575 -0.80123234 -1.6613941 4288085770
10.57959 2.524353 -1.5104294 4288085770
10.031677 2.5939913 -1.5288849 4288085770
9.5137939 2.6617584 -1.5455532 4288085770
9.0820007 2.7348785 -1.5660095 4288085770
8.6851196 2.8071527 -1.5835533 4288085770
8.2010498 2.8630943 -1.5913048 4288085770
7.8101196 2.9274073 -1.6036682 4288085770
7.4120789 2.9857054 -1.6121922 4288085770
6.9949036 3.0359459 -1.6141853 4288085770
1.2323303 2.2034082 -1.1006432 4293729569
1.1816711 2.2681265 -1.1201859 4293729569
0.53070068 2.2275248 -1.0789185 4293729569
0.22637939 2.2422733 -1.0688591 4293729569
0.98269653 2.4008627 -0.62964058 4293729569
-0.08291626 2.2520075 -1.0569115 4293729569
0.61767578 2.4023256 -0.62911224 4293729569
-0.33914185 2.2669554 -1.0486107 4293729569
0.26165771 2.4018316 -0.62734795 4293729569
-0.5944519 2.2799129 -1.0372734 4293729569
0.054748535 2.4279451 -0.63180733 4293729569
-0.82369995 2.2959757 -1.0282707 4293729569
-0.28839111 2.4225168 -0.62668991 4293729569
-1.0058594 2.318224 -1.0230751 4293729569
-0.35723877 2.4721899 -0.63664818 4293729569
-1.2321472 2.3283052 -1.0109749 4293729569
-0.29293823 2.5534 -0.65426445 4293729569
-1.4284058 2.3425093 -1.001112 4293729569
0.72924805 2.8604326 -0.73282433 4293729569
-1.5966187 2.3598223 -0.99353409 4293729569
-1.0994568 2.4890966 -0.62495995 4293729569
-1.7056885 2.3923664 -0.99147415 4293729569
-1.1493835 2.5388622 -0.63142776 4293729569
-1.9089966 2.39855 -0.97776604 4293729569
-0.63272095 2.7328844 -0.67570305 4293729569
-2.031189 2.4230537 -0.97101784 4293729569
-0.6796875 2.786664 -0.68110657 4293729569
-2.1393127 2.4496098 -0.96691322 4293729569
-0.63458252 2.8638124 -0.69220352 4293729569
-2.1753235 2.4954462 -0.96900749 4293729569
0.02911377 3.1164179 -0.74686623 4293729569
-2.2373962 2.533186 -0.96774673 4293729569
-1.3092041 2.8010817 -0.65748215 4293729569
-2.2844849 2.5749798 -0.96811104 4293729569
0.76080322 3.4742718 -0.81212807 4293729569
-2.3335571 2.6147718 -0.96652031 4293729569
0.70767212 3.5360374 -0.81371689 4293729569
-2.4026794 2.6484919 -0.96242905 4293729569
0.55844116 3.5674295 -0.80669212 4293729569
-2.3887024 2.7085285 -0.96727371 4293729569
-1.3683472 3.030776 -0.66880608 4293729569
-2.441803 2.7463121 -0.96377945 4293729569
-0.47567749 3.3833046 -0.73587227 4293729569
-2.408783 2.8124256 -0.97014999 4293729569
-0.50085449 3.4441977 -0.73473358 4293729569
-2.4569397 2.8512325 -0.9655323 4293729569
-0.51498413 3.5081348 -0.73431778 4293729569
-2.4780884 2.8981457 -0.96324158 4293729569
-0.51516724 3.5771322 -0.73355865 4293729569
-2.4360962 2.9683018 -0.96839333 4293729569
-1.3379822 3.3528728 -0.67012215 4293729569
-2.4542847 3.0172329 -0.96403313 4293729569
-0.33151245 3.7808685 -0.74149132 4293729569
-2.4544373 3.0712318 -0.96222115 4293729569
-0.42581177 3.8164997 -0.73105621 4293729569
-2.4645996 3.1221972 -0.95865822 4293729569
-1.1025391 3.6298285 -0.6769619 4293729569
-2.4417419 3.1872892 -0.95828629 4293729569
-1.3229065 3.6109648 -0.65560913 4293729569
-2.4549866 3.2372475 -0.9518013 4293729569
-1.2772217 3.6921606 -0.65270042 4293729569
-2.4352112 3.3013344 -0.94950485 4293729569
-1.1264343 3.8157787 -0.65621185 4293729569
-2.4284668 3.3583765 -0.94352341 4293729569
-1.171875 3.8616228 -0.64354324 4293729569
-2.3826294 3.433567 -0.94259071 4293729569
-2.3799438 3.4905996 -0.93471336 4293729569
-2.3663025 3.5536757 -0.92757416 4293729569
-2.3114929 3.6339073 -0.92542648 4293729569
-2.2878723 3.701026 -0.91703987 4293729569
-2.2181702 3.7883272 -0.91352844 4293729569
-2.1334839 3.8846865 -0.91065979 4293729569
-2.0388489 3.9860897 -0.9075489 4293729569
4.9545288 7.4150419 -1.6639862 4288085770
5.1806335 7.6360121 -1.6568699 4288085770
5.4486694 7.8821468 -1.65275 4288085770
5.7567139 8.1514482 -1.6496716 4288085770
10.028839 -0.17162418 -1.6406174 4288085770
8.8973999 -0.18848181 -1.6684914 4288085770
7.9931335 -0.20640516 -1.7025585 4288085770
7.1568909 -0.22103167 -1.7338982 4288085770
6.3764648 -0.2314105 -1.7608223 4288085770
5.6108704 -0.23869944 -1.7793713 4288085770
4.8279114 -0.23802328 -1.7863865 4288085770
4.0918579 -0.23613644 -1.7891998 4288085770
9.6193848 -0.49143219 -1.6533203 4288085770
3.4609985 -0.23582315 -1.7973251 4288085770
8.5479736 -0.47905397 -1.6857433 4288085770
2.8780823 -0.23330402 -1.8042316 4288085770
7.6706848 -0.47087097 -1.7221966 4288085770
2.29599 -0.22675657 -1.8031273 4288085770
6.8152161 -0.45757103 -1.7511044 4288085770
1.7940369 -0.22289133 -1.8079662 4288085770
6.0386658 -0.4449296 -1.7769909 4288085770
1.3994141 -0.22160721 -1.8230667 4288085770
5.2127686 -0.42544842 -1.7881527 4288085770
0.95947266 -0.21547604 -1.8263283 4288085770
4.4025269 -0.40286636 -1.7889175 4288085770
0.4932251 -0.20542049 -1.8192711 4288085770
3.7044983 -0.38282967 -1.7948112 4288085770
0.14239502 -0.19992685 -1.8262577 4288085770
3.0925598 -0.36443186 -1.8015022 4288085770
-0.19647217 -0.19337416 -1.8309422 4288085770
2.4833984 -0.34400368 -1.802124 4288085770
-0.52545166 -0.1857729 -1.8333759 4288085770
1.9744263 -0.32717228 -1.8081818 4288085770
-0.82836914 -0.17706299 -1.8361454 4288085770
1.535675 -0.31206226 -1.8194447 4288085770
-1.1032104 -0.17024279 -1.8411942 4288085770
1.112793 -0.29687357 -1.8272972 4288085770
-1.3640747 -0.1623621 -1.8458881 4288085770
0.64053345 -0.27584743 -1.8214245 4288085770
-1.6421509 -0.15153313 -1.8440285 4288085770
0.25149536 -0.25949717 -1.8234158 4288085770
-1.8992004 -0.14161205 -1.841629 4288085770
-0.085388184 -0.24394369 -1.8300743 4288085770
-2.1119995 -0.13253212 -1.8471012 4288085770
-0.40631104 -0.22931385 -1.8343201 4288085770
-2.3430481 -0.12250423 -1.8450375 4288085770
-0.71524048 -0.21363068 -1.8372631 4288085770
-2.5571289 -0.11140299 -1.8425426 4288085770
-1.0001831 -0.19885063 -1.8415928 4288085770
-2.768158 -0.10028934 -1.8399715 4288085770
-1.2812195 -0.18203878 -1.8418255 4288085770
-2.9571533 -0.090090752 -1.8398342 4288085770
-1.538147 -0.16713524 -1.8444386 4288085770
-3.1461792 -0.078884602 -1.8376999 4288085770
-1.8143005 -0.14928436 -1.8385468 4288085770
-3.3121338 -0.068590641 -1.8379765 4288085770
-2.0382385 -0.13424206 -1.8413162 4288085770
-3.4911804 -0.056336403 -1.8335896 4288085770
-2.2753296 -0.11823654 -1.8384228 4288085770
-3.6461792 -0.045991421 -1.8325844 4288085770
-2.4954224 -0.10215807 -1.8350964 4288085770
-3.8012085 -0.033644676 -1.8305874 4288085770
-2.6853638 -0.087975025 -1.8379974 4288085770
-3.934082 -0.023221493 -1.8340168 4288085770
-2.8823853 -0.071803093 -1.8360806 4288085770
-3.0785217 -0.055623531 -1.8321419 4288085770
-3.2565918 -0.040367126 -1.8287373 4288085770
-3.4125366 -0.026032925 -1.829771 4288085770
-3.5453491 -0.013616562 -1.8352089 4288085770
-3.7084961 0.0027060509 -1.8304253 4288085770
-3.8595581 0.018078327 -1.8263321 4288085770
-4.0196228 2.0538435 -1.7784462 4288085770
-3.8996887 2.0783567 -1.7745075 4288085770
-3.7696533 2.1039047 -1.772316 4288085770
-3.6286316 2.1314974 -1.7708569 4288085770
-3.4856262 2.1590986 -1.7693481 4288085770
-3.3425903 2.1847057 -1.7658329 4288085770
-3.1865845 2.2123604 -1.7639961 4288085770
-2.9843445 2.2521801 -1.7720337 4288085770
-3.9822693 2.0029392 -1.7824478 4288085770
-2.7832031 2.2890053 -1.777092 4288085770
-3.8583069 2.0204687 -1.7783871 4288085770
-2.5971375 2.3207846 -1.7765121 4288085770
-3.7202148 2.0410442 -1.7779808 4288085770
-2.3830261 2.357666 -1.7802429 4288085770
-3.572113 2.061657 -1.7793236 4288085770
-2.1598816 2.3955879 -1.7837486 4288085770
-3.3958435 2.0893707 -1.7859802 4288085770
-2.1467896 2.3747883 -1.7373562 4288085770
-3.2910767 2.0958538 -1.7713661 4288085770
-2.1156921 2.3590565 -1.6935253 4293729569
-3.125946 2.1175394 -1.7722836 4288085770
-1.9147949 2.3859138 -1.6875553 4293729569
-2.9337463 2.1443253 -1.7775364 4288085770
-1.9107361 2.361084 -1.6393757 4293729569
-2.7475891 2.1670933 -1.7799282 4288085770
-1.8183289 2.3565674 -1.6080399 4293729569
-2.5644836 2.1878595 -1.7793903 4288085770
-1.7570801 2.3439455 -1.569458 4293729569
-2.3603516 2.2117062 -1.7813358 4288085770
-1.5924683 2.3546982 -1.5493507 4293729569
-2.1290894 2.2396545 -1.7876091 4288085770
-1.4890442 2.349227 -1.518734 4293729569
-1.9240417 2.2585173 -1.7855129 4288085770
-1.422821 2.3336287 -1.4790211 4293729569
-1.7169495 2.2763948 -1.7823639 4288085770
-1.2893677 2.3322725 -1.4516602 4293729569
-1.4798584 2.2993841 -1.7824764 4288085770
-1.1438599 2.3319693 -1.4239998 4293729569
-1.2357178 2.320405 -1.7824039 4288085770
-1.0184326 2.325593 -1.3928261 4293729569
-0.99069214 2.3394403 -1.7793064 4288085770
-0.92416382 2.3101082 -1.3544083 4293729569
-0.72155762 2.3615665 -1.7796078 4288085770
-0.83285522 2.2936087 -1.3170605 4293729569
-0.46453857 2.3766603 -1.7741947 4288085770
-0.71554565 2.2802086 -1.2820683 4293729569
-0.16436768 2.3989143 -1.7747173 4288085770
-0.56808472 2.2719288 -1.2503338 4293729569
0.13272095 2.4171667 -1.7723064 4288085770
-0.39260864 2.2677536 -1.2219086 4293729569
0.45480347 2.4375229 -1.7702732 4288085770
-0.26528931 2.2514009 -1.1856556 4293729569
0.75378418 2.4487972 -1.7627945 4288085770
-0.038696289 2.2524309 -1.1599617 4293729569
0.60818481 2.3724461 -1.6812172 4293729569
0.13265991 2.2402592 -1.1256142 4293729569
0.55993652 2.313447 -1.6162472 4293729569
0.36218262 2.2373114 -1.0968323 4293729569
0.53579712 2.2605295 -1.5576935 4293729569
0.57662964 2.2283106 -1.0654125 4293729569
0.75143433 2.2495117 -1.5332394 4293729569
0.74691772 2.2091446 -1.0270729 4293729569
0.95800781 2.2334633 -1.5059967 4293729569
1.0795898 2.2146139 -1.0037231 4293729569
1.140564 2.211319 -1.4763393 4293729569
8.8518982 3.4363871 -1.5970039 4288085770
3.5433044 2.5476103 -1.7259808 4288085770
9.7124939 3.4820852 -1.5715008 4288085770
4.0113525 2.553606 -1.7162342 4288085770
10.472748 3.5004158 -1.5294323 4288085770
4.556488 2.5659084 -1.7115688 4288085770
5.0534058 2.5650396 -1.6970768 4288085770
5.5663452 2.5602484 -1.6801682 4288085770
6.1343079 2.5566759 -1.6658802 4288085770
6.754303 2.5523243 -1.6522808 4288085770
7.4263306 2.5491858 -1.6393795 4288085770
8.0742798 2.5339718 -1.6190453 4288085770
8.7090454 2.5107203 -1.5930195 4288085770
9.3267517 2.4774113 -1.5623913 4288085770
10.030518 2.4444599 -1.5335999 4288085770
10.834412 2.412921 -1.5072956 4288085770
2.6543579 -5.1334853 -0.082012177 4293729569
2.6217651 -5.2067604 -0.12163925 4293729569
-1.0986023 -4.157732 -0.50843048 4293729569
-1.1795654 -4.1661968 -0.5444622 4293729569
-1.2786255 -4.1617336 -0.57898521 4293729569
-1.456665 -4.1587229 -0.64850998 4293729569
-1.5416565 -4.1552052 -0.68467712 4293729569
-1.7137756 -4.1431684 -0.75407982 4293729569
-1.8118591 -4.1267004 -0.78861618 4293729569
-1.7913818 -4.1797705 -0.83397293 4293729569
-1.9776306 -4.1437874 -0.90180016 4293729569
-2.0647888 -4.1252728 -0.93606758 4293729569
-2.0683594 -4.1200256 -0.54906082 4293729569
-2.0603333 -4.1624069 -0.98087311 4293729569
-2.1102295 -4.1243401 -0.58912659 4293729569
2.1573181 -6.8326616 -1.5713749 4293729569
1.6804199 -6.5816913 -1.578104 4293729569
-2.2413025 -4.1415491 -1.0915546 4293729569
-2.2428894 -4.1203079 -0.70855141 4293729569
-2.2489929 -4.1637335 -1.1357117 4293729569
-2.2365417 -4.1474314 -0.75234032 4293729569
-2.3190918 -4.1451454 -1.1695499 4293729569
-2.3176575 -4.1168976 -0.7884922 4293729569
-2.3268127 -4.1633291 -1.2137203 4293729569
-2.3244324 -4.1330709 -0.83064461 4293729569
-0.32489014 -5.4821863 -1.5937557 4293729569
-2.3200989 -4.153203 -0.87450981 4293729569
-0.66168213 -5.2896075 -1.5947895 4293729569
-0.95422363 -5.1218548 -1.5986423 4293729569
2.4863586 -7.2913303 -1.5659809 4293729569
-1.2348328 -4.9590483 -1.6021767 4293729569
1.9691467 -6.9765244 -1.5719051 4293729569
-2.0386963 -4.4470901 -1.4998322 4293729569
1.4859619 -6.6805701 -1.575922 4293729569
-2.4959717 -4.1598749 -1.4571514 4293729569
1.0801086 -6.429307 -1.5848656 4293729569
-2.5198669 -4.1561146 -1.4977913 4293729569
0.70132446 -6.1929297 -1.5930882 4293729569
-2.3087769 -4.3045316 -1.5881081 4293729569
0.22167969 -5.8869061 -1.5810356 4293729569
-2.4002686 -4.2520051 -1.6135826 4293729569
-0.098999023 -5.6812792 -1.5877075 4293729569
-2.5896606 -4.1318159 -1.6167049 4293729569
-0.40768433 -5.4805984 -1.5930634 4293729569
-2.750824 -4.0275226 -1.624073 4293729569
-0.71246338 -5.2808847 -1.5943146 4293729569
-2.8313293 -3.9759414 -1.6472683 4293729569
-0.99118042 -5.0950665 -1.5958729 4293729569
-2.8412476 -3.9691215 -1.6875706 4293729569
-1.2397461 -4.9271259 -1.5996208 4293729569
-2.8239136 -3.9782038 -1.7331448 4293729569
-1.6496887 -4.6527524 -1.5697136 4293729569
-2.8268127 -3.9723539 -1.7732677 4293729569
-2.8095398 -3.9774368 -1.8188515 4293729569
-2.2723694 -4.2262535 -1.532608 4293729569
-2.8043518 -3.9735584 -1.8607693 4293729569
-2.0836792 -4.3357325 -1.612606 4293729569
-2.7941895 -3.9706628 -1.9035587 4288085770
-2.2843323 -4.1915703 -1.6100788 4293729569
-2.8941345 -3.8921232 -1.91432 4288085770
-2.4385986 -4.0752411 -1.6153126 4293729569
-3.0194092 -3.7956591 -1.9157639 4288085770
-2.5516052 -3.9857557 -1.6264305 4293729569
-3.140686 -3.7011769 -1.9171009 4288085770
-2.5274353 -3.9807971 -1.6678772 4293729569
-3.2954102 -3.5837948 -1.9053383 4288085770
-2.4830933 -3.9877667 -1.7137871 4293729569
-3.4127808 -3.4892836 -1.9025784 4288085770
-2.4458923 -3.987762 -1.7578964 4293729569
-3.5211182 -3.3997393 -1.9015751 4288085770
-2.3894958 -3.9976871 -1.8054943 4293729569
-3.6264648 -3.3111782 -1.8984928 4288085770
-2.3442383 -3.9986475 -1.8494015 4293729569
-3.7176819 -3.231564 -1.8980331 4288085770
-2.3091125 -3.9916408 -1.8905811 4288085770
-3.8008728 -3.1549206 -1.8983631 4288085770
-2.3598328 -3.9289167 -1.9080677 4288085770
-3.8831482 -3.0792694 -1.8976669 4288085770
-2.4630432 -3.8333642 -1.9109592 4288085770
-3.9735107 -2.9976363 -1.892189 4288085770
-2.5784912 -3.7308462 -1.9081764 4288085770
-4.0396729 -2.9309225 -1.8930626 4288085770
-2.7020264 -3.6233449 -1.9006062 4288085770
-2.7852478 -3.5387075 -1.9029636 4288085770
-2.8735046 -3.4500818 -1.9024582 4288085770
-2.9598083 -3.3634443 -1.900898 4288085770
-3.0401001 -3.2787809 -1.8991814 4288085770
-3.1174011 -3.1971025 -1.8963776 4288085770
-3.1897278 -3.1174021 -1.893446 4288085770
-3.2539673 -3.0436702 -1.8912945 4288085770
-3.3192749 -2.9669366 -1.8871765 4288085770
-3.3684692 -2.9011469 -1.8866253 4288085770
-3.4157104 -2.8343458 -1.8850288 4288085770
-3.4588623 -2.7705302 -1.8843212 4288085770
-3.5010681 -2.7077045 -1.8815861 4288085770
-3.5301514 -2.6508355 -1.8825054 4288085770
-3.5663452 -2.5909839 -1.8796101 4288085770
-3.5955505 -2.5341039 -1.877533 4288085770
-3.6186829 -2.4802041 -1.8762932 4288085770
-3.6337585 -2.4302754 -1.8768444 4288085770
-3.6569519 -2.377368 -1.8736038 4288085770
-3.6629333 -2.3314023 -1.8749161 4288085770
-3.6760864 -2.2824559 -1.8724136 4288085770
-3.6953125 -2.2305298 -1.8680706 4288085770
-3.6812439 -2.1924868 -1.8718586 4288085770
-3.6843262 -2.1475015 -1.8700962 4288085770
-3.6763611 -2.1074777 -1.8710403 4288085770
-3.6703796 -2.0654583 -1.8710423 4288085770
-3.6584167 -2.026413 -1.8708858 4288085770
-3.6514893 -1.9843831 -1.8688622 4288085770
-3.6295166 -1.9492993 -1.8694458 4288085770
-3.6176147 -1.9102488 -1.8672905 4288085770
-3.5965881 -1.8741655 -1.8668995 4288085770
-3.574646 -1.8390756 -1.8654842 4288085770
-3.5466614 -1.8039627 -1.8649178 4288085770
-3.521759 -1.768856 -1.8624268 4288085770
-3.4847107 -1.7377105 -1.8636246 4288085770
-3.4527283 -1.7045774 -1.8619537 4288085770
-3.4077148 -1.6753988 -1.8629456 4288085770
-3.3616943 -1.6462111 -1.862915 4288085770
-3.3267517 -1.6130586 -1.859169 4288085770
-3.2697144 -1.5858312 -1.8608608 4288085770
-3.2116394 -1.5595965 -1.8615227 4288085770
-3.1586609 -1.5303769 -1.8603191 4288085770
-3.0975647 -1.5031281 -1.8609085 4288085770
-3.0396118 -1.475884 -1.8585758 4288085770
-2.9534302 -1.4555449 -1.8635254 4288085770
-2.8874512 -1.4282665 -1.8609943 4288085770
-2.8224792 -1.3999891 -1.8574905 4288085770
-2.741394 -1.3756557 -1.8575783 4288085770
-2.6452637 -1.3552675 -1.860281 4288085770
-3.9433899 -1.0196648 -1.8465004 4288085770
-2.5582581 -1.3309064 -1.8592205 4288085770
-3.8813782 -0.99740648 -1.8450527 4288085770
-2.4591675 -1.3094988 -1.8598537 4288085770
-3.8143921 -0.97512722 -1.8434792 4288085770
-2.3379211 -1.2920127 -1.8649292 4288085770
-3.7301941 -0.95679092 -1.8464718 4288085770
-2.2470093 -1.2666254 -1.8607769 4288085770
-3.650116 -0.93646383 -1.8475685 4288085770
-2.1106873 -1.2510829 -1.8674717 4288085770
-3.5831604 -0.91217566 -1.8430042 4288085770
-1.9886169 -1.231576 -1.8675308 4288085770
-3.4506836 -0.90367508 -1.8577728 4288085770
-1.8725891 -1.2090912 -1.8657513 4288085770
-3.3938293 -0.87641191 -1.848465 4288085770
-1.7616272 -1.1846166 -1.8611012 4288085770
-3.291748 -0.85799599 -1.8500137 4288085770
-1.6316223 -1.1630692 -1.8579693 4288085770
-3.1694336 -0.8435111 -1.8570518 4288085770
-1.4825439 -1.1444516 -1.8583622 4288085770
-3.0441895 -0.82901335 -1.863018 4288085770
-1.3525696 -1.1208963 -1.8532391 4288085770
-2.9663391 -0.80366373 -1.854187 4288085770
-1.1854553 -1.1032057 -1.8541832 4288085770
-2.8432007 -0.78616476 -1.8572159 4288085770
-1.0203552 -1.0845175 -1.853178 4288085770
-2.7210693 -0.76866245 -1.8582687 4288085770
-0.8442688 -1.0667815 -1.851902 4288085770
-2.6120605 -0.74719667 -1.8536568 4288085770
-0.65618896 -1.0489941 -1.8503265 4288085770
-2.493103 -0.72769499 -1.8507938 4288085770
-0.46820068 -1.0302024 -1.8467579 4288085770
-2.3499146 -0.71010637 -1.8523273 4288085770
-0.26412964 -1.0113463 -1.8447933 4288085770
-2.1917725 -0.69345665 -1.8544884 4288085770
-0.10638428 -0.9846468 -1.8309956 4288085770
-2.0557861 -0.67288017 -1.8502102 4288085770
0.11459351 -0.96570969 -1.8256149 4288085770
-1.8805847 -0.65716362 -1.8539486 4288085770
0.37075806 -0.94964123 -1.8253555 4288085770
-1.7084351 -0.63944817 -1.8537693 4288085770
0.6378479 -0.93352032 -1.8228264 4288085770
-1.537384 -0.62073135 -1.8516178 4288085770
0.96920776 -0.92415857 -1.8286915 4288085770
-1.3623962 -0.59998989 -1.8473778 4288085770
1.2893982 -0.90982342 -1.8288498 4288085770
-1.1653137 -0.58216476 -1.8455849 4288085770
1.5682373 -0.8896265 -1.8180447 4288085770
-0.95422363 -0.56528711 -1.8454399 4288085770
1.9002991 -0.87222576 -1.8129177 4288085770
-0.75021362 -0.54442167 -1.8404865 4288085770
2.2472229 -0.85474968 -1.8044243 4288085770
-0.50408936 -0.52739763 -1.8404789 4288085770
2.6834717 -0.84293318 -1.8057117 4288085770
-0.24795532 -0.51032925 -1.8402271 4288085770
3.1707764 -0.83390379 -1.8077297 4288085770
-0.0019836426 -0.48928547 -1.8342381 4288085770
3.6398621 -0.81892824 -1.8022175 4288085770
0.23791504 -0.46825552 -1.8243999 4288085770
4.2132263 -0.81154156 -1.8051071 4288085770
0.52593994 -0.44804287 -1.8203716 4288085770
4.8013916 -0.80007219 -1.8016472 4288085770
0.92642212 -0.43640709 -1.8315468 4288085770
5.4164734 -0.7874794 -1.7945271 4288085770
1.2674561 -0.41697073 -1.8272095 4288085770
6.0684814 -0.77272272 -1.784502 4288085770
1.5963745 -0.39556646 -1.8171768 4288085770
6.683197 -0.75108147 -1.7624187 4288085770
1.9532471 -0.37304258 -1.8064594 4288085770
7.3668823 -0.729146 -1.7386379 4288085770
2.3833618 -0.35323715 -1.8029289 4288085770
8.0774536 -0.70608711 -1.711195 4288085770
2.8845825 -0.33514261 -1.802639 4288085770
8.849884 -0.68074894 -1.6772366 4288085770
3.4127197 -0.31593037 -1.8006916 4288085770
9.7674561 -0.65881157 -1.6466866 4288085770
3.9356384 -0.29271078 -1.7898827 4288085770
4.5617981 -0.27207994 -1.7855225 4288085770
5.2740173 -0.25209808 -1.7840405 4288085770
6.0020142 -0.22802114 -1.77318 4288085770
6.6686096 -0.19815302 -1.7478542 4288085770
7.3851624 -0.16606903 -1.7203045 4288085770
8.2166748 -0.13349724 -1.6909218 4288085770
9.1622314 -0.10044479 -1.6607285 4288085770
10.230774 -0.0658741 -1.6295128 4288085770
0.32192993 2.491456 -0.44931221 4293729569
0.12158203 2.5186558 -0.43721771 4293729569
-0.12075806 2.5336905 -0.42208672 4293729569
-0.37609863 2.5416718 -0.40624237 4293729569
-0.50448608 2.5781679 -0.39445305 4293729569
-0.60876465 2.6167641 -0.38309669 4293729569
-0.61810303 2.6787462 -0.37454414 4293729569
-0.65945435 2.7316046 -0.36372757 4293729569
-0.61685181 2.8078032 -0.35498047 4293729569
-0.56625366 2.8860407 -0.345047 4293729569
-0.46670532 2.979476 -0.33599281 4293729569
-0.38919067 3.0688267 -0.3254528 4293729569
-0.36367798 3.1419687 -0.31210327 4293729569
-0.29519653 3.2282906 -0.2987709 4293729569
-0.24075317 3.3125582 -0.28376579 4293729569
10.253601 0.31040001 -1.6017399 4288085770
9.0933533 0.3044548 -1.6416874 4288085770
8.026947 0.29992104 -1.6744556 4288085770
7.1296082 0.29708576 -1.7083054 4288085770
6.2951355 0.29653168 -1.7356987 4288085770
5.5075989 0.2971859 -1.7590008 4288085770
4.686676 0.29975271 -1.7660732 4288085770
10.526398 0.28152609 -1.5908298 4288085770
3.9496765 0.30367517 -1.7711964 4288085770
9.3140564 0.28936768 -1.6299953 4288085770
3.3670654 0.30719662 -1.7887478 4288085770
8.1984863 0.29764366 -1.6589146 4288085770
2.7159424 0.3124938 -1.7878819 4288085770
7.2991638 0.30578947 -1.6958256 4288085770
2.1188354 0.31901884 -1.7857628 4288085770
6.4517212 0.31517744 -1.7245293 4288085770
1.6118774 0.32489777 -1.7895527 4288085770
5.6651306 0.32482862 -1.7498226 4288085770
1.1800842 0.33107328 -1.798605 4288085770
4.8421936 0.33638811 -1.7569504 4288085770
0.73809814 0.33922863 -1.7998943 4288085770
4.1202698 0.34635878 -1.7657318 4288085770
0.3973999 0.34577084 -1.8118382 4288085770
3.5235596 0.35682917 -1.7816162 4288085770
0.021453857 0.35320234 -1.813591 4288085770
2.8704529 0.36811352 -1.7817993 4288085770
-0.29641724 0.36085653 -1.8200016 4288085770
2.2693176 0.37962532 -1.7787743 4288085770
-0.63345337 0.36945677 -1.8188534 4288085770
1.7654114 0.39051008 -1.784502 4288085770
-0.93133545 0.37820578 -1.8218002 4288085770
1.3165283 0.4016223 -1.7909527 4288085770
-1.2142944 0.38602114 -1.8233967 4288085770
0.88052368 0.41280222 -1.7931042 4288085770
-1.4551392 0.39499474 -1.8300247 4288085770
0.50466919 0.42521238 -1.8008652 4288085770
-1.7302246 0.40386629 -1.8244362 4288085770
0.17388916 0.43580675 -1.8095798 4288085770
-1.9400635 0.41396666 -1.8313484 4288085770
-0.15200806 0.44743061 -1.8151817 4288085770
-2.1680298 0.42301702 -1.8306694 4288085770
-0.48904419 0.45903158 -1.8140354 4288085770
-2.3950806 0.4320817 -1.8269691 4288085770
-0.80206299 0.46872902 -1.8133278 4288085770
-2.5679016 0.44233656 -1.8340206 4288085770
-1.0699158 0.48059893 -1.8175831 4288085770
-2.7538147 0.45055532 -1.8353653 4288085770
-1.3278503 0.49251318 -1.8206062 4288085770
-2.9689941 0.46068811 -1.8253899 4288085770
-1.5637817 0.50352001 -1.8231182 4288085770
-3.14505 0.46996212 -1.822504 4288085770
-1.8128662 0.51549149 -1.8199329 4288085770
-3.3130493 0.48026562 -1.8204384 4288085770
-2.033783 0.5265646 -1.8210945 4288085770
-3.4549255 0.49066353 -1.8227711 4288085770
-2.2427979 0.53869629 -1.8199825 4288085770
-3.6119385 0.50001621 -1.8194447 4288085770
-2.4548645 0.5498209 -1.8169365 4288085770
-3.7489319 0.51044273 -1.8196621 4288085770
-2.6347656 0.56106091 -1.819149 4288085770
-3.8748169 0.52090645 -1.8216209 4288085770
-2.8036804 0.573349 -1.8211098 4288085770
-4.0027771 0.53137398 -1.8206272 4288085770
-2.9847107 0.58460331 -1.8173447 4288085770
-3.146698 0.59692955 -1.816143 4288085770
-3.2956543 0.60830402 -1.816637 4288085770
-3.4487 0.61967373 -1.8132229 4288085770
-3.5957336 0.63206863 -1.8096733 4288085770
-3.7236938 0.64353275 -1.8096809 4288085770
-3.8537292 0.65499687 -1.806736 4288085770
-3.9465027 0.66857815 -1.8149376 4288085770
-4.0554199 0.68111897 -1.8155098 4288085770
-4.0317078 2.8398046 -1.7551041 4288085770
-3.9036865 2.8853273 -1.7563725 4288085770
-3.7696838 2.932869 -1.7575092 4288085770
-3.6498108 2.9713736 -1.7529373 4288085770
-3.5429993 3.0038443 -1.7426453 4288085770
-3.420166 3.0413713 -1.7360039 4288085770
-3.2661438 3.0910015 -1.7367001 4288085770
-3.116272 3.1366291 -1.7334766 4288085770
-4.0481873 2.7716551 -1.7644348 4288085770
-2.9502869 3.1873121 -1.7339077 4288085770
-3.9342651 2.801137 -1.7599735 4288085770
-2.7854004 3.236002 -1.7303562 4288085770
-3.8002319 2.8376865 -1.7600803 4288085770
-2.5643005 3.3068857 -1.7396088 4288085770
-3.6802979 2.8681908 -1.7564869 4288085770
-2.4094849 3.346549 -1.7312565 4288085770
-3.5523376 2.8987284 -1.7527122 4288085770
-2.8338623 3.1432457 -1.5862045 4293729569
-3.4133606 2.9333067 -1.7507038 4288085770
-2.7613831 3.148633 -1.5586033 4293729569
-3.2713928 2.9658985 -1.7476196 4288085770
-2.7701111 3.117733 -1.5137196 4293729569
-3.1243896 3.0005102 -1.7454319 4288085770
-2.8209839 3.0706902 -1.459734 4293729569
-2.9764709 3.0331306 -1.742218 4288085770
-2.9190369 3.0034761 -1.3977489 4293729569
-2.7743225 3.0839386 -1.749836 4288085770
-2.9237366 2.973588 -1.3547764 4293729569
-2.6274109 3.1115665 -1.7426319 4288085770
-2.9113464 2.9487581 -1.3164368 4293729569
-2.4263611 3.1583834 -1.7462654 4288085770
-2.8909607 2.9279499 -1.2809296 4293729569
-2.5977478 3.0579405 -1.6608257 4293729569
-2.819397 2.9263277 -1.2543259 4293729569
-2.9036255 2.9070263 -1.5482597 4293729569
-2.8511047 2.8833351 -1.2089233 4293729569
-2.9122925 2.8701229 -1.5053539 4293729569
-2.8717651 2.8433809 -1.1662807 4293729569
-2.8999329 2.8412895 -1.467001 4293729569
-2.8322754 2.8256454 -1.1333523 4293729569
-2.8905029 2.8114452 -1.4297123 4293729569
-2.8228455 2.7957993 -1.0960636 4293729569
-2.9101868 2.7694969 -1.3860397 4293729569
-2.7583008 2.7861462 -1.0685959 4293729569
-2.8695984 2.7497549 -1.356081 4293729569
-2.7368164 2.7593422 -1.0340462 4293729569
-2.8511353 2.7209387 -1.3215923 4293729569
-2.7213135 2.7305126 -0.99962425 4293729569
-2.8627319 2.6810102 -1.2817459 4293729569
-2.5926514 2.7391043 -0.97977066 4293729569
-2.8161926 2.6602936 -1.2526493 4293729569
-2.5160217 2.7285004 -0.95303154 4293729569
-2.7625427 2.6415911 -1.2264023 4293729569
-2.3973694 2.7300596 -0.93138313 4293729569
-2.7098999 2.6208935 -1.1991692 4293729569
-2.3117676 2.7204905 -0.9054451 4293729569
-2.1990967 2.7170277 -0.88191986 4293729569
-2.6016541 2.5785027 -1.1456394 4293729569
-2.1025085 2.7075081 -0.85573578 4293729569
-2.6522217 2.5234203 -1.1036224 4293729569
-1.9337769 2.7182598 -0.83799362 4293729569
-2.6035767 2.4997025 -1.0764751 4293729569
-1.7710876 2.7249937 -0.81737518 4293729569
-2.5469055 2.4760151 -1.0511436 4293729569
-1.66745 2.7115049 -0.79102135 4293729569
-2.4551086 2.4634542 -1.0310612 4293729569
-1.6038818 2.6858559 -0.76153183 4293729569
-2.3222961 2.4600468 -1.0160847 4293729569
-0.94873047 2.8265123 -0.78025627 4293729569
-2.2575684 2.436388 -0.99157524 4293729569
-0.77005005 2.8283224 -0.75726891 4293729569
-2.1437683 2.4249105 -0.97400284 4293729569
-0.79156494 2.7703543 -0.71759796 4293729569
-1.986908 2.4226007 -0.96049118 4293729569
-1.3224487 2.5763817 -0.64295197 4293729569
-1.7238159 2.447691 -0.95967865 4293729569
-1.3128357 2.5305243 -0.60961533 4293729569
-1.71521 2.4028206 -0.92836761 4293729569
-1.190155 2.5131063 -0.58482742 4293729569
-1.5182495 2.4056654 -0.91797256 4293729569
0.65344238 2.9235134 -0.66069221 4293729569
-1.4845581 2.364892 -0.88911057 4293729569
-0.41259766 2.6013975 -0.56167221 4293729569
-1.4799194 2.3160048 -0.85787773 4293729569
-0.52807617 2.5190411 -0.52103806 4293729569
-1.459259 2.2701807 -0.82829475 4293729569
-0.37039185 2.4997759 -0.49445915 4293729569
-1.4485779 2.2233105 -0.79993057 4293729569
-0.078674316 2.5090437 -0.47496033 4293729569
0.19100952 2.5092306 -0.451931 4293729569
-0.40884399 2.3455143 -0.83101654 4293729569
-0.18789673 2.3334723 -0.81704712 4293729569
0.08807373 2.3306437 -0.80686951 4293729569
0.37109375 2.3238449 -0.79652596 4293729569
0.71914673 2.3273048 -0.79075623 4293729569
1.1392822 2.3380527 -0.78739357 4293729569
10.672821 -5.1610384 -1.1629295 4293729569
8.9992371 -4.8218679 -1.1242428 4293729569
8.9128723 -4.9223928 -1.1739292 4293729569
10.124634 -5.4998856 -0.39912033 4293729569
10.109375 -5.5420637 -1.3676052 4293729569
10.216919 -5.6617169 -0.46365547 4293729569
10.077393 -5.6644053 -1.4300251 4293729569
10.645935 -5.931181 -0.53738022 4293729569
9.9912415 -5.7689581 -1.4886971 4293729569
9.3251953 -5.6837807 -1.5048256 4293729569
10.753571 -6.2351947 -0.67622375 4293729569
8.6741028 -5.590538 -1.5196438 4293729569
6.7792053 -5.0234938 -0.61327553 4293729569
6.792572 -5.0720606 -1.4280624 4293729569
6.7159424 -5.1089487 -0.67049026 4293729569
6.7232056 -5.155529 -1.4824162 4293729569
6.6827698 -5.2042842 -0.73000336 4293729569
6.850708 -5.3092513 -1.5581894 4293729569
6.4762573 -5.2799034 -1.5866528 4293729569
6.0927429 -5.2445912 -1.614336 4293729569
5.48526 -5.1201248 -1.6162548 4293729569
4.8164062 -4.962883 -1.6086311 4293729569
4.3733521 -4.88377 -1.6217556 4293729569
10.881165 -7.4630718 -1.405426 4293729569
3.8639221 -4.7719011 -1.6244507 4293729569
10.063995 -7.2665753 -1.4382324 4293729569
3.3885803 -4.6668921 -1.6283646 4293729569
9.1533508 -7.0214319 -1.4602547 4293729569
2.8648987 -4.5350533 -1.622427 4293729569
8.4401855 -6.8414893 -1.4886951 4293729569
2.309967 -4.3823204 -1.6092434 4293729569
2.0718994 -4.3054662 -1.0346336 4293729569
1.9739685 -4.3127565 -1.6199512 4293729569
2.0765991 -4.3756323 -1.0903702 4293729569
1.5976868 -4.2223358 -1.6236115 4293729569
1.8403015 -4.3417292 -1.1247635 4293729569
1.2937622 -4.1586447 -1.6365852 4293729569
1.7415161 -4.3642941 -1.1709347 4293729569
1.1083984 -4.1415119 -1.6647911 4293729569
1.5624084 -4.3501697 -1.2099991 4293729569
0.96017456 -4.138237 -1.697134 4293729569
4.4421997 -5.6914277 -1.5842056 4293729569
0.81402588 -4.1339602 -1.7314281 4293729569
1.2392578 -4.3277798 -1.2893257 4293729569
0.67385864 -4.1296549 -1.7645931 4293729569
2.7773438 -5.0861864 -1.5330257 4293729569
0.54470825 -4.1273088 -1.7995071 4293729569
1.0033875 -4.3350477 -1.3756237 4293729569
0.4336853 -4.131896 -1.836998 4288085770
2.3047485 -4.9953933 -1.605875 4293729569
0.27429199 -4.1116562 -1.8656311 4288085770
0.057525635 -4.0606136 -1.8816261 4288085770
0.69677734 -4.3497725 -1.5105171 4293729569
-0.19656372 -3.9887006 -1.8895111 4288085770
0.57977295 -4.344399 -1.5521698 4293729569
-0.41748047 -3.9286625 -1.9016209 4288085770
0.55929565 -4.3826714 -1.6085548 4293729569
-0.65457153 -3.8576703 -1.9071217 4288085770
0.23706055 -4.2700405 -1.6170731 4293729569
-0.91888428 -3.7697666 -1.9052715 4288085770
-0.071228027 -4.1613474 -1.6232643 4293729569
-1.1933899 -3.6728899 -1.8986721 4288085770
-0.30505371 -4.0863795 -1.6407051 4293729569
-1.4146118 -3.5998223 -1.9008217 4288085770
-0.40820312 -4.0729342 -1.678072 4293729569
-1.6429138 -3.5197697 -1.8991451 4288085770
-0.47711182 -4.0743647 -1.7216358 4293729569
-1.842041 -3.451611 -1.9017887 4288085770
-0.55206299 -4.0718164 -1.7633457 4293729569
-2.0452576 -3.3774633 -1.9025402 4288085770
-0.60894775 -4.0762038 -1.8086357 4293729569
-2.2445068 -3.3042912 -1.9011955 4288085770
-0.6758728 -4.0736294 -1.8521652 4288085770
-2.4125977 -3.243011 -1.9061298 4288085770
-0.74584961 -4.0680609 -1.8947754 4288085770
-2.5998535 -3.1707859 -1.9035149 4288085770
-0.93676758 -3.9959075 -1.9092522 4288085770
-2.7669983 -3.1064882 -1.9044342 4288085770
-1.1781006 -3.8949156 -1.9099274 4288085770
-2.9432983 -3.034214 -1.9005775 4288085770
-1.3952942 -3.8038366 -1.9140377 4288085770
-3.1257019 -2.956955 -1.8938675 4288085770
-1.6670227 -3.6819363 -1.9034424 4288085770
-3.2658081 -2.9005508 -1.8961601 4288085770
-1.8813477 -3.5858247 -1.9014988 4288085770
-3.4160156 -2.8361716 -1.8936996 4288085770
-2.0856934 -3.4936748 -1.900322 4288085770
-3.5562439 -2.774755 -1.8920078 4288085770
-2.2689514 -3.4104452 -1.9016533 4288085770
-3.7035217 -2.7093577 -1.8874836 4288085770
-2.4481812 -3.3271961 -1.9018955 4288085770
-3.8276062 -2.6528797 -1.8884182 4288085770
-2.6315918 -3.2389512 -1.898241 4288085770
-3.9427185 -2.601367 -1.8891411 4288085770
-2.7756348 -3.1715732 -1.903656 4288085770
-4.0720215 -2.5388937 -1.8842068 4288085770
-2.9429626 -3.088263 -1.900629 4288085770
-3.103302 -3.0079217 -1.8964386 4288085770
-3.2505798 -2.9325299 -1.8939438 4288085770
-3.3888245 -2.8611045 -1.8922367 4288085770
-3.5241089 -2.7886596 -1.8884678 4288085770
-3.6402588 -2.7261496 -1.8892441 4288085770
-3.7716064 -2.6536818 -1.8833847 4288085770
-3.8898621 -2.5871649 -1.8792171 4288085770
-3.9869385 -2.530581 -1.8815536 4288085770
-3.7930603 -0.31205845 -1.8328037 4288085770
-3.7101135 -0.29470253 -1.8270702 4288085770
-3.5969238 -0.28224897 -1.8306656 4288085770
-3.4697266 -0.26974201 -1.8359566 4288085770
-3.3566284 -0.25527525 -1.8345623 4288085770
-3.2214355 -0.24273205 -1.8386803 4288085770
-3.1054077 -0.22824478 -1.8352203 4288085770
-2.97229 -0.21469784 -1.8353882 4288085770
-2.8181152 -0.20207453 -1.8390961 4288085770
-2.6579285 -0.18942165 -1.8416729 4288085770
-3.8047791 -0.063176155 -1.8370209 4288085770
-2.5108643 -0.17481089 -1.8395443 4288085770
-3.686676 -0.050692558 -1.8375111 4288085770
-2.3467712 -0.16113186 -1.8390427 4288085770
-3.5574951 -0.038165092 -1.8387642 4288085770
-2.147522 -0.15032911 -1.8447685 4288085770
-3.4304199 -0.024644375 -1.8390636 4288085770
-1.9684143 -0.13658381 -1.8429413 4288085770
