# .PCD v0.7 - Point Cloud Data file format
VERSION 0.7
FIELDS x y z rgb
SIZE 4 4 4 4
TYPE F F F U
COUNT 1 1 1 1
WIDTH 1108
HEIGHT 1
VIEWPOINT 0 0 0 1 0 0 0
POINTS 1108
DATA ascii
1.526062 0.56037492 -1.8286394 4288085770
7.0746765 0.86522716 -1.8447322 4288085770
2.2647552 0.60061026 -1.8301173 4288085770
14.342567 1.2635658 -1.854265 4288085770
1.328186 0.54769307 -1.8242499 4288085770
3.1703873 0.64826566 -1.8359349 4288085770
8.1772385 0.92057365 -1.8619536 4288085770
1.8379974 0.5739935 -1.8242745 4288085770
3.458313 0.66069239 -1.8355216 4288085770
1.1583099 0.53526348 -1.8259205 4288085770
7.7055283 0.88955802 -1.8490272 4288085770
3.7912445 0.67350942 -1.8392053 4288085770
1.6511841 0.55741978 -1.8259219 4288085770
0.98947144 0.52183127 -1.8235966 4288085770
8.4124069 0.91452712 -1.8524855 4288085770
4.0412521 0.68060452 -1.8347267 4288085770
4.0972366 0.6830743 -1.8338405 4288085770
0.81562805 0.50835186 -1.819262 4288085770
1.4643784 0.54084086 -1.8255693 4288085770
9.2182236 0.94334501 -1.861147 4288085770
4.4302292 0.69286925 -1.8295339 4288085770
0.66877747 0.49611056 -1.8189822 4288085770
2.4830551 0.58844858 -1.8316332 4288085770
1.2815781 0.52429038 -1.8232253 4288085770
4.8191986 0.70415312 -1.8313446 4288085770
0.52791595 0.48392296 -1.8197154 4288085770
10.059105 0.96943575 -1.8618937 4288085770
8.8506088 0.9042632 -1.8704739 4288085770
1.1227722 0.50895274 -1.8249296 4288085770
5.2311859 0.71462232 -1.8302082 4288085770
0.39408875 0.47079378 -1.820467 4288085770
4.3325729 0.66704232 -1.830406 4288085770
10.920044 0.99266797 -1.8526931 4288085770
5.6811752 0.72541767 -1.8311533 4288085770
0.26924896 0.45874339 -1.8222346 4288085770
0.96099091 0.49258453 -1.824631 4288085770
2.7173462 0.57642186 -1.8331833 4288085770
11.924934 1.0201285 -1.8487924 4288085770
6.2011642 0.73681325 -1.8362489 4288085770
0.14943695 0.44573224 -1.8230164 4288085770
0.79721832 0.47618872 -1.8203281 4288085770
9.5629959 0.88626891 -1.8740845 4288085770
4.6578903 0.65376884 -1.8271582 4288085770
13.141815 1.0513926 -1.851341 4288085770
6.7741776 0.74765903 -1.8424618 4288085770
0.022628784 0.4326542 -1.8207831 4288085770
0.65344238 0.45997202 -1.8200681 4288085770
2.9746246 0.56459695 -1.837783 4288085770
14.429703 1.0812337 -1.8460487 4288085770
7.3971634 0.75892574 -1.8487822 4288085770
-0.090194702 0.42070204 -1.8215767 4288085770
0.51567078 0.44480336 -1.8188179 4288085770
5.050148 0.6430828 -1.8320481 4288085770
10.33239 0.86775178 -1.8768209 4288085770
8.0722046 0.7686283 -1.8542211 4288085770
3.2349014 0.55278707 -1.8383889 4288085770
0.3848877 0.42969674 -1.8185828 4288085770
8.8632126 0.77932519 -1.8659093 4288085770
5.4474487 0.63042229 -1.830955 4288085770
0.26612854 0.41469371 -1.8193735 4288085770
3.5161819 0.54115379 -1.8390402 4288085770
11.21479 0.84919041 -1.8808035 4288085770
9.6862793 0.78726989 -1.8696761 4288085770
0.14935303 0.39970744 -1.8201687 4288085770
5.9027023 0.62026435 -1.83498 4288085770
10.563362 0.79366153 -1.8705658 4288085770
3.7924652 0.52846771 -1.8356836 4288085770
0.032608032 0.38471299 -1.8179636 4288085770
12.196182 0.83046371 -1.885002 4288085770
11.585464 0.79928666 -1.8757735 4288085770
6.3899765 0.60837096 -1.8370806 4288085770
4.1007233 0.51705718 -1.8343927 4288085770
-0.078140259 0.36977458 -1.8177718 4288085770
12.710617 0.80177158 -1.878216 4288085770
6.956192 0.60015744 -1.8443409 4288085770
13.369553 0.81236929 -1.8946166 4282675967
4.4280014 0.50480396 -1.8321458 4288085770
13.984772 0.80351561 -1.8819854 4288085770
7.579422 0.59142709 -1.8527271 4288085770
14.629951 0.79298943 -1.8974248 4282675967
4.79422 0.49488795 -1.8329762 4288085770
8.2626419 0.58219999 -1.8602455 4288085770
5.1984634 0.48429483 -1.8348914 4288085770
9.104805 0.57734358 -1.8790957 4288085770
5.6136932 0.47378391 -1.8328304 4288085770
9.9410095 0.56940126 -1.8849428 4288085770
6.1308823 0.46516037 -1.8409852 4288085770
-0.0069656372 0.31335449 -1.8181139 4288085770
10.834229 0.56092346 -1.8849158 4288085770
6.6930695 0.45691556 -1.8492367 4288085770
11.887421 0.55480868 -1.8902295 4288085770
0.088317871 0.30114245 -1.814362 4288085770
7.2992706 0.44803679 -1.8555862 4288085770
13.164566 0.55160689 -1.9050212 4282675967
7.9654312 0.44066167 -1.8610612 4288085770
14.448753 0.54641265 -1.9008348 4282675967
0.21060181 0.28817916 -1.8186715 4288085770
8.8045578 0.43578243 -1.8809047 4288085770
9.681694 0.43020779 -1.8948331 4288085770
0.3168869 0.27506244 -1.8159465 4288085770
10.619835 0.42512923 -1.9018929 4288085770
11.658966 0.42089933 -1.9081695 4288085770
12.861069 0.41904932 -1.9167933 4288085770
14.180054 0.43212378 -1.9016227 4288085770
12.898125 0.41633403 -1.9068829 4288085770
11.722252 0.39841384 -1.9033808 4288085770
0.43815613 0.26208037 -1.8162535 4288085770
10.67437 0.3815729 -1.900154 4288085770
14.609177 0.42275268 -1.9075878 4288085770
14.068214 0.41619879 -1.9094313 4288085770
9.7655182 0.36490399 -1.8972293 4288085770
8.8057022 0.34675932 -1.8771983 4288085770
13.244415 0.39424556 -1.9067091 4288085770
7.9768906 0.32972455 -1.8594491 4288085770
11.99366 0.36668366 -1.9000754 4288085770
0.57739258 0.25025821 -1.8195961 4288085770
7.2960587 0.31396699 -1.8530182 4288085770
10.975883 0.34210801 -1.9019394 4288085770
6.6572418 0.29755837 -1.8446809 4288085770
10.028099 0.31910914 -1.8989509 4288085770
-0.051399231 0.23594713 -1.8162739 4288085770
6.1063995 0.28290302 -1.8405292 4288085770
0.71863556 0.23844999 -1.8219428 4288085770
9.1193542 0.29541516 -1.8870496 4288085770
5.6055756 0.26766849 -1.8364887 4288085770
0.071807861 0.22599292 -1.8205755 4288085770
8.2356491 0.27190477 -1.865202 4288085770
5.1607742 0.25191438 -1.8355718 4288085770
0.86588287 0.22569269 -1.8243057 4288085770
7.5178986 0.25082654 -1.855708 4288085770
4.7509689 0.23645484 -1.8347303 4288085770
0.1950531 0.21403056 -1.8218834 4288085770
6.8911514 0.230524 -1.8494098 4288085770
4.394165 0.22145337 -1.8380024 4288085770
1.0141449 0.21193808 -1.824674 4288085770
0.31825256 0.20406586 -1.8221848 4288085770
6.331398 0.21078879 -1.8442558 4288085770
4.0503769 0.20655358 -1.8383031 4288085770
1.1613922 0.19916701 -1.8220369 4288085770
5.8156586 0.19142455 -1.8391962 4288085770
3.7305832 0.19185573 -1.838655 4288085770
0.44547272 0.19313186 -1.821498 4288085770
1.3366241 0.18664843 -1.8254598 4288085770
5.3699112 0.17266119 -1.8382874 4288085770
3.4527969 0.17652291 -1.8431007 4288085770
0.57569122 0.18222326 -1.8208177 4288085770
1.5228577 0.1732226 -1.8289096 4288085770
3.1710205 0.16214544 -1.8435345 4288085770
4.9531708 0.15413988 -1.8364409 4288085770
0.72089386 0.17144674 -1.8221697 4288085770
1.712059 0.16081941 -1.8313625 4288085770
0.88508606 0.16083837 -1.826562 4288085770
2.9062576 0.14690852 -1.8430083 4288085770
4.5784378 0.13597769 -1.8366847 4288085770
14.54422 0.071115255 -1.9055946 4288085770
1.8892822 0.14829892 -1.8277895 4288085770
1.0532608 0.15026385 -1.8309631 4288085770
2.6445007 0.13268906 -1.8394854 4288085770
4.2456894 0.11817825 -1.8400189 4288085770
2.1165009 0.13422161 -1.8323307 4288085770
13.490585 0.037255734 -1.9154114 4288085770
1.2074356 0.14055008 -1.8273309 4288085770
13.21862 0.035925061 -1.9008236 4288085770
12.251732 0.024799347 -1.9097549 4288085770
2.3406906 0.1221135 -1.8348588 4288085770
1.3926086 0.13011622 -1.8307686 4288085770
2.3937607 0.11755964 -1.8349894 4288085770
3.9339523 0.10055268 -1.8423982 4288085770
11.241844 0.014303714 -1.9155908 4288085770
12.033012 0.0039047003 -1.8923471 4288085770
1.565773 0.12056506 -1.8281771 4288085770
2.5798874 0.10913211 -1.8374223 4288085770
10.188934 0.0093951225 -1.9023145 4288085770
1.777916 0.1103645 -1.8336726 4288085770
2.8530807 0.095445037 -1.8430622 4288085770
2.1850128 0.10280046 -1.8365836 4288085770
3.6452255 0.083121151 -1.8448271 4288085770
9.2950211 0.0048401654 -1.8943833 4288085770
1.9790649 0.10105228 -1.832141 4288085770
3.1262589 0.082750201 -1.8456986 4288085770
11.108383 -0.026880234 -1.8974347 4288085770
8.4010925 0.0042565167 -1.8754392 4288085770
2.212204 0.091025978 -1.8366817 4288085770
3.3994446 0.070044875 -1.8443351 4288085770
7.6261215 0.005687356 -1.8607473 4288085770
2.4503403 0.082036585 -1.8392297 4288085770
1.9602737 0.088890076 -1.8321404 4288085770
3.3775101 0.064869612 -1.8483045 4288085770
6.9681396 0.0071232915 -1.85331 4288085770
2.7004547 0.073146284 -1.8408035 4288085770
3.6836243 0.057427078 -1.8409952 4288085770
6.3651505 0.010020465 -1.844988 4288085770
2.9905624 0.063605994 -1.8474663 4288085770
10.143768 -0.055042356 -1.8874269 4288085770
3.9917984 0.045014024 -1.8387067 4288085770
13.961426 -0.12083253 -1.9089531 4288085770
5.8301392 0.013501912 -1.8408118 4288085770
3.2446823 0.055730283 -1.8420453 4288085770
5.3521194 0.017463773 -1.8367583 4288085770
3.5407715 0.048222512 -1.8417146 4288085770
4.9320602 0.022931308 -1.8388261 4288085770
3.8568573 0.040885836 -1.8424268 4288085770
4.3159637 0.032733589 -1.8354528 4288085770
4.5350113 0.028582186 -1.8369431 4288085770
12.763351 -0.11390319 -1.9173225 4288085770
4.1709518 0.034516245 -1.8371311 4288085770
1.7725449 0.074304938 -1.8327799 4288085770
11.60627 -0.10366011 -1.9137701 4288085770
4.6951294 0.019927084 -1.8363203 4288085770
3.0918121 0.048444211 -1.8437366 4288085770
10.525177 -0.09179458 -1.9033778 4288085770
5.1092682 0.0074217319 -1.8392628 4288085770
5.5374069 -0.0039767027 -1.838232 4288085770
9.5630875 -0.079931229 -1.8912444 4288085770
6.0335464 -0.016791195 -1.841354 4288085770
6.0272369 -0.017705917 -1.522341 4293729569
9.3161316 -0.081041008 -1.8807105 4288085770
7.8848953 -0.054140717 -1.8635066 4288085770
6.6086731 -0.029920489 -1.851649 4288085770
7.2037811 -0.041899711 -1.8549839 4288085770
1.5908356 0.058767885 -1.8324357 4288085770
2.8431091 0.031339377 -1.8422518 4288085770
8.4715118 -0.10421738 -1.8609477 4288085770
1.4061127 0.04520005 -1.8300787 4288085770
2.607399 0.015344173 -1.8407915 4288085770
14.090332 -0.28381881 -1.8967667 4288085770
7.7818985 -0.12905768 -1.8525281 4288085770
1.250412 0.029887319 -1.8317906 4288085770
2.3777084 -0.00060325861 -1.8383443 4288085770
12.979706 -0.31216091 -1.9054419 4288085770
7.1762695 -0.1521844 -1.8462858 4288085770
14.675247 -0.36491361 -1.8953052 4288085770
1.0886917 0.016513586 -1.829483 4288085770
2.164032 -0.01741606 -1.8359348 4288085770
13.926529 -0.38621846 -1.8987452 4288085770
11.834053 -0.33385372 -1.8930191 4288085770
6.6466522 -0.17565984 -1.84421 4288085770
0.94800568 0.001327306 -1.8312272 4288085770
1.965332 -0.033099174 -1.8345543 4288085770
13.627937 -0.41974401 -1.8982048 4288085770
12.88192 -0.4160046 -1.9075687 4288085770
10.804405 -0.35356832 -1.8808424 4288085770
6.1480331 -0.19788153 -1.8391979 4288085770
0.79931641 -0.01293689 -1.8289511 4288085770
1.7686615 -0.048774183 -1.8301784 4288085770
11.752258 -0.43455932 -1.8961709 4288085770
12.655594 -0.46895254 -1.8972492 4288085770
9.9417725 -0.37485921 -1.8750347 4288085770
5.6764069 -0.21788362 -1.8312373 4288085770
0.65562439 -0.026162088 -1.8256824 4288085770
1.5940094 -0.065252751 -1.8298528 4288085770
10.720566 -0.44829288 -1.8829702 4288085770
9.210144 -0.39703727 -1.8725152 4288085770
0.52593994 -0.040260881 -1.8254472 4288085770
5.2867889 -0.24017018 -1.8324629 4288085770
11.705223 -0.51200145 -1.8863219 4288085770
1.4253311 -0.080685705 -1.8275369 4288085770
9.8428497 -0.4607091 -1.8771008 4288085770
8.507515 -0.4169817 -1.8660517 4288085770
0.4182663 -0.055163473 -1.8292626 4288085770
4.9341736 -0.26214492 -1.8337679 4288085770
1.2796707 -0.096911907 -1.8302739 4288085770
10.852837 -0.55222189 -1.8765986 4288085770
9.0930939 -0.47103211 -1.8765031 4288085770
7.8318787 -0.4347086 -1.8556396 4288085770
0.30161285 -0.070152968 -1.8290588 4288085770
4.6015778 -0.28395084 -1.8351161 4288085770
1.1210251 -0.11226371 -1.8269798 4288085770
8.3413086 -0.47639552 -1.8668848 4288085770
10.143456 -0.59321964 -1.8731893 4288085770
7.2812729 -0.45536077 -1.8535095 4288085770
0.19393921 -0.084063798 -1.8298708 4288085770
7.6585007 -0.47917181 -1.8594083 4288085770
0.98737335 -0.12839125 -1.8287427 4288085770
4.2829742 -0.30464444 -1.8344913 4288085770
14.351028 -0.8706975 -1.9212543 4288085770
7.0646744 -0.48218673 -1.8561263 4288085770
6.7916718 -0.47649333 -1.8535136 4288085770
9.5080643 -0.63258862 -1.8719358 4288085770
0.075302124 -0.098080873 -1.8256596 4288085770
0.85871887 -0.14347935 -1.8295131 4288085770
4.0123901 -0.32691988 -1.8389761 4288085770
13.059998 -0.85059428 -1.913379 4288085770
6.523819 -0.48275417 -1.8529515 4288085770
11.808922 -0.82418257 -1.8945701 4288085770
6.2890549 -0.49375936 -1.8444769 4288085770
0.73607635 -0.1595168 -1.8302997 4288085770
5.9899597 -0.48127595 -1.8447855 4288085770
3.7527847 -0.34810501 -1.8424815 4288085770
8.9706879 -0.67411757 -1.875903 4288085770
10.752869 -0.80111134 -1.8821968 4288085770
5.5210953 -0.47923663 -1.8417588 4288085770
5.8504562 -0.51247501 -1.8395846 4288085770
0.61244202 -0.17456818 -1.8290809 4288085770
9.8788376 -0.78347623 -1.8812374 4288085770
3.5031891 -0.36821142 -1.8440051 4288085770
5.1021957 -0.47676972 -1.8408397 4288085770
8.3902664 -0.70704329 -1.8667483 4288085770
9.1038055 -0.76700151 -1.8824973 4288085770
4.7293015 -0.47490451 -1.8440226 4288085770
5.4918594 -0.53349501 -1.8428737 4288085770
0.48782349 -0.18963343 -1.82586 4288085770
3.2726135 -0.38915747 -1.8455728 4288085770
8.3307724 -0.74554157 -1.8717452 4288085770
4.3563843 -0.4700551 -1.8411957 4288085770
7.9088593 -0.74211586 -1.8648162 4288085770
7.6477127 -0.72530925 -1.8661929 4288085770
4.0264664 -0.4668296 -1.8434678 4288085770
5.1482773 -0.55439389 -1.8441955 4288085770
0.37820435 -0.20556396 -1.8256749 4288085770
14.526237 -1.2412868 -1.9298487 4288085770
3.0590363 -0.40995768 -1.8481772 4288085770
7.0306702 -0.70652038 -1.8607893 4288085770
3.7145157 -0.46145222 -1.845772 4288085770
6.4716187 -0.68824041 -1.8565134 4288085770
3.4275742 -0.45586368 -1.8481299 4288085770
7.4404449 -0.77508652 -1.8599058 4288085770
0.28258514 -0.22136882 -1.8285198 4288085770
4.8256989 -0.57411832 -1.844559 4288085770
5.9505615 -0.66864455 -1.8503159 4288085770
3.1646271 -0.45107067 -1.8515425 4288085770
13.506737 -1.26491 -1.9207079 4288085770
2.8364716 -0.42984432 -1.8467592 4288085770
2.891655 -0.44337198 -1.8509238 4288085770
5.4705124 -0.6506958 -1.847213 4288085770
2.6136703 -0.43373138 -1.8442875 4288085770
5.0524673 -0.63421875 -1.8462498 4288085770
0.18797302 -0.23716751 -1.8303668 4288085770
4.5281219 -0.59462947 -1.8459797 4288085770
7.0370483 -0.80949855 -1.8591416 4288085770
2.3636856 -0.42484426 -1.8417151 4288085770
4.6633987 -0.61749423 -1.846349 4288085770
2.6249084 -0.44864371 -1.8433615 4288085770
12.536201 -1.2831357 -1.9056563 4288085770
2.1266861 -0.41484988 -1.838167 4288085770
4.3003311 -0.60155076 -1.8465072 4288085770
1.9096832 -0.4056817 -1.8366653 4288085770
3.9872742 -0.58717513 -1.8507793 4288085770
0.090354919 -0.25199714 -1.8302042 4288085770
4.2525787 -0.61595517 -1.8474507 4288085770
1.6926651 -0.39552104 -1.83216 4288085770
3.6962204 -0.5736115 -1.8561021 4288085770
2.4263382 -0.4673306 -1.8409916 4288085770
1.4976501 -0.38616449 -1.8317055 4288085770
6.6996536 -0.84633851 -1.8645289 4288085770
14.769707 -1.5591602 -1.9854196 4282675967
3.369133 -0.55538279 -1.849331 4288085770
1.3126144 -0.37572592 -1.8302691 4288085770
11.650665 -1.29965 -1.8887839 4288085770
3.084053 -0.53878671 -1.8476568 4288085770
1.1535721 -0.36705503 -1.8338948 4288085770
2.8219757 -0.52299184 -1.8480351 4288085770
0.97954559 -0.35652915 -1.830482 4288085770
4.0130234 -0.63796961 -1.8520029 4288085770
0.8184967 -0.34588847 -1.829097 4288085770
2.5628738 -0.50617898 -1.8454168 4288085770
0.66642761 -0.3351714 -1.8277313 4288085770
2.3167801 -0.48926198 -1.8408262 4288085770
0.51637268 -0.3244378 -1.8263699 4288085770
0.018974304 -0.27862537 -1.8241379 4288085770
2.2317963 -0.48598671 -1.8376306 4288085770
0.38530731 -0.31453848 -1.8270524 4288085770
2.0776825 -0.47228637 -1.8362504 4288085770
0.25421906 -0.30363923 -1.8277317 4288085770
0.13513184 -0.29264674 -1.8254366 4288085770
0.13613892 -0.29362509 -1.830442 4288085770
0.010055542 -0.28269145 -1.828132 4288085770
1.8575745 -0.45614764 -1.8327188 4288085770
6.3052292 -0.87469554 -1.8557647 4288085770
0.25228882 -0.30666471 -1.8247375 4288085770
13.803207 -1.5813367 -1.9763898 4282675967
1.6604691 -0.44080424 -1.83324 4288085770
0.37142181 -0.31967109 -1.8220394 4288085770
1.4653473 -0.4244546 -1.8297622 4288085770
0.50458527 -0.33454892 -1.823378 4288085770
1.2822342 -0.40899837 -1.8283132 4288085770
0.65672302 -0.35025844 -1.8277603 4288085770
10.965218 -1.3284415 -1.8863876 4288085770
1.1071091 -0.39347756 -1.8258815 4288085770
0.80286407 -0.36502936 -1.8281265 4288085770
0.95399475 -0.37976053 -1.8275037 4288085770
3.7714615 -0.65800834 -1.853544 4288085770
2.0592346 -0.50445187 -1.8363168 4288085770
5.9708252 -0.90652835 -1.8541424 4288085770
12.84462 -1.5914629 -1.9603379 4288085770
10.3918 -1.361271 -1.8912482 4288085770
3.5609283 -0.68077826 -1.8581616 4288085770
1.8966904 -0.52383024 -1.8360279 4288085770
11.956009 -1.5979934 -1.9464266 4288085770
5.6834335 -0.93995953 -1.8546278 4288085770
3.329361 -0.69874346 -1.8557178 4288085770
9.9024124 -1.397387 -1.8983027 4288085770
1.750145 -0.54307079 -1.8367735 4288085770
11.255424 -1.6129045 -1.9459519 4288085770
5.4150467 -0.97322828 -1.8561541 4288085770
3.117836 -0.71853763 -1.8543235 4288085770
9.4480133 -1.4332104 -1.9044324 4288085770
1.5926132 -0.56141764 -1.8324921 4288085770
10.621849 -1.6282401 -1.9496247 4288085770
2.9182968 -0.73723066 -1.8529519 4288085770
5.1706543 -1.0052915 -1.8587285 4288085770
8.9965973 -1.4640214 -1.905552 4288085770
1.4590759 -0.58054847 -1.8332657 4288085770
10.006218 -1.6374338 -1.9493164 4288085770
2.7367706 -0.75776649 -1.8536257 4288085770
4.9492798 -1.0391612 -1.8613591 4288085770
8.5651932 -1.4946666 -1.9057149 4288085770
1.3355637 -0.60059279 -1.8350641 4288085770
9.4565811 -1.6480577 -1.9541565 4288085770
2.5472412 -0.77538031 -1.8502723 4288085770
4.7499161 -1.0748377 -1.8670435 4288085770
1.2170563 -0.62059784 -1.8358732 4288085770
8.1968079 -1.5287702 -1.9100262 4288085770
8.9108963 -1.6516581 -1.9549822 4288085770
2.3927307 -0.79668581 -1.8520074 4288085770
1.0945206 -0.63864142 -1.8346671 4288085770
4.5635605 -1.1104043 -1.872756 4288085770
7.8614502 -1.5645959 -1.9144152 4288085770
14.651375 -2.4933698 -1.989222 4288085770
8.3951874 -1.6530049 -1.9558657 4288085770
2.2212067 -0.81415087 -1.8476928 4288085770
0.98902893 -0.6595341 -1.8365077 4288085770
4.4092255 -1.1486906 -1.8825471 4288085770
7.5420761 -1.5982864 -1.9188318 4288085770
7.8934631 -1.6512361 -1.9557697 4288085770
14.188431 -2.5663383 -1.9714543 4288085770
14.251518 -2.5768135 -1.9696258 4288085770
2.0776978 -0.83436656 -1.8484483 4288085770
0.88451385 -0.67841792 -1.8383437 4288085770
7.4467392 -1.6519957 -1.9588015 4288085770
4.261879 -1.1859233 -1.89035 4288085770
7.2437134 -1.6328051 -1.9212972 4288085770
13.268356 -2.5270925 -1.9693254 4288085770
1.9211731 -0.85170448 -1.844166 4288085770
13.858589 -2.6551602 -1.9640281 4288085770
0.76902008 -0.69641364 -1.833153 4288085770
6.9839401 -1.6429055 -1.9557662 4288085770
12.321159 -2.4720795 -1.9640859 4288085770
4.1165237 -1.2221415 -1.8971537 4288085770
6.9543533 -1.6662507 -1.9227784 4288085770
1.7826843 -0.87088627 -1.8419291 4288085770
6.5211182 -1.629828 -1.9477178 4288085770
13.695908 -2.7635419 -1.9700296 4288085770
11.457954 -2.417362 -1.9580302 4288085770
0.67752075 -0.71618533 -1.8360202 4288085770
3.9892197 -1.2622004 -1.9070095 4288085770
6.6629639 -1.6957235 -1.9202423 4288085770
1.6661987 -0.892869 -1.8447492 4288085770
6.0772781 -1.6135926 -1.9387003 4288085770
10.704834 -2.3737013 -1.9582502 4288085770
0.58603668 -0.73596245 -1.8368878 4288085770
13.449112 -2.857657 -1.9658014 4288085770
5.6864548 -1.6018946 -1.9358131 4288085770
1.5377197 -0.91196895 -1.8415338 4288085770
3.8569031 -1.2993121 -1.9128447 4288085770
9.9776688 -2.3248322 -1.9545096 4288085770
6.3845825 -1.7250888 -1.9167342 4288085770
0.48654175 -0.75382054 -1.8327315 4288085770
5.331604 -1.5908878 -1.9350064 4288085770
13.220314 -2.9516196 -1.9616117 4288085770
9.3245621 -2.2823312 -1.953951 4288085770
1.4312286 -0.93286967 -1.8433722 4288085770
3.7175598 -1.3334904 -1.9156549 4288085770
6.110199 -1.7524238 -1.9122281 4288085770
5.0208206 -1.5854948 -1.9403138 4288085770
0.41107178 -0.77445495 -1.8366365 4288085770
8.7224579 -2.2413981 -1.9545087 4288085770
13.103645 -3.0616186 -1.9657185 4288085770
1.3347702 -0.95568168 -1.8472387 4288085770
14.547913 -3.3235047 -1.9647156 4288085770
3.6082458 -1.3723999 -1.9245461 4288085770
5.8608246 -1.7815475 -1.9077823 4288085770
4.7289886 -1.5779409 -1.9456557 4288085770
8.1473312 -2.1982448 -1.9521174 4288085770
0.34459686 -0.79601073 -1.8415643 4288085770
7.6302338 -2.159595 -1.9528675 4288085770
4.4471664 -1.5703056 -1.9500189 4288085770
1.2282944 -0.97559088 -1.8460739 4288085770
13.759087 -3.3021722 -1.9569309 4288085770
12.957932 -3.1658719 -1.9657433 4288085770
3.4859314 -1.4084325 -1.9283996 4288085770
5.6314545 -1.8114977 -1.905383 4288085770
0.27112579 -0.81663394 -1.8434737 4288085770
7.1331329 -2.1197851 -1.950657 4288085770
4.164299 -1.5576859 -1.9513634 4288085770
1.1268158 -0.99545753 -1.84492 4288085770
13.072327 -3.2899649 -1.9553982 4288085770
12.887314 -3.282481 -1.9709717 4288085770
6.6329956 -2.0750098 -1.944424 4288085770
3.9114532 -1.548806 -1.9557855 4282675967
3.3646088 -1.4434621 -1.930252 4288085770
5.4251175 -1.8442514 -1.9040427 4288085770
0.19264984 -0.83530647 -1.8423659 4288085770
6.1668549 -2.0299511 -1.9372635 4288085770
1.0373459 -1.0162182 -1.8457949 4288085770
3.6615906 -1.5379031 -1.9592078 4282675967
12.385506 -3.269762 -1.9518392 4288085770
12.810684 -3.3981485 -1.973184 4288085770
3.2372894 -1.4765472 -1.9300848 4288085770
5.2488098 -1.8807447 -1.90578 4288085770
0.11919403 -0.85493761 -1.8412721 4288085770
5.7427521 -1.990531 -1.9332132 4288085770
3.4087143 -1.5240331 -1.9596134 4282675967
0.9499054 -1.0379622 -1.8466775 4288085770
11.727661 -3.2473142 -1.9483361 4288085770
5.3826981 -1.9595528 -1.93633 4288085770
3.1237411 -1.4994586 -1.9499145 4282675967
5.0754852 -1.9152179 -1.9055171 4288085770
3.1199493 -1.5095451 -1.9309391 4288085770
0.052726746 -0.87450433 -1.8421934 4288085770
12.749107 -3.5176873 -1.9764415 4288085770
5.0266342 -1.9265466 -1.9374486 4288085770
0.87243652 -1.0596184 -1.8485816 4288085770
2.8357849 -1.4729202 -1.9362023 4282675967
11.133842 -3.2283192 -1.9479835 4288085770
4.7236023 -1.9000802 -1.9437039 4288085770
2.5367737 -1.4404895 -1.9164468 4288085770
4.9141769 -1.9515867 -1.9062867 4288085770
2.9936142 -1.5396321 -1.9267644 4288085770
12.70153 -3.6381111 -1.9787323 4288085770
0.79398346 -1.0812865 -1.8494835 4288085770
10.525932 -3.1974542 -1.9425614 4288085770
4.4275589 -1.8725576 -1.9489713 4288085770
2.3198547 -1.4233208 -1.9149201 4288085770
4.1535492 -1.8478472 -1.9552956 4288085770
4.758873 -1.9869058 -1.9070659 4288085770
2.8963089 -1.5754566 -1.9296716 4288085770
2.0648575 -1.3945093 -1.8992722 4288085770
12.688004 -3.7652433 -1.9831191 4288085770
9.967041 -3.1701684 -1.9402579 4288085770
0.72655487 -1.1048539 -1.8534156 4288085770
3.8904953 -1.8210487 -1.9596367 4282675967
1.8498993 -1.3733368 -1.8927366 4288085770
3.6094208 -1.7884204 -1.9569197 4282675967
4.6205978 -2.0250814 -1.9078914 4288085770
2.753952 -1.6006944 -1.9194461 4288085770
1.6699677 -1.3568563 -1.8912922 4288085770
9.4080963 -3.13589 -1.9349312 4288085770
12.650459 -3.8885877 -1.9834411 4288085770
0.66111755 -1.1284094 -1.855352 4288085770
3.3193054 -1.7508788 -1.9501668 4282675967
1.5060272 -1.3422303 -1.8938888 4288085770
3.0441971 -1.7152076 -1.9444528 4282675967
4.4973297 -2.0651252 -1.9107556 4288085770
8.8821487 -3.1003332 -1.9296722 4288085770
2.6345901 -1.6277275 -1.9132764 4288085770
1.3420868 -1.3266095 -1.8944823 4288085770
0.60268402 -1.1518981 -1.8603035 4288085770
12.688049 -4.0292888 -1.988983 4288085770
2.7370377 -1.6688404 -1.925634 4288085770
1.1571274 -1.305187 -1.8870109 4288085770
2.4869156 -1.6329637 -1.9179736 4288085770
8.417244 -3.0732491 -1.9295735 4288085770
4.3710403 -2.1032 -1.9116069 4288085770
2.5082397 -1.6538248 -1.9050885 4288085770
0.54425812 -1.1763923 -1.8632582 4288085770
1.0111771 -1.2904088 -1.8896462 4288085770
2.2417984 -1.5970476 -1.909324 4288085770
12.694588 -4.1632609 -1.9904355 4288085770
0.87823486 -1.277519 -1.8933159 4288085770
2.0237122 -1.5648966 -1.9037454 4288085770
7.9613113 -3.0420918 -1.9284812 4288085770
4.2467575 -2.14026 -1.911459 4288085770
0.72027588 -1.2578634 -1.8879091 4288085770
0.49183655 -1.2008333 -1.8672259 4288085770
1.8106079 -1.5327082 -1.8961775 4288085770
2.4059067 -1.683712 -1.8999654 4288085770
12.742203 -4.3068833 -1.9940085 4288085770
0.58830261 -1.2419701 -1.8895708 4288085770
1.6085205 -1.5014222 -1.8906367 4288085770
14.42704 -4.7507668 -1.9971217 4288085770
7.5123367 -3.0068808 -1.9253908 4288085770
1.453476 -1.4797165 -1.8942293 4288085770
0.4553299 -1.2250929 -1.8882273 4288085770
0.43241882 -1.2243412 -1.8681753 4288085770
4.1875763 -2.1927438 -1.9225032 4288085770
2.3175964 -1.7154737 -1.8978785 4288085770
1.2954102 -1.4560411 -1.8958088 4288085770
13.435135 -4.6061311 -1.9854927 4288085770
0.31433105 -1.2052939 -1.8828568 4288085770
12.803879 -4.4573903 -1.9966344 4288085770
7.092392 -2.9734247 -1.9223692 4288085770
1.1403656 -1.4323463 -1.8953949 4288085770
0.21338654 -1.1941261 -1.8896017 4288085770
0.98728943 -1.407634 -1.894982 4288085770
0.38298798 -1.2487566 -1.8721492 4288085770
4.0542603 -2.2248929 -1.9173197 4288085770
0.087379456 -1.1751978 -1.8852665 4288085770
12.576416 -4.4853601 -1.9802315 4288085770
2.2272644 -1.7462544 -1.8947842 4288085770
6.7004318 -2.9407272 -1.921411 4288085770
0.83521271 -1.3819213 -1.8915679 4288085770
12.91967 -4.6224313 -2.0044255 4288085770
0.70814514 -1.3609797 -1.895224 4288085770
11.756699 -4.3632665 -1.9730506 4288085770
0.58007812 -1.3390541 -1.8958744 4288085770
0.32355499 -1.270267 -1.8720919 4288085770
6.2974243 -2.9001358 -1.915403 4288085770
3.9379807 -2.2608938 -1.9141858 4288085770
0.44400024 -1.3142068 -1.8924979 4288085770
2.1599884 -1.7828314 -1.895759 4288085770
0.31191254 -1.2893282 -1.8881298 4288085770
13.052528 -4.7953291 -2.012279 4288085770
11.021088 -4.2564549 -1.9701025 4288085770
0.19683075 -1.2672958 -1.8878082 4288085770
5.9304352 -2.8652301 -1.9134918 4288085770
0.27415466 -1.294688 -1.8740659 4288085770
0.074729919 -1.2433331 -1.8834649 4288085770
3.8527451 -2.3036199 -1.9161412 4288085770
2.0736618 -1.8125839 -1.8906701 4288085770
10.287415 -4.1396446 -1.9601263 4288085770
13.148293 -4.9575539 -2.0140171 4288085770
5.5684357 -2.8262899 -1.9085784 4288085770
0.22673035 -1.3180946 -1.8750408 4288085770
3.7574615 -2.3414385 -1.9150586 4288085770
9.6438599 -4.0390611 -1.956399 4288085770
2.0053558 -1.8461714 -1.8906326 4288085770
5.247467 -2.7939913 -1.9087758 4288085770
12.900337 -5.0227623 -1.9766904 4288085770
0.18030548 -1.34149 -1.877018 4288085770
9.0163116 -3.9373505 -1.9497029 4288085770
3.6882553 -2.388025 -1.9190615 4288085770
4.9475098 -2.7645133 -1.9100285 4288085770
1.919014 -1.8739288 -1.8835369 4288085770
12.473938 -5.0315213 -1.9177914 4288085770
8.4608383 -3.8480239 -1.9472038 4288085770
0.13589478 -1.3658714 -1.8780025 4288085770
4.6755981 -2.739789 -1.9153571 4288085770
3.6019974 -2.4277704 -1.9170049 4288085770
1.8557281 -1.9084799 -1.8815135 4288085770
7.9333954 -3.7614639 -1.9437749 4288085770
12.248962 -5.0955353 -1.8805107 4293729569
0.098495483 -1.3911912 -1.8800056 4288085770
4.396637 -2.7091339 -1.9166514 4288085770
7.4379654 -3.6766343 -1.9404212 4288085770
3.537796 -2.4733171 -1.920015 4288085770
1.7954407 -1.9430029 -1.8804965 4288085770
4.159729 -2.6871119 -1.9230653 4288085770
12.143257 -5.1935229 -1.8536001 4293729569
0.064071655 -1.4164801 -1.8840148 4288085770
6.9745636 -3.596535 -1.9371527 4288085770
3.4555206 -2.5120313 -1.9169636 4288085770
3.9247971 -2.6630752 -1.9284768 4288085770
1.739151 -1.9774947 -1.8784881 4288085770
6.5221634 -3.5153491 -1.9319044 4288085770
12.141785 -5.3226128 -1.8360176 4293729569
3.7038879 -2.6409187 -1.934925 4288085770
3.3782806 -2.5517035 -1.9139262 4288085770
6.1268463 -3.4456699 -1.9318181 4288085770
1.7028885 -2.0178049 -1.8815421 4288085770
12.436081 -5.550148 -1.8483992 4293729569
3.4278183 -2.5972638 -1.9261831 4288085770
5.720459 -3.3680987 -1.9256819 4288085770
3.2900085 -2.5874755 -1.9078519 4288085770
3.1446991 -2.5476749 -1.9144064 4288085770
1.6576233 -2.0551989 -1.881567 4288085770
5.3391113 -3.2943146 -1.9206125 4288085770
12.712364 -5.7748508 -1.8547319 4293729569
2.9307327 -2.5184748 -1.9148467 4288085770
4.991806 -3.2272391 -1.917639 4288085770
3.2237778 -2.6290553 -1.9048444 4288085770
1.6414413 -2.1033306 -1.88869 4288085770
12.994705 -6.0065036 -1.8611004 4293729569
2.6946793 -2.4784722 -1.9102036 4288085770
4.6735458 -3.1669118 -1.9177508 4288085770
3.1545029 -2.6676619 -1.9008206 4288085770
2.4957047 -2.4491448 -1.9106761 4288085770
4.396347 -3.1162291 -1.9219832 4288085770
1.5981598 -2.1397107 -1.8877157 4288085770
13.332237 -6.2616897 -1.8696651 4293729569
2.2946854 -2.4158399 -1.9091311 4288085770
4.1301651 -3.0664535 -1.9262427 4288085770
3.1193542 -2.7199652 -1.9039155 4288085770
1.5408478 -2.1712182 -1.8826951 4288085770
13.729996 -6.5443645 -1.8814502 4293729569
13.62291 -6.5164094 -1.8271258 4293729569
3.871994 -3.0176163 -1.9285227 4288085770
2.0846329 -2.3776233 -1.9025506 4288085770
3.0420685 -2.7546501 -1.8958613 4288085770
3.6047516 -2.9608648 -1.9267569 4288085770
1.915657 -2.3510385 -1.905097 4288085770
1.5116043 -2.2124751 -1.883767 4288085770
13.018456 -6.4254489 -1.8415141 4293729569
3.3124313 -2.8923442 -1.9168984 4288085770
1.7266312 -2.3156426 -1.8995712 4288085770
3.0038757 -2.8029859 -1.8959366 4288085770
3.0521622 -2.8325469 -1.910138 4288085770
12.253479 -6.2668848 -1.8353329 4293729569
1.4803543 -2.2527511 -1.8838314 4288085770
1.5505981 -2.282129 -1.8970799 4288085770
2.8149261 -2.7775481 -1.9064434 4288085770
1.3996277 -2.2563977 -1.8976685 4288085770
2.9616852 -2.850358 -1.8949997 4288085770
11.624771 -6.1451507 -1.8395681 4293729569
2.6027451 -2.7303338 -1.9048287 4288085770
1.4440994 -2.2910745 -1.8818785 4288085770
1.2416077 -2.2257302 -1.8962256 4288085770
2.4116058 -2.6889296 -1.9082786 4288085770
2.9294968 -2.899646 -1.8940909 4288085770
10.796448 -5.9411559 -1.8171012 4293729569
1.0835724 -2.193068 -1.8927761 4288085770
1.4238586 -2.3342528 -1.8839759 4288085770
2.1943741 -2.6347704 -1.90163 4288085770
0.93554688 -2.1623189 -1.8903548 4288085770
2.008194 -2.590337 -1.9000812 4288085770
10.059288 -5.7593794 -1.8009052 4293729569
2.9013138 -2.9498973 -1.8941938 4288085770
0.80957031 -2.1393714 -1.8930067 4288085770
1.402626 -2.3764446 -1.884068 4288085770
1.8270187 -2.5458617 -1.8985425 4288085770
9.4685135 -5.6263475 -1.7961864 4293729569
1.6468506 -2.5003834 -1.8950031 4288085770
0.68559265 -2.1154099 -1.8946596 4288085770
2.8811722 -3.0040798 -1.8953269 4288085770
1.4746704 -2.4558375 -1.8914841 4288085770
1.3773804 -2.4176729 -1.8831482 4288085770
0.56458282 -2.0904253 -1.8953159 4288085770
8.6760254 -5.4020767 -1.7627319 4293729569
1.3245239 -2.4180932 -1.8930352 4288085770
0.42855072 -2.0585802 -1.8909168 4288085770
2.8630142 -3.0582442 -1.8964641 4288085770
1.1723633 -2.3773766 -1.8905721 4288085770
1.358139 -2.4608452 -1.8842477 4288085770
0.30249023 -2.0276482 -1.8875426 4288085770
8.0208969 -5.2226267 -1.7407223 4293729569
1.0322266 -2.3405535 -1.8901479 4288085770
0.18846893 -2.0016074 -1.8872104 4288085770
2.8408508 -3.1104484 -1.8955861 4288085770
0.89808655 -2.3046772 -1.8907397 4288085770
7.5362396 -5.1057034 -1.736287 4293729569
1.3368912 -2.5020421 -1.8823363 4288085770
0.076461792 -1.9755552 -1.8848826 4288085770
0.76093292 -2.2658372 -1.8873155 4288085770
0.63478088 -2.2298989 -1.8859245 4288085770
-0.028556824 -1.9504385 -1.884573 4288085770
2.8297195 -3.1675544 -1.8967481 4288085770
7.3013687 -5.0896077 -1.7637233 4293729569
0.51966095 -2.1978629 -1.8865702 4288085770
1.3096313 -2.5412922 -1.8794054 4288085770
-0.12356567 -1.9282324 -1.8862946 4288085770
0.40451813 -2.1638319 -1.8852096 4288085770
2.8246002 -3.2266099 -1.8979292 4288085770
0.29238129 -2.1307759 -1.8838583 4288085770
7.0192947 -5.0479245 -1.7839735 4293729569
0.20127106 -2.1045275 -1.8885752 4288085770
1.2983932 -2.5863972 -1.8805281 4288085770
0.10114288 -2.0743675 -1.8882596 4288085770
6.7361755 -5.0012603 -1.8002053 4293729569
7.7990723 -5.4735584 -1.0080466 4293729569
-0.010040283 -2.0373163 -1.8818976 4288085770
2.8355179 -3.2915232 -1.9021642 4288085770
-0.10218048 -2.0080864 -1.8826025 4288085770
1.29319 -2.6344519 -1.8816735 4288085770
-0.18930817 -1.9798176 -1.8823215 4288085770
7.7573929 -5.5257668 -0.33311969 4293729569
6.505188 -4.9731407 -1.8236109 4293729569
7.6808701 -5.5146818 -0.96592164 4293729569
7.4993134 -5.442071 -1.3782936 4293729569
2.8334045 -3.3515537 -1.9033545 4288085770
1.2839737 -2.6805427 -1.8818038 4288085770
6.1878891 -4.9037786 -1.8326944 4293729569
7.6652908 -5.5786619 -0.2950896 4293729569
7.4238434 -5.4845734 -1.4312668 4293729569
7.6268921 -5.5822573 -0.92802215 4293729569
2.8413086 -3.4154975 -1.9055797 4288085770
7.5310135 -5.5694747 -0.045765042 4293729569
5.9327698 -4.8578782 -1.8489897 4293729569
1.2827606 -2.7295637 -1.8829608 4288085770
7.3894806 -5.5427208 -1.4883804 4293729569
7.6193542 -5.6511698 -0.25722355 4293729569
7.6009979 -5.6615939 -0.89122188 4293729569
2.8451996 -3.4774799 -1.9057894 4288085770
7.3483582 -5.5779309 -0.078393996 4293729569
5.7558899 -4.8442945 -1.8765602 4293729569
7.4103012 -5.6253824 -1.5546936 4293729569
7.6326065 -5.7481837 -0.21956572 4293729569
1.2594757 -2.7677853 -1.8780347 4288085770
7.6543961 -5.7772593 -0.8587119 4293729569
2.8611221 -3.544354 -1.9090409 4288085770
5.605072 -4.8394833 -1.9072158 4288085770
7.3052368 -5.6492157 -0.11353043 4293729569
7.4351273 -5.709013 -1.6200182 4293729569
1.2682877 -2.8207164 -1.8812259 4288085770
5.4361801 -4.824831 -1.9348003 4288085770
7.3505325 -5.7405872 -1.6739359 4293729569
2.8760605 -3.6122415 -1.9102937 4288085770
7.3183365 -5.7470284 -0.1498751 4293729569
1.2690659 -2.8697233 -1.8813871 4288085770
7.1856079 -5.7298636 -1.7155414 4293729569
5.1849365 -4.765914 -1.9440615 4288085770
2.8939896 -3.6801038 -1.9115525 4288085770
6.8921738 -5.6542635 -1.7376565 4293729569
4.8854828 -4.6794271 -1.9431285 4288085770
1.2758713 -2.9216769 -1.8825705 4288085770
2.9149323 -3.7499411 -1.9128243 4288085770
6.6599503 -5.6051331 -1.7669908 4293729569
4.5739746 -4.5840526 -1.9371403 4288085770
1.2897034 -2.9775662 -1.8857821 4288085770
6.3734818 -5.5254827 -1.7861079 4293729569
4.2764816 -4.4915581 -1.9321923 4288085770
2.9418869 -3.8227251 -1.9151187 4288085770
5.9845886 -5.3897371 -1.7858204 4293729569
1.2944794 -3.0275419 -1.8849547 4288085770
4.019104 -4.4147201 -1.9303823 4288085770
2.9598007 -3.8895953 -1.9133739 4288085770
5.7733307 -5.3384399 -1.8111932 4293729569
3.7687225 -4.3378205 -1.9295872 4288085770
1.3133087 -3.0853891 -1.8881831 4288085770
5.3984146 -5.2005844 -1.8079294 4293729569
2.9897537 -3.9633565 -1.9146776 4288085770
3.5082626 -4.2510204 -1.9227382 4288085770
5.0204391 -5.0557671 -1.7996364 4293729569
1.3281174 -3.1402752 -1.889393 4288085770
3.0287476 -4.0420399 -1.9170169 4288085770
3.3029861 -4.1897316 -1.9260924 4288085770
4.8010788 -4.9895639 -1.8149436 4293729569
-0.43810272 -2.2460449 -1.8706514 4288085770
1.3499374 -3.1981001 -1.8916278 4288085770
3.0736008 -4.1136632 -1.9223459 4288085770
4.5947266 -4.927248 -1.8312918 4293729569
3.0787659 -4.125628 -1.9203959 4288085770
-0.42460632 -2.2769394 -1.8707811 4288085770
2.870285 -4.0473657 -1.9226879 4288085770
4.3541946 -4.8422356 -1.840492 4293729569
1.3777847 -3.259872 -1.8948883 4288085770
-0.40911865 -2.3078172 -1.8709151 4288085770
3.1197433 -4.2042994 -1.9207389 4288085770
4.2351379 -4.820158 -1.8691608 4293729569
2.6619263 -3.9761209 -1.9190031 4288085770
-0.3926239 -2.3396862 -1.8710543 4288085770
1.3976059 -3.3177159 -1.8961184 4288085770
4.1522141 -4.8157601 -1.9049655 4288085770
3.1617279 -4.2839627 -1.9210874 4288085770
2.4685974 -3.9087467 -1.9163635 4288085770
-0.37213898 -2.3725195 -1.8722054 4288085770
4.0521927 -4.7995176 -1.9356945 4288085770
2.2863007 -3.8462784 -1.9147639 4288085770
1.4224243 -3.376518 -1.8973625 4288085770
3.2177505 -4.3695035 -1.9234854 4288085770
-0.3486557 -2.406327 -1.8733662 4288085770
3.8336639 -4.7163334 -1.9399487 4288085770
2.117012 -3.7866969 -1.9142021 4288085770
-0.32117462 -2.4411013 -1.8745387 4288085770
3.6251297 -4.6340652 -1.9442277 4288085770
1.4502411 -3.4372978 -1.8976192 4288085770
3.3159485 -4.4796677 -1.9350545 4288085770
1.9416809 -3.7221749 -1.910611 4288085770
-0.30774689 -2.4680088 -1.869655 4288085770
3.3864746 -4.5340724 -1.9393839 4288085770
3.1327133 -4.4212236 -1.9274656 4288085770
1.7723541 -3.6576042 -1.906033 4288085770
-0.27626038 -2.5047464 -1.8718425 4288085770
1.4740372 -3.4951103 -1.8978577 4288085770
3.4101334 -4.5878739 -1.9436086 4288085770
2.8829498 -4.3083448 -1.9145559 4288085770
-0.25485229 -2.5335839 -1.8679824 4288085770
1.6281052 -3.6058078 -1.9075511 4288085770
2.7175217 -4.2407155 -1.9189765 4288085770
-0.22338867 -2.5693235 -1.8691666 4288085770
1.5098648 -3.5588174 -1.9001412 4288085770
3.4621506 -4.6734586 -1.9419974 4288085770
1.4677734 -3.5421643 -1.9019955 4288085770
2.5349808 -4.1602449 -1.9173182 4288085770
-0.17590332 -2.6119192 -1.8744078 4288085770
2.3654785 -4.0846648 -1.9157044 4288085770
1.3355331 -3.4922724 -1.901546 4288085770
-0.13645172 -2.6495945 -1.8746156 4288085770
3.5211792 -4.7619843 -1.940411 4288085770
1.5557709 -3.6304379 -1.9034721 4288085770
2.2089996 -4.0139699 -1.9161346 4288085770
-0.09400177 -2.688242 -1.875833 4288085770
1.2022552 -3.439389 -1.9010844 4288085770
2.0494995 -3.9403088 -1.9135488 4288085770
-0.043525696 -2.7308168 -1.8790804 4288085770
3.4596558 -4.7785883 -1.9113292 4288085770
1.0739899 -3.388463 -1.9006401 4288085770
1.91008 -3.8764718 -1.9140385 4288085770
1.5956039 -3.6961138 -1.9047706 4288085770
0.0059127808 -2.7714059 -1.8803192 4288085770
1.759552 -3.8027396 -1.9094721 4288085770
0.95775604 -3.3414366 -1.9002348 4288085770
0.051345825 -2.8100307 -1.880543 4288085770
1.6120605 -3.7309828 -1.9049187 4288085770
0.11682129 -2.8584766 -1.8848422 4288085770
3.3689957 -4.7764506 -1.8761232 4293729569
1.4866104 -3.6680334 -1.9034417 4288085770
0.8465271 -3.2963657 -1.9008466 4288085770
1.6394501 -3.7647533 -1.9070872 4288085770
0.16722107 -2.8970623 -1.8840766 4288085770
1.3712006 -3.6109943 -1.9040059 4288085770
0.2186203 -2.935642 -1.8823133 4288085770
1.2517395 -3.5489969 -1.9015453 4288085770
0.29206848 -2.9850206 -1.8866327 4288085770
0.72823334 -3.2443638 -1.8974206 4288085770
1.1362839 -3.4879658 -1.8990965 4288085770
0.3524704 -3.0265222 -1.8858982 4288085770
1.0318604 -3.4318397 -1.8976876 4288085770
3.2933655 -4.7811823 -1.8429723 4293729569
0.43495941 -3.0808227 -1.8912535 4288085770
0.93143463 -3.3766801 -1.8962905 4288085770
0.50937653 -3.128201 -1.8925683 4288085770
0.84705353 -3.3293779 -1.897954 4288085770
0.60083771 -3.1844234 -1.8989494 4288085770
0.75763702 -3.2781231 -1.8975936 4288085770
0.67723846 -3.2307901 -1.8982655 4288085770
0.63002777 -3.2041812 -1.8990767 4288085770
1.6812744 -3.8314126 -1.9083928 4288085770
0.51571655 -3.1511478 -1.8946562 4288085770
3.2860336 -4.8253088 -1.8230975 4293729569
0.42147827 -3.1089392 -1.8933144 4288085770
1.7321396 -3.9029963 -1.909734 4288085770
0.32720947 -3.0647275 -1.8929663 4288085770
0.2409668 -3.0244484 -1.8926482 4288085770
3.3068008 -4.884182 -1.8103313 4293729569
0.14966583 -2.9792194 -1.8893031 4288085770
1.7819824 -3.973588 -1.9110698 4288085770
0.067420959 -2.9389098 -1.8879936 4288085770
-0.0098419189 -2.8995552 -1.8876981 4288085770
3.3024521 -4.9272833 -1.7904596 4293729569
-0.7103653 -2.473413 -1.8757962 4288085770
-0.089118958 -2.858223 -1.8853918 4288085770
-0.67003632 -2.5050793 -1.8759863 4288085770
-0.16943359 -2.8139038 -1.8810737 4288085770
1.8469009 -4.0530462 -1.9154668 4288085770
-0.62171936 -2.5386751 -1.8772 4288085770
-0.23872375 -2.7754872 -1.8787988 4288085770
-0.57942963 -2.5683298 -1.8753877 4288085770
-0.29795837 -2.742976 -1.8805648 4288085770
-0.53414154 -2.5989563 -1.8745854 4288085770
-0.41955566 -2.6699944 -1.8780643 4288085770
-0.36527252 -2.7035451 -1.8772908 4288085770
-0.46980286 -2.6394072 -1.8798561 4288085770
3.3714066 -5.0127349 -1.7848843 4293729569
1.8896866 -4.1177096 -1.9117677 4288085770
3.4333267 -5.094254 -1.7762809 4293729569
1.9455338 -4.1902537 -1.9121225 4288085770
3.5615387 -5.2161846 -1.7809522 4293729569
1.9912872 -4.2548923 -1.90843 4288085770
3.7128677 -5.3519173 -1.7877187 4293729569
2.0842896 -4.3501077 -1.9159386 4288085770
3.8561249 -5.4817224 -1.7924482 4293729569
4.0104446 -5.6184354 -1.7972239 4293729569
2.1983719 -4.4581356 -1.9275347 4288085770
4.177803 -5.7630372 -1.8030535 4293729569
2.3174667 -4.5681219 -1.9391477 4288085770
4.3642654 -5.9194765 -1.8099626 4293729569
2.4154358 -4.6643004 -1.9446703 4288085770
4.5336227 -6.0640721 -1.8117964 4293729569
2.4531021 -4.7200246 -1.933931 4288085770
4.711998 -6.2125912 -1.8136626 4293729569
2.4244385 -4.7313519 -1.9039037 4288085770
4.9124985 -6.3759217 -1.8176244 4293729569
2.3866882 -4.7337575 -1.872828 4293729569
5.1411209 -6.5570121 -1.823705 4293729569
2.3459091 -4.7331953 -1.8387361 4293729569
2.3493195 -4.759233 -1.8168263 4293729569
2.3698044 -4.7961226 -1.7969888 4293729569
2.3882294 -4.8280315 -1.776131 4293729569
2.4488678 -4.8885612 -1.7654573 4293729569
2.5094757 -4.9460998 -1.7517737 4293729569
2.5529861 -4.9917908 -1.7340149 4293729569
2.6678314 -5.08285 -1.7305579 4293729569
2.8158264 -5.1956134 -1.734243 4293729569
5.0073013 -6.7061453 -1.8338825 4293729569
3.0552826 -5.3695722 -1.7543247 4293729569
4.7107391 -6.5126386 -1.8236127 4293729569
3.6487274 -5.7894917 -1.8109697 4293729569
4.4613953 -6.3477235 -1.8185381 4293729569
4.236145 -6.1966028 -1.8155603 4293729569
3.825798 -5.9150233 -1.8107597 4293729569
4.0179214 -6.0484257 -1.8116077 4293729569
0.53107452 3.7543066 -1.7895589 4288085770
0.45845032 3.7047551 -1.7883209 4288085770
0.61961365 3.81299 -1.7948552 4288085770
0.69822693 3.8645837 -1.7951201 4288085770
0.37197113 3.6430824 -1.7820467 4288085770
0.78385162 3.9182351 -1.7974173 4288085770
0.30635834 3.5955825 -1.780841 4288085770
0.87146759 3.9728954 -1.7977222 4288085770
0.24772644 3.5521393 -1.7806607 4288085770
0.9720459 4.0336623 -1.8010792 4288085770
0.18515015 3.503659 -1.7784758 4288085770
1.100441 4.1126642 -1.8125303 4288085770
0.12656403 3.457211 -1.7773063 4288085770
1.1712799 4.1501679 -1.8037999 4288085770
0.080932617 3.4178667 -1.7781852 4288085770
1.2709579 4.2049146 -1.8031726 4288085770
0.032333374 3.3754973 -1.7780581 4288085770
1.3646927 4.2546024 -1.7985293 4288085770
-0.013252258 3.334147 -1.7769444 4288085770
1.4624405 4.3053217 -1.793905 4288085770
-0.061805725 3.2897701 -1.7748241 4288085770
1.5890198 4.3732781 -1.796384 4288085770
-0.10338593 3.2494531 -1.7747296 4288085770
1.6977692 4.4260788 -1.7918146 4288085770
1.9336472 4.5778675 -1.7956195 4288085770
2.0331726 4.6426063 -1.7919567 4288085770
1.8241959 4.5050416 -1.7952545 4288085770
2.1426849 4.7124224 -1.7893326 4288085770
1.7356567 4.4433851 -1.7989686 4288085770
2.2770462 4.797442 -1.7917962 4288085770
1.6044006 4.3533654 -1.7895399 4288085770
2.4244003 4.8875618 -1.7953154 4288085770
-0.13798523 3.2121899 -1.7756637 4288085770
1.5298462 4.2978158 -1.7943119 4288085770
1.826416 4.4910412 -1.7913156 4288085770
2.5538788 4.9645276 -1.7927792 4288085770
1.4642258 4.2483382 -1.8001136 4288085770
2.6784058 5.0374503 -1.7882291 4288085770
1.3896942 4.190783 -1.8028927 4288085770
-0.17156219 3.1749322 -1.7756037 4288085770
2.8208923 5.1185088 -1.784752 4288085770
1.9511261 4.5509653 -1.7878118 4288085770
1.3271408 4.1393204 -1.8067183 4288085770
2.9594116 5.1955333 -1.7792668 4288085770
-0.20115662 3.1397073 -1.7765591 4288085770
1.2437286 4.073679 -1.8034754 4288085770
3.1198502 5.2847281 -1.7758631 4288085770
2.0937576 4.6200347 -1.7883775 4288085770
1.1643219 4.0090694 -1.8012514 4288085770
3.2982178 5.3820672 -1.7755325 4288085770
-0.21683502 3.1126025 -1.7825651 4288085770
2.2453537 4.6931729 -1.7889798 4288085770
1.0879135 3.9454801 -1.7980407 4288085770
3.4865723 5.4834762 -1.7742442 4288085770
3.6630173 5.5757833 -1.7689199 4288085770
1.0314178 3.8930523 -1.7989042 4288085770
2.4128952 4.7734389 -1.7926477 4288085770
-0.24338531 3.0763993 -1.7835413 4288085770
3.8832626 5.6924396 -1.7697588 4288085770
0.9699707 3.8365839 -1.7987535 4288085770
2.5764923 4.8496642 -1.792307 4288085770
-0.27191925 3.039175 -1.7825097 4288085770
4.1125031 5.8111629 -1.7706413 4288085770
0.90655518 3.7780912 -1.7955989 4288085770
2.7471085 4.9259391 -1.7920061 4288085770
4.3596878 5.939024 -1.7725934 4288085770
-0.29547119 3.0039914 -1.7824994 4288085770
0.85310364 3.7256792 -1.7944793 4288085770
4.6228256 6.0730019 -1.7736146 4288085770
2.9078217 4.9941278 -1.7876773 4288085770
0.80165863 3.6732819 -1.7933711 4288085770
-0.31303406 2.9718583 -1.7845123 4288085770
4.8989258 6.2120843 -1.7766916 4288085770
0.75618744 3.623934 -1.7932862 4288085770
3.0924225 5.0745058 -1.7864411 4288085770
-0.33059692 2.9397249 -1.7865252 4288085770
5.2069244 6.3664045 -1.7798954 4288085770
0.69286346 3.5614309 -1.787146 4288085770
3.2720871 5.1488395 -1.7831984 4288085770
5.5139618 6.516715 -1.7821082 4288085770
-0.35010529 2.904567 -1.7855378 4288085770
0.6583786 3.5171669 -1.7881055 4288085770
3.4756622 5.2353592 -1.7820483 4288085770
5.8608627 6.6863279 -1.7854791 4288085770
-0.36663055 2.8714354 -1.7855603 4288085770
0.6139679 3.4658158 -1.7850337 4288085770
3.6892166 5.3239532 -1.7809477 4288085770
6.2476044 6.8762527 -1.7930046 4288085770
0.56858063 3.4134572 -1.78196 4288085770
-0.37517548 2.8413723 -1.7886173 4288085770
6.662262 7.077384 -1.7996494 4288085770
3.9077988 5.4125819 -1.7788754 4288085770
8.7043381 8.2877407 -1.7959787 4282675967
0.5361557 3.3672011 -1.7809383 4288085770
-0.38468933 2.8102949 -1.7896723 4288085770
7.1237488 7.3008771 -1.8094809 4282675967
4.149292 5.5113907 -1.7798973 4288085770
8.3747787 8.0032234 -1.7901077 4288085770
0.50869751 3.3239896 -1.7819341 4288085770
7.5773468 7.5142918 -1.8133031 4282675967
-0.4031601 2.7741416 -1.7876945 4288085770
4.4007874 5.6122694 -1.7789688 4288085770
0.49419403 3.2868807 -1.7849823 4288085770
8.0091553 7.7075214 -1.8110726 4282675967
8.0154037 7.7034521 -1.7751215 4288085770
-0.41662598 2.740025 -1.785738 4288085770
4.6702347 5.7192888 -1.7801206 4288085770
0.46279144 3.2406297 -1.7829666 4288085770
8.6260834 8.0032082 -1.8295326 4282675967
7.8341064 7.5100999 -1.7847723 4288085770
-0.42014313 2.7109959 -1.78782 4288085770
4.9457016 5.826345 -1.7793063 4288085770
9.2371368 8.2888241 -1.8399944 4282675967
0.44631195 3.2024996 -1.7840072 4288085770
5.248085 5.9436121 -1.7806093 4288085770
-0.42363739 2.6809635 -1.788906 4288085770
7.5841751 7.2791853 -1.7801657 4288085770
0.42687225 3.1613443 -1.7840418 4288085770
5.580368 6.0741115 -1.7850351 4288085770
-0.42216492 2.6539743 -1.7920095 4288085770
7.3302612 7.0472345 -1.7735401 4288085770
0.41342163 3.1232369 -1.7850995 4288085770
5.9246292 6.2066946 -1.7875221 4288085770
-0.42068481 2.626982 -1.794113 4288085770
0.40596771 3.0871775 -1.7871842 4288085770
7.0952377 6.8304291 -1.7679691 4288085770
-1.2112198 2.1681094 -1.8192427 4288085770
-1.2150574 2.1650105 -1.7972314 4288085770
6.2848969 6.3423967 -1.7900887 4288085770
-1.1672287 2.1893792 -1.8004169 4288085770
-1.1253586 2.210691 -1.7995797 4288085770
-1.0834427 2.2299991 -1.7977496 4288085770
-0.42711639 2.5939176 -1.7921931 4288085770
0.39552307 3.0490916 -1.7882591 4288085770
-1.0345535 2.2523689 -1.7989483 4288085770
6.8930664 6.6328793 -1.7645171 4288085770
-0.98170471 2.2777681 -1.800159 4288085770
