# .PCD v0.7 - Point Cloud Data file format
VERSION 0.7
FIELDS x y z rgb
SIZE 4 4 4 4
TYPE F F F U
COUNT 1 1 1 1
WIDTH 1125
HEIGHT 1
VIEWPOINT 0 0 0 1 0 0 0
POINTS 1125
DATA ascii
3.1565857 3.0449572 -1.7909987 4288085770
4.3382874 3.6028683 -1.8066711 4288085770
1.8662796 2.412926 -1.8185232 4288085770
8.9063339 5.7359099 -1.8056154 4288085770
3.2967529 3.0822942 -1.7919354 4288085770
4.5553207 3.675415 -1.8145249 4288085770
2.6475067 2.7737393 -1.7966716 4288085770
4.7404175 3.7298465 -1.811424 4288085770
3.4449158 3.1216495 -1.7928686 4288085770
1.8807526 2.3839531 -1.8186243 4288085770
8.7960892 5.5936289 -1.8050318 4288085770
2.6629639 2.7417753 -1.7987826 4288085770
4.9634857 3.8003967 -1.8162863 4288085770
3.5950928 3.1600065 -1.7928059 4288085770
5.1965561 3.8719716 -1.8211496 4288085770
1.9012299 2.3570013 -1.8207211 4288085770
3.7522507 3.2003841 -1.7937396 4288085770
2.6844254 2.7108297 -1.8018925 4288085770
8.6758499 5.4493184 -1.8024502 4288085770
5.4416046 3.9475718 -1.8250043 4288085770
3.9234161 3.243798 -1.7956686 4288085770
1.9176941 2.3290329 -1.8208196 4288085770
2.7019196 2.6768632 -1.8020108 4288085770
5.6657028 4.0090961 -1.8218958 4288085770
8.6065521 5.3281555 -1.8068142 4288085770
4.092598 3.2842035 -1.7966068 4288085770
5.8908234 4.0686164 -1.8167944 4288085770
14.851273 8.0405407 -1.8945563 4288085770
1.9451675 2.3041008 -1.8239126 4288085770
2.7144012 2.6418786 -1.8001299 4288085770
4.2877655 3.3336821 -1.8005259 4288085770
8.543251 5.2120013 -1.8101642 4288085770
6.130928 4.1321764 -1.8126855 4288085770
4.4949188 3.3861971 -1.8064399 4288085770
0.93964386 1.8337419 -1.8470304 4288085770
14.565323 7.7778077 -1.8862891 4288085770
1.9676514 2.2771499 -1.8250101 4288085770
6.3900375 4.2007861 -1.8095679 4288085770
2.7358704 2.609926 -1.8012428 4288085770
8.4819412 5.096849 -1.8125114 4288085770
4.685112 3.4286454 -1.8053794 4288085770
0.86610413 1.7804255 -1.8081741 4288085770
6.7140884 4.2935815 -1.815398 4288085770
14.249413 7.5059857 -1.8730388 4288085770
2.7613525 2.5789859 -1.803354 4288085770
1.9951477 2.2512145 -1.8271062 4288085770
8.4356308 4.98774 -1.8168449 4288085770
4.8763123 3.4690936 -1.8033257 4288085770
7.0251541 4.3773293 -1.816252 4288085770
0.87146759 1.7614318 -1.8082385 4288085770
14.061363 7.2915115 -1.8716543 4288085770
5.0984955 3.5196335 -1.8062515 4288085770
2.7878342 2.5490441 -1.8044622 4288085770
7.2823029 4.4349022 -1.8041687 4288085770
2.0126266 2.2222412 -1.8252077 4288085770
0.88482666 1.7454684 -1.8112967 4288085770
8.3863297 4.8786144 -1.8181772 4288085770
7.6543427 4.5358129 -1.8099914 4288085770
5.3166885 3.5651565 -1.8071918 4288085770
0.88921356 1.7244658 -1.8093672 4288085770
13.958206 7.1172686 -1.8771734 4288085770
2.8163223 2.5181081 -1.8055742 4288085770
2.0441055 2.197319 -1.8283019 4288085770
8.3569946 4.7785501 -1.8234878 4288085770
8.0553894 4.6427946 -1.8158057 4288085770
5.5598679 3.618746 -1.8101158 4288085770
0.89859772 1.7054816 -1.8094335 4288085770
2.8398209 2.4851491 -1.8036907 4288085770
13.751167 6.9017291 -1.8697841 4288085770
2.0696106 2.1693685 -1.8274033 4288085770
8.4764023 4.7558231 -1.8216081 4288085770
5.8120651 3.6723537 -1.8120432 4288085770
8.2957001 4.6663818 -1.8208244 4288085770
0.90598297 1.6854863 -1.8075018 4288085770
8.8794708 4.8537841 -1.8204515 4288085770
2.8773041 2.4572408 -1.8067963 4288085770
6.0632706 3.720953 -1.8119862 4288085770
13.511147 6.6760864 -1.8554139 4288085770
2.0991058 2.1434345 -1.8284996 4288085770
8.2543869 4.5622706 -1.8211429 4288085770
0.91539001 1.6654955 -1.8055711 4288085770
9.2895584 4.9497547 -1.8173039 4288085770
6.3414612 3.7776291 -1.8159137 4288085770
2.9137878 2.4283233 -1.8079047 4288085770
13.365044 6.4907069 -1.8519509 4288085770
2.1266022 2.1154881 -1.8276014 4288085770
0.93177795 1.6485347 -1.8076332 4288085770
9.7366104 5.0558181 -1.8151379 4288085770
8.1901016 4.4500842 -1.8154776 4288085770
6.6176605 3.8292875 -1.815856 4288085770
0.83618927 1.5933019 -1.808774 4288085770
2.9502792 2.3994098 -1.8100128 4288085770
10.239639 5.1760263 -1.8159482 4288085770
0.94418335 1.6295508 -1.8057003 4288085770
13.242897 6.3173833 -1.8474581 4288085770
0.89226532 1.6074283 -1.806751 4288085770
2.159111 2.0895607 -1.8286986 4288085770
6.9248581 3.8890338 -1.8197844 4288085770
0.95931244 1.6265985 -1.809716 4288085770
8.1757507 4.3590493 -1.8187642 4288085770
0.83646393 1.5773422 -1.8218262 4288085770
0.84247589 1.579285 -1.8008225 4288085770
0.8944397 1.598417 -1.8027813 4288085770
0.93941498 1.6145153 -1.7997472 4288085770
0.99838257 1.6356667 -1.8027024 4288085770
1.0163956 1.6407236 -1.8066936 4288085770
1.0553665 1.6548039 -1.8026636 4288085770
1.122345 1.6779816 -1.8076153 4288085770
10.76667 5.2982917 -1.816761 4288085770
1.1893463 1.699149 -1.8095739 4288085770
1.0834732 1.6578865 -1.8076649 4288085770
0.95558929 1.6095648 -1.8037701 4288085770
2.9817734 2.3684702 -1.8081253 4288085770
1.2543411 1.7203083 -1.8105314 4288085770
1.3273392 1.7434965 -1.8144855 4288085770
13.161713 6.1611714 -1.8469262 4288085770
7.2440567 3.9498119 -1.8247137 4288085770
2.2065887 2.0686836 -1.8337853 4288085770
1.1535568 1.6750529 -1.8076377 4288085770
1.4013596 1.7656808 -1.8164437 4288085770
8.1734085 4.2720394 -1.8210421 4288085770
1.4673843 1.7848314 -1.8144081 4288085770
1.2356339 1.6962653 -1.812602 4288085770
11.362656 5.4407377 -1.8215353 4288085770
1.5464096 1.8080235 -1.8153648 4288085770
0.97400665 1.5916014 -1.8038361 4288085770
1.623436 1.8302081 -1.8153238 4288085770
1.3137207 1.7154579 -1.8145714 4288085770
3.0352402 2.3446074 -1.8132236 4288085770
7.5712433 4.0095968 -1.8256493 4288085770
1.7004776 1.8513887 -1.8142862 4288085770
13.110504 6.0170355 -1.8473668 4288085770
1.3988037 1.7366738 -1.8185368 4288085770
2.2191086 2.0346775 -1.8259003 4288085770
1.7985077 1.8786433 -1.8202372 4288085770
12.000618 5.5902863 -1.8273032 4288085770
8.1680679 4.1830192 -1.822325 4288085770
1.8835449 1.9018433 -1.819196 4288085770
1.4759064 1.7538502 -1.8165119 4288085770
0.99241638 1.5736393 -1.8039021 4288085770
7.8764877 4.0553131 -1.8226211 4288085770
1.9816132 1.9270869 -1.8221536 4288085770
1.559021 1.7720503 -1.8174865 4288085770
3.0677643 2.3116663 -1.8103428 4288085770
2.0816498 1.9543359 -1.8251054 4288085770
12.701569 5.7529869 -1.8330526 4288085770
13.052299 5.8718758 -1.8458076 4288085770
2.2655945 2.0127945 -1.8299897 4288085770
1.6501312 1.7922739 -1.8194573 4288085770
2.1817245 1.9785746 -1.8250668 4288085770
8.1657257 4.0960054 -1.8236024 4288085770
1.0128326 1.5556809 -1.8039687 4288085770
8.2137146 4.1091137 -1.821579 4288085770
2.2747879 2.0007861 -1.822032 4288085770
1.7352524 1.8094691 -1.817436 4288085770
13.451485 5.9258084 -1.8397882 4288085770
3.1172409 2.2857835 -1.8124456 4288085770
2.3698807 2.0219994 -1.8180013 4288085770
1.8293839 1.8286957 -1.8184114 4288085770
12.976112 5.7206626 -1.8412604 4288085770
2.3100967 1.9888992 -1.8320844 4288085770
2.4679794 2.043215 -1.8129716 4288085770
8.5859299 4.1700087 -1.8235276 4288085770
1.0362549 1.538733 -1.8050334 4288085770
1.9335022 1.8509532 -1.8213806 4288085770
8.181366 4.0160422 -1.826864 4288085770
2.5810623 2.0694852 -1.8129313 4288085770
14.287361 6.1178498 -1.8504946 4288085770
2.0386353 1.8722098 -1.8233538 4288085770
3.1707458 2.2589104 -1.8145533 4288085770
2.7161331 2.1018209 -1.8168805 4288085770
8.9621429 4.2279062 -1.8234868 4288085770
1.0526733 1.5197552 -1.8021016 4288085770
2.1397705 1.8914498 -1.8233316 4288085770
12.967873 5.5936284 -1.8416617 4288085770
2.343605 1.9609644 -1.8301878 4288085770
2.8412247 2.1291223 -1.8178418 4288085770
15.167252 6.3119869 -1.8582108 4288085770
8.2279816 3.9451673 -1.8341081 4288085770
2.9573364 2.1523819 -1.8128123 4288085770
2.2588959 1.9157466 -1.8273003 4288085770
3.2232437 2.2320306 -1.8156602 4288085770
9.3773422 4.293911 -1.8274348 4288085770
3.0914307 2.1806982 -1.8117735 4288085770
1.0761032 1.5018042 -1.8021691 4288085770
2.3560562 1.930963 -1.8232894 4288085770
2.3871078 1.9360635 -1.8312852 4288085770
12.986603 5.4756694 -1.8440442 4288085770
16.235992 6.5606165 -1.8768249 4288085770
3.2325439 2.209034 -1.8117375 4288085770
2.4632263 1.9482068 -1.8202758 4288085770
8.2686081 3.8722713 -1.8393562 4288085770
3.3896408 2.2424192 -1.8146915 4288085770
9.803566 4.3559318 -1.8283994 4288085770
3.2817307 2.2061691 -1.817766 4288085770
1.0995178 1.48385 -1.8012366 4288085770
2.5683823 1.9644426 -1.8162646 4288085770
2.4256058 1.9091403 -1.8293869 4288085770
3.54776 2.2737956 -1.8146522 4288085770
12.985359 5.3516498 -1.8434377 4288085770
2.7015457 1.9877657 -1.8182416 4288085770
8.2602692 3.7832227 -1.8346367 4288085770
3.7078705 2.3051779 -1.8146136 4288085770
10.269775 4.4250588 -1.8323562 4288085770
3.3332367 2.1772842 -1.8178785 4288085770
1.1289597 1.4669167 -1.8023031 4288085770
2.827713 2.0080645 -1.8182256 4288085770
3.8749847 2.3365729 -1.8135774 4288085770
2.4601059 1.881201 -1.8254902 4288085770
12.998093 5.2346611 -1.841814 4288085770
2.9708786 2.0314152 -1.8212061 4288085770
10.740982 4.4901876 -1.8333273 4288085770
4.0541077 2.3699996 -1.8135395 4288085770
8.2929077 3.7072933 -1.8358905 4288085770
1.1573868 1.4499779 -1.8023691 4288085770
3.4017105 2.1544502 -1.8209782 4288085770
3.1240311 2.0577929 -1.8251808 4288085770
4.2472229 2.4064672 -1.8154967 4288085770
2.508606 1.8563091 -1.8255889 4288085770
13.068794 5.1338272 -1.8451602 4288085770
11.228218 4.5533571 -1.83531 4288085770
3.2542343 2.0740883 -1.8211787 4288085770
4.4413681 2.4399295 -1.8154643 4288085770
1.1878052 1.4330468 -1.8034358 4288085770
8.3235474 3.6313553 -1.8361433 4288085770
3.4682083 2.1286075 -1.8230865 4288085770
4.6335068 2.4723775 -1.812434 4288085770
3.4014206 2.094434 -1.8201702 4288085770
2.5481186 1.8283815 -1.8216939 4288085770
11.774414 4.6286826 -1.8412762 4288085770
13.151459 5.0380273 -1.8494947 4288085770
1.2242203 1.4181335 -1.8054984 4288085770
4.8606262 2.5129292 -1.8153911 4288085770
3.5655975 2.1188309 -1.8221552 4288085770
8.3441849 3.5523844 -1.8334019 4288085770
3.5406876 2.1047802 -1.8251905 4288085770
5.0897675 2.5504797 -1.8163586 4288085770
12.284676 4.6838899 -1.8382919 4288085770
3.7377853 2.1432469 -1.8241432 4288085770
2.5936356 1.801475 -1.8197978 4288085770
13.24015 4.9412355 -1.8518341 4288085770
1.2526703 1.3991877 -1.8035707 4288085770
5.3358994 2.5920742 -1.8183193 4288085770
8.3818054 3.4784603 -1.8326507 4288085770
3.9089813 2.165657 -1.8251367 4288085770
3.6231842 2.081986 -1.8302948 4288085770
12.852905 4.7492542 -1.840297 4288085770
5.5690536 2.6266165 -1.8142977 4288085770
2.644104 1.7775842 -1.8188937 4288085770
1.2820969 1.3812439 -1.80164 4288085770
4.0801849 2.1860571 -1.8231368 4288085770
13.336823 4.8474622 -1.8541665 4288085770
5.8262177 2.6652265 -1.8132718 4288085770
3.6896667 2.0551333 -1.8294058 4288085770
8.4434204 3.4106004 -1.8338888 4288085770
13.524094 4.8368921 -1.8502696 4288085770
4.2684097 2.208508 -1.8241365 4288085770
1.3175507 1.3633213 -1.8017113 4288085770
2.69561 1.7516925 -1.8169961 4288085770
6.1053543 2.7078919 -1.813241 4288085770
13.491455 4.7688413 -1.8604722 4288085770
4.4466248 2.2269208 -1.8211453 4288085770
3.7681427 2.0313168 -1.8305116 4288085770
8.4980469 3.3407173 -1.8331306 4288085770
14.175308 4.9094615 -1.8542814 4288085770
6.4054947 2.7536156 -1.8152087 4288085770
1.3609772 1.3484247 -1.8037763 4288085770
4.6538315 2.2514172 -1.8221455 4288085770
2.7570953 1.7288351 -1.8180926 4288085770
6.7336426 2.8024089 -1.8181765 4288085770
13.609131 4.6771121 -1.860805 4288085770
3.8326416 2.0014527 -1.827631 4288085770
14.867523 4.9851365 -1.8602986 4288085770
4.8650513 2.2739191 -1.8221533 4288085770
8.5556793 3.269841 -1.832376 4288085770
1.3973999 1.3315014 -1.8028445 4288085770
7.0547943 2.8471761 -1.8181546 4288085770
2.821579 1.705981 -1.8181901 4288085770
5.0842743 2.2964435 -1.8231642 4288085770
13.796768 4.6025701 -1.8671093 4288085770
3.918129 1.9776525 -1.8287389 4288085770
15.576759 5.0538406 -1.8633435 4288085770
7.3689728 2.8859055 -1.812149 4288085770
8.6322861 3.2030137 -1.8326156 4288085770
1.4368515 1.313585 -1.8019173 4288085770
5.3154984 2.3199935 -1.8231759 4288085770
2.892067 1.6841483 -1.8202863 4288085770
7.7411346 2.935797 -1.8131294 4288085770
13.951431 4.516933 -1.8684359 4288085770
16.337982 5.1256771 -1.868397 4288085770
4.0026093 1.9518468 -1.8288527 4288085770
5.5667267 2.3456049 -1.8271883 4288085770
1.4842606 1.2987016 -1.8049829 4288085770
8.7348862 3.1432595 -1.8358421 4288085770
8.1752625 2.9978619 -1.8210943 4288085770
2.9685593 1.6623298 -1.8223846 4288085770
5.812973 2.3671873 -1.8262115 4288085770
4.1090775 1.9311073 -1.8329585 4288085770
8.6303787 3.0609739 -1.828063 4288085770
14.176041 4.4474807 -1.8747368 4288085770
1.5297012 1.2818028 -1.8050544 4288085770
8.823494 3.0784578 -1.835079 4288085770
6.0812073 2.3908322 -1.8282363 4288085770
3.0350418 1.6374772 -1.8214889 4288085770
9.0985184 3.1221094 -1.8330429 4288085770
4.2025528 1.906319 -1.8320718 4288085770
1.5721207 1.2648904 -1.8031247 4288085770
14.406662 4.3770347 -1.8790424 4288085770
6.3464661 2.4104569 -1.8262725 4288085770
9.6156387 3.1893692 -1.8400211 4288085770
8.9420776 3.0207412 -1.8383045 4288085770
3.1195068 1.617682 -1.8245833 4288085770
1.6265411 1.2500242 -1.8061929 4288085770
4.2950439 1.8795294 -1.8311911 4288085770
6.6267319 2.4301169 -1.8243136 4288085770
10.155785 3.2546744 -1.8440137 4288085770
14.684258 4.3147159 -1.8873394 4288085770
9.0736618 2.9650567 -1.8415279 4288085770
3.193985 1.5938486 -1.8236866 4288085770
6.9169846 2.4498043 -1.8233585 4288085770
10.721924 3.322041 -1.8480091 4288085770
1.6759796 1.2331347 -1.8062656 4288085770
4.4055023 1.8567889 -1.8323038 4288085770
14.991852 4.255465 -1.8946371 4288085770
7.2382584 2.4705689 -1.8234112 4288085770
11.375046 3.4006329 -1.8570008 4288085770
9.2072525 2.9073732 -1.8437583 4288085770
3.2684555 1.5700127 -1.82179 4288085770
1.7343903 1.2182747 -1.8083348 4288085770
4.5189743 1.8340561 -1.8334177 4288085770
7.5625381 2.4903371 -1.8224676 4288085770
12.041176 3.4752429 -1.8620093 4288085770
15.349419 4.2043486 -1.9059269 4288085770
3.3649292 1.5492451 -1.8248916 4288085770
9.3508224 2.8517137 -1.8459854 4288085770
1.7978134 1.2034293 -1.8114059 4288085770
4.6164398 1.8062679 -1.8295412 4288085770
7.9347916 2.5162411 -1.8275223 4288085770
12.791283 3.5600684 -1.8710158 4288085770
1.6240768 1.1549886 -1.805495 4288085770
1.715065 1.1722132 -1.8074744 4288085770
1.8040466 1.1894237 -1.8064528 4288085770
1.8910446 1.2056251 -1.8044338 4288085770
15.742973 4.158318 -1.9172137 4288085770
1.9830551 1.2218387 -1.8024166 4288085770
2.0910492 1.2411073 -1.8053956 4288085770
3.4374084 1.5233942 -1.8200002 4288085770
1.8452301 1.1855221 -1.8074806 4288085770
2.1980667 1.2593633 -1.8053772 4288085770
1.6483459 1.1430556 -1.8095422 4288085770
9.5303879 2.8011534 -1.8522093 4288085770
2.3090744 1.2776327 -1.8063607 4288085770
13.661362 3.6612043 -1.8870149 4288085770
8.3300705 2.5401967 -1.8315911 4288085770
1.7503967 1.1583091 -1.8125319 4288085770
4.7518997 1.7855947 -1.8326564 4288085770
2.4330978 1.2979395 -1.8093424 4288085770
1.8374405 1.1705066 -1.8095255 4288085770
2.5521164 1.3172208 -1.8083253 4288085770
1.9434967 1.1857668 -1.8115165 4288085770
2.6791534 1.3365281 -1.8093112 4288085770
16.180504 4.1144009 -1.9305091 4288085770
2.8181839 1.35787 -1.8122952 4288085770
2.0475693 1.1990181 -1.8125131 4288085770
1.9096375 1.1706796 -1.8105516 4288085770
3.5378647 1.5026332 -1.8221028 4288085770
14.629417 3.7725825 -1.9050167 4288085770
8.7513351 2.5662212 -1.8376627 4288085770
2.9562302 1.3772035 -1.8132849 4288085770
2.1406403 1.2102227 -1.8075123 4288085770
9.72995 2.752646 -1.8594339 4288085770
4.875351 1.7618787 -1.8317764 4288085770
3.1022644 1.398556 -1.8142712 4288085770
2.2597122 1.225513 -1.8095076 4288085770
3.2573166 1.4199334 -1.8162608 4288085770
2.3887863 1.2418349 -1.8135037 4288085770
15.62149 3.8770006 -1.9180486 4288085770
9.2115936 2.595346 -1.8457386 4288085770
1.9670639 1.1528032 -1.8086298 4288085770
3.4123764 1.4403001 -1.8152535 4288085770
16.584091 4.057373 -1.9358325 4288085770
3.6393051 1.4818721 -1.8232057 4288085770
2.5088654 1.2561176 -1.8125029 4288085770
3.5854263 1.4637241 -1.818243 4288085770
5.0217972 1.7412293 -1.8338947 4288085770
9.912529 2.6980801 -1.861671 4288085770
2.6349564 1.2704177 -1.8125043 4288085770
3.7565079 1.4841292 -1.8172417 4288085770
16.631584 3.9754448 -1.9261053 4288085770
2.7670593 1.2837324 -1.8125107 4288085770
9.7188568 2.6285996 -1.8588181 4288085770
3.9455566 1.5085905 -1.8202338 4288085770
2.0364609 1.1379693 -1.8107026 4288085770
3.747757 1.46113 -1.8253109 4288085770
2.9021606 1.2980511 -1.8115151 4288085770
4.1376343 1.5310497 -1.8202333 4288085770
5.1682434 1.7195786 -1.8360162 4288085770
3.0532684 1.3134215 -1.8145223 4288085770
4.3397064 1.5545359 -1.821233 4288085770
10.113091 2.6455595 -1.8649077 4288085770
10.189156 2.6467278 -1.8609314 4288085770
2.1018677 1.1221154 -1.809777 4288085770
3.2253647 1.3318555 -1.8215272 4288085770
4.5577927 1.5790633 -1.8232355 4288085770
3.8592148 1.4393935 -1.8264201 4288085770
3.3824844 1.3462297 -1.8215394 4288085770
4.7918854 1.6046292 -1.8252406 4288085770
5.3106918 1.6959052 -1.8341424 4288085770
10.632477 2.6557701 -1.8570628 4288085770
3.5566101 1.3616548 -1.8245544 4288085770
5.0219803 1.6281785 -1.8252501 4288085770
10.309662 2.5900199 -1.8651519 4288085770
2.1822739 1.1073149 -1.8138535 4288085770
3.7147293 1.3740177 -1.8205733 4288085770
5.2920609 1.6568407 -1.8302584 4288085770
3.9806366 1.4196867 -1.8295264 4288085770
5.4941101 1.678354 -1.8392642 4288085770
11.125801 2.6669421 -1.8562055 4288085770
5.5781631 1.6855407 -1.8352721 4288085770
3.906868 1.3894855 -1.8235943 4288085770
2.2556686 1.0914834 -1.8139307 4288085770
10.539223 2.5385742 -1.869395 4288085770
5.8852539 1.7162945 -1.8412867 4288085770
4.1110153 1.4059852 -1.8276169 4288085770
4.0920868 1.3969389 -1.8276386 4288085770
5.6755447 1.6587911 -1.8423913 4288085770
6.1773682 1.7419856 -1.8393121 4288085770
11.633148 2.674144 -1.8543653 4288085770
4.2961731 1.4174163 -1.8246484 4288085770
2.3390579 1.0766869 -1.817008 4288085770
6.5074768 1.7717841 -1.8423381 4288085770
4.5033112 1.4319099 -1.8246779 4288085770
10.77079 2.4841185 -1.869648 4288085770
4.2215195 1.3762449 -1.8287504 4288085770
5.864975 1.6382436 -1.8445239 4288085770
6.8475952 1.8006001 -1.8433704 4288085770
12.190483 2.6834762 -1.8555357 4288085770
4.7304764 1.446461 -1.8277144 4288085770
2.41745 1.0608647 -1.8160865 4288085770
7.1837311 1.8253933 -1.840414 4288085770
4.9656296 1.4610277 -1.8297541 4288085770
11.018349 2.4307084 -1.8719029 4288085770
4.3529434 1.3545519 -1.828866 4288085770
12.846794 2.7020695 -1.8637128 4288085770
6.0474014 1.6156698 -1.8436604 4288085770
7.5658493 1.8553057 -1.8404579 4288085770
5.2287903 1.4776723 -1.8347969 4288085770
2.498848 1.0440526 -1.8161693 4288085770
8.0079727 1.8903824 -1.8465073 4288085770
5.4929733 1.4913049 -1.8358495 4288085770
4.4923782 1.3338817 -1.8299813 4288085770
11.304893 2.380394 -1.8751621 4288085770
13.54113 2.7167532 -1.8719151 4288085770
6.2528152 1.5951542 -1.8437984 4288085770
2.5922241 1.0292764 -1.8182499 4288085770
8.4900894 1.9275618 -1.8545642 4288085770
5.7531509 1.5039248 -1.8359036 4288085770
9.0531845 1.973959 -1.8696213 4288085770
4.6307983 1.3111992 -1.8281024 4288085770
6.0493317 1.5176415 -1.8389671 4288085770
14.273468 2.7285278 -1.8801396 4288085770
6.472229 1.5756794 -1.8459377 4288085770
2.6785965 1.0134729 -1.8173311 4288085770
11.61245 2.3291314 -1.8784311 4288085770
1.9908981 0.90782106 -1.817414 4288085770
9.7252502 2.0306478 -1.8936853 4288085770
6.3695221 1.5324181 -1.8430359 4288085770
4.8082123 1.2926369 -1.8342242 4288085770
10.280403 2.0639713 -1.8927798 4288085770
6.7226257 1.5582852 -1.8500819 4288085770
2.7779694 0.9977082 -1.8184166 4288085770
15.13179 2.7486339 -1.8973827 4288085770
2.0632935 0.89198101 -1.8154902 4288085770
6.6977234 1.5452074 -1.8451138 4288085770
11.931007 2.2758873 -1.87971 4288085770
10.80658 2.0891979 -1.883889 4288085770
7.0439301 1.5570428 -1.8482006 4288085770
4.9756165 1.2730342 -1.8353455 4288085770
2.8803329 0.98295355 -1.8204999 4288085770
6.9690323 1.5378683 -1.8502336 4288085770
2.1566467 0.87921202 -1.8195641 4288085770
16.036133 2.7638469 -1.9136572 4288085770
11.408745 2.1196167 -1.8780091 4288085770
12.296539 2.2267692 -1.8849924 4288085770
7.3751526 1.5638185 -1.8442981 4288085770
2.9886932 0.9682101 -1.8215852 4288085770
5.146019 1.2514354 -1.835474 4288085770
12.0979 2.1552603 -1.8771434 4288085770
7.2444382 1.5195277 -1.8523891 4288085770
2.2380142 0.86339706 -1.8186436 4288085770
7.7383881 1.5706774 -1.842406 4288085770
12.689079 2.1767135 -1.889287 4288085770
12.89904 2.1991894 -1.8812919 4288085770
3.101059 0.95247614 -1.822675 4288085770
5.306427 1.2277952 -1.8306053 4288085770
8.1666107 1.5827161 -1.8475213 4288085770
7.5248184 1.5001954 -1.8535492 4288085770
2.3343811 0.84963155 -1.8217216 4288085770
13.85817 2.2535274 -1.8944638 4288085770
8.6628265 1.5989376 -1.8586476 4288085770
3.2324066 0.93880141 -1.827765 4288085770
13.161606 2.1318686 -1.8995934 4288085770
5.5178299 1.2083079 -1.8347414 4288085770
2.4307175 0.83585966 -1.8227997 4288085770
7.8332062 1.4809301 -1.8547187 4288085770
14.943275 2.314178 -1.9106607 4288085770
9.2050476 1.6142746 -1.8717926 4288085770
3.3567505 0.92409712 -1.8288558 4288085770
2.5280762 0.82108986 -1.8238809 4288085770
5.7292175 1.1878138 -1.8368804 4288085770
16.083397 2.3719456 -1.9228859 4288085770
8.139595 1.4596504 -1.8528936 4288085770
13.692108 2.0891738 -1.9129136 4288085770
9.8162689 1.6337948 -1.8899491 4288085770
3.4790955 0.90838027 -1.8279486 4288085770
2.6374054 0.807356 -1.8269632 4288085770
5.9346008 1.1662924 -1.8350205 4288085770
8.5009613 1.442516 -1.8550751 4288085770
10.338524 1.6360381 -1.8891273 4288085770
14.284622 2.0456264 -1.9262576 4288085770
3.6124344 0.89269722 -1.8290451 4288085770
2.7377625 0.79158348 -1.8250484 4288085770
6.1949615 1.1489329 -1.8421671 4288085770
10.9048 1.6373886 -1.8893235 4288085770
8.9183121 1.4295356 -1.8632631 4288085770
3.7657547 0.87907177 -1.8331423 4288085770
14.89814 1.9981227 -1.9376209 4288085770
2.8520813 0.77785492 -1.8261323 4288085770
11.483093 1.6347576 -1.8865361 4288085770
6.4543304 1.1295574 -1.8453193 4288085770
9.3596573 1.4156101 -1.8704627 4288085770
3.9130783 0.86341906 -1.8332436 4288085770
2.9684143 0.76313114 -1.82722 4288085770
12.168396 1.6344033 -1.8897793 4288085770
15.556656 1.9487274 -1.9490056 4288085770
6.7516861 1.111287 -1.8524816 4288085770
9.887001 1.4049064 -1.8826821 4288085770
3.7054138 0.81989235 -1.8263052 4288085770
3.5274658 0.80245864 -1.8242965 4288085770
3.8913879 0.83634144 -1.8273203 4288085770
4.0883408 0.85482079 -1.8293328 4288085770
3.3795013 0.78811717 -1.8282886 4288085770
4.2833176 0.87128162 -1.8273509 4288085770
3.2215576 0.77173823 -1.8282833 4288085770
4.5112991 0.88984072 -1.8313742 4288085770
4.0753937 0.84880912 -1.8353467 4288085770
3.068634 0.75436378 -1.826283 4288085770
2.9226913 0.73900676 -1.8242791 4288085770
4.7472839 0.90841329 -1.8334002 4288085770
2.6617813 0.7123903 -1.8272691 4288085770
2.7877579 0.72368586 -1.8252788 4288085770
2.5248184 0.69905198 -1.8242619 4288085770
4.9782867 0.92495906 -1.8314307 4288085770
2.9307327 0.73603189 -1.8262911 4288085770
2.7757797 0.72164011 -1.8202808 4288085770
2.3998489 0.68674862 -1.8232558 4288085770
3.0937195 0.74943584 -1.8303072 4288085770
3.0887299 0.74841404 -1.8273087 4288085770
2.27491 0.67343855 -1.8202529 4288085770
5.2432785 0.94460779 -1.8354638 4288085770
2.1629486 0.66216946 -1.8202481 4288085770
2.6488495 0.70633483 -1.8202834 4288085770
3.2567215 0.76183623 -1.8333266 4288085770
3.4157257 0.77321362 -1.8323479 4288085770
2.5309219 0.69205809 -1.8222861 4288085770
5.5422821 0.96533966 -1.8405054 4288085770
12.964668 1.637342 -1.9010513 4288085770
3.5777283 0.78459799 -1.8313699 4288085770
5.8272858 0.9840225 -1.8405483 4288085770
2.4060287 0.67574692 -1.8192925 4288085770
3.7567368 0.7970261 -1.8313949 4288085770
7.0280609 1.088938 -1.8516483 4288085770
10.409332 1.3911748 -1.889909 4288085770
6.1303101 1.0027437 -1.8395977 4288085770
3.9417725 0.80746579 -1.8304281 4288085770
4.2327042 0.83317333 -1.8334513 4288085770
2.2921295 0.66046923 -1.8182995 4288085770
16.277168 1.8994795 -1.9604111 4288085770
4.1417923 0.81995124 -1.8324604 4288085770
2.1842194 0.64620578 -1.8173056 4288085770
6.4983215 1.0256517 -1.847657 4288085770
3.2370377 0.73578703 -1.8344009 4288085770
4.3398285 0.83041465 -1.8294981 4288085770
6.8463516 1.0444777 -1.845722 4288085770
4.5708694 0.84297717 -1.832541 4288085770
13.904961 1.6436514 -1.9203632 4288085770
7.2293777 1.0653948 -1.8457925 4288085770
4.8169174 0.8545754 -1.835592 4288085770
7.3594131 1.0697421 -1.8568251 4288085770
10.917702 1.3703717 -1.8861525 4288085770
4.4110184 0.81860161 -1.8355598 4288085770
7.6654205 1.0874543 -1.8508782 4288085770
5.07798 0.86620891 -1.8386486 4288085770
3.3783417 0.72212672 -1.8364937 4288085770
8.099472 1.1074861 -1.8489697 4288085770
5.36203 0.8789053 -1.8437097 4288085770
14.885262 1.6440432 -1.9357071 4288085770
8.6205139 1.132753 -1.8550756 4288085770
5.6351013 0.88855088 -1.8417764 4288085770
4.5943069 0.80403852 -1.8366702 4288085770
7.6647644 1.0474566 -1.8540018 4288085770
11.51403 1.3548003 -1.8884106 4288085770
9.1745605 1.1570957 -1.8601959 4288085770
5.9431839 0.89929712 -1.844852 4288085770
3.5176315 0.70745158 -1.8355889 4288085770
9.7876053 1.1835827 -1.8663301 4288085770
6.2742615 0.91009855 -1.8479357 4288085770
4.8126068 0.7905761 -1.8427892 4288085770
16.030571 1.6448537 -1.9581077 4288085770
6.6423492 0.92199856 -1.8540287 4288085770
8.0391006 1.0273608 -1.858196 4288085770
12.166359 1.3393663 -1.8916881 4288085770
10.454674 1.2091956 -1.8714862 4288085770
3.6609344 0.69278955 -1.8356853 4288085770
7.0184555 0.93090433 -1.8561339 4288085770
11.165741 1.2349066 -1.8746574 4288085770
5.0249023 0.77507937 -1.8429124 4288085770
7.376564 0.93774307 -1.851239 4288085770
11.971809 1.2628558 -1.8808551 4288085770
12.949661 1.3292664 -1.9009945 4288085770
8.4484329 1.0073518 -1.8634021 4288085770
3.8212204 0.67817163 -1.8367875 4288085770
7.8086777 0.94578516 -1.8543665 4288085770
12.910858 1.2961434 -1.8930829 4288085770
5.249176 0.76061797 -1.8450363 4288085770
8.3157883 0.95703101 -1.8645103 4288085770
4.0064926 0.66563034 -1.8428919 4288085770
14.036911 1.3349047 -1.9133594 4288085770
13.867958 1.3215095 -1.9163413 4288085770
8.8837662 0.98740137 -1.8676169 4288085770
8.801918 0.96319246 -1.8646624 4288085770
5.4994507 0.747226 -1.8491659 4288085770
15.368958 1.3811837 -1.9406853 4288085770
4.1817551 0.65204901 -1.843996 4288085770
9.3570633 0.96953595 -1.8698385 4288085770
14.935226 1.318127 -1.9367266 4288085770
9.3620834 0.96655762 -1.8728492 4288085770
16.663033 1.4163103 -1.950032 4288085770
5.7587204 0.73284829 -1.8513019 4288085770
9.9862061 0.97706652 -1.8780363 4288085770
4.3600235 0.63747096 -1.8441041 4288085770
16.166496 1.3161467 -1.960165 4288085770
9.9104004 0.94689476 -1.8821027 4288085770
6.0329742 0.71851045 -1.8544428 4288085770
10.56739 0.97643137 -1.8712425 4288085770
4.5582886 0.62294418 -1.8452189 4288085770
11.211555 0.97595668 -1.8674703 4288085770
6.3242264 0.70421016 -1.8565896 4288085770
10.447723 0.92417872 -1.8833611 4288085770
4.7655563 0.60843593 -1.8453369 4288085770
12.042725 0.97998035 -1.8787496 4288085770
6.6564636 0.69101799 -1.861747 4288085770
11.019043 0.89953053 -1.8806376 4288085770
4.996788 0.59499896 -1.8494599 4288085770
12.9599 0.98221052 -1.8900645 4288085770
6.9917145 0.67682326 -1.8639088 4288085770
5.2420273 0.58159512 -1.8535876 4288085770
11.675339 0.8771069 -1.8839366 4288085770
13.996101 0.9817307 -1.9034293 4288085770
7.334938 0.66163403 -1.862076 4288085770
5.519249 0.56927502 -1.8597231 4288085770
15.182297 0.98061717 -1.9188483 4288085770
12.437645 0.85394287 -1.8892748 4288085770
7.6891861 0.64546424 -1.8582501 4288085770
5.7704773 0.55386227 -1.856859 4288085770
16.476517 0.97475779 -1.9333198 4288085770
8.1363983 0.63254774 -1.8634467 4288085770
13.302933 0.83103573 -1.8976483 4288085770
6.0546875 0.54054224 -1.8579996 4288085770
8.5966034 0.61864948 -1.864651 4288085770
14.273216 0.80738032 -1.9060607 4288085770
6.3759079 0.52732074 -1.8621533 4288085770
9.122818 0.6049251 -1.8708775 4288085770
6.7041092 0.51310277 -1.8623121 4288085770
15.387497 0.78307915 -1.9175251 4288085770
9.7110138 0.59235346 -1.8781221 4288085770
7.0553055 0.49894345 -1.8634787 4288085770
16.633774 0.75708485 -1.9260406 4288085770
10.325203 0.57883048 -1.8813787 4288085770
2.2967453 0.35242671 -1.8272619 4288085770
7.4205017 0.48480439 -1.8606498 4288085770
11.021393 0.56551033 -1.8866632 4288085770
2.4069901 0.33869299 -1.8293433 4288085770
7.8636856 0.4718788 -1.8658447 4288085770
11.803551 0.55339992 -1.8929739 4288085770
8.3218536 0.45898259 -1.8690448 4288085770
2.5162125 0.32495376 -1.8304243 4288085770
12.669724 0.54048735 -1.8983164 4288085770
8.8220139 0.44618374 -1.8712592 4288085770
13.673897 0.52792132 -1.9087059 4288085770
2.6364288 0.31224793 -1.8335059 4288085770
9.3981705 0.43358383 -1.8784993 4288085770
14.87603 0.51784688 -1.9241571 4288085770
10.012321 0.42106465 -1.8827524 4288085770
2.7476578 0.29750329 -1.8315907 4288085770
16.25518 0.50720966 -1.9436717 4288085770
10.706467 0.40874723 -1.890033 4288085770
11.467606 0.39658353 -1.8953362 4288085770
2.8778763 0.28381795 -1.8336787 4288085770
12.310722 0.38461608 -1.9006677 4288085770
3.0270767 0.27019525 -1.8407729 4288085770
13.270844 0.37394261 -1.9100358 4288085770
14.403954 0.36269692 -1.9234662 4288085770
2.3742218 0.2546064 -1.8335931 4288085770
15.741043 0.35294968 -1.9399631 4288085770
3.1642761 0.25652355 -1.8418634 4288085770
15.864082 0.3491832 -1.9220176 4288085770
14.495102 0.33885196 -1.9055707 4288085770
13.324142 0.32800472 -1.8921945 4288085770
12.330177 0.31660104 -1.8848822 4288085770
16.251129 0.34211886 -1.9251742 4288085770
11.473236 0.30554217 -1.8826165 4288085770
14.803223 0.32058382 -1.9047341 4288085770
10.706284 0.29369169 -1.8783848 4288085770
2.4884186 0.24187601 -1.8336725 4288085770
9.9813614 0.28192812 -1.8701675 4288085770
13.610321 0.30068982 -1.893378 4288085770
3.3044662 0.24284887 -1.8399546 4288085770
9.355423 0.27041852 -1.8669841 4288085770
12.580421 0.281196 -1.885078 4288085770
8.7705078 0.25800338 -1.8628178 4288085770
11.708534 0.26309663 -1.8818285 4288085770
2.6075974 0.23015493 -1.8327503 4288085770
8.267601 0.24479462 -1.8616824 4288085770
3.4686356 0.22925241 -1.844054 4288085770
10.938637 0.24524501 -1.8796141 4288085770
7.7996826 0.23366633 -1.8595533 4288085770
2.7387543 0.21947636 -1.8358293 4288085770
10.199753 0.22844741 -1.8714075 4288085770
7.3527985 0.22058105 -1.8554373 4288085770
3.6328125 0.21564874 -1.8461533 4288085770
9.5758743 0.21094157 -1.8682432 4288085770
6.9638977 0.20864843 -1.8553381 4288085770
2.8899078 0.20785855 -1.8429179 4288085770
9.0020065 0.19455534 -1.8650928 4288085770
3.8059921 0.20106363 -1.8472588 4288085770
6.6040268 0.1947847 -1.8552549 4288085770
3.0130692 0.19613755 -1.8389971 4288085770
8.460144 0.17823571 -1.8589537 4288085770
6.277153 0.18200645 -1.8571799 4288085770
3.9961472 0.18753287 -1.8523669 4288085770
3.1772156 0.18454796 -1.8450902 4288085770
7.9812927 0.16108352 -1.8578391 4288085770
5.9612732 0.1692417 -1.855109 4288085770
4.1793137 0.17296493 -1.8514757 4288085770
7.5414429 0.14502132 -1.8557346 4288085770
3.3283768 0.17191008 -1.8461819 4288085770
5.6554184 0.15649658 -1.8520412 4288085770
4.3774643 0.15943679 -1.8515863 4288085770
3.5005112 0.16033328 -1.8502779 4288085770
7.1596069 0.12811092 -1.8576531 4288085770
5.3755722 0.14282078 -1.8509855 4288085770
4.5966034 0.14497209 -1.8557074 4288085770
3.6646347 0.1487205 -1.8493707 4288085770
6.8057709 0.11226088 -1.8575783 4288085770
5.1317291 0.12924442 -1.8539422 4288085770
4.8207397 0.13050643 -1.85583 4288085770
3.8447647 0.13715273 -1.8504691 4288085770
5.1068726 0.1152288 -1.8679767 4288085770
6.4739456 0.09646979 -1.8595109 4288085770
4.913887 0.11573648 -1.8589077 4288085770
4.0418777 0.12563291 -1.8535736 4288085770
16.75634 -0.04752928 -1.9815383 4288085770
5.3490067 0.10079929 -1.8661053 4288085770
15.981384 -0.047541797 -1.9342675 4288085770
4.2489853 0.11413309 -1.8556809 4288085770
15.149414 -0.048490733 -1.9469802 4288085770
4.6600571 0.10309932 -1.8508582 4288085770
6.1491165 0.080682874 -1.857446 4288085770
4.457077 0.10362956 -1.8557858 4288085770
5.6181259 0.085441679 -1.8662462 4288085770
13.849487 -0.047677398 -1.9245241 4288085770
4.6891708 0.092193782 -1.8589017 4288085770
5.9052429 0.071126759 -1.8663902 4288085770
14.614594 -0.069887847 -1.9128585 4288085770
12.786552 -0.046256006 -1.914149 4288085770
4.9562531 0.080854744 -1.8660297 4288085770
4.4322433 0.08954075 -1.8478205 4288085770
5.8463058 0.064947784 -1.8553886 4288085770
6.2323456 0.055921316 -1.8705511 4288085770
11.875595 -0.043457806 -1.9078226 4288085770
5.192337 0.070408463 -1.8631442 4288085770
11.078636 -0.040376037 -1.9045351 4288085770
6.5594482 0.040699065 -1.8697116 4288085770
5.4594116 0.059046417 -1.8632722 4288085770
13.476799 -0.091665 -1.8975279 4288085770
10.322662 -0.035212994 -1.8962557 4288085770
5.7474747 0.04874146 -1.8654041 4288085770
6.9165421 0.025555581 -1.8708825 4288085770
4.2294388 0.076048464 -1.8467913 4288085770
9.6376877 -0.028879791 -1.8879976 4288085770
5.5704956 0.049280941 -1.8543406 4288085770
6.0575409 0.038486034 -1.8665435 4288085770
9.0366898 -0.022335321 -1.8827682 4288085770
6.3985748 0.029311866 -1.8696904 4288085770
7.28862 0.011438251 -1.8690553 4288085770
8.492691 -0.014647573 -1.879555 4288085770
6.7566147 0.019171506 -1.8708463 4288085770
7.9726944 -0.0059156418 -1.8723469 4288085770
7.5286713 0.0020187795 -1.8711679 4288085770
7.1256561 0.010054171 -1.8710027 4288085770
7.7157059 -0.0045342147 -1.871253 4288085770
15.643135 -0.17529878 -1.9545386 4288085770
8.2017746 -0.020348698 -1.8784709 4288085770
12.550018 -0.11390105 -1.8932724 4288085770
14.273125 -0.15465185 -1.9319975 4288085770
8.6928482 -0.036171228 -1.8796904 4288085770
13.114098 -0.13547876 -1.915535 4288085770
4.0366211 0.06257692 -1.8447654 4288085770
9.2449036 -0.051843733 -1.8819306 4288085770
5.3316956 0.033715665 -1.8573053 4288085770
12.166069 -0.1177676 -1.9091504 4288085770
9.869957 -0.068325251 -1.8891988 4288085770
10.582001 -0.084591717 -1.8984969 4288085770
11.354034 -0.10171774 -1.9068184 4288085770
11.751236 -0.13582036 -1.8920605 4288085770
3.8578262 0.049145222 -1.8447447 4288085770
5.0649033 0.019053251 -1.8512571 4288085770
11.017471 -0.15759096 -1.8888712 4288085770
3.6820221 0.035714477 -1.8427248 4288085770
4.8331146 0.0034879148 -1.8492243 4288085770
10.298706 -0.17635259 -1.8776777 4288085770
3.5102386 0.023285866 -1.8387032 4288085770
4.6263275 -0.011010766 -1.8491967 4288085770
15.552368 -0.38161555 -1.9321342 4288085770
9.7069397 -0.19578019 -1.8755307 4288085770
3.3674622 0.0089471042 -1.8406978 4288085770
4.4045486 -0.025565445 -1.8431642 4288085770
14.293594 -0.39270619 -1.9097288 4288085770
9.148201 -0.21613559 -1.8713982 4288085770
3.2096863 -0.0034479797 -1.8366811 4288085770
4.2067871 -0.04104957 -1.8411431 4288085770
13.287834 -0.40914467 -1.901428 4288085770
15.959091 -0.51653504 -1.9686861 4288085770
8.650444 -0.23434463 -1.8672805 4288085770
3.0629272 -0.016813576 -1.8336711 4288085770
4.0490265 -0.056414694 -1.8461354 4288085770
15.79937 -0.55899584 -1.9467592 4288085770
12.415077 -0.42525491 -1.896173 4288085770
14.699318 -0.52461493 -1.9502714 4288085770
2.9321518 -0.030130476 -1.8336668 4288085770
8.2007065 -0.25442943 -1.8661849 4288085770
3.8682709 -0.070865124 -1.8421171 4288085770
11.670326 -0.44204906 -1.8939645 4288085770
13.582535 -0.52935195 -1.9318964 4288085770
2.8104019 -0.043426335 -1.8336656 4288085770
7.7829666 -0.27244058 -1.8640945 4288085770
3.6975174 -0.085288316 -1.839102 4288085770
14.754761 -0.59654379 -1.934509 4288085770
12.640739 -0.53364015 -1.9225812 4288085770
10.971596 -0.45873961 -1.8897719 4288085770
2.6956635 -0.057698876 -1.8356698 4288085770
3.5367737 -0.099687666 -1.8360906 4288085770
7.3992386 -0.291374 -1.8610187 4288085770
13.781128 -0.6289376 -1.9172678 4288085770
11.807938 -0.53666079 -1.9153004 4288085770
10.320854 -0.47332528 -1.8825896 4288085770
2.5849152 -0.070968479 -1.8356724 4288085770
3.394043 -0.11503366 -1.8360882 4288085770
7.0585098 -0.31019112 -1.8619576 4288085770
11.067123 -0.53844392 -1.9130476 4288085770
12.986519 -0.66287005 -1.910094 4288085770
9.7221375 -0.48879007 -1.8744283 4288085770
2.4751816 -0.084235758 -1.8356752 4288085770
3.2593155 -0.13036117 -1.8360884 4288085770
6.7427979 -0.32894853 -1.862905 4288085770
10.365295 -0.53615367 -1.9047964 4288085770
9.6994629 -0.53178394 -1.8945513 4288085770
9.2194214 -0.50600171 -1.8733056 4288085770
12.296898 -0.69753766 -1.9069591 4288085770
3.132576 -0.14466575 -1.8370886 4288085770
6.4530945 -0.34864399 -1.8638644 4288085770
16.093582 -0.95023263 -1.9780488 4288085770
9.1456146 -0.52911866 -1.8923502 4288085770
8.7547073 -0.52312279 -1.872196 4288085770
14.746651 -0.91153133 -1.955462 4288085770
3.0008621 -0.1589925 -1.8350871 4288085770
8.6127548 -0.52441347 -1.8871505 4288085770
6.1593933 -0.36635891 -1.8618166 4288085770
11.698303 -0.73297751 -1.9068582 4288085770
13.584724 -0.87737715 -1.9359534 4288085770
8.1208878 -0.51760972 -1.881959 4288085770
8.3089981 -0.53921151 -1.86709 4288085770
2.875145 -0.17330858 -1.8320875 4288085770
5.9116821 -0.38495031 -1.8637872 4288085770
12.617805 -0.84871948 -1.9275298 4288085770
7.6910248 -0.51264095 -1.8817942 4288085770
11.120697 -0.76538122 -1.9027555 4288085770
11.764885 -0.82278585 -1.9201539 4288085770
7.2681503 -0.5056653 -1.8786261 4288085770
7.9302979 -0.55711651 -1.8690128 4288085770
16.715843 -1.1967136 -1.9950123 4288085770
2.7544479 -0.18761274 -1.8290899 4288085770
5.6459961 -0.40260878 -1.8587489 4288085770
11.015968 -0.79958677 -1.9178228 4288085770
6.8912659 -0.49857298 -1.8774736 4288085770
10.259026 -0.77044594 -1.903471 4288085770
10.594101 -0.79666197 -1.8986669 4288085770
6.5523758 -0.49237922 -1.8793371 4288085770
7.5806122 -0.57595587 -1.8699486 4288085770
2.6477509 -0.20287344 -1.8290999 4288085770
15.650185 -1.2103103 -1.982682 4288085770
9.615097 -0.74601185 -1.8961725 4288085770
5.4313278 -0.42211506 -1.8627338 4288085770
6.2264709 -0.48416087 -1.879199 4288085770
5.9205627 -0.47589502 -1.8790677 4288085770
9.0381546 -0.72341037 -1.8909035 4288085770
7.2379227 -0.59278834 -1.8678806 4288085770
10.061493 -0.8229773 -1.8885615 4288085770
5.6296463 -0.4665927 -1.8789382 4288085770
2.5450516 -0.21712467 -1.829108 4288085770
8.5112228 -0.70168614 -1.8866544 4288085770
16.554848 -1.3671838 -1.9754717 4288085770
5.1936417 -0.43870613 -1.857702 4288085770
14.623512 -1.2158239 -1.9673407 4288085770
5.330719 -0.45532951 -1.8728004 4288085770
8.0382767 -0.68082273 -1.8854265 4288085770
5.0627747 -0.4439818 -1.869673 4288085770
7.5973282 -0.66088891 -1.8822126 4288085770
6.9502487 -0.6124692 -1.8718407 4288085770
2.4593582 -0.23232171 -1.8331251 4288085770
4.8268433 -0.43454418 -1.8705623 4288085770
7.1993713 -0.64183855 -1.8830166 4288085770
16.658333 -1.4559287 -1.9807765 4288085770
9.6109009 -0.85307622 -1.8844962 4288085770
4.9919662 -0.45719472 -1.8576887 4288085770
4.5789032 -0.4231554 -1.8654418 4288085770
13.682831 -1.2181345 -1.95102 4288085770
6.8334122 -0.6227119 -1.8838313 4288085770
15.561226 -1.3826059 -1.9641721 4288085770
4.3529434 -0.41170684 -1.8623285 4288085770
6.4894409 -0.6045357 -1.8836567 4288085770
4.1399841 -0.40022406 -1.86022 4288085770
6.6625748 -0.63016689 -1.8707948 4288085770
6.1594696 -0.58532941 -1.8824837 4288085770
3.9360199 -0.38871959 -1.8581142 4288085770
5.8404846 -0.56610298 -1.8793147 4288085770
3.7410431 -0.37719658 -1.8550115 4288085770
4.7913055 -0.47468749 -1.8556724 4288085770
3.5470581 -0.36367759 -1.8499033 4288085770
9.211319 -0.88204682 -1.8824451 4288085770
5.5315018 -0.54586279 -1.8731461 4288085770
2.3968353 -0.26046667 -1.8371902 4288085770
12.883133 -1.2220806 -1.9427533 4288085770
3.3860779 -0.35305998 -1.8508153 4288085770
16.052887 -1.522388 -1.9807663 4288085770
5.2505035 -0.52654552 -1.8699899 4288085770
14.699615 -1.4016984 -1.9569294 4288085770
3.2170792 -0.34047773 -1.8467183 4288085770
2.5169296 -0.27617398 -1.8392799 4288085770
3.0590897 -0.3288627 -1.8446283 4288085770
4.9935226 -0.50916743 -1.8678477 4288085770
2.632019 -0.29090682 -1.8373647 4288085770
2.9110794 -0.3172203 -1.8435414 4288085770
2.7690506 -0.30456272 -1.8424537 4288085770
2.3899765 -0.26947197 -1.8412156 4288085770
4.7455139 -0.49077073 -1.8647058 4288085770
2.6400452 -0.29386827 -1.8433766 4288085770
2.5150146 -0.28216693 -1.8432975 4288085770
2.7590866 -0.30560413 -1.8374536 4288085770
6.409935 -0.65076482 -1.8747697 4288085770
4.5225067 -0.47330442 -1.8645754 4288085770
2.8991394 -0.32125983 -1.8405499 4288085770
4.294487 -0.4548665 -1.8594403 4288085770
3.0392151 -0.33692583 -1.840646 4288085770
4.0824661 -0.4373835 -1.8563137 4288085770
3.1972733 -0.35353509 -1.8447514 4288085770
3.3533096 -0.36915913 -1.8458533 4288085770
3.885437 -0.41986451 -1.8531919 4288085770
3.7004089 -0.40331027 -1.8520775 4288085770
3.5153656 -0.38576868 -1.8469598 4288085770
4.6106491 -0.49312577 -1.8556664 4288085770
12.182442 -1.2277701 -1.9405265 4288085770
8.836731 -0.91196072 -1.8794055 4288085770
13.893005 -1.4176694 -1.9466968 4288085770
15.540459 -1.5926087 -1.9857998 4288085770
6.1532669 -0.66838849 -1.8737345 4288085770
4.4339981 -0.51055813 -1.8546584 4288085770
11.571747 -1.2342238 -1.9443333 4288085770
8.5161743 -0.94472623 -1.8823936 4288085770
13.2304 -1.4412694 -1.9445372 4288085770
5.9066086 -0.6849947 -1.8706994 4288085770
15.111038 -1.6666141 -1.9958737 4288085770
4.2613449 -0.52698755 -1.8516488 4288085770
10.954033 -1.233721 -1.9401169 4288085770
8.1965942 -0.97350526 -1.8803697 4288085770
5.6639481 -0.7005949 -1.8666627 4288085770
12.68483 -1.4715695 -1.9484386 4288085770
10.29628 -1.2213496 -1.9248505 4288085770
4.1046829 -0.5443753 -1.8496475 4288085770
14.625603 -1.7287929 -1.9938922 4288085770
5.4493179 -0.71911848 -1.8656447 4288085770
7.9100189 -1.0031986 -1.8803604 4288085770
9.6865387 -1.2098598 -1.9106035 4288085770
12.20826 -1.5046918 -1.9563727 4288085770
3.9490585 -0.56176078 -1.847647 4288085770
16.468544 -2.0143063 -2.0233965 4288085770
14.127151 -1.784019 -1.9868853 4288085770
9.1737823 -1.2021115 -1.904402 4288085770
5.2516708 -0.73760116 -1.8646324 4288085770
7.6384659 -1.0328567 -1.8803558 4288085770
15.405685 -1.9668655 -2.0188828 4288085770
11.793701 -1.5406587 -1.9663372 4288085770
3.806427 -0.57911539 -1.8456507 4288085770
8.7060394 -1.1952423 -1.9022186 4288085770
5.057045 -0.75508022 -1.8626184 4288085770
14.387833 -1.9163344 -2.0093753 4288085770
13.674698 -1.8401318 -1.9808967 4288085770
7.3939133 -1.0644433 -1.8823667 4288085770
3.6698151 -0.5974524 -1.8446596 4288085770
11.397163 -1.5765862 -1.9753077 4288085770
8.2732773 -1.188289 -1.9000471 4288085770
13.377945 -1.856817 -1.9898436 4288085770
4.8884201 -0.77348721 -1.863616 4288085770
7.8695068 -1.1792629 -1.8988795 4288085770
3.5391998 -0.61477852 -1.8426673 4288085770
13.305267 -1.9010262 -1.9809518 4288085770
7.1363525 -1.0910809 -1.8783581 4288085770
12.588097 -1.8157196 -1.9864445 4288085770
10.923584 -1.5987475 -1.9692097 4288085770
4.7127991 -0.79092431 -1.8606086 4288085770
7.4977341 -1.1711565 -1.898726 4288085770
11.947266 -1.7882304 -1.9941382 4282675967
3.4255753 -0.63305378 -1.843684 4288085770
6.9338074 -1.123564 -1.8813863 4288085770
12.935822 -1.9579341 -1.9769945 4288085770
10.353973 -1.6022038 -1.9430218 4288085770
7.1299515 -1.1600506 -1.8955648 4288085770
4.5641785 -0.81028318 -1.8616159 4288085770
11.323433 -1.7567098 -1.9988258 4282675967
3.3039551 -0.64936173 -1.8406918 4288085770
6.7901688 -1.1498712 -1.8944161 4288085770
10.545525 -1.6976528 -1.9743767 4288085770
6.7272568 -1.1530627 -1.8824041 4288085770
9.8603821 -1.6104591 -1.9228749 4288085770
4.3965607 -0.82570457 -1.857605 4288085770
12.665405 -2.0265756 -1.9821072 4288085770
6.4713745 -1.1376439 -1.8922687 4288085770
9.7616043 -1.6316431 -1.9399047 4288085770
3.1973495 -0.66762042 -1.841711 4288085770
6.1865845 -1.1293195 -1.8951447 4288085770
6.5297241 -1.182544 -1.8824248 4288085770
9.1877136 -1.5880582 -1.9275734 4288085770
9.4968414 -1.6353538 -1.9178236 4288085770
4.2469635 -0.84407961 -1.8546093 4288085770
12.383987 -2.0892563 -1.9831979 4288085770
5.8857727 -1.1150559 -1.8909974 4288085770
3.0737457 -0.68294287 -1.8357153 4288085770
8.6858597 -1.5532753 -1.9232938 4288085770
6.3401947 -1.2120094 -1.8814483 4288085770
4.1143646 -0.8634038 -1.8546224 4288085770
9.207283 -1.6650517 -1.9188125 4288085770
5.6259613 -1.1036781 -1.8918734 4288085770
8.2739944 -1.5262533 -1.9260693 4288085770
12.129562 -2.1518688 -1.9852977 4288085770
2.9941635 -0.70412064 -1.8417525 4288085770
5.3761444 -1.0922759 -1.8927522 4288085770
7.8701324 -1.497219 -1.9268413 4288085770
3.9807663 -0.88073409 -1.8536289 4288085770
6.1926651 -1.2453511 -1.8874981 4288085770
8.9287491 -1.6947234 -1.919805 4288085770
5.1253052 -1.0778887 -1.889622 4288085770
7.4522552 -1.4632411 -1.9205935 4288085770
2.8875656 -0.72039604 -1.8377657 4288085770
11.858139 -2.211539 -1.9823828 4288085770
4.8834763 -1.0624804 -1.8864918 4288085770
7.0453568 -1.4262501 -1.9103405 4288085770
3.8571777 -0.90004027 -1.8526452 4288085770
6.038147 -1.2777227 -1.8895426 4288085770
8.6652298 -1.7253592 -1.9208062 4288085770
4.6656265 -1.0490043 -1.8863757 4288085770
6.6834793 -1.3951347 -1.9051211 4288085770
2.7919922 -0.73863912 -1.8357885 4288085770
11.633736 -2.2760839 -1.9834991 4288085770
4.449791 -1.0345306 -1.8842576 4288085770
6.3635864 -1.3669052 -1.9039252 4288085770
3.7335815 -0.91735363 -1.8496552 4288085770
5.8956223 -1.3090624 -1.8925881 4288085770
6.0837097 -1.3435642 -1.9077578 4288085770
4.211937 -1.0141356 -1.8741136 4288085770
8.4266968 -1.756932 -1.9228184 4288085770
2.7284164 -0.76077187 -1.8438342 4288085770
5.7958298 -1.3172585 -1.9065785 4288085770
4.0140762 -0.99861813 -1.8719983 4288085770
11.396317 -2.3356726 -1.9805956 4288085770
3.6190033 -0.93564141 -1.8476713 4288085770
5.5439377 -1.2938499 -1.9104207 4288085770
3.8302078 -0.98406374 -1.8708911 4288085770
5.7641068 -1.3423758 -1.8956435 4288085770
8.2031708 -1.7884722 -1.9238358 4288085770
2.6438446 -0.77898526 -1.8428607 4288085770
5.2950287 -1.2694473 -1.9102607 4288085770
3.646347 -0.96851921 -1.8667805 4288085770
16.681107 -3.3780794 -1.9845736 4288085770
3.5114288 -0.95490968 -1.846693 4288085770
5.0351181 -1.2410871 -1.9050851 4288085770
11.150879 -2.388293 -1.9736681 4288085770
3.4634705 -0.95097911 -1.8606646 4288085770
5.6345901 -1.3736877 -1.8976934 4288085770
4.7712021 -1.2107502 -1.8959022 4288085770
7.9826508 -1.8190117 -1.9228513 4288085770
3.2985764 -0.93538189 -1.8585608 4288085770
2.5722809 -0.79915452 -1.8458979 4288085770
15.97747 -3.3667669 -1.9852934 4288085770
4.5682907 -1.1892306 -1.8977671 4288085770
3.1416931 -0.91976595 -1.8564596 4288085770
3.4118576 -0.97415555 -1.8467171 4288085770
4.3173523 -1.1568717 -1.8855827 4288085770
10.937469 -2.4478312 -1.9687726 4288085770
2.9888153 -0.90414381 -1.8533595 4288085770
4.0974197 -1.1284258 -1.8774207 4288085770
5.5310898 -1.4099213 -1.904767 4288085770
7.7871552 -1.8524818 -1.9248843 4288085770
2.4897156 -0.8163662 -1.8439221 4288085770
2.8489151 -0.88948393 -1.8522673 4288085770
15.241798 -3.3405499 -1.9799573 4288085770
3.9164963 -1.1068566 -1.8782933 4288085770
3.3142776 -0.99239993 -1.8457391 4288085770
2.7170181 -0.87580109 -1.8521805 4288085770
3.7145538 -1.0793673 -1.8701406 4288085770
2.5971069 -0.86208296 -1.8540978 4288085770
10.681015 -2.4944944 -1.9568236 4288085770
3.5296021 -1.0538304 -1.8639994 4288085770
7.5926437 -1.8839593 -1.9239116 4288085770
5.3995819 -1.4402479 -1.9038134 4288085770
