# .PCD v0.7 - Point Cloud Data file format
VERSION 0.7
FIELDS x y z rgb
SIZE 4 4 4 4
TYPE F F F U
COUNT 1 1 1 1
WIDTH 1108
HEIGHT 1
VIEWPOINT 0 0 0 1 0 0 0
POINTS 1108
DATA ascii
4.6055908 -4.2752538 -1.7344294 4293729569
1.0979309 -3.0321751 -1.8197932 4288085770
4.9427185 -4.2951264 -1.7696276 4293729569
1.1335754 -2.9699235 -1.8185911 4288085770
5.2827148 -4.3109665 -1.8027215 4293729569
1.1621704 -2.9057126 -1.8157079 4288085770
5.6064453 -4.3158932 -1.8315842 4293729569
1.2250061 -2.8532844 -1.8162646 4288085770
5.883667 -4.3010969 -1.8525846 4288085770
1.2807007 -2.7968955 -1.8151526 4288085770
6.091217 -4.2607307 -1.864763 4288085770
1.3252869 -2.7365689 -1.811548 4288085770
6.230011 -4.1957731 -1.8650737 4288085770
1.4132385 -2.6889706 -1.8129818 4288085770
6.3898621 -4.1356668 -1.8654373 4288085770
1.4900208 -2.637435 -1.8119226 4288085770
6.6061096 -4.0902023 -1.8712597 4288085770
1.573822 -2.5878544 -1.8115454 4288085770
6.7597961 -4.0241194 -1.8679249 4288085770
1.6747742 -2.5421629 -1.8124001 4288085770
6.9949951 -3.9795113 -1.8719134 4288085770
1.7735901 -2.4954739 -1.8113503 4288085770
7.2402039 -3.9358325 -1.8754592 4288085770
1.8925171 -2.452652 -1.8114018 4288085770
7.5083923 -3.8959875 -1.8779781 4288085770
2.0033875 -2.4058771 -1.809828 4288085770
7.816803 -3.862875 -1.8827057 4288085770
2.1252136 -2.3620281 -1.8087559 4288085770
8.1604004 -3.8355336 -1.8898664 4288085770
2.2601318 -2.3190899 -1.80811 4288085770
8.602478 -3.8275471 -1.9036205 4288085770
2.4263 -2.2839575 -1.811058 4288085770
9.118988 -3.833075 -1.9230535 4288085770
2.5822144 -2.2438688 -1.8094778 4288085770
9.8154907 -3.8744311 -1.9554338 4288085770
2.7532349 -2.204689 -1.8102336 4288085770
10.55304 -3.9145021 -1.9880295 4288085770
2.9241638 -2.1644897 -1.8079987 4288085770
11.427246 -3.9766707 -2.0285406 4288085770
3.1383667 -2.1310167 -1.8098402 4288085770
3.2929688 -2.0839014 -1.8023515 4288085770
3.4948425 -2.0454807 -1.7987523 4288085770
3.7732849 -2.0185862 -1.8047531 4288085770
4.0545654 -1.9896517 -1.8076375 4288085770
4.3700562 -1.9644966 -1.8130035 4288085770
4.7368469 -1.944005 -1.8221159 4288085770
5.0328064 -1.9079266 -1.8183947 4288085770
5.3992004 -1.8794022 -1.8215616 4288085770
5.8007202 -1.8536348 -1.8251812 4288085770
6.2281494 -1.8266802 -1.8276734 4288085770
6.7440491 -1.8081465 -1.8362622 4288085770
7.2053528 -1.777936 -1.8352911 4288085770
7.7289124 -1.7503119 -1.8375912 4293729569
8.4422607 -1.7404432 -1.8525116 4288085770
9.723938 -1.7929344 -1.9193118 4288085770
11.019104 -1.8302746 -1.9766006 4288085770
11.685974 1.8366261 -0.89117587 4293729569
11.638245 1.9548674 -0.96100736 4293729569
11.120361 2.0339985 -1.008126 4293729569
10.680481 2.1146736 -1.0538458 4293729569
10.410919 2.2084951 -1.105208 4293729569
10.362793 2.3217945 -1.1650188 4293729569
10.193237 2.422307 -1.2160504 4293729569
10.17511 2.5398178 -1.275576 4293729569
10.090637 2.6479158 -1.326937 4293729569
10.075348 2.7664642 -1.3833404 4293729569
10.080017 2.888155 -1.4388897 4293729569
10.100677 3.0129604 -1.4937587 4293729569
11.862915 3.3132191 -0.6597085 4293729569
10.226685 3.1534424 -1.5571246 4293729569
10.26825 3.2833986 -1.6111083 4293729569
11.797791 3.5691271 -0.76412499 4293729569
10.507538 3.4476194 -1.6816714 4293729569
11.664032 3.7706976 -1.8321648 4293729569
11.422577 3.8668432 -1.8622942 4288085770
10.541565 3.8419447 -1.829597 4288085770
9.7798462 3.8288393 -1.8027632 4288085770
9.0752258 3.8191233 -1.7764575 4288085770
8.4939575 3.8232126 -1.7578514 4288085770
8.0581055 3.8522434 -1.7500467 4288085770
7.7225342 3.8959246 -1.7489533 4288085770
7.4501343 3.9500179 -1.7521648 4288085770
7.1013184 3.9826555 -1.7435799 4288085770
6.7765198 4.0174503 -1.7359579 4288085770
6.5179749 4.063674 -1.7335148 4288085770
6.2713318 4.1109896 -1.7295551 4288085770
6.0487366 4.1614647 -1.7265649 4288085770
5.8461914 4.2130785 -1.7237072 4288085770
5.6806946 4.2739325 -1.7232857 4288085770
5.5362549 4.3369265 -1.7239575 4288085770
5.414856 4.4070721 -1.7256668 4288085770
5.2622375 4.4660387 -1.7216687 4288085770
5.1185608 4.5260687 -1.717284 4288085770
5.0010071 4.5912657 -1.7147925 4288085770
4.9596558 4.6809502 -1.7191205 4288085770
4.9413757 4.7777767 -1.7264833 4288085770
4.8777771 4.8583431 -1.7247238 4288085770
4.8613892 4.9561996 -1.7290084 4288085770
4.8408813 5.0530453 -1.7304649 4288085770
4.8273621 5.1509361 -1.7326207 4288085770
4.8026733 5.2447748 -1.7302372 4288085770
4.8331604 5.3599615 -1.7335737 4288085770
4.8575745 5.4721193 -1.7351556 4288085770
4.8598328 5.5781469 -1.7326663 4288085770
4.8790283 5.6902952 -1.7294714 4288085770
4.9112549 5.808526 -1.7277439 4288085770
4.970459 5.9389372 -1.7269089 4288085770
5.0446777 6.0744486 -1.7264493 4288085770
5.1459351 6.2241392 -1.7278929 4288085770
5.2389832 6.3707914 -1.7256715 4288085770
5.3750916 6.5387182 -1.7276957 4288085770
5.5602722 6.7299662 -1.7327166 4288085770
5.7583313 6.9323053 -1.7372372 4288085770
5.9362793 7.1265326 -1.7375867 4288085770
6.1401367 7.334939 -1.7378857 4288085770
6.3548279 7.5524282 -1.7367609 4288085770
6.6776428 7.8266134 -1.7442505 4288085770
7.050415 8.1291265 -1.7547233 4288085770
7.4440918 8.4487886 -1.7643833 4288085770
10.096832 -0.48274803 -1.9027464 4288085770
8.0354004 -0.42732811 -1.8081551 4288085770
6.9447327 -0.41073799 -1.7939472 4288085770
6.0365906 -0.3979435 -1.7877395 4288085770
5.2406921 -0.38639545 -1.7846172 4288085770
4.5128784 -0.37437439 -1.7805214 4288085770
3.8299255 -0.36002922 -1.7734725 4288085770
11.287109 -0.8019352 -1.9488022 4288085770
3.2463074 -0.34902763 -1.7710636 4288085770
9.0270081 -0.69785595 -1.8511887 4288085770
2.6673584 -0.33395481 -1.7624669 4288085770
7.5131531 -0.63196754 -1.8047545 4288085770
2.1506653 -0.32047844 -1.7571428 4288085770
6.4674072 -0.59107971 -1.7927275 4288085770
1.6810303 -0.30768013 -1.7527556 4288085770
5.5892639 -0.5570879 -1.7883372 4288085770
1.2857666 -0.29840946 -1.7541006 4288085770
4.7809448 -0.52259064 -1.7798891 4288085770
0.91552734 -0.28797054 -1.7563574 4288085770
4.0497742 -0.49056149 -1.7710545 4288085770
0.58538818 -0.27826691 -1.7598577 4288085770
3.4481201 -0.4647007 -1.7715242 4288085770
0.25112915 -0.26656437 -1.7595482 4288085770
2.8703003 -0.43863964 -1.7659497 4288085770
-0.026885986 -0.25650787 -1.7637727 4288085770
2.34552 -0.41322327 -1.7620492 4288085770
-0.3039856 -0.24643421 -1.7669544 4288085770
1.8365784 -0.38666916 -1.7534602 4288085770
-0.57522583 -0.23529625 -1.7658842 4288085770
1.4191589 -0.36554337 -1.7538435 4288085770
-0.81936646 -0.22398949 -1.7676301 4288085770
1.0408325 -0.34514999 -1.7545142 4288085770
-1.0726929 -0.21171665 -1.7647808 4288085770
0.6965332 -0.32653427 -1.7566841 4288085770
-1.2948914 -0.20024586 -1.7645657 4288085770
0.36727905 -0.30780983 -1.758199 4288085770
-1.5131226 -0.18774223 -1.7631841 4288085770
0.067108154 -0.28888798 -1.7604437 4288085770
-1.7021484 -0.17705917 -1.7655172 4288085770
-0.20404053 -0.27277374 -1.7634006 4288085770
-1.8862305 -0.16633606 -1.766633 4288085770
-0.48547363 -0.25369644 -1.7608197 4288085770
-2.0552063 -0.1555233 -1.7700899 4288085770
-0.7538147 -0.23453045 -1.7586694 4288085770
-2.228363 -0.1437149 -1.7697325 4288085770
-0.98391724 -0.2181282 -1.7608335 4288085770
-2.3985291 -0.13188076 -1.7682447 4288085770
-1.2121887 -0.20169544 -1.7599137 4288085770
-2.5516968 -0.11993599 -1.7680123 4288085770
-1.4294739 -0.18418312 -1.7585194 4288085770
-1.6174927 -0.16950035 -1.761833 4288085770
-1.8127747 -0.15183258 -1.7594769 4288085770
-1.9777527 -0.13799572 -1.7637773 4288085770
-2.1448669 -0.12215614 -1.7651808 4288085770
-2.3080139 -0.10627842 -1.7644114 4288085770
-2.4550781 -0.091301918 -1.7659335 4288085770
-2.615387 -0.07538414 -1.7620354 4288085770
-2.9602966 1.9138365 -1.7164986 4288085770
-2.8160706 1.9457932 -1.720371 4288085770
-2.677002 1.9747381 -1.7204475 4288085770
-2.5187683 2.0077868 -1.7247124 4288085770
-2.3677673 2.0378227 -1.7232704 4288085770
-2.2076721 2.0689125 -1.723439 4288085770
-2.0527039 2.0969801 -1.7208107 4288085770
-3.0591125 1.8551083 -1.7174723 4288085770
-1.8250732 2.1434441 -1.7351227 4288085770
-2.9289856 1.8769894 -1.7178991 4288085770
-1.6572266 2.1716175 -1.7299273 4288085770
-2.7827759 1.9009666 -1.7206352 4288085770
-1.4763184 2.2028713 -1.7261796 4288085770
-2.6274719 1.9269962 -1.7249875 4288085770
-1.2742615 2.2372494 -1.7255266 4288085770
-2.4611511 1.9540977 -1.7298639 4288085770
-1.0541687 2.2747459 -1.7261024 4288085770
-2.2696533 1.9863405 -1.7396705 4288085770
-0.84823608 2.3061771 -1.7212596 4288085770
-2.1641541 1.9951496 -1.7240837 4288085770
-0.61419678 2.3427763 -1.7202172 4288085770
-1.9707642 2.0244255 -1.7307868 4288085770
-0.39135742 2.3753281 -1.7146363 4288085770
-1.7865906 2.0486708 -1.7318592 4288085770
-0.15045166 2.4090033 -1.7092726 4288085770
-1.6014404 2.0729294 -1.7318883 4288085770
0.11245728 2.4468203 -1.7049689 4288085770
-1.4214783 2.0931768 -1.7281156 4288085770
0.42565918 2.4939451 -1.7065237 4288085770
-1.2263794 2.1165123 -1.7267015 4288085770
0.74078369 2.5380907 -1.7069733 4288085770
-1.0021362 2.1440239 -1.7290378 4288085770
1.0838928 2.5874281 -1.7072275 4288085770
-0.78100586 2.1675396 -1.7274845 4288085770
1.4590454 2.6379786 -1.7080843 4288085770
-0.55795288 2.190074 -1.7248383 4288085770
1.8572998 2.6926832 -1.7099571 4288085770
-0.35510254 2.2065077 -1.7160368 4288085770
2.267395 2.7454844 -1.7092941 4288085770
-0.10397339 2.2302294 -1.7141688 4288085770
2.7356873 2.8076601 -1.7121413 4288085770
0.14703369 2.2519674 -1.7092915 4288085770
3.2520142 2.8751545 -1.7169149 4288085770
0.45031738 2.2830162 -1.7121835 4288085770
3.7741699 2.9377241 -1.7153997 4288085770
0.75958252 2.3111181 -1.7127957 4288085770
4.3945923 3.0169182 -1.7216816 4288085770
1.0979309 2.3424091 -1.7151539 4288085770
5.0500793 3.0973568 -1.7274365 4288085770
1.4533081 2.3738136 -1.7177668 4288085770
5.7705078 3.1832409 -1.7323744 4288085770
1.8165894 2.4022932 -1.7170136 4288085770
6.552887 3.2735605 -1.735621 4288085770
2.2269287 2.4360762 -1.7192287 4288085770
7.508728 3.3910007 -1.7494378 4288085770
2.6624146 2.470027 -1.722347 4288085770
8.5435791 3.5119877 -1.7618115 4288085770
3.1047058 2.5010405 -1.7221429 4288085770
10.257629 3.745285 -1.8281353 4288085770
3.5810852 2.5342865 -1.722461 4288085770
4.0895081 2.5667515 -1.7223697 4288085770
4.6369019 2.6014824 -1.7225821 4288085770
10.309448 3.4974899 -1.5230874 4293729569
5.2776184 2.6448126 -1.7287621 4288085770
10.188477 3.3903217 -1.4146452 4293729569
5.9291687 2.6832457 -1.7304327 4288085770
10.182922 3.3018818 -1.3162649 4293729569
6.6931152 2.7324028 -1.7392497 4288085770
10.197449 3.2145681 -1.2190135 4293729569
7.487854 2.7768011 -1.7426822 4288085770
10.228058 3.1283493 -1.1250638 4293729569
8.4049072 2.8309994 -1.7518179 4288085770
10.384064 3.0599365 -1.0387344 4293729569
9.6339722 2.9171934 -1.7824891 4288085770
10.996948 3.0495272 -0.97174311 4293729569
11.211975 3.0386515 -1.8330934 4293729569
11.365204 3.000536 -0.89022911 4293729569
10.1315 2.7984228 -1.6448374 4293729569
10.008911 2.6851988 -1.5434384 4293729569
10.044922 2.592967 -1.4572246 4293729569
10.029907 2.4933958 -1.3692039 4293729569
10.087097 2.4012814 -1.2870662 4293729569
10.353027 2.3295097 -1.2189157 4293729569
10.320129 2.2238054 -1.1326449 4293729569
10.562988 2.1448803 -1.06346 4293729569
11.051453 2.0825739 -1.003621 4293729569
11.460632 2.007761 -0.93817544 4293729569
11.621216 1.9083185 -0.86146665 4293729569
-0.35675049 -4.2466946 -0.43229452 4293729569
-0.44616699 -4.2375398 -0.46930298 4293729569
-0.50531006 -4.2441969 -0.50889373 4293729569
-0.57958984 -4.2399478 -0.54721189 4293729569
-0.78045654 -4.2290511 -0.66218925 4293729569
-0.87304688 -4.2059054 -0.69741857 4293729569
-0.91311646 -4.2124386 -0.73817432 4293729569
-0.91085815 -4.2447047 -0.78192317 4293729569
-0.98529053 -4.2274499 -0.81932354 4293729569
-1.0516663 -4.1754842 -0.43116125 4293729569
-1.0031128 -4.2294478 -0.47675285 4293729569
3.99646 -7.487771 -1.471101 4293729569
3.3866577 -7.1339307 -1.473947 4293729569
-1.1773071 -4.2007594 -0.97604442 4293729569
-1.1780701 -4.2210512 -1.0209986 4293729569
-1.2416382 -4.1967077 -1.0559623 4293729569
-1.1798706 -4.2019601 -0.68185353 4293729569
-1.2616882 -4.2001123 -1.0978589 4293729569
-1.1716919 -4.2191834 -0.72543263 4293729569
-1.247345 -4.2243104 -1.1441288 4293729569
-1.1898193 -4.2175751 -0.76727271 4293729569
-1.2603455 -4.2286716 -1.186711 4293729569
-1.2059326 -4.2149444 -0.80803251 4293729569
0.31201172 -5.2819114 -1.4887822 4293729569
-1.2392273 -4.1994233 -0.84762001 4293729569
0.01373291 -5.0949659 -1.492977 4293729569
-1.2603455 -4.1898289 -0.88864195 4293729569
-0.25643921 -4.922833 -1.4978497 4293729569
-1.2583618 -4.1930842 -0.93057334 4293729569
-0.88467407 -4.509696 -1.4337926 4293729569
-1.2513428 -4.1983089 -0.97327232 4293729569
-1.3591309 -4.1966462 -1.3904173 4293729569
-1.2543945 -4.1946001 -1.0154661 4293729569
-1.120697 -4.3565974 -1.4800938 4293729569
-1.2484436 -4.1948266 -1.0572406 4293729569
-1.1500854 -4.3360424 -1.518538 4293729569
-1.2384338 -4.1960306 -1.0998328 4293729569
-1.3266602 -4.215291 -1.5260046 4293729569
-1.1879578 -4.2209988 -1.1485144 4293729569
-1.5379028 -4.0697107 -1.5231292 4293729569
-1.1799927 -4.2172112 -1.1902262 4293729569
-1.6182251 -4.0094037 -1.546032 4293729569
-1.1599731 -4.2193513 -1.2333726 4293729569
-1.603241 -4.0095797 -1.5894108 4293729569
-1.5912781 -4.0077643 -1.6309345 4293729569
-0.11782837 -4.8649139 -1.4910687 4293729569
-1.5621338 -4.0138512 -1.6756601 4293729569
-0.76556396 -4.4268641 -1.4200109 4293729569
-1.5440979 -4.0110049 -1.7189257 4293729569
-1.0486755 -4.2247105 -1.4076158 4293729569
-1.525177 -4.0071411 -1.7601559 4293729569
-0.74594116 -4.3972502 -1.5013982 4293729569
-1.493103 -4.0102019 -1.8037696 4293729569
-0.92276001 -4.261476 -1.5049626 4293729569
-1.4803162 -3.9973683 -1.8433201 4288085770
-1.0267334 -4.1702805 -1.5200763 4293729569
-1.6140747 -3.889277 -1.8428276 4288085770
-1.1683044 -4.0552812 -1.5259722 4293729569
-1.7357788 -3.7871122 -1.84377 4288085770
-1.1608276 -4.0314546 -1.5608153 4293729569
-1.8494568 -3.6898909 -1.8443308 4288085770
-1.1067505 -4.0353599 -1.6034584 4293729569
-1.9754028 -3.5837197 -1.8394797 4288085770
-1.060791 -4.0333095 -1.6444912 4293729569
-2.0719604 -3.4953833 -1.8402381 4288085770
-0.99966431 -4.0361781 -1.6888313 4293729569
-2.161438 -3.4110098 -1.8426628 4288085770
-0.94668579 -4.0330844 -1.7305627 4293729569
-2.273407 -3.3117328 -1.8361559 4288085770
-0.8805542 -4.036912 -1.7736778 4293729569
-2.3356018 -3.2441912 -1.8412874 4288085770
-0.81045532 -4.0397162 -1.8176236 4288085770
-2.4212341 -3.1607594 -1.8385358 4288085770
-0.83676147 -3.9840336 -1.8391278 4288085770
-2.5008545 -3.0802917 -1.8365016 4288085770
-0.94863892 -3.8777823 -1.8366601 4288085770
-2.5704041 -3.0057573 -1.834991 4288085770
-1.056488 -3.772501 -1.8340106 4288085770
-2.6481628 -2.9262581 -1.8298659 4288085770
-1.1552429 -3.6731615 -1.8319283 4288085770
-2.7116699 -2.854682 -1.828074 4288085770
-1.2428894 -3.5807571 -1.8313186 4288085770
-2.7538452 -2.7949924 -1.8312805 4288085770
-1.3296204 -3.4873328 -1.8286734 4288085770
-2.8114319 -2.7273617 -1.8272021 4288085770
-1.400177 -3.4038119 -1.8282614 4288085770
-2.862915 -2.6627007 -1.8248405 4288085770
-1.4647217 -3.3242497 -1.8275616 4288085770
-2.9165039 -2.5960426 -1.820581 4288085770
-1.5312805 -3.2436962 -1.8259566 4288085770
-2.942627 -2.5452461 -1.8240287 4288085770
-1.5908508 -3.1660924 -1.8240261 4288085770
-2.9841003 -2.4855146 -1.8211975 4288085770
-1.6545105 -3.0865054 -1.8202858 4288085770
-3.0256348 -2.4247694 -1.8163745 4288085770
-1.7009888 -3.0158157 -1.8187408 4288085770
-1.746521 -2.9471126 -1.8161407 4288085770
-1.7900391 -2.8783951 -1.813453 4288085770
-1.8275146 -2.8126407 -1.8114822 4288085770
-1.8507996 -2.754807 -1.8118453 4288085770
-1.8812866 -2.6919966 -1.8085504 4288085770
-1.8934631 -2.6390963 -1.8103983 4288085770
-1.9138794 -2.5832214 -1.80762 4288085770
-1.9241943 -2.5302877 -1.8063834 4288085770
-1.9284058 -2.4813251 -1.8068562 4288085770
-1.941803 -2.4274015 -1.8037596 4288085770
-1.9349976 -2.3823595 -1.8037252 4288085770
-1.9403992 -2.3333788 -1.8002462 4288085770
-1.9468079 -2.2824059 -1.7968233 4288085770
-1.9308777 -2.2403059 -1.797375 4288085770
-1.9161377 -2.1982031 -1.7959721 4288085770
-1.9003296 -2.1570978 -1.7955189 4288085770
-1.8703613 -2.1209059 -1.7964182 4288085770
-1.8526306 -2.0797739 -1.7938788 4288085770
-1.8410339 -2.0356674 -1.7886243 4288085770
-1.8111877 -1.9974642 -1.7875383 4288085770
-1.7681885 -1.9651852 -1.7888415 4288085770
-1.7272644 -1.9319086 -1.7882411 4288085770
-1.682373 -1.8976049 -1.7874711 4288085770
-1.6324463 -1.8662701 -1.7874627 4288085770
-1.570343 -1.83887 -1.7898996 4288085770
-1.5133972 -1.8074875 -1.7895844 4288085770
-1.4473267 -1.7800541 -1.7908468 4288085770
-1.3742676 -1.7535753 -1.7927959 4288085770
-1.3022766 -1.7260923 -1.7927964 4288085770
-1.2171326 -1.7015352 -1.7952054 4288085770
-2.5969849 -1.3009233 -1.8011525 4288085770
-1.138092 -1.6750031 -1.7948923 4288085770
-2.5440674 -1.2745571 -1.7989833 4288085770
-1.0480042 -1.6504049 -1.7960827 4288085770
-2.4851074 -1.2501593 -1.798537 4288085770
-0.95901489 -1.6248026 -1.7953255 4288085770
-2.4180603 -1.2267122 -1.7987318 4288085770
-0.87106323 -1.5972013 -1.7936251 4288085770
-2.3581543 -1.2012959 -1.7962496 4288085770
-0.76699829 -1.5745058 -1.794189 4288085770
-2.2962952 -1.1758585 -1.7926805 4288085770
-0.64068604 -1.5556831 -1.798759 4288085770
-2.1908264 -1.1612015 -1.8011436 4288085770
-0.534729 -1.5309544 -1.7962503 4288085770
-2.1391907 -1.1318073 -1.7930424 4288085770
-0.41256714 -1.5091372 -1.7970173 4288085770
-2.0419312 -1.1131763 -1.7968857 4288085770
-0.3067627 -1.4823971 -1.7925236 4288085770
-1.9396973 -1.094512 -1.8005102 4288085770
-0.17572021 -1.4605045 -1.7908978 4288085770
-1.8537598 -1.070919 -1.797874 4288085770
-0.042724609 -1.4375973 -1.789191 4288085770
-1.7790222 -1.0453787 -1.7917366 4288085770
0.084106445 -1.4117098 -1.7837701 4288085770
-1.6891479 -1.0217514 -1.7879257 4288085770
0.23718262 -1.3916674 -1.7821655 4288085770
-1.5871277 -1.0010576 -1.786567 4288085770
0.41241455 -1.3744946 -1.7835746 4288085770
-1.4750671 -0.98029709 -1.785769 4288085770
0.59359741 -1.3562727 -1.7837274 4288085770
-1.3731995 -0.95758629 -1.7814252 4288085770
0.77563477 -1.3370266 -1.7808452 4288085770
-1.2704163 -0.9338541 -1.7750463 4288085770
0.97787476 -1.319663 -1.7810693 4288085770
-1.1321716 -0.91593647 -1.7770853 4288085770
1.1980896 -1.3041792 -1.781491 4288085770
-0.99609375 -0.89601421 -1.7762272 4288085770
1.4060974 -1.2837505 -1.7774744 4288085770
-0.85705566 -0.8760643 -1.7742379 4288085770
1.6472778 -1.2681122 -1.7759755 4288085770
-0.71411133 -0.85608196 -1.771075 4288085770
1.9388733 -1.2581749 -1.7812376 4288085770
-0.55908203 -0.83601952 -1.7683847 4288085770
2.2272034 -1.2452288 -1.7816546 4288085770
-0.38790894 -0.81786251 -1.7679768 4288085770
2.548645 -1.2340698 -1.7836089 4288085770
-0.21289062 -0.79766655 -1.7654076 4288085770
2.8951721 -1.2247448 -1.7864521 4288085770
-0.0024719238 -0.78327084 -1.7692585 4288085770
3.2929993 -1.2191019 -1.7940264 4288085770
0.18652344 -0.76397038 -1.76507 4288085770
3.6824646 -1.210475 -1.7949772 4288085770
0.40264893 -0.74550247 -1.7636878 4288085770
4.0928955 -1.1996937 -1.7940202 4288085770
0.64398193 -0.72988129 -1.7651854 4288085770
4.5343323 -1.1897011 -1.7926965 4288085770
0.89825439 -0.71317005 -1.7661197 4288085770
5.0883484 -1.1890068 -1.801383 4288085770
1.1251526 -0.69159508 -1.7592781 4288085770
5.6390991 -1.1842937 -1.8032329 4288085770
1.4205322 -0.67660618 -1.7603993 4288085770
6.2619629 -1.1811018 -1.8069069 4288085770
1.7218018 -0.65956402 -1.7592716 4288085770
6.9911804 -1.1852179 -1.814873 4288085770
2.0682678 -0.64424133 -1.762152 4288085770
7.7422485 -1.1851606 -1.8189018 4288085770
2.4780273 -0.63251495 -1.769237 4288085770
8.8067017 -1.2081184 -1.8450551 4288085770
2.9017639 -0.6206913 -1.775708 4288085770
10.787109 -1.3063679 -1.9506283 4288085770
3.3222046 -0.60385132 -1.7763474 4288085770
3.8129272 -0.59056282 -1.7808845 4288085770
4.3184509 -0.57414818 -1.7817852 4288085770
4.8912354 -0.55929852 -1.7857289 4288085770
5.5129395 -0.54410458 -1.7875228 4288085770
6.2470398 -0.5311861 -1.7953746 4288085770
7.0481262 -0.51780224 -1.8012862 4288085770
8.0076904 -0.50639057 -1.814235 4288085770
9.6536255 -0.52468204 -1.8839288 4288085770
11.669617 -0.54856014 -1.9683561 4288085770
11.827148 3.2497015 -0.59313881 4293729569
11.542206 0.19084072 -1.9339588 4288085770
9.1364136 0.20645618 -1.8326192 4288085770
7.5979309 0.21549129 -1.7872 4288085770
6.4771729 0.22312641 -1.7704563 4288085770
5.5821228 0.22918606 -1.765799 4288085770
4.7923279 0.23593903 -1.7625282 4288085770
4.0835266 0.24323654 -1.7587006 4288085770
3.4448547 0.24999428 -1.7557909 4288085770
9.6875916 0.21592426 -1.8535082 4288085770
2.8641968 0.25813675 -1.75334 4288085770
7.825531 0.23797989 -1.781352 4293729569
2.3134155 0.26651096 -1.7455759 4288085770
6.7631836 0.25294209 -1.7740948 4288085770
1.8358459 0.27435017 -1.7415955 4288085770
5.7565308 0.26733303 -1.7583802 4293729569
1.4216003 0.28256798 -1.7438424 4288085770
4.9717102 0.28111172 -1.756932 4288085770
1.0403137 0.29001808 -1.7446349 4288085770
4.2689819 0.29343796 -1.7548699 4288085770
0.68606567 0.29864979 -1.7452476 4288085770
3.6383667 0.30623817 -1.7536447 4288085770
0.3578186 0.30744743 -1.7467175 4288085770
3.0385132 0.31927395 -1.7480624 4288085770
0.0496521 0.31638432 -1.7473099 4288085770
2.4998779 0.33170986 -1.7437932 4288085770
-0.23251343 0.3244915 -1.7487533 4288085770
2.0143127 0.34348679 -1.7411883 4288085770
-0.49359131 0.3337307 -1.7512794 4288085770
1.5717773 0.35555553 -1.7376957 4288085770
-0.75994873 0.34297085 -1.7480311 4288085770
1.1894836 0.36699963 -1.7385569 4288085770
-0.96679688 0.35254288 -1.7551813 4288085770
0.83422852 0.37961769 -1.7402377 4288085770
-1.2041016 0.36197853 -1.7516592 4288085770
0.51101685 0.39044952 -1.7415011 4288085770
-1.4081726 0.37160683 -1.7526829 4288085770
0.20379639 0.40239143 -1.7430673 4288085770
-1.6033325 0.38129807 -1.7533123 4288085770
-0.084411621 0.41446114 -1.7438004 4288085770
-1.8046265 0.39097786 -1.7492094 4288085770
-0.34857178 0.4256916 -1.7444725 4288085770
-1.9665527 0.39986706 -1.7533793 4288085770
-0.58566284 0.43709183 -1.7469571 4288085770
-2.1357117 0.40973663 -1.7528677 4288085770
-0.8208313 0.44851589 -1.7473562 4288085770
-2.2927856 0.41968632 -1.7528286 4288085770
-1.058197 0.45995426 -1.7438467 4288085770
-2.4316711 0.42973042 -1.7569947 4288085770
-1.2582397 0.4716053 -1.7457068 4288085770
-2.5717163 0.43978405 -1.7582076 4288085770
-1.4554138 0.48328876 -1.7454374 4288085770
-1.6425781 0.49404049 -1.7447228 4288085770
-1.8147278 0.50589085 -1.7443554 4288085770
-1.9818726 0.51777744 -1.7437687 4288085770
-2.1349487 0.52974701 -1.7445657 4288085770
-2.2901611 0.54072189 -1.7424471 4288085770
-2.4302063 0.55278206 -1.7426736 4288085770
-2.5724487 0.56384659 -1.7399845 4288085770
-2.7066345 0.57596207 -1.7379496 4288085770
-3.0035095 2.6586304 -1.6977756 4288085770
-2.8694153 2.7074852 -1.702193 4288085770
-2.7465515 2.7493057 -1.7000546 4288085770
-2.6065369 2.798214 -1.7022107 4288085770
-2.4595032 2.8481674 -1.7040663 4288085770
-2.3165894 2.8951101 -1.7040799 4288085770
-2.1586304 2.9471464 -1.7044671 4288085770
-1.9936218 2.9992189 -1.7065458 4288085770
-2.9844055 2.6225691 -1.718749 4288085770
-1.8136597 3.0563974 -1.7079985 4288085770
-2.9049683 2.6381788 -1.7043438 4288085770
-1.6316833 3.112586 -1.7093568 4288085770
-2.7254028 2.6962719 -1.7188332 4288085770
-1.4416809 3.170825 -1.7113764 4288085770
-2.6237793 2.7190037 -1.7085035 4288085770
-1.2397461 3.2311525 -1.7118838 4288085770
-2.475708 2.7589655 -1.7102511 4288085770
-1.0348511 3.2895069 -1.7112477 4288085770
-2.3327637 2.7959127 -1.7092023 4288085770
-0.81497192 3.3529587 -1.7109852 4288085770
-2.1686401 2.838973 -1.712266 4288085770
-0.58300781 3.4174786 -1.7122009 4288085770
-2.0096436 2.8790236 -1.7115338 4288085770
-0.34512329 3.4830532 -1.7111619 4288085770
-1.850769 2.9160862 -1.7087843 4288085770
-0.10333252 3.5466681 -1.7079368 4288085770
-1.6656494 2.9612923 -1.7109399 4288085770
0.15545654 3.6133938 -1.7049844 4288085770
-1.4947205 2.9994287 -1.7086697 4288085770
0.43026733 3.6842146 -1.7033541 4288085770
-1.285553 3.0497799 -1.7128024 4288085770
0.74725342 3.7682924 -1.70596 4288085770
-1.0643311 3.1032019 -1.718426 4288085770
1.0540771 3.8443279 -1.7039576 4288085770
-0.85229492 3.1495905 -1.7194047 4288085770
1.3959656 3.9295807 -1.7044749 4288085770
-0.6463623 3.1909637 -1.7166183 4288085770
1.7507935 4.0159273 -1.7034295 4288085770
-0.43051147 3.2334156 -1.7123952 4288085770
2.15271 4.1145678 -1.70539 4288085770
-0.19555664 3.2799683 -1.7113671 4288085770
2.5806274 4.2173805 -1.7072411 4288085770
0.037384033 3.3225222 -1.7084031 4288085770
3.0426025 4.3284073 -1.71065 4288085770
0.29837036 3.3722458 -1.7072535 4288085770
3.5817566 4.4599075 -1.7198024 4288085770
0.58547974 3.4281263 -1.7089984 4288085770
4.0785522 4.5711946 -1.7186797 4288085770
0.83728027 3.4688253 -1.7021918 4288085770
4.6775513 4.7101126 -1.7242477 4288085770
1.1483765 3.5248652 -1.7038839 4288085770
5.3497314 4.8674822 -1.7347219 4288085770
1.4795227 3.5840359 -1.7057168 4288085770
6.0858765 5.0362749 -1.7454579 4288085770
1.8286438 3.6463213 -1.7077792 4288085770
6.9312134 5.2337494 -1.762584 4288085770
2.1938171 3.7077141 -1.7101328 4288085770
7.6598816 5.3835802 -1.7595196 4288085770
2.5769043 3.7712345 -1.7107112 4288085770
8.4856873 5.5550261 -1.7603295 4288085770
2.9740295 3.833847 -1.7116683 4288085770
9.9200439 5.9001818 -1.8105402 4288085770
3.4353638 3.9118471 -1.7179079 4288085770
11.745056 6.3467855 -1.8822484 4288085770
3.8804626 3.9767809 -1.717773 4288085770
4.3645935 4.0499668 -1.7189765 4288085770
4.9130249 4.1335411 -1.7254298 4288085770
5.4381409 4.2040052 -1.724817 4288085770
6.0575867 4.295043 -1.7321992 4288085770
6.6818237 4.3791447 -1.7343228 4288085770
7.3882446 4.4757586 -1.7409201 4288085770
8.1035461 4.5654602 -1.7430825 4288085770
9.2964172 4.7660522 -1.7870059 4288085770
10.78302 5.0224619 -1.8503983 4288085770
11.52655 3.5978012 -0.96926033 4293729569
11.418671 3.4554892 -0.90406454 4293729569
11.367004 3.3215208 -0.84345806 4293729569
11.83313 2.8688374 -0.63905442 4293729569
11.80188 2.7349434 -0.58756077 4293729569
11.825745 2.6044044 -0.53767085 4293729569
8.6269836 -4.6167526 -0.55202472 4293729569
8.235321 -4.6145716 -0.58825958 4293729569
7.7973022 -4.5896754 -0.62166274 4293729569
7.4486694 -4.589211 -0.65799785 4293729569
7.0396729 -4.5621219 -0.69114196 4293729569
6.6114502 -4.5241442 -0.72219193 4293729569
6.3309326 -4.5292325 -0.75850511 4293729569
5.9960938 -4.51266 -0.79233086 4293729569
5.7296448 -4.5156636 -0.83004069 4293729569
5.4519653 -4.5097251 -0.86529386 4293729569
5.1742249 -4.4987798 -0.89957964 4293729569
4.8763428 -4.4769526 -0.93181539 4293729569
4.6619263 -4.4816122 -0.96923137 4293729569
4.3921509 -4.4626126 -1.0032176 4293729569
4.2478943 -4.4547276 -0.40701005 4293729569
4.1131897 -4.4346552 -1.0346591 4293729569
3.9754333 -4.4258027 -0.45018324 4293729569
10.771942 -7.1859093 -1.6342721 4293729569
3.8456726 -4.4489713 -0.4977816 4293729569
3.7242737 -4.4357057 -1.1087877 4293729569
3.5378723 -4.3982568 -0.53763473 4293729569
3.509613 -4.423346 -1.1433151 4293729569
3.4714661 -4.4430299 -0.5883249 4293729569
3.3161316 -4.4178615 -1.1798744 4293729569
3.2359924 -4.4158521 -0.62986326 4293729569
5.9944458 -5.6334238 -1.5042505 4293729569
3.0498047 -4.4053683 -0.67413962 4293729569
2.9551697 -4.4067259 -1.2538518 4293729569
2.7705383 -4.3941679 -1.2880635 4293729569
2.7013855 -4.3862367 -0.76162887 4293729569
3.9674683 -4.9945993 -1.4830669 4293729569
2.5351562 -4.3756089 -0.80402958 4293729569
2.4395752 -4.3778319 -1.3617563 4293729569
2.400116 -4.3757944 -0.84899747 4293729569
2.2608948 -4.3592319 -1.3957434 4293729569
2.27005 -4.3749461 -0.89375281 4293729569
2.2730408 -4.4275384 -1.4538498 4293729569
2.189209 -4.447391 -1.4994513 4293729569
1.976593 -4.3534355 -0.97884333 4293729569
1.7951355 -4.3199954 -1.501521 4293729569
6.8894958 -6.7406278 -1.4951998 4293729569
1.5 -4.2350235 -1.5150038 4293729569
1.6889648 -4.3228731 -1.0617311 4293729569
1.1996155 -4.1410627 -1.5247675 4293729569
1.59198 -4.3258042 -1.1060131 4293729569
1.0609436 -4.1241946 -1.5579875 4293729569
1.5172119 -4.3386154 -1.1542619 4293729569
0.94348145 -4.1152077 -1.5942318 4293729569
3.9017334 -5.5671825 -1.4884568 4293729569
0.86639404 -4.1229892 -1.6356072 4293729569
1.309021 -4.3285604 -1.2415442 4293729569
0.77822876 -4.1248388 -1.6765041 4293729569
0.66369629 -4.1108251 -1.7116499 4293729569
1.7039185 -4.616075 -1.4086232 4293729569
0.58349609 -4.1116204 -1.7522025 4293729569
1.0358582 -4.3162355 -1.3747354 4293729569
0.49624634 -4.1074519 -1.791096 4293729569
1.0549011 -4.3645 -1.4336623 4293729569
0.39175415 -4.0923815 -1.8278079 4288085770
1.0852051 -4.4177217 -1.4970701 4293729569
0.17965698 -4.0188541 -1.8395741 4288085770
0.78164673 -4.2947812 -1.5071514 4293729569
-0.090301514 -3.9096122 -1.837086 4288085770
0.47891235 -4.1678147 -1.5142173 4293729569
-0.35137939 -3.8023038 -1.8331921 4288085770
0.2883606 -4.0972161 -1.5370319 4293729569
-0.56686401 -3.7167463 -1.8371742 4288085770
0.22930908 -4.0948935 -1.5806797 4293729569
-0.80084229 -3.617259 -1.8330441 4288085770
0.16928101 -4.0895767 -1.6243904 4293729569
-1.0034485 -3.5316 -1.8344586 4288085770
0.1131897 -4.0842328 -1.6679261 4293729569
-1.2162781 -3.4389796 -1.8313613 4288085770
0.077362061 -4.0877767 -1.7145233 4293729569
-1.4130859 -3.3512564 -1.8285296 4288085770
0.03338623 -4.0853639 -1.7595119 4293729569
-1.5856018 -3.2753987 -1.8295643 4288085770
-0.0065307617 -4.0839291 -1.8053176 4293729569
-1.7673645 -3.1915784 -1.8270488 4288085770
-0.11453247 -4.0418301 -1.8343427 4288085770
-1.9279175 -3.1176248 -1.8255463 4288085770
-0.34939575 -3.9283733 -1.8343425 4288085770
-2.0936279 -3.038702 -1.8232965 4288085770
-0.5803833 -3.8138762 -1.8321755 4288085770
-2.2258606 -2.9766002 -1.8274827 4288085770
-0.79525757 -3.7062821 -1.8312602 4288085770
-2.3612976 -2.9104953 -1.8278303 4288085770
-0.99810791 -3.6026063 -1.8297935 4288085770
-2.4998169 -2.8424039 -1.8273237 4288085770
-1.1908875 -3.5028667 -1.8288615 4288085770
-2.6405334 -2.7693014 -1.8229408 4288085770
-1.3686218 -3.4090319 -1.8282332 4288085770
-2.7528381 -2.7120571 -1.8252199 4288085770
-1.5414124 -3.3161559 -1.82638 4288085770
-2.8764038 -2.6468506 -1.8220384 4288085770
-1.6990051 -3.231195 -1.8268151 4288085770
-2.9837341 -2.5895662 -1.8230994 4288085770
-1.8537292 -3.1451964 -1.8241282 4288085770
-2.0003357 -3.0621548 -1.8230691 4288085770
-2.14505 -2.9800854 -1.8199184 4288085770
-2.2675171 -2.9078984 -1.8207345 4288085770
-2.3860474 -2.8366756 -1.8203697 4288085770
-2.5066223 -2.7634559 -1.8181071 4288085770
-2.6170959 -2.6951799 -1.8173721 4288085770
-2.7246704 -2.6268692 -1.8145077 4288085770
-2.8240967 -2.5625248 -1.8142645 4288085770
-2.900177 -2.5100584 -1.8189299 4288085770
-3.0009155 -2.4426813 -1.8127556 4288085770
-2.4177246 -0.46194458 -1.7614021 4288085770
-2.3156433 -0.44627571 -1.7600248 4288085770
-2.20047 -0.43253803 -1.7610624 4288085770
-2.0914001 -0.41782093 -1.7593722 4288085770
-1.9764099 -0.40205669 -1.7564266 4288085770
-1.8431702 -0.38920403 -1.7576685 4288085770
-1.7151184 -0.37436676 -1.7561455 4288085770
-1.5699158 -0.36043072 -1.7568684 4288085770
-1.4248352 -0.3464756 -1.7545946 4288085770
-1.2706909 -0.33347321 -1.7539182 4288085770
-2.4751892 -0.18541527 -1.7676451 4288085770
-1.1004333 -0.32037163 -1.754539 4288085770
-2.3692322 -0.1707077 -1.7640886 4288085770
-0.91616821 -0.30818272 -1.7555397 4288085770
-2.230957 -0.15882492 -1.7661042 4288085770
-0.69555664 -0.29780006 -1.7629428 4288085770
-2.0927429 -0.14593697 -1.7671275 4288085770
-0.52975464 -0.28167439 -1.7547677 4288085770
-1.9495239 -0.13201618 -1.7679384 4288085770
-0.2902832 -0.27114964 -1.7593408 4288085770
-1.8216858 -0.11814499 -1.7614141 4288085770
-0.065032959 -0.25768852 -1.759552 4288085770
-1.6736145 -0.10416985 -1.7590089 4288085770
0.16107178 -0.24419785 -1.755723 4288085770
-1.4648132 -0.093894958 -1.7709343 4288085770
0.41427612 -0.23153973 -1.7537024 4288085770
-1.328125 -0.077937126 -1.7600327 4288085770
0.693573 -0.2187252 -1.7535408 4288085770
-1.1571045 -0.063809395 -1.7566204 4288085770
0.96868896 -0.20491314 -1.7495644 4288085770
-0.93862915 -0.052419662 -1.7611208 4288085770
1.2779236 -0.19288826 -1.7470834 4288085770
-0.74053955 -0.039118767 -1.7585185 4288085770
1.622345 -0.18065834 -1.7480655 4288085770
-0.53240967 -0.025748253 -1.7554777 4288085770
1.9886475 -0.16826439 -1.7460859 4288085770
-0.28100586 -0.014138222 -1.758534 4288085770
2.4313965 -0.15942478 -1.7517419 4288085770
-0.055969238 0.0003528595 -1.7537565 4288085770
2.9192505 -0.14929485 -1.758431 4288085770
0.22845459 0.013189316 -1.7553737 4288085770
3.4309692 -0.13899231 -1.7620711 4288085770
0.49649048 0.026959419 -1.7507057 4288085770
3.9836426 -0.12840843 -1.7639163 4288085770
0.81085205 0.039999008 -1.7510099 4288085770
4.5853882 -0.1175127 -1.766613 4288085770
1.1281128 0.05307579 -1.7481854 4288085770
5.2622681 -0.10713291 -1.770016 4288085770
1.4814453 0.066374779 -1.7477813 4288085770
6.0242004 -0.097200394 -1.7736862 4288085770
1.8809814 0.078960419 -1.7493522 4288085770
6.9083557 -0.087483406 -1.7790017 4293729569
2.3285217 0.091850281 -1.7518189 4288085770
7.9349365 -0.079874039 -1.7900684 4293729569
2.8263245 0.1050539 -1.757091 4288085770
9.7171326 -0.088750839 -1.8639765 4288085770
3.3710632 0.11756229 -1.7622974 4288085770
3.9548035 0.13133907 -1.7648036 4288085770
4.5945129 0.14549351 -1.765857 4288085770
5.3133545 0.16014957 -1.7684462 4288085770
6.0941772 0.17522335 -1.76932 4288085770
7.1109314 0.18872929 -1.7858598 4288085770
8.2115173 0.20382023 -1.7967298 4293729569
10.282593 0.21270752 -1.8881049 4288085770
11.152008 0.82789516 -1.914737 4288085770
8.997467 0.80971336 -1.8277512 4288085770
7.5595703 0.80380821 -1.7898755 4288085770
6.4789429 0.80406094 -1.7716024 4288085770
5.5998535 0.80752945 -1.7646341 4288085770
4.8309937 0.81168842 -1.7589066 4288085770
4.1773987 0.81755161 -1.7582049 4288085770
3.5567322 0.82363892 -1.7540791 4288085770
10.120483 1.119607 -1.8547575 4288085770
3.0020752 0.82915211 -1.749094 4288085770
8.1151733 1.0803776 -1.7672138 4293729569
2.508606 0.83603001 -1.747472 4288085770
7.085022 1.0758972 -1.759742 4288085770
2.0420532 0.84209824 -1.7426803 4288085770
6.1990967 1.0733118 -1.7550437 4288085770
1.6357117 0.85052586 -1.7422991 4288085770
5.4535217 1.0745859 -1.7553005 4288085770
1.2633972 0.85916233 -1.7424469 4288085770
4.6975708 1.0728416 -1.7469823 4288085770
0.92929077 0.86803055 -1.7449486 4288085770
4.1121826 1.0771217 -1.749326 4288085770
0.61404419 0.87703037 -1.7446315 4288085770
3.5295715 1.0794582 -1.7445369 4288085770
0.31781006 0.88515186 -1.7444868 4288085770
3.0150452 1.0832109 -1.7418096 4288085770
0.05770874 0.89549065 -1.7467933 4288085770
2.5446167 1.0872383 -1.7401774 4288085770
-0.19235229 0.9058857 -1.7496662 4288085770
2.1131287 1.0925207 -1.7368655 4288085770
-0.40124512 0.91752815 -1.7557681 4288085770
1.730896 1.0990934 -1.7374349 4288085770
-0.62127686 0.9281168 -1.7583435 4288085770
1.3584595 1.1047525 -1.7335713 4288085770
-0.87789917 0.93454361 -1.7474685 4288085770
1.0302429 1.1116714 -1.7338054 4288085770
-1.0719299 0.94529819 -1.7499197 4288085770
0.74517822 1.1208448 -1.7371869 4288085770
-1.2722473 0.95404816 -1.7456267 4288085770
0.46899414 1.1300859 -1.7381816 4288085770
-1.4432678 0.9649477 -1.7480829 4288085770
0.21392822 1.1394577 -1.740267 4288085770
-1.6164246 0.97585392 -1.7466292 4288085770
-0.011016846 1.1500034 -1.7450569 4288085770
-1.7796021 0.98482609 -1.7447333 4288085770
-0.25637817 1.1574669 -1.7407053 4288085770
-1.9225769 0.99690533 -1.7469835 4288085770
-0.46740723 1.1681156 -1.7428923 4288085770
-2.055542 1.0090427 -1.7498014 4288085770
-0.67965698 1.1777792 -1.7411208 4288085770
-2.1946716 1.0201626 -1.7488766 4288085770
-0.87277222 1.1875553 -1.7405269 4288085770
-2.3278198 1.0313215 -1.7476928 4288085770
-1.0559387 1.1973953 -1.7395005 4288085770
-2.4681091 1.0404558 -1.742805 4288085770
-1.2290649 1.2072983 -1.7390411 4288085770
-2.5658875 1.0537977 -1.7491107 4288085770
-1.3972778 1.2172384 -1.7373669 4288085770
-1.5473022 1.2292757 -1.7379174 4288085770
-1.6903992 1.2403631 -1.7381647 4288085770
-1.8284607 1.2514858 -1.7381959 4288085770
-1.9505005 1.2647009 -1.7395444 4288085770
-2.0725708 1.2769241 -1.7398887 4288085770
-2.1956787 1.2881432 -1.7392719 4288085770
-2.3107605 1.300415 -1.7383142 4288085770
-2.4208679 1.3127193 -1.7371407 4288085770
-2.5219727 1.3260784 -1.7365828 4288085770
-2.4473572 3.6571999 -1.7192516 4288085770
-2.3488464 3.7158566 -1.7112801 4288085770
-2.2090454 3.7957182 -1.7136352 4288085770
-2.0571594 3.88165 -1.7175014 4288085770
-1.9013672 3.9686174 -1.7192011 4288085770
-1.7395935 4.0566216 -1.7206473 4288085770
-1.5648193 4.1517076 -1.7225673 4288085770
-1.3901367 4.2438049 -1.7224734 4288085770
-1.1853333 4.3510637 -1.7271559 4288085770
-2.5393066 3.6325741 -1.7171433 4288085770
-1.0038147 4.4432249 -1.7227633 4288085770
-2.4055786 3.6964245 -1.714678 4288085770
-0.80218506 4.5444946 -1.7215493 4288085770
-2.2637939 3.7643137 -1.7138865 4288085770
-0.56549072 4.6629677 -1.7239075 4288085770
-2.0978394 3.8443336 -1.7181146 4288085770
-0.34399414 4.7713671 -1.7218661 4288085770
-1.9239197 3.9264002 -1.7220078 4288085770
-0.097412109 4.8909159 -1.7217989 4288085770
-1.7661743 3.9973955 -1.7205398 4288085770
0.14202881 5.0024405 -1.7169969 4288085770
-1.5672302 4.0896111 -1.726402 4288085770
0.44061279 5.1452999 -1.7197981 4288085770
-1.3814697 4.1707792 -1.7257745 4288085770
0.74914551 5.2892294 -1.7211735 4288085770
-1.1796265 4.2590332 -1.7274892 4288085770
1.0907593 5.4483538 -1.7251971 4288085770
-1.005127 4.3291645 -1.7202864 4288085770
1.4411926 5.6075525 -1.7258344 4288085770
-0.79141235 4.4185066 -1.7194896 4288085770
1.8055725 5.7708445 -1.7248886 4288085770
-0.56265259 4.5129366 -1.7200689 4288085770
2.21698 5.9554167 -1.7270167 4288085770
-0.31991577 4.6124544 -1.7210686 4288085770
2.6473083 6.1451159 -1.7273507 4288085770
-0.048065186 4.7231379 -1.7248681 4288085770
3.0965881 6.3389425 -1.7268844 4288085770
0.16934204 4.8025541 -1.7148542 4288085770
3.631958 6.5732737 -1.7329013 4288085770
0.46914673 4.922411 -1.7194891 4288085770
4.2293091 6.8339815 -1.7413702 4288085770
0.78192139 5.0443563 -1.7225735 4288085770
4.8085022 7.0776167 -1.7425351 4288085770
1.107666 5.169385 -1.7251115 4288085770
5.4866333 7.3648462 -1.7486377 4288085770
1.4553833 5.299552 -1.7277238 4288085770
6.1755981 7.6501722 -1.7492597 4288085770
1.8180847 5.4338121 -1.7307079 4288085770
7.0697937 8.0297098 -1.765486 4288085770
2.1977234 5.5731878 -1.7319844 4288085770
2.6003723 5.7167082 -1.7332859 4288085770
3.0400085 5.8734522 -1.7360539 4288085770
3.4624939 6.0161142 -1.733489 4288085770
3.9490662 6.1841631 -1.7352817 4288085770
4.5038452 6.3776026 -1.743258 4288085770
5.0643311 6.5651102 -1.7449489 4288085770
5.7080078 6.7851076 -1.7532108 4288085770
6.3545227 6.9961519 -1.7563002 4288085770
7.1181641 7.2498922 -1.766541 4288085770
7.9197388 7.5128756 -1.7761855 4288085770
8.9096069 7.8449774 -1.7980413 4288085770
12.354218 -4.4835529 -2.1177139 4288085770
10.685303 -4.1955547 -2.0353143 4288085770
9.1769409 -3.9285774 -1.9578671 4288085770
8.053772 -3.7413578 -1.9113767 4288085770
12.178925 -4.8432775 -1.47288 4293729569
7.2596436 -3.6262374 -1.8943102 4288085770
11.641724 -4.8159342 -1.5273203 4293729569
6.5618896 -3.5265422 -1.8819993 4288085770
11.072205 -4.7727685 -1.5772347 4293729569
5.944519 -3.4403663 -1.874146 4288085770
10.712769 -4.7793622 -1.6408186 4293729569
5.3572388 -3.3560052 -1.8669837 4288085770
10.43869 -4.8054461 -1.7086129 4293729569
4.8583984 -3.288125 -1.8659158 4288085770
9.0973511 -4.5196657 -1.6770768 4293729569
4.3512878 -3.2122712 -1.8602412 4288085770
8.5479736 -4.4522877 -1.7112262 4293729569
3.9005432 -3.14709 -1.8590798 4288085770
8.186676 -4.431808 -1.759012 4293729569
3.4596252 -3.0788321 -1.855504 4288085770
7.8847961 -4.4259863 -1.8121595 4293729569
3.0428162 -3.0124302 -1.8528779 4288085770
7.573761 -4.4142132 -1.8637302 4288085770
2.6237488 -2.9410148 -1.8453698 4288085770
7.1243896 -4.3521924 -1.8945217 4288085770
2.2550354 -2.8803105 -1.8426344 4288085770
6.479187 -4.2232485 -1.8980997 4288085770
1.893158 -2.8165517 -1.8376141 4288085770
5.775116 -4.0675898 -1.8863463 4288085770
1.5554504 -2.7566524 -1.834532 4288085770
5.1585999 -3.9324231 -1.8817081 4288085770
1.2125244 -2.6907644 -1.827702 4288085770
4.6012573 -3.810894 -1.8784413 4288085770
0.91189575 -2.6356344 -1.824991 4288085770
4.0749207 -3.6921682 -1.8748164 4288085770
0.63433838 -2.5843658 -1.8232629 4288085770
3.5877686 -3.5821996 -1.8714552 4288085770
0.35366821 -2.5291071 -1.8196876 4288085770
3.1063843 -3.4681773 -1.8648591 4288085770
0.078887939 -2.4707975 -1.8138704 4288085770
2.6934814 -3.3727589 -1.8642125 4288085770
-0.1595459 -2.4242916 -1.8134265 4288085770
2.2611084 -3.2654181 -1.8554606 4288085770
-0.36972046 -2.3846273 -1.8167293 4288085770
1.8659363 -3.1678581 -1.8490515 4288085770
-0.61849976 -2.3271503 -1.8097827 4288085770
1.4827576 -3.0692143 -1.8411295 4288085770
-0.81472778 -2.2883959 -1.8124752 4288085770
1.1428223 -2.9833217 -1.8372734 4288085770
-1.019165 -2.2426682 -1.8105555 4288085770
0.80871582 -2.8953772 -1.8301716 4288085770
-1.2084656 -2.20086 -1.8109629 4288085770
0.50787354 -2.8162427 -1.8265898 4288085770
-1.3978882 -2.1560402 -1.8093884 4288085770
0.21096802 -2.7360716 -1.8208425 4288085770
-1.5549316 -2.1220541 -1.8143637 4288085770
-0.062866211 -2.6607628 -1.8160722 4288085770
-1.7293396 -2.0791368 -1.8121302 4288085770
-0.30239868 -2.596262 -1.8157673 4288085770
-1.8916626 -2.0391512 -1.8113596 4288085770
-0.52990723 -2.5336876 -1.8159316 4288085770
-2.0591431 -1.9951839 -1.8078294 4288085770
-0.74234009 -2.4750223 -1.8164253 4288085770
-2.2033691 -1.9580936 -1.8082621 4288085770
-0.94674683 -2.417305 -1.8165674 4288085770
-2.3374939 -1.9239454 -1.810245 4288085770
-1.1615295 -2.352623 -1.8111851 4288085770
-2.4859619 -1.8818617 -1.8068819 4288085770
-1.342865 -2.2987671 -1.81231 4288085770
-1.518219 -2.2468719 -1.8131647 4288085770
-1.6855774 -2.1949205 -1.8126738 4288085770
-1.8428345 -2.1459169 -1.8147323 4288085770
-2.0073853 -2.0929308 -1.8111205 4288085770
-2.15979 -2.0428762 -1.8089716 4288085770
-2.2868958 -2.0006952 -1.8126926 4288085770
-2.4151306 -1.9575109 -1.8144641 4288085770
-2.3962708 0.30728722 -1.764344 4288085770
-2.2600098 0.32112408 -1.7655196 4288085770
-2.1239014 0.33496952 -1.7646971 4288085770
-1.9828186 0.34885216 -1.7626595 4288085770
-1.8397522 0.36274624 -1.760535 4288085770
-1.6816406 0.37673283 -1.7587609 4288085770
-1.5184937 0.39075279 -1.7567697 4288085770
-1.3201294 0.40496349 -1.760258 4288085770
-2.428833 0.43100262 -1.7714133 4288085770
-1.1451111 0.41906357 -1.7567487 4288085770
-2.3231506 0.44271088 -1.7608888 4288085770
-0.90750122 0.43349266 -1.7645433 4288085770
-2.1607361 0.45469379 -1.764925 4288085770
-0.7124939 0.44672775 -1.7591639 4288085770
-2.0085754 0.46663761 -1.7643981 4288085770
-0.48629761 0.461133 -1.7584431 4288085770
-1.8119812 0.47880745 -1.7729573 4288085770
-0.24203491 0.47664833 -1.7579474 4288085770
-1.6924744 0.49062538 -1.7578306 4288085770
0.015167236 0.49124718 -1.7568841 4288085770
-1.4718018 0.50293541 -1.7683485 4288085770
0.29037476 0.50696087 -1.7550466 4288085770
-1.2977905 0.5150404 -1.7628736 4288085770
0.57955933 0.52276516 -1.7526038 4288085770
-1.0844727 0.52735043 -1.7647026 4288085770
0.89984131 0.53875446 -1.7518163 4288085770
-0.87026978 0.53968239 -1.7634909 4288085770
1.2431641 0.55489254 -1.7500329 4288085770
-0.65820312 0.55201721 -1.7593684 4288085770
1.6235352 0.57224941 -1.7506506 4288085770
-0.42102051 0.56349659 -1.7571561 4288085770
2.0168152 0.58870316 -1.7477026 4288085770
-0.15570068 0.57613659 -1.7577336 4288085770
2.4823608 0.60657406 -1.7506359 4288085770
0.12054443 0.5888586 -1.7558367 4288085770
2.9930115 0.6257267 -1.7536252 4288085770
0.40975952 0.60066319 -1.7533724 4288085770
3.5526733 0.64618397 -1.7564971 4288085770
0.73513794 0.61367512 -1.7543502 4288085770
4.1794739 0.66704845 -1.7614646 4288085770
1.0664062 0.62673855 -1.7520714 4288085770
4.8401184 0.68914318 -1.7619691 4288085770
1.4266357 0.6389904 -1.7485318 4288085770
5.6200867 0.71295071 -1.7683187 4288085770
1.8491821 0.65259457 -1.7513061 4288085770
6.4719543 0.73723125 -1.7695539 4288085770
2.2906189 0.66633797 -1.7502608 4288085770
7.6009216 0.76812363 -1.7918403 4288085770
2.813446 0.68154526 -1.756705 4288085770
9.021698 0.80475807 -1.8275299 4288085770
3.3590698 0.69591713 -1.7591515 4288085770
11.030457 0.8538599 -1.8978512 4288085770
3.9930115 0.71181583 -1.7657869 4288085770
4.6526489 0.72790337 -1.7663021 4288085770
5.4065552 0.74356365 -1.769737 4288085770
6.2434998 0.76074123 -1.7725799 4288085770
7.3463745 0.7824831 -1.7919455 4288085770
8.6015015 0.80615711 -1.8137293 4288085770
10.768402 0.84812546 -1.9051833 4288085770
12.273712 1.586977 -1.948638 4288085770
10.226685 1.5399504 -1.8681233 4288085770
8.5505066 1.5021143 -1.8005805 4288085770
12.371552 1.8183613 -1.2549543 4293729569
7.3429871 1.4849596 -1.7638443 4288085770
11.65979 1.8516436 -1.3240777 4293729569
6.4657593 1.4846792 -1.7518926 4288085770
11.084137 1.8907471 -1.3943264 4293729569
5.7902222 1.493556 -1.7532499 4288085770
10.505188 1.9258757 -1.4566905 4293729569
5.116333 1.497489 -1.7455022 4288085770
10.142792 1.9762659 -1.5287507 4293729569
4.5146484 1.5028486 -1.7406332 4288085770
9.96698 2.0417271 -1.6128061 4293729569
4.0525208 1.5169916 -1.7477653 4288085770
10.059204 2.1327009 -1.7183881 4293729569
3.5177002 1.5207834 -1.7379825 4288085770
10.389465 2.2509985 -1.8468087 4288085770
3.0701904 1.5290737 -1.7344408 4288085770
8.7053528 2.159153 -1.7723217 4288085770
2.6959839 1.5417757 -1.7367487 4288085770
7.742981 2.1313801 -1.755913 4288085770
2.3195801 1.5514965 -1.7341309 4288085770
6.9521484 2.1175985 -1.7491469 4288085770
1.9883118 1.5634708 -1.7345691 4288085770
6.2604675 2.1064119 -1.7440948 4288085770
1.6569214 1.5734673 -1.7309999 4288085770
5.60672 2.0974636 -1.7374063 4288085770
1.3565979 1.5836439 -1.729084 4288085770
5.0220642 2.0899372 -1.7307298 4288085770
1.0712585 1.5949154 -1.7265234 4288085770
4.5628967 2.0941153 -1.7346799 4288085770
0.83517456 1.6094618 -1.7288487 4288085770
4.0944214 2.0932713 -1.7319992 4288085770
0.58688354 1.6209564 -1.7266824 4288085770
3.6911621 2.0978098 -1.732523 4288085770
0.38684082 1.6377134 -1.7304554 4288085770
3.3049011 2.1034555 -1.7323146 4288085770
0.17666626 1.651433 -1.7296498 4288085770
2.9747925 2.112421 -1.7356899 4288085770
-0.02456665 1.6652088 -1.7284544 4288085770
2.6575928 2.1204805 -1.7364981 4288085770
-0.20062256 1.6811209 -1.7301824 4288085770
2.3241577 2.1234713 -1.7319782 4288085770
-0.35458374 1.6991596 -1.7339649 4288085770
2.0238342 2.129653 -1.7290416 4288085770
-0.50152588 1.7172356 -1.7384431 4288085770
1.740509 2.1359434 -1.7253675 4288085770
-0.64855957 1.7343264 -1.7399182 4288085770
1.4862366 2.145402 -1.7234509 4288085770
-0.79467773 1.7504282 -1.740346 4288085770
1.2208252 2.1508121 -1.7179921 4288085770
-0.93276978 1.7675762 -1.7414315 4288085770
1.0026245 2.1624823 -1.7175224 4288085770
-1.0780334 1.7817078 -1.7378082 4288085770
0.79846191 2.1752357 -1.7174506 4288085770
-1.2071228 1.7979193 -1.737499 4288085770
0.57000732 2.1808825 -1.7093892 4288085770
-1.3403931 1.8121204 -1.734355 4288085770
0.4029541 2.1978483 -1.7117319 4288085770
-1.4352722 1.8335142 -1.7385933 4288085770
0.23379517 2.2118149 -1.7111475 4288085770
-1.5534363 1.8487968 -1.7368028 4288085770
0.082763672 2.2298813 -1.7128019 4288085770
