# .PCD v0.7 - Point Cloud Data file format
VERSION 0.7
FIELDS x y z rgb
SIZE 4 4 4 4
TYPE F F F U
COUNT 1 1 1 1
WIDTH 1102
HEIGHT 1
VIEWPOINT 0 0 0 1 0 0 0
POINTS 1102
DATA ascii
-1.9310608 -4.1349812 -0.89452457 4293729569
-1.9195557 -4.1839819 -1.3611593 4293729569
-1.9307861 -4.1752925 -0.94129658 4293729569
-1.9988403 -4.1814961 -1.3996592 4293729569
-2.0119629 -4.16783 -0.9829092 4293729569
-2.0750427 -4.1780114 -1.4400301 4293729569
3.0430298 -7.1156988 -1.4598799 4293729569
-1.9545593 -4.2870631 -1.5061598 4293729569
-2.1835022 -4.1399174 -1.0626192 4293729569
-2.0954285 -4.2437139 -1.5355864 4293729569
-2.1983032 -4.1642675 -1.1081495 4293729569
-2.3302917 -4.1405673 -1.5494604 4293729569
-2.247345 -4.1667128 -1.1513033 4293729569
-2.6005859 -4.0134873 -1.5560255 4293729569
0.045837402 -5.5543056 -1.4510756 4293729569
-2.7437134 -3.9591141 -1.580615 4293729569
-0.51272583 -5.258091 -1.4482374 4293729569
-2.8171692 -3.9445882 -1.6159315 4293729569
-2.4299011 -4.1421247 -1.2745066 4293729569
-2.8593445 -3.9459896 -1.6557932 4293729569
-1.6407471 -4.6425714 -1.424161 4293729569
-2.9116211 -3.9394145 -1.6941423 4293729569
-2.5018616 -4.145937 -1.3616934 4293729569
-2.9507751 -3.9398141 -1.7348776 4293729569
-2.9930115 -3.937211 -1.7737665 4293729569
-2.5780334 -4.1397538 -1.4471197 4293729569
-3.02005 -3.9405794 -1.815959 4293729569
-2.3343811 -4.3065286 -1.5315466 4293729569
-3.051178 -3.9409504 -1.8563471 4293729569
-2.5391541 -4.1963024 -1.5481634 4293729569
-3.0812988 -3.9393239 -1.8977041 4288085770
-2.7702332 -4.067121 -1.5590391 4293729569
-3.1732788 -3.8967986 -1.9239969 4288085770
-2.960022 -3.9618278 -1.5729723 4293729569
-3.3463135 -3.8024073 -1.9311247 4288085770
-3.0124817 -3.9392347 -1.608428 4293729569
-3.5094299 -3.7109747 -1.936801 4288085770
-3.0255432 -3.9385614 -1.6510401 4293729569
-3.6776123 -3.6145468 -1.9407301 4288085770
-3.0385742 -3.9358878 -1.6936617 4293729569
-3.8297729 -3.5260706 -1.944911 4288085770
-3.0466309 -3.9351974 -1.7360563 4293729569
-3.9768677 -3.4385815 -1.9498663 4288085770
-3.0465088 -3.9374976 -1.7810774 4293729569
-4.1159973 -3.3530588 -1.9534616 4288085770
-3.0414124 -3.9407811 -1.8258772 4293729569
-4.2420654 -3.2765026 -1.9584322 4288085770
-3.0393982 -3.9410672 -1.8698263 4293729569
-4.3661804 -3.1979332 -1.9623308 4288085770
-3.0627136 -3.9223928 -1.9069948 4288085770
-4.4893494 -3.1183467 -1.9641943 4288085770
-3.1853943 -3.8418837 -1.9208517 4288085770
-4.6136475 -3.0367522 -1.9641161 4288085770
-3.3415527 -3.7374263 -1.9263086 4288085770
-4.7268066 -2.9621305 -1.9655123 4288085770
-3.4867554 -3.6389251 -1.9302511 4288085770
-4.8208008 -2.8964677 -1.9700193 4288085770
-3.625885 -3.5434074 -1.9349108 4288085770
-4.9148254 -2.8307996 -1.9735289 4288085770
-3.7530212 -3.4528508 -1.9390192 4288085770
-5.0140991 -2.7591224 -1.9733 4288085770
-3.8802185 -3.3612781 -1.9411345 4288085770
-4.0004272 -3.2736888 -1.9439192 4288085770
-4.1044617 -3.1950545 -1.9479475 4288085770
-4.2116089 -3.1124191 -1.9501333 4288085770
-4.3148804 -3.0327554 -1.9501295 4288085770
-4.3998413 -2.9620686 -1.9552774 4288085770
-4.4951172 -2.8853788 -1.9549074 4288085770
-4.5873413 -2.8096771 -1.9544001 4288085770
-4.6593933 -2.7439303 -1.9569521 4288085770
-4.7416687 -2.6731944 -1.9559793 4288085770
-4.8057251 -2.6114202 -1.9581594 4288085770
-4.8616943 -2.5546303 -1.961957 4288085770
-4.9349976 -2.4868498 -1.9585752 4288085770
-4.9768372 -2.4370236 -1.9637175 4288085770
-5.0370789 -2.3762102 -1.9617224 4288085770
-4.856842 -0.97468281 -1.9328356 4288085770
-4.8119507 -0.95051384 -1.9280367 4288085770
-4.7518921 -0.93031788 -1.9265547 4288085770
-4.6939392 -0.90911484 -1.9231672 4288085770
-4.6349792 -0.88890934 -1.9197302 4288085770
-4.566925 -0.86968613 -1.9178953 4288085770
-4.4867859 -0.85243893 -1.9185209 4288085770
-4.4279785 -0.83020782 -1.9111013 4288085770
-4.3479004 -0.81094933 -1.9097452 4288085770
-4.2729492 -0.79168701 -1.9056044 4288085770
-4.1869812 -0.77339363 -1.9019842 4288085770
-4.1080933 -0.75311184 -1.896678 4288085770
-4.0160217 -0.7358036 -1.8937845 4288085770
-3.8997803 -0.72244549 -1.8948202 4288085770
-3.8038635 -0.70310974 -1.8897696 4288085770
-3.6968384 -0.68675041 -1.8862181 4288085770
-4.820343 -0.47554398 -1.915452 4288085770
-3.5808411 -0.67035866 -1.8822794 4288085770
-4.7210999 -0.46123695 -1.9162321 4288085770
-3.4345703 -0.65790844 -1.8840017 4288085770
-4.6422729 -0.44194984 -1.9099245 4288085770
-3.3419189 -0.63653946 -1.8720999 4288085770
-4.5532532 -0.42564583 -1.9061575 4288085770
-3.2129517 -0.6190958 -1.866601 4288085770
-4.4541931 -0.41031933 -1.903945 4288085770
-3.0567932 -0.60659695 -1.8658895 4288085770
-4.3653564 -0.39299679 -1.897191 4288085770
-2.9127808 -0.59010792 -1.8607321 4288085770
-4.2542419 -0.37762928 -1.8944578 4288085770
-2.7658997 -0.57359505 -1.8534479 4288085770
-4.137207 -0.36324024 -1.8914595 4288085770
-2.6311951 -0.55409336 -1.8417063 4288085770
-4.0161133 -0.34784412 -1.8892927 4288085770
-2.4582214 -0.53950977 -1.8362741 4288085770
-3.894104 -0.33243275 -1.8850851 4288085770
-2.2893372 -0.52291965 -1.8280325 4288085770
-3.7631226 -0.31698895 -1.8804865 4288085770
-2.0812073 -0.51023388 -1.8240614 4288085770
-3.625061 -0.30252647 -1.8765745 4288085770
-1.8893738 -0.49356461 -1.8148203 4288085770
-3.4749451 -0.28803539 -1.8741388 4288085770
-1.6834717 -0.47885323 -1.8059568 4288085770
-3.3249207 -0.27353191 -1.8697081 4288085770
-1.4414062 -0.46604824 -1.8005095 4288085770
-3.1760559 -0.2570076 -1.8613348 4288085770
-1.1722717 -0.45516205 -1.7958746 4288085770
-3.0151062 -0.24145889 -1.8554335 4288085770
-0.90332031 -0.44125175 -1.7872629 4288085770
-2.8421936 -0.2258625 -1.8480082 4288085770
-0.66168213 -0.42438221 -1.7718515 4288085770
-2.6481323 -0.21221924 -1.8436556 4288085770
-0.33154297 -0.41329002 -1.7655668 4288085770
-2.4612732 -0.19656658 -1.8346243 4288085770
0.066925049 -0.40602016 -1.7652884 4288085770
-2.2270508 -0.18380928 -1.8325224 4288085770
0.49035645 -0.39966106 -1.7639189 4288085770
-2.0070801 -0.16806316 -1.8250551 4288085770
1.0293274 -0.39898586 -1.7704992 4288085770
-1.7973938 -0.15131283 -1.8120337 4288085770
1.5669556 -0.39427662 -1.7711554 4288085770
-1.543396 -0.13645267 -1.8040819 4288085770
2.2139282 -0.39424992 -1.7770319 4288085770
-1.2755127 -0.12153912 -1.7945204 4288085770
2.8465271 -0.38920975 -1.7735567 4288085770
-0.98959351 -0.10556126 -1.7841845 4288085770
3.5913391 -0.38782978 -1.7731848 4288085770
-0.69985962 -0.089551926 -1.7706804 4288085770
4.4533386 -0.38808823 -1.7747068 4288085770
-0.3487854 -0.075380325 -1.7624998 4288085770
5.4687195 -0.3928833 -1.7805376 4288085770
0.12896729 -0.065893173 -1.7677946 4288085770
6.6412354 -0.40017891 -1.7865171 4288085770
0.61151123 -0.054349899 -1.7668924 4288085770
7.8663635 -0.40323639 -1.7822275 4288085770
1.2296143 -0.047446251 -1.777072 4288085770
9.2745667 -0.40769577 -1.7759657 4288085770
1.8302612 -0.03553009 -1.7770357 4288085770
2.5120239 -0.0253582 -1.7774591 4288085770
3.2637634 -0.012949944 -1.775857 4288085770
4.1015625 -0.0012598038 -1.7735052 4288085770
5.1107178 0.0099401474 -1.7767057 4288085770
6.3263245 0.018766403 -1.7849188 4288085770
7.6746826 0.031077385 -1.7843733 4288085770
9.0415039 0.047530174 -1.7710409 4288085770
8.8688049 0.49527836 -1.7621832 4288085770
7.2554626 0.4989624 -1.7635508 4288085770
5.8400879 0.50333309 -1.759408 4288085770
4.6489563 0.50842953 -1.7566366 4288085770
3.6471863 0.51412392 -1.7577314 4288085770
2.7664795 0.51922512 -1.7576189 4288085770
2.026001 0.52476597 -1.7604856 4288085770
9.1577148 0.60329342 -1.7435408 4288085770
1.3495789 0.5315237 -1.7626066 4288085770
7.6058044 0.61012363 -1.7532949 4288085770
0.67977905 0.53835964 -1.7564363 4288085770
6.1694641 0.61641407 -1.7510653 4288085770
0.096130371 0.54547596 -1.7505674 4288085770
4.93927 0.62238789 -1.7479715 4288085770
-0.38513184 0.55287838 -1.752305 4288085770
3.9013367 0.62898922 -1.7456236 4288085770
-0.74176025 0.56059933 -1.7667017 4288085770
3.0206604 0.63708305 -1.7465277 4288085770
-1.0794983 0.5694046 -1.7782888 4288085770
2.2531738 0.64453602 -1.749568 4288085770
-1.4244385 0.5772171 -1.7851763 4288085770
1.5717163 0.65227699 -1.7519102 4288085770
-1.7373047 0.586133 -1.7926931 4288085770
0.94424438 0.6602087 -1.7519331 4288085770
-2.0211182 0.59413624 -1.8009558 4288085770
0.36169434 0.66830921 -1.7490244 4288085770
-2.2627258 0.60426044 -1.8124228 4288085770
-0.18899536 0.67553806 -1.742734 4288085770
-2.5115662 0.61238861 -1.8191805 4288085770
-0.58392334 0.68517971 -1.750783 4288085770
-2.722168 0.62260818 -1.8313169 4288085770
-0.90545654 0.69600964 -1.7666922 4288085770
-2.9561462 0.63181305 -1.8344393 4288085770
-1.241333 0.70584965 -1.7742033 4288085770
-3.1498718 0.64111233 -1.8428392 4288085770
-1.5401001 0.71579361 -1.7841234 4288085770
-3.3265076 0.65146065 -1.8525133 4288085770
-1.8280029 0.72579861 -1.7905722 4288085770
-3.5195312 0.66080284 -1.8548765 4288085770
-2.0887756 0.73587799 -1.7988596 4288085770
-3.6873169 0.67120361 -1.861167 4288085770
-2.3286133 0.74703407 -1.8062506 4288085770
-3.8420715 0.68064499 -1.8678904 4288085770
-2.5523987 0.7572403 -1.8139467 4288085770
-4.0018921 0.69107914 -1.872838 4288085770
-2.7611084 0.76848793 -1.8230047 4288085770
-4.1538696 0.70155621 -1.8754454 4288085770
-2.9680176 0.77976704 -1.827981 4288085770
-4.303772 0.7110405 -1.8779593 4288085770
-3.1528015 0.79010868 -1.835 4288085770
-4.4265442 0.72158813 -1.8843145 4288085770
-3.325531 0.8014822 -1.8425131 4288085770
-4.5453186 0.73315048 -1.8905058 4288085770
-3.4984131 0.81287956 -1.8470259 4288085770
-3.6652832 0.82329464 -1.8512754 4288085770
-3.821167 0.83475208 -1.8550577 4288085770
-3.9539185 0.84725666 -1.8628588 4288085770
-4.0987549 0.85875416 -1.8661661 4288085770
-4.2286377 0.87028885 -1.8708315 4288085770
-4.3676758 0.880826 -1.870883 4288085770
-4.4916077 0.89239883 -1.873292 4288085770
-4.5945435 2.7004757 -0.98284054 4293729569
-4.5001526 2.7099075 -0.96384335 4293729569
-4.4158936 2.7133274 -0.9422369 4293729569
-4.3717651 2.6996441 -0.9162302 4293729569
-4.3186035 2.6879807 -0.89185429 4293729569
-4.5684814 2.58255 -1.1230783 4293729569
-4.2323914 2.6884117 -0.86913967 4293729569
-4.4920654 2.5789213 -1.104764 4293729569
-4.1501465 2.6858292 -0.84657764 4293729569
-4.3985291 2.5813303 -1.0887575 4293729569
-3.5542603 2.871624 -0.86629963 4293729569
-4.3221436 2.5747061 -1.0694208 4293729569
-4.0879211 2.6393862 -0.79355526 4293729569
-4.2327271 2.572114 -1.0515547 4293729569
-4.0819092 2.6065989 -0.76505184 4293729569
-4.1412659 2.5695305 -1.0336027 4293729569
-4.0336914 2.5699825 -1.0179815 4293729569
-2.2623596 3.1630888 -0.82483959 4293729569
-3.9351807 2.5674133 -1.0007257 4293729569
-3.4262085 2.7210197 -0.72067356 4293729569
-3.8317261 2.5638657 -0.98325253 4293729569
-3.3480225 2.7074375 -0.696208 4293729569
-3.7151794 2.5633488 -0.96723843 4293729569
-3.328949 2.6716871 -0.66812801 4293729569
-3.6066589 2.5588188 -0.94954205 4293729569
-3.4740601 2.5593443 -0.93484783 4293729569
-3.011322 2.6880093 -0.62457943 4293729569
-3.3425293 2.5578794 -0.91818333 4293729569
-2.8490295 2.6936903 -0.6016407 4293729569
-3.1989746 2.5584507 -0.90201855 4293729569
-2.659729 2.705452 -0.57958412 4293729569
-3.0473022 2.5590401 -0.88750744 4293729569
-2.4533997 2.7182665 -0.55780315 4293729569
-2.8997192 2.5566254 -0.87115002 4293729569
-2.269165 2.7220316 -0.53290844 4293729569
-2.7301025 2.5572739 -0.85586834 4293729569
-2.5293884 2.5650139 -0.84230518 4293729569
-2.3286438 2.5707531 -0.82872295 4293729569
-2.1019287 2.5805693 -0.81605816 4293729569
-1.8681946 2.5884199 -0.80207539 4293729569
-1.5663147 2.6094666 -0.79126263 4293729569
-1.2955322 2.6194258 -0.77870846 4293729569
9.9085693 -4.704627 -0.55605221 4293729569
9.9086914 -4.758513 -1.5335989 4293729569
9.325592 -4.6799235 -0.61428261 4293729569
9.3778381 -4.7464867 -1.5694876 4293729569
8.7966003 -4.6610446 -0.67215633 4293729569
8.3564758 -4.5927811 -1.5693502 4293729569
8.1592407 -4.6054764 -0.72492695 4293729569
7.5952148 -4.4993424 -1.5836592 4293729569
7.7995605 -4.6200566 -0.78330898 4293729569
6.95224 -4.4275489 -1.6017485 4293729569
7.3204651 -4.5959873 -0.83707714 4293729569
6.4710693 -4.3963103 -1.6306295 4293729569
6.7990417 -4.5510168 -0.88579655 4293729569
6.072113 -4.3828316 -1.6628637 4293729569
6.478241 -4.5584459 -0.94055653 4293729569
5.6741943 -4.3633413 -1.6940966 4293729569
6.0068359 -4.5163059 -0.98811245 4293729569
5.2982788 -4.345788 -1.7263727 4293729569
5.639679 -4.498848 -1.0380278 4293729569
4.938324 -4.3281713 -1.7569609 4293729569
5.362793 -4.5071135 -1.0898962 4293729569
4.5813599 -4.3045435 -1.7874651 4288085770
5.0317078 -4.492537 -1.139245 4293729569
4.2544861 -4.2878323 -1.8196306 4288085770
4.7527771 -4.4918103 -1.1912642 4293729569
3.8852539 -4.2522054 -1.8447371 4288085770
4.4737549 -4.4850621 -1.240325 4293729569
3.4151611 -4.175807 -1.8564367 4288085770
4.211731 -4.4812622 -1.2896357 4293729569
2.9409485 -4.0914035 -1.865365 4288085770
3.8240051 -4.4287915 -1.3286657 4293729569
2.3344727 -3.9522762 -1.853322 4288085770
3.5648193 -4.4159598 -1.3749132 4293729569
1.7289124 -3.8071218 -1.8382807 4288085770
3.438385 -4.4497809 -1.4321585 4293729569
1.205719 -3.6847496 -1.8295546 4288085770
3.1278381 -4.4120736 -1.4727774 4293729569
0.78713989 -3.5930982 -1.8291388 4288085770
3.0325317 -4.4518046 -1.5316477 4293729569
0.35534668 -3.4924669 -1.8253489 4288085770
2.3745728 -4.2729506 -1.5351019 4293729569
-0.0625 -3.3907776 -1.8199663 4288085770
1.9348755 -4.1715226 -1.5566797 4293729569
-0.40188599 -3.31389 -1.822053 4288085770
1.7104187 -4.1485329 -1.5965033 4293729569
-0.69897461 -3.2498956 -1.8282423 4288085770
1.5231323 -4.1364403 -1.6386595 4293729569
-0.94970703 -3.2007942 -1.8403482 4288085770
1.3509521 -4.1283092 -1.6821432 4293729569
-1.2379761 -3.1327467 -1.8431826 4288085770
1.1958618 -4.1241393 -1.7278681 4293729569
-1.486969 -3.076612 -1.8512564 4288085770
1.047821 -4.1199441 -1.7732897 4293729569
-1.7238464 -3.0234385 -1.8597937 4288085770
0.90264893 -4.1137314 -1.8176012 4288085770
-1.9497986 -2.9702215 -1.8668585 4288085770
0.7585144 -4.1075153 -1.8618689 4288085770
-2.1748352 -2.9149938 -1.8728952 4288085770
0.3187561 -3.9699254 -1.8606787 4288085770
-2.3938904 -2.8597374 -1.8776789 4288085770
-0.259552 -3.7675967 -1.8338499 4288085770
-2.5816956 -2.8144131 -1.8870535 4288085770
-0.60491943 -3.6607442 -1.8384027 4288085770
-2.7867737 -2.7591085 -1.8912363 4288085770
-0.89898682 -3.5717592 -1.8476381 4288085770
-2.9727478 -2.7097487 -1.8965597 4288085770
-1.1750183 -3.4887195 -1.8570585 4288085770
-3.1456299 -2.6643653 -1.9042959 4288085770
-1.452179 -3.40066 -1.8635588 4288085770
-3.3256531 -2.612978 -1.9083757 4288085770
-1.7223511 -3.3125715 -1.8687601 4288085770
-3.489624 -2.5655489 -1.913743 4288085770
-1.9694824 -3.2314134 -1.8749266 4288085770
-3.6576233 -2.5151277 -1.9182997 4288085770
-2.1954651 -3.1582026 -1.8831301 4288085770
-3.7974854 -2.4756346 -1.9255781 4288085770
-2.4165344 -3.083961 -1.8891306 4288085770
-3.9647217 -2.4211731 -1.925128 4288085770
-2.6387634 -3.0057025 -1.8922033 4288085770
-4.0985413 -2.3806591 -1.9321547 4288085770
-2.8439026 -2.9333963 -1.8965082 4288085770
-4.2354736 -2.3361411 -1.9373407 4288085770
-3.0450745 -2.8600698 -1.8996458 4288085770
-4.3746033 -2.2896023 -1.9386301 4288085770
-3.223114 -2.79669 -1.9057245 4288085770
-4.4954224 -2.249042 -1.9451017 4288085770
-3.3920898 -2.7352781 -1.9114027 4288085770
-3.5561523 -2.6728425 -1.9158735 4288085770
-3.7202454 -2.6103983 -1.9193468 4288085770
-3.8631592 -2.5549102 -1.925868 4288085770
-4.0061646 -2.4984064 -1.9303961 4288085770
-4.1705933 -2.428915 -1.9269247 4288085770
-4.2772217 -2.3873401 -1.9377966 4288085770
-4.4052429 -2.3327832 -1.9416685 4288085770
-4.524292 -2.2821951 -1.9451284 4288085770
-4.471283 0.062728882 -1.9003973 4288085770
-4.3582458 0.076109886 -1.8966475 4288085770
-4.2453003 0.089506149 -1.8908968 4288085770
-4.1355286 0.10291195 -1.8822832 4288085770
-3.9973755 0.11636639 -1.8794584 4288085770
-3.8522644 0.12783813 -1.8773203 4288085770
-3.7123108 0.14132023 -1.871417 4288085770
-3.5714111 0.15381241 -1.8644629 4288085770
-3.4003296 0.16637516 -1.8612185 4288085770
-4.4739075 0.23968124 -1.8987741 4288085770
-3.2434387 0.17893028 -1.8525801 4288085770
-4.3549194 0.25109673 -1.8927546 4288085770
-3.0795898 0.1925106 -1.8436499 4288085770
-4.2279663 0.26253319 -1.8873949 4288085770
-2.8511963 0.20321465 -1.8459425 4288085770
-4.0808411 0.27401161 -1.8851709 4288085770
-2.6714478 0.21586514 -1.8343229 4288085770
-3.9297485 0.28551102 -1.8817778 4288085770
-2.4745789 0.22955322 -1.8249769 4288085770
-3.7878723 0.29701424 -1.8737745 4288085770
-2.2496338 0.24132538 -1.8164148 4288085770
-3.6188049 0.30757713 -1.8696032 4288085770
-1.9915466 0.25417519 -1.8114443 4288085770
-3.4477844 0.31916046 -1.8633547 4288085770
-1.7456665 0.2670269 -1.8009939 4288085770
-3.2708435 0.33076382 -1.8568506 4288085770
-1.4757996 0.27895641 -1.7905073 4288085770
-3.0677185 0.34143162 -1.8532228 4288085770
-1.1697693 0.2919817 -1.7824831 4288085770
-2.8748474 0.35210419 -1.8440275 4288085770
-0.8397522 0.30409241 -1.7734213 4288085770
-2.6699524 0.36381531 -1.8353243 4288085770
-0.53610229 0.31716919 -1.7574892 4288085770
-2.4510498 0.3745718 -1.8260145 4288085770
-0.11178589 0.32854271 -1.7533865 4288085770
-2.2009583 0.38540173 -1.8203745 4288085770
0.42199707 0.34020519 -1.7576056 4288085770
-1.9581299 0.39625168 -1.8090372 4288085770
1.0329895 0.35108948 -1.7655115 4288085770
-1.6882324 0.40717888 -1.798543 4288085770
1.660675 0.3630724 -1.7667055 4288085770
-1.3882751 0.41819 -1.7897635 4288085770
2.3484192 0.3752594 -1.766326 4288085770
-1.0581665 0.42828751 -1.7826853 4288085770
3.1171265 0.38871193 -1.7644854 4288085770
-0.72329712 0.43943501 -1.7704077 4288085770
3.9647217 0.40244389 -1.7592611 4288085770
-0.3614502 0.44967556 -1.7569666 4288085770
4.9737854 0.41665173 -1.7591295 4288085770
0.14019775 0.46025562 -1.7585516 4288085770
6.1780396 0.43046093 -1.761632 4288085770
0.70791626 0.47103691 -1.7613077 4288085770
7.6297607 0.44603443 -1.7675486 4288085770
1.3759766 0.48209667 -1.7697706 4288085770
9.1989746 0.46406555 -1.7614336 4288085770
2.0325623 0.49220181 -1.7667112 4288085770
2.7853394 0.50359535 -1.7665396 4288085770
3.5969238 0.51420879 -1.7608385 4288085770
4.5698242 0.52631283 -1.7592382 4288085770
5.7883911 0.5391283 -1.7671309 4288085770
7.1045837 0.55232716 -1.7648268 4288085770
8.7112732 0.56641769 -1.7670908 4288085770
10.405304 0.58089828 -1.753602 4288085770
8.8858643 1.0010128 -1.746707 4288085770
7.3364868 1.0032921 -1.7440767 4288085770
6.0846252 1.0084238 -1.7487307 4288085770
4.943512 1.0129614 -1.744628 4288085770
3.9917908 1.0180407 -1.7454252 4288085770
3.170166 1.0255127 -1.7466707 4288085770
2.4004822 1.0301781 -1.7436666 4288085770
10.396667 1.4537363 -1.7253809 4288085770
1.7530518 1.0381813 -1.7454557 4288085770
8.8419189 1.4388933 -1.736865 4288085770
1.172699 1.0463858 -1.7473745 4288085770
7.3164062 1.4172764 -1.7300272 4288085770
0.62216187 1.0517216 -1.7439909 4288085770
6.1044617 1.4045696 -1.7298365 4288085770
0.095489502 1.0571556 -1.7375784 4288085770
5.048645 1.3953362 -1.7299833 4288085770
-0.31158447 1.0668716 -1.7420931 4288085770
4.1420898 1.3895473 -1.7317686 4288085770
-0.62826538 1.0808029 -1.7547712 4288085770
3.351532 1.3861132 -1.7335997 4288085770
-0.93307495 1.0937958 -1.7639341 4288085770
2.605835 1.3808613 -1.7294931 4288085770
-1.2551575 1.1037827 -1.7668047 4288085770
1.9593506 1.3788805 -1.7291651 4288085770
-1.5047607 1.1179256 -1.778615 4288085770
1.3889771 1.3801231 -1.7306051 4288085770
-1.7545471 1.1310892 -1.7874212 4288085770
0.8656311 1.3805199 -1.7300234 4288085770
-1.9914246 1.1443129 -1.7936716 4288085770
0.40032959 1.3820934 -1.7299623 4288085770
-2.2051697 1.1575918 -1.8019361 4288085770
-0.064208984 1.3817177 -1.7238512 4288085770
-2.427124 1.1688805 -1.8055315 4288085770
-0.37695312 1.3936672 -1.7353468 4288085770
-2.6239624 1.1822224 -1.812068 4288085770
-0.65252686 1.4067135 -1.7492609 4288085770
-2.822937 1.1945906 -1.8146887 4288085770
-0.97967529 1.4127111 -1.74932 4288085770
-2.9785767 1.2090349 -1.8244734 4288085770
-1.2536011 1.422823 -1.7551336 4288085770
-3.1363831 1.2235022 -1.830348 4288085770
-1.478241 1.43505 -1.7658587 4288085770
-3.3013306 1.2359686 -1.8335085 4288085770
-1.7091064 1.4472876 -1.7728453 4288085770
-3.4501648 1.2494745 -1.8379927 4288085770
-1.9349976 1.4575548 -1.7776022 4288085770
-3.5839844 1.2640162 -1.8438387 4288085770
-2.1479797 1.4688749 -1.7808142 4288085770
-3.7127686 1.2785759 -1.8494711 4288085770
-2.3347168 1.4822369 -1.7889223 4288085770
-3.8517761 1.2911377 -1.850522 4288085770
-2.4913635 1.4976778 -1.7987566 4288085770
-3.9726257 1.3057289 -1.8548117 4288085770
-2.6672974 1.510107 -1.8023901 4288085770
-4.070282 1.322361 -1.8631315 4288085770
-2.8301086 1.5235672 -1.8074713 4288085770
-4.1761169 1.336998 -1.8677778 4288085770
-2.9719238 1.5380802 -1.8136625 4288085770
-4.2870483 1.3506403 -1.8696375 4288085770
-3.1188049 1.5515919 -1.818059 4288085770
-4.37677 1.3673162 -1.8756132 4288085770
-3.2445374 1.5681534 -1.8245783 4288085770
-4.4777222 1.3819828 -1.8780489 4288085770
-3.378479 1.5817175 -1.8274202 4288085770
-3.4963074 1.5973148 -1.8325911 4288085770
-3.6141357 1.6129169 -1.8367605 4288085770
-3.7280273 1.6275387 -1.8397532 4288085770
-3.8308716 1.6431932 -1.8432798 4288085770
-3.9287109 1.6598549 -1.8476019 4288085770
-4.0245972 1.6755333 -1.850831 4288085770
-4.1104126 1.6932297 -1.8556471 4288085770
-4.1993408 1.709938 -1.8575869 4288085770
-4.2872314 1.7256498 -1.8594713 4288085770
-4.3590698 1.7443924 -1.8636961 4288085770
-4.4370117 1.761138 -1.8651628 4288085770
-4.5048828 1.7799034 -1.8682146 4288085770
-4.5812683 3.4274292 -0.90735531 4293729569
-3.9473267 3.6570749 -0.54862309 4293729569
-3.945343 3.6233006 -0.51926136 4293729569
-3.8893738 3.6166821 -0.49079132 4293729569
-3.8023376 3.6241417 -0.46410275 4293729569
-3.6803284 3.6477127 -0.43703651 4293729569
-3.3953552 3.7507648 -0.41159344 4293729569
-3.2854004 3.7643099 -0.38296604 4293729569
-3.9563599 3.1969719 -0.54760838 4293729569
-3.9510803 3.1581545 -0.52507114 4293729569
-3.9147339 3.1324215 -0.5033083 4293729569
-3.8643494 3.1117249 -0.48298168 4293729569
-3.8069763 3.0940409 -0.463377 4293729569
-3.7375488 3.0793905 -0.44428253 4293729569
-3.475708 3.0974531 -0.40718269 4293729569
-3.2732849 3.1322002 -0.38876724 4293729569
-3.1727905 3.1236362 -0.37038898 4293729569
10.13736 -2.4881382 -1.7978868 4288085770
9.0071411 -2.4305086 -1.7947016 4288085770
8.1689453 -2.4071302 -1.8077707 4288085770
7.3626709 -2.3786302 -1.8175077 4288085770
6.5621948 -2.3400793 -1.8230734 4288085770
5.7844238 -2.2954154 -1.8227015 4288085770
5.0084839 -2.2417126 -1.8183203 4288085770
4.2060242 -2.175014 -1.804162 4288085770
3.5422058 -2.1259761 -1.7999468 4288085770
2.956604 -2.0837317 -1.7993326 4288085770
2.3738708 -2.0354486 -1.7946405 4288085770
9.6849976 -3.5516496 -1.8012152 4288085770
1.8854675 -1.9989271 -1.795825 4288085770
8.5579224 -3.4160862 -1.8084936 4288085770
1.3868713 -1.9544005 -1.7925043 4288085770
7.6958313 -3.3258348 -1.8290987 4288085770
0.95446777 -1.9197078 -1.7932749 4288085770
6.7438354 -3.2057195 -1.8327608 4288085770
0.51791382 -1.8779912 -1.7892771 4288085770
5.8508911 -3.0884228 -1.8358793 4288085770
0.11541748 -1.8381834 -1.7868071 4288085770
4.9645386 -2.9620347 -1.8297701 4288085770
-0.20150757 -1.8151913 -1.7935534 4288085770
4.1441956 -2.8414407 -1.8227911 4288085770
-0.52056885 -1.7881913 -1.7984228 4288085770
3.4010315 -2.7316294 -1.8174314 4288085770
-0.7913208 -1.769084 -1.8081675 4288085770
2.7129211 -2.6276417 -1.810668 4288085770
-1.0450745 -1.7509274 -1.8181791 4288085770
2.1040344 -2.5354443 -1.8074274 4288085770
-1.333252 -1.7208085 -1.8197451 4288085770
1.5773926 -2.4570274 -1.8075647 4288085770
-1.5508728 -1.705555 -1.8311872 4288085770
1.0616455 -2.3755507 -1.8042574 4288085770
-1.7898254 -1.6823182 -1.8366003 4288085770
0.55578613 -2.292026 -1.7985392 4288085770
-2.0106201 -1.6610446 -1.8442221 4288085770
0.10610962 -2.2183442 -1.7943449 4288085770
-2.2356567 -1.6357541 -1.8480501 4288085770
-0.27423096 -2.1585093 -1.7970839 4288085770
-2.4162292 -1.6203933 -1.85991 4288085770
-0.56494141 -2.1194835 -1.8098364 4288085770
-2.6140747 -1.598042 -1.8665552 4288085770
-0.86889648 -2.0734553 -1.8172045 4288085770
-2.8130493 -1.5736728 -1.8702612 4288085770
-1.1568909 -2.0283837 -1.8248816 4288085770
-2.9766846 -1.5562468 -1.8804083 4288085770
-1.4682617 -1.9743104 -1.8236208 4288085770
-3.1526489 -1.5338097 -1.8841162 4288085770
-1.7110901 -1.9361181 -1.8333158 4288085770
-3.3042603 -1.5163512 -1.8947515 4288085770
-1.9449463 -1.8988886 -1.8416166 4288085770
-3.466156 -1.4938726 -1.8988562 4288085770
-2.1890564 -1.8546457 -1.8444052 4288085770
-3.631134 -1.469398 -1.9021101 4288085770
-2.4130249 -1.8153663 -1.850297 4288085770
-3.7779846 -1.447885 -1.9075651 4288085770
-2.600708 -1.7840128 -1.8605814 4288085770
-3.9259338 -1.4243603 -1.9110823 4288085770
-2.7885132 -1.7516456 -1.8688765 4288085770
-4.0546265 -1.4058113 -1.9187403 4288085770
-2.9673157 -1.7192478 -1.8767843 4288085770
-4.1986389 -1.3812656 -1.9210958 4288085770
-3.1390686 -1.6878333 -1.8853846 4288085770
-4.337616 -1.3557034 -1.9232416 4288085770
-3.3069458 -1.6553903 -1.8918257 4288085770
-4.4584351 -1.3351121 -1.9285765 4288085770
-3.4637756 -1.6249194 -1.8987761 4288085770
-3.6378784 -1.5864596 -1.9005232 4288085770
-3.7998657 -1.5509739 -1.9037313 4288085770
-3.9376831 -1.5214386 -1.9098635 4288085770
-4.0826416 -1.4889045 -1.9133215 4288085770
-4.2236633 -1.4553494 -1.915616 4288085770
-4.3546143 -1.4247761 -1.9194574 4288085770
-4.4592896 -1.4011617 -1.9281282 4288085770
-4.491333 0.68340015 -1.8867884 4288085770
-4.3733826 0.6957922 -1.8808355 4288085770
-4.2504578 0.70819759 -1.8746729 4288085770
-4.1073608 0.72163963 -1.8716593 4288085770
-3.964325 0.73509026 -1.8676443 4288085770
-3.8234253 0.74756432 -1.8597097 4288085770
-3.6654053 0.76106453 -1.8550577 4288085770
-3.497406 0.77459717 -1.8499727 4288085770
-4.4654846 0.75441074 -1.889266 4288085770
-3.3143005 0.78716278 -1.84624 4288085770
-4.3294067 0.76483727 -1.8855257 4288085770
-3.1384277 0.80074501 -1.8378191 4288085770
-4.2024841 0.77426529 -1.8781691 4288085770
-2.9606018 0.81334782 -1.8273077 4288085770
-4.055481 0.784729 -1.8739634 4288085770
-2.7404785 0.8280201 -1.8240061 4288085770
-3.9125671 0.7942009 -1.8669214 4288085770
-2.5144043 0.84172821 -1.8184423 4288085770
-3.74646 0.80471802 -1.8628988 4288085770
-2.3026733 0.85445023 -1.8054781 4288085770
-3.5784607 0.81425858 -1.8567858 4288085770
-2.0617981 0.86823082 -1.796277 4288085770
-3.3974304 0.82482624 -1.8521242 4288085770
-1.790741 0.88207817 -1.7897902 4288085770
-3.2305603 0.83339214 -1.8420515 4288085770
-1.5077209 0.89697361 -1.7817984 4288085770
-3.0002136 0.84505939 -1.8432951 4288085770
-1.2027893 0.91094971 -1.7718611 4288085770
-2.8336792 0.85167313 -1.8272104 4288085770
-0.84860229 0.92803192 -1.7668447 4288085770
-2.6277771 0.86035252 -1.8174677 4288085770
-0.53393555 0.94109535 -1.7494783 4288085770
-2.3766479 0.87012672 -1.8128061 4288085770
-0.10971069 0.95838547 -1.7444677 4288085770
-2.1498413 0.87788582 -1.801158 4288085770
0.40081787 0.97888851 -1.7447977 4288085770
-1.8818359 0.88772964 -1.7937708 4288085770
0.9744873 1.0015688 -1.7464476 4288085770
-1.5897522 0.8966465 -1.7863455 4288085770
1.5960999 1.0244017 -1.7470427 4288085770
-1.2948303 0.90459728 -1.7757921 4288085770
2.258606 1.0483885 -1.7428961 4288085770
-0.94570923 0.91467094 -1.7699347 4288085770
3.0705872 1.0757532 -1.7473936 4288085770
-0.62591553 0.92072582 -1.7552977 4288085770
3.9091492 1.1032763 -1.741744 4288085770
-0.2388916 0.9289484 -1.7448053 4288085770
4.850769 1.131115 -1.7346907 4288085770
0.24966431 0.94138908 -1.7450151 4288085770
6.0249023 1.1675711 -1.7367678 4288085770
0.82949829 0.95505619 -1.7503328 4288085770
7.4243469 1.2086821 -1.7402487 4288085770
1.4421692 0.96785736 -1.7512388 4288085770
9.0769348 1.2555485 -1.7429457 4288085770
2.0947571 0.97880459 -1.7484198 4288085770
2.8404846 0.99201202 -1.7476358 4288085770
3.6853027 1.0045176 -1.7466097 4288085770
4.6704102 1.020402 -1.7496157 4288085770
5.8166809 1.0357647 -1.7527227 4288085770
7.0326538 1.0494051 -1.7468309 4288085770
8.615448 1.0680227 -1.754302 4288085770
10.336945 1.0841475 -1.7498159 4288085770
-0.90924072 -4.1671724 -0.43936443 4293729569
-0.80761719 -4.1561513 -0.47314644 4293729569
-0.60864258 -4.1928673 -0.50939655 4293729569
-0.44485474 -4.2076678 -0.54332256 4293729569
-0.28109741 -4.2214665 -0.57725525 4293729569
-0.18048096 -4.2004495 -0.61115932 4293729569
0.02041626 -4.2241521 -0.64643002 4293729569
0.35791016 -4.2347217 -0.71400356 4293729569
0.54666138 -4.2454481 -0.74789333 4293729569
0.67419434 -4.2233372 -0.7796545 4293729569
0.96331787 -4.2717996 -0.81696415 4293729569
1.208374 -4.2953911 -0.85435581 4293729569
1.9511414 -4.3470945 -0.96034145 4293729569
2.7498474 -4.3836346 -1.0660601 4293729569
2.8864441 -4.3301044 -0.42304325 4293729569
3.0548706 -4.40204 -1.1019297 4293729569
3.2302551 -4.3687572 -1.1297312 4293729569
3.5392151 -4.371551 -0.46489143 4293729569
3.6959839 -4.4367743 -1.1753569 4293729569
3.82547 -4.370882 -0.48469734 4293729569
3.9796753 -4.4332113 -1.207305 4293729569
4.2118835 -4.401926 -0.50497437 4293729569
4.2854919 -4.4325905 -1.2402868 4293729569
4.590271 -4.4219909 -0.52468491 4293729569
4.7611389 -4.4875693 -1.2845926 4293729569
4.9886169 -4.4449878 -0.54351616 4293729569
5.0728455 -4.4779224 -1.3163919 4293729569
5.3659058 -4.4560399 -0.56134129 4293729569
5.5593872 -4.5218501 -1.3583174 4293729569
5.8373413 -4.4888163 -0.57897663 4293729569
6.033783 -4.5548019 -1.3988466 4293729569
6.291687 -4.5116405 -0.59641743 4293729569
6.4950867 -4.5767803 -1.4380178 4293729569
6.8070679 -4.5462747 -0.61215973 4293729569
7.2033997 -4.666153 -1.4911261 4293729569
7.3395081 -4.5778699 -0.62919998 4293729569
7.9176941 -4.7455077 -1.5440588 4293729569
7.8607788 -4.5984688 -0.64279842 4293729569
8.0109558 -4.6393127 -1.552928 4293729569
8.5012817 -4.6457367 -0.65809917 4293729569
8.3572998 -4.5995083 -1.5774813 4293729569
9.0394287 -4.6552653 -0.66906452 4293729569
8.6583862 -4.545795 -1.5970755 4293729569
9.7799683 -4.7112236 -0.68202496 4293729569
9.1793823 -4.5445504 -1.629878 4293729569
9.8639832 -4.5759006 -1.6714449 4293729569
9.3148499 1.6593189 -1.746089 4288085770
8.098053 1.6698084 -1.751008 4288085770
6.9208679 1.6724968 -1.7451696 4288085770
5.8124695 1.6714296 -1.7333632 4288085770
4.9537354 1.6799917 -1.7320108 4288085770
4.2323303 1.6928988 -1.7358503 4288085770
3.5316467 1.700922 -1.7327585 4288085770
2.9040527 1.709157 -1.7295561 4288085770
2.4259644 1.7267351 -1.7360735 4288085770
10.137665 2.5802078 -1.6734877 4288085770
1.9115601 1.7372742 -1.7350721 4288085770
9.0082397 2.5599041 -1.6834402 4288085770
1.459198 1.7509747 -1.7354517 4288085770
8.0822144 2.5551348 -1.6988611 4288085770
1.0509644 1.7638035 -1.7359476 4288085770
7.2893066 2.5567331 -1.7156668 4288085770
0.7260437 1.7848148 -1.7429686 4288085770
6.3786621 2.5351458 -1.714282 4288085770
0.34869385 1.7947588 -1.7401228 4288085770
5.5057068 2.5097208 -1.7062502 4288085770
-0.032958984 1.8017368 -1.731431 4288085770
4.8002014 2.4987068 -1.7062159 4288085770
-0.32611084 1.8158913 -1.7320356 4288085770
4.2310791 2.501029 -1.7124834 4288085770
-0.52572632 1.8422146 -1.7447653 4288085770
3.65271 2.4953794 -1.7120752 4288085770
-0.76068115 1.8625059 -1.7489462 4288085770
3.1555176 2.4969339 -1.7152719 4288085770
-0.97463989 1.8828573 -1.7532301 4288085770
2.6972656 2.499608 -1.716815 4288085770
-1.1896362 1.9012194 -1.7555437 4288085770
2.2640076 2.5023661 -1.7172956 4288085770
-1.353363 1.9266729 -1.7647333 4288085770
1.8617859 2.5062141 -1.7174654 4288085770
-1.4909363 1.9551849 -1.7758417 4288085770
1.4603882 2.5060968 -1.7135592 4288085770
-1.6921387 1.9706182 -1.774539 4288085770
1.1131287 2.5111122 -1.7123938 4288085770
-1.8389587 1.9941492 -1.7799921 4288085770
0.80999756 2.5212383 -1.7133913 4288085770
-1.9788208 2.0176964 -1.7861471 4288085770
0.52081299 2.5314045 -1.7137938 4288085770
-2.1096497 2.0432768 -1.7909365 4288085770
0.25363159 2.5426416 -1.7132692 4288085770
-2.2546692 2.06285 -1.7922754 4288085770
-0.014587402 2.5508947 -1.7107611 4288085770
-2.3825989 2.0854578 -1.7949171 4288085770
-0.19741821 2.5743103 -1.7177477 4288085770
-2.4833679 2.112113 -1.8014345 4288085770
-0.41549683 2.5886822 -1.7181597 4288085770
-2.584198 2.1387758 -1.8069544 4288085770
-0.56530762 2.6161871 -1.7257738 4288085770
-2.715332 2.1574154 -1.8046942 4288085770
-0.71109009 2.6427145 -1.7322073 4288085770
-2.7869873 2.1891298 -1.8140135 4288085770
-0.87405396 2.6642218 -1.7353277 4288085770
-2.8869629 2.2128277 -1.8154707 4288085770
-1.000824 2.6937981 -1.7419806 4288085770
-3.0071411 2.2305107 -1.8117323 4288085770
-2.032074 2.4870272 -1.5990896 4293729569
-3.0567627 2.2662783 -1.8221502 4288085770
-2.1902771 2.4986076 -1.594924 4293729569
-3.17099 2.2829895 -1.8171511 4288085770
-2.3869019 2.4991465 -1.5822935 4293729569
-3.2237244 2.3167725 -1.8246794 4288085770
-2.5019226 2.5188122 -1.5823584 4293729569
-3.2996521 2.3435392 -1.8261385 4288085770
-2.537384 2.5606003 -1.5952234 4293729569
-3.3504333 2.3763371 -1.8325758 4288085770
-2.6414795 2.5823021 -1.5948362 4293729569
-3.4143066 2.4051266 -1.8355379 4288085770
-2.614563 2.64219 -1.6171999 4293729569
-3.49646 2.4279137 -1.8322229 4288085770
-3.0462036 2.5614681 -1.5548735 4293729569
-3.568573 2.4527159 -1.8304968 4288085770
-3.2431641 2.5490799 -1.533145 4293729569
-3.6224976 2.4825468 -1.8320417 4288085770
-3.3947754 2.5477638 -1.5185823 4293729569
-3.6663818 2.5143909 -1.8351774 4288085770
-3.536377 2.5484695 -1.5046091 4293729569
-3.709259 2.5482388 -1.8382845 4288085770
-3.6447449 2.5592232 -1.4963083 4293729569
-3.7532349 2.5790997 -1.8394117 4288085770
-3.7652893 2.5629797 -1.4834642 4293729569
-3.8083496 2.6069574 -1.8369875 4288085770
-3.9059753 2.5597143 -1.4664183 4293729569
-3.8372192 2.6438398 -1.8405256 4288085770
-4.0306091 2.5594759 -1.4517126 4293729569
-3.8913269 2.6707096 -1.8370485 4288085770
-4.1522522 2.5592546 -1.4358816 4293729569
-3.9152222 2.7086086 -1.8403826 4288085770
-4.2608032 2.5610571 -1.4215117 4293729569
-3.9492188 2.7425108 -1.8401098 4288085770
-4.3754578 2.5598583 -1.4053717 4293729569
-3.9651184 2.7834253 -1.8441267 4288085770
-4.4740601 2.5636873 -1.3915949 4293729569
-3.9830017 2.8223524 -1.8462114 4288085770
-4.5756836 2.5635195 -1.3759108 4293729569
-4.3688965 2.7100248 -1.751647 4293729569
-4.5582886 4.0111094 -0.92171192 4293729569
-4.4881897 4.0764713 -0.90124607 4293729569
-4.4150391 4.1438351 -0.88166714 4293729569
-4.3068848 4.2332945 -0.86277866 4293729569
-4.2669678 4.2756205 -0.83640385 4293729569
9.8573303 -1.1129513 -1.794425 4288085770
8.6025085 -1.0985117 -1.7999125 4288085770
7.6053162 -1.0934267 -1.8143778 4288085770
6.5001526 -1.0664825 -1.8095942 4288085770
5.4718933 -1.0382862 -1.8005457 4288085770
4.5467224 -1.0098066 -1.7921152 4288085770
3.7719421 -0.98895264 -1.7892351 4288085770
3.1639404 -0.97874165 -1.7991858 4288085770
2.524353 -0.95852089 -1.7975512 4288085770
9.6235657 -1.7827606 -1.7999296 4288085770
1.9710388 -0.94410515 -1.8012037 4288085770
8.344635 -1.7064114 -1.8089495 4288085770
1.4104309 -0.92264271 -1.7972193 4288085770
7.2470398 -1.6415763 -1.8201685 4288085770
0.86169434 -0.89712048 -1.7897577 4288085770
6.1278076 -1.564683 -1.8173933 4288085770
0.30661011 -0.86655712 -1.7756014 4288085770
4.9968872 -1.4767013 -1.8001909 4288085770
-0.083496094 -0.85268307 -1.7793112 4288085770
4.1038818 -1.4111786 -1.7976999 4288085770
-0.44754028 -0.83874607 -1.7839117 4288085770
3.3501892 -1.3572917 -1.7981939 4288085770
-0.7492981 -0.83067799 -1.7938223 4288085770
2.673584 -1.3081965 -1.7993708 4288085770
-1.0239258 -0.82454872 -1.8055658 4288085770
2.0923157 -1.2668748 -1.8054361 4288085770
-1.2977295 -0.81439209 -1.8143034 4288085770
1.5288696 -1.2224646 -1.8067636 4288085770
-1.562561 -0.80419922 -1.8216562 4288085770
0.9197998 -1.1680794 -1.7961016 4288085770
-1.8123779 -0.79295826 -1.8283834 4288085770
0.37390137 -1.1185312 -1.7867155 4288085770
-2.0381165 -0.78367615 -1.8380671 4288085770
-0.070587158 -1.0797625 -1.784934 4288085770
-2.2619324 -0.77236271 -1.8446875 4288085770
-0.47689819 -1.0439072 -1.7855082 4288085770
-2.4717407 -0.76201153 -1.8517027 4288085770
-0.77557373 -1.0228539 -1.7983961 4288085770
-2.6603394 -0.75263023 -1.8618116 4288085770
-1.0613098 -1.000742 -1.8087397 4288085770
-2.8410645 -0.74321461 -1.8705854 4288085770
-1.3421326 -0.97860718 -1.817874 4288085770
-3.0137634 -0.73377228 -1.8790159 4288085770
-1.6100159 -0.95442486 -1.8254728 4288085770
-3.2138367 -0.71834087 -1.8796549 4288085770
-1.8487244 -0.93518353 -1.8357935 4288085770
-3.3887329 -0.70487404 -1.8842077 4288085770
-2.0935974 -0.91192722 -1.8424044 4288085770
-3.5586548 -0.69038105 -1.8875589 4288085770
-2.2962646 -0.89458847 -1.853179 4288085770
-3.7205505 -0.67686462 -1.8905592 4288085770
-2.5050354 -0.87424278 -1.8612318 4288085770
-3.8562927 -0.66631413 -1.898427 4288085770
-2.730072 -0.84889889 -1.8640146 4288085770
-4.0021362 -0.65376472 -1.9027395 4288085770
-2.8986816 -0.83247089 -1.8753328 4288085770
-4.1461182 -0.63918972 -1.9049864 4288085770
-3.1088562 -0.80705643 -1.8744802 4288085770
-4.2830505 -0.62459469 -1.9069319 4288085770
-3.2766113 -0.78858948 -1.8817739 4288085770
-4.4068298 -0.61198997 -1.9123087 4288085770
-3.4617004 -0.76511574 -1.8828421 4288085770
-3.6164551 -0.74660873 -1.8895826 4288085770
-3.7693481 -0.72708035 -1.8942499 4288085770
-3.9212646 -0.70653915 -1.8978853 4288085770
-4.0662231 -0.68596935 -1.9002218 4288085770
-4.1980591 -0.66738129 -1.9049864 4288085770
-4.3340454 -0.64778137 -1.9069319 4288085770
-4.4528503 -0.62916183 -1.9121447 4288085770
-4.5125122 1.2642002 -1.882678 4288085770
-4.4006653 1.2785692 -1.8750391 4288085770
-4.2675476 1.2959499 -1.872529 4288085770
-4.1446533 1.3103428 -1.8654222 4288085770
-4.01474 1.3257504 -1.859025 4288085770
-3.8778381 1.3411865 -1.8513327 4288085770
-3.7198181 1.3586464 -1.8477602 4288085770
-3.5689087 1.3741198 -1.8404722 4288085770
-4.468689 1.2683048 -1.8788729 4288085770
-3.4049072 1.3906155 -1.8346395 4288085770
-4.3355713 1.2806883 -1.8763208 4288085770
-3.2248535 1.408145 -1.8301306 4288085770
-4.21875 1.2900791 -1.8674288 4288085770
-3.0338135 1.4257078 -1.8251562 4288085770
-4.0746765 1.3024969 -1.8644094 4288085770
-2.8449097 1.4432898 -1.8172712 4288085770
-3.9397278 1.3119183 -1.8577509 4288085770
-2.6338501 1.4619045 -1.8124552 4288085770
-3.778595 1.324379 -1.8550081 4288085770
-2.4320679 1.4775448 -1.802001 4288085770
-3.6438904 1.3328438 -1.8433447 4288085770
-2.2142029 1.4942255 -1.7918768 4288085770
-3.462677 1.3453512 -1.8417482 4288085770
-1.9742432 1.512949 -1.7838297 4288085770
-3.3017883 1.3548632 -1.8329859 4288085770
-1.690094 1.5347605 -1.779933 4288085770
-3.1076965 1.3664169 -1.829833 4288085770
-1.4241943 1.5535727 -1.7697859 4288085770
-2.9095764 1.3779936 -1.8255091 4288085770
-1.1292725 1.5734596 -1.7604113 4288085770
-2.719696 1.3865891 -1.8165064 4288085770
-0.78811646 1.5974388 -1.7551107 4288085770
-2.5016174 1.3982267 -1.8113356 4288085770
-0.46936035 1.6154242 -1.741704 4288085770
-2.2695923 1.4089155 -1.8045607 4288085770
-0.1164856 1.6364908 -1.7298746 4288085770
-2.0678406 1.4145813 -1.7910242 4288085770
0.37719727 1.6718092 -1.7341967 4288085770
-1.772522 1.4293833 -1.7915983 4288085770
0.94192505 1.7113142 -1.7395315 4288085770
-1.5427856 1.4351254 -1.7778749 4288085770
1.4803162 1.7448244 -1.7359324 4288085770
-1.2506714 1.4449787 -1.7715406 4288085770
2.111908 1.7845459 -1.7374239 4288085770
-0.98492432 1.4508257 -1.757287 4288085770
2.7854309 1.8244247 -1.7341356 4288085770
-0.60952759 1.4648609 -1.7564516 4288085770
3.6033325 1.8746347 -1.7387991 4288085770
-0.30981445 1.468812 -1.740737 4288085770
4.4449463 1.9219694 -1.7364283 4288085770
-0.0051574707 1.4717951 -1.7228022 4288085770
5.333374 1.9674911 -1.727046 4288085770
0.57302856 1.4982605 -1.7374659 4288085770
6.5899658 2.0428352 -1.7402849 4288085770
1.0996704 1.5156803 -1.7402353 4288085770
7.8970337 2.1124325 -1.7403173 4288085770
1.6843872 1.5332651 -1.7425394 4288085770
9.276886 2.1802959 -1.7322397 4288085770
2.2849121 1.5489349 -1.7401514 4288085770
2.9394531 1.5637617 -1.7364588 4288085770
3.7213135 1.5828829 -1.7393942 4288085770
4.5792542 1.6032257 -1.7411089 4288085770
5.5020447 1.6197872 -1.7380323 4288085770
6.699585 1.6479902 -1.7483873 4288085770
8.0321655 1.6755896 -1.7559958 4288085770
9.4022827 1.694397 -1.7509241 4288085770
-3.2207642 -4.100925 -0.50803757 4293729569
-3.2260437 -4.090271 -0.54638863 4293729569
-3.0881653 -4.1059337 -0.78061962 4293729569
-3.0583496 -4.1061888 -0.81938839 4293729569
-3.0396118 -4.0964713 -0.85771084 4293729569
-2.9481201 -4.1010733 -0.4884367 4293729569
-2.9675293 -4.1216469 -0.9004755 4293729569
-2.8973389 -4.1072659 -0.52626324 4293729569
-2.941803 -4.1138983 -0.93748379 4293729569
-2.8174744 -4.1313753 -0.56370258 4293729569
-2.7958374 -4.1136303 -0.599967 4293729569
1.5747681 -7.058188 -1.4593019 4293729569
-2.736084 -4.1207857 -0.63640308 4293729569
-2.7871704 -4.1285172 -1.0569029 4293729569
-2.6873474 -4.1179757 -0.67339039 4293729569
-2.7625427 -4.1117654 -1.0930338 4293729569
-2.693573 -4.120935 -1.1340628 4293729569
-2.5417786 -4.1362214 -0.74712086 4293729569
-0.30718994 -5.6242156 -1.4513178 4293729569
-2.4619751 -4.1473336 -0.78467464 4293729569
-0.58874512 -5.3930387 -1.4582319 4293729569
-2.4505615 -4.1135778 -0.81650257 4293729569
-2.4888611 -4.1374264 -1.2543402 4293729569
-2.4078979 -4.1455588 -1.2948713 4293729569
-2.2548218 -4.1477065 -0.89197063 4293729569
-1.1820679 -4.8649426 -1.4919176 4293729569
-2.1821289 -4.1448131 -0.92693996 4293729569
-2.0372314 -4.2865105 -1.4050398 4293729569
-2.1933594 -4.1419954 -1.4118967 4293729569
-1.9905701 -4.1629267 -0.99971867 4293729569
-1.9964905 -4.2129483 -1.467988 4293729569
-1.9240112 -4.1510372 -1.0330191 4293729569
-1.8126526 -4.2709265 -1.5227404 4293729569
-1.8554993 -4.138133 -1.0652475 4293729569
-1.9195862 -4.1553016 -1.5322676 4293729569
-1.7899475 -4.1222382 -1.0976305 4293729569
-1.9983215 -4.0556231 -1.5444632 4293729569
-1.58255 -4.1860652 -1.1423235 4293729569
-2.0508728 -3.9718971 -1.5594168 4293729569
-1.4949646 -4.1771178 -1.1757078 4293729569
-1.9419556 -3.9789443 -1.5987673 4293729569
1.0742188 -5.5457125 -1.4702978 4293729569
-1.8400879 -3.9800062 -1.6374655 4293729569
-1.2453918 -4.1960645 -1.2470121 4293729569
-1.7180786 -3.9900289 -1.678237 4293729569
0.57473755 -5.1190763 -1.4711142 4293729569
-1.6021729 -3.9930553 -1.7173223 4293729569
-0.22018433 -4.61866 -1.4050436 4293729569
-1.4842834 -3.997077 -1.7563181 4293729569
0.17956543 -4.7581573 -1.4719458 4293729569
-1.3563538 -4.0020747 -1.7958784 4293729569
-0.46447754 -4.3494272 -1.4167013 4293729569
-1.2122498 -4.0150485 -1.8376875 4288085770
-0.57766724 -4.2217789 -1.4215918 4293729569
-1.1288147 -3.9920902 -1.8683634 4288085770
-0.45611572 -4.2127194 -1.4525347 4293729569
-1.1828613 -3.8982759 -1.8724546 4288085770
-0.29336548 -4.2225857 -1.4875669 4293729569
-1.262207 -3.7904801 -1.8707342 4288085770
-0.37243652 -4.1118402 -1.4918661 4293729569
-1.338562 -3.687675 -1.8688402 4288085770
-0.35281372 -4.0489264 -1.5075769 4293729569
-1.3825989 -3.5998201 -1.8714571 4288085770
-0.20428467 -4.0467844 -1.5373125 4293729569
-1.4338684 -3.5089545 -1.8704004 4288085770
-0.032592773 -4.0526056 -1.5700006 4293729569
-1.4821167 -3.4200797 -1.8692007 4288085770
0.16122437 -4.0663834 -1.6046839 4293729569
-1.5324097 -3.3321924 -1.8660765 4288085770
0.35897827 -4.0771422 -1.6382227 4293729569
-1.5686035 -3.2492886 -1.8653135 4288085770
0.57684326 -4.0948629 -1.6738501 4293729569
-1.586731 -3.1763458 -1.8656988 4288085770
0.77954102 -4.1025972 -1.7062044 4293729569
-1.624054 -3.094419 -1.8619738 4288085770
0.98522949 -4.1073146 -1.7374544 4293729569
-1.6462402 -3.0194635 -1.8595457 4288085770
1.2200928 -4.121984 -1.7723856 4293729569
-1.6543884 -2.9514813 -1.8584681 4288085770
1.4710083 -4.1396136 -1.8076105 4288085770
-1.6413269 -2.8924761 -1.861413 4288085770
1.7147827 -4.1512384 -1.8401861 4288085770
-1.6535339 -2.8234792 -1.8575106 4288085770
1.8707886 -4.123991 -1.859807 4288085770
-1.6294861 -2.7694416 -1.8599482 4288085770
1.921936 -4.053895 -1.8642302 4288085770
-1.6226196 -2.7064123 -1.8581877 4288085770
1.8440552 -3.9340024 -1.8515368 4288085770
-1.6046448 -2.648366 -1.8579168 4288085770
1.8437195 -3.8439617 -1.8463087 4288085770
-1.5928345 -2.5883136 -1.8549185 4288085770
1.8009644 -3.7379766 -1.8340101 4288085770
-1.5810547 -2.5282435 -1.8499212 4288085770
1.8408203 -3.6638556 -1.8319387 4288085770
-1.5612183 -2.4721751 -1.8475504 4288085770
1.8866272 -3.5917172 -1.8295984 4288085770
-1.5202637 -2.4210577 -1.846242 4288085770
1.9555969 -3.5255241 -1.828229 4288085770
-1.4863892 -2.3679457 -1.8432493 4288085770
2.0486145 -3.4682732 -1.8277617 4288085770
-1.4404297 -2.3198228 -1.8427038 4288085770
2.1536865 -3.4120035 -1.8287725 4288085770
-1.3945312 -2.2696729 -1.8391771 4288085770
2.2606812 -3.3567104 -1.8276949 4288085770
-1.332489 -2.2245083 -1.8389235 4288085770
2.3545532 -3.2964315 -1.8242121 4288085770
-1.2785645 -2.1783419 -1.8360205 4288085770
2.4967041 -3.2500548 -1.8245668 4288085770
-1.1934509 -2.1391244 -1.8367376 4288085770
2.6538696 -3.2066422 -1.8252554 4288085770
-1.1255493 -2.0949154 -1.8332243 4288085770
2.8169861 -3.1632018 -1.8246927 4288085770
-1.048584 -2.0526967 -1.8313112 4288085770
2.9951477 -3.1207242 -1.8244848 4288085770
-0.97067261 -2.0094571 -1.827363 4288085770
3.2305603 -3.0921288 -1.8287287 4288085770
-0.90292358 -1.9622235 -1.820878 4288085770
3.4206543 -3.0495982 -1.8260107 4288085770
-0.80490112 -1.9229484 -1.8190451 4288085770
3.6679382 -3.0189495 -1.8277655 4288085770
-0.7230835 -1.8796797 -1.812932 4288085770
3.8951111 -2.9823208 -1.8254251 4288085770
-0.62420654 -1.8393774 -1.8080683 4288085770
4.2106628 -2.9635148 -1.8301802 4288085770
-0.50616455 -1.8020396 -1.8053675 4288085770
4.4687195 -2.9267826 -1.8255262 4288085770
-0.36404419 -1.7696543 -1.8046045 4288085770
4.8142395 -2.9078851 -1.829011 4288085770
-0.24719238 -1.7302961 -1.7989683 4288085770
5.1827087 -2.8899078 -1.8305101 4288085770
-0.095153809 -1.6968627 -1.7957907 4288085770
5.5691528 -2.8708768 -1.831254 4288085770
0.059906006 -1.6624212 -1.7924948 4288085770
5.9987183 -2.8567371 -1.833127 4288085770
0.26022339 -1.636909 -1.7952032 4288085770
6.4250183 -2.8375649 -1.8301764 4288085770
0.47753906 -1.6123438 -1.7971811 4288085770
6.8884888 -2.8213058 -1.8286238 4288085770
0.71295166 -1.5887408 -1.8003836 4288085770
7.37677 -2.8029523 -1.8240309 4288085770
0.97442627 -1.5670748 -1.8044653 4288085770
7.9010925 -2.7854891 -1.8178988 4288085770
1.2579346 -1.5463495 -1.8086004 4288085770
8.4181519 -2.7610059 -1.8071299 4288085770
1.5402832 -1.5226035 -1.8098097 4288085770
8.9892883 -2.7393742 -1.7960405 4288085770
1.8356323 -1.4978161 -1.8104734 4288085770
9.7842102 -2.7502413 -1.7971792 4288085770
2.1237793 -1.4690094 -1.8064718 4288085770
2.466217 -1.4451041 -1.8081312 4288085770
2.8084106 -1.4181566 -1.8048201 4288085770
3.1928101 -1.3941236 -1.8046923 4288085770
3.5931396 -1.3680234 -1.8019056 4288085770
4.0505371 -1.3437824 -1.8006811 4288085770
4.5600891 -1.3224163 -1.8012152 4288085770
5.1740417 -1.3098245 -1.8082476 4288085770
5.9042358 -1.3009534 -1.819314 4288085770
6.6151123 -1.2850633 -1.8222513 4288085770
7.3537903 -1.262064 -1.8210649 4288085770
8.1312256 -1.2349119 -1.8142614 4288085770
8.9124756 -1.2007055 -1.802352 4288085770
9.989563 -1.1828146 -1.8037462 4288085770
9.7629395 2.8792896 -1.6906309 4288085770
9.2332153 2.9387112 -1.709672 4288085770
8.3911133 2.9495487 -1.7005396 4288085770
7.7215271 2.9757767 -1.6992178 4288085770
