# .PCD v0.7 - Point Cloud Data file format
VERSION 0.7
FIELDS x y z rgb
SIZE 4 4 4 4
TYPE F F F U
COUNT 1 1 1 1
WIDTH 1133
HEIGHT 1
VIEWPOINT 0 0 0 1 0 0 0
POINTS 1133
DATA ascii
9.1876602 -1.7196597 -1.8812438 4282675967
19.403149 -3.7001522 -1.7604263 4293729569
7.3766956 -1.3754365 -1.8627807 4288085770
10.001429 -1.8886296 -1.7310792 4293729569
14.280312 -2.7242596 -1.7559336 4293729569
14.930236 -2.8615854 -1.7178162 4293729569
9.7494383 -1.8885102 -1.7444181 4293729569
13.475294 -2.634233 -1.7345201 4293729569
9.0196486 -1.7456261 -1.881614 4282675967
10.182323 -1.982994 -1.670356 4293729569
19.413116 -3.8431249 -1.7662021 4293729569
7.2476797 -1.3984317 -1.8590822 4288085770
14.562209 -2.8925712 -1.7084829 4293729569
9.4524412 -1.8754376 -1.7477463 4293729569
8.8066244 -1.7616446 -1.8709898 4288085770
10.05531 -2.0299566 -1.6727871 4293729569
7.1306667 -1.4224178 -1.8573729 4288085770
10.65605 -2.1740196 -1.4987711 4293729569
9.2254543 -1.8743228 -1.7610465 4293729569
10.641757 -2.176219 -1.2797989 4293729569
8.5685902 -1.7697079 -1.8513552 4288085770
10.453088 -2.1798053 -1.531077 4293729569
8.9384527 -1.8572682 -1.7613392 4293729569
7.0466614 -1.4523715 -1.8626523 4288085770
9.9332962 -2.0759258 -1.6742057 4293729569
10.512334 -2.212872 -0.97417104 4293729569
10.57288 -2.2367263 -0.6382159 4293729569
10.488746 -2.219171 -1.2832427 4293729569
10.632208 -2.2654638 -0.14128667 4293729569
10.341136 -2.203541 -1.5753599 4293729569
8.6834564 -1.8441979 -1.7656108 4293729569
10.518661 -2.2615817 -0.48042372 4293729569
10.554307 -2.2730315 -0.21743473 4293729569
8.3115482 -1.7708007 -1.8257074 4288085770
6.9596539 -1.4813358 -1.8659301 4288085770
9.8522892 -2.1298692 -1.6816133 4293729569
10.446307 -2.2738945 -0.96759719 4293729569
10.163177 -2.2103255 -1.6086378 4293729569
10.489891 -2.2925925 -0.65963686 4293729569
8.4344568 -1.8291395 -1.7678634 4293729569
10.429743 -2.2820909 -1.2956702 4293729569
10.525224 -2.3153093 -0.16570674 4293729569
10.509252 -2.3351679 -0.1908384 4293729569
8.0575056 -1.7698994 -1.7990447 4288085770
10.475636 -2.329592 -0.47685754 4293729569
10.017219 -2.223094 -1.6459057 4293729569
6.8646421 -1.5073148 -1.8662024 4288085770
8.1864567 -1.811092 -1.7680981 4293729569
9.7472744 -2.1768465 -1.6820146 4293729569
10.423283 -2.3459029 -0.9650262 4293729569
10.450904 -2.3574498 -0.68404824 4293729569
10.412745 -2.353991 -1.3130907 4293729569
10.489241 -2.3791616 -0.19110851 4293729569
9.8082504 -2.2189059 -1.6731647 4293729569
7.9624581 -1.7960325 -1.7713171 4288085770
10.499199 -2.4053104 -0.16423915 4293729569
7.8484721 -1.7759677 -1.7793601 4288085770
10.464609 -2.404608 -0.47328687 4293729569
6.7846336 -1.5362855 -1.8684709 4288085770
9.5952797 -2.2097445 -1.6954014 4293729569
9.6542606 -2.2268155 -1.6844163 4293729569
7.7614646 -1.7839609 -1.7775216 4288085770
10.463923 -2.4342897 -0.7134558 4293729569
10.451259 -2.4299102 -0.96445268 4293729569
10.497257 -2.4550059 -0.21951723 4293729569
10.415749 -2.4298947 -1.3305063 4293729569
10.527141 -2.4834599 -0.13763285 4293729569
9.3462982 -2.1906147 -1.7106318 4293729569
7.6484375 -1.7820375 -1.7596632 4293729569
7.6094823 -1.7808433 -1.7937096 4288085770
10.550584 -2.5036254 -0.47271809 4293729569
6.6966214 -1.5632656 -1.868739 4288085770
9.5752478 -2.2787809 -1.6878101 4293729569
10.518944 -2.5221148 -0.74686736 4293729569
9.0893126 -2.1665056 -1.721845 4293729569
10.504274 -2.5288496 -0.24791624 4293729569
10.516763 -2.531745 -1.3609334 4293729569
7.4674993 -1.7797273 -1.8098954 4288085770
7.5284228 -1.8060284 -1.7569579 4293729569
8.856329 -2.1453955 -1.7340428 4293729569
6.6216121 -1.5912373 -1.8709953 4282675967
7.3365207 -1.7786026 -1.8280662 4288085770
9.5082359 -2.3337433 -1.692204 4293729569
8.6073408 -2.1193042 -1.7422343 4293729569
13.2331 -3.2982492 -1.7235126 4293729569
7.2125401 -1.7774792 -1.8462278 4288085770
7.4184084 -1.8310157 -1.7552445 4293729569
6.5546045 -1.6212047 -1.8742517 4282675967
8.3583488 -2.0892296 -1.7474041 4293729569
7.0865612 -1.7743553 -1.8643808 4288085770
9.4752293 -2.3966839 -1.7015965 4293729569
8.1183529 -2.0591674 -1.7505617 4293729569
13.097083 -3.3612161 -1.7250433 4293729569
7.325397 -1.8589951 -1.7555248 4293729569
6.9695802 -1.7722385 -1.8815273 4282675967
6.4825935 -1.6491823 -1.8755039 4282675967
7.8923616 -2.0291021 -1.7547004 4293729569
9.426218 -2.453644 -1.7069775 4293729569
6.8165879 -1.7591701 -1.8886616 4282675967
7.6313591 -1.9890801 -1.7498313 4293729569
12.984066 -3.4281814 -1.7275652 4293729569
7.2323837 -1.8859799 -1.7547997 4293729569
6.6305842 -1.7361505 -1.8857855 4282675967
6.4235854 -1.6801511 -1.878755 4282675967
7.4223638 -1.9590293 -1.7519472 4293729569
9.3552017 -2.5046272 -1.7073549 4293729569
6.463583 -1.7151238 -1.8848947 4282675967
7.2093654 -1.9269942 -1.7510574 4293729569
12.856047 -3.4891608 -1.7270739 4293729569
7.0853548 -1.8980315 -1.7400645 4293729569
6.3505707 -1.707145 -1.8770031 4282675967
6.3015804 -1.694103 -1.8829973 4282675967
7.0073671 -1.8959556 -1.7511585 4293729569
9.3371935 -2.5695767 -1.7157378 4293729569
6.1445794 -1.6730781 -1.882093 4282675967
6.8593817 -1.8778664 -1.7622584 4293729569
12.752027 -3.5561383 -1.7275834 4288085770
7.0003419 -1.9250176 -1.7393286 4293729569
5.9975801 -1.6530491 -1.8821808 4282675967
6.6813865 -1.849821 -1.7643437 4293729569
6.2895598 -1.7371243 -1.8782514 4282675967
6.5153909 -1.8227781 -1.7664183 4293729569
9.3001814 -2.6305442 -1.7201246 4293729569
5.8345709 -1.6270614 -1.8742571 4288085770
6.9263296 -1.9550003 -1.7395942 4293729569
12.651006 -3.6241226 -1.7270945 4288085770
6.3523946 -1.7957411 -1.7674891 4293729569
5.6875672 -1.605049 -1.8713338 4288085770
6.2215462 -1.7631135 -1.8774872 4282675967
6.2444134 -1.7836376 -1.7825682 4288085770
5.5595675 -1.5860236 -1.8714017 4288085770
9.2151585 -2.6755526 -1.7154877 4293729569
6.8663201 -1.9869688 -1.7428522 4293729569
6.1614394 -1.7775054 -1.8036467 4288085770
12.587989 -3.702091 -1.7306093 4288085770
5.4225636 -1.5630188 -1.8674597 4288085770
6.1075144 -1.7751819 -1.8607078 4288085770
6.1014719 -1.7773504 -1.8297274 4288085770
5.3075652 -1.5459906 -1.8685207 4288085770
6.0495067 -1.7781858 -1.8578027 4288085770
9.1611404 -2.7305443 -1.7148641 4293729569
6.8153133 -2.0229285 -1.74812 4293729569
5.1885643 -1.5259725 -1.867571 4288085770
12.520967 -3.7790701 -1.7321243 4288085770
5.9645286 -1.7680757 -1.8748618 4282675967
5.9614697 -1.7763046 -1.832911 4288085770
5.8385358 -1.7450293 -1.8789048 4282675967
5.6905313 -1.7130338 -1.8729277 4288085770
9.1331253 -2.7915192 -1.7182385 4293729569
6.7452989 -2.0509226 -1.7463694 4293729569
12.474949 -3.8600478 -1.7346328 4288085770
5.5585313 -1.6860191 -1.8709568 4288085770
5.8194265 -1.7764225 -1.8061031 4288085770
5.4285302 -1.6580104 -1.8679774 4288085770
5.3205361 -1.6349732 -1.8709961 4288085770
9.0440969 -2.833554 -1.7085904 4293729569
6.6652808 -2.0759315 -1.7416155 4293729569
5.2005334 -1.6089717 -1.8670144 4288085770
12.425927 -3.94103 -1.7361453 4288085770
5.6913853 -1.779532 -1.781293 4288085770
8.9890747 -2.8855622 -1.7049514 4293729569
6.6202712 -2.1109028 -1.7448696 4293729569
5.5953546 -1.7915981 -1.7654893 4293729569
8.9510536 -2.9425621 -1.7033173 4293729569
6.5682583 -2.1428893 -1.7451166 4293729569
5.5383382 -1.8146052 -1.7616937 4293729569
6.4942384 -2.1669044 -1.7393492 4293729569
8.9880476 -3.0244997 -1.7157198 4293729569
5.4823203 -1.8376182 -1.7568967 4293729569
6.4302216 -2.1939108 -1.7355849 4293729569
8.9820309 -3.092484 -1.7181031 4293729569
5.4223003 -1.8586413 -1.7500941 4293729569
6.3742051 -2.222913 -1.7328207 4293729569
8.9920168 -3.1664546 -1.7234977 4293729569
5.3522744 -1.8756846 -1.739283 4293729569
6.3281898 -2.2539113 -1.7310542 4293729569
8.9909973 -3.2374451 -1.7248906 4293729569
5.2922525 -1.8957131 -1.7314748 4293729569
6.2951784 -2.2898903 -1.7332976 4293729569
9.0029802 -3.3114214 -1.7292825 4293729569
5.2032199 -1.9027967 -1.7126341 4293729569
6.2501616 -2.3208945 -1.7305295 4293729569
9.0249634 -3.3913999 -1.7336938 4293729569
5.1542001 -1.9248164 -1.7068222 4293729569
6.2031455 -2.350898 -1.7277588 4293729569
9.040946 -3.4683883 -1.7360969 4293729569
5.0981779 -1.9438509 -1.6980031 4293729569
6.1591272 -2.3809078 -1.7239839 4293729569
9.0629253 -3.5493722 -1.7395136 4288085770
5.0221462 -1.9529259 -1.6811558 4293729569
6.1231122 -2.4139085 -1.7222148 4293729569
9.085906 -3.630362 -1.7419292 4288085770
4.9721246 -1.9709618 -1.6723231 4293729569
6.1061006 -2.4528904 -1.724453 4293729569
9.1268883 -3.7193382 -1.7473643 4288085770
4.9801245 -2.0128989 -1.6835444 4293729569
6.0810866 -2.4888818 -1.7246853 4293729569
9.144865 -3.7983437 -1.7467754 4288085770
9.3708448 -3.9133787 -1.7481048 4288085770
4.9421043 -2.0369205 -1.6777285 4293729569
6.070076 -2.5308597 -1.727932 4293729569
9.1768427 -3.8843458 -1.747206 4288085770
9.119854 -3.8623025 -1.7531614 4288085770
4.8700724 -2.0430017 -1.6598593 4293729569
6.0390577 -2.5628719 -1.7241505 4293729569
8.8378572 -3.7942691 -1.7491661 4288085770
9.2188225 -3.9743333 -1.7506452 4288085770
4.8010402 -2.0510831 -1.6419972 4293729569
8.57586 -3.7302291 -1.7471662 4288085770
6.0040383 -2.5938888 -1.7193689 4293729569
8.3518677 -3.6801679 -1.7501922 4288085770
4.7500148 -2.0651355 -1.6301436 4293729569
5.9990263 -2.636873 -1.7216128 4293729569
8.1228733 -3.6241231 -1.7501916 4288085770
4.6699791 -2.0652368 -1.6082523 4293729569
5.9940157 -2.679852 -1.7248569 4293729569
7.8928766 -3.5650885 -1.7481762 4288085770
4.643961 -2.0902555 -1.6034257 4293729569
7.6718798 -3.5060558 -1.7461486 4288085770
5.9880028 -2.7228415 -1.726102 4293729569
7.4728847 -3.4550161 -1.7461355 4293729569
4.5929337 -2.1013188 -1.5895557 4293729569
5.9849896 -2.764832 -1.7273376 4293729569
7.2808895 -3.4049783 -1.7461184 4293729569
4.5848813 -2.1314776 -1.5597327 4293729569
4.5419054 -2.1133816 -1.5756913 4293729569
5.9419637 -2.7888806 -1.7165282 4293729569
7.0828891 -3.3489604 -1.7420766 4293729569
4.5268955 -2.1154108 -1.5697227 4293729569
4.5019217 -2.1142898 -1.5907507 4293729569
4.4759469 -2.1121743 -1.6107745 4293729569
6.9068952 -3.3009195 -1.7430491 4293729569
4.513886 -2.1334109 -1.5688397 4293729569
5.9509525 -2.8368618 -1.7197807 4293729569
4.4229598 -2.0961139 -1.6197578 4293729569
4.3829789 -2.0850284 -1.6337509 4293729569
6.7308974 -3.2498956 -1.7410053 4293729569
4.3509989 -2.0779393 -1.6487553 4293729569
4.3040123 -2.0618804 -1.6577305 4293729569
4.5198793 -2.1703861 -1.5730358 4293729569
5.9529395 -2.8808532 -1.7210206 4293729569
4.2400174 -2.0368569 -1.6596791 4293729569
6.5639005 -3.2018676 -1.7399658 4293729569
8.0297775 -3.9370744 -1.7540401 4288085770
5.9809322 -2.9388111 -1.7293025 4293729569
4.4558454 -2.1724799 -1.553134 4293729569
7.8137875 -3.8650324 -1.7539343 4288085770
6.4099045 -3.1578362 -1.7399309 4293729569
7.6027966 -3.7909961 -1.7528106 4288085770
6.2579074 -3.1118112 -1.7388822 4293729569
5.9969206 -2.9897945 -1.7325617 4293729569
4.4248219 -2.1905248 -1.5432754 4293729569
7.3888011 -3.7139764 -1.7486749 4288085770
6.1099105 -3.0667865 -1.7378337 4293729569
7.212811 -3.6539304 -1.7505811 4288085770
4.5474992 -2.2837765 -1.3186204 4293729569
4.5295067 -2.277745 -1.3236116 4293729569
4.4008017 -2.2105603 -1.5354184 4293729569
4.6452804 -2.3486366 -1.1648433 4293729569
4.4825239 -2.274652 -1.3386582 4293729569
4.5332847 -2.3076134 -1.1647687 4293729569
4.4744658 -2.2768795 -1.2966809 4293729569
4.380784 -2.231586 -1.5295614 4293729569
4.4445434 -2.274544 -1.3567094 4293729569
4.479301 -2.2965302 -1.1777807 4293729569
4.4334397 -2.2869446 -1.2827919 4293729569
4.4493232 -2.2964189 -1.1968211 4293729569
4.4185667 -2.2794278 -1.3767719 4293729569
4.3677649 -2.2566123 -1.5237173 4293729569
4.4213457 -2.2963078 -1.2158586 4293729569
4.3905883 -2.2833107 -1.3968315 4293729569
4.4897742 -2.3496184 -0.79605353 4293729569
4.3974152 -2.2970059 -1.2698958 4293729569
4.4063725 -2.3031774 -1.2389171 4293729569
4.520452 -2.3709321 -0.55712575 4293729569
4.3507466 -2.2786386 -1.5178617 4293729569
4.3676119 -2.2891891 -1.4178954 4293729569
4.3883977 -2.3070574 -1.2599634 4293729569
4.5062823 -2.3836005 -0.4342128 4293729569
4.3496366 -2.2970631 -1.4399636 4293729569
4.3724217 -2.3119378 -1.2810123 4293729569
4.374393 -2.315053 -1.2600265 4293729569
4.4437447 -2.356699 -0.77915472 4293729569
4.4524245 -2.3660085 -0.5401904 4293729569
4.5149889 -2.4037831 -0.2183089 4293729569
4.3087187 -2.2867146 -1.5019629 4293729569
4.3624492 -2.3178086 -1.3040587 4293729569
4.32866 -2.3029423 -1.4610248 4293729569
4.4432969 -2.3785086 -0.44827023 4293729569
4.3524766 -2.3246796 -1.3271104 4293729569
4.3623738 -2.3370857 -1.2531642 4293729569
4.2986803 -2.3028357 -1.4790652 4293729569
4.4187188 -2.3747616 -0.76628804 4293729569
4.4350085 -2.3876767 -0.23432857 4293729569
4.343503 -2.3305507 -1.3501554 4293729569
4.4163976 -2.3780746 -0.5263055 4293729569
4.2926998 -2.3077464 -1.4951006 4293729569
4.3295279 -2.332437 -1.370185 4293729569
4.2857065 -2.3107059 -1.5021265 4293729569
4.4143114 -2.3904121 -0.46437544 4293729569
4.3205543 -2.3373141 -1.3922243 4293729569
4.3433533 -2.355128 -1.2442893 4293729569
4.4000249 -2.3955741 -0.25141978 4293729569
4.2707324 -2.316581 -1.5241797 4293729569
4.3095798 -2.3401961 -1.4132556 4293729569
4.3946929 -2.3928246 -0.75342 4293729569
4.3933735 -2.3961322 -0.51443613 4293729569
4.2846813 -2.3327744 -1.4892495 4293729569
4.2956052 -2.3400829 -1.4332741 4293729569
4.2397509 -2.3134863 -1.5402048 4293729569
4.3883262 -2.4043105 -0.48148751 4293729569
4.2896323 -2.3439605 -1.455304 4293729569
4.0059156 -2.1858613 -1.6458192 4293729569
4.2786574 -2.3438482 -1.4753186 4293729569
4.3343339 -2.3771667 -1.2364231 4293729569
4.3780408 -2.4084735 -0.26852095 4293729569
4.0389066 -2.2098835 -1.6429069 4293729569
4.2696815 -2.3437419 -1.4943304 4293729569
4.2137723 -2.312381 -1.5582341 4293729569
4.0578899 -2.2249355 -1.6339643 4293729569
4.3816681 -2.4158788 -0.74256462 4293729569
4.2557058 -2.3406403 -1.5123324 4293729569
4.370347 -2.4131954 -0.50156122 4293729569
4.0798755 -2.2419827 -1.6260282 4293729569
4.2457299 -2.3385339 -1.5313346 4293729569
4.279665 -2.3587916 -1.4853997 4293729569
4.1058617 -2.2600257 -1.6190923 4293729569
4.2287512 -2.3314481 -1.5463189 4293729569
4.1947956 -2.313272 -1.577265 4293729569
4.1188407 -2.2701044 -1.6051303 4293729569
4.2037687 -2.3193779 -1.5582863 4293729569
4.1308208 -2.278183 -1.5911584 4293729569
4.3663421 -2.4192047 -0.49959973 4293729569
4.1498027 -2.2892523 -1.5791936 4293729569
4.1847897 -2.3092976 -1.5722567 4293729569
4.365057 -2.4263697 -0.28663754 4293729569
4.3273144 -2.4012005 -1.229565 4293729569
4.1438074 -2.2962172 -1.5852401 4293729569
4.3696423 -2.4389386 -0.73070788 4293729569
4.3563223 -2.4352548 -0.48970169 4293729569
4.1258302 -2.2971087 -1.6042697 4293729569
4.2796493 -2.3868108 -1.4815543 4293729569
4.3543577 -2.4381011 -0.51772046 4293729569
4.348073 -2.4422646 -0.30474848 4293729569
4.1028504 -2.2930157 -1.6202786 4293729569
4.3212957 -2.4242346 -1.2227001 4293729569
4.0738668 -2.2859378 -1.6332791 4293729569
4.3566165 -2.4619982 -0.71885252 4293729569
4.3412952 -2.4563196 -0.47683802 4293729569
4.2916379 -2.4218097 -1.4817311 4293729569
4.0418835 -2.2758651 -1.645267 4293729569
4.3473744 -2.4609923 -0.53685653 4293729569
4.3410902 -2.4621565 -0.32386798 4293729569
4.0068979 -2.2628031 -1.6552426 4293729569
4.3272791 -2.4532599 -1.217852 4293729569
4.3495903 -2.4860592 -0.70699453 4293729569
4.3533916 -2.4898753 -0.55800796 4293729569
4.3372693 -2.4823806 -0.46498695 4293729569
4.3026247 -2.4558144 -1.4809036 4293729569
4.334106 -2.4820533 -0.34198743 4293729569
4.3382645 -2.4842756 -1.215008 4293729569
4.3514094 -2.5137622 -0.5781427 4293729569
4.3311243 -2.5039406 -0.36211249 4293729569
4.3525672 -2.5161109 -0.69715595 4293729569
4.3146119 -2.4898183 -1.480075 4293729569
4.3342433 -2.5084429 -0.45313454 4293729569
4.3602509 -2.5222878 -1.2131879 4293729569
4.3351407 -2.5278347 -0.38123906 4293729569
4.3504272 -2.5376496 -0.59827602 4293729569
4.5636778 -2.6644354 -1.5587019 4293729569
4.3685422 -2.5541599 -0.68834394 4293729569
4.4262471 -2.5862429 -1.2234513 4293729569
4.3482189 -2.5444968 -0.44331422 4293729569
4.3461595 -2.5567195 -0.40238374 4293729569
4.3764467 -2.5775204 -0.62246096 4293729569
6.4036989 -3.806771 -1.7465113 4288085770
5.0828285 -3.0056219 -1.7258825 4293729569
4.3721929 -2.5865531 -0.43351346 4293729569
4.412179 -2.6185868 -0.42863584 4293729569
6.4566836 -3.8717737 -1.7477975 4288085770
5.1138186 -3.0546083 -1.7291104 4293729569
6.5216699 -3.9447668 -1.7511114 4288085770
5.1368046 -3.0966156 -1.7283107 4293729569
5.171793 -3.1466088 -1.7305387 4293729569
5.2017803 -3.1926117 -1.7307514 4293729569
5.2347674 -3.2396159 -1.7309656 4293729569
5.2777572 -3.2916055 -1.7341938 4293729569
5.3107429 -3.3376203 -1.7324024 4293729569
5.3477292 -3.3846312 -1.7316111 4293729569
5.4057198 -3.444618 -1.735863 4293729569
5.4437046 -3.4906344 -1.7340649 4293729569
5.5056958 -3.5516226 -1.7383169 4293729569
5.5626845 -3.6086211 -1.7405536 4293729569
5.6166706 -3.6626348 -1.7397778 4293729569
5.6966624 -3.7326159 -1.746055 4293729569
5.7596502 -3.7906213 -1.7472891 4288085770
5.8316383 -3.8536224 -1.7495385 4288085770
5.8976235 -3.9106455 -1.7477632 4288085770
5.9716115 -3.9726529 -1.7490045 4288085770
10.139501 7.1550179 -1.6558707 4288085770
10.309528 7.2738719 -1.6400484 4288085770
9.9774714 7.0381608 -1.6716735 4288085770
10.483556 7.3927236 -1.6242216 4288085770
9.7944288 6.9042706 -1.6795901 4288085770
10.726609 7.557591 -1.6160728 4288085770
9.555357 6.7283506 -1.6777927 4288085770
11.01268 7.7494674 -1.6127323 4288085770
9.2512503 6.5063772 -1.6613125 4288085770
11.327756 7.9583311 -1.6092689 4288085770
8.9581451 6.2883997 -1.6447988 4288085770
8.792099 6.1584783 -1.647675 4288085770
8.6390543 6.0355606 -1.6524994 4288085770
8.5020132 5.9216371 -1.657258 4288085770
8.3679733 5.8097119 -1.6620027 4288085770
8.2479372 5.7047825 -1.6666944 4288085770
9.3446932 6.4470015 -1.2135137 4293729569
8.1268988 5.5978518 -1.6713978 4288085770
9.3277187 6.4161768 -1.2456964 4293729569
9.2854662 6.3861256 -1.0419005 4293729569
9.222703 6.323319 -1.2653074 4293729569
8.0378723 5.510931 -1.6799591 4288085770
9.2874069 6.3579116 -1.001047 4293729569
9.203723 6.2864885 -1.2965243 4293729569
7.9448447 5.4210062 -1.6875409 4288085770
9.2713375 6.3156996 -0.959288 4293729569
9.1587286 6.2306342 -1.3208714 4293729569
7.8678207 5.3400798 -1.6960566 4288085770
9.2792788 6.2884889 -0.91942227 4293729569
9.1257401 6.1807947 -1.3491729 4293729569
7.7887936 5.2561498 -1.7035909 4288085770
9.4252672 6.3512907 -0.89192355 4293729569
9.1147566 6.1429472 -1.3773861 4293729569
9.2168226 6.1791487 -1.423079 4293729569
9.2821512 6.2180662 -0.83879036 4293729569
7.709764 5.1712089 -1.7091303 4288085770
9.3398952 6.2273569 -1.4716847 4293729569
9.2300682 6.1448541 -0.79423618 4293729569
7.6417403 5.0922794 -1.7176255 4288085770
9.5069866 6.3005857 -1.527108 4293729569
9.2840204 6.1396461 -0.75820184 4293729569
7.5677104 5.0093322 -1.7221487 4288085770
9.7481108 6.4188528 -1.5952088 4293729569
9.3569784 6.1444411 -0.7240929 4293729569
7.4996815 4.9293876 -1.7276491 4288085770
9.7731361 6.3920169 -1.6283227 4288085770
9.4539433 6.1622319 -0.69088787 4293729569
7.4166436 4.8384233 -1.7282249 4288085770
9.682107 6.2881174 -1.6409761 4288085770
9.5529089 6.1790223 -0.65768582 4293729569
7.3416076 4.7524605 -1.7297653 4288085770
9.5450573 6.1541953 -1.6458406 4288085770
4.8680639 3.1467772 -1.8040764 4288085770
4.8120522 3.11081 -1.8063303 4288085770
4.9290791 3.1847525 -1.8038061 4288085770
4.7510328 3.0698187 -1.8036166 4288085770
4.9960933 3.2247264 -1.8035184 4288085770
4.6950159 3.0308363 -1.8028868 4288085770
9.7018871 6.2258077 -0.6272682 4293729569
5.0561028 3.2596872 -1.800265 4288085770
4.6630154 3.006891 -1.8110501 4288085770
5.1231155 3.2986555 -1.7989826 4288085770
7.2505617 4.6554775 -1.7263819 4288085770
4.6059952 2.9658933 -1.8073317 4288085770
5.2051349 3.3446336 -1.8006462 4288085770
9.4130049 6.0222607 -1.6486887 4288085770
4.5649834 2.9339206 -1.8095475 4288085770
5.2761455 3.382596 -1.7983644 4288085770
4.5359783 2.9079592 -1.8147181 4288085770
5.3581595 3.4255583 -1.7970439 4288085770
9.8158503 6.2465868 -0.59302795 4293729569
4.4869585 2.8699639 -1.8119752 4288085770
7.1725216 4.5665007 -1.7249417 4288085770
5.4431748 3.4695253 -1.7967147 4288085770
9.2999601 5.9033289 -1.6534466 4288085770
4.4409385 2.8309677 -1.8092339 4288085770
5.5291886 3.5124869 -1.7953895 4288085770
4.4129295 2.8029957 -1.8124141 4288085770
9.9458199 6.2743649 -0.55973244 4293729569
5.6262069 3.5604544 -1.7960254 4288085770
7.1094856 4.4855285 -1.7254419 4288085770
9.2029209 5.7924004 -1.660144 4288085770
4.3578992 2.7569716 -1.8037201 4288085770
5.7182188 3.6044083 -1.7936883 4288085770
4.3398948 2.7340114 -1.8098625 4288085770
10.070785 6.2961397 -0.52547425 4293729569
5.803225 3.6423445 -1.7873907 4288085770
7.037447 4.3995547 -1.7249788 4288085770
5.9262333 3.709228 -1.7738968 4288085770
6.0012455 3.755172 -1.7685682 4288085770
5.8662281 3.671294 -1.782166 4288085770
9.1048784 5.6804633 -1.6648476 4288085770
6.0712523 3.7971077 -1.7612666 4288085770
5.8042197 3.6303504 -1.7884533 4288085770
4.3078785 2.7010207 -1.8090737 4288085770
6.1602683 3.8480568 -1.7578957 4288085770
5.7382059 3.5863929 -1.7917609 4288085770
5.8952317 3.6822827 -1.7820747 4288085770
5.6571822 3.5324144 -1.7901387 4288085770
6.2512827 3.8989997 -1.7535226 4288085770
10.15375 6.3019619 -0.4973484 4293729569
6.3432961 3.9499371 -1.7481482 4288085770
5.5971689 3.4884603 -1.7944398 4288085770
10.153735 6.2899156 -0.48841199 4293729569
4.2748604 2.6660252 -1.8072965 4288085770
6.4383087 4.0008745 -1.7427706 4288085770
5.5511608 3.4525106 -1.8006825 4288085770
5.9822345 3.7172132 -1.7747911 4288085770
6.558332 4.0648265 -1.7422955 4288085770
5.469131 3.3945124 -1.7950827 4288085770
9.0228424 5.5785298 -1.6714804 4288085770
6.9724083 4.3165731 -1.723492 4288085770
6.667346 4.1207581 -1.7368755 4288085770
5.4081101 3.3465376 -1.7954061 4288085770
6.0712361 3.7531374 -1.7664995 4288085770
4.2458434 2.633033 -1.8065044 4288085770
10.18778 6.2671552 -0.53649426 4293729569
6.7703562 4.170681 -1.7294941 4288085770
5.3530927 3.3025603 -1.7957015 4288085770
10.664807 6.5426254 -0.46949273 4293729569
6.1822462 3.7990732 -1.7621301 4288085770
6.8983755 4.2356153 -1.7260047 4288085770
4.2188263 2.6010351 -1.8047047 4288085770
5.3040757 3.2615864 -1.7969742 4288085770
8.9448061 5.4775949 -1.6781033 4288085770
6.928381 4.2476091 -1.7269071 4288085770
7.0303936 4.2995429 -1.7215163 4288085770
10.055755 6.1283617 -0.56637913 4293729569
5.2570596 3.2196114 -1.7982501 4288085770
6.2962561 3.8450089 -1.7577575 4288085770
4.2008147 2.5740547 -1.8068682 4288085770
10.662728 6.4774094 -0.42783919 4293729569
7.1894226 4.3784852 -1.7219176 4288085770
5.2090402 3.1766324 -1.7985321 4288085770
8.8867769 5.3886628 -1.6866398 4288085770
6.8833489 4.1756353 -1.7283394 4288085770
6.4142685 3.8929479 -1.7543694 4288085770
7.3374443 4.4484119 -1.718379 4288085770
4.1868043 2.5480781 -1.8100219 4288085770
5.1740279 3.1406629 -1.8017626 4288085770
9.9007225 5.976562 -0.59335893 4293729569
7.5374885 4.54737 -1.7246277 4288085770
10.573627 6.3572178 -0.38457561 4293729569
6.5392795 3.941879 -1.7499684 4288085770
5.1290069 3.0966773 -1.8010466 4288085770
4.1607833 2.5140696 -1.8062319 4288085770
8.8247452 5.2967262 -1.6941969 4288085770
7.6975079 4.6202817 -1.7190597 4288085770
6.8693333 4.1236854 -1.7366304 4288085770
9.7596931 5.8327522 -0.61928064 4293729569
5.0959921 3.0597026 -1.8032801 4288085770
6.6602845 3.9857957 -1.7425982 4288085770
7.9015455 4.716217 -1.7213199 4288085770
10.494526 6.2440214 -0.34126362 4293729569
4.1457701 2.4860833 -1.8073972 4288085770
5.0589738 3.0207193 -1.8035285 4288085770
8.768714 5.2077832 -1.7007313 4288085770
6.8012996 4.0407314 -1.740147 4288085770
8.1025782 4.8071384 -1.7206099 4288085770
6.8283024 4.0547104 -1.7380424 4288085770
9.6256647 5.6949391 -0.64516258 4293729569
4.1387606 2.4621041 -1.8105326 4288085770
5.0179505 2.9767215 -1.8008084 4288085770
10.615483 6.2477927 -0.30610511 4293729569
8.298605 4.8930459 -1.7169321 4288085770
6.950316 4.0976634 -1.737676 4288085770
8.7056751 5.1148314 -1.7052948 4288085770
4.9799285 2.9347284 -1.7990739 4288085770
6.7992773 3.9927404 -1.7414035 4288085770
9.5396471 5.5851073 -0.67084181 4293729569
4.1207414 2.4311032 -1.8087174 4288085770
8.5066319 4.982944 -1.7122194 4288085770
7.089324 4.1465788 -1.731259 4288085770
10.703427 6.2285619 -0.2681058 4293729569
4.960917 2.9037535 -1.8022598 4288085770
8.7066507 5.0648284 -1.7045581 4288085770
8.659647 5.0318842 -1.711786 4288085770
4.1077251 2.4021058 -1.8078859 4288085770
9.4536295 5.475276 -0.69652104 4293729569
6.7842579 3.9377811 -1.7477114 4288085770
7.2353325 4.1974912 -1.7248234 4288085770
4.9338994 2.8667665 -1.8024865 4288085770
10.746363 6.1963334 -0.22722653 4293729569
8.9316807 5.1597199 -1.6997998 4288085770
10.75236 6.1863465 -0.23027252 4293729569
4.0997124 2.376122 -1.8100328 4288085770
8.6066122 4.9449296 -1.7163066 4288085770
7.4013476 4.2564111 -1.7213225 4288085770
4.9078794 2.828774 -1.8017174 4288085770
9.1737118 5.2596092 -1.6959953 4288085770
9.3926201 5.3794389 -0.7230978 4293729569
6.7552295 3.8738062 -1.7500832 4288085770
10.805386 6.1595058 -0.26435429 4293729569
4.0946984 2.3501327 -1.8111767 4288085770
10.850307 6.1691232 -0.19425116 4293729569
7.5823665 4.3213301 -1.7187729 4288085770
9.4177399 5.3574815 -1.6891992 4288085770
4.8878632 2.7947898 -1.8029203 4288085770
8.5425692 4.8499589 -1.7168819 4288085770
9.3406086 5.2885928 -0.74863786 4293729569
6.7402062 3.8178365 -1.7543967 4288085770
9.6647644 5.4543438 -1.6804049 4288085770
10.69837 6.0267248 -0.29817882 4293729569
7.7853937 4.3962626 -1.720145 4288085770
4.0866818 2.3221333 -1.8103342 4288085770
4.8678436 2.758795 -1.8021337 4288085770
10.937249 6.1428981 -0.15728988 4293729569
8.4905338 4.7619977 -1.7204065 4288085770
9.3126049 5.2107491 -0.7760818 4293729569
9.9007797 5.5401888 -1.6676816 4288085770
7.990416 4.4691777 -1.7185255 4288085770
4.8528295 2.7258139 -1.8043258 4288085770
4.0836692 2.2971478 -1.8124703 4288085770
6.7612014 3.7808993 -1.7675685 4288085770
10.616356 5.9089279 -0.3308956 4293729569
11.031192 6.1186752 -0.12131001 4293729569
9.465517 5.2517109 -1.5447018 4293729569
8.4074831 4.6570077 -1.7160565 4288085770
4.8308072 2.6888099 -1.8015469 4288085770
8.1734257 4.5260706 -1.7110158 4288085770
9.293601 5.1378956 -0.8024891 4293729569
4.0806541 2.271152 -1.8126117 4288085770
6.7081571 3.7038875 -1.7610365 4288085770
10.548346 5.7981205 -0.36255947 4293729569
9.1663189 5.0423203 -1.4481491 4293729569
11.100127 6.0784574 -0.084443204 4293729569
4.8247948 2.6588309 -1.8047128 4288085770
8.4124575 4.6119924 -1.7132889 4288085770
8.3474388 4.5650244 -1.7146114 4288085770
9.3146105 5.0850472 -0.83274496 4293729569
4.0806417 2.2461658 -1.8147445 4288085770
9.1812429 5.0030708 -1.4013388 4293729569
10.515341 5.7073045 -0.39507762 4293729569
6.7071385 3.6539223 -1.767302 4288085770
4.8147779 2.6268425 -1.8058937 4288085770
8.6634893 4.6999059 -1.7145375 4288085770
11.224075 6.0662231 -0.048365615 4293729569
9.1981716 4.9658265 -1.3555157 4293729569
4.0946355 2.2271948 -1.8208294 4288085770
9.3666277 5.0491867 -0.86287564 4293729569
8.3154068 4.4880567 -1.718055 4288085770
4.7977557 2.5908363 -1.8031037 4288085770
10.469332 5.6084771 -0.4246529 4293729569
8.9175196 4.7858167 -1.7157933 4288085770
6.70612 3.6039529 -1.7725679 4288085770
9.2321053 4.9355907 -1.3126364 4293729569
11.33602 6.0459933 -0.01234397 4293729569
4.0896158 2.1991897 -1.8189837 4288085770
9.4066401 5.0053306 -0.89306217 4293729569
8.2553616 4.3960681 -1.7156099 4288085770
4.7977438 2.5628552 -1.8062522 4288085770
9.1895533 4.8787208 -1.7169915 4288085770
10.418322 5.5076475 -0.45324451 4293729569
9.2730398 4.9063516 -1.2697434 4293729569
6.7111034 3.5569909 -1.7798109 4288085770
4.0966048 2.1762061 -1.8220978 4288085770
9.4826612 4.978476 -0.92611778 4293729569
9.4735851 4.9716148 -1.7171758 4288085770
8.2293291 4.3220921 -1.718031 4288085770
4.7987299 2.5338738 -1.8094049 4288085770
9.2889652 4.8651071 -1.2239426 4293729569
10.386312 5.4168105 -0.4817616 4293729569
6.7070804 3.505012 -1.7830906 4288085770
4.0955858 2.1481993 -1.8202475 4288085770
9.742609 5.0544944 -1.7134303 4288085770
4.7927117 2.5028739 -1.8085761 4288085770
9.3188953 4.8288722 -1.1810994 4293729569
9.4586515 4.8986044 -0.94856775 4293729569
8.2143002 4.2541232 -1.7224077 4288085770
10.336298 5.3149695 -0.50835741 4293729569
6.707058 3.4540365 -1.7873605 4288085770
4.106575 2.126214 -1.8233519 4288085770
9.8485622 5.0492768 -1.6793363 4288085770
9.3668308 4.8006368 -1.1391932 4293729569
4.7866921 2.4698746 -1.8077577 4288085770
9.4466429 4.8237324 -0.97197759 4293729569
8.1842661 4.1771436 -1.7238492 4288085770
10.3553 5.2501116 -0.53667879 4293729569
9.4187679 4.7734046 -1.0982772 4293729569
9.6313896 4.8789115 -1.5934838 4293729569
4.1115589 2.1012161 -1.8234789 4288085770
4.7906771 2.4408865 -1.8099071 4288085770
6.7400508 3.4190843 -1.7985082 4288085770
9.5146589 4.7898655 -1.0020791 4293729569
8.1792402 4.1141706 -1.7281879 4288085770
9.5037155 4.7601795 -1.0612496 4293729569
10.305283 5.1492605 -0.56126934 4293729569
9.5952864 4.8006306 -1.536938 4293729569
4.7866564 2.407881 -1.8080866 4288085770
4.1265478 2.0802295 -1.8265734 4288085770
6.6990075 3.3480628 -1.7909306 4288085770
9.5866766 4.7560019 -1.0331763 4293729569
9.5736542 4.7379456 -1.0212865 4293729569
8.1812162 4.0541992 -1.7335029 4288085770
9.6402178 4.7623973 -1.4950881 4293729569
10.253265 5.0474048 -0.58486748 4293729569
4.7916398 2.3788877 -1.8092346 4288085770
4.1355319 2.0552349 -1.8276958 4288085770
6.6959791 3.2940681 -1.7912199 4288085770
9.6595984 4.7217202 -0.98427337 4293729569
9.6776962 4.7301311 -1.0642093 4293729569
9.8442059 4.8002229 -1.4766545 4293729569
8.1791897 3.9902241 -1.7378436 4288085770
4.8006258 2.3518982 -1.8113675 4288085770
10.174238 4.9335456 -0.60555977 4293729569
4.1455164 2.0312345 -1.8278118 4288085770
9.7505445 4.7074885 -0.94624406 4293729569
6.6929526 3.2400782 -1.792509 4288085770
9.859745 4.7442813 -1.105927 4293729569
9.9171419 4.7709937 -1.4377249 4293729569
4.8036065 2.3218951 -1.8105233 4288085770
8.2061739 3.9402635 -1.7470771 4288085770
4.1474938 2.0022166 -1.8239636 4288085770
10.17223 4.8556747 -0.62997383 4293729569
9.8825006 4.70926 -0.91208321 4293729569
10.070108 4.7787886 -1.4095083 4293729569
6.6909237 3.1870775 -1.7917919 4288085770
10.00578 4.7394195 -1.1427861 4293729569
4.8125896 2.2938952 -1.8106613 4288085770
8.2301569 3.8882997 -1.7553245 4288085770
4.161479 1.9792205 -1.8250698 4288085770
10.026457 4.7140284 -0.87789285 4293729569
10.248239 4.8127942 -0.65811384 4293729569
10.140043 4.7445602 -1.3706086 4293729569
6.6838923 3.1310742 -1.7900962 4288085770
10.139811 4.7265568 -1.1787012 4293729569
4.8265748 2.2669039 -1.8127887 4288085770
10.217426 4.7387977 -0.84754282 4293729569
8.2381296 3.8293157 -1.7586274 4288085770
4.1854706 1.9592408 -1.8301487 4288085770
10.433274 4.8209014 -0.69185966 4293729569
10.33902 4.768363 -1.3472546 4293729569
4.8285513 2.233891 -1.8099613 4288085770
6.6978707 3.085088 -1.7933235 4288085770
10.374871 4.7567177 -1.2262734 4293729569
10.392388 4.7535629 -0.81526405 4293729569
8.2841187 3.7863531 -1.768802 4288085770
4.1994543 1.9352392 -1.83026 4288085770
10.555292 4.7960081 -0.72085184 4293729569
10.428958 4.7391362 -1.3103056 4293729569
4.8485384 2.2088976 -1.8120712 4288085770
10.527339 4.7483239 -0.7791366 4293729569
10.503898 4.7368464 -1.2602309 4293729569
6.6988425 3.0330868 -1.7925978 4288085770
8.2940922 3.7263687 -1.7721078 4288085770
4.2194386 1.9122407 -1.8313594 4288085770
10.572915 4.7339196 -1.2791678 4293729569
10.636301 4.7531204 -0.74798596 4293729569
10.670288 4.7420759 -0.74200529 4293729569
4.8605199 2.180896 -1.8122059 4288085770
10.697941 4.741992 -1.3019822 4293729569
6.6978106 2.9800754 -1.7898792 4288085770
10.701867 4.7187037 -1.2470996 4293729569
4.2384238 1.8892424 -1.83246 4288085770
8.3070641 3.6673777 -1.7744049 4288085770
10.814331 4.7492194 -0.77980304 4293729569
10.772226 4.7168345 -0.70302111 4293729569
4.8835063 2.1559014 -1.8143123 4288085770
10.891986 4.7451367 -1.3437436 4293729569
6.7127857 2.9330788 -1.7911109 4288085770
10.869825 4.7184877 -1.217908 4293729569
4.2574086 1.8662441 -1.8335605 4288085770
8.3410444 3.6183991 -1.780625 4288085770
10.968354 4.7323232 -0.81071615 4293729569
10.68112 4.6066132 -0.65370697 4293729569
4.9004874 2.1278985 -1.8144414 4288085770
11.12904 4.7632856 -1.3893768 4293729569
3.755348 1.6306108 -1.8663815 4282675967
11.046786 4.7192678 -1.1887007 4293729569
6.7267599 2.8860772 -1.7913437 4288085770
3.7092776 1.6043693 -1.8165723 4288085770
4.2823944 1.8442488 -1.8356488 4288085770
10.79306 4.5833731 -0.61570084 4293729569
8.3840256 3.5714169 -1.7868242 4288085770
11.154382 4.726419 -0.84253442 4293729569
3.7852943 1.6283816 -1.8243587 4288085770
4.9254732 2.1029029 -1.8165455 4288085770
3.8442974 1.645354 -1.8232017 4288085770
11.226748 4.7190528 -1.1604948 4293729569
11.404103 4.7934442 -1.4399028 4293729569
3.7142627 1.5843654 -1.815673 4288085770
3.6692555 1.5653834 -1.8158247 4288085770
3.7652731 1.6053554 -1.8175036 4288085770
3.8162835 1.6263453 -1.8193344 4288085770
3.9213119 1.6693555 -1.8289869 4288085770
3.7013025 1.5775641 -1.8527243 4282675967
3.8772984 1.6503472 -1.8241378 4288085770
3.9333076 1.6723301 -1.8249574 4288085770
6.7697468 2.8501003 -1.7984848 4288085770
3.9943194 1.6953216 -1.8277662 4288085770
11.448122 4.7830653 -0.604895 4293729569
4.2963738 1.8182316 -1.8327708 4288085770
4.0623331 1.7203156 -1.8315562 4288085770
3.9933209 1.6903434 -1.8317938 4288085770
4.1223407 1.7422918 -1.8313715 4288085770
8.4160023 3.5184286 -1.7910677 4288085770
11.354414 4.724515 -0.87531561 4293729569
4.1833467 1.7632626 -1.830191 4288085770
4.9424539 2.0748949 -1.8156745 4288085770
4.0673299 1.7113308 -1.8345983 4288085770
4.2483544 1.7852372 -1.8300004 4288085770
11.42271 4.7208362 -1.1332604 4293729569
4.3183632 1.8082149 -1.830799 4288085770
11.612146 4.7905884 -1.4826797 4293729569
4.1473417 1.7343209 -1.8383856 4288085770
4.3743601 1.8251565 -1.8236452 4288085770
11.66608 4.7957978 -0.56957716 4293729569
6.7537045 2.7900641 -1.7898206 4288085770
4.4523702 1.8501365 -1.825424 4288085770
4.3333664 1.8012524 -1.8388188 4288085770
4.2193446 1.7522881 -1.8372084 4288085770
8.4609842 3.4714456 -1.7972646 4288085770
4.5203738 1.8710942 -1.8222356 4288085770
11.539438 4.7106109 -0.90717721 4293729569
4.9584317 2.0458765 -1.8128101 4288085770
4.6043839 1.8970718 -1.8240023 4288085770
4.2993512 1.7732626 -1.8380061 4288085770
11.598664 4.7126064 -1.1021013 4293729569
4.6853909 1.9210351 -1.8227828 4288085770
11.696146 4.7346888 -1.5078789 4293729569
11.896039 4.8095255 -0.53424025 4293729569
4.3703518 1.79022 -1.8348353 4288085770
4.7653952 1.9439934 -1.82057 4288085770
6.7736797 2.7450597 -1.7900358 4288085770
4.3453417 1.7732258 -1.8339539 4288085770
4.4493532 1.8081794 -1.8326502 4288085770
8.4859524 3.4144397 -1.7975372 4288085770
4.8403935 1.9629334 -1.814384 4288085770
4.9824142 2.0188706 -1.8129258 4288085770
11.754468 4.7077003 -0.93994629 4293729569
11.780621 4.7033854 -1.0729408 4293729569
4.9283986 1.9868888 -1.8121568 4288085770
4.5213509 1.8231313 -1.8284888 4288085770
12.138998 4.8242488 -0.49888304 4293729569
12.254292 4.8659215 -1.5935467 4293729569
5.019403 2.0118427 -1.8099208 4288085770
4.59935 1.8400807 -1.8243099 4288085770
6.7946525 2.7000504 -1.7892499 4288085770
4.3823328 1.7542413 -1.8390125 4288085770
5.1164093 2.0368001 -1.8086779 4288085770
5.0103979 1.9938692 -1.8140265 4288085770
8.5159254 3.3594365 -1.7987936 4288085770
11.973497 4.7017879 -0.97272646 4293729569
11.97858 4.6981626 -1.0447407 4293729569
4.7023606 1.865062 -1.8280604 4288085770
5.2194161 2.0637548 -1.8074176 4288085770
12.389956 4.8389683 -0.46351671 4293729569
12.459327 4.8500566 -1.6343956 4293729569
5.3214192 2.0896997 -1.8041638 4288085770
4.7673488 1.8749801 -1.8169336 4288085770
4.4133191 1.7332436 -1.8410888 4288085770
6.8256307 2.6580527 -1.7914367 4288085770
5.0333776 1.9658533 -1.8121486 4288085770
5.4374313 2.1196649 -1.8058727 4288085770
8.5358934 3.3014216 -1.7970773 4288085770
12.177535 4.6889286 -1.0145606 4293729569
12.206527 4.6978703 -1.0054798 4293729569
4.8683553 1.8969467 -1.8177019 4288085770
12.643911 4.8496761 -0.42616796 4293729569
5.5574403 2.1496177 -1.805577 4288085770
12.466299 4.756125 -1.6478834 4293729569
4.9603553 1.9148959 -1.8145019 4288085770
5.6784472 2.1785657 -1.8042854 4288085770
4.4382992 1.7092274 -1.8391875 4288085770
6.8546052 2.6150398 -1.7906308 4288085770
5.0623589 1.9398404 -1.8112532 4288085770
12.369487 4.6736984 -0.98442006 4293729569
5.0583549 1.9338428 -1.8112895 4288085770
8.5648613 3.2464037 -1.7953346 4288085770
12.503573 4.7149577 -1.0440491 4293729569
12.888864 4.8533874 -0.38886642 4293729569
5.7814422 2.1994839 -1.796057 4288085770
5.1663589 1.9548014 -1.8110553 4288085770
12.639318 4.724236 -1.6818535 4293729569
5.9084492 2.2284241 -1.7937585 4288085770
4.4692845 1.6872245 -1.840269 4288085770
5.0993438 1.9168402 -1.8133329 4288085770
6.8915839 2.5740397 -1.7928054 4288085770
12.879511 4.7724643 -0.97731274 4293729569
5.2713599 1.9747454 -1.8078297 4288085770
6.0464578 2.2593701 -1.793437 4288085770
8.6048336 3.1943913 -1.7955635 4288085770
12.853626 4.7460394 -1.0854834 4293729569
6.1964679 2.2943115 -1.7930804 4288085770
5.4013715 2.0017159 -1.8115385 4288085770
13.009395 4.7614031 -1.741233 4288085770
4.5002675 1.6642164 -1.8403555 4288085770
5.1263237 1.8888233 -1.8114505 4288085770
12.843409 4.6672311 -0.92990875 4293729569
6.3554807 2.3302598 -1.7947085 4288085770
6.9365644 2.5370414 -1.7959496 4288085770
5.518374 2.0226657 -1.8102938 4288085770
8.6498079 3.1433821 -1.7967814 4288085770
13.082649 4.7291121 -1.1163099 4293729569
6.5124884 2.363193 -1.7933545 4288085770
5.6343727 2.0416 -1.8060609 4288085770
12.833307 4.5984049 -1.7282951 4288085770
4.5272479 1.6401994 -1.8384521 4288085770
5.1713109 1.8668247 -1.8145156 4288085770
6.6644917 2.3931129 -1.7890222 4288085770
6.9705381 2.4940264 -1.7951381 4288085770
5.7763834 2.0685661 -1.8097558 4288085770
8.6767712 3.0853491 -1.792057 4288085770
6.8625126 2.4380667 -1.7945577 4288085770
12.725239 4.4614148 -1.722142 4288085770
5.8923783 2.0844905 -1.8035388 4288085770
5.2092934 1.8428136 -1.8145994 4288085770
4.5612316 1.6181902 -1.8385298 4288085770
7.0395222 2.4739916 -1.7931651 4288085770
7.0055122 2.4510114 -1.7943254 4288085770
8.7167387 3.0323212 -1.7892911 4288085770
6.0453897 2.112452 -1.8072157 4288085770
7.2065229 2.5038948 -1.7868154 4288085770
12.679185 4.347436 -1.7227961 4288085770
5.2342687 1.8137815 -1.8097245 4288085770
6.1773872 2.1313744 -1.8019645 4288085770
4.6022172 1.5981883 -1.8405892 4288085770
7.4205384 2.5478263 -1.7893379 4288085770
7.0554905 2.4140005 -1.7954638 4288085770
8.7667103 2.9822993 -1.7884979 4288085770
19.892136 6.713635 -1.7230188 4288085770
6.319386 2.1513042 -1.7986963 4288085770
7.6315527 2.5887487 -1.7898796 4288085770
12.65414 4.2414603 -1.7253839 4288085770
5.2882571 1.7937849 -1.8137687 4288085770
4.6422029 1.5771816 -1.8416549 4288085770
7.8485622 2.6286576 -1.7884197 4288085770
6.4863963 2.1792548 -1.8013573 4288085770
7.1034689 2.3749902 -1.7966149 4288085770
8.8326855 2.9372821 -1.7896599 4288085770
19.624016 6.4726725 -1.7105972 4288085770
8.0915785 2.6745775 -1.7908982 4288085770
6.6483994 2.2021868 -1.8000503 4288085770
5.3502498 1.7757951 -1.819793 4288085770
12.683107 4.1534934 -1.7338147 4288085770
4.6681786 1.5511494 -1.8367629 4288085770
8.3395948 2.7204845 -1.791371 4288085770
7.1484437 2.334971 -1.7957749 4288085770
6.820405 2.2281196 -1.799716 4288085770
8.884654 2.8862491 -1.7868696 4288085770
19.471926 6.2727051 -1.705826 4288085770
5.3872299 1.7497737 -1.8178884 4288085770
8.5976076 2.7653823 -1.7908376 4288085770
12.67006 4.0525074 -1.7353623 4288085770
4.7091632 1.5301424 -1.8378274 4288085770
6.9984097 2.2520502 -1.7993853 4288085770
7.1974192 2.2959502 -1.7949249 4288085770
8.9616299 2.8432269 -1.7880083 4288085770
8.8386106 2.803261 -1.7853607 4288085770
19.463865 6.1207366 -1.7116361 4288085770
7.1784115 2.2749696 -1.7970575 4288085770
5.4392147 1.7277621 -1.8189455 4288085770
12.686022 3.9615247 -1.7398239 4288085770
4.7471442 1.5071208 -1.8359059 4288085770
9.148633 2.8591588 -1.7887094 4288085770
7.3594117 2.2968833 -1.7937341 4288085770
7.2563977 2.2589355 -1.7960528 4288085770
9.0556107 2.8032088 -1.7911117 4288085770
19.526817 5.9907603 -1.7212484 4288085770
9.4636526 2.9130495 -1.7910627 4288085770
5.5012035 1.707762 -1.8229804 4288085770
7.5844231 2.327821 -1.7983124 4288085770
4.7861252 1.4840993 -1.8339833 4288085770
12.722985 3.8745391 -1.7452401 4288085770
9.8006754 2.9699364 -1.7943751 4288085770
7.3263783 2.2249219 -1.7981522 4288085770
9.1675968 2.7691984 -1.7971625 4288085770
19.562757 5.8497787 -1.7279499 4288085770
7.7914286 2.35274 -1.7979429 4288085770
5.5571871 1.6847434 -1.823038 4288085770
4.8361115 1.4640933 -1.836032 4288085770
10.158699 3.0288146 -1.7976526 4288085770
12.793959 3.7975607 -1.7545644 4288085770
8.0184364 2.3806558 -1.7985346 4288085770
7.3893552 2.1869009 -1.7982807 4288085770
9.2455673 2.7231548 -1.7943159 4288085770
19.694719 5.7387848 -1.7393824 4288085770
10.56473 3.0976942 -1.8048222 4288085770
5.6231756 1.6647418 -1.8270682 4288085770
4.8790913 1.4410701 -1.8341048 4288085770
8.2394361 2.4035583 -1.7961597 4288085770
12.860928 3.7195733 -1.7618985 4288085770
10.948749 3.1565464 -1.8050698 4288085770
7.4553323 2.1498778 -1.7984005 4288085770
9.3485451 2.6821275 -1.7964139 4288085770
19.868692 5.637785 -1.752714 4288085770
5.6891623 1.6437296 -1.8291038 4288085770
8.4674368 2.4254582 -1.793782 4288085770
11.332762 3.2103772 -1.8013438 4288085770
4.9250727 1.4190453 -1.8321686 4288085770
12.961904 3.6495879 -1.7721514 4288085770
8.7284431 2.4533608 -1.7943344 4288085770
7.5263109 2.1138532 -1.7985092 4288085770
9.4505224 2.6420896 -1.7965078 4288085770
11.714767 3.2591887 -1.7936463 4288085770
5.7571483 1.6227162 -1.8311369 4288085770
4.9860616 1.4000459 -1.8361994 4288085770
8.9834461 2.4772551 -1.792915 4288085770
13.074883 3.5826025 -1.7833743 4288085770
12.164785 3.3210032 -1.7918019 4288085770
9.5534935 2.6000409 -1.7946112 4288085770
7.6072898 2.07883 -1.7996012 4288085770
5.8271341 1.6016972 -1.8321677 4288085770
9.2434464 2.4991362 -1.7895004 4288085770
5.0400467 1.380028 -1.8362434 4288085770
12.644805 3.3848107 -1.7909125 4288085770
13.206863 3.518615 -1.7955596 4288085770
5.9021201 1.5806813 -1.834193 4288085770
9.5374527 2.5260305 -1.79102 4288085770
9.6804743 2.5630038 -1.7966604 4288085770
7.6912694 2.0448048 -1.8006842 4288085770
13.17283 3.4576092 -1.7919203 4288085770
5.0940294 1.359005 -1.8352928 4288085770
13.33984 3.4526165 -1.8057544 4288085770
9.8444595 2.5539141 -1.7915194 4288085770
13.789869 3.5454082 -1.7997465 4288085770
5.9711037 1.5586572 -1.8342302 4288085770
9.8054523 2.5249617 -1.7977171 4288085770
7.7842507 2.0127814 -1.8027462 4288085770
5.1440091 1.3359733 -1.8323572 4288085770
4.1609716 1.0876486 -1.8878001 4282675967
4.0918913 1.0683535 -1.8259805 4288085770
4.167901 1.0863334 -1.8277981 4288085770
4.2559156 1.1073289 -1.8335862 4288085770
4.0478797 1.0543457 -1.821105 4288085770
4.3319221 1.1242985 -1.8334092 4288085770
10.187469 2.5847983 -1.7949615 4288085770
4.4149294 1.1422704 -1.8342189 4288085770
14.435905 3.632185 -1.8055443 4288085770
4.155901 1.0753707 -1.8338702 4288085770
13.48082 3.3886144 -1.8159292 4288085770
4.4999375 1.1602416 -1.8350263 4288085770
4.5789375 1.1761891 -1.8308512 4288085770
6.0490894 1.5376346 -1.8352516 4288085770
4.2309027 1.0883306 -1.8317156 4288085770
4.666944 1.1941538 -1.8306552 4288085770
9.9634361 2.4929223 -1.8017042 4288085770
7.8812323 1.9797565 -1.8048092 4288085770
4.3199105 1.104311 -1.8345288 4288085770
4.7739558 1.2151371 -1.8354214 4288085770
4.8659601 1.23309 -1.8332207 4288085770
5.212997 1.3169651 -1.8353786 4288085770
4.4119177 1.120285 -1.8363389 4288085770
10.543482 2.6156771 -1.7983887 4288085770
15.094936 3.7149355 -1.8073484 4288085770
4.9619627 1.2500415 -1.831021 4288085770
4.5129271 1.1372659 -1.8401331 4288085770
5.0619664 1.2679913 -1.828811 4288085770
13.573783 3.3095951 -1.8192383 4288085770
4.598928 1.1502216 -1.8379658 4288085770
5.1699719 1.2869482 -1.8285868 4288085770
6.1240711 1.5146031 -1.8342872 4288085770
5.2829776 1.306898 -1.8273515 4288085770
10.100411 2.454865 -1.800747 4288085770
4.6979342 1.1651931 -1.8397729 4288085770
7.9892135 1.9487273 -1.8068488 4288085770
10.91149 2.6445515 -1.8018123 4288085770
15.680941 3.7736423 -1.7953629 4288085770
5.398982 1.3268466 -1.8261127 4288085770
5.2699771 1.2949303 -1.8324298 4288085770
4.7889328 1.1781363 -1.8356 4288085770
5.5309925 1.3488096 -1.828845 4288085770
4.8879337 1.1920869 -1.8334124 4288085770
5.6790071 1.3737818 -1.834543 4288085770
6.213058 1.4945811 -1.8362907 4288085770
13.701755 3.2385726 -1.824465 4288085770
4.9929366 1.2060459 -1.8332181 4288085770
11.275492 2.6674013 -1.8002722 4288085770
16.251934 3.8203237 -1.777458 4288085770
5.8200164 1.3957361 -1.8362648 4288085770
10.255391 2.4178109 -1.8017639 4288085770
8.103199 1.9187055 -1.8108759 4288085770
5.1029387 1.220997 -1.8320128 4288085770
5.3419642 1.2759156 -1.8344479 4288085770
5.9640236 1.4186788 -1.835978 4288085770
6.1170321 1.4416282 -1.8376809 4288085770
5.2119393 1.2339438 -1.8298191 4288085770
11.645493 2.6882482 -1.7987357 4288085770
16.868931 3.8699865 -1.7594839 4293729569
6.3110476 1.475566 -1.8402786 4288085770
6.2490277 1.458534 -1.8294398 4288085770
5.3419452 1.2509029 -1.83158 4288085770
13.849726 3.1705468 -1.8306526 4288085770
10.437374 2.3867557 -1.8047179 4288085770
8.2171793 1.8856683 -1.811919 4288085770
6.4150352 1.4814732 -1.8301275 4288085770
5.4059453 1.2548831 -1.8324853 4288085770
5.4639482 1.2658546 -1.8313607 4288085770
6.5880432 1.5054095 -1.8308021 4288085770
12.045496 2.7110884 -1.798154 4288085770
17.655951 3.9516475 -1.7541454 4293729569
5.5909495 1.2797995 -1.8301409 4288085770
6.3990297 1.4535286 -1.8392937 4288085770
6.7480435 1.5253249 -1.8265128 4288085770
14.055708 3.1125286 -1.8427206 4288085770
5.7499628 1.2997729 -1.8368527 4288085770
10.63436 2.3557003 -1.8086544 4288085770
5.4779296 1.2338581 -1.8325138 4288085770
8.3421612 1.8546369 -1.8149388 4288085770
6.9220452 1.5462348 -1.8222018 4288085770
18.614994 4.0592966 -1.7594715 4288085770
12.448494 2.7289166 -1.7955952 4288085770
5.9039712 1.3177328 -1.8405807 4288085770
7.1180511 1.5701566 -1.8218499 4288085770
6.4980159 1.4334975 -1.8402857 4288085770
6.0449715 1.3316664 -1.8383449 4288085770
7.303051 1.5910567 -1.8165265 4288085770
14.241683 3.0484927 -1.8498433 4288085770
10.832342 2.3246388 -1.8115898 4288085770
5.5539141 1.2138309 -1.8325323 4288085770
19.676043 4.1769032 -1.7646271 4288085770
8.4851475 1.8266085 -1.819922 4288085770
6.2049766 1.3476136 -1.8400766 4288085770
12.895497 2.7497427 -1.7959696 4288085770
7.5230589 1.616974 -1.8171365 4288085770
6.5899987 1.4114587 -1.8392962 4288085770
6.3709807 1.363553 -1.8408012 4288085770
7.753067 1.6428874 -1.8177346 4288085770
5.6369014 1.1958116 -1.8345323 4288085770
13.412511 2.779577 -1.8032157 4288085770
6.5389829 1.3784865 -1.8405291 4288085770
14.438659 2.9864569 -1.8579428 4288085770
11.045324 2.2935658 -1.8135079 4288085770
8.014081 1.6738037 -1.8212709 4288085770
8.6161289 1.7935642 -1.8209453 4288085770
6.6999846 1.3914227 -1.8402754 4288085770
6.6999788 1.3903967 -1.8352807 4288085770
8.2520809 1.6976875 -1.8168706 4288085770
14.148569 2.8474467 -1.8340092 4288085770
6.8769779 1.4043161 -1.8330033 4288085770
5.7168846 1.1747776 -1.8335513 4288085770
8.5501003 1.7306045 -1.8233535 4288085770
11.250301 2.2574801 -1.8124615 4288085770
14.604625 2.9143975 -1.8591303 4288085770
