# .PCD v0.7 - Point Cloud Data file format
VERSION 0.7
FIELDS x y z rgb
SIZE 4 4 4 4
TYPE F F F U
COUNT 1 1 1 1
WIDTH 1122
HEIGHT 1
VIEWPOINT 0 0 0 1 0 0 0
POINTS 1122
DATA ascii
16.392 0.050804436 -1.8673615 4288085770
12.721022 0.030409813 -1.8442315 4288085770
17.535011 0.035860121 -1.8727247 4288085770
5.465045 0.014707111 -1.8119844 4288085770
13.43603 0.020071521 -1.850459 4288085770
18.896021 0.02212029 -1.8851548 4288085770
14.209037 0.011785276 -1.8537036 4288085770
15.117043 0.001626946 -1.8639911 4288085770
16.100052 -0.0064646527 -1.8693008 4288085770
5.352057 0.0016023144 -1.8129563 4288085770
19.063057 -0.010734081 -1.8692242 4288085770
17.221058 -0.014428519 -1.8756535 4288085770
18.543062 -0.022205099 -1.8860685 4288085770
17.69607 -0.022998244 -1.8608056 4288085770
16.530081 -0.036075208 -1.8564502 4288085770
5.246068 -0.011495583 -1.8149303 4288085770
15.493095 -0.049034823 -1.8491346 4288085770
14.557109 -0.061901413 -1.8418505 4288085770
13.739122 -0.074658312 -1.836603 4288085770
5.1440802 -0.025589943 -1.8169062 4288085770
19.510157 -0.11632317 -1.8694184 4288085770
13.013135 -0.088329986 -1.8323846 4288085770
18.074173 -0.13265221 -1.8589808 4288085770
12.367148 -0.10092746 -1.8291906 4288085770
16.887188 -0.14874882 -1.8546202 4288085770
11.788159 -0.11446226 -1.8280177 4288085770
15.844201 -0.16471228 -1.8513045 4288085770
11.262173 -0.12794828 -1.8268614 4288085770
14.913217 -0.18057355 -1.8460236 4288085770
10.779186 -0.14239529 -1.824719 4288085770
14.068233 -0.19635616 -1.8397694 4288085770
10.342199 -0.15579888 -1.8245902 4288085770
13.33025 -0.2120387 -1.8365482 4288085770
9.9592123 -0.17015129 -1.8274788 4288085770
12.671264 -0.22764799 -1.8343518 4288085770
9.6042233 -0.18447798 -1.8303761 4288085770
12.068279 -0.2432062 -1.8311726 4288085770
9.2532368 -0.19780299 -1.8292741 4288085770
11.557292 -0.25867724 -1.833022 4288085770
8.9242506 -0.21210784 -1.8281796 4288085770
11.076306 -0.27412164 -1.8328807 4288085770
8.6132631 -0.22539711 -1.8250899 4288085770
10.662321 -0.2905024 -1.8367609 4288085770
8.3372765 -0.23965272 -1.8250117 4288085770
19.855589 -0.59200239 -1.8847755 4288085770
10.248334 -0.30588567 -1.8356403 4288085770
19.935595 -0.60491872 -1.9048073 4288085770
8.0822897 -0.25388902 -1.8249402 4288085770
9.8613501 -0.3212446 -1.8335283 4288085770
18.561611 -0.61919117 -1.8953879 4288085770
18.608625 -0.6291573 -1.8764079 4288085770
7.825304 -0.26812828 -1.822868 4288085770
9.5083637 -0.33657184 -1.8324268 4288085770
17.350622 -0.62831271 -1.8870167 4288085770
7.6033168 -0.28233427 -1.8228065 4288085770
17.513659 -0.66317177 -1.8690856 4288085770
9.1883774 -0.35186869 -1.8313354 4288085770
16.282631 -0.63530219 -1.8796885 4288085770
7.3793306 -0.29654321 -1.8207444 4288085770
8.875392 -0.36616009 -1.828246 4288085770
15.324633 -0.63919055 -1.8713931 4288085770
16.565693 -0.69704986 -1.863809 4288085770
7.1873431 -0.31072068 -1.8226925 4288085770
14.492637 -0.64196038 -1.868136 4288085770
8.5564079 -0.38045967 -1.8201545 4288085770
15.725718 -0.72782779 -1.8595643 4288085770
13.717639 -0.64167905 -1.8618952 4288085770
6.9893551 -0.32390571 -1.8206379 4288085770
8.3164206 -0.39568037 -1.8240881 4288085770
13.037638 -0.64030874 -1.8586833 4288085770
6.8143692 -0.3390677 -1.8225919 4288085770
15.00075 -0.76049852 -1.8583565 4288085770
19.906977 -1.0199456 -1.913017 4288085770
8.0724354 -0.41190699 -1.824021 4288085770
12.420636 -0.6388793 -1.8574911 4288085770
18.46295 -0.98828506 -1.8995519 4288085770
11.829634 -0.63442779 -1.8523053 4288085770
6.643383 -0.3532275 -1.8215463 4288085770
7.8374496 -0.42612571 -1.8229557 4288085770
14.299777 -0.7881496 -1.8521534 4288085770
17.184925 -0.95747066 -1.8871387 4288085770
11.30763 -0.62891114 -1.8501402 4288085770
6.4743962 -0.36738604 -1.8195015 4288085770
16.115904 -0.93146074 -1.8807931 4288085770
10.843626 -0.62533903 -1.8519944 4288085770
7.6324635 -0.44231543 -1.8249006 4288085770
15.189878 -0.90731776 -1.8764929 4288085770
10.397619 -0.61875188 -1.8508524 4288085770
13.673804 -0.81673074 -1.8479742 4288085770
6.331408 -0.3815181 -1.8224647 4288085770
10.003613 -0.61211562 -1.8517267 4288085770
14.322857 -0.88212192 -1.8692102 4288085770
7.425478 -0.4565089 -1.822844 4288085770
9.6226072 -0.60546839 -1.8506049 4288085770
13.565838 -0.85882294 -1.8649631 4288085770
18.851156 -1.2139258 -1.9067916 4288085770
13.14983 -0.84721482 -1.8498278 4288085770
6.1874213 -0.39565265 -1.8224276 4288085770
9.2605991 -0.59680402 -1.848488 4288085770
12.887817 -0.83745074 -1.8617413 4288085770
19.825233 -1.2960291 -1.9031374 4288085770
7.2284923 -0.47169289 -1.8217909 4288085770
8.9275923 -0.58811259 -1.84738 4288085770
12.257799 -0.81603432 -1.8585343 4288085770
8.5965843 -0.57742107 -1.8422717 4288085770
11.702781 -0.79554796 -1.8563513 4288085770
6.0404348 -0.40979111 -1.8203895 4288085770
8.3075752 -0.56868833 -1.8421774 4288085770
17.758173 -1.2259418 -1.8944587 4288085770
12.654858 -0.87467372 -1.8486886 4288085770
11.194762 -0.77601743 -1.8561833 4288085770
7.0505075 -0.48785889 -1.8217444 4288085770
19.134277 -1.3406718 -1.8949465 4288085770
18.604246 -1.304166 -1.8847626 4288085770
8.0285664 -0.55894691 -1.8410856 4288085770
5.1783848 -0.35858402 -1.827095 4288085770
10.742745 -0.75743401 -1.8580332 4288085770
7.7605581 -0.5481962 -1.8379968 4288085770
5.2893982 -0.37248257 -1.8261367 4288085770
10.302729 -0.73884106 -1.8568866 4288085770
7.5265484 -0.53841203 -1.8389189 4288085770
5.9194479 -0.42490312 -1.8233601 4288085770
5.4164119 -0.38836497 -1.8281847 4288085770
7.287539 -0.52663445 -1.8358387 4288085770
9.8837118 -0.71923029 -1.8527462 4288085770
16.789185 -1.2348421 -1.8841625 4288085770
5.5264258 -0.4012658 -1.8242257 4288085770
7.0785294 -0.51682675 -1.8377687 4288085770
6.8805208 -0.50301701 -1.8226998 4288085770
9.5036936 -0.69958234 -1.8506181 4288085770
12.189882 -0.90210509 -1.847559 4288085770
6.8665195 -0.50602376 -1.8356971 4288085770
5.6594396 -0.41614345 -1.824275 4288085770
5.1734037 -0.3805882 -1.8321053 4288085770
9.1506777 -0.68090963 -1.8484987 4288085770
17.556261 -1.3151404 -1.8724432 4288085770
6.6715097 -0.49520457 -1.8346307 4288085770
5.2914152 -0.39248002 -1.8311481 4288085770
5.803453 -0.43200994 -1.8263279 4288085770
6.4635 -0.48240015 -1.8275596 4288085770
5.4174252 -0.40336385 -1.8311931 4288085770
8.7996616 -0.66123688 -1.8423792 4288085770
6.3074889 -0.47254184 -1.8325059 4288085770
5.5504365 -0.41524121 -1.8312405 4288085770
18.319326 -1.3904302 -1.8847198 4288085770
6.1394787 -0.4606975 -1.8314475 4288085770
5.9504676 -0.44687402 -1.8273816 4288085770
5.6764474 -0.42612651 -1.8282855 4288085770
5.9824686 -0.44984251 -1.831393 4288085770
5.8244576 -0.43798944 -1.8293376 4288085770
8.4906454 -0.64352345 -1.840274 4288085770
6.0954823 -0.46174192 -1.8244344 4288085770
5.7894616 -0.43902549 -1.8223275 4288085770
8.20963 -0.62678313 -1.8401779 4288085770
6.2574964 -0.47759214 -1.8254931 4288085770
7.9376144 -0.60903525 -1.8380841 4288085770
6.4215102 -0.49244088 -1.8255517 4288085770
7.6885991 -0.59226537 -1.8379979 4288085770
6.6145244 -0.50926089 -1.8296207 4288085770
6.7195344 -0.51816738 -1.8226581 4288085770
7.456584 -0.57647961 -1.8379176 4288085770
7.2155685 -0.5577051 -1.831833 4288085770
6.8105397 -0.52607906 -1.8316904 4288085770
7.0005541 -0.54190421 -1.8307577 4288085770
15.962192 -1.2466075 -1.8819121 4288085770
11.761909 -0.92850339 -1.8444401 4288085770
16.679277 -1.3309537 -1.8671792 4288085770
5.6654744 -0.4531424 -1.8212966 4288085770
17.645378 -1.4460549 -1.8825401 4288085770
6.5655489 -0.53331149 -1.8226184 4288085770
15.216199 -1.2552975 -1.8816854 4288085770
11.362932 -0.95387495 -1.8413299 4288085770
15.967296 -1.3536108 -1.8699703 4288085770
5.5674877 -0.46923238 -1.8262749 4288085770
6.4135633 -0.54845512 -1.8195794 4288085770
14.484204 -1.2579777 -1.8754597 4288085770
17.059429 -1.5025971 -1.8833883 4288085770
11.036959 -0.98417544 -1.8462448 4288085770
5.456501 -0.4833369 -1.826248 4288085770
15.311315 -1.3762176 -1.8707789 4288085770
6.2795773 -0.56357986 -1.821546 4288085770
13.835207 -1.2605788 -1.8742596 4288085770
16.548481 -1.5580688 -1.8862592 4288085770
5.3505149 -0.4984374 -1.8252234 4288085770
10.714983 -1.0104741 -1.8471593 4288085770
6.1405916 -0.57871175 -1.818511 4288085770
14.701335 -1.3977823 -1.8706012 4288085770
13.230206 -1.2611399 -1.8720722 4288085770
18.827772 -1.8320222 -1.7721115 4293729569
5.2515283 -0.51253039 -1.8262004 4288085770
12.661206 -1.2586676 -1.8698945 4288085770
6.0266056 -0.59481704 -1.8224844 4288085770
10.425008 -1.0387423 -1.8500843 4288085770
14.133353 -1.4163098 -1.8674349 4288085770
16.03553 -1.6095446 -1.8851273 4288085770
17.662731 -1.7901016 -1.7667279 4293729569
5.1575422 -0.52761894 -1.8271794 4288085770
12.115202 -1.2531763 -1.8637223 4288085770
5.9026198 -0.60993421 -1.8214542 4288085770
16.82671 -1.7718657 -1.7844589 4293729569
19.121952 -2.015769 -1.7393003 4293729569
10.146033 -1.0660017 -1.8510123 4288085770
13.604373 -1.4368011 -1.8652818 4288085770
15.581575 -1.6619658 -1.8850144 4288085770
11.5952 -1.2456614 -1.8565571 4288085770
5.7866344 -0.62504387 -1.8204263 4288085770
16.198698 -1.7684314 -1.8152624 4288085770
9.8670559 -1.0902624 -1.8489388 4288085770
13.155395 -1.4612164 -1.8671556 4288085770
17.808937 -1.9840062 -1.6928761 4293729569
11.163193 -1.241061 -1.8584208 4288085770
15.172624 -1.7143443 -1.8869156 4288085770
15.721689 -1.7768518 -1.858119 4288085770
5.6806488 -0.64114368 -1.8214023 4288085770
10.750189 -1.2364434 -1.8592904 4288085770
9.6040792 -1.1145089 -1.8458705 4288085770
12.726414 -1.4826151 -1.8660339 4288085770
15.188675 -1.7723297 -1.8889513 4288085770
16.787931 -1.969964 -1.6665522 4293729569
5.5776629 -0.65624106 -1.8213787 4288085770
10.375184 -1.23079 -1.8611712 4288085770
14.753668 -1.7617353 -1.8828108 4288085770
14.496648 -1.7439675 -1.8937218 4282675967
17.247129 -2.1016614 -1.4247646 4293729569
9.3721037 -1.1407254 -1.8458127 4288085770
12.337438 -1.506976 -1.8669264 4288085770
10.006175 -1.2231324 -1.861053 4288085770
16.334963 -2.0133715 -1.6914349 4293729569
5.4906778 -0.67332172 -1.8253608 4288085770
13.83462 -1.7135793 -1.8955005 4282675967
14.174697 -1.7832862 -1.854643 4288085770
9.6591673 -1.2144541 -1.8609408 4288085770
13.140584 -1.6722271 -1.8842635 4282675967
17.147223 -2.1927681 -1.3997822 4293729569
9.1531277 -1.1659296 -1.8467582 4288085770
11.98446 -1.5313034 -1.8678302 4288085770
16.983192 -2.1788921 -1.454724 4293729569
5.4006925 -0.68940663 -1.8263417 4288085770
15.845985 -2.0448158 -1.7093002 4293729569
9.3071575 -1.2017835 -1.8558252 4288085770
17.044367 -2.227046 -1.0357686 4293729569
12.566555 -1.6407591 -1.8830688 4282675967
17.073521 -2.2482328 -0.60878909 4293729569
13.537717 -1.7908978 -1.8124498 4288085770
9.0071497 -1.1940609 -1.8577281 4288085770
8.9471493 -1.1911228 -1.845708 4288085770
16.970425 -2.2691431 -0.97976822 4293729569
11.657481 -1.5566067 -1.8697425 4288085770
5.305706 -0.70449734 -1.8253205 4288085770
12.016527 -1.6092701 -1.8798817 4288085770
16.967548 -2.2843201 -0.63177544 4293729569
16.78426 -2.2630613 -1.487707 4293729569
15.306 -2.0633113 -1.7191426 4293729569
16.848297 -2.2730498 -1.3927324 4293729569
16.992706 -2.3075192 -0.1887956 4293729569
8.7031393 -1.1813449 -1.8546273 4288085770
16.945423 -2.3111055 -1.1027827 4293729569
11.5195 -1.5797309 -1.8787121 4288085770
16.937614 -2.3513546 -0.62080193 4293729569
12.928736 -1.7964834 -1.7712641 4293729569
5.2207217 -0.72057843 -1.825303 4288085770
8.4291296 -1.1715987 -1.8555373 4288085770
11.316504 -1.5769265 -1.8646477 4288085770
8.7481747 -1.2173089 -1.8456604 4288085770
11.038472 -1.5471787 -1.8745457 4288085770
14.932024 -2.0986454 -1.7460458 4293729569
16.912518 -2.3791835 -1.0108088 4293729569
16.828356 -2.3819962 -1.5407842 4293729569
16.914658 -2.3953831 -0.60781831 4293729569
16.857405 -2.3940349 -1.4097997 4293729569
16.915489 -2.4040985 -1.1758231 4293729569
16.918797 -2.4135723 -0.22282922 4293729569
8.1471176 -1.1568632 -1.8504422 4288085770
10.606445 -1.5185802 -1.8723968 4288085770
11.037526 -1.6031848 -1.8675754 4288085770
8.5601988 -1.2414857 -1.8446152 4288085770
7.8891072 -1.1441039 -1.8483557 4288085770
12.395756 -1.804996 -1.7351037 4293729569
16.953724 -2.4753344 -0.63587296 4293729569
14.289018 -2.090245 -1.7388421 4293729569
10.18242 -1.4879756 -1.8672491 4288085770
16.951618 -2.5031292 -1.050887 4293729569
16.947557 -2.5040305 -1.2548863 4293729569
16.893448 -2.5029111 -1.5938689 4293729569
16.969782 -2.5213456 -0.58590251 4293729569
7.6530962 -1.1323233 -1.8482764 4288085770
16.999527 -2.535893 -1.4349194 4293729569
9.7693911 -1.4543623 -1.8591034 4288085770
16.968901 -2.5375097 -0.25991082 4293729569
7.4110832 -1.1175504 -1.8441935 4288085770
10.77055 -1.6294333 -1.8685069 4288085770
8.4002228 -1.2696346 -1.847581 4288085770
13.756018 -2.0897384 -1.740677 4293729569
9.4023676 -1.4267044 -1.8559752 4288085770
12.120795 -1.8472545 -1.7310412 4293729569
7.2000718 -1.1047465 -1.8441213 4288085770
9.0923433 -1.4029912 -1.8578665 4288085770
16.912542 -2.6208718 -1.6409377 4293729569
6.9960594 -1.0919363 -1.8440515 4288085770
8.7793207 -1.3772824 -1.855756 4288085770
13.175006 -2.0752811 -1.7324895 4293729569
10.507573 -1.6536788 -1.8684385 4288085770
8.2292471 -1.294796 -1.8455417 4288085770
11.787827 -1.8765725 -1.7159538 4293729569
6.8140492 -1.0811043 -1.8469895 4288085770
8.4772978 -1.3515642 -1.8526489 4288085770
16.736614 -2.7090223 -1.6689304 4293729569
6.6120362 -1.0652946 -1.8419186 4288085770
8.2052755 -1.3278166 -1.8525521 4288085770
12.665998 -2.0657554 -1.7293268 4293729569
10.266597 -1.6789044 -1.8673776 4288085770
8.0722713 -1.3199439 -1.8455067 4288085770
19.868105 -3.2650898 -1.7461966 4293729569
6.4330239 -1.0514611 -1.841856 4288085770
7.9472532 -1.3030567 -1.8514591 4288085770
11.449858 -1.901897 -1.6968631 4293729569
6.2700119 -1.0396124 -1.8427993 4288085770
7.7002325 -1.2802866 -1.8503705 4288085770
16.469677 -2.7772639 -1.6828842 4293729569
6.1099992 -1.0257612 -1.8427424 4288085770
7.4672117 -1.2565038 -1.8482858 4288085770
18.539003 -3.1463315 -1.7217219 4293729569
10.030621 -1.7041259 -1.8653182 4288085770
7.9212961 -1.3460866 -1.844474 4288085770
7.246191 -1.2337101 -1.8462052 4288085770
5.9379864 -1.0099238 -1.8376808 4288085770
7.0311713 -1.2109114 -1.8431265 4288085770
5.7979736 -0.99705327 -1.8396307 4288085770
11.030871 -1.9073033 -1.6637363 4293729569
11.413941 -1.9849428 -1.6768965 4293729569
17.474924 -3.0563226 -1.7103444 4293729569
6.8421512 -1.1900858 -1.845057 4288085770
5.6509619 -0.98319173 -1.8365779 4288085770
16.167728 -2.8395402 -1.6918242 4293729569
9.831646 -1.7313112 -1.8672713 4288085770
6.6411309 -1.1672746 -1.8409827 4288085770
7.7803192 -1.3712194 -1.8444442 4288085770
5.5269494 -0.97130513 -1.8405331 4288085770
6.4701123 -1.1474329 -1.8419193 4288085770
5.395937 -0.95742714 -1.8404852 4288085770
10.876914 -1.948452 -1.6557109 4293729569
6.2860923 -1.1246065 -1.8368502 4288085770
16.417839 -2.9573109 -1.6909646 4293729569
10.778906 -1.9385449 -1.6516753 4293729569
5.2729249 -0.94454169 -1.8404404 4288085770
6.1320744 -1.1057485 -1.8387924 4288085770
15.803772 -2.8848801 -1.6897359 4293729569
5.9800563 -1.0858897 -1.8387349 4288085770
9.6496735 -1.7614807 -1.8702314 4288085770
7.6533446 -1.3993393 -1.8454202 4288085770
5.8330393 -1.0670267 -1.8376795 4288085770
10.561911 -1.9477409 -1.6646132 4293729569
15.703791 -2.9089687 -1.698718 4293729569
5.6850209 -1.0461658 -1.8346225 4288085770
5.550004 -1.0272911 -1.8345706 4288085770
10.56194 -1.9727522 -1.6436267 4293729569
5.422986 -1.0084095 -1.8335212 4288085770
5.3069696 -0.99151611 -1.8354764 4288085770
5.1919541 -0.97462261 -1.8364317 4288085770
9.4476948 -1.7846713 -1.8671814 4288085770
15.488818 -2.9351726 -1.6916654 4293729569
10.291909 -1.9519855 -1.6785321 4293729569
7.5303698 -1.4254557 -1.8453964 4288085770
15.07275 -2.8695481 -1.7105017 4293729569
10.336973 -2.0039692 -1.631574 4293729569
10.04891 -1.9582039 -1.6954604 4293729569
14.586725 -2.8499877 -1.7333411 4293729569
9.17871 -1.7939317 -1.8491035 4288085770
7.4133935 -1.4515667 -1.8453743 4288085770
15.121855 -2.9735174 -1.6845727 4293729569
9.814909 -1.9624138 -1.7123904 4293729569
13.896667 -2.7846303 -1.7280928 4293729569
10.222018 -2.0550754 -1.636566 4293729569
8.9117222 -1.800192 -1.8280244 4288085770
7.3074198 -1.4796666 -1.8473568 4288085770
15.055936 -3.0665693 -1.7066022 4293729569
10.643216 -2.181813 -1.3867643 4293729569
9.5589037 -1.9596475 -1.7223102 4293729569
10.127068 -2.1081636 -1.6415653 4293729569
8.6367321 -1.8024616 -1.8029411 4288085770
7.1954441 -1.5057737 -1.8463366 4288085770
10.518227 -2.2079089 -1.4297397 4293729569
9.2988939 -1.9518859 -1.7302257 4293729569
10.526299 -2.2160068 -1.2207468 4293729569
10.490419 -2.2421899 -0.92474979 4293729569
10.433242 -2.2409654 -1.4777315 4293729569
8.9958773 -1.9331692 -1.7281222 4293729569
10.482422 -2.2571821 -0.95675546 4293729569
9.9791079 -2.1503053 -1.6375425 4293729569
8.3697414 -1.8027245 -1.7768588 4288085770
10.549599 -2.2783697 -0.45978755 4293729569
7.0974698 -1.5338666 -1.8473216 4288085770
10.560707 -2.2935104 -0.16079919 4293729569
10.444352 -2.2750802 -1.2307531 4293729569
10.509623 -2.2934229 -0.42978337 4293729569
10.342254 -2.2700274 -1.524719 4293729569
8.7628679 -1.9263825 -1.7370468 4293729569
10.43248 -2.3062508 -0.91676646 4293729569
10.425464 -2.3132217 -0.98776811 4293729569
10.473639 -2.3314266 -0.49179277 4293729569
8.1487532 -1.8109409 -1.7587953 4293729569
9.9131584 -2.207365 -1.645553 4293729569
7.0074959 -1.562952 -1.8493097 4288085770
10.502772 -2.352581 -0.13281317 4293729569
10.208259 -2.2881331 -1.5646874 4293729569
8.5408573 -1.9175853 -1.7459736 4293729569
10.415412 -2.3441021 -1.2457817 4293729569
10.459685 -2.3594744 -0.42480358 4293729569
10.419551 -2.3802671 -0.9128024 4293729569
10.414515 -2.3802161 -1.0238008 4293729569
10.100265 -2.3102133 -1.6076663 4293729569
10.448685 -2.393435 -0.52681845 4293729569
7.9667716 -1.8241186 -1.7457463 4293729569
8.2868414 -1.8998224 -1.7458858 4293729569
9.8182058 -2.258455 -1.6475513 4293729569
6.9245224 -1.59203 -1.8522999 4288085770
10.489844 -2.4206102 -0.1038459 4293729569
10.398476 -2.4161139 -1.2598151 4293729569
10.457758 -2.4354818 -0.41984403 4293729569
9.8992567 -2.309387 -1.6356038 4293729569
8.0538254 -1.8830396 -1.7468051 4293729569
10.418568 -2.4501956 -1.0618398 4293729569
10.450738 -2.4624169 -0.56385642 4293729569
10.438628 -2.4612544 -0.90985203 4293729569
7.8257937 -1.8462545 -1.7407149 4293729569
9.7412548 -2.3125269 -1.6505568 4293729569
6.8495498 -1.6221008 -1.8552932 4288085770
10.512925 -2.4976063 -0.074894592 4293729569
9.6992435 -2.3055604 -1.6625401 4293729569
7.8158088 -1.8642617 -1.7467217 4293729569
10.418543 -2.4970884 -1.2788651 4293729569
10.550853 -2.5354002 -0.41692668 4293729569
10.483634 -2.5361154 -1.1079062 4293729569
10.527804 -2.5483267 -0.60592663 4293729569
9.4682255 -2.2927661 -1.681462 4293729569
7.7068186 -1.8713689 -1.737692 4293729569
7.6047935 -1.8484576 -1.7496482 4293729569
6.7655749 -1.6501813 -1.8562827 4288085770
9.6513014 -2.3626134 -1.6505562 4293729569
9.207201 -2.2690036 -1.6933689 4293729569
13.902279 -3.4386451 -1.7174463 4293729569
7.4007769 -1.8316473 -1.7515764 4293729569
15.999776 -3.9816914 -1.7413856 4288085770
7.5988445 -1.8994719 -1.737674 4293729569
8.9651756 -2.2462234 -1.7052821 4293729569
6.6896033 -1.6802542 -1.8572756 4288085770
9.655365 -2.4356048 -1.665597 4293729569
7.2187624 -1.8178151 -1.756513 4293729569
13.724335 -3.4968138 -1.7144229 4293729569
15.422735 -3.9382277 -1.7411844 4288085770
8.7421541 -2.2264245 -1.7192029 4293729569
7.0777545 -1.8129405 -1.7704669 4293729569
7.467865 -1.9186001 -1.7296441 4293729569
6.6166301 -1.7093242 -1.8582691 4288085770
8.486124 -2.1966608 -1.724108 4293729569
9.6064177 -2.4936507 -1.6706133 4293729569
6.9647493 -1.8140368 -1.7904328 4288085770
14.832686 -3.8827784 -1.7359726 4288085770
13.607401 -3.5689232 -1.716426 4293729569
8.2630987 -2.1718643 -1.7330259 4293729569
7.3688903 -1.9456953 -1.7286285 4293729569
6.8607445 -1.8161248 -1.810402 4288085770
6.5566587 -1.7413808 -1.8622681 4288085770
9.5684729 -2.5556853 -1.6766354 4293729569
8.0320711 -2.1430774 -1.7379394 4293729569
14.282639 -3.8312914 -1.7327754 4288085770
13.493467 -3.6400306 -1.7174292 4293729569
6.7487378 -1.8142213 -1.8283668 4288085770
7.8010406 -2.110292 -1.7398506 4293729569
7.2889204 -1.9777719 -1.7296214 4293729569
6.6537318 -1.8153005 -1.8493381 4288085770
6.4876857 -1.7704479 -1.8622628 4288085770
13.729587 -3.7708099 -1.7245727 4288085770
9.5125256 -2.6127393 -1.6786489 4293729569
7.5410042 -2.0695374 -1.7337486 4293729569
13.383533 -3.7101347 -1.7174333 4288085770
6.5397224 -1.8103998 -1.8653005 4288085770
7.3129711 -2.0327513 -1.7316587 4293729569
7.1839433 -2.0008748 -1.7246017 4293729569
13.178526 -3.7033267 -1.7153666 4293729569
6.4177127 -1.798516 -1.8612566 4288085770
6.3887057 -1.7935398 -1.8682451 4288085770
7.09694 -1.997954 -1.7295735 4293729569
9.5055885 -2.6827443 -1.6866848 4293729569
13.284601 -3.7832284 -1.7174424 4288085770
6.2286868 -1.7726898 -1.8681848 4288085770
6.8979101 -1.9661404 -1.7284952 4293729569
7.1099725 -2.0319455 -1.7255961 4293729569
12.679474 -3.6437943 -1.7091808 4293729569
6.296731 -1.8116401 -1.8442267 4288085770
6.0746675 -1.7508349 -1.8661256 4288085770
6.7498894 -1.9472739 -1.7384396 4293729569
9.4806471 -2.7477674 -1.6927123 4293729569
13.220677 -3.8662889 -1.7204677 4288085770
6.5968676 -1.9254137 -1.7453808 4293729569
5.9196472 -1.7279818 -1.8630657 4288085770
12.186416 -3.5772576 -1.6999933 4293729569
7.0420027 -2.0650105 -1.7275932 4293729569
6.4228401 -1.8955767 -1.7443113 4293729569
6.1467409 -1.8137954 -1.818182 4288085770
5.7736268 -1.7051201 -1.8600086 4288085770
9.4357033 -2.8078117 -1.6927313 4293729569
6.2598133 -1.8667293 -1.7442455 4293729569
11.754369 -3.5246625 -1.695832 4293729569
13.144751 -3.9443614 -1.7204866 4288085770
5.6276064 -1.6812595 -1.8549509 4288085770
6.9860353 -2.1000643 -1.7305951 4293729569
6.1027865 -1.8378762 -1.7441819 4293729569
5.493588 -1.6603861 -1.8528985 4288085770
5.9987521 -1.8159493 -1.7911379 4288085770
5.9897685 -1.8219764 -1.7551386 4293729569
9.3727541 -2.8608749 -1.6897408 4293729569
11.33832 -3.4700522 -1.6916748 4293729569
5.3685694 -1.6405041 -1.8518493 4288085770
5.9117565 -1.8160399 -1.7751114 4293729569
6.8980603 -2.1251512 -1.7255819 4293729569
5.2505512 -1.6206149 -1.8518026 4288085770
5.8617492 -1.8170741 -1.8020967 4288085770
5.861762 -1.8180927 -1.7650973 4293729569
10.97228 -3.4263937 -1.6915388 4293729569
9.2817974 -2.9039667 -1.6797363 4293729569
5.1445351 -1.6037136 -1.8537608 4288085770
5.80474 -1.8151158 -1.8260782 4288085770
6.8560939 -2.1631906 -1.7305899 4293729569
5.7477307 -1.8131578 -1.8500597 4288085770
10.635242 -3.3857069 -1.6944131 4293729569
5.7557769 -1.8282024 -1.7490705 4293729569
5.6387095 -1.792257 -1.8560151 4288085770
9.2608585 -2.9699883 -1.6817659 4293729569
5.5056844 -1.7643825 -1.8539592 4288085770
6.7821207 -2.1902642 -1.7265821 4293729569
5.381659 -1.7364994 -1.8519061 4288085770
10.317204 -3.3480027 -1.6962951 4293729569
5.6938004 -1.851266 -1.7430642 4293729569
5.270637 -1.7126029 -1.8528591 4288085770
9.2899303 -3.0509589 -1.6918188 4293729569
5.1626148 -1.688704 -1.852813 4288085770
10.034173 -3.3162642 -1.7031912 4293729569
6.7271509 -2.2233181 -1.7275833 4293729569
5.6478276 -1.8803122 -1.7430661 4293729569
9.279995 -3.1199701 -1.6938534 4293729569
9.7281342 -3.2735496 -1.7040743 4293729569
6.6781845 -2.2583666 -1.7275876 4293729569
5.5898523 -1.9043716 -1.7380615 4293729569
9.4200907 -3.2258382 -1.7019539 4293729569
9.288063 -3.194963 -1.6988966 4293729569
6.6172123 -2.2874274 -1.7245848 4293729569
9.138051 -3.1831024 -1.7018443 4293729569
5.4888659 -1.9124782 -1.7190353 4293729569
9.2831297 -3.2659698 -1.6999339 4293729569
6.5642428 -2.3184805 -1.7225856 4293729569
8.8570099 -3.1373661 -1.6997335 4293729569
5.4458919 -1.9395223 -1.7170371 4293729569
9.3082047 -3.3479462 -1.7059863 4293729569
8.6169767 -3.1015894 -1.7026405 4293729569
6.5212765 -2.3545239 -1.7225924 4293729569
5.3779125 -1.9575945 -1.7060263 4293729569
8.3679371 -3.059823 -1.7015417 4293729569
9.3142738 -3.4229431 -1.707029 4293729569
6.4683051 -2.3845775 -1.7195926 4293729569
8.1489058 -3.0260265 -1.7054564 4293729569
10.623778 -3.9657278 -1.7107254 4293729569
5.3239355 -1.9796513 -1.6990221 4293729569
9.3293457 -3.5019302 -1.7100769 4293729569
6.4223361 -2.416625 -1.7165961 4293729569
7.9458756 -2.9952145 -1.7103775 4293729569
10.279707 -3.8910472 -1.7145795 4293729569
5.2549539 -1.9947248 -1.6870093 4293729569
7.7188377 -2.9524283 -1.7082849 4293729569
9.3344173 -3.5769291 -1.7091194 4293729569
9.9376354 -3.8133664 -1.7144327 4293729569
6.3793678 -2.4496691 -1.7146013 4293729569
7.5298076 -2.921603 -1.7132103 4293729569
5.1919723 -2.010792 -1.6759992 4293729569
9.6455755 -3.7516363 -1.7213098 4293729569
9.3694963 -3.6638968 -1.7131774 4293729569
6.3554039 -2.4886932 -1.7166153 4293729569
7.3767858 -2.9017425 -1.7231529 4293729569
9.3065004 -3.666955 -1.7161599 4293729569
5.1049848 -2.016886 -1.6559762 4293729569
9.3965759 -3.7488737 -1.7152323 4293729569
9.0144358 -3.5972281 -1.7160327 4293729569
7.2107592 -2.8748953 -1.7300875 4293729569
6.3074336 -2.5187433 -1.7116174 4293729569
8.7323694 -3.5274916 -1.7159085 4293729569
7.0317273 -2.8410621 -1.7320147 4293729569
5.060008 -2.0399342 -1.6499752 4293729569
9.4356575 -3.8378386 -1.7182928 4293729569
6.2634649 -2.5497897 -1.7066212 4293729569
8.4653091 -3.460742 -1.7147908 4293729569
6.84269 -2.800241 -1.7299346 4293729569
5.0380368 -2.069958 -1.6499851 4293729569
8.2292557 -3.4029613 -1.7176871 4293729569
9.4717417 -3.9278069 -1.7203532 4293729569
6.6666555 -2.7624066 -1.7288605 4293729569
6.2755103 -2.6017764 -1.7166533 4293729569
7.9951997 -3.3431797 -1.7185832 4293729569
5.0090632 -2.0969899 -1.6469913 4293729569
6.4986234 -2.7265656 -1.7277896 4293729569
7.7661438 -3.2833948 -1.7174807 4293729569
6.2575483 -2.6427958 -1.7176704 4293729569
6.3235855 -2.6847322 -1.7237136 4293729569
7.5390878 -3.2216086 -1.7153777 4293729569
4.9640856 -2.1180394 -1.6379893 4293729569
6.145546 -2.6389036 -1.7156343 4293729569
6.2185793 -2.6738379 -1.7116758 4293729569
7.3290353 -3.1648059 -1.7142828 4293729569
5.9524994 -2.5840914 -1.7025456 4293729569
4.8820953 -2.1211293 -1.6169661 4293729569
7.1349864 -3.1119874 -1.7151947 4293729569
6.1926141 -2.709866 -1.7096877 4293729569
5.8194714 -2.5552161 -1.7044894 4293729569
6.9399357 -3.0561719 -1.7121049 4293729569
4.8121076 -2.1272066 -1.5989484 4293729569
5.6604338 -2.5113702 -1.696417 4293729569
6.7628894 -3.0063376 -1.7120236 4293729569
6.1986589 -2.7598605 -1.714717 4293729569
6.555831 -2.940536 -1.7029248 4293729569
5.4323721 -2.4345994 -1.6653056 4293729569
4.7481222 -2.1362782 -1.5819342 4293729569
6.408793 -2.8996732 -1.7058578 4293729569
6.1917 -2.8038695 -1.7167392 4293729569
5.1552935 -2.3328831 -1.6171657 4293729569
6.28476 -2.8677855 -1.7138027 4293729569
4.9512372 -2.2620893 -1.5880651 4293729569
4.6971393 -2.1503348 -1.5699266 4293729569
6.1347175 -2.8219266 -1.7137319 4293729569
6.1597328 -2.8369055 -1.7097477 4293729569
4.7401776 -2.1863046 -1.5539595 4293729569
5.9656687 -2.7650895 -1.7046493 4293729569
4.6301494 -2.1544101 -1.5509086 4293729569
4.6421533 -2.1603968 -1.5549157 4293729569
5.7976174 -2.7072523 -1.6945667 4293729569
6.1357675 -2.8719332 -1.7047597 4293729569
4.5821409 -2.1514485 -1.5668925 4293729569
5.6555758 -2.660388 -1.690498 4293729569
5.5365396 -2.6224988 -1.6914409 4293729569
4.5791655 -2.1664679 -1.5368999 4293729569
4.5221286 -2.1415 -1.5778689 4293729569
6.1288085 -2.9149425 -1.7047814 4293729569
5.2824569 -2.5177586 -1.6483064 4293729569
4.4761195 -2.1375363 -1.5938528 4293729569
5.0033631 -2.3990462 -1.5951566 4293729569
4.5431857 -2.1845095 -1.5268991 4293729569
4.4351125 -2.1345677 -1.6098388 4293729569
6.133852 -2.9629395 -1.7068093 4293729569
4.707263 -2.2693546 -1.5319955 4293729569
4.5582132 -2.2095041 -1.5129174 4293729569
4.3750973 -2.1216197 -1.6198136 4293729569
4.5182018 -2.202534 -1.5289017 4293729569
4.5322137 -2.2135236 -1.5249118 4293729569
4.3310876 -2.1156552 -1.6337972 4293729569
6.1438985 -3.0129313 -1.7098399 4293729569
4.4911938 -2.2005501 -1.5488924 4293729569
4.270071 -2.1007094 -1.6407703 4293729569
4.4371758 -2.1845968 -1.5578672 4293729569
4.3921595 -2.171633 -1.5708466 4293729569
4.2040524 -2.0817707 -1.6447401 4293729569
4.5202417 -2.2425392 -1.5229244 4293729569
6.142941 -3.0579357 -1.7088646 4293729569
4.3611498 -2.1656549 -1.5858338 4293729569
4.3391404 -2.1626666 -1.6048256 4293729569
4.291122 -2.1457074 -1.6138018 4293729569
4.2431035 -2.1287484 -1.6217779 4293729569
4.1910839 -2.1087952 -1.6267512 4293729569
4.4432454 -2.2376263 -1.4978985 4293729569
6.1569886 -3.1099243 -1.7108974 4293729569
4.1610694 -2.0988162 -1.6407367 4293729569
4.5734115 -2.3376224 -1.2739931 4293729569
4.415266 -2.2566602 -1.4889005 4293729569
4.4774036 -2.3197293 -1.2459544 4293729569
4.4012918 -2.2816784 -1.4839103 4293729569
4.4324155 -2.3267813 -1.2309448 4293729569
4.3783126 -2.3017068 -1.4759147 4293729569
4.53263 -2.3899357 -0.74901009 4293729569
4.3914285 -2.33583 -1.2169374 4293729569
4.348331 -2.3167436 -1.4639138 4293729569
4.4646325 -2.3860116 -0.7299875 4293729569
4.4797249 -2.4011211 -0.4900004 4293729569
4.5337911 -2.4311311 -0.37303329 4293729569
4.3704486 -2.3538563 -1.2079413 4293729569
4.3163481 -2.3307822 -1.4519122 4293729569
4.4286504 -2.3990562 -0.714984 4293729569
4.4497724 -2.4152052 -0.38599923 4293729569
4.4237313 -2.4021845 -0.47398418 4293729569
4.3524699 -2.3728802 -1.1989464 4293729569
4.4388509 -2.4253271 -0.17100161 4293729569
4.2993712 -2.3518052 -1.4439188 4293729569
4.4026713 -2.4160903 -0.70098567 4293729569
4.4087749 -2.4222383 -0.40099087 4293729569
4.3887477 -2.4142275 -0.45998043 4293729569
4.337492 -2.3939013 -1.1909536 4293729569
4.3978496 -2.4293592 -0.1879916 4293729569
4.2823925 -2.3718276 -1.4359249 4293729569
4.3747778 -2.4312644 -0.41698572 4293729569
4.3806939 -2.4351203 -0.68798965 4293729569
4.3727717 -2.4352512 -0.44798729 4293729569
4.3295159 -2.4169147 -1.183964 4293729569
4.3698559 -2.4413786 -0.2049899 4293729569
4.2814207 -2.4008331 -1.4329406 4293729569
4.3607907 -2.4512711 -0.43499267 4293729569
4.3647165 -2.4551437 -0.67599601 4293729569
4.3517923 -2.4532797 -0.43499109 4293729569
4.349864 -2.4553907 -0.2229917 4293729569
4.3235412 -2.4409261 -1.1769756 4293729569
4.279448 -2.4278398 -1.4279552 4293729569
4.3458037 -2.4702785 -0.45199874 4293729569
4.3517427 -2.4781656 -0.66300493 4293729569
4.3368754 -2.4733965 -0.23999783 4293729569
4.3408184 -2.4762986 -0.42300057 4293729569
4.3175669 -2.4649382 -1.1689873 4293729569
4.286479 -2.4608362 -1.4269756 4293729569
4.3358173 -2.4912808 -0.47100744 4293729569
4.3238869 -2.4914017 -0.25800395 4293729569
4.3457713 -2.5041795 -0.65201765 4293729569
4.329844 -2.4983187 -0.41000956 4293729569
4.3175926 -2.4909439 -1.1630017 4293729569
4.2995129 -2.4958272 -1.4259989 4293729569
4.3348355 -2.5172734 -0.4910216 4293729569
4.3249035 -2.515393 -0.27701759 4293729569
4.339798 -2.5291934 -0.64002979 4293729569
4.3246226 -2.5209417 -1.1580205 4293729569
4.3218708 -2.5223351 -0.39702058 4293729569
4.3388543 -2.5442619 -0.51103783 4293729569
4.3105445 -2.5298195 -1.4250213 4293729569
4.3109121 -2.5313993 -0.29502234 4293729569
4.3416567 -2.5559299 -1.155045 4293729569
4.3438311 -2.5601983 -0.62904817 4293729569
4.3199005 -2.549346 -0.38503501 4293729569
4.3378716 -2.5692551 -0.53105146 4293729569
4.3179317 -2.5583844 -0.31503946 4293729569
4.4616399 -2.6466589 -1.4681313 4293729569
4.4177179 -2.6258545 -1.1681066 4293729569
4.3568678 -2.5951939 -0.6190716 4293729569
4.3369398 -2.5873382 -0.37406126 4293729569
4.3319545 -2.5893636 -0.33506089 4293729569
4.3609004 -2.607224 -0.55407947 4293729569
5.2090101 -3.1258445 -1.7036213 4293729569
6.5997939 -3.9715402 -1.7225072 4293729569
4.4050059 -2.6552815 -0.36611941 4293729569
4.3599849 -2.6293283 -0.35709152 4293729569
5.2460589 -3.1788099 -1.7076617 4293729569
5.2741027 -3.2257862 -1.7076961 4293729569
5.3121514 -3.2787511 -1.7107371 4293729569
5.3411956 -3.3247261 -1.7097712 4293729569
5.3742423 -3.3736978 -1.7088083 4293729569
5.4122891 -3.424664 -1.708848 4293729569
5.4533377 -3.4766266 -1.7098891 4293729569
5.5043912 -3.53458 -1.7119365 4293729569
5.5504422 -3.5885382 -1.7119802 4293729569
5.6034942 -3.645489 -1.7140276 4293729569
5.6665525 -3.7084303 -1.7170815 4293729569
5.7306108 -3.7713709 -1.7191356 4293729569
5.7916665 -3.8313143 -1.7201872 4293729569
5.8517218 -3.8902597 -1.7192378 4293729569
5.9237823 -3.9551926 -1.7212954 4293729569
9.5132704 6.6741357 -1.6934584 4288085770
9.1935101 6.4487944 -1.6744671 4288085770
9.7590942 6.8453889 -1.6954534 4288085770
8.9107237 6.2464943 -1.6594766 4288085770
9.9649525 6.9855962 -1.6894512 4288085770
8.726861 6.1123066 -1.6614847 4288085770
10.153831 7.1097817 -1.6774524 4288085770
8.5739765 5.9971533 -1.6664939 4288085770
10.331721 7.2249527 -1.6614546 4288085770
8.4210958 5.8799977 -1.6695046 4288085770
10.514609 7.339129 -1.6444597 4288085770
8.2782078 5.7678537 -1.6735162 4288085770
10.761456 7.4953742 -1.6344652 4288085770
8.1503124 5.6647248 -1.6785284 4288085770
11.076251 7.6946969 -1.6334724 4288085770
8.024415 5.5615983 -1.6825418 4288085770
11.413035 7.9060407 -1.6324813 4288085770
7.9125123 5.4654856 -1.6875569 4288085770
7.8215919 5.3833981 -1.6965716 4288085770
11.373135 7.8079977 -1.6315305 4288085770
7.7326736 5.3003106 -1.703588 4288085770
11.113337 7.6087337 -1.6355486 4288085770
7.6447544 5.2182245 -1.7106044 4288085770
10.854541 7.4074693 -1.6385684 4288085770
7.5728264 5.144155 -1.7196224 4288085770
10.692676 7.2713118 -1.6525879 4288085770
10.562786 7.1541901 -1.670609 4288085770
7.4999008 5.0680852 -1.7276413 4288085770
10.418912 7.0260506 -1.6836314 4288085770
7.4139867 4.981998 -1.7306613 4288085770
10.268043 6.8929029 -1.6946539 4288085770
7.3440623 4.9059296 -1.7366817 4288085770
10.068216 6.7236967 -1.6946788 4288085770
7.2611499 4.8198433 -1.7377031 4288085770
9.7614708 6.4833674 -1.6757036 4288085770
9.4926987 6.2680798 -1.6597288 4288085770
7.1862311 4.7387676 -1.7407247 4288085770
9.337842 6.1279202 -1.6607543 4288085770
7.0833368 4.6376567 -1.7357472 4288085770
9.1949759 5.9947743 -1.6637807 4288085770
6.9984298 4.5485659 -1.7327698 4288085770
9.0651045 5.8686409 -1.665808 4288085770
6.9425011 4.4765105 -1.7367939 4288085770
8.9642105 5.7615414 -1.6728357 4288085770
6.8595934 4.3874202 -1.7328175 4288085770
8.8663168 5.6554432 -1.678864 4288085770
6.7816854 4.3003359 -1.728842 4288085770
4.6520419 2.9432025 -1.8068005 4288085770
4.6010756 2.910151 -1.8078001 4288085770
4.6960168 2.9702435 -1.8008021 4288085770
4.757977 3.0083079 -1.8028044 4288085770
4.545115 2.8720922 -1.8068005 4288085770
4.8239365 3.0473757 -1.8028076 4288085770
4.5091381 2.8470588 -1.8118013 4288085770
8.7724218 5.5513487 -1.6838927 4288085770
4.8859 3.0834382 -1.8018112 4288085770
4.461175 2.8120084 -1.8108034 4288085770
4.9558606 3.1225097 -1.8018163 4288085770
4.4162097 2.7779615 -1.8108064 4288085770
5.0278206 3.1615837 -1.8018225 4288085770
4.369246 2.7429116 -1.808809 4288085770
6.7197628 4.2242699 -1.7278662 4288085770
5.1017814 3.1996579 -1.8008304 4288085770
4.3182893 2.7028551 -1.8038135 4288085770
8.6785278 5.4452534 -1.687923 4288085770
5.1777415 3.2387338 -1.7988384 4288085770
4.2913136 2.6778297 -1.8078184 4288085770
5.2666931 3.284826 -1.8008473 4288085770
4.2443547 2.6397769 -1.8028233 4288085770
6.684824 4.1622362 -1.733893 4288085770
5.3446569 3.3219032 -1.7978578 4288085770
8.6086159 5.3551855 -1.6959532 4288085770
4.217382 2.6127498 -1.8048296 4288085770
5.4386096 3.3669996 -1.7988698 4288085770
4.1874123 2.5827188 -1.8058366 4288085770
5.5345631 3.4130971 -1.7988821 4288085770
6.6558795 4.1052084 -1.7399193 4288085770
8.5477009 5.2691259 -1.7029848 4288085770
4.1554456 2.5506837 -1.8038441 4288085770
5.6405096 3.4632075 -1.8018963 4288085770
5.7514472 3.5283139 -1.7919023 4288085770
5.6824899 3.4852459 -1.7959002 4288085770
5.8274021 3.57339 -1.7889061 4288085770
5.6115351 3.4401748 -1.7988989 4288085770
5.5415797 3.3951049 -1.800898 4288085770
5.8983636 3.6144578 -1.7819104 4288085770
5.4616361 3.34202 -1.7978979 4288085770
4.1284752 2.5216553 -1.803852 4288085770
5.9723239 3.6555295 -1.775916 4288085770
6.0612745 3.7056184 -1.7719222 4288085770
5.3946838 3.2959511 -1.797899 4288085770
5.7374663 3.5063043 -1.7999113 4288085770
6.6229396 4.0441751 -1.7439466 4288085770
6.149229 3.7517045 -1.7669309 4288085770
5.3207378 3.2438722 -1.793901 4288085770
8.4847879 5.1810641 -1.7100168 4288085770
4.0985084 2.4896209 -1.8008604 4288085770
6.2361865 3.7967887 -1.7599398 4288085770
5.2817669 3.212837 -1.8019046 4288085770
5.8214369 3.5383842 -1.7919277 4288085770
6.3361354 3.8478878 -1.7559505 4288085770
5.2208147 3.1667724 -1.7999085 4288085770
6.4470797 3.9039986 -1.7519627 4288085770
5.1668577 3.1247165 -1.7999129 4288085770
4.0805349 2.4636033 -1.8038703 4288085770
5.9263916 3.5834894 -1.7899449 4288085770
6.5810075 3.9771309 -1.7449738 4288085770
8.4278717 5.0960078 -1.7160496 4288085770
6.5540285 3.9561043 -1.746976 4288085770
5.1208973 3.0856695 -1.8019187 4288085770
6.667974 4.0112166 -1.7419903 4288085770
4.0585642 2.4345787 -1.8028804 4288085770
6.023356 3.6205831 -1.782964 4288085770
5.0679417 3.0426133 -1.7999243 4288085770
6.8069048 4.0783591 -1.742008 4288085770
5.0229826 3.0025661 -1.7999314 4288085770
8.380949 5.016963 -1.7240827 4288085770
6.5530658 3.9181027 -1.7490021 4288085770
6.1073322 3.6486602 -1.7719834 4288085770
4.0395918 2.4075584 -1.8038905 4288085770
6.9168582 4.1274657 -1.7330246 4288085770
4.9740286 2.9595127 -1.7969387 4288085770
7.0647883 4.1966147 -1.7310448 4288085770
6.2222867 3.6937754 -1.7690051 4288085770
4.0226197 2.3805394 -1.8039017 4288085770
4.9340677 2.920471 -1.7969475 4288085770
8.3120432 4.923892 -1.7261156 4288085770
6.5371151 3.8670886 -1.75503 4288085770
7.2047267 4.2587543 -1.7260662 4288085770
6.3512349 3.7449059 -1.7680291 4288085770
4.8931093 2.8804266 -1.7959564 4288085770
4.0086465 2.353524 -1.8049141 4288085770
7.3726478 4.3349257 -1.726091 4288085770
4.8741341 2.85341 -1.8019665 4288085770
6.4681945 3.7870195 -1.7610539 4288085770
8.2431383 4.8298202 -1.727149 4288085770
6.5111737 3.8080616 -1.7580591 4288085770
7.5385742 4.408093 -1.7231168 4288085770
3.9956727 2.3275099 -1.8059262 4288085770
4.8421721 2.816376 -1.8019776 4288085770
6.5941501 3.832144 -1.7560809 4288085770
7.7404776 4.5003014 -1.726146 4288085770
3.978704 2.2984884 -1.8029389 4288085770
8.1942215 4.7477703 -1.7311835 4288085770
4.815207 2.782347 -1.801989 4288085770
6.4882307 3.7510376 -1.7610883 4288085770
7.9243979 4.5794873 -1.7231758 4288085770
6.7221069 3.8762701 -1.7501093 4288085770
4.7922397 2.7493234 -1.8040013 4288085770
3.9687295 2.2724769 -1.8039525 4288085770
8.147295 4.6777163 -1.7252105 4288085770
8.1083288 4.6446762 -1.7262156 4288085770
6.8640575 3.9264116 -1.7461401 4288085770
6.4852753 3.704037 -1.7681198 4288085770
4.7622781 2.71229 -1.8030134 4288085770
8.3642006 4.7689376 -1.7252474 4288085770
3.9597559 2.2464664 -1.8049667 4288085770
7.0219998 3.9835715 -1.7441735 4288085770
4.7343168 2.6752584 -1.8010263 4288085770
8.0294313 4.5455904 -1.722248 4288085770
8.5891056 4.8631663 -1.7222857 4288085770
6.4753256 3.6530278 -1.7731508 4288085770
3.9547801 2.2224598 -1.8059812 4288085770
7.1859407 4.0417361 -1.742209 4288085770
8.8180122 4.9553976 -1.7193274 4288085770
4.7183475 2.644242 -1.8030407 4288085770
8.0005016 4.4745626 -1.7272841 4288085770
3.9538012 2.200459 -1.8089963 4288085770
7.3538823 4.0999055 -1.7392461 4288085770
6.4623775 3.6000152 -1.7771819 4288085770
9.0559187 5.0486374 -1.7143724 4288085770
4.7103744 2.6172345 -1.8070561 4288085770
9.3028202 5.1458869 -1.7104189 4288085770
3.9488273 2.1744514 -1.8090123 4288085770
7.5068374 4.1460547 -1.7312847 4288085770
7.9335985 4.3824883 -1.7233175 4288085770
4.6824145 2.5782011 -1.8030704 4288085770
6.4524298 3.5480044 -1.7802136 4288085770
9.570715 5.2491579 -1.7054709 4288085770
7.6777849 4.2002249 -1.7253261 4288085770
4.6744428 2.5501931 -1.8060864 4288085770
3.9508483 2.1524534 -1.8120286 4288085770
7.898674 4.3074522 -1.7263535 4288085770
9.8436127 5.3524332 -1.7005252 4288085770
6.4484763 3.5000007 -1.7852454 4288085770
7.8897071 4.2744422 -1.7273724 4288085770
4.6594768 2.517175 -1.8051027 4288085770
3.9498737 2.1274509 -1.813046 4288085770
10.117513 5.4517069 -1.6915824 4288085770
7.8587523 4.2304082 -1.7263888 4288085770
8.0866432 4.3376408 -1.7244196 4288085770
4.6515064 2.4871662 -1.8071201 4288085770
6.4515204 3.4540057 -1.791279 4288085770
3.9449017 2.1004422 -1.8110627 4288085770
10.428396 5.5680218 -1.6866454 4288085770
7.8368211 4.1623859 -1.7294263 4288085770
8.2965755 4.4038525 -1.7204705 4288085770
4.6425376 2.4561546 -1.8071377 4288085770
6.4405746 3.3999932 -1.7933118 4288085770
10.736287 5.6773305 -1.6777116 4288085770
3.9549193 2.0814531 -1.8160807 4288085770
8.5125093 4.4700704 -1.7175243 4288085770
4.6335702 2.4251428 -1.8061553 4288085770
7.8448706 4.1093979 -1.738467 4288085770
11.082162 5.8026805 -1.6717842 4288085770
3.9519472 2.054446 -1.8140985 4288085770
6.4316282 3.346982 -1.7943447 4288085770
14.975124 7.7936692 -1.6521972 4288085770
8.759429 4.5493226 -1.7175834 4288085770
4.6285992 2.396136 -1.8071735 4288085770
11.467018 5.9430723 -1.6688645 4288085770
7.8139472 4.0343637 -1.738505 4288085770
3.9639654 2.0344589 -1.8181183 4288085770
9.0433264 4.6446157 -1.7226485 4288085770
6.4196844 3.291966 -1.7933779 4288085770
4.6316252 2.3691387 -1.810194 4288085770
14.705375 7.5463934 -1.6592448 4288085770
11.844886 6.0754533 -1.659947 4288085770
7.8160014 3.9783673 -1.7445453 4288085770
3.9709888 2.0114639 -1.8191379 4288085770
9.3472204 4.7449298 -1.7287191 4288085770
12.296716 6.2399158 -1.6590413 4288085770
4.6256595 2.3371289 -1.8082138 4288085770
6.4147363 3.2409596 -1.7954113 4288085770
14.49259 7.331181 -1.6692963 4288085770
7.8040662 3.9133546 -1.7475852 4288085770
3.9790115 1.9884707 -1.8211581 4288085770
9.6501198 4.8412418 -1.7317923 4288085770
12.871486 6.4595118 -1.6681541 4288085770
4.626687 2.3091283 -1.809234 4288085770
6.4117875 3.1899543 -1.7964456 4288085770
14.371753 7.1640673 -1.6883569 4288085770
13.571194 6.7342439 -1.6892861 4288085770
9.9690161 4.9405704 -1.7348707 4288085770
3.752147 1.8482471 -1.8391511 4288085770
3.9830384 1.9624711 -1.8201784 4288085770
4.6267161 2.2801259 -1.8092546 4288085770
7.8091216 3.8573599 -1.7526269 4288085770
3.7391751 1.8352109 -1.8071543 4288085770
3.8011484 1.8592768 -1.8111663 4288085770
14.22093 6.9829202 -1.7024134 4288085770
6.3968492 3.1319335 -1.7924796 4288085770
14.210948 6.9689054 -1.6964185 4288085770
10.277924 5.0308852 -1.7339507 4288085770
3.8701189 1.8853502 -1.81618 4288085770
3.9900632 1.9384753 -1.8191987 4288085770
4.6347432 2.2531328 -1.8112774 4288085770
3.9300969 1.9064118 -1.8171933 4288085770
7.8241711 3.8053784 -1.7596704 4288085770
3.9940724 1.9294776 -1.818207 4288085770
14.773757 7.1584773 -1.6885467 4288085770
13.955172 6.7486429 -1.7004538 4288085770
10.572845 5.1091824 -1.7270327 4288085770
6.3998966 3.0839353 -1.7945148 4288085770
4.0690436 1.9555565 -1.8222235 4288085770
4.6377716 2.2251327 -1.8102987 4288085770
3.9661055 1.8994445 -1.8142151 4288085770
3.9231265 1.8784008 -1.81521 4288085770
4.0150814 1.9224945 -1.8142217 4288085770
4.0010862 1.9154841 -1.8202201 4288085770
4.0680556 1.9475497 -1.8152288 4288085770
3.8741531 1.8533489 -1.8132049 4288085770
3.8291776 1.830301 -1.8112001 4288085770
4.1290259 1.9746143 -1.8182381 4288085770
4.1300249 1.9746166 -1.8202386 4288085770
4.1840005 1.9996699 -1.8172461 4288085770
3.7921975 1.8102642 -1.813197 4288085770
7.8392215 3.7533948 -1.7657137 4288085770
4.2389779 2.0227256 -1.8162553 4288085770
3.7502232 1.7862191 -1.8111943 4288085770
15.32358 7.335032 -1.674678 4288085770
4.2879601 2.0417724 -1.8112649 4288085770
3.7612104 1.7882457 -1.8341981 4288085770
4.2109938 2.0027025 -1.8252566 4288085770
4.3549304 2.0698411 -1.8122764 4288085770
10.916744 5.2065339 -1.7271239 4288085770
13.540493 6.4461994 -1.6784731 4288085770
4.4219036 2.0959105 -1.8132893 4288085770
6.3969483 3.0339289 -1.7935487 4288085770
4.6448002 2.1971381 -1.8113217 4288085770
4.4958715 2.1259873 -1.8153026 4288085770
4.2789741 2.0227697 -1.8232743 4288085770
4.0121093 1.8924929 -1.8202417 4288085770
4.5538535 2.1460426 -1.8093154 4288085770
15.972363 7.5486932 -1.666829 4288085770
7.8772593 3.7114382 -1.775761 4288085770
4.3409595 2.0388284 -1.8172919 4288085770
4.6338215 2.1761255 -1.8113316 4288085770
11.236666 5.2868552 -1.7192161 4288085770
4.6958022 2.1971846 -1.8053457 4288085770
4.4129395 2.0598996 -1.8153106 4288085770
13.257737 6.2119002 -1.6695058 4288085770
4.6568265 2.1711483 -1.8123459 4288085770
4.7777724 2.2262678 -1.8053635 4288085770
6.4009981 2.9849303 -1.7935852 4288085770
4.0291295 1.8715093 -1.8232646 4288085770
16.649145 7.7673802 -1.6559896 4288085770
4.8567462 2.2533467 -1.8033812 4288085770
4.5039082 2.0879948 -1.8193333 4288085770
7.9212956 3.6714883 -1.7868094 4288085770
11.576582 5.3711987 -1.7123147 4288085770
4.9277263 2.2754142 -1.7963986 4288085770
4.5788889 2.1080685 -1.816354 4288085770
4.664854 2.1441541 -1.8123688 4288085770
5.0176954 2.305506 -1.7964194 4288085770
13.102911 6.0397429 -1.6745545 4288085770
6.4010501 2.9349265 -1.7926203 4288085770
4.0381556 1.8465145 -1.8212867 4288085770
4.6638641 2.132154 -1.8153769 4288085770
5.1076679 2.3335955 -1.7934417 4288085770
11.909506 5.449532 -1.7014142 4288085770
7.9333496 3.6165001 -1.7898537 4288085770
5.2126298 2.3687038 -1.7954658 4288085770
4.741848 2.1502292 -1.8104006 4288085770
4.6848769 2.1201744 -1.816395 4288085770
12.964075 5.8766012 -1.6806042 4288085770
5.3245916 2.40482 -1.7984927 4288085770
4.0581756 1.8255337 -1.824311 4288085770
6.3931055 2.8819125 -1.7886541 4288085770
4.8288245 2.1733162 -1.8084249 4288085770
12.289412 5.5419164 -1.6955256 4288085770
5.4285598 2.4369245 -1.7965184 4288085770
7.9504042 3.5625172 -1.7928998 4288085770
4.9088101 2.1913929 -1.8024493 4288085770
4.6999016 2.0951879 -1.8174199 4288085770
5.5315309 2.466027 -1.793546 4288085770
12.857224 5.7294941 -1.6876578 4288085770
4.0821939 1.8065575 -1.8273358 4288085770
12.696313 5.6413288 -1.6896449 4288085770
5.0107813 2.2174969 -1.8034787 4288085770
5.6734805 2.512177 -1.8005795 4288085770
6.4051528 2.8359215 -1.788692 4288085770
7.984448 3.5155542 -1.7999487 4288085770
5.7734566 2.5382729 -1.7926078 4288085770
4.7159281 2.0692015 -1.817446 4288085770
5.1037617 2.2385881 -1.7995071 4288085770
12.795345 5.6044374 -1.7007169 4288085770
13.129206 5.7467694 -1.684772 4288085770
5.8784332 2.5643752 -1.7856385 4288085770
4.0992169 1.783572 -1.8273602 4288085770
5.2237263 2.2707131 -1.8035405 4288085770
6.4072046 2.7859187 -1.7857285 4288085770
6.0053978 2.599503 -1.7836728 4288085770
4.7289562 2.0412118 -1.8174719 4288085770
8.0025034 3.4615705 -1.8009952 4288085770
5.3227077 2.2918096 -1.7985718 4288085770
13.602089 5.8612523 -1.6819111 4288085770
6.1593499 2.6446629 -1.7877128 4288085770
12.735468 5.4793806 -1.7117767 4288085770
4.1182394 1.7615892 -1.8283849 4288085770
6.4312458 2.7449429 -1.7887686 4288085770
5.4506721 2.3239419 -1.8016088 4288085770
6.3073082 2.6848142 -1.7877535 4288085770
4.7439852 2.0142238 -1.8164982 4288085770
8.037549 3.4136081 -1.8070453 4288085770
14.124956 5.9907894 -1.682063 4288085770
5.5616493 2.3470528 -1.7996445 4288085770
6.4512696 2.7229586 -1.7847937 4288085770
12.670593 5.3533177 -1.7208352 4288085770
4.144258 1.7416148 -1.8314112 4288085770
6.435297 2.6959414 -1.7858053 4288085770
6.6192222 2.7681313 -1.78684 4288085770
4.7620111 1.9882394 -1.8165251 4288085770
5.6846223 2.3741767 -1.7986827 4288085770
8.0416126 3.3526073 -1.8040904 4288085770
14.687812 6.1293664 -1.6822273 4288085770
