# .PCD v0.7 - Point Cloud Data file format
VERSION 0.7
FIELDS x y z rgb
SIZE 4 4 4 4
TYPE F F F U
COUNT 1 1 1 1
WIDTH 1136
HEIGHT 1
VIEWPOINT 0 0 0 1 0 0 0
POINTS 1136
DATA ascii
7.9318495 -2.0197589 -1.723105 4293729569
8.2927761 -2.1220722 -1.7116128 4293729569
6.9529943 -1.77491 -1.7707287 4288085770
9.6725206 -2.506269 -1.6585544 4293729569
10.537367 -2.7430193 -1.6227715 4293729569
7.7068686 -1.9985666 -1.72279 4293729569
9.45051 -2.4910769 -1.6772445 4293729569
8.2167387 -2.1620083 -1.7165084 4293729569
6.779027 -1.7797655 -1.7454852 4293729569
7.4998832 -1.9793895 -1.7255001 4293729569
10.644241 -2.8511119 -1.6479266 4293729569
9.1895218 -2.4618526 -1.6878792 4293729569
7.2819104 -1.9542036 -1.7221943 4293729569
8.1237087 -2.1969309 -1.71738 4293729569
6.6600337 -1.7956665 -1.732319 4293729569
8.9195442 -2.4276204 -1.6935012 4293729569
10.674151 -2.9401398 -1.6599735 4293729569
7.0519505 -1.9230076 -1.7138715 4293729569
8.6725597 -2.397408 -1.702155 4293729569
8.0496721 -2.2358689 -1.7212782 4293729569
6.8999491 -1.9128768 -1.7226583 4293729569
6.582016 -1.8236016 -1.7292103 4293729569
8.4255819 -2.3641961 -1.7068087 4293729569
10.676072 -3.0211437 -1.6669807 4293729569
6.750948 -1.9007486 -1.731449 4293729569
8.2365808 -2.3450327 -1.7215438 4293729569
7.9956307 -2.2788239 -1.7272042 4293729569
6.5159936 -1.8545471 -1.7281182 4293729569
6.592957 -1.8846127 -1.7362269 4293729569
8.021596 -2.3158476 -1.7292421 4293729569
10.664001 -3.1001358 -1.6719686 4293729569
6.4179807 -1.8614632 -1.7339808 4293729569
7.9405866 -2.3217785 -1.7331288 4293729569
7.8336034 -2.2916851 -1.739978 4293729569
6.4579697 -1.885499 -1.7280374 4293729569
6.2450085 -1.8363155 -1.7307371 4293729569
10.669923 -3.184144 -1.6769814 4293729569
7.6026397 -2.2534871 -1.7386533 4293729569
7.9165282 -2.3747587 -1.744097 4293729569
6.1030197 -1.8191932 -1.7345371 4293729569
7.3746796 -2.2132921 -1.7353323 4293729569
6.3469796 -1.9004071 -1.7128816 4293729569
10.652859 -3.2601326 -1.6779618 4293729569
7.1047525 -2.1560614 -1.7189518 4293729569
5.9640322 -1.8010741 -1.737341 4293729569
7.8504953 -2.4137044 -1.7450057 4288085770
6.9127812 -2.1228969 -1.7196814 4293729569
5.848033 -1.7889739 -1.7451775 4293729569
6.2639737 -1.9223382 -1.704765 4293729569
6.7048254 -2.0817189 -1.7133882 4293729569
10.642789 -3.340127 -1.678952 4293729569
5.7590179 -1.7838961 -1.760052 4293729569
7.7654757 -2.4456336 -1.7408875 4293729569
6.5228577 -2.0475631 -1.7121314 4293729569
5.6819973 -1.7808282 -1.7779431 4288085770
6.2139478 -1.9552972 -1.7046949 4293729569
6.3398957 -2.0104058 -1.7088732 4293729569
10.650713 -3.426137 -1.6819675 4293729569
5.6179681 -1.7817713 -1.7998527 4288085770
6.1739259 -1.9782639 -1.7076389 4293729569
7.6964478 -2.4825766 -1.7397919 4293729569
5.5439463 -1.7797062 -1.8177481 4288085770
6.1829123 -1.9932717 -1.7086518 4293729569
6.0259509 -1.9491365 -1.7084298 4293729569
11.899273 -3.9132178 -1.6987371 4293729569
10.659638 -3.5111477 -1.6849843 4293729569
5.4719276 -1.7756428 -1.8346463 4288085770
5.8849726 -1.922015 -1.7102304 4293729569
7.6504087 -2.5255389 -1.7427284 4293729569
5.3679333 -1.7605529 -1.840499 4288085770
6.125896 -2.021225 -1.7045714 4293729569
5.7529922 -1.8959013 -1.7130438 4293729569
11.486335 -3.8488641 -1.6951573 4293729569
5.2659402 -1.7444649 -1.8463546 4288085770
10.684558 -3.6011724 -1.6880238 4293729569
5.6529946 -1.8788145 -1.7229023 4293729569
7.6113682 -2.5705073 -1.7456748 4288085770
5.5360098 -1.8557135 -1.7267367 4293729569
5.1539588 -1.7243688 -1.8461961 4288085770
11.093395 -3.7855277 -1.6916047 4293729569
6.0578876 -2.0451686 -1.6974756 4293729569
5.3970451 -1.8225942 -1.7225399 4293729569
10.699481 -3.6901886 -1.6890491 4293729569
5.2810669 -1.7974945 -1.7233754 4293729569
10.741443 -3.7312257 -1.6921098 4293729569
7.5803213 -2.6184819 -1.7506324 4288085770
5.1910725 -1.7794162 -1.731248 4293729569
6.0148649 -2.0771339 -1.6954149 4293729569
5.1360521 -1.774367 -1.75017 4293729569
10.695417 -3.7711887 -1.6860473 4293729569
10.417481 -3.6829474 -1.694654 4293729569
5.0960226 -1.7723302 -1.7731131 4288085770
7.4913125 -2.6454084 -1.7415076 4293729569
5.0629892 -1.7722992 -1.7980661 4288085770
5.9828348 -2.1131079 -1.6963698 4293729569
5.0319514 -1.7732697 -1.825022 4288085770
10.105521 -3.6336796 -1.6972147 4293729569
10.777308 -3.8852618 -1.6951673 4293729569
7.4133029 -2.6743445 -1.7323985 4293729569
5.9677935 -2.1540959 -1.7023487 4293729569
9.8175583 -3.5884321 -1.7008091 4293729569
7.3362908 -2.7032812 -1.7242905 4293729569
9.5266018 -3.5391822 -1.7013985 4293729569
5.9217758 -2.1840584 -1.6982834 4293729569
9.2516413 -3.4909463 -1.7030104 4293729569
7.3092504 -2.7492595 -1.7262532 4293729569
5.8707619 -2.2120171 -1.6922112 4293729569
8.9766874 -3.4397097 -1.7026219 4293729569
7.2502313 -2.7832115 -1.7201706 4293729569
5.837738 -2.2449903 -1.6901643 4293729569
8.6917467 -3.3804653 -1.6982189 4293729569
7.1962128 -2.8171675 -1.7140946 4293729569
8.4687738 -3.3422735 -1.7029036 4293729569
5.8047152 -2.2779636 -1.6881171 4293729569
7.1341996 -2.8481166 -1.7050076 4293729569
8.2318163 -3.2960699 -1.7025682 4293729569
5.7537088 -2.3029222 -1.6790446 4293729569
7.9938636 -3.2448652 -1.7012309 4293729569
7.0781846 -2.8800712 -1.6979285 4293729569
5.7136931 -2.3308899 -1.6739874 4293729569
7.7938929 -3.2066927 -1.7049475 4293729569
7.059145 -2.9280567 -1.6979022 4293729569
7.5809355 -3.1605098 -1.7036452 4293729569
5.707654 -2.3738861 -1.6769787 4293729569
7.384974 -3.1173408 -1.7043669 4293729569
7.035111 -2.972038 -1.6958688 4293729569
5.6966181 -2.4148781 -1.6789627 4293729569
9.1422749 -3.9148684 -1.7108705 4293729569
7.1810217 -3.0691657 -1.701077 4293729569
7.0300655 -3.0240359 -1.6978621 4293729569
8.8693371 -3.8406332 -1.712483 4293729569
7.0000563 -3.0290101 -1.7018197 4293729569
5.6815877 -2.4528668 -1.6789409 4293729569
8.5824165 -3.757386 -1.7080753 4293729569
7.017025 -3.0730264 -1.6978443 4293729569
6.8031082 -2.9788408 -1.6965394 4293729569
8.3244839 -3.6831632 -1.7067086 4293729569
5.6535673 -2.4858444 -1.6739006 4293729569
6.6361437 -2.9386969 -1.6973016 4293729569
7.0029864 -3.1210167 -1.6968249 4293729569
8.097538 -3.619967 -1.7083858 4293729569
6.4571915 -2.8915429 -1.6930466 4293729569
5.6495299 -2.5288424 -1.6758944 4293729569
7.8765912 -3.5567763 -1.7100713 4293729569
7.0109348 -3.178025 -1.6998366 4293729569
6.3252087 -2.8644288 -1.6988584 4293729569
7.6476583 -3.4865787 -1.7067454 4293729569
5.6384993 -2.5678346 -1.6748784 4293729569
6.1812396 -2.8283048 -1.6996529 4293729569
7.4357162 -3.4223955 -1.7054434 4293729569
7.0018954 -3.2280195 -1.6978242 4293729569
6.0003004 -2.7741494 -1.6903945 4293729569
7.2207832 -3.3532102 -1.7011369 4293729569
5.6354618 -2.6108334 -1.6768736 4293729569
7.0258417 -3.2910421 -1.6988589 4293729569
7.0108452 -3.2850292 -1.6998374 4293729569
5.8503451 -2.7310205 -1.6861801 4293729569
6.8598828 -3.2398987 -1.7016221 4293729569
5.6354246 -2.6538348 -1.677873 4293729569
5.6884007 -2.6818814 -1.6779487 4293729569
7.0187955 -3.3430376 -1.7008492 4293729569
6.684936 -3.1837475 -1.6993723 4293729569
5.5754228 -2.6527836 -1.680787 4293729569
6.512989 -3.1265991 -1.6971266 4293729569
5.6363869 -2.6978374 -1.6788738 4293729569
5.3575344 -2.5715981 -1.6514752 4293729569
7.0147557 -3.3940368 -1.698844 4293729569
6.3510408 -3.0714588 -1.6948951 4293729569
4.8409123 -2.3391621 -1.524736 4293729569
6.2090821 -3.0243363 -1.6956922 4293729569
5.6413465 -2.7438431 -1.6808804 4293729569
7.0237093 -3.4510462 -1.697857 4293729569
4.6190453 -2.2499733 -1.4854181 4293729569
6.0691247 -2.9772148 -1.6954921 4293729569
5.8981957 -2.9120679 -1.6852474 4293729569
4.5410557 -2.2299056 -1.4913061 4293729569
5.303597 -2.6165607 -1.5803967 4293729569
5.7472558 -2.8549378 -1.6780312 4293729569
7.0586419 -3.5210781 -1.7039074 4293729569
4.4470844 -2.2008245 -1.4901708 4293729569
5.065773 -2.5253615 -1.5110557 4293729569
4.925889 -2.4632447 -1.4668554 4293729569
4.3950748 -2.1917784 -1.5030957 4293729569
4.7959523 -2.4021323 -1.4596692 4293729569
7.0815854 -3.5840995 -1.7059405 4293729569
4.4781799 -2.2518628 -1.3902138 4293729569
4.3650479 -2.1937506 -1.5220522 4293729569
4.4291735 -2.2388194 -1.4031433 4293729569
4.467257 -2.2618604 -1.3281976 4293729569
4.3300261 -2.1917191 -1.5400015 4293729569
7.1075277 -3.6491239 -1.7079779 4293729569
4.406147 -2.2387977 -1.4231099 4293729569
4.3069949 -2.1956973 -1.5609677 4293729569
4.3971105 -2.2447879 -1.4460967 4293729569
4.3810802 -2.2457719 -1.4680734 4293729569
4.4212723 -2.2708225 -1.3131305 4293729569
4.2619867 -2.1876571 -1.5729027 4293729569
4.4715791 -2.3038917 -1.0702019 4293729569
4.3490644 -2.2397428 -1.4840271 4293729569
4.3180528 -2.2307146 -1.4979824 4293729569
4.2109847 -2.1746125 -1.582829 4293729569
4.2870402 -2.2226861 -1.5129377 4293729569
4.1499958 -2.1555591 -1.5877411 4293729569
4.2730131 -2.222672 -1.5329171 4293729569
4.3832808 -2.283792 -1.3000747 4293729569
4.2579885 -2.2206573 -1.5518955 4293729569
4.423595 -2.3108523 -1.0551319 4293729569
4.1129832 -2.148526 -1.6016874 4293729569
4.2299767 -2.2116313 -1.566855 4293729569
4.189981 -2.1945961 -1.5747976 4293729569
4.1539807 -2.1785636 -1.5847458 4293729569
4.1139874 -2.1605279 -1.5916883 4293729569
4.0569944 -2.1304765 -1.6056067 4293729569
4.0749936 -2.1424932 -1.5986323 4293729569
4.0390005 -2.1244617 -1.6055807 4293729569
4.4752402 -2.3609481 -0.55620456 4293729569
4.3572812 -2.300771 -1.2900363 4293729569
4.3906007 -2.3238261 -1.0430824 4293729569
4.4875569 -2.3799844 -0.31422016 4293729569
4.4122701 -2.3578961 -0.53711116 4293729569
4.4687104 -2.3929796 -0.19619122 4293729569
4.3412728 -2.3247592 -1.2820098 4293729569
4.3745952 -2.3458133 -1.0350571 4293729569
4.4175878 -2.3739245 -0.29711741 4293729569
4.4899735 -2.4300194 0.016780488 4293729569
4.3962717 -2.3798835 -0.52408582 4293729569
4.402698 -2.3869202 -0.21009429 4293729569
4.3272648 -2.3477485 -1.2749873 4293729569
4.3515964 -2.3627944 -1.0250218 4293729569
4.3796015 -2.3828926 -0.28306061 4293729569
4.3929749 -2.4049327 0.0009217672 4293729569
4.3672829 -2.3938594 -0.50904191 4293729569
4.3706703 -2.3978906 -0.22504614 4293729569
4.315258 -2.3717389 -1.2669678 4293729569
4.3345947 -2.3837807 -1.0149949 4293729569
4.35361 -2.3978715 -0.269021 4293729569
4.35495 -2.4108977 -0.015021583 4293729569
4.3442912 -2.4098408 -0.49400663 4293729569
4.3466363 -2.4138677 -0.24100937 4293729569
4.3285847 -2.4087765 -1.007984 4293729569
4.3012519 -2.393728 -1.2589451 4293729569
4.3336163 -2.4158552 -0.25498998 4293729569
4.3299193 -2.4238737 -0.030983543 4293729569
4.334291 -2.4338336 -0.48098987 4293729569
4.3295984 -2.4328511 -0.25798267 4293729569
4.3235745 -2.433773 -1.0009747 4293729569
4.3032322 -2.4247308 -1.2549455 4293729569
4.3226175 -2.4388466 -0.24097185 4293729569
4.3188801 -2.4438622 -0.047965631 4293729569
4.3312879 -2.459832 -0.46798334 4293729569
4.3185596 -2.45384 -0.27496469 4293729569
4.3195658 -2.4587708 -0.99296683 4293729569
4.300221 -2.4507289 -1.2489392 4293729569
4.3126197 -2.4608393 -0.22695525 4293729569
4.301846 -2.4608455 -0.063939057 4293729569
4.3115177 -2.4768319 -0.29195243 4293729569
4.3212895 -2.4828243 -0.45396668 4293729569
4.3245502 -2.488776 -0.9869718 4293729569
4.3191876 -2.4917457 -1.2479639 4293729569
4.3046203 -2.4848332 -0.21294145 4293729569
4.2938061 -2.4808366 -0.080925547 4293729569
4.3084745 -2.5018272 -0.30894598 4293729569
4.3232841 -2.5108273 -0.44096738 4293729569
4.3325319 -2.5207832 -0.98098105 4293729569
4.3581386 -2.5427799 -1.2530175 4293729569
4.2887654 -2.5028303 -0.097916313 4293729569
4.2986207 -2.5088289 -0.19893059 4293729569
4.3164229 -2.5328324 -0.32795528 4293729569
4.3282771 -2.540833 -0.42897236 4293729569
4.3704915 -2.5698171 -0.9810335 4293729569
4.2947192 -2.5308335 -0.1149229 4293729569
5.9526544 -3.5351303 -1.7043049 4293729569
4.2966204 -2.5338285 -0.18492559 4293729569
4.3373637 -2.5718484 -0.34798327 4293729569
4.378243 -2.5978775 -0.41904193 4293729569
4.3006701 -2.5588367 -0.13392949 4293729569
5.9856086 -3.5911598 -1.7033505 4293729569
4.3146091 -2.5708456 -0.17094927 4293729569
4.3306093 -2.6008606 -0.1529706 4293729569
6.0265546 -3.6531966 -1.7044073 4293729569
6.065505 -3.7122312 -1.7044615 4293729569
6.1064548 -3.7732677 -1.7035187 4293729569
6.1573963 -3.8393126 -1.7055902 4293729569
6.2143364 -3.9083626 -1.7066704 4293729569
7.6755695 5.3548217 -1.6901937 4288085770
7.7876601 5.4317093 -1.6823802 4288085770
7.5774841 5.2859206 -1.7000301 4288085770
7.4703951 5.2090282 -1.7068516 4288085770
7.918757 5.5175767 -1.6765982 4288085770
7.3643069 5.1311345 -1.7126745 4288085770
8.0498562 5.6034451 -1.6688162 4288085770
7.2712255 5.0612278 -1.7195188 4288085770
8.2159672 5.7102766 -1.6680921 4288085770
7.1631379 4.9773383 -1.721338 4288085770
8.3760777 5.8101153 -1.6623579 4288085770
7.0740571 4.9064274 -1.7271887 4288085770
8.5491924 5.9169416 -1.6586454 4288085770
6.96697 4.8195357 -1.7270092 4288085770
8.7193079 6.0187697 -1.6519275 4288085770
6.8838935 4.7496195 -1.7308695 4288085770
8.9234333 6.140564 -1.6502658 4288085770
6.7768097 4.660727 -1.7276896 4288085770
9.1455698 6.2723389 -1.6496344 4288085770
8.461606 5.7970505 -1.3304939 4293729569
8.4965639 5.820013 -1.3715521 4293729569
8.4326496 5.7750821 -1.2904453 4293729569
8.8196402 6.0366807 -1.45909 4293729569
8.4417067 5.7780757 -1.2574601 4293729569
6.661725 4.566844 -1.7214965 4288085770
9.0786848 6.2074142 -1.5385211 4293729569
8.4387589 5.7700806 -1.2204547 4293729569
9.2956772 6.3511887 -1.6328825 4288085770
9.3057117 6.3541794 -1.6138989 4293729569
8.4368076 5.7600856 -1.1844506 4293729569
9.2616262 6.3142228 -1.6418246 4288085770
9.2563772 6.3072972 -0.55981386 4293729569
8.4298544 5.7450948 -1.1464381 4293729569
6.5866528 4.4969211 -1.7233695 4288085770
9.1806784 6.2483087 -1.5686889 4293729569
9.1054964 6.1963797 -1.6485636 4288085770
8.4349051 5.7370915 -1.1104456 4293729569
8.9373608 6.0675497 -1.6522825 4288085770
8.4409552 5.726088 -1.0734544 4293729569
6.4685693 4.3970399 -1.7131708 4288085770
9.2712965 6.2832794 -0.5958361 4293729569
8.850584 5.9986486 -1.4721367 4293729569
8.7892361 5.9506984 -1.6560345 4288085770
8.536046 5.773994 -1.0476112 4293729569
6.4074998 4.3351021 -1.718067 4288085770
8.655118 5.8418341 -1.6618096 4288085770
8.5024805 5.7370067 -1.3735548 4293729569
9.1911592 6.1943593 -0.62569994 4293729569
8.4520483 5.6990824 -0.99946982 4293729569
8.5220032 5.7329683 -1.6655862 4288085770
8.4410849 5.6710954 -0.96044987 4293729569
6.3334298 4.2631769 -1.7169415 4288085770
8.4604988 5.6800528 -1.3274825 4293729569
9.0259743 6.0475245 -0.648422 4293729569
8.3968878 5.6260943 -1.6703759 4288085770
8.4541302 5.6570849 -0.92446953 4293729569
6.274364 4.2002358 -1.7188406 4288085770
8.4485283 5.6410675 -1.2854596 4293729569
8.2807789 5.5252109 -1.6751806 4288085770
8.4741802 5.6470671 -0.88850093 4293729569
8.9078178 5.931643 -0.67322236 4293729569
6.2273026 4.1452837 -1.7237598 4288085770
8.1936817 5.4422994 -1.6840335 4288085770
8.4455614 5.6060724 -1.2444518 4293729569
8.5112362 5.6450315 -0.85356033 4293729569
8.8056736 5.8247447 -0.69704908 4293729569
8.1105862 5.3593826 -1.6918927 4288085770
8.5412884 5.6370039 -0.817608 4293729569
6.1972437 4.0993137 -1.732707 4288085770
8.4555988 5.5790648 -1.2064657 4293729569
8.0144882 5.2684793 -1.6967304 4288085770
8.7105322 5.721839 -0.72088736 4293729569
8.5693359 5.6249776 -0.78165203 4293729569
8.4486237 5.5390749 -1.1664511 4293729569
6.1391783 4.0333724 -1.7326074 4288085770
7.9343963 5.1855597 -1.7025942 4288085770
8.6243963 5.6279244 -0.74774092 4293729569
8.6514101 5.6418972 -0.74678558 4293729569
8.4586582 5.5080676 -1.1274644 4293729569
6.0991211 3.9794128 -1.7355378 4288085770
7.8563051 5.1036386 -1.7084615 4288085770
8.707469 5.6478429 -0.71587634 4293729569
8.6082983 5.5709386 -0.77271026 4293729569
8.4556856 5.467073 -1.0864562 4293729569
6.0620613 3.9254501 -1.7394729 4288085770
7.7782164 5.0197172 -1.7123286 4288085770
8.8145552 5.6817365 -0.68505162 4293729569
8.5781937 5.5069671 -0.79965645 4293729569
8.4767179 5.4390545 -1.0504875 4293729569
6.0280046 3.8734841 -1.7434127 4288085770
7.7071285 4.9397893 -1.717207 4288085770
8.9446507 5.7256064 -0.65526479 4293729569
9.9727249 6.3645844 -0.39397421 4293729569
8.5560923 5.4479885 -0.82661587 4293729569
8.4907475 5.4060426 -1.0125073 4293729569
9.0977573 5.7824535 -0.6255163 4293729569
7.6360416 4.858861 -1.7210855 4288085770
6.0029488 3.8265095 -1.7493677 4288085770
9.9475994 6.2936077 -0.42792824 4293729569
8.5387926 5.3929963 -0.97858363 4293729569
8.5650072 5.4069781 -0.85562682 4293729569
9.2748775 5.8512769 -0.59680754 4293729569
7.5699577 4.7799277 -1.7249721 4288085770
5.9808946 3.7795315 -1.7553273 4288085770
9.8634443 6.1856909 -0.457784 4293729569
8.5158033 5.3340225 -0.93654156 4293729569
9.4249783 5.8991275 -0.56505358 4293729569
7.4798703 4.686018 -1.7218186 4288085770
8.5609112 5.3559799 -0.88361591 4293729569
5.9588408 3.7325537 -1.760287 4288085770
9.7772875 6.0747762 -0.48663628 4293729569
9.6321115 5.9799199 -0.53539443 4293729569
8.5598383 5.3139796 -0.90361065 4293729569
7.3917832 4.5921082 -1.7176685 4288085770
8.5578184 5.3039823 -0.90960658 4293729569
5.9357867 3.6835771 -1.7642449 4288085770
4.2416987 2.6392887 -1.782426 4288085770
4.3007288 2.6752286 -1.7865241 4288085770
4.3567595 2.7091715 -1.7886173 4288085770
4.1946683 2.6093361 -1.7823476 4288085770
4.1496406 2.5803816 -1.7812724 4288085770
4.4007897 2.7331274 -1.78469 4288085770
9.7261829 5.9888272 -0.49854702 4293729569
4.1156106 2.5564158 -1.7852153 4288085770
4.4618235 2.7670658 -1.785791 4288085770
9.6911306 5.963861 -0.51548845 4293729569
4.0695839 2.5244627 -1.7821381 4288085770
8.5878716 5.2839537 -0.86665326 4293729569
4.5378561 2.8099887 -1.7929171 4288085770
7.3066988 4.5001941 -1.7135231 4288085770
4.0315557 2.496501 -1.7820742 4288085770
4.5938888 2.8389318 -1.7910095 4288085770
8.5487204 5.2469893 -0.93558711 4293729569
4.6569233 2.8708682 -1.7901136 4288085770
5.9217353 3.6395907 -1.7702174 4288085770
3.9965274 2.4685366 -1.782015 4288085770
4.7099586 2.8958151 -1.7842009 4288085770
9.7972403 5.9807582 -0.46066111 4293729569
3.9655015 2.443568 -1.7829622 4288085770
9.6129847 5.8579392 -0.54135388 4293729569
8.6058931 5.2459378 -0.83067894 4293729569
7.2436209 4.420258 -1.7134142 4288085770
4.7839937 2.9317405 -1.7853229 4288085770
3.9344759 2.4175994 -1.7829096 4288085770
8.561635 5.2029748 -0.96360415 4293729569
4.8470292 2.9596765 -1.7814263 4288085770
3.9034505 2.3896308 -1.7818565 4288085770
5.8996835 3.5906131 -1.7731768 4288085770
9.8622894 5.9656944 -0.42176506 4293729569
4.9200673 2.9926033 -1.7795463 4288085770
3.8754251 2.3636591 -1.7818085 4288085770
8.6509256 5.2218952 -0.79674941 4293729569
9.4647989 5.7090869 -0.56410265 4293729569
7.1945467 4.3493075 -1.7163284 4288085770
5.0071058 3.0335152 -1.7816896 4288085770
3.845401 2.33569 -1.7797569 4288085770
8.58255 5.161952 -0.99163443 4293729569
5.8796306 3.5406334 -1.7761391 4288085770
9.9503536 5.9626083 -0.38290712 4293729569
5.0951438 3.0714259 -1.7828342 4288085770
3.8323731 2.3167031 -1.7857336 4288085770
7.1254716 4.2663784 -1.7122096 4288085770
8.7259722 5.2148218 -0.76586974 4293729569
9.3696451 5.5921817 -0.58793962 4293729569
5.1681814 3.1013525 -1.778954 4288085770
5.2092009 3.1233113 -1.781022 4288085770
5.2702432 3.1592495 -1.7771233 4288085770
5.1341586 3.0783868 -1.778897 4288085770
5.0791178 3.0444427 -1.7828053 4288085770
5.3512864 3.2051675 -1.779258 4288085770
3.8073514 2.2907283 -1.7836901 4288085770
5.0090785 3.0005138 -1.7796885 4288085770
5.4273319 3.2470906 -1.7773839 4288085770
8.6064692 5.1219258 -1.0186694 4293729569
4.9440389 2.9585793 -1.7775799 4288085770
5.5253782 3.2999914 -1.7825464 4288085770
9.9813833 5.9245791 -0.34195429 4293729569
5.2802224 3.1522391 -1.7861384 4288085770
4.8890009 2.9206352 -1.7774876 4288085770
5.616426 3.3488991 -1.7836972 4288085770
5.8645816 3.4946485 -1.77911 4288085770
4.8389649 2.8856859 -1.7784038 4288085770
5.7054763 3.3948097 -1.7818446 4288085770
3.7903264 2.2677457 -1.7856597 4288085770
7.0844026 4.1984196 -1.714137 4288085770
8.8220282 5.2177262 -0.73502487 4293729569
4.795927 2.8527291 -1.7813311 4288085770
5.7945242 3.4387195 -1.7799919 4288085770
5.370265 3.1881483 -1.7832861 4288085770
9.2875004 5.4842639 -0.61079818 4293729569
4.758894 2.8237665 -1.7842685 4288085770
5.8745747 3.4766393 -1.7731239 4288085770
3.7723019 2.2437637 -1.7866275 4288085770
8.6133757 5.0699172 -1.0446762 4293729569
10.133476 5.9544277 -0.30520251 4293729569
5.9696264 3.5205429 -1.7692806 4288085770
4.7168574 2.7898092 -1.7861973 4288085770
5.4603062 3.2230575 -1.7804337 4288085770
5.8475323 3.446666 -1.7810773 4288085770
6.0716805 3.5684402 -1.7664489 4288085770
4.6758246 2.7568507 -1.7861279 4288085770
7.0643373 4.1424398 -1.721099 4288085770
8.9160805 5.2166333 -0.70417655 4293729569
3.7502806 2.2167869 -1.7835886 4288085770
9.2183666 5.3833327 -0.63267833 4293729569
5.5783491 3.2719378 -1.7856275 4288085770
6.1737337 3.6143374 -1.7626171 4288085770
4.6377907 2.7238891 -1.7870631 4288085770
10.205523 5.935358 -0.26631755 4293729569
8.6342926 5.0258942 -1.070706 4293729569
6.2807884 3.6612291 -1.7587934 4288085770
3.7442551 2.1977928 -1.7885759 4288085770
4.6037579 2.6919236 -1.7880049 4288085770
5.8404837 3.4036732 -1.786061 4288085770
5.6943932 3.3178205 -1.787818 4288085770
7.0482736 4.0884557 -1.7280681 4288085770
9.0441446 5.2335052 -0.67638469 4293729569
6.3858447 3.7061238 -1.7529664 4288085770
4.5667267 2.6579611 -1.7869415 4288085770
9.1422262 5.2774076 -0.65454668 4293729569
3.7202349 2.1678174 -1.7835333 4288085770
5.799439 3.3567147 -1.7849901 4288085770
10.266564 5.908299 -0.22641422 4293729569
6.4979019 3.7520108 -1.7471509 4288085770
8.6642094 4.9848623 -1.0977508 4293729569
4.5336952 2.6259949 -1.7868848 4288085770
5.8254356 3.3556881 -1.7870314 4288085770
6.6089621 3.7968988 -1.7393335 4288085770
7.0202122 4.0284839 -1.7300169 4288085770
5.9094849 3.3966036 -1.7831703 4288085770
9.1722097 5.2483778 -0.64859265 4293729569
3.7222099 2.1528151 -1.7905339 4288085770
4.4986639 2.5910304 -1.7848244 4288085770
9.0790968 5.1794705 -0.67543656 4293729569
10.332604 5.883235 -0.18751912 4293729569
6.7410226 3.8507657 -1.7365508 4288085770
8.7021294 4.9478221 -1.1258088 4293729569
6.0135312 3.4314985 -1.7773405 4288085770
4.4726329 2.5620568 -1.786779 4288085770
3.7091882 2.1278286 -1.7895093 4288085770
5.8183885 3.3106954 -1.790015 4288085770
6.8810863 3.9076242 -1.7337813 4288085770
9.3432941 5.2852068 -0.62187207 4293729569
7.0011497 3.9705031 -1.7339804 4288085770
4.4476027 2.5310824 -1.7867349 4288085770
6.1315799 3.4713798 -1.7735338 4288085770
10.397644 5.8541713 -0.14762212 4293729569
9.0319757 5.0905161 -0.69635302 4293729569
7.0271516 3.9664767 -1.7310219 4288085770
3.6951678 2.1028433 -1.787483 4288085770
8.7240429 4.8987985 -1.1508402 4293729569
4.4165754 2.4971137 -1.783681 4288085770
7.1722193 4.0223308 -1.7252605 4288085770
6.2616286 3.5162485 -1.7727469 4288085770
5.8043418 3.2617099 -1.7899868 4288085770
9.4723549 5.2940784 -0.59208137 4293729569
6.9850874 3.9145186 -1.7389488 4288085770
3.6831462 2.0778558 -1.78646 4288085770
10.59475 5.8959746 -0.10994453 4293729569
4.3965473 2.4681342 -1.783645 4288085770
9.012867 5.0175347 -0.71931601 4293729569
7.3332896 4.084168 -1.7215254 4288085770
6.3936782 3.5601149 -1.7709632 4288085770
8.7729683 4.8657475 -1.1779162 4293729569
4.379518 2.4401515 -1.785614 4288085770
9.6284256 5.3159218 -0.56333548 4293729569
3.692122 2.0628464 -1.7934716 4288085770
5.7902951 3.212724 -1.7899586 4288085770
6.9620271 3.8545423 -1.7409059 4288085770
7.5013633 4.1489983 -1.717802 4288085770
10.793857 5.9357762 -0.071270131 4293729569
6.509727 3.5939984 -1.763153 4288085770
8.9827557 4.9375639 -0.7402606 4293729569
4.3644905 2.4131668 -1.7865863 4288085770
7.6614356 4.2058368 -1.7100651 4288085770
8.8308926 4.8346868 -1.2070072 4293729569
3.6861019 2.0408525 -1.7934583 4288085770
9.716466 5.2988353 -0.53047651 4293729569
6.6367788 3.6318703 -1.7563605 4288085770
6.9449673 3.7965593 -1.7428726 4288085770
5.7852502 3.1687293 -1.7919453 4288085770
10.898912 5.9216728 -0.031439319 4293729569
7.8635149 4.2826324 -1.710398 4288085770
4.3484635 2.3841834 -1.7865566 4288085770
9.0016632 4.8825436 -0.76428652 4293729569
3.6820807 2.0178568 -1.793448 4288085770
6.7678294 3.6687381 -1.7495748 4288085770
8.908823 4.8136063 -1.2381313 4293729569
8.0615959 4.355432 -1.7067239 4288085770
9.7904959 5.2717628 -0.49759406 4293729569
4.3344369 2.3561978 -1.7865303 4288085770
6.9479127 3.7505562 -1.7498724 4288085770
5.7732062 3.1207418 -1.7909204 4288085770
11.332139 6.0802364 0.0068463255 4293729569
3.7620387 2.0397735 -1.8345773 4282675967
6.9538879 3.7345498 -1.7558804 4288085770
9.0565882 4.8474855 -0.79137224 4293729569
8.2906828 4.4412007 -1.7081012 4288085770
4.3194098 2.3272133 -1.7865021 4288085770
9.0327682 4.8144784 -1.2753317 4293729569
9.8565207 5.238698 -0.46369821 4293729569
6.9358554 3.6945684 -1.7518473 4288085770
8.5187731 4.5239697 -1.7054769 4288085770
5.7571626 3.0697587 -1.7878886 4288085770
7.0739403 3.7614291 -1.7420762 4288085770
3.7070317 1.9888313 -1.8084822 4288085770
4.3113832 2.3012214 -1.7874855 4288085770
9.1175137 4.8124228 -0.81746781 4293729569
8.7668676 4.6147194 -1.7058855 4288085770
9.0956917 4.7814126 -1.3034307 4293729569
7.250998 3.8162501 -1.7423664 4288085770
9.8945284 5.1886625 -0.42975566 4293729569
6.9768076 3.6665261 -1.7659103 4288085770
3.7030132 1.9648359 -1.8064718 4288085770
4.3013577 2.2732317 -1.7874652 4288085770
5.7561212 3.0267596 -1.7888818 4288085770
9.0519705 4.7194304 -1.7093552 4288085770
9.1924438 4.7843451 -0.84458667 4293729569
7.4460592 3.8780529 -1.7446866 4288085770
9.2976542 4.8182058 -1.3517605 4293729569
3.6799994 1.93086 -1.7954295 4288085770
4.2923331 2.2452412 -1.7864467 4288085770
9.9765587 5.161582 -0.39688632 4293729569
6.9477491 3.6005561 -1.7628567 4288085770
9.2580585 4.7812228 -1.6956939 4288085770
5.7440782 2.9767725 -1.7858564 4288085770
7.5971136 3.9139006 -1.7349333 4288085770
9.2713737 4.7552638 -0.87271196 4293729569
4.2913084 2.2222424 -1.7884414 4288085770
9.3331137 4.7721496 -1.6568145 4293729569
9.3765793 4.7881236 -1.3818858 4293729569
10.058583 5.1315007 -0.3650167 4293729569
6.9396958 3.5465641 -1.7638381 4288085770
7.7871761 3.9667084 -1.7312448 4288085770
5.7420373 2.9327745 -1.7858479 4288085770
4.2902846 2.1972432 -1.7894361 4288085770
9.4391775 4.7780442 -1.6229866 4293729569
9.4003201 4.7511315 -0.9049204 4293729569
10.107594 5.0844526 -0.33209234 4293729569
9.5475283 4.802948 -1.4241636 4293729569
7.9862399 4.0225077 -1.7285712 4288085770
6.9566455 3.5035467 -1.7698607 4288085770
4.2842598 2.1692502 -1.7884221 4288085770
9.5242357 4.7709608 -1.5841237 4293729569
5.7369962 2.8857801 -1.7838341 4288085770
9.5242643 4.741004 -0.93512017 4293729569
8.1823015 4.0733094 -1.7238925 4288085770
10.215627 5.0643458 -0.30126578 4293729569
9.6002903 4.7578864 -1.5442455 4293729569
9.6214495 4.7678704 -1.4522805 4293729569
4.2892361 2.146245 -1.7904264 4288085770
6.9575934 3.4525456 -1.7718569 4288085770
5.7419581 2.8447752 -1.7838371 4288085770
8.3923674 4.1290975 -1.7202369 4288085770
9.8463869 4.8266377 -1.52965 4293729569
9.6682129 4.7388563 -0.96735328 4293729569
4.2902117 2.121244 -1.791424 4288085770
10.273635 5.0172892 -0.26935604 4293729569
9.8174009 4.7896705 -1.4985999 4293729569
6.9555421 3.3995483 -1.7728481 4288085770
8.6144333 4.1858735 -1.7166009 4288085770
9.850421 4.7746377 -1.4776523 4293729569
5.7419171 2.7997758 -1.7828313 4288085770
4.294189 2.0962408 -1.7914263 4288085770
9.850172 4.7526698 -1.0036492 4293729569
10.362655 4.9852018 -0.23949786 4293729569
9.9103231 4.7585735 -1.5287482 4293729569
8.8695049 4.2566142 -1.71802 4288085770
6.961493 3.3495419 -1.7738523 4288085770
10.046504 4.8134408 -1.4529731 4293729569
5.7518787 2.7597661 -1.7838423 4288085770
4.3091631 2.0762253 -1.7964469 4288085770
10.021125 4.7584944 -1.038927 4293729569
10.504696 4.9740601 -0.20972738 4293729569
10.128555 4.7953606 -1.4111047 4293729569
9.1045761 4.3143768 -1.7124054 4288085770
10.506362 4.9629636 -1.6357315 4293729569
6.966444 3.2995369 -1.7748549 4288085770
4.311141 2.0502238 -1.7954459 4288085770
5.7538409 2.7157638 -1.7818401 4288085770
10.216609 4.7782741 -1.3702461 4293729569
9.3436432 4.3691359 -1.7067972 4288085770
10.184073 4.7563276 -1.072191 4293729569
10.683752 4.9788804 -0.18101838 4293729569
11.010364 5.1134467 -1.7305617 4288085770
6.9763961 3.2505269 -1.7758657 4288085770
4.3111205 2.0222239 -1.7924416 4288085770
3.7348559 1.7568074 -1.7894851 4288085770
10.306662 4.7601857 -1.3283907 4293729569
3.7878768 1.7737542 -1.7875715 4288085770
9.6177197 4.4368587 -1.7042474 4288085770
5.7588038 2.6727595 -1.7798426 4288085770
3.8598943 1.7986819 -1.7936903 4288085770
10.350019 4.7521577 -1.10546 4293729569
10.911827 5.0026512 -0.15339021 4293729569
3.926914 1.8206139 -1.7957996 4288085770
4.3240991 2.0002117 -1.7944586 4288085770
10.945245 4.9985118 -1.7354455 4288085770
6.9803505 3.1985238 -1.7748655 4288085770
10.416718 4.7500772 -1.2895666 4293729569
3.8748865 1.7906666 -1.7947117 4288085770
3.8248651 1.7677175 -1.7936288 4288085770
3.7788439 1.7467639 -1.7935523 4288085770
3.924907 1.8126161 -1.7957946 4288085770
3.7588158 1.7367835 -1.8045188 4288085770
9.9318027 4.51754 -1.7067609 4288085770
4.0029325 1.8455366 -1.8009236 4288085770
3.9809287 1.8355592 -1.7968872 4288085770
4.0339513 1.8575054 -1.7969748 4288085770
4.0919757 1.8814466 -1.7970704 4288085770
5.7737703 2.6347451 -1.7798603 4288085770
4.1589956 1.9073784 -1.8011806 4288085770
4.0739536 1.8664645 -1.8020389 4288085770
4.2110229 1.9273262 -1.7972664 4288085770
10.518965 4.7469816 -1.1387293 4293729569
11.133898 5.0204253 -0.12474764 4293729569
4.271049 1.9492655 -1.7953647 4288085770
4.3340774 1.9752021 -1.7944688 4288085770
10.532777 4.7389603 -1.2497504 4293729569
3.7448161 1.7117988 -1.7904911 4288085770
4.3280768 1.9692082 -1.791458 4288085770
4.1339769 1.8824041 -1.7981361 4288085770
10.842122 4.8676143 -1.7322632 4288085770
6.9983063 3.1535046 -1.7768867 4288085770
10.281895 4.6111832 -1.7123328 4288085770
4.4021006 1.9951329 -1.7935793 4288085770
4.2159982 1.9073209 -1.8022697 4288085770
4.4761262 2.022058 -1.7947011 4288085770
5.7757349 2.5907426 -1.7768552 4288085770
4.5551534 2.0489779 -1.7958302 4288085770
10.662837 4.7328286 -1.2119575 4293729569
10.679909 4.7378144 -1.1709853 4293729569
11.360967 5.0361948 -0.096113019 4293729569
4.2900205 1.928246 -1.80239 4288085770
4.3470564 1.9521887 -1.7954841 4288085770
3.7817934 1.7017611 -1.8005462 4288085770
4.6301823 2.072902 -1.7939528 4288085770
10.697995 4.7277584 -1.7260139 4288085770
10.754005 4.7457018 -1.7301059 4288085770
7.0212631 3.1104805 -1.7789161 4288085770
4.3610454 1.9461744 -1.7995048 4288085770
4.7202082 2.1028109 -1.7971002 4288085770
4.7872415 2.1227431 -1.7902094 4288085770
10.804897 4.7296858 -1.1751844 4293729569
4.4380703 1.9660962 -1.7976297 4288085770
5.7937016 2.5527241 -1.7768768 4288085770
4.3580346 1.9271774 -1.7954959 4288085770
4.8752704 2.1506538 -1.7903533 4288085770
11.621045 5.0619297 -0.066532761 4293729569
10.868858 4.7356181 -1.2042873 4293729569
11.118096 4.8403306 -1.736701 4288085770
3.7837799 1.6747596 -1.794543 4288085770
4.5200934 1.9870133 -1.7977624 4288085770
4.9543037 2.172574 -1.7844819 4288085770
10.609885 4.5998464 -1.7178557 4288085770
7.0222192 3.0554786 -1.7749085 4288085770
10.958962 4.7295303 -1.1384306 4293729569
5.043335 2.1984839 -1.7826271 4288085770
4.6111174 2.0109208 -1.7989101 4288085770
4.3720169 1.9041634 -1.794513 4288085770
5.8106675 2.5147061 -1.7768967 4288085770
11.462184 4.9149799 -1.7322618 4288085770
5.134367 2.2243922 -1.7797753 4288085770
3.7977643 1.6537457 -1.7935598 4288085770
11.08081 4.7413979 -1.2406274 4293729569
4.6961427 2.0308349 -1.7970477 4288085770
5.2393994 2.2542851 -1.7799467 4288085770
10.515773 4.4769397 -1.7126887 4288085770
11.120025 4.7293668 -1.1026886 4293729569
7.0671768 3.020432 -1.7819744 4288085770
4.787169 2.0527425 -1.7961951 4288085770
5.3474321 2.2851756 -1.7801229 4288085770
4.3939943 1.883141 -1.7975428 4288085770
11.859282 5.007575 -1.7339102 4288085770
5.8296356 2.4766867 -1.7759198 4288085770
3.8177474 1.6347255 -1.7945864 4288085770
5.4644656 2.3180566 -1.7813137 4288085770
4.8781953 2.0736504 -1.7943425 4288085770
11.297758 4.7451735 -1.2779756 4293729569
11.268085 4.7212167 -1.0639246 4293729569
10.462672 4.3739915 -1.7135899 4288085770
7.0531354 2.9604456 -1.7729423 4288085770
5.5665016 2.3439529 -1.7764796 4288085770
4.9712234 2.0945561 -1.7914931 4288085770
4.410975 1.8601239 -1.7975646 4288085770
12.210367 5.0732169 -1.7254815 4288085770
5.6915359 2.3778265 -1.7776835 4288085770
3.841728 1.6167012 -1.7976196 4288085770
5.8536019 2.4406619 -1.7769513 4288085770
11.427145 4.7150559 -1.0261787 4293729569
5.0542526 2.1084723 -1.7836266 4288085770
11.515709 4.7459474 -1.313325 4293729569
5.7965746 2.4027197 -1.7708542 4288085770
7.1250963 2.9363708 -1.7850528 4288085770
10.409573 4.2700434 -1.7124909 4288085770
11.827314 4.8376107 -1.6138371 4293729569
4.4319553 1.8381025 -1.7985927 4288085770
5.1602788 2.1323645 -1.7837985 4288085770
5.9266114 2.4355879 -1.7700658 4288085770
11.584202 4.7048965 -0.9874292 4293729569
3.8657119 1.5986772 -1.798653 4288085770
5.8685703 2.4006464 -1.7739676 4288085770
5.2753057 2.1582477 -1.7849849 4288085770
11.755659 4.751698 -1.3507107 4293729569
6.0666499 2.4714453 -1.7702941 4288085770
11.800323 4.7466397 -1.5547822 4293729569
10.398482 4.184052 -1.7174617 4288085770
7.1100559 2.8743861 -1.7740189 4288085770
4.4529352 1.8150811 -1.7986206 4288085770
5.3813343 2.1791399 -1.7821563 4288085770
6.2106886 2.506299 -1.7695286 4288085770
11.748261 4.6957302 -0.94869113 4293729569
3.8876948 1.5776551 -1.7986823 4288085770
5.8945389 2.3646195 -1.7740024 4288085770
6.371727 2.5471351 -1.7727913 4288085770
11.986604 4.7504597 -1.3870813 4293729569
5.4943628 2.2000253 -1.7793388 4288085770
12.046385 4.7653885 -1.5311793 4293729569
4.4799161 1.7950536 -1.8006591 4288085770
7.1330171 2.8283615 -1.772048 4288085770
10.400395 4.1030478 -1.7234538 4288085770
11.883309 4.6715927 -0.90690482 4293729569
6.5217695 2.5819824 -1.7700354 4288085770
5.63239 2.2308848 -1.7835631 4288085770
3.9136775 1.5596286 -1.8007188 4288085770
5.9375072 2.3355749 -1.7780653 4288085770
6.6938114 2.622807 -1.7713156 4288085770
12.171419 4.7312622 -1.4923757 4293729569
12.202548 4.7402353 -1.4194268 4293729569
5.7564192 2.2537587 -1.7817637 4288085770
4.5038953 1.7720293 -1.8016918 4288085770
12.079372 4.6693935 -0.87021935 4293729569
7.1649804 2.7863286 -1.7710922 4288085770
10.39831 4.0210471 -1.7284397 4288085770
6.8738561 2.6656241 -1.7726091 4288085770
3.9396608 1.5406023 -1.8017551 4288085770
5.8794498 2.2746334 -1.7779623 4288085770
12.342463 4.7130876 -1.4576483 4293729569
5.9584761 2.2965534 -1.7760917 4288085770
7.0528989 2.7054415 -1.7729007 4288085770
12.379478 4.7120504 -1.4477077 4293729569
4.5288763 1.7500038 -1.8017263 4288085770
12.322447 4.6821461 -0.8356114 4293729569
7.2059431 2.7462857 -1.772151 4288085770
6.0124793 2.2984984 -1.7761779 4288085770
10.419229 3.9470232 -1.7354634 4288085770
7.2409453 2.7472501 -1.772207 4288085770
3.9716408 1.5235698 -1.8058013 4288085770
15.029988 5.6283383 -1.7110814 4288085770
6.1645093 2.3273432 -1.7774243 4288085770
5.9954438 2.2625151 -1.7771444 4288085770
12.664543 4.7267976 -0.80716681 4293729569
4.5608568 1.7299711 -1.8037726 4288085770
14.684803 5.4666877 -1.7245069 4288085770
7.4459929 2.793041 -1.7735413 4288085770
7.2589045 2.7102306 -1.7762299 4288085770
10.433149 3.8710065 -1.7404757 4288085770
6.3095412 2.3521953 -1.7756592 4288085770
3.9886291 1.4995531 -1.8008225 4288085770
7.6770415 2.844805 -1.777918 4288085770
15.571098 5.7217851 -1.7059639 4288085770
4.6008344 1.7119303 -1.8088319 4288085770
6.0444126 2.2334645 -1.7812172 4288085770
14.752694 5.3756137 -1.7386061 4288085770
6.4655709 2.3790364 -1.7759119 4288085770
7.8730903 2.8826058 -1.773237 4288085770
7.3008699 2.6691873 -1.7752903 4288085770
10.441068 3.7919958 -1.7444779 4288085770
16.156216 5.8261871 -1.7039188 4288085770
4.0296068 1.4855111 -1.8078836 4288085770
6.6196032 2.4028795 -1.7731613 4288085770
8.1161423 2.9343576 -1.7756332 4288085770
4.6268182 1.6889038 -1.8068682 4288085770
6.0753841 2.1974325 -1.77926 4288085770
14.779581 5.2705812 -1.7456373 4288085770
7.3408351 2.6271453 -1.7733475 4288085770
8.3481941 2.979121 -1.7730111 4288085770
6.7906342 2.4307051 -1.7734382 4288085770
10.498994 3.7309339 -1.754563 4288085770
16.828344 5.951499 -1.7080169 4288085770
4.0635915 1.4674766 -1.808933 4288085770
4.6468024 1.6628838 -1.8028944 4288085770
8.6102505 3.0318532 -1.7744383 4288085770
6.1183543 2.1653881 -1.7803229 4288085770
6.9806652 2.4635108 -1.7767467 4288085770
14.829474 5.1725273 -1.7537067 4288085770
7.3987989 2.5900853 -1.7754344 4288085770
17.577482 6.091733 -1.7142411 4288085770
10.560919 3.669868 -1.7656546 4288085770
4.101572 1.4504378 -1.8129889 4288085770
8.9143076 3.0955424 -1.7809346 4288085770
7.1596985 2.4893281 -1.7750367 4288085770
4.69278 1.6448365 -1.8079634 4288085770
6.1673241 2.1343374 -1.7823955 4288085770
14.886369 5.0764647 -1.7617877 4288085770
9.2253656 3.1582246 -1.786442 4288085770
18.290607 6.2100024 -1.7144055 4288085770
7.3907275 2.5320919 -1.7854124 4288085770
7.4647641 2.5560169 -1.7785345 4288085770
4.1355562 1.4324032 -1.8140384 4288085770
10.632851 3.6127923 -1.7757628 4288085770
4.7237649 1.622805 -1.8060079 4288085770
9.4814262 3.1999633 -1.7778587 4288085770
7.5517645 2.5469279 -1.7746723 4288085770
6.2082963 2.1002951 -1.7814548 4288085770
14.935265 4.9774108 -1.7678555 4288085770
19.157764 6.368114 -1.7238233 4288085770
7.5247302 2.5199544 -1.7796249 4288085770
4.1645422 1.411374 -1.8120794 4288085770
10.683778 3.5477374 -1.7828364 4288085770
9.8274889 3.2666094 -1.7834234 4288085770
4.7617455 1.6007662 -1.8070636 4288085770
7.773797 2.5807006 -1.7780328 4288085770
6.2582674 2.0692434 -1.7825294 4288085770
10.165553 3.3272638 -1.7839748 4288085770
14.971162 4.87537 -1.7709023 4288085770
7.581697 2.4818954 -1.7787102 4288085770
7.9788299 2.6054912 -1.7753649 4288085770
4.2075229 1.3943299 -1.8161434 4288085770
10.722708 3.4786952 -1.7858902 4288085770
4.7937307 1.5777336 -1.8041096 4288085770
10.541622 3.3968792 -1.7875886 4288085770
8.205863 2.6352589 -1.7757331 4288085770
6.3212376 2.0401783 -1.7856249 4288085770
15.054066 4.7862811 -1.7770264 4288085770
7.648665 2.4448264 -1.7788119 4288085770
4.2425079 1.3742945 -1.8151944 4288085770
10.887691 3.4515252 -1.7831523 4288085770
4.8357129 1.5576906 -1.8051721 4288085770
10.779637 3.4126346 -1.7909734 4288085770
8.4308958 2.6610286 -1.7740977 4288085770
6.3702106 2.0081277 -1.7846977 4288085770
11.238759 3.5041659 -1.7767241 4288085770
14.892942 4.6204429 -1.752748 4288085770
7.7186346 2.4087536 -1.7779187 4288085770
4.2814913 1.3552549 -1.8162519 4288085770
4.8796954 1.5366458 -1.8052378 4288085770
8.6819315 2.6927717 -1.7745051 4288085770
10.826567 3.3435845 -1.7940403 4288085770
11.603827 3.5567923 -1.7693188 4288085770
6.4111843 1.9710855 -1.7807571 4288085770
8.9249659 2.718523 -1.7718992 4288085770
14.81583 4.4825187 -1.7386085 4293729569
4.3264747 1.3382088 -1.8183193 4288085770
7.7916021 2.372678 -1.7780304 4288085770
4.9256773 1.5165987 -1.806307 4288085770
11.994902 3.6123924 -1.761956 4288085770
10.8795 3.2765279 -1.7961172 4288085770
9.2029991 2.7512379 -1.7743508 4288085770
6.4891543 1.9460046 -1.7858776 4288085770
12.437978 3.6779385 -1.7586784 4288085770
14.873739 4.3854556 -1.7376915 4293729569
4.3544631 1.3151805 -1.8133588 4288085770
4.9696603 1.4945536 -1.8053725 4288085770
7.8805718 2.3415859 -1.7801684 4288085770
10.949436 3.2144539 -1.8002223 4288085770
9.4830341 2.780951 -1.7748052 4288085770
12.901055 3.7444642 -1.7554337 4288085770
6.5531273 1.9159389 -1.7869748 4288085770
5.0136447 1.4735086 -1.8044384 4288085770
4.3964477 1.2961378 -1.8134212 4288085770
14.964653 4.2993584 -1.7388293 4293729569
7.9605417 2.3065031 -1.7792916 4288085770
9.798068 2.8176279 -1.7783171 4288085770
11.01137 3.1483881 -1.802314 4288085770
13.40714 3.8169456 -1.7522591 4288085770
6.6221018 1.8868675 -1.7870806 4288085770
5.0706263 1.4544501 -1.8065255 4288085770
4.4404345 1.2770929 -1.8124871 4288085770
10.127103 2.8532903 -1.7828517 4288085770
8.0515099 2.2734089 -1.7804331 4288085770
15.134576 4.2321801 -1.7480969 4293729569
13.934224 3.8884048 -1.7481189 4288085770
11.082307 3.0843132 -1.8044206 4288085770
10.473136 2.889935 -1.7874142 4288085770
5.1256104 1.4343936 -1.8066094 4288085770
6.6930737 1.8567942 -1.7881896 4288085770
14.552318 3.9797719 -1.7511282 4293729569
4.4844193 1.2580482 -1.812553 4288085770
8.1454811 2.2393112 -1.7805792 4288085770
15.341505 4.1739645 -1.7594256 4293729569
11.137244 3.0152543 -1.802501 4288085770
10.867171 2.9335303 -1.7960552 4288085770
15.245417 4.0810604 -1.7572602 4293729569
5.1815934 1.4143362 -1.8066949 4288085770
6.773047 1.8287116 -1.7903132 4288085770
4.5334034 1.2389981 -1.812627 4288085770
8.2534523 2.2091999 -1.7817484 4288085770
15.51743 4.1047802 -1.765703 4288085770
11.227204 2.9641604 -1.7976401 4288085770
15.904514 4.1653843 -1.753336 4293729569
11.195183 2.9451928 -1.7995862 4288085770
5.2345786 1.3922819 -1.8047751 4288085770
4.5873871 1.2219428 -1.8147094 4288085770
6.848021 1.7986341 -1.7904289 4288085770
8.40242 2.188046 -1.7919854 4288085770
15.690355 4.0325994 -1.7689756 4288085770
11.562239 2.9838164 -1.7921834 4288085770
16.52861 4.2337437 -1.7413538 4293729569
11.257122 2.8771269 -1.797678 4288085770
5.2945614 1.3722204 -1.8048673 4288085770
4.6353741 1.2018938 -1.8127818 4288085770
6.9259963 1.7685537 -1.7895494 4288085770
11.930271 3.0064385 -1.7887809 4288085770
8.5013924 2.1529431 -1.78914 4288085770
17.228712 4.3120251 -1.7324958 4293729569
15.908285 3.9683716 -1.7763221 4288085770
11.344065 2.8150356 -1.7968111 4288085770
5.3595452 1.3521535 -1.8049676 4288085770
4.6863589 1.1818415 -1.8118591 4288085770
12.356305 3.0380001 -1.7914733 4288085770
18.298843 4.4699264 -1.7532461 4288085770
7.0249677 1.7434511 -1.7937046 4288085770
8.6323643 2.1238074 -1.7913471 4288085770
16.112215 3.8991585 -1.7796457 4288085770
5.4235296 1.3320879 -1.8040664 4288085770
11.418006 2.7469575 -1.7929227 4288085770
12.797338 3.0685468 -1.7941903 4288085770
4.747344 1.1647791 -1.812953 4288085770
7.1219416 1.7163512 -1.7958564 4288085770
8.7673359 2.0946681 -1.7935606 4288085770
16.373148 3.8408871 -1.7870629 4288085770
5.4925137 1.3120172 -1.8041734 4288085770
13.380369 3.1259468 -1.8131404 4288085770
11.52895 2.6888416 -1.7940954 4288085770
4.795332 1.14473 -1.8100257 4288085770
7.2159162 1.6872537 -1.7960032 4288085770
8.9143076 2.0675159 -1.7957941 4288085770
16.619083 3.7766306 -1.7904553 4288085770
13.994401 3.1823144 -1.8321409 4288085770
5.5714955 1.2939358 -1.8062967 4288085770
4.8543186 1.1256695 -1.8091164 4288085770
11.650896 2.632714 -1.7952862 4288085770
7.31989 1.6591464 -1.7971665 4288085770
9.07728 2.0413473 -1.800054 4288085770
14.715436 3.253572 -1.8593171 4288085770
5.656477 1.2768482 -1.80943 4288085770
16.881018 3.7123578 -1.7938741 4288085770
4.9213018 1.1076008 -1.81022 4288085770
11.780841 2.574578 -1.7954899 4288085770
7.4308643 1.6330316 -1.7993414 4288085770
9.2492523 2.0171692 -1.8043286 4288085770
15.343463 3.2949247 -1.8713394 4288085770
5.7434587 1.2587585 -1.8115665 4288085770
4.3091993 0.95322919 -1.7772096 4288085770
4.4461923 0.98108768 -1.7994343 4288085770
17.192957 3.6540334 -1.798375 4288085770
4.531209 0.99700058 -1.7995737 4288085770
4.9702945 1.0865507 -1.8042945 4288085770
4.6232266 1.0139065 -1.7997245 4288085770
4.7152462 1.0308121 -1.7988751 4288085770
4.8262582 1.0506982 -1.8040568 4288085770
4.3341823 0.94620323 -1.7842479 4288085770
11.918788 2.5184338 -1.7957071 4288085770
4.9252777 1.0675968 -1.8032188 4288085770
7.5718322 1.6108855 -1.8075655 4288085770
4.4731755 0.97005975 -1.8044754 4288085770
5.0282965 1.0844911 -1.8023871 4288085770
9.4022255 1.9850111 -1.8035716 4288085770
15.89749 3.3133538 -1.8702401 4288085770
5.1263204 1.0993912 -1.7975471 4288085770
4.5641909 0.98296666 -1.8036236 4288085770
5.8184443 1.2376816 -1.8096834 4288085770
5.2383409 1.1172764 -1.7967302 4288085770
4.6712012 0.99885678 -1.8077981 4288085770
5.3573608 1.1361544 -1.7969247 4288085770
17.496897 3.5927174 -1.8008626 4288085770
5.0242844 1.0654955 -1.7993771 4288085770
4.7662172 1.0107595 -1.8059528 4288085770
5.4753823 1.1530334 -1.7951173 4288085770
4.8692341 1.024654 -1.8051206 4288085770
5.6323938 1.176872 -1.8033738 4288085770
12.071733 2.4622746 -1.7969487 4288085770
7.6818099 1.5817719 -1.8057388 4288085770
9.5782003 1.957829 -1.804853 4288085770
16.392515 3.3128433 -1.8590435 4288085770
5.7804112 1.1987201 -1.8076156 4288085770
4.9702525 1.0365505 -1.802285 4288085770
5.9104266 1.2195866 -1.8118281 4288085770
5.9344292 1.2205619 -1.810867 4288085770
5.0772686 1.0484409 -1.8004588 4288085770
5.1042666 1.049413 -1.8025024 4288085770
6.0934472 1.2423987 -1.8141266 4288085770
17.843838 3.5353565 -1.8044208 4288085770
5.1882858 1.0613272 -1.7986397 4288085770
6.2454705 1.2612427 -1.8123745 4288085770
5.3113012 1.075201 -1.7988397 4288085770
7.8247809 1.557624 -1.8109663 4288085770
12.249681 2.410089 -1.7992315 4288085770
16.85253 3.2973692 -1.8427891 4288085770
9.7751741 1.9316251 -1.8071684 4288085770
6.4184914 1.2830652 -1.8146566 4288085770
6.0114079 1.2034824 -1.8149881 4288085770
5.4273205 1.0870821 -1.7950282 4288085770
6.5765181 1.3019032 -1.8109144 4288085770
5.1772504 1.031338 -1.8036163 4288085770
5.5703325 1.1019351 -1.7982609 4288085770
6.7615414 1.3237132 -1.811216 4288085770
18.23678 3.4819489 -1.8090543 4288085770
5.7223444 1.1187791 -1.8025085 4288085770
6.9235711 1.3395473 -1.8034799 4288085770
17.299545 3.2749078 -1.8225127 4288085770
7.9627552 1.5304813 -1.8121853 4288085770
9.9901457 1.9074026 -1.8115133 4288085770
6.0983953 1.1823931 -1.8121246 4288085770
12.423628 2.3549078 -1.8005075 4288085770
5.8773556 1.1346198 -1.8067607 4288085770
7.1275949 1.3623378 -1.8048126 4288085770
5.2472396 1.012266 -1.8007255 4288085770
6.0323672 1.1484604 -1.8090127 4288085770
7.3316193 1.3831282 -1.804145 4288085770
18.667725 3.4305012 -1.8137501 4288085770
17.873558 3.2683153 -1.814445 4288085770
6.2103753 1.1662773 -1.8163024 4288085770
6.2133775 1.1662743 -1.8153075 4288085770
7.570641 1.4098824 -1.8085349 4288085770
8.1057291 1.5043334 -1.8144128 4288085770
10.227118 1.8851573 -1.8168947 4288085770
12.606576 2.2987175 -1.7997983 4288085770
5.3232255 0.99418795 -1.7998441 4288085770
6.3843913 1.1810985 -1.8175855 4288085770
7.8136659 1.4346327 -1.8099312 4288085770
8.0596905 1.4573798 -1.8103319 4288085770
6.5484095 1.1929301 -1.814852 4288085770
6.3013639 1.1451836 -1.8124458 4288085770
19.19367 3.3889561 -1.8246015 4288085770
18.614569 3.2815502 -1.8186506 4288085770
10.465092 1.859911 -1.8202772 4288085770
8.2806978 1.4811522 -1.8216928 4288085770
8.3407125 1.4850909 -1.8147904 4288085770
6.7204266 1.2047533 -1.8131315 4288085770
5.4072104 0.9761014 -1.7999761 4288085770
12.822524 2.2464926 -1.8021431 4288085770
8.6477356 1.5147748 -1.8212911 4288085770
6.8914461 1.2155777 -1.8094094 4288085770
6.4233441 1.1290576 -1.81664 4288085770
19.340574 3.2828004 -1.8198313 4288085770
19.71262 3.3414178 -1.8294414 4288085770
8.9587593 1.5424547 -1.8257983 4288085770
10.716066 1.8346514 -1.8226812 4288085770
8.4376736 1.4539897 -1.8219433 4288085770
7.0594678 1.2234052 -1.8016819 4288085770
5.4861989 0.95802033 -1.7981002 4288085770
13.071473 2.1982334 -1.8065425 4288085770
9.2527914 1.5651524 -1.8222774 4288085770
7.2704802 1.2371881 -1.8040251 4288085770
6.5233331 1.1079545 -1.8127983 4288085770
9.582819 1.5908128 -1.8228154 4288085770
7.485497 1.2499671 -1.8033745 4288085770
10.989042 1.8113687 -1.8261213 4288085770
8.6476393 1.4347724 -1.8332807 4288085770
5.5851812 0.94091821 -1.8002568 4288085770
