# .PCD v0.7 - Point Cloud Data file format
VERSION 0.7
FIELDS x y z rgb
SIZE 4 4 4 4
TYPE F F F U
COUNT 1 1 1 1
WIDTH 1113
HEIGHT 1
VIEWPOINT 0 0 0 1 0 0 0
POINTS 1113
DATA ascii
4.9980164 5.294878 -1.7350721 4288085770
12.296265 8.0955257 -1.684495 4288085770
5.0975952 5.4318771 -1.7332206 4288085770
5.2564697 5.5960321 -1.737514 4288085770
5.4519043 5.7778931 -1.7451377 4288085770
5.6325684 5.9554849 -1.7482395 4288085770
5.8310242 6.1444302 -1.7520032 4288085770
6.0562134 6.3469081 -1.7557411 4288085770
6.243866 6.5356703 -1.7531409 4288085770
6.4759521 6.7483029 -1.7531705 4288085770
6.7704163 6.9891548 -1.7584529 4288085770
7.0657654 7.2370367 -1.761806 4288085770
7.3819275 7.4993353 -1.7639403 4288085770
7.7218628 7.776124 -1.7639551 4288085770
8.0311584 8.0423241 -1.7588816 4288085770
8.560791 8.4208221 -1.7728481 4288085770
11.615112 0.66401553 -1.6043758 4288085770
10.377197 0.59846759 -1.6164675 4288085770
9.3529663 0.54209948 -1.6367869 4288085770
8.4836121 0.49378753 -1.6583524 4288085770
7.6524353 0.45026207 -1.6742206 4288085770
6.8703918 0.41274118 -1.6837702 4288085770
6.0855713 0.3802228 -1.6832495 4288085770
12.423615 0.38091564 -1.5878773 4288085770
5.3856201 0.3513658 -1.6856008 4288085770
11.063934 0.34294915 -1.6040454 4288085770
4.7746887 0.32625723 -1.6899581 4288085770
9.8562622 0.30999255 -1.6193438 4288085770
4.2415161 0.30366206 -1.698945 4288085770
8.8804932 0.28258801 -1.6404581 4288085770
3.7394104 0.28469682 -1.7049937 4293729569
8.0416565 0.25988531 -1.6621971 4288085770
3.2882996 0.26773143 -1.7127633 4293729569
7.1851807 0.23989296 -1.6733503 4288085770
2.9049683 0.25207496 -1.725822 4293729569
6.4067688 0.22446156 -1.6811481 4288085770
2.5566711 0.23911214 -1.739068 4288085770
5.6764221 0.21200299 -1.6845765 4288085770
2.241272 0.22678757 -1.754425 4288085770
4.9951782 0.20152473 -1.6866603 4288085770
1.9527893 0.21598434 -1.7716956 4288085770
4.4397583 0.19249201 -1.6959782 4288085770
1.6703491 0.20731711 -1.7861805 4288085770
3.9034729 0.18486738 -1.699945 4293729569
1.4169922 0.19922376 -1.8006411 4288085770
3.447052 0.17978907 -1.7096076 4293729569
1.1307678 0.1925199 -1.8080068 4288085770
3.0405579 0.17368293 -1.7219434 4293729569
0.89242554 0.18773866 -1.8199887 4288085770
2.6829834 0.16953158 -1.7369318 4288085770
0.67996216 0.1824522 -1.8348408 4288085770
2.3384705 0.1666491 -1.7493658 4288085770
0.47354126 0.17828894 -1.8489008 4288085770
2.0587463 0.16400552 -1.769979 4288085770
0.26516724 0.17610407 -1.8599067 4288085770
1.7513123 0.16287065 -1.7796664 4288085770
0.034118652 0.17452049 -1.8621464 4288085770
1.5115967 0.16201496 -1.8006315 4288085770
-0.20785522 0.1747489 -1.8590293 4288085770
1.2153015 0.16312647 -1.8057017 4288085770
-0.45068359 0.17598939 -1.8508868 4288085770
0.95388794 0.16491175 -1.8139491 4288085770
-0.76092529 0.1810081 -1.8224902 4288085770
0.74029541 0.1665988 -1.8298044 4288085770
-0.99563599 0.18342829 -1.8106241 4288085770
0.50491333 0.16889882 -1.8379264 4288085770
-1.1865845 0.18666816 -1.8072348 4288085770
0.30740356 0.1719234 -1.8503275 4288085770
-1.3596497 0.18924642 -1.8064456 4288085770
0.093048096 0.17664433 -1.8571696 4288085770
-1.5306396 0.19287825 -1.8037305 4288085770
-0.14306641 0.18197989 -1.8562789 4288085770
-1.6926575 0.1966784 -1.8023167 4288085770
-0.39099121 0.18812108 -1.8479943 4288085770
-1.8377686 0.20079899 -1.8034754 4288085770
-0.69238281 0.19629836 -1.8229136 4288085770
-1.9718933 0.20512938 -1.8060031 4288085770
-0.93115234 0.20465136 -1.8089452 4288085770
-2.0970459 0.20963502 -1.8088341 4288085770
-1.1102905 0.21110773 -1.8089747 4288085770
-2.222168 0.21414733 -1.8106647 4288085770
-1.3071899 0.21825457 -1.8014064 4288085770
-2.3531494 0.21956682 -1.8083005 4288085770
-1.4703064 0.22502875 -1.8009739 4288085770
-2.4802246 0.22606349 -1.8060775 4288085770
-1.6194763 0.23207211 -1.8020124 4288085770
-1.7607117 0.24026465 -1.8043265 4288085770
-1.9156799 0.24822712 -1.7991714 4288085770
-2.053772 0.25650024 -1.7975888 4288085770
-2.1621094 0.26432037 -1.8040056 4288085770
-2.2851868 0.27188563 -1.8039203 4288085770
-2.4132385 0.28137326 -1.7996807 4288085770
-2.4417725 2.2992177 -1.7784791 4288085770
-2.3260498 2.3254907 -1.7785382 4288085770
-2.209259 2.3497901 -1.7776208 4288085770
-2.1003723 2.3709474 -1.7744188 4288085770
-2.006073 2.3848541 -1.7636762 4288085770
-1.8743286 2.4104452 -1.7632709 4288085770
-1.7455139 2.4339838 -1.761755 4288085770
-1.5900269 2.4660175 -1.7661915 4288085770
-2.4024658 2.2118387 -1.7903056 4288085770
-1.453125 2.4887235 -1.7629418 4288085770
-2.3161316 2.2195799 -1.7812576 4288085770
-1.2994995 2.5157349 -1.7642856 4288085770
-2.2100525 2.2326784 -1.7779107 4288085770
-1.1377869 2.5439112 -1.7649064 4288085770
-2.0921326 2.2480001 -1.7769785 4288085770
-0.99084473 2.5648222 -1.759985 4288085770
-1.9848938 2.2581306 -1.7716494 4288085770
-0.822052 2.5901413 -1.7598262 4288085770
-1.8422546 2.2789121 -1.7755876 4288085770
-0.61865234 2.6261075 -1.7659016 4288085770
-1.7270203 2.2891998 -1.7705293 4288085770
-0.42703247 2.6548648 -1.7675357 4288085770
-1.5901184 2.3038836 -1.7712331 4288085770
-0.23431396 2.6826482 -1.7681994 4288085770
-1.4551086 2.3175402 -1.769865 4288085770
-0.054290771 2.7032113 -1.7633886 4288085770
-1.293396 2.3366909 -1.7744346 4288085770
0.15148926 2.7302597 -1.7624869 4288085770
-1.1690979 2.3431656 -1.7676597 4288085770
0.36331177 2.7564261 -1.7617826 4288085770
-1.0190735 2.3561158 -1.7667942 4288085770
0.54956055 2.7721307 -1.7531505 4288085770
-0.86798096 2.3670883 -1.7649522 4288085770
0.78921509 2.8018351 -1.7544079 4288085770
-0.69216919 2.3835211 -1.7689776 4288085770
0.99835205 2.8199737 -1.7485623 4288085770
-0.48757935 2.4044969 -1.7770047 4288085770
1.2462769 2.8448591 -1.7460666 4288085770
-0.32437134 2.4127169 -1.7735519 4288085770
1.4952698 2.8677711 -1.7425942 4288085770
-0.15219116 2.4211068 -1.7714043 4288085770
1.7473145 2.8887405 -1.739212 4288085770
0.068450928 2.440393 -1.7799606 4288085770
2.0113831 2.9089577 -1.734231 4288085770
0.23193359 2.4406414 -1.7724681 4288085770
2.2953796 2.9315543 -1.730937 4288085770
0.43896484 2.4506993 -1.7735066 4288085770
2.5587769 2.944777 -1.7218862 4288085770
0.62136841 2.4523034 -1.7686605 4288085770
2.8886414 2.9712651 -1.7211623 4288085770
0.81280518 2.4530919 -1.7631116 4288085770
3.2335205 2.9970427 -1.7209396 4288085770
1.0290222 2.4583354 -1.7624297 4288085770
3.526062 3.0068471 -1.7098503 4288085770
1.2146606 2.4530199 -1.7546477 4288085770
2.8987732 2.8022802 -1.5603886 4293729569
1.4350281 2.4533567 -1.7520742 4288085770
2.8581543 2.7347803 -1.5015783 4293729569
1.6525574 2.4496496 -1.7473779 4288085770
2.9573669 2.6979208 -1.463676 4293729569
1.8661804 2.4428751 -1.7405324 4288085770
2.9742126 2.6415009 -1.4148755 4293729569
2.0839233 2.4331896 -1.7328053 4288085770
3.145874 2.6170108 -1.387495 4293729569
2.3255005 2.4269505 -1.7289038 4288085770
3.4288635 2.611649 -1.3719873 4293729569
2.5820312 2.4199941 -1.7265038 4288085770
3.6661987 2.5954204 -1.350873 4293729569
2.8515625 2.4122913 -1.7245378 4288085770
3.9811401 2.5896735 -1.3374414 4293729569
3.1292114 2.4027541 -1.7218318 4288085770
4.2962646 2.578948 -1.3209839 4293729569
3.4208069 2.3914804 -1.7205873 4288085770
4.6104736 2.5652077 -1.3034763 4293729569
3.7235413 2.3774362 -1.7176991 4288085770
5.0182495 2.5632668 -1.294198 4293729569
4.0184021 2.359241 -1.7135196 4288085770
5.4461365 2.5587211 -1.2845788 4293729569
4.3411255 2.3425837 -1.7112913 4288085770
5.8990479 2.5536671 -1.2748003 4293729569
4.6491394 2.3186476 -1.7065187 4288085770
6.4337463 2.5541949 -1.269814 4293729569
4.9612732 2.2908063 -1.699861 4288085770
10.712616 3.1046667 -1.5884957 4288085770
5.2904053 2.2612867 -1.6947656 4288085770
11.48349 3.1038303 -1.5844564 4288085770
5.6345215 2.2300591 -1.6901674 4288085770
12.301575 3.0979342 -1.5779757 4288085770
6.0205383 2.2006316 -1.689991 4288085770
6.3849182 2.1608076 -1.6840196 4288085770
6.7275085 2.1145744 -1.6742749 4288085770
7.0612793 2.0631723 -1.663198 4288085770
7.4599609 2.0120244 -1.656311 4288085770
7.8387451 1.9554943 -1.6477222 4288085770
8.2306213 1.8942155 -1.639545 4288085770
8.6475525 1.8304256 -1.6321964 4288085770
9.0697021 1.7597471 -1.6229792 4288085770
9.5516663 1.6892101 -1.619782 4288085770
9.967041 1.6074021 -1.6092687 4288085770
10.512177 1.5270927 -1.6081405 4288085770
10.985626 1.4374013 -1.6015368 4288085770
11.532104 1.3431261 -1.5983663 4288085770
12.077789 1.241838 -1.5941253 4288085770
12.513702 -4.9056392 -1.0736156 4293729569
12.483582 -5.045424 -1.1007495 4293729569
12.318848 -6.0193477 -1.3482919 4293729569
11.77066 -5.9841552 -1.3550415 4293729569
11.253448 -5.9523664 -1.3638163 4293729569
10.740204 -5.9134917 -1.3717656 4293729569
10.24884 -5.8751988 -1.381453 4293729569
9.7102356 -5.8128219 -1.385684 4293729569
6.5571594 -4.7542272 -0.44346571 4293729569
6.4286499 -4.7417617 -1.1596341 4293729569
6.4502258 -4.817553 -0.47948694 4293729569
6.3961487 -4.8306518 -1.1990061 4293729569
6.4247437 -4.9083056 -0.51908541 4293729569
6.4158936 -4.9395461 -1.2430186 4293729569
7.8458252 -5.5936208 -1.4202337 4293729569
7.4051514 -5.5313182 -1.4287734 4293729569
6.9884338 -5.4705501 -1.4381127 4293729569
6.5163574 -5.381825 -1.4407568 4293729569
6.0623474 -5.2947478 -1.4439979 4293729569
5.6444092 -5.2139773 -1.4494171 4293729569
5.2555847 -5.1406407 -1.4557724 4293729569
4.8988342 -5.0756917 -1.4651585 4293729569
4.5370178 -5.0018306 -1.4724259 4293729569
4.2224426 -4.9440646 -1.4831877 4293729569
3.8916626 -4.8735995 -1.4914818 4293729569
9.0874634 -7.2883401 -1.3474383 4293729569
3.5708923 -4.8019338 -1.4991207 4293729569
8.4709473 -7.1105294 -1.3677788 4293729569
3.255127 -4.7281604 -1.5049405 4293729569
7.8805847 -6.9361997 -1.3869781 4293729569
2.9463501 -4.6552596 -1.5129905 4293729569
7.3002319 -6.7576547 -1.4035397 4293729569
2.6425781 -4.577239 -1.5172396 4293729569
6.6665649 -6.5440917 -1.4095149 4293729569
2.3980408 -4.5241103 -1.5303349 4293729569
6.129364 -6.3696876 -1.4235053 4293729569
2.1263428 -4.4544845 -1.5386143 4293729569
5.5902405 -6.1852851 -1.431488 4293729569
1.8787537 -4.3923922 -1.5476608 4293729569
5.1014404 -6.0189061 -1.4410553 4293729569
1.6502075 -4.3349347 -1.5583215 4293729569
4.6588745 -5.8686433 -1.454082 4293729569
1.416626 -4.2725687 -1.5678415 4293729569
4.2243652 -5.7162013 -1.4633932 4293729569
1.1940613 -4.2109828 -1.5767288 4293729569
3.7798157 -5.551929 -1.4684348 4293729569
0.99053955 -4.1570454 -1.5892124 4293729569
3.384552 -5.4067073 -1.4760227 4293729569
0.79714966 -4.1039014 -1.6000299 4293729569
3.0113831 -5.2680573 -1.4843154 4293729569
0.57351685 -4.0313106 -1.6049466 4293729569
2.6735229 -5.1417241 -1.4937186 4293729569
0.37503052 -3.9692454 -1.6126471 4293729569
2.3728333 -5.0326867 -1.5072708 4293729569
0.18151855 -3.907083 -1.6205168 4293729569
2.0942993 -4.9302163 -1.5205297 4293729569
0.055328369 -3.8786755 -1.6404495 4293729569
1.798645 -4.8140454 -1.5282941 4293729569
-0.021728516 -3.8753676 -1.6708899 4293729569
1.5432434 -4.7161193 -1.5413032 4293729569
-0.074645996 -3.8836155 -1.7060719 4293729569
1.3140564 -4.6296849 -1.5551238 4293729569
-0.12265015 -3.8937798 -1.7434115 4293729569
1.092865 -4.5420961 -1.569221 4293729569
-0.17666626 -3.8980494 -1.7785821 4288085770
0.86862183 -4.4515529 -1.5812354 4293729569
-0.27389526 -3.876102 -1.8034549 4288085770
0.64346313 -4.3570127 -1.59024 4293729569
-0.48248291 -3.78616 -1.7989807 4288085770
0.42828369 -4.2642751 -1.5995712 4293729569
-0.66000366 -3.7126446 -1.800458 4288085770
0.2081604 -4.1656065 -1.6037707 4293729569
-0.82043457 -3.6448092 -1.8044748 4288085770
0.010101318 -4.0765338 -1.6126561 4293729569
-0.97583008 -3.5788717 -1.8076501 4288085770
-0.19088745 -3.9824872 -1.6164708 4293729569
-1.1282349 -3.5118685 -1.8099332 4288085770
-0.36679077 -3.9009776 -1.6250558 4293729569
-1.2595215 -3.4554815 -1.8168631 4288085770
-0.43713379 -3.8795362 -1.6558337 4293729569
-1.401886 -3.3892837 -1.819479 4288085770
-0.46633911 -3.8803406 -1.6948662 4293729569
-1.5301208 -3.3298197 -1.8235288 4288085770
-0.48657227 -3.8849802 -1.7361789 4293729569
-1.6574402 -3.2683296 -1.8266244 4288085770
-0.48770142 -3.8992758 -1.7820759 4288085770
-1.8036804 -3.1941676 -1.822154 4288085770
-0.58026123 -3.8562169 -1.8042378 4288085770
-1.9148865 -3.1393719 -1.8267512 4288085770
-0.75808716 -3.7606916 -1.8038397 4288085770
-2.0160522 -3.0883937 -1.833663 4288085770
-0.92279053 -3.6709075 -1.8028483 4288085770
-2.1242065 -3.0305257 -1.8363795 4288085770
-1.0564575 -3.5965562 -1.8088131 4288085770
-2.2293091 -2.9745951 -1.8381872 4288085770
-1.1850281 -3.5241075 -1.8149343 4288085770
-2.3114319 -2.9292536 -1.8467069 4288085770
-1.3155823 -3.448678 -1.8180075 4288085770
-2.397522 -2.8809772 -1.8531113 4288085770
-1.4330444 -3.3800077 -1.8234806 4288085770
-1.5685425 -3.297646 -1.8214259 4288085770
-1.6869507 -3.2239642 -1.8218961 4288085770
-1.8113708 -3.1463866 -1.8201866 4288085770
-1.9057007 -3.0842571 -1.8243999 4288085770
-1.9899597 -3.0279427 -1.8309164 4288085770
-2.1012573 -2.9541006 -1.8276262 4288085770
-2.1504211 -2.915154 -1.8432202 4288085770
-2.2236023 -2.8616204 -1.8490939 4288085770
-2.290741 -2.8109703 -1.8551521 4288085770
-2.368866 -2.7525082 -1.8568864 4288085770
-2.4399719 -2.6959105 -1.8588452 4288085770
-2.4605713 -0.66122818 -1.819109 4288085770
-2.395752 -0.64096069 -1.8184295 4288085770
-2.3190002 -0.62247276 -1.8201427 4288085770
-2.2679749 -0.59943199 -1.8120098 4288085770
-2.1951599 -0.58101153 -1.8115897 4288085770
-2.1044312 -0.56426406 -1.8157659 4288085770
-2.0345154 -0.54387498 -1.8112583 4288085770
-1.9496765 -0.52521968 -1.8112445 4288085770
-1.8469543 -0.50924158 -1.8158226 4288085770
-1.7322388 -0.49303794 -1.8218069 4288085770
-1.6363525 -0.47415543 -1.8201675 4288085770
-1.5583496 -0.45259428 -1.8129396 4288085770
-1.4564514 -0.43359089 -1.8105054 4288085770
-2.4209595 -0.29647255 -1.8158059 4288085770
-1.3336182 -0.41620612 -1.8127685 4288085770
-2.3410645 -0.27790213 -1.8136263 4288085770
-1.2287292 -0.3961401 -1.809443 4288085770
-2.2382812 -0.26291704 -1.8171983 4288085770
-1.0680542 -0.38305664 -1.8189626 4288085770
-2.1542969 -0.24425554 -1.8131542 4288085770
-0.93322754 -0.36543441 -1.8206344 4288085770
-2.0406189 -0.22907186 -1.8190999 4288085770
-0.75857544 -0.35107493 -1.8296361 4288085770
-1.9545898 -0.20935965 -1.8131313 4288085770
-1.844696 -0.19221377 -1.8129554 4288085770
0.09085083 -0.36729503 -1.9713182 4282675967
-1.7079773 -0.17758441 -1.8196754 4288085770
0.15139771 -0.33594775 -1.9425507 4282675967
-1.6010132 -0.15947723 -1.8164062 4288085770
0.20205688 -0.30476999 -1.9094472 4282675967
-1.4741211 -0.14200354 -1.8168073 4288085770
0.28057861 -0.27608681 -1.8832722 4282675967
-1.3571167 -0.12369752 -1.8128777 4288085770
0.40396118 -0.25157642 -1.8655891 4288085770
-1.2172852 -0.10597229 -1.8137202 4288085770
0.5501709 -0.22664189 -1.8516855 4288085770
-1.0495605 -0.090736151 -1.8204923 4288085770
0.72732544 -0.20512915 -1.8428078 4288085770
-0.88479614 -0.073539972 -1.8241763 4288085770
0.92044067 -0.18331075 -1.8344731 4288085770
-0.69113159 -0.057807446 -1.8328304 4288085770
1.1086426 -0.15956759 -1.8229809 4288085770
-0.35137939 -0.049426317 -1.8773918 4282675967
1.3158264 -0.13645697 -1.8121285 4288085770
-0.14962769 -0.031514645 -1.8823304 4282675967
1.5758362 -0.11636496 -1.8100457 4288085770
0.032348633 -0.011945248 -1.8796072 4282675967
1.7653198 -0.090546608 -1.7896061 4288085770
0.22235107 0.0077848434 -1.8761563 4288085770
1.9916687 -0.067037344 -1.7744017 4288085770
0.39550781 0.029224873 -1.8661442 4288085770
2.2608643 -0.042715073 -1.7636542 4288085770
0.55090332 0.052353859 -1.8495364 4288085770
2.5302429 -0.01836729 -1.748909 4288085770
0.73617554 0.07404542 -1.8369336 4288085770
2.8166199 0.0063164234 -1.7337413 4293729569
0.90658569 0.096477509 -1.818831 4288085770
3.1488953 0.030875444 -1.722127 4293729569
1.1427002 0.11812282 -1.8129487 4288085770
3.5281677 0.055339575 -1.7131 4293729569
1.3808899 0.14083314 -1.803143 4288085770
3.9603271 0.080821991 -1.7068715 4293729569
1.6400757 0.16294861 -1.7940445 4288085770
4.4415588 0.10626674 -1.7002988 4288085770
1.8764954 0.18666434 -1.7771816 4288085770
4.9228516 0.13373423 -1.6897416 4288085770
2.1388855 0.20987678 -1.7621942 4288085770
5.5270691 0.16056323 -1.6863375 4288085770
2.4351807 0.23473811 -1.7493663 4288085770
6.2080994 0.18887496 -1.6865444 4288085770
2.7535095 0.2590332 -1.736279 4288085770
6.9353638 0.22011471 -1.6823277 4288085770
3.1048279 0.28396797 -1.7243109 4293729569
7.6918335 0.25397444 -1.6701117 4288085770
3.506134 0.30986953 -1.7140388 4293729569
8.4994202 0.28985691 -1.6536355 4288085770
3.9772949 0.33610511 -1.7091341 4288085770
9.4200439 0.32895017 -1.637002 4288085770
4.4784546 0.36394048 -1.7022552 4288085770
10.384918 0.37095451 -1.6128778 4288085770
5.0156555 0.39348316 -1.6946054 4288085770
11.656494 0.41587567 -1.602149 4288085770
5.6478271 0.42486525 -1.6901779 4288085770
6.4187927 0.45791578 -1.6934586 4288085770
7.1781006 0.49381018 -1.6843567 4288085770
8.0054626 0.5320375 -1.6745706 4288085770
8.8471985 0.57261395 -1.6532788 4288085770
9.8617859 0.61754727 -1.6358638 4288085770
11.053284 0.66691804 -1.6224604 4288085770
12.416046 0.72166586 -1.6038766 4288085770
12.47818 1.9598339 -1.5776787 4288085770
12.403595 2.0963883 -1.5790887 4288085770
12.403748 2.2393718 -1.5850849 4288085770
12.300446 2.3714032 -1.5804858 4288085770
12.26886 2.5098071 -1.5803699 4288085770
12.272247 2.6508822 -1.5814605 4288085770
12.375214 2.8058639 -1.5880322 4288085770
12.35083 2.9444356 -1.5831594 4288085770
12.275726 3.0780532 -1.5725265 4288085770
12.360931 3.2327311 -1.5724897 4288085770
6.3132019 2.5669167 -1.0782828 4293729569
5.5704346 2.5438492 -1.0128698 4293729569
5.0457458 2.5489385 -0.96306467 4293729569
4.6495667 2.568471 -0.92272758 4293729569
4.3082275 2.5920477 -0.88628292 4293729569
4.035553 2.6249323 -0.85523653 4293729569
3.8972778 2.6813784 -0.83292055 4293729569
3.7590637 2.7348354 -0.80958652 4293729569
3.681488 2.8004477 -0.79039812 4293729569
3.7233582 2.8893449 -0.77842951 4293729569
3.775116 2.9834328 -0.76683283 4293729569
3.8120422 3.0732543 -0.75170231 4293729569
3.8479919 3.1650631 -0.73555136 4293729569
3.9256897 3.2666726 -0.72188663 4293729569
4.0183411 3.37358 -0.70676613 4293729569
4.9178772 3.6949327 -0.73955202 4293729569
4.9031982 3.7808137 -0.71363783 4293729569
5.0664368 3.9151103 -0.69710302 4293729569
4.1090393 3.7309227 -0.61828232 4293729569
4.954895 4.0613313 -0.63530111 4293729569
4.3265076 3.9614482 -0.57524443 4293729569
4.384613 4.0637512 -0.54891491 4293729569
4.3761902 4.146791 -0.51719046 4293729569
12.471771 0.75045443 -1.5943303 4288085770
11.070831 0.71615791 -1.6122751 4288085770
9.867981 0.68770623 -1.6300206 4288085770
8.8280945 0.66440558 -1.6493688 4288085770
7.95224 0.64528823 -1.6683478 4288085770
7.0866394 0.62842059 -1.6796856 4288085770
6.2962036 0.61403847 -1.6866035 4288085770
5.532959 0.60223055 -1.6864629 4288085770
11.28302 0.72426558 -1.601697 4288085770
4.8956299 0.59282947 -1.6916413 4288085770
10.00708 0.70542932 -1.6150041 4288085770
4.3381348 0.58495259 -1.700561 4288085770
8.9928894 0.69160533 -1.6382928 4288085770
3.8276672 0.57999301 -1.709105 4288085770
8.100769 0.68116093 -1.6597733 4288085770
3.3562317 0.57579279 -1.7169871 4288085770
7.249939 0.67256594 -1.6736698 4288085770
2.9337769 0.5715313 -1.726542 4288085770
6.4552612 0.6660912 -1.6824956 4288085770
2.5691833 0.57137442 -1.7391038 4288085770
5.6859436 0.65917039 -1.6821771 4288085770
2.2326355 0.57076001 -1.7516193 4288085770
5.0414124 0.65562057 -1.6891484 4288085770
1.9290771 0.57177973 -1.7652717 4288085770
4.4688721 0.65347028 -1.69559 4288085770
1.6514282 0.57329631 -1.7798166 4288085770
3.9533386 0.65241361 -1.7039857 4288085770
1.4136658 0.57655835 -1.7987361 4288085770
3.474884 0.65308714 -1.7106571 4288085770
1.1431885 0.57924366 -1.8085294 4288085770
3.0473633 0.65373635 -1.7190709 4288085770
0.90072632 0.58347368 -1.8182883 4288085770
2.6796875 0.6575222 -1.7315536 4288085770
0.6126709 0.58590055 -1.8154697 4288085770
2.3371582 0.66080904 -1.7418876 4288085770
0.37039185 0.5901711 -1.819232 4288085770
2.0314941 0.66578865 -1.7554955 4288085770
0.13024902 0.59350395 -1.8200579 4288085770
1.7428589 0.67010617 -1.7676816 4288085770
-0.078094482 0.59942627 -1.8249917 4288085770
1.5219116 0.67767954 -1.7892079 4288085770
-0.25857544 0.60485792 -1.834878 4288085770
1.2703552 0.68472314 -1.8006759 4288085770
-0.51620483 0.60894489 -1.8210993 4288085770
1.020813 0.69081759 -1.8102069 4288085770
-0.77770996 0.61199141 -1.8021793 4288085770
0.76055908 0.69675183 -1.8123651 4288085770
-0.95089722 0.61761403 -1.8043089 4288085770
0.48547363 0.70243621 -1.8090096 4288085770
-1.1111755 0.62447786 -1.8078904 4288085770
0.23138428 0.70751929 -1.8063688 4288085770
-1.3049622 0.62977076 -1.7993035 4288085770
0.024108887 0.71446943 -1.8103428 4288085770
-1.4610901 0.63674545 -1.7980251 4288085770
-0.162323 0.72280717 -1.8170428 4288085770
-1.6151733 0.64376068 -1.796814 4288085770
-0.35952759 0.73097014 -1.8183675 4288085770
-1.768158 0.6508162 -1.7926378 4288085770
-0.62109375 0.735008 -1.8004527 4288085770
-1.8914185 0.65839624 -1.7964873 4288085770
-0.81512451 0.74126577 -1.7968698 4288085770
-2.0135803 0.66701627 -1.797379 4288085770
-0.98431396 0.74997807 -1.7971559 4288085770
-2.1287842 0.67475843 -1.8005028 4288085770
-1.1256409 0.75919843 -1.8024006 4288085770
-2.2399597 0.68358994 -1.8017721 4288085770
-1.3114929 0.76565051 -1.7930951 4288085770
-2.3540344 0.69137836 -1.8009319 4288085770
-1.4605713 0.77376914 -1.7910609 4288085770
-2.4700928 0.70014215 -1.7980313 4288085770
-1.5878296 0.78327203 -1.7947865 4288085770
-1.730835 0.79151964 -1.7909589 4288085770
-1.8599548 0.80001283 -1.7906113 4288085770
-1.972229 0.81081891 -1.7928576 4288085770
-2.0844116 0.82063174 -1.7940979 4288085770
-2.1896057 0.8305769 -1.795579 4288085770
-2.3016663 0.84041715 -1.7928219 4288085770
-2.3978882 0.85053658 -1.794611 4288085770
-2.4930725 0.86168098 -1.7954416 4288085770
1.354126 3.0410628 -4.9248381 4282675967
1.3833313 3.113337 -4.9703951 4282675967
1.3617554 3.1718152 -4.9860973 4282675967
1.3451843 3.229383 -5.002965 4282675967
1.3793945 3.3047657 -5.0467138 4282675967
-2.5407715 3.0646827 -1.7602844 4288085770
-2.4501038 3.1004672 -1.7556572 4288085770
-2.3427124 3.1435518 -1.7546606 4288085770
-2.2479858 3.1784196 -1.7491665 4288085770
-2.1326294 3.2226582 -1.7484522 4288085770
-2.0122375 3.2679932 -1.7479167 4288085770
-1.9045105 3.305115 -1.7418847 4288085770
-1.7771301 3.3505907 -1.740592 4288085770
-1.6427917 3.3971915 -1.7405472 4288085770
-2.489624 3.0035782 -1.7626729 4288085770
-1.5073547 3.4428251 -1.7385306 4288085770
-2.3654175 3.0449455 -1.7682452 4288085770
-1.3561401 3.4947481 -1.7391043 4288085770
-2.2861328 3.0615263 -1.7570806 4288085770
-1.1989441 3.5477686 -1.7398853 4288085770
-2.1744385 3.0926995 -1.7551441 4288085770
-1.0426025 3.5967948 -1.7396131 4288085770
-2.0725098 3.1177092 -1.7488284 4288085770
-0.8616333 3.6572762 -1.7432728 4288085770
-1.9489441 3.1520967 -1.7493248 4288085770
-0.68737793 3.7106488 -1.7436466 4288085770
-1.8302002 3.1824095 -1.7466249 4288085770
-0.48748779 3.775491 -1.7479877 4288085770
-1.7104187 3.2107489 -1.7429481 4288085770
-0.2875061 3.8363438 -1.7513037 4288085770
-1.5768433 3.2443337 -1.742784 4288085770
-0.092285156 3.8931208 -1.7514234 4288085770
-1.4313965 3.2811332 -1.7450514 4288085770
0.11483765 3.9521289 -1.7519698 4288085770
-1.3084106 3.3055503 -1.7384543 4288085770
0.34661865 4.0205817 -1.7574358 4288085770
-1.1608276 3.339402 -1.7387733 4288085770
0.62094116 4.1048169 -1.7694774 4288085770
-1.0220337 3.3681126 -1.7347536 4288085770
0.93881226 4.2038617 -1.7871265 4288085770
-0.84768677 3.4094498 -1.740047 4288085770
1.2095032 4.2790661 -1.7929773 4288085770
-0.68902588 3.4415262 -1.7387347 4288085770
1.4163208 4.3221273 -1.7833929 4288085770
-0.52835083 3.4726393 -1.7374849 4288085770
1.6390076 4.3674955 -1.7743745 4288085770
-0.35864258 3.5039272 -1.7365446 4288085770
1.9042358 4.4306407 -1.7729459 4288085770
-0.16720581 3.5436115 -1.7394152 4288085770
2.1676636 4.4867678 -1.7684045 4288085770
0.02822876 3.5813715 -1.7424097 4288085770
2.4499207 4.5482473 -1.7655516 4288085770
0.20013428 3.6067176 -1.7385035 4288085770
2.7520752 4.6131105 -1.7634072 4288085770
0.38592529 3.6353176 -1.7370968 4288085770
3.0701904 4.6802716 -1.7628274 4288085770
0.58560181 3.6661761 -1.7371874 4288085770
3.3667908 4.7350583 -1.755415 4288085770
0.79916382 3.7002938 -1.7387791 4288085770
3.7009583 4.80054 -1.753377 4288085770
1.0562439 3.7482085 -1.7479692 4288085770
4.0354004 4.8610439 -1.7483072 4288085770
1.2907715 3.7837205 -1.7512913 4288085770
2.8050537 4.3196964 -1.5110183 4293729569
1.5125732 3.8110163 -1.7501163 4288085770
2.6973877 4.2140155 -1.4455295 4293729569
1.7078552 3.8248324 -1.742929 4288085770
2.5727539 4.1030045 -1.3804221 4293729569
1.9417114 3.8503637 -1.7411547 4288085770
2.5162964 4.018239 -1.3268509 4293729569
2.1677856 3.8697517 -1.7380676 4288085770
2.4845276 3.9429238 -1.2781968 4293729569
2.4373779 3.9019392 -1.7415719 4288085770
2.5171204 3.8887997 -1.2379117 4293729569
2.7002258 3.926017 -1.7417865 4288085770
2.5525818 3.8357208 -1.1997356 4293729569
2.9651184 3.9481342 -1.7420568 4288085770
2.5969543 3.7858033 -1.1628876 4293729569
3.2400208 3.9704409 -1.742672 4288085770
2.7642517 3.7429793 -1.6226254 4293729569
2.5014343 3.62151 -1.0713868 4293729569
2.5484314 3.6042609 -1.5481758 4293729569
2.5467529 3.569592 -1.0375586 4293729569
2.5105896 3.5247986 -1.5032849 4293729569
2.5851135 3.5145342 -1.0044689 4293729569
2.5400391 3.4655764 -1.4688592 4293729569
2.6453247 3.4648924 -0.97217035 4293729569
2.420929 3.3606002 -1.4149871 4293729569
2.7065125 3.4142575 -0.94189787 4293729569
2.437439 3.2981229 -1.3810916 4293729569
2.7905579 3.3690531 -0.91345119 4293729569
2.4371033 3.2293291 -1.3455715 4293729569
2.8774719 3.3238914 -0.88710737 4293729569
2.4545288 3.1658535 -1.3137026 4293729569
2.9953003 3.2853141 -0.86287117 4293729569
2.4472046 3.0949128 -1.2799268 4293729569
3.1150818 3.2467766 -0.83870316 4293729569
2.49823 3.0410447 -1.2552857 4293729569
3.2586975 3.212678 -0.81738853 4293729569
2.5274963 2.9797723 -1.2278409 4293729569
3.4252319 3.1820116 -0.79788637 4293729569
2.5488281 2.9153457 -1.2001009 4293729569
3.5490417 3.1375356 -0.77581596 4293729569
2.5889282 2.8562603 -1.1760468 4293729569
3.6650085 3.0889149 -0.75244427 4293729569
2.6469116 2.7995019 -1.1546259 4293729569
3.8475037 3.0555472 -0.73447466 4293729569
2.7108459 2.7438548 -1.1344171 4293729569
3.9585266 3.0018244 -0.71189642 4293729569
2.7916565 2.6915143 -1.1168127 4293729569
4.5687561 3.0585692 -0.72029066 4293729569
2.9141846 2.646951 -1.1037021 4293729569
4.6689148 2.9966369 -0.69728184 4293729569
3.0545959 2.6037195 -1.0932169 4293729569
4.0458679 2.7819583 -0.63429022 4293729569
3.5765076 2.6366141 -1.122416 4293729569
4.3190002 2.7582979 -0.62350893 4293729569
3.7140503 2.5863235 -1.1117821 4293729569
4.7037964 2.749763 -0.61767578 4293729569
4.0523987 2.5727987 -1.1203256 4293729569
5.0428772 2.7273576 -0.61017179 4293729569
4.4336243 2.5610693 -1.133358 4293729569
5.5841675 2.7388036 -0.61186552 4293729569
4.8645935 2.5542729 -1.1511397 4293729569
6.1664734 2.7480397 -0.61395693 4293729569
5.3404541 2.5483212 -1.172473 4293729569
5.9209595 2.5523417 -1.2014794 4293729569
6.5413513 2.5541029 -1.2348452 4293729569
10.845367 3.0930543 -1.5878935 4288085770
11.126556 3.0034912 -1.58392 4288085770
11.49234 2.9234986 -1.5889277 4288085770
11.781525 2.828064 -1.5881891 4288085770
12.029907 2.7248526 -1.5849919 4288085770
12.210602 2.6103547 -1.578382 4288085770
12.467072 2.4992838 -1.577405 4288085770
12.505219 -0.9752121 -1.6137962 4288085770
12.304352 -1.0991726 -1.6200004 4288085770
12.011383 -1.2128754 -1.6211081 4288085770
11.83728 -1.3343554 -1.6332526 4288085770
11.492126 -1.4340382 -1.6306658 4288085770
11.153839 -1.530602 -1.6303382 4288085770
10.873474 -1.6300821 -1.634984 4288085770
10.574951 -1.7219071 -1.639061 4288085770
10.255371 -1.8081326 -1.6424513 4288085770
9.9056702 -1.8829107 -1.6418881 4288085770
9.671875 -1.9705319 -1.653224 4288085770
9.3629456 -2.0425572 -1.6580858 4288085770
9.1210327 -2.1223392 -1.6701965 4288085770
8.8019714 -2.1865578 -1.6747646 4288085770
8.4908142 -2.246624 -1.679635 4288085770
8.1545715 -2.2971539 -1.6817098 4288085770
7.8102417 -2.3428369 -1.6835403 4288085770
7.5158691 -2.3925881 -1.690062 4288085770
7.2043762 -2.43365 -1.6940575 4288085770
6.8988037 -2.4726052 -1.6992722 4288085770
6.6292419 -2.5138879 -1.7077079 4288085770
6.3315735 -2.5466914 -1.7132387 4288085770
6.0007935 -2.5670981 -1.7137175 4288085770
12.053192 -3.9476385 -1.5887346 4288085770
5.7010193 -2.5909252 -1.7172379 4288085770
11.450348 -3.9403691 -1.6000638 4288085770
5.4061584 -2.6106601 -1.7209587 4288085770
10.837402 -3.9212632 -1.6071291 4288085770
5.1092224 -2.6254263 -1.7236428 4288085770
10.275452 -3.9061909 -1.6169214 4288085770
4.8212891 -2.63902 -1.726644 4288085770
9.7023621 -3.8803172 -1.6244078 4288085770
4.5292969 -2.6476827 -1.7285414 4288085770
9.2134399 -3.8688569 -1.6376858 4288085770
4.2681885 -2.6587777 -1.7344871 4288085770
8.6713562 -3.8343539 -1.6412978 4288085770
4.0061646 -2.6668763 -1.7384186 4288085770
8.1522217 -3.8004198 -1.6466961 4288085770
3.742981 -2.6699953 -1.7423477 4288085770
7.6661072 -3.7688618 -1.6542125 4288085770
3.4827881 -2.6710501 -1.7453957 4288085770
7.184967 -3.7311888 -1.6589437 4288085770
3.2315979 -2.6719394 -1.749753 4288085770
6.7739563 -3.7072053 -1.6699891 4288085770
3.0064392 -2.6763411 -1.75598 4288085770
6.3909302 -3.6846886 -1.6819887 4288085770
2.7551575 -2.6682096 -1.7573991 4288085770
5.9607239 -3.6420298 -1.6865087 4288085770
2.5568542 -2.674119 -1.7675438 4288085770
5.580658 -3.6104269 -1.6946726 4288085770
2.3285522 -2.667563 -1.7717414 4288085770
5.2036133 -3.5757599 -1.7019606 4288085770
2.0982361 -2.6570325 -1.7738981 4288085770
4.8364258 -3.5368981 -1.708622 4288085770
1.9068298 -2.6568007 -1.7833242 4288085770
4.4783325 -3.4968481 -1.7136011 4288085770
1.6864624 -2.6430783 -1.7858458 4288085770
4.1442871 -3.4593458 -1.7203884 4288085770
1.5180969 -2.6434145 -1.7970591 4288085770
3.8181458 -3.4196863 -1.7264662 4288085770
1.2746582 -2.6170893 -1.7928758 4288085770
3.5101013 -3.3816805 -1.7331514 4288085770
1.0792236 -2.6039004 -1.7972536 4288085770
3.2230225 -3.3472891 -1.7425342 4288085770
0.8477478 -2.5743399 -1.7925043 4288085770
2.9379883 -3.3098402 -1.7490082 4288085770
0.66729736 -2.5588555 -1.7964139 4288085770
2.6618958 -3.2702174 -1.755805 4288085770
0.4788208 -2.5395174 -1.7990732 4288085770
2.3948669 -3.2314076 -1.7609081 4288085770
0.29135132 -2.5171461 -1.7997885 4288085770
2.1328125 -3.1905041 -1.7661963 4288085770
0.1048584 -2.4927497 -1.7995524 4288085770
1.8778076 -3.1484585 -1.7707343 4288085770
-0.057617188 -2.4749222 -1.8040962 4288085770
1.6548157 -3.1138234 -1.7793217 4288085770
-0.23712158 -2.4483843 -1.8031154 4288085770
1.415741 -3.0714741 -1.7844114 4288085770
-0.37966919 -2.4331894 -1.8103285 4288085770
1.1607666 -3.0193801 -1.7820206 4288085770
-0.54421997 -2.4073792 -1.8118582 4288085770
0.94073486 -2.9766588 -1.7867661 4288085770
-0.69268799 -2.3852639 -1.8139124 4288085770
0.71279907 -2.9290552 -1.786273 4288085770
-0.83422852 -2.3640294 -1.818202 4288085770
0.49481201 -2.881268 -1.7871246 4288085770
-0.96575928 -2.3446116 -1.8238225 4288085770
0.31088257 -2.843853 -1.7920752 4288085770
-1.1292419 -2.3097315 -1.81845 4288085770
0.11495972 -2.8006539 -1.7946529 4288085770
-1.2698059 -2.2834568 -1.819809 4288085770
-0.076965332 -2.7553625 -1.7953825 4288085770
-1.4003601 -2.2579999 -1.822506 4288085770
-0.25088501 -2.7157493 -1.7996926 4288085770
-1.526886 -2.2344642 -1.8253284 4288085770
-0.40478516 -2.682775 -1.8076444 4288085770
-1.6354675 -2.2146063 -1.8317423 4288085770
-0.58963013 -2.6343226 -1.8046389 4288085770
-1.756958 -2.1889682 -1.8337502 4288085770
-0.73956299 -2.5972586 -1.8107572 4288085770
-1.877533 -2.1613116 -1.8358068 4288085770
-0.89138794 -2.5592103 -1.8138146 4288085770
-1.9970703 -2.1326222 -1.8359051 4288085770
-1.0262146 -2.5258589 -1.8204236 4288085770
-2.1095886 -2.1058044 -1.8372307 4288085770
-1.1680298 -2.4866123 -1.822834 4288085770
-2.202179 -2.0856438 -1.8441992 4288085770
-1.3078613 -2.4473281 -1.8253126 4288085770
-2.3186951 -2.0538821 -1.8424225 4288085770
-1.4436646 -2.4069605 -1.8269377 4288085770
-2.4261475 -2.0239482 -1.8409433 4288085770
-1.589447 -2.360755 -1.8242602 4288085770
-1.6872559 -2.3347187 -1.835093 4288085770
-1.8080444 -2.2970653 -1.8372159 4288085770
-1.9107971 -2.2650871 -1.8429184 4288085770
-2.0395203 -2.2205434 -1.8388162 4288085770
-2.1422424 -2.1855521 -1.8425398 4288085770
-2.2499695 -2.1476355 -1.8431139 4288085770
-2.3486633 -2.1115537 -1.8449841 4288085770
-2.4636536 0.12623644 -1.8000035 4288085770
-2.3598022 0.14021587 -1.8027 4288085770
-2.2598267 0.15414143 -1.802259 4288085770
-2.144043 0.16734052 -1.806365 4288085770
-2.0390015 0.1813767 -1.8040991 4288085770
-1.9379272 0.19635081 -1.7997036 4288085770
-1.8219604 0.21058774 -1.7988191 4288085770
-1.6860962 0.22418237 -1.8016195 4288085770
-1.5402527 0.23796058 -1.8057661 4288085770
-2.4296265 0.27982926 -1.8043699 4288085770
-1.4240723 0.25224328 -1.7988858 4288085770
-2.2989197 0.29128456 -1.8129797 4288085770
-1.2830811 0.26696277 -1.7978692 4288085770
-2.1938782 0.30431938 -1.8107076 4288085770
-1.0815125 0.27974701 -1.8119397 4288085770
-2.0778809 0.31655693 -1.8098092 4288085770
-0.92550659 0.29476023 -1.8104448 4288085770
-1.9816284 0.32946801 -1.8012295 4288085770
-0.73471069 0.30839324 -1.8161464 4288085770
-1.8595886 0.34182549 -1.7995415 4288085770
-0.4833374 0.32209706 -1.8359485 4288085770
-1.7305603 0.35431886 -1.7980957 4288085770
-0.25561523 0.33741951 -1.8449383 4288085770
-1.5757141 0.36626077 -1.8035398 4288085770
-0.06451416 0.35212088 -1.8416529 4288085770
-1.4168091 0.37829423 -1.8071256 4288085770
0.15048218 0.36726379 -1.8411994 4288085770
-1.2657471 0.3912127 -1.8054438 4288085770
0.37359619 0.38257432 -1.8390236 4288085770
-1.0631104 0.40403652 -1.8165522 4288085770
0.55700684 0.3981986 -1.8254752 4288085770
-0.91091919 0.41600394 -1.8109012 4288085770
0.80014038 0.41389728 -1.8229947 4288085770
-0.72393799 0.42859173 -1.8124604 4288085770
1.0264893 0.42933202 -1.8119297 4288085770
-0.47039795 0.44136333 -1.8283286 4288085770
1.2847595 0.44434738 -1.8059654 4288085770
-0.24655151 0.45463252 -1.8341699 4288085770
1.5531006 0.46057296 -1.7973576 4288085770
-0.012634277 0.46710587 -1.8383522 4288085770
1.791748 0.4762969 -1.7787147 4288085770
0.21740723 0.4805336 -1.8384061 4288085770
2.0533447 0.49145031 -1.7618628 4288085770
0.41882324 0.49247932 -1.8284526 4288085770
2.3450012 0.50718355 -1.7450523 4288085770
0.64215088 0.50483441 -1.820262 4288085770
2.6923828 0.52393627 -1.7361803 4288085770
0.91131592 0.51802945 -1.8186636 4288085770
3.0519714 0.5399549 -1.7227211 4288085770
1.1706238 0.53006959 -1.8117151 4288085770
3.4664001 0.55700302 -1.7131696 4288085770
1.4221802 0.54099631 -1.7994852 4288085770
3.9467468 0.57529211 -1.7079058 4288085770
1.6698303 0.55287766 -1.7831268 4288085770
4.4522095 0.59308696 -1.6995058 4288085770
1.9365234 0.5641191 -1.7674208 4288085770
5.0206299 0.61107254 -1.694283 4288085770
2.236145 0.57498813 -1.7528529 4288085770
5.6510925 0.63126731 -1.687223 4288085770
2.5726624 0.58653998 -1.7425671 4288085770
6.4083557 0.65385532 -1.6875648 4288085770
2.9293213 0.59849453 -1.7299762 4288085770
7.2148743 0.67642879 -1.6826062 4288085770
3.349823 0.61065125 -1.7215991 4288085770
8.0057983 0.69878745 -1.6651006 4288085770
3.8043213 0.62345958 -1.7134023 4288085770
8.9168091 0.72145867 -1.647747 4288085770
4.3297729 0.63661385 -1.7086606 4288085770
9.928894 0.74709034 -1.6289086 4288085770
4.8764343 0.64921236 -1.6986451 4288085770
11.200928 0.77569675 -1.6150794 4288085770
5.506012 0.66237974 -1.692503 4288085770
6.2414551 0.67655015 -1.69203 4288085770
7.0610352 0.69135523 -1.6894679 4288085770
7.8660583 0.70496631 -1.674387 4288085770
8.7502136 0.71811748 -1.6570377 4288085770
9.7376099 0.73028183 -1.6362453 4288085770
10.945831 0.7456553 -1.6221161 4288085770
12.344299 0.76069713 -1.6075563 4288085770
12.471954 -4.9793944 -1.0664334 4293729569
12.588318 -4.8705239 -1.1183462 4293729569
12.48053 -2.0039616 -1.6315737 4288085770
12.368683 -1.8490715 -1.628931 4288085770
12.358948 -1.705267 -1.6327367 4288085770
12.342316 -1.5635881 -1.6352859 4288085770
12.306671 -1.4172468 -1.6342134 4288085770
12.297119 -1.274404 -1.6330166 4288085770
12.373596 -1.1399531 -1.6377335 4288085770
12.325256 -0.99780893 -1.6301856 4288085770
12.346863 -0.85735416 -1.6270471 4288085770
12.437439 -0.72260761 -1.6282554 4288085770
12.425262 -0.58374834 -1.6179328 4288085770
12.462982 -0.44395947 -1.6113472 4288085770
12.41095 0.78811979 -1.606389 4288085770
11.028412 0.79357028 -1.6196799 4288085770
9.8390503 0.80072546 -1.6316586 4288085770
8.8915405 0.81044173 -1.6520185 4288085770
8.0561218 0.8213048 -1.6722589 4288085770
7.2480164 0.83074999 -1.6844282 4288085770
6.4921265 0.8392272 -1.69239 4288085770
5.765564 0.8463273 -1.6923485 4288085770
11.679749 1.0991712 -1.5976801 4288085770
5.1339111 0.85521674 -1.6956043 4288085770
10.475342 1.0990052 -1.6140847 4288085770
4.5762329 0.86450148 -1.7014194 4288085770
9.4340515 1.1019628 -1.6301475 4288085770
4.0994263 0.87531209 -1.7100458 4288085770
8.5248718 1.1064577 -1.6447878 4288085770
3.6339111 0.88537407 -1.7140484 4288085770
7.7536011 1.1135547 -1.6642151 4288085770
3.2331543 0.89663386 -1.7233057 4288085770
7.0076904 1.1192048 -1.6745019 4288085770
2.8565369 0.90837121 -1.7303972 4288085770
6.2929688 1.1234913 -1.6798525 4288085770
2.5089722 0.91967177 -1.7364888 4288085770
5.6453552 1.1280644 -1.6845226 4288085770
2.2112122 0.93288326 -1.7483201 4288085770
5.0707397 1.1340377 -1.6887279 4288085770
1.9234924 0.94629765 -1.7584996 4288085770
4.5501099 1.142031 -1.6948137 4288085770
1.6727295 0.96040845 -1.7699637 4288085770
4.0994873 1.1503503 -1.7023215 4288085770
1.4886475 0.97770667 -1.7927613 4288085770
3.6698914 1.1590822 -1.70856 4288085770
1.2321777 0.99076605 -1.7970138 4288085770
3.2832947 1.1696329 -1.7152977 4288085770
0.98867798 1.0030673 -1.8017111 4288085770
2.9276428 1.1797664 -1.7231045 4288085770
0.78408813 1.017081 -1.8107657 4288085770
2.5792236 1.1890752 -1.7261496 4288085770
0.53494263 1.0273397 -1.8072443 4288085770
2.2845764 1.2013597 -1.7360792 4288085770
0.32263184 1.0392613 -1.8090105 4288085770
1.9801636 1.2115135 -1.7386527 4288085770
0.13317871 1.052599 -1.8135819 4288085770
1.7294922 1.2256348 -1.7491183 4288085770
-0.069000244 1.063741 -1.8116922 4288085770
1.542511 1.2439194 -1.7668242 4288085770
-0.24633789 1.0763266 -1.814662 4288085770
1.3168945 1.2575407 -1.7751393 4288085770
-0.46807861 1.0831776 -1.8020525 4288085770
1.081543 1.2690127 -1.7781067 4288085770
-0.63531494 1.0959818 -1.8013825 4288085770
0.86312866 1.2818043 -1.781672 4288085770
-0.81130981 1.1056497 -1.79638 4288085770
0.6725769 1.2960987 -1.7892132 4288085770
-0.9694519 1.1166406 -1.7940097 4288085770
0.48809814 1.3095241 -1.7949572 4288085770
-1.0899353 1.1322865 -1.7999825 4288085770
0.30172729 1.3229356 -1.7976341 4288085770
-1.2389221 1.1424739 -1.7949176 4288085770
0.10552979 1.3331933 -1.7959437 4288085770
-1.3434448 1.1584129 -1.8024464 4288085770
-0.053863525 1.3481128 -1.7995653 4288085770
-1.4794922 1.1698346 -1.7988391 4288085770
-0.22210693 1.3598895 -1.7998538 4288085770
-1.5957031 1.1826067 -1.7989335 4288085770
-0.42382812 1.3661115 -1.7889304 4288085770
-1.710907 1.1964073 -1.7980695 4288085770
-0.57806396 1.378159 -1.7887058 4288085770
-1.8378601 1.2060254 -1.7917624 4288085770
-0.71142578 1.3925872 -1.791223 4288085770
-1.9282227 1.2212605 -1.7957721 4288085770
-0.82980347 1.4082892 -1.7952681 4288085770
-2.0224304 1.2354488 -1.7966371 4288085770
-0.96694946 1.4206748 -1.7936344 4288085770
-2.1107788 1.2507391 -1.798717 4288085770
-1.0951538 1.4342304 -1.7923203 4288085770
-2.1990051 1.2650409 -1.7997904 4288085770
-1.2182617 1.4458885 -1.7901659 4288085770
-2.2773132 1.2805212 -1.8022175 4288085770
-1.3265686 1.4608033 -1.7915521 4288085770
-2.3604736 1.2939332 -1.8014584 4288085770
-1.4298401 1.4758127 -1.7931128 4288085770
-2.4594421 1.3050849 -1.7951312 4288085770
-1.5350037 1.4898103 -1.7915974 4288085770
-1.6371765 1.5038637 -1.7901869 4288085770
-1.7392273 1.5159339 -1.7867622 4288085770
-1.832428 1.5311567 -1.7856722 4288085770
-1.9147339 1.546571 -1.7869616 4288085770
-1.9899902 1.5631161 -1.7885013 4288085770
-2.063324 1.5806981 -1.7901196 4288085770
-2.14151 1.5962118 -1.7885499 4288085770
-2.2107849 1.6128771 -1.7892995 4288085770
-2.2799988 1.6295531 -1.7890501 4288085770
-2.3472595 1.6462634 -1.7888699 4288085770
-2.4173889 1.6619378 -1.7865791 4288085770
-2.4844971 1.6776769 -1.7833929 4288085770
-2.5503845 3.5526118 -1.7500782 4288085770
-2.4725037 3.6170857 -1.7523184 4288085770
-2.4082336 3.6723514 -1.7480063 4288085770
-2.3066711 3.7502487 -1.754178 4288085770
-2.2158813 3.8209748 -1.7559175 4288085770
-2.1024475 3.905098 -1.7625527 4288085770
-1.994873 3.9841306 -1.7659435 4288085770
-1.8735046 4.0714045 -1.7728796 4288085770
-1.7745056 4.1423306 -1.7689004 4288085770
-1.6343689 4.2399578 -1.7765737 4288085770
-1.514679 4.3212509 -1.7763987 4288085770
-1.3665771 4.4210343 -1.7833657 4288085770
-2.4751282 3.7589195 -1.7604766 4288085770
-1.2475891 4.4983549 -1.7781281 4288085770
-2.3721924 3.8248782 -1.7615929 4288085770
-1.1080627 4.5880299 -1.7777095 4288085770
-2.2692261 3.8888512 -1.7616935 4288085770
-0.95178223 4.6880083 -1.7799568 4288085770
-2.1329346 3.9733765 -1.7721248 4288085770
-0.80410767 4.7788601 -1.7768254 4288085770
-2.0013733 4.0538535 -1.7773542 4288085770
-0.63684082 4.882061 -1.7774806 4288085770
-1.8736267 4.1282845 -1.7793999 4288085770
-0.44293213 4.9987307 -1.7831707 4288085770
-1.7360229 4.2088838 -1.7838378 4288085770
-0.25772095 5.1092854 -1.782505 4288085770
-1.6062012 4.2813663 -1.7839384 4288085770
-0.05569458 5.2271385 -1.784482 4288085770
-1.4693909 4.3569889 -1.7833066 4288085770
0.14736938 5.3440299 -1.7844872 4288085770
-1.3226624 4.4357834 -1.7850432 4288085770
0.38104248 5.4764752 -1.7886834 4288085770
-1.1885681 4.5053859 -1.7802615 4288085770
0.61975098 5.6100273 -1.7910628 4288085770
-1.0034485 4.6048727 -1.7875047 4288085770
0.88421631 5.7570705 -1.7944441 4288085770
-0.85934448 4.6756635 -1.7830782 4288085770
1.1576233 5.9052782 -1.7981448 4288085770
-0.70050049 4.7537246 -1.7802258 4288085770
1.4420166 6.0587034 -1.8012676 4288085770
-0.52185059 4.8411436 -1.7801352 4288085770
1.7305298 6.2092276 -1.8015079 4288085770
-0.33627319 4.9306912 -1.7803044 4288085770
2.0526428 6.377377 -1.804059 4288085770
-0.1348877 5.0265307 -1.782074 4288085770
2.4054565 6.5590992 -1.8087859 4288085770
0.087310791 5.1327457 -1.7866478 4288085770
2.7623291 6.7409124 -1.8116527 4288085770
0.29092407 5.2246599 -1.7844567 4288085770
3.166687 6.9456086 -1.8183551 4288085770
0.52609253 5.3321352 -1.7874913 4288085770
3.5575562 7.1371012 -1.8174739 4288085770
0.74472046 5.4253364 -1.7848291 4288085770
3.9899902 7.3473639 -1.8201876 4288085770
1.0165405 5.5474882 -1.7912545 4288085770
4.4266052 7.5547347 -1.8190203 4288085770
1.2748108 5.6574306 -1.7911038 4288085770
4.8900452 7.7716198 -1.8178601 4288085770
1.5656433 5.7829537 -1.7962112 4288085770
5.3774109 7.9959726 -1.815587 4288085770
1.8379211 5.8931661 -1.7955461 4288085770
5.9211731 8.2473698 -1.817493 4288085770
2.1398926 6.0159235 -1.7980142 4288085770
6.4800415 8.4980764 -1.8169122 4288085770
2.4666443 6.14814 -1.8024168 4288085770
2.7434387 6.2464967 -1.7938008 4288085770
3.1049805 6.38937 -1.7994952 4288085770
3.4578552 6.5211058 -1.8007941 4288085770
3.8384705 6.6633606 -1.8041406 4288085770
4.1907654 6.783124 -1.800313 4288085770
4.5797424 6.9165707 -1.7988691 4288085770
4.9974365 7.060554 -1.7995071 4288085770
5.4449463 7.214087 -1.8022552 4288085770
5.8719788 7.3492737 -1.7991362 4288085770
6.3109741 7.4856844 -1.7964406 4288085770
6.7680359 7.6224513 -1.7923694 4288085770
7.2539062 7.7667618 -1.7893581 4288085770
7.7064819 7.8864789 -1.7799821 4288085770
8.2115479 8.0251646 -1.7755814 4288085770
8.7830505 8.1880836 -1.775682 4288085770
9.3548279 8.3420315 -1.7727127 4288085770
9.8922424 8.4703598 -1.7643356 4288085770
10.495209 8.6209183 -1.759409 4293729569
3.9596558 4.1663342 -0.61216259 4293729569
4.0652771 4.115437 -0.59835482 4293729569
4.0874023 4.036953 -0.58343124 4293729569
4.0798035 3.9479179 -0.56638908 4293729569
4.6879578 4.0473957 -0.58221054 4293729569
4.0484314 3.769501 -0.53674889 4293729569
4.0366516 3.681355 -0.52357388 4293729569
4.6539612 3.7699955 -0.54061699 4293729569
4.0934448 3.5275362 -0.50519037 4293729569
4.123291 3.450141 -0.49754572 4293729569
4.1153259 3.3640268 -0.48952007 4293729569
4.0884094 3.2725482 -0.48179674 4293729569
4.1828613 3.211344 -0.47951794 4293729569
4.2244873 3.13714 -0.47630882 4293729569
4.4671021 3.1086924 -0.48342276 4293729569
4.5892944 3.0499794 -0.48612547 4293729569
4.1542053 2.868798 -0.46655607 4293729569
4.3878479 2.8341649 -0.47530842 4293729569
4.7309875 2.8175669 -0.49099255 4293729569
5.0603027 2.7937081 -0.50613546 4293729569
5.5270691 2.7914162 -0.52820301 4293729569
5.9580383 2.7754354 -0.55092001 4293729569
12.032562 0.29095721 -1.5960226 4288085770
11.524292 0.17017102 -1.6044679 4288085770
11.006927 0.05623126 -1.6106606 4288085770
10.513428 -0.050261021 -1.6177397 4288085770
10.023804 -0.14966917 -1.6240144 4288085770
9.6209717 -0.24648023 -1.6373029 4288085770
9.1851196 -0.33588624 -1.6465173 4288085770
8.7891541 -0.42255092 -1.6581302 4288085770
8.4320374 -0.5024941 -1.6721401 4288085770
8.0479126 -0.57892704 -1.68325 4288085770
7.6787109 -0.65007019 -1.6939197 4288085770
7.2815247 -0.71370459 -1.699688 4288085770
6.9011841 -0.77303171 -1.7070761 4288085770
6.5079041 -0.82656765 -1.7100658 4288085770
6.1145935 -0.8740859 -1.7111053 4288085770
12.336212 -1.4970341 -1.6227555 4288085770
5.7072754 -0.91685104 -1.7097025 4288085770
11.565247 -1.5378017 -1.630856 4288085770
5.3797302 -0.96116781 -1.7170386 4288085770
10.848114 -1.5735588 -1.6408567 4288085770
5.03125 -0.99983549 -1.7187004 4288085770
10.151031 -1.6029043 -1.6476002 4288085770
4.7116089 -1.0359774 -1.7233801 4288085770
9.547821 -1.6345062 -1.6595616 4288085770
4.4099426 -1.0697818 -1.7286987 4288085770
9.0006104 -1.6630554 -1.6734757 4288085770
4.0783081 -1.0971155 -1.7290387 4288085770
8.4103699 -1.6823711 -1.6809869 4288085770
3.8165283 -1.1301942 -1.7387385 4288085770
7.9601135 -1.712101 -1.6982312 4288085770
3.5647278 -1.1600714 -1.7468104 4288085770
7.4318542 -1.724227 -1.7049375 4288085770
3.3088989 -1.1850142 -1.7537842 4288085770
6.9295654 -1.7348495 -1.7105536 4288085770
3.0889587 -1.2143168 -1.7659607 4288085770
6.4442749 -1.7411442 -1.7157898 4288085770
2.8530579 -1.2358842 -1.7736502 4288085770
5.9749146 -1.7441225 -1.7196064 4288085770
2.6361389 -1.2591057 -1.7829809 4288085770
5.5076294 -1.7410269 -1.719542 4288085770
2.4281311 -1.2801652 -1.7936382 4288085770
5.1172791 -1.745532 -1.7270651 4288085770
2.2440186 -1.303802 -1.8080993 4288085770
4.7059326 -1.7413974 -1.7299385 4288085770
2.0111084 -1.3152723 -1.8109784 4288085770
4.3325806 -1.7395473 -1.7341008 4288085770
1.8389893 -1.3346763 -1.8248878 4288085770
3.9672546 -1.7345314 -1.7365656 4288085770
1.6937561 -1.3576064 -1.8436956 4288085770
3.6637878 -1.7364058 -1.747107 4288085770
1.5007019 -1.3683519 -1.850955 4288085770
3.3534241 -1.7323666 -1.7524571 4288085770
1.2597656 -1.3679137 -1.8466606 4288085770
3.0709839 -1.7308278 -1.7617497 4288085770
1.0328369 -1.3672199 -1.8438473 4288085770
2.8095398 -1.7309041 -1.7727513 4288085770
0.88858032 -1.3810997 -1.8587661 4288085770
2.5351257 -1.7241821 -1.7783637 4288085770
