# .PCD v0.7 - Point Cloud Data file format
VERSION 0.7
FIELDS x y z rgb
SIZE 4 4 4 4
TYPE F F F U
COUNT 1 1 1 1
WIDTH 1122
HEIGHT 1
VIEWPOINT 0 0 0 1 0 0 0
POINTS 1122
DATA ascii
10.677117 -0.18802077 -1.8383104 4288085770
10.860116 -0.19309193 -1.8382474 4288085770
15.588078 -0.29192507 -1.8435926 4288085770
19.41906 -0.37938464 -1.8872583 4288085770
11.36611 -0.20928609 -1.8420752 4288085770
17.983067 -0.35683322 -1.8777672 4288085770
11.894103 -0.22549212 -1.8408948 4288085770
5.1961503 -0.081908353 -1.8132359 4288085770
16.763071 -0.33636513 -1.8691986 4288085770
12.499098 -0.24372545 -1.8436879 4288085770
15.699075 -0.31695557 -1.8635736 4288085770
13.172091 -0.26098379 -1.8484551 4288085770
13.894086 -0.27826315 -1.8502042 4288085770
14.751081 -0.29759106 -1.8579056 4288085770
14.737069 -0.31059712 -1.840922 4288085770
13.930059 -0.32828891 -1.8342342 4288085770
19.951992 -0.53160638 -1.8701944 4288085770
13.230052 -0.34602025 -1.8305072 4288085770
18.518982 -0.54205954 -1.8567312 4288085770
12.622043 -0.36378464 -1.8307462 4288085770
17.349976 -0.55560946 -1.8521733 4288085770
12.050034 -0.38056564 -1.8269709 4288085770
19.591936 -0.67446536 -1.8774518 4288085770
19.474941 -0.67541003 -1.8924958 4288085770
16.315969 -0.5682109 -1.8485647 4288085770
11.531026 -0.39836663 -1.8241774 4288085770
18.158932 -0.68690735 -1.8809901 4288085770
15.40196 -0.58185971 -1.8439127 4288085770
18.421919 -0.71101797 -1.8689144 4288085770
11.107019 -0.41619915 -1.8293486 4288085770
16.990927 -0.69446075 -1.8714265 4288085770
14.589952 -0.59654683 -1.8412244 4288085770
10.669011 -0.43403083 -1.8275248 4288085770
17.384901 -0.74562085 -1.8623263 4288085770
15.990921 -0.7000767 -1.8657993 4288085770
13.868945 -0.61026925 -1.8385015 4288085770
10.316006 -0.45289028 -1.8336709 4288085770
15.103918 -0.70373434 -1.8631288 4288085770
16.495886 -0.77927995 -1.8576828 4288085770
13.219938 -0.62501848 -1.8377529 4288085770
9.9439974 -0.46974701 -1.832822 4288085770
14.300915 -0.70542538 -1.8594255 4288085770
12.63893 -0.64079458 -1.8359803 4288085770
15.705871 -0.81197596 -1.855002 4288085770
9.6109886 -0.48761815 -1.8329595 4288085770
13.566914 -0.70514238 -1.8566953 4288085770
12.106923 -0.65658915 -1.8351895 4288085770
12.905911 -0.70288771 -1.8539362 4288085770
9.2679806 -0.50248933 -1.8270985 4288085770
14.978855 -0.84269774 -1.8502964 4288085770
19.586765 -1.1224587 -1.9008471 4282675967
12.27791 -0.6986478 -1.8481632 4288085770
11.631916 -0.67240506 -1.8353777 4288085770
18.210772 -1.0869322 -1.8883221 4288085770
8.9979744 -0.52138233 -1.8312137 4288085770
11.750914 -0.69544256 -1.8493541 4288085770
14.360841 -0.87545866 -1.8505523 4288085770
16.97678 -1.0524611 -1.8757458 4288085770
11.246913 -0.69024676 -1.8495347 4288085770
11.206909 -0.6892392 -1.8375485 4288085770
8.7099648 -0.53727353 -1.8273331 4288085770
15.956789 -1.0250671 -1.8720967 4288085770
10.769914 -0.68406349 -1.8467045 4288085770
13.796828 -0.90623975 -1.8517867 4288085770
10.816903 -0.70608687 -1.8397064 4288085770
15.066798 -0.99872303 -1.869401 4288085770
10.376917 -0.67990679 -1.8528451 4288085770
8.4679585 -0.55517876 -1.8294373 4288085770
14.225806 -0.97239989 -1.863687 4288085770
9.9619188 -0.67174751 -1.8499904 4288085770
18.917683 -1.3212028 -1.9022688 4282675967
10.438895 -0.72194117 -1.8388591 4288085770
13.488815 -0.94811451 -1.8619367 4288085770
9.5689211 -0.66259742 -1.8461267 4288085770
13.232814 -0.93302613 -1.8450174 4288085770
8.2199497 -0.57108432 -1.8275421 4288085770
9.2159243 -0.6534608 -1.8452482 4288085770
12.810822 -0.92285401 -1.8571637 4288085770
8.8839273 -0.644333 -1.843362 4288085770
17.817673 -1.3287866 -1.8866802 4288085770
12.186829 -0.89861465 -1.8523716 4288085770
10.082888 -0.73780471 -1.8370035 4288085770
19.630621 -1.4744859 -1.8981422 4282675967
7.990942 -0.58799642 -1.8266405 4288085770
8.5709286 -0.63421261 -1.841468 4288085770
12.767802 -0.96284562 -1.8462145 4288085770
11.645837 -0.87740403 -1.8525518 4288085770
18.898623 -1.4602101 -1.8853989 4288085770
8.2819328 -0.62510097 -1.840566 4288085770
11.203847 -0.86122614 -1.8616998 4288085770
9.7598791 -0.75368041 -1.8361357 4288085770
7.9959345 -0.61299223 -1.8366601 4288085770
16.882666 -1.3384292 -1.8790329 4288085770
10.689854 -0.83603203 -1.8528666 4288085770
7.7859349 -0.60491729 -1.82673 4288085770
7.7409387 -0.60289311 -1.8367448 4288085770
10.25986 -0.81586462 -1.8530067 4288085770
18.916594 -1.5352123 -1.8954588 4282675967
12.313788 -0.99067277 -1.8424059 4288085770
7.490942 -0.59179777 -1.8338267 4288085770
17.939611 -1.4758415 -1.8807657 4288085770
9.8498678 -0.79470694 -1.8501387 4288085770
7.2599454 -0.5807085 -1.8329018 4288085770
9.4448729 -0.76856047 -1.8332641 4288085770
9.4538746 -0.77255672 -1.8442644 4288085770
7.0549498 -0.57062733 -1.834968 4288085770
16.090662 -1.3511207 -1.8813354 4288085770
7.5809264 -0.62083942 -1.824819 4288085770
9.1118822 -0.75442284 -1.8453741 4288085770
6.8479538 -0.55854738 -1.8340334 4288085770
5.1710067 -0.4168984 -1.8265246 4288085770
6.6529574 -0.54747272 -1.832095 4288085770
8.7798862 -0.7342962 -1.8414781 4288085770
6.4539604 -0.53439796 -1.8281567 4288085770
5.2880011 -0.43194416 -1.8264948 4288085770
8.4698944 -0.71417743 -1.8385742 4288085770
11.915776 -1.0195183 -1.8435773 4288085770
6.2959661 -0.5243336 -1.8322057 4288085770
18.199568 -1.5879405 -1.8877696 4288085770
5.4029937 -0.44699055 -1.8244655 4288085770
8.1879005 -0.69606745 -1.8386618 4288085770
6.1289706 -0.51226914 -1.8312564 4288085770
17.0926 -1.4925163 -1.8760921 4288085770
9.1668634 -0.78545302 -1.8333808 4288085770
5.9729743 -0.50120831 -1.8313038 4288085770
5.5259876 -0.46203926 -1.8234335 4288085770
7.9069066 -0.67696124 -1.8337481 4288085770
5.8169794 -0.4891482 -1.8303504 4288085770
5.2869978 -0.44194067 -1.8315036 4288085770
5.6629829 -0.47609079 -1.8263956 4288085770
5.405993 -0.45298845 -1.8294694 4288085770
5.5459886 -0.46604112 -1.8324296 4288085770
5.6509805 -0.47608948 -1.8213999 4288085770
7.6619139 -0.65886575 -1.833822 4288085770
15.332655 -1.3578279 -1.8796202 4288085770
5.797976 -0.49214426 -1.8253601 4288085770
7.4429207 -0.64277834 -1.8368883 4288085770
7.3959188 -0.63876736 -1.8259021 4288085770
5.9389696 -0.50819933 -1.8253222 4288085770
7.1939259 -0.62368596 -1.829963 4288085770
6.0969639 -0.52425969 -1.8272783 4288085770
6.9859324 -0.60660547 -1.8290241 4288085770
6.7929397 -0.5895294 -1.8300802 4288085770
6.2529573 -0.54032135 -1.8262352 4288085770
6.6099453 -0.57345808 -1.8301331 4288085770
6.4079499 -0.55538392 -1.8231914 4288085770
11.531763 -1.0473711 -1.8417428 4288085770
8.8978548 -0.8013503 -1.8314934 4288085770
16.343592 -1.5132267 -1.8753861 4288085770
14.62765 -1.3615565 -1.8768828 4288085770
17.648544 -1.6507258 -1.8910282 4288085770
7.2109103 -0.6546973 -1.8239836 4288085770
8.6528482 -0.81825632 -1.8305979 4288085770
11.192751 -1.0762398 -1.8428926 4288085770
13.966649 -1.3603032 -1.8721247 4288085770
15.629581 -1.529954 -1.8696637 4288085770
7.0669041 -0.67363852 -1.8290524 4288085770
17.062519 -1.7045035 -1.8852917 4288085770
8.41784 -0.83416611 -1.8296978 4288085770
13.353648 -1.3580678 -1.868348 4288085770
10.898738 -1.1071236 -1.8470278 4288085770
6.9078956 -0.6915766 -1.830126 4288085770
15.048571 -1.5527279 -1.8708977 4288085770
18.609367 -1.9382215 -1.7189308 4293729569
8.2048321 -0.85108382 -1.8297906 4288085770
16.434496 -1.7442722 -1.8685584 4288085770
12.781646 -1.3528488 -1.8635536 4288085770
6.7488871 -0.70751721 -1.8271979 4288085770
17.454386 -1.889776 -1.7133129 4293729569
10.599726 -1.1350081 -1.8471621 4288085770
14.532561 -1.5785265 -1.8741106 4288085770
12.252646 -1.3486447 -1.8617443 4288085770
7.9988241 -0.86800498 -1.8288807 4288085770
16.594397 -1.8654327 -1.7266079 4293729569
15.668472 -1.763001 -1.830857 4288085770
6.6048784 -0.72446245 -1.8262652 4288085770
10.343714 -1.1649075 -1.8502825 4288085770
13.99755 -1.597322 -1.870324 4288085770
11.734646 -1.3384488 -1.8539255 4288085770
7.7978153 -0.8849287 -1.826969 4288085770
15.88641 -1.8491435 -1.7478538 4293729569
6.4568706 -0.74040669 -1.824333 4288085770
11.277647 -1.3312726 -1.8520869 4288085770
14.938451 -1.7777441 -1.7921388 4288085770
10.0557 -1.1887996 -1.8454094 4288085770
13.558538 -1.6231508 -1.8725085 4288085770
15.19042 -1.8288629 -1.7630918 4293729569
7.6308069 -0.90386224 -1.8300467 4288085770
10.868649 -1.3261123 -1.8542325 4288085770
6.3288622 -0.75735754 -1.8243943 4288085770
14.521433 -1.8035958 -1.7733155 4293729569
9.8216887 -1.2177079 -1.8475206 4288085770
14.274433 -1.7915118 -1.7553955 4293729569
13.130527 -1.6469858 -1.8716871 4288085770
7.4727993 -0.92279941 -1.8331209 4288085770
17.305122 -2.1870058 -1.2986342 4293729569
10.46765 -1.316958 -1.8523716 4288085770
17.173124 -2.2069311 -1.3347007 4293729569
14.024445 -1.7953851 -1.7994909 4288085770
6.2158546 -0.77631277 -1.826452 4288085770
17.111103 -2.229934 -1.2957443 4293729569
10.097653 -1.3088131 -1.8535001 4288085770
9.5796757 -1.2426169 -1.8446314 4288085770
7.3007908 -0.93873513 -1.8301978 4288085770
12.719517 -1.6688297 -1.8678578 4288085770
13.627455 -1.7952087 -1.8326368 4288085770
17.050711 -2.2596765 -0.16679326 4293729569
13.858411 -1.8293602 -1.7425824 4293729569
17.059822 -2.2694473 -0.51079869 4293729569
16.924089 -2.2568703 -1.2838374 4293729569
6.1058469 -0.79426908 -1.8285078 4288085770
9.7586555 -1.2996807 -1.8546163 4288085770
16.913101 -2.2858143 -1.3618677 4293729569
13.252466 -1.79404 -1.8667738 4288085770
7.1517825 -0.95667768 -1.8302679 4288085770
16.890079 -2.3118274 -1.3308995 4293729569
16.957796 -2.3314147 -0.50389206 4293729569
9.3586636 -1.2695322 -1.8437363 4288085770
12.445504 -1.7057145 -1.8819914 4282675967
9.4426594 -1.2915566 -1.856725 4288085770
16.955799 -2.3513873 -0.54391086 4293729569
16.933657 -2.3556659 -0.12092283 4293729569
13.572388 -1.8822491 -1.7447351 4293729569
5.9938378 -0.81122601 -1.8285632 4288085770
12.759477 -1.7718406 -1.8779352 4282675967
16.930782 -2.3723958 -0.51893902 4293729569
16.889044 -2.3718541 -1.292954 4293729569
16.914072 -2.398788 -1.405969 4293729569
9.1136627 -1.2784305 -1.8538339 4288085770
7.0007744 -0.97362006 -1.8293377 4288085770
12.230488 -1.7406337 -1.8791018 4282675967
16.899055 -2.4247968 -1.384998 4293729569
9.1816511 -1.3004608 -1.8488287 4288085770
12.046493 -1.7225668 -1.8721532 4288085770
16.956753 -2.4514127 -0.51300073 4293729569
16.953775 -2.4603558 -0.59500992 4293729569
5.8858299 -0.82918459 -1.8286179 4288085770
16.920599 -2.4626973 -0.074024208 4293729569
8.8266668 -1.2683175 -1.8559301 4288085770
13.08937 -1.9020803 -1.7179307 4293729569
11.7325 -1.709439 -1.8802569 4282675967
16.951738 -2.4983993 -0.53204501 4293729569
16.962996 -2.502877 -1.307045 4293729569
6.8777661 -0.99357009 -1.8334002 4288085770
17.003038 -2.527792 -1.4560527 4293729569
8.53267 -1.254205 -1.8530252 4288085770
8.9756393 -1.3253841 -1.8449261 4288085770
16.996027 -2.548795 -1.4480743 4293729569
11.706481 -1.7434385 -1.8672969 4288085770
11.264511 -1.6772573 -1.8794 4282675967
5.7748213 -0.84514385 -1.8256721 4288085770
8.2716732 -1.243103 -1.854111 4288085770
12.826349 -1.9509811 -1.7160714 4293729569
10.806522 -1.6430819 -1.8745378 4288085770
6.7377572 -1.0105183 -1.8304662 4288085770
19.479919 -3.034591 -1.7125977 4293729569
8.7986259 -1.3533163 -1.8450159 4288085770
8.0066776 -1.2280023 -1.8501945 4288085770
11.36147 -1.7613111 -1.8584398 4288085770
19.465918 -3.0505807 -1.7196175 4293729569
10.396533 -1.6119237 -1.8726604 4288085770
5.6738124 -0.86210579 -1.8247236 4288085770
6.608748 -1.0274692 -1.829528 4288085770
7.762681 -1.2139087 -1.8482713 4288085770
12.549329 -1.9938786 -1.7102119 4293729569
9.9995432 -1.5807712 -1.8687782 4288085770
8.627614 -1.3802505 -1.8451023 4288085770
7.536685 -1.2008207 -1.8483422 4288085770
5.5858045 -0.88007069 -1.8267713 4288085770
10.954459 -1.764169 -1.8355919 4288085770
18.9429 -3.0803847 -1.7108377 4293729569
9.6305532 -1.5496294 -1.8658859 4288085770
18.48292 -3.0142138 -1.6979476 4293729569
6.4887395 -1.0454239 -1.8285875 4288085770
7.3196898 -1.187736 -1.8484099 4288085770
9.2745628 -1.5184939 -1.8609885 4288085770
12.282308 -2.0357809 -1.7033478 4293729569
7.1056943 -1.1726546 -1.8454747 4288085770
5.5107961 -0.90103936 -1.8308166 4288085770
8.9625731 -1.4913731 -1.8600787 4288085770
8.4786005 -1.4091918 -1.8471826 4288085770
10.50745 -1.7570183 -1.8017497 4288085770
18.406881 -3.1181831 -1.7030702 4293729569
17.738924 -3.0039275 -1.694213 4293729569
6.3777304 -1.0643805 -1.8296444 4288085770
6.9176989 -1.15958 -1.8475316 4288085770
8.6585827 -1.4632554 -1.8581649 4288085770
11.855291 -2.0466373 -1.6715149 4293729569
6.7207031 -1.1445053 -1.8445903 4288085770
8.3835907 -1.4381483 -1.8582432 4288085770
5.4237876 -0.91800606 -1.830863 4288085770
8.3315868 -1.4381347 -1.8482623 4288085770
10.165439 -1.7638988 -1.7828815 4288085770
17.086922 -3.0026729 -1.6964527 4293729569
17.949858 -3.1660092 -1.7002826 4293729569
8.1016016 -1.4090414 -1.8533206 4288085770
6.5367074 -1.1294348 -1.8426439 4288085770
6.2647214 -1.0823383 -1.8277016 4288085770
7.84061 -1.3819416 -1.8503917 4288085770
6.3647122 -1.1153677 -1.8426942 4288085770
5.34478 -0.93597507 -1.8319073 4288085770
7.6016183 -1.3568494 -1.848457 4288085770
9.8544273 -1.7717912 -1.7640028 4293729569
8.1965761 -1.4670815 -1.8503375 4288085770
6.2017174 -1.1013041 -1.8427411 4288085770
16.302931 -2.9673777 -1.6827102 4293729569
6.1717129 -1.1023009 -1.830753 4288085770
17.605833 -3.2268744 -1.7044654 4293729569
7.3766274 -1.3327615 -1.8485177 4288085770
6.0447226 -1.0872424 -1.8437859 4288085770
7.153636 -1.3076766 -1.8455768 4288085770
5.270771 -0.9549455 -1.8339508 4288085770
5.8907275 -1.0721834 -1.8418286 4288085770
11.021261 -2.0533626 -1.6008277 4293729569
9.576417 -1.7836936 -1.7501154 4293729569
8.0505629 -1.4930277 -1.8474141 4288085770
6.9536438 -1.2845988 -1.8446294 4288085770
15.824927 -2.9801836 -1.6958983 4293729569
6.0717034 -1.1202631 -1.829805 4288085770
5.7407317 -1.057126 -1.8398697 4288085770
6.7696519 -1.2635257 -1.8466777 4288085770
17.254808 -3.2847395 -1.704648 4293729569
5.6057372 -1.0430729 -1.8409064 4288085770
6.5806608 -1.2394531 -1.8447254 4288085770
5.1927619 -0.97291625 -1.8329946 4288085770
5.4777422 -1.0300214 -1.8429413 4288085770
6.3976679 -1.2163842 -1.8407713 4288085770
9.3474045 -1.8016105 -1.7422158 4293729569
15.253931 -2.9659605 -1.6970963 4293729569
10.652246 -2.0592415 -1.5689687 4293729569
7.9195495 -1.5209773 -1.8474871 4288085770
5.9866943 -1.1402292 -1.8318536 4288085770
5.3427472 -1.0139706 -1.8399762 4288085770
6.233676 -1.1943209 -1.8398116 4288085770
5.2327523 -1.0019249 -1.8440056 4288085770
16.994781 -3.353637 -1.709807 4293729569
6.0766835 -1.1732595 -1.8398499 4288085770
5.9266911 -1.1522012 -1.838886 4288085770
5.7796984 -1.1321452 -1.8369217 4288085770
14.613938 -2.9317183 -1.6873015 4293729569
5.8976855 -1.1591947 -1.8319027 4288085770
9.1503925 -1.8245382 -1.7373086 4293729569
7.8125362 -1.5529346 -1.8505548 4288085770
10.466228 -2.0971763 -1.5610715 4293729569
5.6387057 -1.1110911 -1.8349543 4288085770
5.5077138 -1.0910401 -1.8349841 4288085770
5.3917208 -1.0739925 -1.838011 4288085770
16.715754 -3.4185288 -1.7119699 4293729569
5.2697268 -1.0549452 -1.8370386 4288085770
14.130943 -2.9215269 -1.6934705 4293729569
5.8056765 -1.177161 -1.8299519 4288085770
8.9833803 -1.8504748 -1.7363932 4293729569
7.6975222 -1.5828898 -1.8516238 4288085770
10.366206 -2.1511362 -1.5651572 4293729569
10.544032 -2.2165236 -1.1061511 4293729569
10.541938 -2.2267163 -0.82616109 4293729569
10.498095 -2.2253654 -1.310176 4293729569
10.558927 -2.2417357 -0.80816841 4293729569
5.7286663 -1.1971309 -1.8309975 4288085770
8.8273659 -1.8784156 -1.7354758 4293729569
7.6005101 -1.6138508 -1.854687 4288085770
10.286183 -2.2091033 -1.5702392 4293729569
10.548759 -2.2770653 -0.32720432 4293729569
10.45901 -2.2744873 -1.114235 4293729569
10.515804 -2.2919416 -0.48922998 4293729569
10.439085 -2.2763169 -1.3492441 4293729569
10.468922 -2.2846768 -0.84624064 4293729569
10.461911 -2.2856953 -0.8152442 4293729569
5.6466579 -1.2151003 -1.8300431 4288085770
8.6483545 -1.8993516 -1.7285603 4293729569
7.4994955 -1.6448114 -1.8557518 4288085770
10.19316 -2.2630672 -1.5723225 4293729569
10.49273 -2.3420534 -0.31828403 4293729569
10.388076 -2.3282707 -1.39031 4293729569
10.443913 -2.3416388 -0.89030164 4293729569
10.422986 -2.342468 -1.1253101 4293729569
5.5766482 -1.2350729 -1.8310863 4288085770
10.470785 -2.3579133 -0.50930655 4293729569
10.44288 -2.3576963 -0.80731672 4293729569
10.522619 -2.3842742 -0.018311458 4293729569
8.492341 -1.9222951 -1.7236384 4293729569
7.422482 -1.6797791 -1.8608112 4282675967
10.133137 -2.3240418 -1.5784001 4293729569
10.429902 -2.3996043 -0.93535972 4293729569
10.390066 -2.3912392 -1.4393667 4293729569
10.4787 -2.4160566 -0.31035662 4293729569
5.5036392 -1.254045 -1.8311294 4288085770
10.42696 -2.4194624 -1.1393788 4293729569
10.442763 -2.4268909 -0.53037971 4293729569
10.460844 -2.4397104 -0.80138487 4293729569
10.508598 -2.4542584 -0.038380448 4293729569
8.3473291 -1.9482415 -1.720715 4293729569
7.3224673 -1.7087414 -1.859874 4282675967
10.441893 -2.4625771 -0.98441273 4293729569
10.352057 -2.4441955 -1.483429 4293729569
10.090113 -2.3880217 -1.5854743 4293729569
10.532661 -2.5060863 -0.3034189 4293729569
5.4416294 -1.2760201 -1.8331715 4288085770
10.487928 -2.5114751 -1.1594405 4293729569
10.517735 -2.5199044 -0.55843705 4293729569
10.598567 -2.5512815 -0.061435938 4293729569
8.267314 -1.9872067 -1.7277796 4293729569
10.514878 -2.541569 -1.0404581 4293729569
10.328049 -2.5001557 -1.529489 4293729569
7.230454 -1.7377064 -1.8599337 4282675967
10.086085 -2.4620135 -1.5985432 4293729569
5.3796191 -1.2959957 -1.8342118 4288085770
15.58357 -3.8680897 -1.7278033 4288085770
10.250044 -2.5410991 -1.5695552 4293729569
8.1672993 -2.0201664 -1.7308463 4293729569
7.1614394 -1.7726777 -1.8639905 4282675967
5.32061 -1.3169727 -1.8352516 4288085770
10.061058 -2.5309997 -1.6066155 4293729569
10.14904 -2.576035 -1.6066244 4293729569
15.456533 -3.9520402 -1.7309281 4288085770
8.0232887 -2.0411165 -1.7229179 4293729569
7.0284257 -1.7906356 -1.8510553 4288085770
5.2586007 -1.3369496 -1.8342918 4288085770
10.141026 -2.6280165 -1.630675 4293729569
10.025038 -2.6019652 -1.6386938 4293729569
7.9672709 -2.0850887 -1.7329786 4293729569
6.8554144 -1.7945867 -1.825122 4288085770
14.70955 -3.9057484 -1.7321625 4288085770
5.20959 -1.3589292 -1.8373293 4288085770
9.8570404 -2.6128838 -1.6627659 4293729569
10.106998 -2.6960018 -1.6357498 4293729569
14.020589 -3.7994835 -1.7253197 4288085770
7.883256 -2.1200557 -1.7350413 4293729569
9.6350441 -2.6087868 -1.677844 4293729569
6.6664033 -1.7935348 -1.7941902 4288085770
5.1475801 -1.3779068 -1.8353684 4288085770
10.145967 -2.7820084 -1.6508145 4293729569
13.387624 -3.698241 -1.7174609 4288085770
9.4280491 -2.6046953 -1.6939167 4293729569
7.8082404 -2.1560256 -1.7381015 4293729569
6.4983916 -1.7954886 -1.7672532 4288085770
12.753661 -3.5900016 -1.7045958 4293729569
10.126938 -2.8549993 -1.6558889 4293729569
9.202055 -2.5936 -1.7049894 4293729569
7.7352247 -2.1919959 -1.7411611 4293729569
12.202694 -3.4987907 -1.6977156 4293729569
6.3663802 -1.8054507 -1.7483104 4293729569
8.9080658 -2.5584877 -1.7010658 4293729569
10.188903 -2.9500134 -1.6729535 4293729569
11.690723 -3.4125946 -1.6908256 4293729569
7.669209 -2.229969 -1.74422 4293729569
8.7120733 -2.5484025 -1.7141287 4293729569
6.279367 -1.8264232 -1.740361 4293729569
11.240752 -3.3384199 -1.6889235 4293729569
10.174873 -3.0230072 -1.677026 4293729569
8.4850817 -2.5273101 -1.7191927 4293729569
7.6081929 -2.2679443 -1.7472773 4288085770
6.222353 -1.8574018 -1.7404099 4293729569
10.870773 -3.2842703 -1.6960104 4293729569
8.3120871 -2.5192323 -1.734249 4293729569
10.18684 -3.1050081 -1.6850975 4293729569
10.462799 -3.2131128 -1.6920954 4293729569
7.5521765 -2.3069212 -1.7503334 4288085770
6.17134 -1.887382 -1.7414557 4293729569
8.1300945 -2.507154 -1.7453048 4288085770
10.087824 -3.1469669 -1.6911731 4293729569
10.16481 -3.1760015 -1.6851714 4293729569
7.4711609 -2.3388927 -1.7473924 4288085770
7.9661012 -2.4980798 -1.7593569 4288085770
6.0823264 -1.9063559 -1.7305055 4293729569
9.7378473 -3.0848303 -1.6902449 4293729569
7.7251129 -2.4619887 -1.7554122 4288085770
10.195774 -3.2650104 -1.6932425 4293729569
9.411869 -3.0267022 -1.6903117 4293729569
7.3931456 -2.3698654 -1.7444495 4288085770
6.0103135 -1.9303334 -1.7235533 4293729569
7.534122 -2.4379113 -1.7594602 4288085770
9.10289 -2.9695809 -1.6903729 4293729569
10.173744 -3.3370037 -1.6923175 4293729569
7.3351288 -2.4058444 -1.7435038 4288085770
7.2871346 -2.3938217 -1.7485104 4288085770
8.7569141 -2.8964531 -1.6794331 4293729569
5.9702988 -1.9623182 -1.7245971 4293729569
7.057147 -2.3517392 -1.738556 4293729569
10.199709 -3.4250116 -1.6983898 4293729569
8.5569277 -2.869365 -1.6934818 4293729569
7.2731123 -2.4408221 -1.7425587 4288085770
5.9112849 -1.9882994 -1.7196422 4293729569
6.8651576 -2.3206649 -1.7365978 4293729569
8.3689404 -2.8452806 -1.7085286 4293729569
10.211675 -3.5070169 -1.7004616 4293729569
7.2100964 -2.4738002 -1.7396122 4293729569
6.682168 -2.2905948 -1.7346373 4293729569
8.1679554 -2.8131943 -1.7195731 4293729569
5.859271 -2.0152824 -1.7156857 4293729569
8.0299664 -2.8011248 -1.7416128 4288085770
6.4641809 -2.2455175 -1.7226757 4293729569
10.214642 -3.5880201 -1.700536 4293729569
7.160079 -2.5117819 -1.7396655 4293729569
7.8409801 -2.7690434 -1.7516528 4288085770
6.2931905 -2.2154534 -1.7187105 4293729569
5.8192563 -2.0472679 -1.7157294 4293729569
7.6079984 -2.7189531 -1.7496922 4288085770
10.229604 -3.6740267 -1.7016109 4293729569
6.1491995 -2.192395 -1.7217419 4293729569
7.1180615 -2.5517664 -1.7397178 4288085770
5.7882404 -2.0812566 -1.7157717 4293729569
7.3920155 -2.6718693 -1.7487282 4288085770
5.991209 -2.1633344 -1.7197729 4293729569
10.263566 -3.76704 -1.7046851 4293729569
7.170033 -2.6207855 -1.7437626 4288085770
7.0580449 -2.5837469 -1.7357693 4293729569
5.83322 -2.1312749 -1.7158011 4293729569
5.7122288 -2.0982361 -1.7038149 4293729569
6.9230537 -2.5566983 -1.7297939 4293729569
5.6722302 -2.0972168 -1.7088286 4293729569
10.306527 -3.862057 -1.7077581 4293729569
6.7430682 -2.5156271 -1.729822 4293729569
7.0070281 -2.6197305 -1.7318214 4293729569
5.4942427 -2.0531571 -1.6948529 4293729569
5.6552153 -2.1212206 -1.6958567 4293729569
6.5490851 -2.4685543 -1.7248496 4293729569
5.3482518 -2.0211048 -1.6878766 4293729569
10.349485 -3.9600735 -1.7108339 4293729569
6.3421025 -2.4134812 -1.7128747 4293729569
6.9660101 -2.6577172 -1.7298715 4293729569
5.2152615 -1.9920554 -1.6838983 4293729569
5.6232004 -2.1532097 -1.6948978 4293729569
6.1731181 -2.3704171 -1.7098967 4293729569
5.1002703 -1.9680104 -1.683918 4293729569
6.0101323 -2.328356 -1.7059175 4293729569
6.9089942 -2.6887002 -1.7239211 4293729569
5.8681455 -2.2932999 -1.7059369 4293729569
5.5591874 -2.1711938 -1.6829373 4293729569
5.0012779 -1.9489686 -1.6879363 4293729569
5.7121601 -2.2502434 -1.6989542 4293729569
4.9162841 -1.9349303 -1.6949544 4293729569
6.8919744 -2.7346923 -1.72697 4293729569
5.4991789 -2.1831772 -1.6739702 4293729569
5.4411798 -2.1671679 -1.6549765 4293729569
4.8262916 -1.9168921 -1.6989703 4293729569
5.2691989 -2.1071098 -1.6409839 4293729569
4.7342992 -1.8978541 -1.7019862 4293729569
6.8589563 -2.7736819 -1.7250183 4293729569
5.1612105 -2.079066 -1.6429974 4293729569
4.6623058 -1.88482 -1.7100003 4293729569
5.3941665 -2.1901565 -1.6470149 4293729569
5.0562205 -2.051024 -1.6440098 4293729569
4.9982281 -2.0419898 -1.6600224 4293729569
4.6153102 -1.8827887 -1.7280153 4293729569
6.8029404 -2.8036666 -1.7170666 4293729569
4.9142375 -2.0209522 -1.6660335 4293729569
5.3441529 -2.2121437 -1.6380531 4293729569
4.8192477 -1.9939146 -1.6670432 4293729569
4.7582564 -1.9808817 -1.6790532 4293729569
6.7809205 -2.8466599 -1.7161146 4293729569
4.713263 -1.9728522 -1.6960621 4293729569
5.3021398 -2.2351344 -1.6300894 4293729569
4.6052752 -1.9378145 -1.6890689 4293729569
4.5552826 -1.9267852 -1.7020769 4293729569
6.7149062 -2.8706434 -1.704161 4293729569
4.4862909 -1.9057546 -1.7070825 4293729569
5.2771249 -2.2661271 -1.6271269 4293729569
6.6468916 -2.8926272 -1.6902066 4293729569
5.2921066 -2.3141277 -1.6361657 4293729569
6.7138624 -2.9736409 -1.7102575 4293729569
5.2470942 -2.3351183 -1.6262014 4293729569
6.7088413 -3.0226393 -1.7113049 4293729569
5.2610741 -2.3831189 -1.6342406 4293729569
6.6978211 -3.0686369 -1.7103519 4293729569
5.2940536 -2.4391243 -1.6462803 4293729569
6.6997981 -3.1206379 -1.7113997 4293729569
5.3310318 -2.4991302 -1.6603223 4293729569
6.708775 -3.1746414 -1.713447 4293729569
5.305017 -2.5271249 -1.6543578 4293729569
6.7167525 -3.2286439 -1.7154945 4293729569
5.1400185 -2.4860964 -1.6043795 4293729569
6.7187295 -3.2796469 -1.7145414 4293729569
8.0364656 -3.9471633 -1.7276816 4288085770
4.8480353 -2.3790467 -1.5143863 4293729569
7.8154898 -3.8820779 -1.7257023 4288085770
6.733705 -3.3376522 -1.7165903 4293729569
7.6085129 -3.8189957 -1.7257196 4288085770
4.706037 -2.3430233 -1.4704043 4293729569
6.7466807 -3.3936584 -1.7166381 4293729569
7.4065351 -3.7569177 -1.7237358 4288085770
4.4850492 -2.2639859 -1.402411 4293729569
6.7646561 -3.4516652 -1.7186859 4293729569
7.2175574 -3.6988428 -1.7237512 4288085770
4.4440393 -2.2759805 -1.3884367 4293729569
4.5389471 -2.3292174 -1.1174515 4293729569
4.5119615 -2.3161833 -1.1494493 4293729569
4.4869533 -2.325187 -1.1324664 4293729569
4.5508885 -2.3593545 -0.93847513 4293729569
4.4120293 -2.2909777 -1.376462 4293729569
4.462954 -2.322176 -1.1344725 4293729569
4.493896 -2.3483224 -0.95248544 4293729569
4.4479556 -2.3261592 -1.1494815 4293729569
4.4559007 -2.3472948 -0.97049814 4293729569
4.3860178 -2.3099756 -1.3664889 4293729569
4.4199467 -2.3291712 -1.1194943 4293729569
4.4988017 -2.3755622 -0.63050878 4293729569
4.4259562 -2.3361361 -1.1704987 4293729569
4.5167313 -2.3967474 -0.3895219 4293729569
4.4269037 -2.3502703 -0.98951125 4293729569
4.3949585 -2.3411102 -1.1895143 4293729569
4.5156946 -2.4128356 -0.27053708 4293729569
4.3650064 -2.3299742 -1.3585148 4293729569
4.4009352 -2.3501704 -1.1115206 4293729569
4.4477954 -2.3795569 -0.61253071 4293729569
4.4149051 -2.3612499 -1.0115258 4293729569
4.4447303 -2.3887331 -0.37254032 4293729569
4.381959 -2.354089 -1.212531 4293729569
4.3989067 -2.3692279 -1.0335387 4293729569
4.4397025 -2.4017973 -0.2835542 4293729569
4.3799243 -2.3681707 -1.1015446 4293729569
4.3459949 -2.3499742 -1.3495399 4293729569
4.4217844 -2.396558 -0.59855574 4293729569
4.3589602 -2.3620651 -1.2335465 4293729569
4.3819089 -2.3762062 -1.0545512 4293729569
4.4077225 -2.3987303 -0.3585628 4293729569
4.4286427 -2.4159508 -0.071571194 4293729569
4.37291 -2.3871863 -1.0775646 4293729569
4.3499603 -2.3760445 -1.2575625 4293729569
4.0071292 -2.1876359 -1.6255114 4293729569
4.4047022 -2.4117734 -0.29957592 4293729569
4.3689127 -2.3911731 -1.0935699 4293729569
4.3269835 -2.3699741 -1.3405652 4293729569
4.3927751 -2.4105585 -0.58457911 4293729569
4.3599119 -2.3951657 -1.0995766 4293729569
4.3379607 -2.3880234 -1.280578 4293729569
4.3847122 -2.4157331 -0.34458673 4293729569
4.0221181 -2.2116444 -1.6225282 4293729569
4.3906446 -2.4229257 -0.087591253 4293729569
4.3489137 -2.4031456 -1.121588 4293729569
4.3827 -2.4277546 -0.31559858 4293729569
4.352901 -2.4111748 -1.0845939 4293729569
4.0361075 -2.2326536 -1.6185426 4293729569
4.3239617 -2.3980014 -1.3035922 4293729569
4.3219695 -2.3969769 -1.335592 4293729569
4.3787627 -2.4325652 -0.57060444 4293729569
4.344914 -2.4151278 -1.1446005 4293729569
4.3676429 -2.4369056 -0.1046124 4293729569
4.3677001 -2.436738 -0.33161226 4293729569
4.0520964 -2.2556636 -1.6135581 4293729569
4.3369169 -2.4231076 -1.1676108 4293729569
4.3209615 -2.4139814 -1.329608 4293729569
4.3666968 -2.4467373 -0.33262187 4293729569
4.3478885 -2.4361789 -1.0776188 4293729569
4.0660868 -2.2756734 -1.6085715 4293729569
4.3219562 -2.4259806 -1.3316187 4293729569
4.3299184 -2.4310892 -1.1896206 4293729569
4.3607512 -2.4515691 -0.55762851 4293729569
4.3129621 -2.425961 -1.353622 4293729569
4.0800767 -2.2956839 -1.602585 4293729569
4.3526402 -2.4548888 -0.1216344 4293729569
4.3209209 -2.4370697 -1.2116293 4293729569
4.34869 -2.4547427 -0.31763569 4293729569
4.314961 -2.4429433 -1.379637 4293729569
4.0920668 -2.313695 -1.5945972 4293729569
4.3249221 -2.4500532 -1.2366399 4293729569
4.3536925 -2.4677217 -0.34964591 4293729569
4.3408761 -2.4601831 -1.0696435 4293729569
4.3189425 -2.453985 -1.3256458 4293729569
4.3497396 -2.4735758 -0.54465276 4293729569
4.3199244 -2.4560349 -1.2586472 4293729569
4.1010571 -2.3287063 -1.5846077 4293729569
4.3386378 -2.4728723 -0.13865605 4293729569
4.3029628 -2.4519219 -1.4026495 4293729569
4.3199267 -2.4650183 -1.2816556 4293729569
4.3426771 -2.4797511 -0.30466098 4293729569
4.1150489 -2.3457179 -1.5766186 4293729569
4.3406897 -2.4857049 -0.36666724 4293729569
4.1270394 -2.3607304 -1.5666281 4293729569
4.3179293 -2.473001 -1.3046637 4293729569
4.3398628 -2.4861891 -1.062668 4293729569
4.2999625 -2.4649026 -1.4276626 4293729569
4.3089333 -2.4739828 -1.3246678 4293729569
4.1390309 -2.3747427 -1.5566367 4293729569
4.3269272 -2.4869914 -1.3226734 4293729569
4.3457251 -2.4995854 -0.53167826 4293729569
4.331634 -2.4938586 -0.15567797 4293729569
4.3089361 -2.4809656 -1.3476741 4293729569
4.1730194 -2.4017584 -1.5536497 4293729569
4.3049631 -2.4808841 -1.4556756 4293729569
4.3149376 -2.4899504 -1.3716805 4293729569
4.3326645 -2.5017591 -0.29068494 4293729569
4.19101 -2.4177735 -1.543658 4293729569
4.3109426 -2.4919333 -1.3926836 4293729569
4.2090011 -2.4327879 -1.5336653 4293729569
4.3386836 -2.5116916 -0.38569197 4293729569
4.3508477 -2.5191982 -1.0576946 4293729569
4.3089461 -2.4949179 -1.4126871 4293729569
4.2249928 -2.4458034 -1.5216717 4293729569
4.3039632 -2.4938655 -1.480688 4293729569
4.2569828 -2.4668219 -1.5146798 4293729569
4.3069501 -2.4969018 -1.4336897 4293729569
4.2989559 -2.4938853 -1.4516897 4293729569
4.2769742 -2.4818377 -1.5036864 4293729569
4.2969608 -2.4938693 -1.4716907 4293729569
4.2879667 -2.4888539 -1.487689 4293729569
4.3519096 -2.5290008 -1.3247032 4293729569
4.3216305 -2.5128427 -0.17369911 4293729569
4.3507099 -2.5305979 -0.51970524 4293729569
4.298965 -2.502846 -1.504698 4293729569
4.328651 -2.5277691 -0.27771041 4293729569
4.3698316 -2.5562091 -1.0547222 4293729569
4.3436766 -2.5416811 -0.40471795 4293729569
4.289968 -2.5098267 -1.5267078 4293729569
4.3226261 -2.5368316 -0.19172096 4293729569
4.2689719 -2.5078051 -1.5447133 4293729569
4.3616929 -2.5646117 -0.50873274 4293729569
4.2269802 -2.4917817 -1.5537134 4293729569
4.3336353 -2.5577834 -0.26373643 4293729569
4.363667 -2.578676 -0.42474508 4293729569
4.183989 -2.4747581 -1.5627131 4293729569
4.3296194 -2.5648222 -0.20974439 4293729569
5.7006526 -3.4022546 -1.7140301 4293729569
4.4206667 -2.626642 -0.50176913 4293729569
4.1489964 -2.4617369 -1.5727136 4293729569
4.1100044 -2.4447153 -1.5807118 4293729569
4.3536167 -2.5958023 -0.25076452 4293729569
4.4276476 -2.6426835 -0.45078152 4293729569
4.0690136 -2.4256938 -1.5877088 4293729569
4.3486099 -2.5998173 -0.22877005 4293729569
4.0300217 -2.4076741 -1.5937061 4293729569
4.0060296 -2.3966556 -1.6057044 4293729569
5.7316294 -3.4562674 -1.7140695 4293729569
3.9740374 -2.3806367 -1.613701 4293729569
3.9610429 -2.3746212 -1.6277 4293729569
3.9490495 -2.3686049 -1.6426986 4293729569
3.9290566 -2.3565888 -1.6536947 4293729569
5.7746048 -3.5152838 -1.7161093 4293729569
5.8105812 -3.5712988 -1.7161487 4293729569
5.8615546 -3.636318 -1.7191913 4293729569
5.912528 -3.6993368 -1.722232 4293729569
5.9555035 -3.7573555 -1.7212709 4293729569
6.0034781 -3.8173749 -1.7213099 4288085770
6.061451 -3.8833983 -1.7223511 4288085770
6.1204228 -3.9494216 -1.7233917 4288085770
8.1163502 5.6506991 -1.6822038 4288085770
8.2564049 5.7476177 -1.6771779 4293729569
7.964293 5.5437808 -1.6842346 4293729569
7.8612447 5.4698515 -1.695258 4293729569
8.4054642 5.8475299 -1.6711555 4293729569
7.7301908 5.3729258 -1.6982923 4293729569
8.5785275 5.9624348 -1.6681314 4293729569
7.6421456 5.3049879 -1.7093201 4288085770
8.7555895 6.0773358 -1.6641111 4293729569
7.5460982 5.2290497 -1.7163533 4288085770
8.9566584 6.2052274 -1.6620922 4293729569
7.4670548 5.1631064 -1.7263863 4288085770
9.1257219 6.3091249 -1.6530823 4293729569
7.3650079 5.0801654 -1.7304252 4288085770
8.7406702 6.0271544 -1.5441787 4293729569
7.2649608 4.9972234 -1.7344661 4288085770
8.2896032 5.6992087 -1.4282877 4293729569
7.1799164 4.9222755 -1.7395082 4288085770
8.1896048 5.6121759 -1.3743353 4293729569
8.1527634 5.5838943 -1.1823465 4293729569
8.1387911 5.5728455 -1.1463512 4293729569
8.1097231 5.552959 -1.2093562 4293729569
8.1096926 5.5510111 -1.2423594 4293729569
8.1268158 5.5607948 -1.1103595 4293729569
8.1086617 5.5450597 -1.2733682 4293729569
8.1368456 5.561739 -1.0783674 4293729569
7.0958729 4.8473258 -1.7435513 4288085770
8.1136303 5.5411086 -1.3063794 4293729569
8.1506214 5.5651274 -1.3303753 4293729569
8.1668806 5.5746746 -1.0473747 4293729569
8.1696081 5.5701423 -1.346385 4293729569
8.1489019 5.5526266 -1.0103936 4293729569
8.1775761 5.5651889 -1.3794007 4293729569
7.0108294 4.7693729 -1.7455981 4288085770
8.1606445 5.5500669 -1.2954092 4293729569
8.1639328 5.5505648 -0.97641122 4293729569
8.1585388 5.53824 -1.4054267 4293729569
8.193965 5.5574985 -0.94442832 4293729569
6.9087834 4.6794233 -1.7436486 4288085770
8.1516638 5.5190091 -1.2564515 4293729569
8.8506393 5.9921141 -1.5563401 4293729569
8.1889868 5.5374432 -0.90745628 4293729569
9.2506781 6.2430649 -1.6583086 4293729569
8.2210169 5.5413737 -0.87448019 4293729569
6.8017387 4.5844693 -1.7377024 4288085770
8.1556835 5.4959488 -1.2194929 4293729569
9.4538069 6.3601055 -0.47630799 4293729569
9.098608 6.1191521 -1.6633673 4293729569
8.2420464 5.5363092 -0.84050834 4293729569
8.1246958 5.447897 -1.1765422 4293729569
6.7216969 4.5075121 -1.7387525 4288085770
8.939537 5.988236 -1.6644309 4293729569
8.2560711 5.5242457 -0.8055414 4293729569
9.5047712 6.359139 -0.51535797 4293729569
8.1327162 5.4228358 -1.1405909 4293729569
8.809474 5.8753138 -1.6704924 4293729569
6.6256542 4.4185543 -1.733807 4288085770
8.3041048 5.5321703 -0.77357388 4293729569
9.3796806 6.2382479 -0.54443741 4293729569
8.6884108 5.7673855 -1.6765544 4293729569
8.3771439 5.5540838 -0.74360722 4293729569
8.1457367 5.4007716 -1.1046393 4293729569
6.5466132 4.3395915 -1.7318612 4293729569
9.181571 6.068388 -0.56852788 4293729569
8.5743523 5.6634526 -1.6816164 4288085770
8.4671869 5.5869889 -0.71363884 4293729569
8.1617556 5.3777065 -1.0686922 4293729569
6.4825749 4.2696271 -1.7329152 4293729569
9.0464802 5.9394994 -0.59461099 4293729569
8.4492893 5.5495205 -1.6836847 4288085770
8.5542297 5.613893 -0.6816774 4293729569
8.181777 5.3566399 -1.0337459 4293729569
6.4365382 4.2106586 -1.7379681 4288085770
8.3652363 5.4625764 -1.6917474 4288085770
8.6792831 5.6627812 -0.6527161 4293729569
8.8863821 5.7936172 -0.61769831 4293729569
8.2668123 5.3755503 -1.0057958 4293729569
6.377501 4.1426897 -1.7390234 4288085770
8.2911835 5.3806291 -1.7008116 4288085770
8.834342 5.7296557 -0.62575382 4293729569
8.7692995 5.6767149 -0.64177895 4293729569
8.2218142 5.3075056 -0.96286476 4293729569
6.3484678 4.0937157 -1.7460761 4288085770
9.0164089 5.8105173 -0.5987944 4293729569
8.225132 5.3026805 -1.7118767 4288085770
8.6602182 5.5628071 -0.66486233 4293729569
8.2428331 5.2824378 -0.92792594 4293729569
9.1534624 5.8583941 -0.56684637 4293729569
8.1400795 5.210731 -1.715947 4288085770
6.3054328 4.0337429 -1.7491337 4288085770
8.5931492 5.4758801 -0.68994159 4293729569
8.2668495 5.256371 -0.89399177 4293729569
9.3695393 5.9552364 -0.53889322 4293729569
8.0610294 5.1227779 -1.7200164 4288085770
9.8739557 6.2675343 -0.2608602 4293729569
6.2613974 3.9727681 -1.7511919 4288085770
8.5210791 5.3849559 -0.71502256 4293729569
9.4225674 5.9451485 -0.50196058 4293729569
8.2858648 5.2263055 -0.85905945 4293729569
7.9959803 5.0428219 -1.7270861 4288085770
9.8818989 6.2195854 -0.296947 4293729569
6.2313647 3.9207914 -1.7562488 4288085770
8.4700165 5.3070192 -0.73910236 4293729569
9.5116034 5.9550438 -0.46602947 4293729569
8.3158846 5.2012334 -0.82412952 4293729569
7.9189291 4.953867 -1.730159 4288085770
9.7888079 6.1056824 -0.32904607 4293729569
6.1993322 3.8658128 -1.7593088 4288085770
9.5686331 5.9429517 -0.42710409 4293729569
8.4309559 5.2360773 -0.76418215 4293729569
7.8478808 4.8679066 -1.7322329 4288085770
8.3769064 5.1931515 -0.79320127 4293729569
9.7157278 6.0047674 -0.36014286 4293729569
6.1742988 3.8138332 -1.7643706 4288085770
9.6306639 5.9318576 -0.38918194 4293729569
8.405899 5.1721296 -0.79026383 4293729569
7.7788343 4.7839451 -1.7343055 4288085770
8.4529352 5.1930633 -0.76327437 4293729569
9.6416435 5.901855 -0.39224219 4293729569
6.1452661 3.7598524 -1.7674319 4288085770
9.6906891 5.9167643 -0.35126454 4293729569
8.4088488 5.1241693 -0.8173461 4293729569
7.7077861 4.6969829 -1.7353812 4288085770
8.5399628 5.1979699 -0.73434967 4293729569
9.5775671 5.8049326 -0.42134118 4293729569
6.133235 3.7148695 -1.7744946 4288085770
9.76472 5.9086642 -0.31334913 4293729569
7.6137376 4.5960217 -1.729458 4288085770
8.4408045 5.0931997 -0.84842819 4293729569
8.6299925 5.2028747 -0.7044282 4293729569
9.5334949 5.7190008 -0.45144141 4293729569
9.8857641 5.9275408 -0.27643433 4293729569
6.1142035 3.6648848 -1.778559 4288085770
7.5756946 4.5270505 -1.7355356 4288085770
8.474761 5.0612264 -0.87751389 4293729569
8.751029 5.2237668 -0.67751002 4293729569
9.9617939 5.9164391 -0.23852608 4293729569
9.4834213 5.6290693 -0.47954255 4293729569
6.0931726 3.6139002 -1.7816231 4288085770
7.4806471 4.4260874 -1.7276117 4293729569
8.4567032 4.9972725 -0.9016028 4293729569
8.8970699 5.2566471 -0.65159619 4293729569
10.015816 5.8893476 -0.19962323 4293729569
9.4303474 5.5371408 -0.50864428 4293729569
6.0831418 3.5679123 -1.7866899 4288085770
7.429605 4.3491149 -1.7286904 4293729569
9.0521126 5.2915215 -0.62468785 4293729569
8.597681 5.02526 -0.94169241 4293729569
10.096845 5.8772421 -0.16172168 4293729569
9.4092836 5.4631929 -0.53574705 4293729569
6.0751123 3.5239241 -1.7917551 4288085770
7.3765635 4.2711401 -1.7277687 4293729569
9.1881485 5.3124027 -0.59578449 4293729569
8.5436172 4.9383168 -0.96078491 4293729569
10.245891 5.9011016 -0.12382611 4293729569
9.3682156 5.3782535 -0.561849 4293729569
6.0580816 3.4719357 -1.7938251 4288085770
7.343524 4.2061629 -1.7318451 4293729569
9.3441896 5.3412743 -0.56788743 4293729569
8.5205603 4.8683624 -0.98287934 4293729569
10.462959 5.9599242 -0.084938243 4293729569
9.2561283 5.2513447 -0.58395225 4293729569
6.0520511 3.4269459 -1.7988942 4288085770
7.3224854 4.1451812 -1.7369263 4288085770
9.4222116 5.3241796 -0.53499156 4293729569
8.5765181 4.8423786 -1.0129768 4293729569
10.596 5.9687901 -0.046052497 4293729569
3.6873305 2.0792069 -1.8118517 4288085770
3.6553178 2.0602286 -1.8148525 4288085770
3.7193434 2.0961838 -1.8078545 4288085770
3.7693543 2.1241639 -1.8118563 4288085770
3.5993106 2.0272403 -1.8038533 4288085770
3.8083665 2.1441402 -1.8098607 4288085770
3.6222889 2.0372741 -1.8328588 4288085770
3.8453782 2.1621158 -1.8068665 4288085770
3.8993902 2.1900926 -1.8098722 4288085770
9.1850538 5.1474152 -0.60605699 4293729569
3.9484029 2.2130649 -1.8088813 4288085770
7.3044486 4.0861979 -1.7420074 4288085770
6.0280232 3.3719547 -1.7969625 4288085770
9.4702244 5.2890987 -0.50109673 4293729569
3.9954154 2.2340369 -1.8068918 4288085770
8.6194735 4.806397 -1.0400788 4293729569
4.0524278 2.2610085 -1.807902 4288085770
10.857078 6.045589 -0.007177623 4293729569
4.11344 2.2879798 -1.809916 4288085770
4.1694536 2.3119488 -1.8089303 4288085770
9.1389847 5.0584736 -0.62916112 4293729569
7.2794108 4.0222149 -1.7450901 4288085770
9.5452423 5.2670045 -0.46820667 4293729569
6.0159936 3.3229637 -1.7990327 4288085770
4.235465 2.3399177 -1.8109475 4288085770
8.6694298 4.7754154 -1.0691791 4293729569
4.2884793 2.358881 -1.8059672 4288085770
4.3594913 2.3878472 -1.8079877 4288085770
9.0759144 4.9605365 -0.64926398 4293729569
7.2553735 3.9592297 -1.747172 4288085770
9.6202602 5.2429109 -0.43532011 4293729569
4.4185066 2.4098096 -1.8040082 4288085770
6.0079651 3.2739687 -1.8001066 4288085770
8.7803955 4.7744102 -1.1042889 4293729569
4.5025191 2.4437733 -1.8090329 4288085770
4.4965153 2.4357746 -1.8080404 4288085770
4.4414997 2.4058039 -1.808037 4288085770
4.3864851 2.3758304 -1.8070338 4288085770
4.5495319 2.4637437 -1.8060452 4288085770
4.3364697 2.3468573 -1.8070337 4288085770
4.6125484 2.495712 -1.8070529 4288085770
4.2814555 2.3148811 -1.8040336 4288085770
4.6745639 2.5256779 -1.8060629 4288085770
9.0638561 4.8895769 -0.67237127 4293729569
4.5645337 2.4637308 -1.8030596 4288085770
4.2424388 2.2899063 -1.8070375 4288085770
4.7485809 2.5616422 -1.8080746 4288085770
7.2553382 3.9082403 -1.7542573 4288085770
9.6832733 5.2098236 -0.40243703 4293729569
4.1934252 2.2599289 -1.80504 4288085770
4.8025985 2.585604 -1.8020871 4288085770
6.0069351 3.229975 -1.8041792 4288085770
4.1554117 2.2349489 -1.8050448 4288085770
8.893362 4.773407 -1.1404008 4293729569
4.8686161 2.615566 -1.800101 4288085770
4.657547 2.4996912 -1.8090899 4288085770
4.1233964 2.2119703 -1.8080521 4288085770
4.9456344 2.6505256 -1.8001175 4288085770
4.0863824 2.1859896 -1.8080597 4288085770
5.0216532 2.6834824 -1.7981362 4288085770
4.7405615 2.5296474 -1.8091203 4288085770
9.1008072 4.8435965 -0.69848466 4293729569
4.0523682 2.1600072 -1.8080699 4288085770
5.1016703 2.7174404 -1.7981571 4288085770
7.2393036 3.8482509 -1.7563424 4288085770
9.7432852 5.1737375 -0.36955622 4293729569
4.0233536 2.1370256 -1.8100802 4288085770
5.1916895 2.7553928 -1.7981811 4288085770
5.9909077 3.1779795 -1.8022507 4288085770
4.8125777 2.5526016 -1.8041519 4288085770
9.0603342 4.7983837 -1.1825217 4293729569
5.2827082 2.7923448 -1.7982076 4288085770
3.9903405 2.1100402 -1.8080933 4288085770
4.8985915 2.5815563 -1.8041872 4288085770
5.3747277 2.8292949 -1.7972354 4288085770
3.966326 2.0880556 -1.8101066 4288085770
9.1727657 4.8166008 -0.72660035 4293729569
9.8383055 5.1546345 -0.33768126 4293729569
7.2322688 3.7922602 -1.7604297 4288085770
5.4757485 2.8692417 -1.7972667 4288085770
3.942313 2.0660694 -1.8111202 4288085770
4.9746075 2.6035063 -1.7982242 4288085770
5.9878812 3.1319821 -1.8033249 4288085770
9.1772985 4.7943778 -1.218643 4293729569
5.5907683 2.9151874 -1.8013018 4288085770
3.9212987 2.0440836 -1.8131363 4288085770
5.0806227 2.6404567 -1.8022655 4288085770
5.7107892 2.9621284 -1.80434 4288085770
9.2937326 4.8115864 -0.75872725 4293729569
3.9082839 2.0250962 -1.8171555 4288085770
9.870307 5.100563 -0.30480373 4293729569
7.2362342 3.7422667 -1.7665176 4288085770
5.8148112 3.0000689 -1.8013778 4288085770
5.1786385 2.6714032 -1.8013092 4288085770
9.2542553 4.7673836 -1.2487639 4293729569
5.9838543 3.0849831 -1.8034 4288085770
3.8772721 1.9971058 -1.8131722 4288085770
5.9308333 3.0420063 -1.8004205 4288085770
5.2716541 2.6983497 -1.7983546 4288085770
3.8632586 1.9771166 -1.815192 4288085770
9.4047003 4.8005733 -0.78885466 4293729569
9.9633245 5.0774622 -0.27393389 4293729569
7.2452021 3.6942706 -1.7726073 4288085770
6.0438566 3.0809402 -1.7964655 4288085770
9.3962202 4.7713671 -1.2868963 4293729569
5.9748263 3.0349858 -1.8024752 4288085770
5.38167 2.7322929 -1.799405 4288085770
3.8362465 1.9491241 -1.8112125 4288085770
6.1718793 3.1258726 -1.7965151 4288085770
3.8222337 1.9281328 -1.8122339 4288085770
9.4996595 4.7775674 -0.81798679 4293729569
5.4996858 2.7692337 -1.8014582 4288085770
6.2939034 3.1668019 -1.7925655 4288085770
10.053339 5.0503626 -0.24306807 4293729569
7.2421679 3.639276 -1.7756971 4288085770
9.5081787 4.7563629 -1.3220319 4293729569
5.9648008 2.9849856 -1.7995498 4288085770
3.8102202 1.9071405 -1.8132576 4288085770
6.4439292 3.2197254 -1.7946231 4288085770
5.6277018 2.8091722 -1.8055162 4288085770
9.6226254 4.76755 -0.84912473 4293729569
6.5959544 3.2706456 -1.7946862 4288085770
10.147354 5.0222611 -0.21220806 4293729569
3.7932081 1.883146 -1.8112812 4288085770
7.2581367 3.5932765 -1.7817906 4288085770
5.7427201 2.8421082 -1.8035734 4288085770
9.689146 4.7743344 -1.3651793 4293729569
5.9617743 2.9369848 -1.798628 4288085770
6.7269807 3.3105648 -1.7877473 4288085770
3.7861953 1.8641527 -1.8133061 4288085770
5.8547378 2.8710425 -1.7996343 4288085770
10.277375 5.0121422 -0.1823532 4293729569
9.7705936 4.7665229 -0.88227206 4293729569
6.890008 3.3634787 -1.787818 4288085770
7.2671046 3.544277 -1.7858825 4288085770
3.7861803 1.846159 -1.8173363 4288085770
9.8721142 4.7903047 -1.4083325 4293729569
5.9687567 2.8979726 -1.7937007 4288085770
5.9667482 2.8939834 -1.7997056 4288085770
7.0520349 3.4143896 -1.7858909 4288085770
3.7581718 1.816159 -1.8083595 4288085770
10.451407 5.0190001 -0.15251309 4293729569
9.8955574 4.7535028 -0.91241741 4293729569
6.0997744 2.9329019 -1.7927703 4288085770
7.2920737 3.5012743 -1.79298 4288085770
7.2440634 3.4772947 -1.7899733 4288085770
10.07508 4.8122711 -1.4554954 4293729569
3.8101475 1.8231761 -1.8363987 4288085770
5.9627228 2.8459814 -1.7977827 4288085770
6.2397938 2.9708259 -1.7918439 4288085770
7.4250946 3.5321941 -1.7870586 4288085770
10.705457 5.0608191 -0.12469267 4293729569
10.038522 4.7454758 -0.94457227 4293729569
3.8041351 1.8021789 -1.8364282 4288085770
7.2930412 3.446274 -1.7940743 4288085770
7.6391258 3.6010873 -1.7911524 4288085770
6.3988113 3.0147481 -1.7959257 4288085770
10.191036 4.7902608 -1.4886475 4293729569
5.9526982 2.7949779 -1.7928593 4288085770
3.7741277 1.7681737 -1.823456 4288085770
7.8311572 3.6559787 -1.7872486 4288085770
6.5428309 3.0506685 -1.7940068 4288085770
10.840475 5.0436974 -0.094855316 4293729569
10.191488 4.7394443 -0.9767338 4293729569
7.3060112 3.3962696 -1.7961721 4288085770
10.255985 4.7432652 -1.5137919 4293729569
8.0271902 3.7118676 -1.7823472 4288085770
5.9696732 2.7559712 -1.7949424 4288085770
6.7058501 3.0915837 -1.7950982 4288085770
11.020505 5.0445509 -0.065032065 4293729569
10.351456 4.7354088 -1.008899 4293729569
8.1952219 3.7517576 -1.7694452 4288085770
7.34798 3.3602626 -1.8062749 4288085770
6.890871 3.1414921 -1.799196 4288085770
10.888992 4.9521027 -1.6220622 4293729569
5.973649 2.7109652 -1.7930229 4288085770
8.3742542 3.7936432 -1.7575508 4288085770
7.0548906 3.1784019 -1.7972953 4288085770
10.52042 4.7313704 -1.0420735 4293729569
7.35495 3.3072581 -1.8063723 4288085770
8.5932884 3.8515179 -1.751669 4288085770
11.551996 5.1639333 -1.7363576 4288085770
3.7830758 1.6921759 -1.8285934 4288085770
5.9896245 2.6709576 -1.794107 4288085770
7.2529125 3.2293031 -1.8014042 4288085770
8.8213243 3.9103856 -1.7447945 4288085770
10.691386 4.7253313 -1.0752536 4293729569
7.3639207 3.254251 -1.8054718 4288085770
11.471485 5.0463414 -0.087476596 4293729569
3.7560699 1.6591675 -1.8146228 4288085770
7.4189339 3.2632072 -1.7965109 4288085770
11.473925 5.0399776 -1.7394925 4288085770
9.0643597 3.9712474 -1.7389314 4288085770
6.0056 2.6309497 -1.795191 4288085770
10.880353 4.7242832 -1.1094433 4293729569
3.7530594 1.636162 -1.8106588 4288085770
7.6199551 3.3091021 -1.7976319 4288085770
7.3738923 3.2022429 -1.8045707 4288085770
11.594433 5.0203424 -0.13064361 4293729569
9.3444014 4.0470958 -1.7370796 4288085770
11.448861 4.9410057 -1.7496376 4288085770
6.0225773 2.5919402 -1.7952746 4288085770
7.8339777 3.3579919 -1.7997608 4288085770
3.7650456 1.6191604 -1.8136996 4288085770
9.6564436 4.1319318 -1.7382442 4288085770
11.077319 4.7242312 -1.1436394 4293729569
11.722381 4.9953375 -0.17181408 4293729569
7.3658628 3.1412365 -1.7986672 4288085770
11.376795 4.8230443 -1.7517687 4288085770
8.0630007 3.4108734 -1.8018976 4288085770
9.921484 4.1937766 -1.7294019 4288085770
3.7720332 1.5991564 -1.8137405 4288085770
6.0255551 2.5459299 -1.7903563 4288085770
11.833323 4.9603419 -0.21298504 4293729569
11.274283 4.72118 -1.1778412 4293729569
7.3758349 3.088227 -1.7967682 4288085770
10.228528 4.2686043 -1.7235789 4293729569
8.2620239 3.4477596 -1.7970324 4288085770
11.262727 4.6870937 -1.7458894 4288085770
3.775022 1.5781512 -1.8117793 4288085770
