# .PCD v0.7 - Point Cloud Data file format
VERSION 0.7
FIELDS x y z rgb
SIZE 4 4 4 4
TYPE F F F U
COUNT 1 1 1 1
WIDTH 1098
HEIGHT 1
VIEWPOINT 0 0 0 1 0 0 0
POINTS 1098
DATA ascii
-3.1399841 2.831563 -1.2661514 4293729569
-3.0731812 2.8266373 -0.96436787 4293729569
-3.1446228 2.8716402 -1.2596405 4293729569
-3.0757446 2.8676567 -0.95692158 4293729569
-3.1422424 2.9155607 -1.2553484 4293729569
-3.0693359 2.912468 -0.95176601 4293729569
-3.1358032 2.960371 -1.2501931 4293729569
-3.065918 2.955348 -0.94551897 4293729569
-3.1182556 3.0109186 -1.2463861 4293729569
-3.0543213 3.0030174 -0.93852139 4293729569
-3.1379089 3.0433168 -1.2334011 4293729569
-3.0437622 3.0497112 -0.93149471 4293729569
-3.1404419 3.0843201 -1.2239554 4293729569
-3.0272217 3.0982676 -0.92566824 4293729569
-3.1239014 3.1328764 -1.2181284 4293729569
-3.0075684 3.1487322 -0.91793442 4293729569
-3.1293945 3.1709375 -1.206599 4293729569
-2.9778442 3.2039623 -0.91252089 4293729569
-3.1248169 3.2137575 -1.1963894 4293729569
-2.9672241 3.2496328 -0.90250349 4293729569
-3.1001892 3.2661142 -1.1908188 4293729569
-2.9232788 3.3125076 -0.89653111 4293729569
-3.0845032 3.3136597 -1.1809657 4293729569
-2.8864136 3.3715496 -0.88933849 4293729569
-3.1030579 3.3429947 -1.1630414 4293729569
-2.8565674 3.4267473 -0.87992668 4293729569
-3.0833435 3.3924417 -1.1533163 4293729569
-2.8023987 3.4963655 -0.87326002 4293729569
-3.0736694 3.4361143 -1.1402798 4293729569
-2.7603455 3.5592537 -0.86321831 4293729569
-3.0276184 3.4999313 -1.1333716 4293729569
-2.6365051 3.665206 -0.8647337 4293729569
-2.9998169 3.5521708 -1.1229105 4293729569
3.4273376 7.0016985 -1.768332 4288085770
-2.9588318 3.6120882 -1.112855 4293729569
3.6549988 7.2080412 -1.7626908 4288085770
-2.9016724 3.6826315 -1.1062875 4293729569
3.9100342 7.4307108 -1.7578881 4288085770
0.4503479 5.6355162 -1.7627227 4288085770
4.2348938 7.6937056 -1.7602372 4288085770
0.58514404 5.7701464 -1.7563791 4288085770
4.6073914 7.9865389 -1.7650349 4288085770
0.76138306 5.9287977 -1.7563117 4288085770
0.96194458 6.1028585 -1.7579827 4288085770
1.1808167 6.2894621 -1.7592006 4288085770
1.414978 6.4856977 -1.7608795 4288085770
1.7420654 6.7387285 -1.7764022 4288085770
2.0381165 6.9744558 -1.7819548 4288085770
2.3312378 7.2092352 -1.7844083 4288085770
2.5902405 7.4227686 -1.7748172 4288085770
2.9726257 7.7143793 -1.7829747 4288085770
3.3552551 8.0069437 -1.7851276 4288085770
11.321411 -0.12710857 -1.6065705 4288085770
10.418396 -0.18139839 -1.6339591 4288085770
9.5227966 -0.22691536 -1.6555336 4288085770
8.6705627 -0.26655674 -1.6715963 4288085770
7.9592896 -0.30466557 -1.6936591 4288085770
7.280365 -0.33660698 -1.7118154 4288085770
6.6565247 -0.36592484 -1.7299082 4288085770
6.0708618 -0.39119816 -1.7473223 4288085770
5.4865723 -0.41055775 -1.7577312 4288085770
11.048431 -0.79746532 -1.6155555 4288085770
4.9552917 -0.42921543 -1.7710185 4288085770
10.045624 -0.80125713 -1.6419687 4288085770
4.4512024 -0.44457531 -1.7812431 4288085770
9.1010437 -0.80154228 -1.6634216 4288085770
4.0020752 -0.45928192 -1.7944167 4288085770
8.2855835 -0.80303288 -1.686471 4288085770
3.5661011 -0.47133541 -1.8050349 4288085770
7.5522156 -0.80257225 -1.7094221 4288085770
3.1453857 -0.47979736 -1.8121605 4288085770
6.8490906 -0.79990387 -1.7274265 4288085770
2.7099609 -0.48393059 -1.8137236 4288085770
6.2260132 -0.79722214 -1.7462759 4288085770
2.3045959 -0.48681355 -1.8153443 4288085770
5.5843506 -0.78913784 -1.7574131 4288085770
1.933197 -0.48852634 -1.8191636 4288085770
5.0126648 -0.78177643 -1.771044 4288085770
1.593811 -0.49104023 -1.8231275 4288085770
4.4393616 -0.76843929 -1.7765634 4288085770
1.29422 -0.49450207 -1.8325179 4288085770
4.0044861 -0.76544476 -1.7960968 4288085770
0.91751099 -0.48718071 -1.8230634 4288085770
3.5569153 -0.75819588 -1.8081398 4288085770
0.5401001 -0.4769001 -1.8075521 4288085770
3.099762 -0.74475861 -1.8137798 4288085770
0.24514771 -0.47155857 -1.8060217 4288085770
2.6368408 -0.7282114 -1.814187 4288085770
-0.0031433105 -0.47032356 -1.8121898 4288085770
2.2387085 -0.71623707 -1.8199382 4288085770
-0.28686523 -0.46329689 -1.8060412 4288085770
1.8706665 -0.70302486 -1.8247473 4288085770
-0.53186035 -0.45718765 -1.806283 4288085770
1.5086975 -0.68897343 -1.8277647 4288085770
-0.81430054 -0.44623184 -1.7951434 4288085770
1.2232361 -0.68074894 -1.8415589 4288085770
-1.0035706 -0.44345284 -1.8033972 4288085770
0.78738403 -0.65203953 -1.8208122 4288085770
-1.1709595 -0.44219685 -1.8144438 4288085770
0.38653564 -0.62418938 -1.8013163 4288085770
-1.3738403 -0.43514061 -1.8141727 4288085770
0.1086731 -0.61023521 -1.8043227 4288085770
-1.5479126 -0.42976665 -1.818943 4288085770
-0.12646484 -0.59930706 -1.8128784 4288085770
-1.7495422 -0.41877174 -1.8146801 4288085770
-0.39804077 -0.58156395 -1.8090734 4288085770
-1.9214172 -0.41147995 -1.8155091 4288085770
-0.68426514 -0.56050205 -1.7987144 4288085770
-2.1060181 -0.40092182 -1.8098552 4288085770
-0.87835693 -0.54959297 -1.8077285 4288085770
-2.2736816 -0.39075851 -1.807807 4288085770
-1.0743103 -0.53767109 -1.8126662 4288085770
-2.4304504 -0.38085747 -1.8071508 4288085770
-1.2503662 -0.52621365 -1.8213165 4288085770
-2.5713196 -0.37232971 -1.809073 4288085770
-1.4490662 -0.51126099 -1.8211277 4288085770
-2.7505798 -0.35794735 -1.7975717 4288085770
-1.6466675 -0.4943409 -1.8199601 4288085770
-2.8715515 -0.35089779 -1.8022146 4288085770
-1.841156 -0.47751331 -1.8169012 4288085770
-3.0042725 -0.3405962 -1.8014092 4288085770
-2.0276489 -0.45989037 -1.8131211 4288085770
-3.1319275 -0.32941723 -1.8007753 4288085770
-2.2189636 -0.44118309 -1.8051577 4288085770
-3.2546692 -0.31936169 -1.8003273 4288085770
-2.3656921 -0.42750168 -1.8078268 4288085770
-2.5252075 -0.4105444 -1.8050115 4288085770
-2.6727905 -0.39587402 -1.8036399 4288085770
-2.8301086 -0.37700176 -1.7968838 4288085770
-2.9597473 -0.36276817 -1.7971544 4288085770
-3.0804749 -0.3487463 -1.7987461 4288085770
-3.2049866 -0.33265209 -1.7971816 4288085770
-3.1634827 1.5551329 -1.7495522 4288085770
-3.0350037 1.5689554 -1.7519743 4288085770
-2.918396 1.5790291 -1.7490041 4288085770
-2.783905 1.5906954 -1.7506561 4288085770
-2.6414185 1.6031647 -1.7525849 4288085770
-2.5058594 1.61378 -1.7512815 4288085770
-2.3523865 1.6259804 -1.7536013 4288085770
-3.2185059 1.4935207 -1.7571163 4288085770
-2.2008057 1.6362028 -1.7528672 4288085770
-3.0991211 1.499548 -1.7572827 4288085770
-2.0403137 1.6462126 -1.7534523 4288085770
-2.9717712 1.5053892 -1.7587326 4288085770
-1.8688049 1.657959 -1.7554123 4288085770
-2.8563538 1.5084896 -1.7557814 4288085770
-1.6922607 1.6675758 -1.7565668 4288085770
-2.7250061 1.5132236 -1.7563818 4288085770
-1.4968262 1.6797419 -1.7603717 4288085770
-2.5787354 1.5186052 -1.7595067 4288085770
-1.307312 1.6890297 -1.7609887 4288085770
-2.4254456 1.5238266 -1.76388 4288085770
-1.0798645 1.702426 -1.7679145 4288085770
-2.2791138 1.5271816 -1.7640221 4288085770
-0.80755615 1.7207651 -1.7823899 4288085770
-2.1357422 1.5275955 -1.7620826 4288085770
-0.57907104 1.7301044 -1.7853854 4288085770
-1.9814148 1.528739 -1.7605259 4288085770
-0.30871582 1.7424431 -1.7938402 4288085770
-1.8251038 1.527833 -1.7590566 4288085770
-0.059234619 1.750247 -1.7955911 4288085770
-1.6339111 1.5311184 -1.7647886 4288085770
0.23022461 1.7621012 -1.8027227 4288085770
-1.4516296 1.5315905 -1.7662261 4288085770
0.47683716 1.7639217 -1.7974181 4288085770
-1.2843018 1.5273895 -1.7621734 4288085770
0.71444702 1.7619371 -1.7888272 4288085770
-1.0711975 1.5281372 -1.7687027 4288085770
1.0309143 1.7690954 -1.7929525 4288085770
-0.8710022 1.5241489 -1.7688136 4288085770
1.3463745 1.7712421 -1.7930841 4288085770
-0.62689209 1.5241318 -1.7764459 4288085770
1.5541687 1.757885 -1.7705281 4288085770
-0.36987305 1.5238132 -1.7865386 4288085770
1.836792 1.7517576 -1.7595627 4288085770
-0.15667725 1.5154839 -1.7841446 4288085770
2.209259 1.7524986 -1.7607217 4288085770
0.092437744 1.5082951 -1.7860131 4288085770
2.580719 1.7492342 -1.7588785 4288085770
0.35949707 1.5016775 -1.7905126 4288085770
2.9961548 1.7469015 -1.759583 4288085770
0.57873535 1.4861479 -1.7823904 4288085770
3.4246216 1.7422266 -1.7587671 4288085770
0.82485962 1.4709854 -1.7782185 4288085770
3.8780518 1.7349253 -1.7568572 4288085770
1.1776733 1.4633064 -1.7917643 4288085770
4.3564758 1.7259989 -1.7548442 4288085770
1.4268494 1.4420271 -1.7827497 4288085770
4.8339539 1.7110538 -1.7478461 4288085770
1.6520996 1.4162827 -1.7669246 4288085770
5.3024292 1.6902905 -1.7355783 4288085770
1.9052429 1.3898773 -1.7550931 4288085770
5.8119202 1.66751 -1.7237771 4288085770
2.2391968 1.3675508 -1.7540898 4288085770
6.3573608 1.6418276 -1.7112725 4288085770
2.598999 1.3425951 -1.7550263 4288085770
6.9238586 1.6126041 -1.6965404 4288085770
2.9738159 1.3142529 -1.7545207 4288085770
7.5142517 1.5787725 -1.6806941 4288085770
3.3575745 1.2826824 -1.7533598 4288085770
8.1426697 1.5399742 -1.6622331 4288085770
3.7164307 1.2466726 -1.7453523 4288085770
8.8439941 1.4993887 -1.6473672 4288085770
4.1161804 1.2086773 -1.7408097 4288085770
9.6122437 1.4541435 -1.6329088 4288085770
4.5816956 1.1680841 -1.7416198 4288085770
10.484406 1.4053211 -1.6201577 4288085770
5.0163269 1.1222019 -1.7353785 4288085770
11.298676 1.3448524 -1.596452 4288085770
5.4569397 1.0711479 -1.7263923 4288085770
5.9503479 1.015811 -1.7213128 4288085770
6.4338379 0.95466805 -1.7099285 4288085770
6.9421997 0.8868866 -1.6974857 4288085770
7.4815063 0.81534958 -1.6861641 4288085770
8.0307312 0.73653698 -1.6712556 4288085770
8.6856689 0.65215302 -1.6641371 4288085770
9.3196716 0.56022835 -1.649339 4288085770
9.9894714 0.46041298 -1.634877 4288085770
10.702118 0.35253334 -1.6209993 4288085770
11.452606 0.23468876 -1.604547 4288085770
-1.2004395 -4.3247552 -0.57272959 4293729569
-1.3857727 -4.3233519 -0.67324066 4293729569
-1.4487 -4.3185258 -0.70599651 4293729569
-1.6226196 -4.2993798 -0.80875301 4293729569
-0.82623291 -4.8589468 -0.48962736 4293729569
-1.62854 -4.3259311 -0.8478055 4293729569
-0.86468506 -4.86166 -0.53132105 4293729569
-1.6569824 -4.3349242 -0.88590574 4293729569
-0.88644409 -4.8737793 -0.57468987 4293729569
-0.89941406 -4.9007382 -1.036777 4293729569
-0.97088623 -4.8393598 -0.61342669 4293729569
-0.90164185 -4.9283152 -1.0839746 4293729569
-1.3660583 -4.58039 -0.62118006 4293729569
-0.9223938 -4.9394503 -1.1283703 4293729569
-0.92391968 -4.9177952 -0.70884418 4293729569
-0.94113159 -4.950633 -1.172837 4293729569
-0.92785645 -4.9343362 -0.75488234 4293729569
-0.97158813 -4.9515343 -1.2157981 4293729569
-0.93655396 -4.9447556 -0.80069542 4293729569
-1.8805847 -4.309618 -1.1049294 4293729569
-0.94232178 -4.9552507 -0.84661436 4293729569
-1.6116638 -4.5226407 -1.1963751 4293729569
-1.0704651 -4.8757944 -0.87740374 4293729569
-0.99017334 -4.9919519 -1.35759 4293729569
-1.8103027 -4.349638 -0.82657671 4293729569
-1.0174866 -4.985929 -1.4006009 4293729569
-1.8822632 -4.3045797 -0.85865545 4293729569
-1.8482056 -4.3860292 -1.2828648 4293729569
-1.8856506 -4.3081784 -0.89859295 4293729569
-1.936615 -4.3296194 -1.3072569 4293729569
-1.8635559 -4.3273754 -0.94357109 4293729569
-1.9420166 -4.3311505 -1.3491061 4293729569
-1.8580322 -4.3331771 -0.98584318 4293729569
-1.913208 -4.3564906 -1.3973792 4293729569
-1.8768921 -4.3184085 -1.0230694 4293729569
-1.9038391 -4.3663712 -1.441824 4293729569
-1.8780823 -4.3150578 -1.0630214 4293729569
-1.9353638 -4.3423114 -1.4755182 4293729569
-1.8450317 -4.335525 -1.108398 4293729569
-1.9727478 -4.313107 -1.50896 4293729569
-1.6790466 -4.4491301 -1.1783113 4293729569
-1.8833008 -4.3758478 -1.5717146 4293729569
-0.96200562 -4.9607177 -1.353281 4293729569
-1.5803833 -4.5925035 -1.6894081 4293729569
-0.96017456 -4.950407 -1.3972797 4293729569
-1.724762 -4.4778409 -1.694294 4293729569
-0.94168091 -4.9494848 -1.4449522 4293729569
-1.8407288 -4.3828478 -1.7043593 4293729569
-0.92111206 -4.9476213 -1.491688 4293729569
-1.9634094 -4.2797122 -1.7111135 4293729569
-0.87811279 -4.9602814 -1.5433497 4293729569
-2.0655518 -4.1910706 -1.7207246 4293729569
-0.64950562 -5.1022763 -1.6347375 4293729569
-2.0838318 -4.1623497 -1.7528408 4293729569
-1.6664734 -4.3542161 -1.4530697 4293729569
-2.0621643 -4.1595449 -1.7956069 4293729569
-2.0219116 -4.1691694 -1.8431408 4288085770
-1.6324768 -4.3324237 -1.5321212 4293729569
-2.000061 -4.1623755 -1.8848753 4288085770
-1.2015686 -4.6081262 -1.6688662 4293729569
-2.1037292 -4.0647497 -1.8873467 4288085770
-1.2985535 -4.5095835 -1.6815708 4293729569
-2.2131348 -3.9620047 -1.8865671 4288085770
-1.4169312 -4.3965569 -1.6873865 4293729569
-2.3311768 -3.8510876 -1.8804073 4288085770
-1.5059509 -4.303236 -1.697417 4293729569
-2.4560242 -3.7360268 -1.8709688 4288085770
-1.5900269 -4.2120371 -1.7076414 4293729569
-2.5514832 -3.6406498 -1.8677444 4288085770
-1.5881042 -4.1778269 -1.7384191 4293729569
-2.6313477 -3.5546379 -1.8681579 4288085770
-1.5266724 -4.182992 -1.783658 4293729569
-2.7024231 -3.4758339 -1.8699462 4288085770
-1.458313 -4.190321 -1.8301609 4288085770
-2.7821655 -3.3898478 -1.8673618 4288085770
-1.4074402 -4.1842585 -1.8709233 4288085770
-2.8588867 -3.3049431 -1.8638921 4288085770
-1.4725647 -4.0985498 -1.8788631 4288085770
-2.9180603 -3.2324419 -1.8651552 4288085770
-1.566925 -3.9951849 -1.8776073 4288085770
-2.9878235 -3.1517258 -1.8599677 4288085770
-1.6680603 -3.8876829 -1.8720737 4288085770
-3.0439758 -3.0803156 -1.8593462 4288085770
-1.7759399 -3.7750378 -1.8632534 4288085770
-3.0932312 -3.0120668 -1.8599966 4288085770
-1.8544617 -3.681078 -1.8606391 4288085770
-3.1424561 -2.9448357 -1.8586562 4288085770
-1.9173889 -3.5974817 -1.8616703 4288085770
-3.1896667 -2.8776541 -1.8573871 4288085770
-1.9811707 -3.5128794 -1.8606596 4288085770
-3.2416687 -2.8073769 -1.8529184 4288085770
-2.0312805 -3.4365997 -1.8622084 4288085770
-3.2956238 -2.7360687 -1.8463714 4288085770
-2.0921021 -3.3540878 -1.8593211 4288085770
-3.3193665 -2.6834364 -1.8500633 4288085770
-2.144043 -3.2767859 -1.8577929 4288085770
-3.3410339 -2.6318693 -1.8518355 4288085770
-2.1852112 -3.2057438 -1.8577023 4288085770
-2.228302 -3.1336613 -1.8565333 4288085770
-2.259613 -3.0688629 -1.8568456 4288085770
-2.3006287 -2.9968462 -1.8537486 4288085770
-2.3358154 -2.9299784 -1.8509049 4288085770
-2.3425598 -2.8777628 -1.8551984 4288085770
-2.3669128 -2.8171511 -1.853792 4288085770
-2.3804626 -2.7617922 -1.8548148 4288085770
-2.3900757 -2.7085285 -1.8559949 4288085770
-2.4074707 -2.6510983 -1.8538618 4288085770
-2.4237976 -2.5937109 -1.8497651 4288085770
-2.4195862 -2.5467806 -1.8524895 4288085770
-2.4232483 -2.4966822 -1.851908 4288085770
-2.4335938 -2.4424477 -1.8470483 4288085770
-2.4156189 -2.4018507 -1.8513165 4288085770
-2.412262 -2.3549328 -1.8500075 4288085770
-2.4020386 -2.3101768 -1.849962 4288085770
-2.3887329 -2.2665024 -1.8490314 4288085770
-2.3755188 -2.2228289 -1.8481009 4288085770
-2.3631897 -2.1791468 -1.8451364 4288085770
-2.3391113 -2.1407337 -1.8456349 4288085770
-2.3101196 -2.1034307 -1.8473182 4288085770
-2.2908325 -2.0619211 -1.8446174 4288085770
-2.2528992 -2.0288391 -1.8466513 4288085770
-2.2267456 -1.989502 -1.8442142 4288085770
-2.1936646 -1.9543238 -1.8430569 4288085770
-3.3150635 -1.5414209 -1.8308585 4288085770
-2.1497192 -1.9213972 -1.8443038 4288085770
-3.2684631 -1.51653 -1.8362746 4288085770
-2.1077271 -1.8874321 -1.8444722 4288085770
-3.2276917 -1.4895287 -1.8374648 4288085770
-2.0666809 -1.8534613 -1.8426063 4288085770
-3.1907959 -1.4604406 -1.8374972 4288085770
-2.0137634 -1.8227549 -1.844188 4288085770
-3.1686096 -1.4260283 -1.8319612 4288085770
-1.9608154 -1.7910681 -1.8437624 4288085770
-3.1071472 -1.4054947 -1.8389399 4288085770
-1.8980103 -1.7636061 -1.845722 4288085770
-3.0691833 -1.3764486 -1.837009 4288085770
-1.834137 -1.7351789 -1.8467093 4288085770
-3.024353 -1.3485632 -1.8363328 4288085770
-1.7771301 -1.703598 -1.8454256 4288085770
-2.9814148 -1.3206377 -1.8345871 4288085770
-1.7112732 -1.675231 -1.8454838 4288085770
-2.9256897 -1.2960033 -1.8363235 4288085770
-1.6501465 -1.6437654 -1.8423429 4288085770
-2.8581543 -1.2756443 -1.8405159 4288085770
-1.5743103 -1.616641 -1.8427629 4288085770
-2.8022766 -1.2490301 -1.8402369 4288085770
-1.5063782 -1.5883389 -1.840893 4288085770
-2.7435303 -1.2244797 -1.84108 4288085770
-1.4117126 -1.5656624 -1.8440166 4288085770
-2.6856384 -1.1989298 -1.8388808 4288085770
-1.3061218 -1.5452442 -1.8485453 4288085770
-2.6158752 -1.1756487 -1.840121 4288085770
-1.2290649 -1.5151815 -1.8449783 4288085770
-2.5412292 -1.1534891 -1.8415461 4288085770
-1.1223755 -1.4928074 -1.8475266 4288085770
-2.4861755 -1.1258945 -1.8362262 4288085770
-1.0245361 -1.4692392 -1.8467503 4288085770
-2.4084778 -1.1038084 -1.8377569 4288085770
-0.91375732 -1.445982 -1.8474331 4288085770
-2.3061218 -1.0872908 -1.8452096 4288085770
-0.78424072 -1.4271526 -1.8528178 4288085770
-2.2528687 -1.056674 -1.8367965 4288085770
-0.6703186 -1.4030094 -1.8506067 4288085770
-2.1661072 -1.0348434 -1.836653 4288085770
-0.56134033 -1.3767433 -1.8471959 4288085770
-2.0557251 -1.0185289 -1.8433888 4288085770
-0.44830322 -1.3505802 -1.842927 4288085770
-1.9648743 -0.99580002 -1.8413732 4288085770
-0.32733154 -1.3256073 -1.8399487 4288085770
-1.8474121 -0.97866821 -1.8473485 4288085770
-0.22894287 -1.2941341 -1.8291116 4288085770
-1.752533 -0.9550457 -1.8444664 4288085770
-0.071258545 -1.2760382 -1.8304887 4288085770
-1.6428223 -0.93476295 -1.8451374 4288085770
0.099365234 -1.2572536 -1.8333168 4288085770
-1.5360107 -0.9134264 -1.8436952 4288085770
0.33340454 -1.2509613 -1.8464937 4288085770
-1.4122925 -0.89248943 -1.8448529 4288085770
0.48550415 -1.2257833 -1.8406053 4288085770
-1.2885132 -0.87256813 -1.8440201 4288085770
0.70291138 -1.2121334 -1.8471267 4288085770
-1.1459351 -0.85408688 -1.8468649 4288085770
0.95617676 -1.2033453 -1.8569531 4288085770
-1.0348206 -0.8298912 -1.8405423 4288085770
1.1423035 -1.1790085 -1.8512671 4288085770
-0.92468262 -0.80369473 -1.8321693 4288085770
1.3492737 -1.1581812 -1.8473477 4288085770
-0.79367065 -0.78099155 -1.8265617 4288085770
1.5741577 -1.1387854 -1.8450723 4288085770
-0.67739868 -0.75395775 -1.8163931 4288085770
1.8161316 -1.118824 -1.8413908 4288085770
-0.53738403 -0.73148441 -1.8101044 4288085770
2.0611572 -1.0989456 -1.8368161 4288085770
-0.34082031 -0.71532822 -1.8148665 4288085770
2.3538818 -1.0832052 -1.8379607 4288085770
-0.16894531 -0.6946106 -1.8127153 4288085770
2.6012268 -1.0584316 -1.8274186 4288085770
0.012939453 -0.67415142 -1.8099182 4288085770
2.9230957 -1.0424328 -1.8265817 4288085770
0.20288086 -0.65289593 -1.8063962 4288085770
3.2808533 -1.0283175 -1.8270264 4288085770
0.41177368 -0.63309765 -1.8045535 4288085770
3.5892944 -1.0050755 -1.8146431 4288085770
0.72286987 -0.62369633 -1.82041 4288085770
3.9237061 -0.98246193 -1.8041787 4288085770
1.0489807 -0.61467266 -1.8357968 4288085770
4.2522888 -0.95674992 -1.78848 4288085770
1.3178406 -0.59534836 -1.8360672 4288085770
4.6665039 -0.93909931 -1.7808683 4288085770
1.586792 -0.5750494 -1.8333304 4288085770
5.1455994 -0.92403316 -1.7765627 4288085770
1.8479919 -0.55159283 -1.8262885 4288085770
5.6419067 -0.90642071 -1.7688355 4288085770
2.1748962 -0.53270721 -1.8266017 4288085770
6.1444702 -0.88701248 -1.7553072 4288085770
2.493042 -0.51164627 -1.821583 4288085770
6.6741638 -0.86528587 -1.74071 4288085770
2.8421326 -0.49034691 -1.8176515 4288085770
7.2549438 -0.84384632 -1.7239096 4288085770
3.2431335 -0.47030449 -1.8175578 4288085770
7.8768616 -0.82244873 -1.7045531 4288085770
3.615509 -0.44661713 -1.8094175 4288085770
8.5727539 -0.80287457 -1.6868126 4288085770
4.0258179 -0.42387009 -1.8016212 4288085770
9.3247986 -0.78172302 -1.6660304 4288085770
4.4404907 -0.39727688 -1.7879367 4288085770
10.2099 -0.76386929 -1.6459532 4288085770
4.914032 -0.3721199 -1.7773373 4288085770
11.156281 -0.74356747 -1.6220031 4288085770
5.437561 -0.34719181 -1.7684972 4288085770
5.9744568 -0.31864548 -1.7530878 4288085770
6.5992126 -0.29225349 -1.7417879 4288085770
7.2103271 -0.26258755 -1.7219729 4288085770
7.897644 -0.23082447 -1.7008145 4288085770
8.6300964 -0.19820309 -1.6772318 4288085770
9.5813293 -0.16793633 -1.6633651 4288085770
10.547089 -0.1331234 -1.6379588 4288085770
11.641968 -0.097503662 -1.6140809 4288085770
11.240234 0.43073845 -1.5992875 4288085770
10.754578 0.55692482 -1.6111515 4288085770
10.246948 0.67660427 -1.6173041 4288085770
9.8082275 0.79158783 -1.6249084 4288085770
9.4134521 0.90349197 -1.6340778 4288085770
9.0056458 1.0106726 -1.6378348 4288085770
8.7116699 1.1161041 -1.650589 4288085770
8.3847656 1.2172918 -1.656229 4288085770
8.0878296 1.3157444 -1.6629403 4288085770
7.7919006 1.4111443 -1.6667144 4288085770
7.5788574 1.5075388 -1.6763799 4288085770
7.3628235 1.6019917 -1.6839576 4288085770
7.1088257 1.6913366 -1.6862526 4288085770
6.915802 1.782198 -1.6916664 4288085770
6.7587585 1.8741932 -1.7003281 4288085770
6.6107483 1.966958 -1.7082987 4288085770
6.4107666 2.0509377 -1.7075288 4288085770
6.2067871 2.1330061 -1.7056363 4288085770
6.0307922 2.2143879 -1.7047281 4288085770
5.8688354 2.2964182 -1.7033045 4288085770
5.7478333 2.3804617 -1.7052958 4288085770
5.6199036 2.4646664 -1.7060421 4288085770
5.4799805 2.5441322 -1.7024105 4288085770
5.3410645 2.6235704 -1.6988146 4288085770
5.2321167 2.7042837 -1.6972556 4288085770
5.1602478 2.7921047 -1.6989291 4288085770
0.66824341 2.0945339 -1.128056 4293729569
0.10733032 2.0578699 -1.0607498 4293729569
0.94445801 2.2152166 -0.70730829 4293729569
-0.19546509 2.0630798 -1.0250969 4293729569
0.60821533 2.2193546 -0.68350315 4293729569
-0.5043335 2.0624285 -0.98828411 4293729569
0.2437439 2.2121649 -0.65681553 4293729569
-0.86233521 2.0469303 -0.94388676 4293729569
-0.029510498 2.2187662 -0.63619137 4293729569
-0.98709106 2.0759068 -0.92924738 4293729569
-0.077026367 2.2699327 -0.6330514 4293729569
-1.2250671 2.0785542 -0.89888668 4293729569
-0.47976685 2.2426338 -0.60020828 4293729569
-1.4119568 2.0899906 -0.87523174 4293729569
-0.7361145 2.2428141 -0.57923317 4293729569
-1.5428162 2.1110907 -0.85745049 4293729569
-0.72955322 2.299654 -0.57793283 4293729569
-1.666687 2.132019 -0.83991528 4293729569
-0.55426025 2.399437 -0.59013844 4293729569
-1.7714844 2.1564884 -0.82401419 4293729569
-1.3590088 2.254777 -0.52231407 4293729569
-1.8693237 2.1807966 -0.8093586 4293729569
-1.4288025 2.2894335 -0.51254797 4293729569
-2.0032654 2.193944 -0.78854132 4293729569
-0.64660645 2.5486078 -0.57150841 4293729569
-2.0660706 2.224411 -0.77705574 4293729569
-1.1634216 2.4650059 -0.5251956 4293729569
-2.0565491 2.2751617 -0.77391291 4293729569
-1.1889343 2.5115891 -0.51786566 4293729569
-2.0561218 2.3231249 -0.76947927 4293729569
-1.1852417 2.5654554 -0.51148844 4293729569
-2.0174866 2.3821802 -0.769279 4293729569
-1.1946106 2.6156359 -0.50368786 4293729569
-2.0059204 2.4328642 -0.76420736 4293729569
-1.1998901 2.6677074 -0.49501228 4293729569
-1.991272 2.4864721 -0.75921631 4293729569
-1.2011414 2.7206812 -0.48646879 4293729569
-1.9816589 2.5371866 -0.75207567 4293729569
-1.2013855 2.774621 -0.47695208 4293729569
-1.9740295 2.5879469 -0.74486494 4293729569
0.32312012 3.3228111 -0.57519341 4293729569
-1.9693604 2.6377745 -0.73655748 4293729569
-1.3708801 2.8245525 -0.4435401 4293729569
-1.9636841 2.6875687 -0.72728634 4293729569
-1.3439026 2.8858185 -0.43390656 4293729569
-1.9057312 2.7551184 -0.72368002 4293729569
-0.96136475 3.0705023 -0.4475646 4293729569
-1.8436279 2.8265696 -0.72018099 4293729569
-0.90197754 3.1469707 -0.43792152 4293729569
-1.6899719 2.9308252 -0.72458363 4293729569
-1.1387329 3.1165762 -0.40790892 4293729569
-1.5795593 3.0211124 -0.72460175 4293729569
-0.92611694 3.2483187 -0.40511131 4293729569
-1.2244568 3.1914206 -0.37219095 4293729569
-0.67584229 3.4704132 -0.793046 4293729569
-1.2134094 3.2470245 -0.35604811 4293729569
-1.5114136 3.1981487 -0.68630743 4293729569
-1.1629028 3.3196688 -0.34112549 4293729569
-0.69567871 3.5756092 -0.75434637 4293729569
-1.065979 3.4111757 -0.3276515 4293729569
-0.72268677 3.6201029 -0.73197174 4293729569
-1.004303 3.4895325 -0.31106567 4293729569
-0.77685547 3.6542339 -0.70574284 4293729569
-0.91775513 3.6494398 -0.67183828 4293729569
-1.7090149 3.3631582 -0.57578659 4293729569
-0.83465576 3.7911043 -0.63439703 4293729569
-1.4437256 3.5744925 -0.55807638 4293729569
-1.4909668 3.6024466 -0.53114462 4293729569
10.761353 -0.064851761 -1.6172521 4288085770
9.7749939 -0.079129219 -1.6530752 4288085770
8.7153931 -0.085755348 -1.6692691 4288085770
7.8318481 -0.0916996 -1.6905844 4288085770
7.063324 -0.097474098 -1.7139037 4288085770
6.3470459 -0.1005764 -1.7330146 4288085770
5.6809387 -0.10194302 -1.7498541 4288085770
11.296417 -0.34232521 -1.6023738 4288085770
5.0570679 -0.10138321 -1.7631426 4288085770
10.220612 -0.32937241 -1.6388357 4288085770
4.4913025 -0.099270821 -1.7754395 4288085770
9.1065979 -0.30862999 -1.6568851 4288085770
4.0004578 -0.097982407 -1.7913535 4288085770
8.1933289 -0.29378891 -1.6829808 4288085770
3.5396423 -0.096440315 -1.8073103 4288085770
7.352417 -0.27678776 -1.7035694 4288085770
3.0453186 -0.090168953 -1.8110509 4288085770
6.6113892 -0.26224041 -1.726661 4288085770
2.5393372 -0.080662727 -1.8083503 4288085770
5.9146729 -0.24683762 -1.7442811 4288085770
2.1012878 -0.072826385 -1.8070316 4288085770
5.2681885 -0.22971153 -1.7576311 4288085770
1.7270813 -0.065509796 -1.812942 4288085770
4.6716614 -0.21382999 -1.7707331 4288085770
1.361908 -0.058432579 -1.8171694 4288085770
4.1481323 -0.19971848 -1.7873909 4288085770
1.0000305 -0.048484802 -1.8154807 4288085770
3.6626892 -0.1845789 -1.8013651 4288085770
0.62039185 -0.037165642 -1.8061585 4288085770
3.1655273 -0.16721344 -1.8079076 4288085770
0.3114624 -0.027503967 -1.8073168 4288085770
2.6617126 -0.14773846 -1.8071926 4288085770
0.043334961 -0.019818306 -1.8129172 4288085770
2.2148132 -0.13066769 -1.807483 4288085770
-0.27716064 -0.0069684982 -1.8026378 4288085770
1.809967 -0.11361599 -1.8102353 4288085770
-0.51815796 0.0020179749 -1.8051693 4288085770
1.4628906 -0.097964287 -1.8170164 4288085770
-0.82833862 0.016558647 -1.7882285 4288085770
1.084198 -0.080615044 -1.8136756 4288085770
-1.0294495 0.024594307 -1.7951589 4288085770
0.68890381 -0.059922218 -1.8017194 4288085770
-1.2382507 0.034769058 -1.7957969 4288085770
0.37908936 -0.044241905 -1.802793 4288085770
-1.4222717 0.043374062 -1.8013155 4288085770
0.1022644 -0.02935791 -1.8060215 4288085770
-1.6042175 0.052906036 -1.8048971 4288085770
-0.19238281 -0.012089729 -1.8026071 4288085770
-1.7870178 0.063446045 -1.806437 4288085770
-0.4630127 0.0035905838 -1.8000412 4288085770
-1.9816284 0.075222015 -1.8015525 4288085770
-0.76116943 0.022863388 -1.7864771 4288085770
-2.1454163 0.085280418 -1.801759 4288085770
-0.97796631 0.037249565 -1.7888002 4288085770
-2.3021545 0.09616375 -1.8022025 4288085770
-1.1768188 0.051207542 -1.7927527 4288085770
-2.4608154 0.10706997 -1.7995775 4288085770
-1.3676758 0.06496048 -1.7959859 4288085770
-2.6263123 0.12011719 -1.7936931 4288085770
-1.5375671 0.078220367 -1.8019531 4288085770
-2.7443237 0.12909412 -1.8005071 4288085770
-1.721283 0.092773438 -1.8024256 4288085770
-2.896759 0.14180851 -1.7930791 4288085770
-1.930603 0.10887718 -1.7929852 4288085770
-3.0205078 0.15288639 -1.7946696 4288085770
-2.0724792 0.12243938 -1.7989252 4288085770
-3.1510925 0.1640873 -1.7910182 4288085770
-2.2311096 0.13636398 -1.798274 4288085770
-3.2747192 0.17612648 -1.7886033 4288085770
-2.3857117 0.15117836 -1.7967551 4288085770
-2.5382385 0.16592693 -1.7933083 4288085770
-2.6838684 0.17951298 -1.7911139 4288085770
-2.8174438 0.19381714 -1.7903304 4288085770
-2.9351501 0.20774651 -1.7921057 4288085770
-3.067627 0.22198772 -1.7873602 4288085770
-3.1852112 0.23588753 -1.7861378 4288085770
-3.1605835 2.2722387 -1.7495434 4288085770
-3.0617981 2.2897701 -1.7458026 4288085770
-2.9489746 2.3109665 -1.7435155 4288085770
-2.8331909 2.3310995 -1.7423413 4288085770
-2.6874695 2.3605614 -1.7491248 4288085770
-2.5706482 2.3776426 -1.7450128 4288085770
-2.4478149 2.3965788 -1.7410932 4288085770
-2.282074 2.4265518 -1.7485664 4288085770
-3.1480103 2.1829367 -1.756798 4288085770
-3.0523682 2.1915264 -1.7510302 4288085770
-2.8643188 2.1977539 -1.5023379 4293729569
-2.9448242 2.2018471 -1.748662 4288085770
-2.8744812 2.1716576 -1.4632022 4293729569
-2.8462219 2.209362 -1.7430072 4288085770
-2.857605 2.1549559 -1.4309201 4293729569
-2.7047119 2.2279177 -1.7487452 4288085770
-2.8028259 2.1474094 -1.4088748 4293729569
-2.5791931 2.2398186 -1.7489872 4288085770
-2.7670593 2.1342897 -1.3822191 4293729569
-2.4386597 2.2543736 -1.7517262 4288085770
-2.7392883 2.1173458 -1.3533192 4293729569
-2.3540344 2.2511578 -1.7376812 4288085770
-2.6835938 2.1077776 -1.3313258 4293729569
-2.46698 2.1903057 -1.6652827 4293729569
-2.6329041 2.0963192 -1.3081753 4293729569
-2.5091858 2.1489124 -1.6161718 4293729569
-2.5732117 2.0866613 -1.2873204 4293729569
-2.5024109 2.1224298 -1.5806279 4293729569
-2.456543 2.0907001 -1.278322 4293729569
-2.5187378 2.0884628 -1.5393524 4293729569
-2.3879089 2.080821 -1.2577815 4293729569
-2.3682861 2.0997763 -1.5424659 4293729569
-2.2252197 2.0948009 -1.2572913 4293729569
-2.2498474 2.0997963 -1.5365694 4293729569
-2.1315918 2.0883398 -1.2405877 4293729569
-2.1194153 2.1015425 -1.5330737 4293729569
-1.9139709 2.1120281 -1.24792 4293729569
-2.0029907 2.0985928 -1.5251338 4293729569
-1.8873596 2.0860977 -1.2170637 4293729569
-1.7087708 2.1376162 -1.5579956 4293729569
-1.837738 2.0646296 -1.1899657 4293729569
-1.3886414 2.1800423 -1.5957279 4293729569
-1.6871643 2.0668392 -1.1821625 4293729569
-1.328125 2.1573162 -1.5700219 4293729569
-1.5445557 2.0652208 -1.1711164 4293729569
-1.2526855 2.1362629 -1.5488198 4293729569
-1.4089966 2.0607615 -1.1588519 4293729569
-1.0274048 2.1487894 -1.5595231 4293729569
-1.2404175 2.060523 -1.1506951 4293729569
-0.88708496 2.1392422 -1.5504737 4293729569
-1.0778503 2.0574141 -1.1403553 4293729569
-0.74273682 2.128583 -1.5405731 4293729569
-0.8833313 2.0585623 -1.135088 4293729569
-0.49456787 2.1375532 -1.5521045 4293729569
-0.67080688 2.0602636 -1.1294408 4293729569
-0.31332397 2.1300402 -1.5484581 4293729569
-0.44824219 2.062727 -1.1251338 4293729569
-0.12310791 2.1213074 -1.5451348 4293729569
-0.20373535 2.0656633 -1.1225858 4293729569
0.027130127 2.1034803 -1.5325048 4293729569
0.015777588 2.0611668 -1.1142361 4293729569
0.13638306 2.0745993 -1.5125499 4293729569
0.20825195 2.0482931 -1.1010227 4293729569
0.48736572 2.0891294 -1.5356035 4293729569
0.671875 2.0800171 -1.1208217 4293729569
0.66647339 2.0676136 -1.5260105 4293729569
5.5707092 2.8661613 -1.6907854 4288085770
2.2813416 2.2887955 -1.7591128 4288085770
5.9672852 2.8522558 -1.678663 4288085770
2.5183716 2.2648687 -1.7515528 4288085770
6.4238281 2.840909 -1.6706002 4288085770
2.8052673 2.2447662 -1.7506926 4288085770
6.9173889 2.8306541 -1.6638119 4288085770
3.1041565 2.223381 -1.7512593 4288085770
7.4148865 2.813282 -1.6542249 4288085770
3.4150085 2.2006969 -1.7512538 4288085770
7.9073181 2.7890043 -1.6415246 4288085770
3.7297974 2.172904 -1.7504315 4288085770
8.4637146 2.7661819 -1.6330318 4288085770
4.0455017 2.1420794 -1.7486703 4288085770
9.1161499 2.7510462 -1.6308036 4288085770
4.3291931 2.1029921 -1.7408717 4288085770
9.6533508 2.7106209 -1.6138058 4288085770
4.6808167 2.0672932 -1.7404008 4288085770
10.23053 2.670229 -1.5991952 4288085770
5.0283203 2.0266819 -1.7388339 4288085770
10.856628 2.6246252 -1.5843308 4288085770
5.3617249 1.9793892 -1.73384 4288085770
11.513702 2.5752583 -1.5695748 4288085770
5.6572266 1.9239779 -1.722599 4288085770
5.9805603 1.8668938 -1.7133436 4288085770
6.3547668 1.8106155 -1.7108483 4288085770
6.6509705 1.7421551 -1.6967552 4288085770
7.0270081 1.6758003 -1.6914165 4288085770
7.3730164 1.6031523 -1.6820927 4288085770
7.6799316 1.5214205 -1.6674948 4288085770
8.0786743 1.441493 -1.6610718 4288085770
8.4553528 1.355094 -1.652941 4288085770
8.7660217 1.260252 -1.6365952 4288085770
9.1065369 1.1637077 -1.6243031 4288085770
9.4419861 1.0612669 -1.6098893 4288085770
9.8691101 0.95564175 -1.6046917 4288085770
10.406982 0.84634972 -1.6073759 4288085770
10.816864 0.72811604 -1.5986974 4288085770
11.233643 0.60371304 -1.5903153 4288085770
11.419983 -2.9349508 -1.0176077 4293729569
11.408722 -3.07372 -1.0175214 4293729569
11.343628 -3.2041655 -1.01649 4293729569
11.187958 -4.7416978 -1.1476367 4293729569
10.609344 -4.7265172 -1.1354172 4293729569
10.19754 -4.7503724 -1.1343584 4293729569
9.5806274 -4.7082534 -1.1205552 4293729569
9.0550842 -4.6863418 -1.1131155 4293729569
8.5604858 -4.6641755 -1.1077492 4293729569
8.1087341 -4.648046 -1.1049256 4293729569
7.7045898 -4.6410561 -1.1068447 4293729569
7.3411865 -4.6420512 -1.1112537 4293729569
6.9195251 -4.6186376 -1.111408 4293729569
6.5742493 -4.6140661 -1.117394 4293729569
9.7336731 -5.8259554 -1.4045777 4293729569
5.8681641 -4.5855389 -1.1286445 4293729569
5.5232544 -4.5659723 -1.1345019 4293729569
5.3218384 -4.5708671 -0.45312214 4293729569
5.2012024 -4.5499473 -1.1431868 4293729569
4.9300842 -4.524034 -0.47110748 4293729569
4.943573 -4.5524807 -1.1562848 4293729569
4.6860046 -4.5287933 -0.49670362 4293729569
4.6000366 -4.5189424 -1.1620574 4293729569
4.4192505 -4.5199986 -0.52138519 4293729569
4.3475342 -4.5156007 -1.1752787 4293729569
4.1456909 -4.5040445 -0.54476357 4293729569
4.0675049 -4.4955907 -1.1863859 4293729569
3.8712463 -4.4840684 -0.5680728 4293729569
3.8142395 -4.4852271 -1.1995125 4293729569
3.5880432 -4.4558749 -0.59099913 4293729569
3.6143799 -4.4911432 -1.2176502 4293729569
3.3809814 -4.4812479 -1.2334735 4293729569
3.1632385 -4.4479389 -0.6442275 4293729569
3.0905457 -4.4419961 -1.2420356 4293729569
2.9989319 -4.4586372 -0.67364979 4293729569
5.1764526 -5.4373527 -1.524946 4293729569
2.6983337 -4.4080329 -0.69376087 4293729569
2.7219849 -4.444561 -1.2823062 4293729569
2.6062927 -4.4454813 -0.72794437 4293729569
4.4981079 -5.3274159 -1.5443978 4293729569
2.3977661 -4.4271131 -0.75355721 4293729569
2.3813477 -4.4487901 -1.325561 4293729569
9.6564331 -7.8670673 -1.3641284 4293729569
2.2007751 -4.4411569 -1.346241 4293729569
2.0786743 -4.4277382 -0.81253624 4293729569
3.4946899 -5.1284332 -1.5657454 4293729569
1.915741 -4.4224863 -0.8418622 4293729569
1.8734131 -4.4337249 -1.3898523 4293729569
7.6748352 -7.2806482 -1.4059098 4293729569
2.5119629 -4.817421 -1.5277052 4293729569
1.5990601 -4.4081759 -0.89978027 4293729569
1.9851074 -4.6326075 -1.4996717 4293729569
6.5640564 -6.9478621 -1.4382684 4293729569
1.3956299 -4.4093604 -1.4570949 4293729569
1.3190918 -4.4017467 -0.9610486 4293729569
1.2450256 -4.4004416 -1.4808021 4293729569
5.602417 -6.6547561 -1.4721742 4293729569
1.2724304 -4.4797025 -1.5325336 4293729569
1.0610657 -4.395843 -1.0240846 4293729569
1.2555542 -4.536912 -1.5785172 4293729569
4.6950378 -6.3610311 -1.5009522 4293729569
1.2749939 -4.6119604 -1.6319337 4293729569
0.86434937 -4.4124041 -1.0934618 4293729569
1.0499268 -4.5553007 -1.6426008 4293729569
3.9372253 -6.119957 -1.5364201 4293729569
0.82009888 -4.4925408 -1.6510429 4293729569
0.61663818 -4.3937507 -1.1567349 4293729569
0.57962036 -4.4195442 -1.6560173 4293729569
0.52047729 -4.3940921 -1.1904252 4293729569
0.37753296 -4.3644557 -1.666496 4293729569
2.8279114 -5.7291627 -1.5722837 4293729569
0.15988159 -4.2980084 -1.6733241 4293729569
0.26922607 -4.359364 -1.2514229 4293729569
-0.03717041 -4.2400427 -1.6839516 4293729569
0.20458984 -4.3734341 -1.2913384 4293729569
-0.16146851 -4.2197704 -1.7074645 4293729569
0.12924194 -4.3792658 -1.3278034 4293729569
-0.2454834 -4.2204323 -1.7385757 4293729569
1.5514221 -5.2481494 -1.6165056 4293729569
-0.32754517 -4.2191343 -1.7707391 4293729569
0.050262451 -4.4255834 -1.415556 4293729569
-0.40853882 -4.2178621 -1.802937 4293729569
0.022125244 -4.4525108 -1.4608634 4293729569
-0.47970581 -4.219821 -1.8365092 4288085770
0.08416748 -4.5315299 -1.5238011 4293729569
-0.56350708 -4.2114964 -1.866544 4288085770
-0.22720337 -4.386867 -1.5166328 4293729569
-0.74606323 -4.1429234 -1.8725688 4288085770
0.089660645 -4.6167855 -1.6298628 4293729569
-0.94805908 -4.0589228 -1.8717711 4288085770
-0.037353516 -4.5783997 -1.6581132 4293729569
-1.113678 -3.9937725 -1.8774157 4288085770
-0.26708984 -4.4746599 -1.6631703 4293729569
-1.3016357 -3.9111223 -1.8761158 4288085770
-0.48001099 -4.3783212 -1.6698802 4293729569
-1.4943848 -3.8233919 -1.8706007 4288085770
-0.67904663 -4.2863312 -1.6761138 4293729569
-1.6840515 -3.7347336 -1.8651822 4288085770
-0.83099365 -4.2204351 -1.6912324 4293729569
-1.8550415 -3.6545172 -1.862494 4288085770
-0.91049194 -4.1981936 -1.723285 4293729569
-1.9995117 -3.5889158 -1.8648655 4288085770
-0.94985962 -4.1998768 -1.7639613 4293729569
-2.1536865 -3.5151024 -1.8638215 4288085770
-0.98324585 -4.2027054 -1.8048551 4293729569
-2.2872314 -3.4517679 -1.8665936 4288085770
-1.0205383 -4.201438 -1.8455753 4288085770
-2.4323425 -3.378191 -1.8638649 4288085770
-1.1075134 -4.1650534 -1.8722315 4288085770
-2.5539551 -3.3181477 -1.8670819 4288085770
-1.2764893 -4.0758324 -1.8755317 4288085770
-2.6940002 -3.2437124 -1.8625202 4288085770
-1.4482422 -3.9805584 -1.8766766 4288085770
-2.8203125 -3.1755896 -1.8614964 4288085770
-1.6364746 -3.8739414 -1.8701386 4288085770
-2.9396362 -3.1106443 -1.8597436 4288085770
-1.8147583 -3.7705669 -1.8639755 4288085770
-3.0491333 -3.049921 -1.8603725 4288085770
-1.9636536 -3.6838694 -1.8639929 4288085770
-3.1683655 -2.9819956 -1.8565953 4288085770
-2.10849 -3.5972795 -1.8631508 4288085770
-3.2688904 -2.923502 -1.8565559 4288085770
-2.2385864 -3.519043 -1.8639002 4288085770
-2.3823242 -3.4305058 -1.8600781 4288085770
-2.4946899 -3.3596945 -1.8625147 4288085770
-2.6156311 -3.2817059 -1.86058 4288085770
-2.7385864 -3.2016773 -1.857559 4288085770
-2.8525696 -3.1248779 -1.8538785 4288085770
-2.9538574 -3.0553617 -1.8537095 4288085770
-3.0472107 -2.9900417 -1.8538539 4288085770
-3.1395264 -2.9237452 -1.8540251 4288085770
-3.2308044 -2.8574915 -1.8522325 4288085770
-3.3171692 -2.7933598 -1.8506308 4288085770
-3.2640686 -0.6615324 -1.8120947 4288085770
-3.2003174 -0.64412498 -1.8091309 4288085770
-3.1228027 -0.63003063 -1.8096786 4288085770
-3.0491943 -0.61485577 -1.8080797 4288085770
-2.9754944 -0.59869194 -1.8054726 4288085770
-2.8938904 -0.58371258 -1.8041523 4288085770
-2.8063354 -0.56886673 -1.80404 4288085770
-2.7177124 -0.55505848 -1.8029718 4288085770
-2.6083374 -0.54371929 -1.8066499 4288085770
-2.5018921 -0.53132915 -1.8082161 4288085770
-2.413147 -0.51655579 -1.8031418 4288085770
-2.2858276 -0.50664711 -1.8084543 4288085770
-3.2580566 -0.33273315 -1.7981441 4288085770
-2.183075 -0.49121475 -1.803859 4288085770
-3.1557922 -0.32220745 -1.803586 4288085770
-2.0437622 -0.48159599 -1.8095894 4288085770
-3.065155 -0.30945301 -1.8015966 4288085770
-1.9034119 -0.47202015 -1.8133559 4288085770
-2.9656677 -0.29790115 -1.801928 4288085770
-1.770874 -0.460289 -1.812829 4288085770
-2.8681335 -0.28531075 -1.8011816 4288085770
-1.6174316 -0.45003891 -1.8160403 4288085770
-2.7645874 -0.27286243 -1.8006446 4288085770
-1.4560852 -0.44098091 -1.8195386 4288085770
-2.6550598 -0.2615633 -1.8003244 4288085770
-1.3252258 -0.42725945 -1.812928 4288085770
-2.5385742 -0.25043106 -1.8002481 4288085770
-1.1953735 -0.41253376 -1.8042753 4288085770
-2.4309082 -0.23711205 -1.7968431 4288085770
-1.0604248 -0.39793396 -1.7947972 4288085770
-2.2796631 -0.22877598 -1.8039994 4288085770
-0.8868103 -0.38622856 -1.792691 4288085770
-2.1560364 -0.21684265 -1.8011599 4288085770
-0.6685791 -0.38053799 -1.8001897 4288085770
-1.9967346 -0.20871925 -1.8065956 4288085770
-0.46694946 -0.37051201 -1.7990668 4288085770
-1.8502502 -0.19831848 -1.8075635 4288085770
-0.23065186 -0.36428738 -1.8041854 4288085770
-1.6996765 -0.18804264 -1.8056729 4288085770
0.0087890625 -0.35716534 -1.8064015 4288085770
-1.5391235 -0.17700005 -1.8051209 4288085770
0.23153687 -0.34668446 -1.8020034 4288085770
-1.3409729 -0.17080307 -1.8139217 4288085770
0.45834351 -0.33632374 -1.7957456 4288085770
-1.2049255 -0.15625954 -1.8014798 4288085770
0.83706665 -0.33747673 -1.815872 4288085770
-1.038208 -0.14541149 -1.7961397 4288085770
1.1961365 -0.33621407 -1.8282883 4288085770
-0.85940552 -0.1338625 -1.7902091 4288085770
1.4810181 -0.32629013 -1.8210433 4288085770
-0.6161499 -0.12778854 -1.7975702 4288085770
1.8008118 -0.31820679 -1.8160245 4288085770
-0.35693359 -0.12110519 -1.805479 4288085770
2.1624451 -0.31212521 -1.8144753 4288085770
-0.10449219 -0.11429787 -1.808147 4288085770
2.5391846 -0.30642796 -1.81145 4288085770
0.18478394 -0.1083622 -1.8151014 4288085770
2.9817505 -0.30331421 -1.8127296 4288085770
0.40875244 -0.097963333 -1.8047409 4288085770
3.4215088 -0.29917526 -1.8088994 4288085770
0.68945312 -0.088897705 -1.8023612 4288085770
3.8685913 -0.29227448 -1.7982907 4288085770
1.0774231 -0.087315559 -1.8177767 4288085770
4.3108826 -0.28430748 -1.7815027 4288085770
1.4259644 -0.080879211 -1.8197718 4288085770
4.8290405 -0.27916813 -1.7693684 4288085770
1.7687683 -0.073355675 -1.8155529 4288085770
5.3962097 -0.27523994 -1.7569411 4288085770
2.1444092 -0.067624092 -1.8134909 4288085770
6.0213318 -0.27372837 -1.7455423 4288085770
2.5361938 -0.061306953 -1.808979 4288085770
6.7076721 -0.27175999 -1.7302535 4288085770
3.0157776 -0.05709362 -1.8115282 4288085770
7.4162598 -0.2683897 -1.7087176 4288085770
3.5074768 -0.053207397 -1.8104975 4288085770
8.1990051 -0.26687717 -1.6837611 4288085770
3.9507141 -0.046244621 -1.7957509 4288085770
9.1355286 -0.27109432 -1.6651831 4288085770
4.4439697 -0.039517403 -1.7807372 4288085770
10.180206 -0.27599525 -1.6443515 4288085770
4.9602356 -0.034368515 -1.764534 4288085770
11.206543 -0.27758503 -1.6068418 4288085770
5.5973206 -0.032129288 -1.7555416 4288085770
6.2507019 -0.028348923 -1.7400925 4288085770
6.9631348 -0.026035309 -1.7227001 4288085770
7.7177734 -0.024812698 -1.6997738 4288085770
8.5645142 -0.023860931 -1.6760349 4288085770
9.6221008 -0.028048515 -1.6586428 4288085770
10.701141 -0.03085804 -1.6299708 4288085770
11.668823 -3.0973063 -0.66750097 4293729569
11.457397 -2.9266815 -0.71060371 4293729569
0.79421997 2.3424511 -0.43528557 4293729569
0.53039551 2.3496494 -0.40310621 4293729569
0.2845459 2.3564091 -0.37155104 4293729569
0.043670654 2.3620501 -0.34017801 4293729569
-0.15808105 2.3727512 -0.3111043 4293729569
-0.64627075 2.4150352 -0.22982359 4293729569
-0.64086914 2.5713863 -0.16545916 4293729569
10.670044 0.020274162 -1.6260192 4288085770
9.5588379 0.046753883 -1.6547437 4288085770
8.5170288 0.072451591 -1.6738455 4288085770
7.664032 0.095586777 -1.7004399 4288085770
6.8742371 0.11712933 -1.7222102 4288085770
6.133667 0.1384201 -1.7386649 4288085770
5.4612122 0.16002655 -1.753448 4288085770
10.872223 0.050222397 -1.6134772 4288085770
4.8457947 0.18022823 -1.7671969 4288085770
9.7950745 0.084913254 -1.647301 4288085770
4.2775574 0.20025063 -1.7785597 4288085770
8.7025757 0.12083054 -1.6635792 4288085770
3.795166 0.21820354 -1.7938836 4288085770
7.7909241 0.15235806 -1.6850917 4288085770
3.2781372 0.23791885 -1.7990007 4288085770
7.0162659 0.18154335 -1.7083149 4288085770
2.7992554 0.25666428 -1.8004305 4288085770
6.3186951 0.20882988 -1.7301931 4288085770
2.3712463 0.27520752 -1.8066065 4288085770
5.622406 0.23600483 -1.7431133 4288085770
1.9742737 0.29297924 -1.811852 4288085770
4.9951477 0.26148033 -1.7554119 4288085770
1.6321716 0.30944061 -1.8209898 4288085770
4.4329834 0.28636646 -1.767942 4288085770
1.2793274 0.32711124 -1.8237455 4288085770
3.9467468 0.30941486 -1.7830892 4288085770
0.89682007 0.34440041 -1.8144848 4288085770
3.4676208 0.33224583 -1.7934813 4288085770
0.57910156 0.36118698 -1.8144495 4288085770
2.9648743 0.35556984 -1.794055 4288085770
0.24267578 0.37835693 -1.8057661 4288085770
2.5319824 0.37722206 -1.7990375 4288085770
-0.030090332 0.39404392 -1.8062813 4288085770
2.1340942 0.39800739 -1.8032262 4288085770
-0.27288818 0.40901375 -1.8088288 4288085770
1.7841187 0.41765022 -1.8110666 4288085770
-0.49279785 0.42444706 -1.8141582 4288085770
1.4522095 0.4378376 -1.8175197 4288085770
-0.72644043 0.44016933 -1.8140099 4288085770
1.0588684 0.45738697 -1.8068674 4288085770
-0.92626953 0.45509911 -1.8180301 4288085770
0.7192688 0.47667313 -1.8030622 4288085770
-1.1349182 0.47020149 -1.8167443 4288085770
0.43850708 0.49457169 -1.805285 4288085770
-1.3285522 0.48493671 -1.8159752 4288085770
0.14398193 0.51275253 -1.8010306 4288085770
-1.4993896 0.499156 -1.8199952 4288085770
-0.12164307 0.53024006 -1.7987742 4288085770
-1.6582031 0.51408577 -1.8244197 4288085770
-0.34344482 0.547719 -1.8040197 4288085770
-1.8594971 0.52893162 -1.8143826 4288085770
-0.49761963 0.56564903 -1.8215809 4288085770
-2.0350342 0.5421772 -1.8082471 4288085770
-0.72616577 0.5822134 -1.8176007 4288085770
-2.1737671 0.55660152 -1.811362 4288085770
-0.99035645 0.59755516 -1.802407 4288085770
-2.3302307 0.57139683 -1.8068628 4288085770
-1.211792 0.61392212 -1.7956707 4288085770
-2.4758301 0.58493328 -1.8037505 4288085770
-1.3785095 0.63003159 -1.7988131 4288085770
-2.6083984 0.59916687 -1.8020763 4288085770
-1.5154419 0.64646626 -1.807976 4288085770
-2.7310486 0.61316776 -1.8017459 4288085770
-1.6622009 0.6631031 -1.8127975 4288085770
-2.8536682 0.62615871 -1.8004248 4288085770
-1.8385925 0.67836189 -1.8056123 4288085770
-2.9672852 0.64094067 -1.800396 4288085770
-1.9892273 0.69404888 -1.8053093 4288085770
-3.0887451 0.65387154 -1.7951124 4288085770
-2.1129456 0.71012115 -1.8099236 4288085770
-3.1923218 0.66840267 -1.7944286 4288085770
-2.2495422 0.72546005 -1.8091033 4288085770
-2.3989563 0.74005508 -1.8018486 4288085770
-2.536438 0.75438023 -1.7970059 4288085770
-2.6668396 0.76952744 -1.7913959 4288085770
-2.7715149 0.78510952 -1.7936673 4288085770
-2.8830566 0.79982567 -1.7917094 4288085770
-2.9895935 0.81441879 -1.7899237 4288085770
-3.0842285 0.82974052 -1.7905407 4288085770
-3.179718 0.84506798 -1.7891252 4288085770
-3.1949768 3.0472126 -1.7261615 4288085770
-3.0857239 3.0915632 -1.7274559 4288085770
-2.964447 3.1406498 -1.732116 4288085770
-2.8712463 3.174324 -1.725961 4288085770
-2.7519226 3.2194223 -1.726589 4288085770
-2.6366272 3.261591 -1.7241075 4288085770
-2.5162659 3.3036375 -1.721797 4288085770
-2.4129944 3.3360519 -1.7139931 4288085770
-3.1288147 2.9682808 -1.4639425 4293729569
-3.1430969 3.0119972 -1.7382126 4288085770
-2.9835205 3.0207958 -1.4703884 4293729569
-3.0330811 3.0443096 -1.7376444 4288085770
-2.9545288 3.014842 -1.4424059 4293729569
-2.9380188 3.0699368 -1.7316258 4288085770
-3.1130981 2.9189997 -1.3628576 4293729569
-2.8210449 3.102088 -1.7322958 4288085770
-3.1263733 2.8929901 -1.3256228 4293729569
-2.7019958 3.1351805 -1.7320266 4288085770
-3.1366577 2.8659182 -1.2894986 4293729569
-2.5939636 3.1604986 -1.7264519 4288085770
-3.1448975 2.8407965 -1.2534256 4293729569
-2.4728699 3.1905174 -1.7232778 4288085770
-3.1311035 2.8251972 -1.2240162 4293729569
-3.1414795 2.7971373 -1.1889 4293729569
-3.0594788 2.8636017 -1.4742365 4293729569
-3.1097412 2.7871408 -1.1640525 4293729569
-2.9786682 2.8735294 -1.4628782 4293729569
-3.0106506 2.8076372 -1.1542153 4293729569
-2.9730225 2.8490963 -1.430274 4293729569
-3.1114807 2.7376127 -1.1004066 4293729569
-3.1167297 2.7569485 -1.3572023 4293729569
-3.0245361 2.7503815 -1.0882282 4293729569
-3.1201477 2.727726 -1.3233337 4293729569
-3.0802002 2.6993475 -1.0447826 4293729569
-3.1075745 2.7051659 -1.2949491 4293729569
-3.0847168 2.6711807 -1.0138688 4293729569
-3.1130981 2.6750021 -1.2620196 4293729569
-3.0550842 2.6562328 -0.98899555 4293729569
-3.1105652 2.6456528 -1.2303553 4293729569
-3.0214233 2.6421881 -0.96525192 4293729569
-3.1061096 2.6182795 -1.2017417 4293729569
-2.9968872 2.6233749 -0.94124031 4293729569
-3.1116638 2.5861273 -1.1698284 4293729569
-2.9472656 2.6139793 -0.92099619 4293729569
-3.0942078 2.5624704 -1.1446207 4293729569
-2.9086609 2.5998325 -0.89841986 4293729569
-3.073761 2.5397453 -1.1195071 4293729569
-2.8500366 2.5922413 -0.88046503 4293729569
-3.0583496 2.5151377 -1.0942397 4293729569
-2.7904358 2.5836143 -0.86155367 4293729569
-3.0409241 2.4904947 -1.0700402 4293729569
-2.724762 2.5768518 -0.84382915 4293729569
-2.9714661 2.4836721 -1.0564506 4293729569
-2.6491394 2.5718555 -0.82742929 4293729569
