# .PCD v0.7 - Point Cloud Data file format
VERSION 0.7
FIELDS x y z rgb
SIZE 4 4 4 4
TYPE F F F U
COUNT 1 1 1 1
WIDTH 1109
HEIGHT 1
VIEWPOINT 0 0 0 1 0 0 0
POINTS 1109
DATA ascii
-2.4902344 0.5218277 -1.8628368 4288085770
-3.5472717 0.52390313 -1.8990479 4288085770
-2.3135376 0.53806853 -1.8553314 4288085770
-3.411499 0.53785944 -1.8949547 4288085770
-2.1378784 0.55432463 -1.846838 4288085770
-3.2617493 0.55112696 -1.8926601 4288085770
-1.9352112 0.5722158 -1.8410835 4288085770
-3.1100159 0.56553459 -1.8883915 4288085770
-1.7236023 0.58944511 -1.8331871 4288085770
-2.9632568 0.57897377 -1.8801346 4288085770
-1.5019226 0.60596037 -1.8251343 4288085770
-2.8075562 0.59262395 -1.8727798 4288085770
-1.2652893 0.62385511 -1.8179588 4288085770
-2.6227722 0.60683846 -1.8710938 4288085770
-1.0206604 0.64206123 -1.8086929 4288085770
-2.4299927 0.62132001 -1.8683186 4288085770
-0.75402832 0.66084695 -1.8001785 4288085770
-2.2612915 0.6345098 -1.8567791 4288085770
-0.45739746 0.68043709 -1.7923298 4288085770
-2.0625916 0.64933205 -1.8499413 4288085770
-0.13076782 0.69983411 -1.7851028 4288085770
-1.8488464 0.66357946 -1.8428898 4288085770
0.19378662 0.72030187 -1.7749405 4288085770
-1.6361389 0.67792797 -1.8328552 4288085770
0.61343384 0.74306965 -1.772707 4288085770
-1.3843689 0.69312143 -1.8283787 4288085770
0.9659729 0.76362872 -1.7551975 4288085770
-1.133667 0.70750237 -1.8188725 4288085770
1.3714905 0.78555703 -1.7400894 4288085770
-0.88598633 0.72196579 -1.8054066 4288085770
1.8219604 0.80967021 -1.7265205 4288085770
-0.5932312 0.73749185 -1.7964287 4288085770
2.2344055 0.83126521 -1.7003021 4288085770
-0.2585144 0.75403118 -1.7909794 4288085770
2.5917053 0.85086107 -1.6616688 4288085770
0.065185547 0.76951861 -1.7796154 4288085770
3.0440369 0.8728025 -1.6299648 4288085770
0.47198486 0.78692555 -1.7773094 4288085770
3.5653992 0.89660859 -1.5994854 4288085770
0.85266113 0.80402303 -1.7653084 4288085770
4.1407166 0.92198253 -1.5674019 4288085770
1.2313538 0.81936526 -1.7462482 4288085770
4.8200378 0.95016909 -1.5371532 4288085770
1.7160034 0.83827448 -1.7360344 4288085770
5.5802307 0.9798584 -1.5009594 4288085770
2.1366577 0.8539753 -1.7124653 4288085770
6.4494019 1.0125861 -1.4645424 4288085770
2.5081787 0.86688995 -1.6753712 4288085770
7.4345703 1.0486369 -1.425827 4288085770
2.9317017 0.8801477 -1.6406498 4288085770
8.5045776 1.0863857 -1.3791256 4288085770
3.4582825 0.89606071 -1.6107693 4288085770
9.6515198 1.1247435 -1.3214836 4288085770
4.0088196 0.9118247 -1.5765781 4288085770
4.6804199 0.92979383 -1.5459862 4288085770
5.4099731 0.94757771 -1.5106621 4288085770
6.279541 0.96914506 -1.477766 4288085770
7.2631226 0.99102497 -1.4414635 4288085770
8.3405457 1.0139043 -1.3960323 4288085770
9.4489441 1.0351329 -1.3391342 4288085770
10.647308 1.0552919 -1.2720642 4288085770
7.2562256 -4.8771734 -0.34069443 4293729569
7.3009338 -4.7727671 -0.38566208 4293729569
10.406067 2.6708851 -0.17904663 4293729569
9.7956848 2.7274117 -0.12606239 4293729569
9.9126282 1.1601493 -1.307848 4288085770
8.8346558 1.1671274 -1.3637218 4288085770
7.8257141 1.1723895 -1.4106464 4288085770
6.8867188 1.1769178 -1.4496555 4288085770
6.01474 1.1805415 -1.4827785 4288085770
5.2766724 1.1878667 -1.5153847 4288085770
4.6426392 1.1970577 -1.5477657 4288085770
4.0205383 1.2048483 -1.5739326 4288085770
9.7357788 1.6100843 -1.3006706 4288085770
3.4984741 1.2143481 -1.6009178 4288085770
8.7181702 1.6058481 -1.3532982 4288085770
3.0073547 1.2247574 -1.6265564 4288085770
7.7445374 1.6001544 -1.3983021 4288085770
2.5692444 1.2376478 -1.651638 4288085770
6.9217529 1.59972 -1.4406433 4288085770
2.2561035 1.2555478 -1.6863804 4288085770
6.1289673 1.5974796 -1.4745197 4288085770
1.8529358 1.2666376 -1.7059402 4288085770
5.5010986 1.6035385 -1.5136948 4288085770
1.5107727 1.2803013 -1.7278481 4288085770
4.894165 1.608448 -1.5465527 4288085770
1.1716614 1.2921822 -1.7466373 4288085770
4.2822876 1.6076202 -1.5702133 4288085770
0.8314209 1.3023438 -1.7583599 4288085770
3.7373352 1.6106632 -1.5932026 4288085770
0.49923706 1.3127723 -1.7689896 4288085770
3.2283936 1.6147549 -1.6147861 4288085770
0.17907715 1.321671 -1.7763996 4288085770
2.7694092 1.6192901 -1.634758 4293729569
-0.058166504 1.3364456 -1.7930374 4288085770
2.3613586 1.6262467 -1.6541977 4293729569
-0.35531616 1.3441217 -1.797102 4288085770
2.0012207 1.6364987 -1.6741848 4288085770
-0.56860352 1.3596532 -1.81147 4288085770
1.7141113 1.6524379 -1.7015076 4288085770
-0.83474731 1.3682396 -1.8141842 4288085770
1.414978 1.6653049 -1.7228451 4288085770
-1.0670166 1.3786416 -1.8195572 4288085770
1.1048279 1.6761324 -1.7382202 4288085770
-1.2752075 1.3906264 -1.8266983 4288085770
0.77575684 1.6816957 -1.7476025 4288085770
-1.4574585 1.405205 -1.8366318 4288085770
0.4815979 1.6902366 -1.7566719 4288085770
-1.6716919 1.4142876 -1.8377151 4288085770
0.23947144 1.7029188 -1.7722778 4288085770
-1.8519287 1.4261448 -1.8424988 4288085770
-0.0087280273 1.7137005 -1.7818718 4288085770
-2.0291443 1.4371729 -1.8452053 4288085770
-0.23495483 1.7260063 -1.7932587 4288085770
-2.2013855 1.4483416 -1.8478565 4288085770
-0.47805786 1.7350595 -1.7997112 4288085770
-2.3516541 1.462033 -1.8523464 4288085770
-0.70126343 1.7446711 -1.8059368 4288085770
-2.5079041 1.4736936 -1.8538151 4288085770
-0.93344116 1.7512562 -1.8071384 4288085770
-2.6321716 1.4889371 -1.8620491 4288085770
-1.0986938 1.7672203 -1.8189201 4288085770
-2.7644653 1.5021803 -1.8652897 4288085770
-1.2799072 1.7790051 -1.8247147 4288085770
-2.87677 1.5188007 -1.8724308 4288085770
-1.4531555 1.7920122 -1.8304615 4288085770
-2.9880371 1.534497 -1.8785191 4288085770
-1.6054382 1.8074744 -1.839056 4288085770
-3.0993652 1.5492773 -1.8825684 4288085770
-1.7706604 1.8178396 -1.8415871 4288085770
-3.1986389 1.5652642 -1.8895206 4288085770
-1.9368896 1.8282638 -1.8421268 4288085770
-3.3079529 1.5792375 -1.8905029 4288085770
-2.098114 1.8378313 -1.8425694 4288085770
-3.4222412 1.5911572 -1.8894558 4288085770
-2.241333 1.8498549 -1.843895 4288085770
-3.5025635 1.609674 -1.8962803 4288085770
-2.3716431 1.8641951 -1.846159 4288085770
-3.6088562 1.6218636 -1.8941441 4288085770
-2.4859314 1.879806 -1.8522816 4288085770
-3.6732483 1.642647 -1.904871 4288085770
-2.5953064 1.8965993 -1.8573933 4288085770
-3.7615356 1.6572044 -1.9056168 4288085770
-2.7086182 1.9114141 -1.8594646 4288085770
-3.8328857 1.6760151 -1.9113407 4288085770
-2.8099365 1.9274302 -1.8644428 4288085770
-3.9012451 1.6939545 -1.9159889 4288085770
-2.9093018 1.9445908 -1.8674431 4288085770
-3.9776001 1.7108021 -1.9176865 4288085770
-3.002655 1.9619198 -1.8703747 4288085770
-4.0509949 1.7277329 -1.9193497 4288085770
-3.0940247 1.9782958 -1.8732491 4288085770
-3.1794128 1.9968028 -1.8771343 4288085770
-3.2558289 2.0165567 -1.8809662 4288085770
-3.3362122 2.0342481 -1.8837528 4288085770
-3.4136353 2.0530655 -1.8855515 4288085770
-3.4810486 2.0730727 -1.8892784 4288085770
-3.5455322 2.0942061 -1.8920174 4288085770
-3.598999 2.1175132 -1.8977146 4288085770
-3.6594849 2.1387599 -1.9004097 4288085770
-3.7199402 2.1600039 -1.903101 4288085770
-3.7773743 2.1803787 -1.9047184 4288085770
-3.8288879 2.2028751 -1.9073544 4288085770
-3.8754578 2.2275064 -1.9100208 4288085770
-3.9189453 2.2511811 -1.9136086 4288085770
-3.9684753 2.2738202 -1.9142246 4288085770
-4.0080566 2.2996459 -1.9168549 4288085770
-4.0476685 2.3245173 -1.9184456 4288085770
-4.0861816 2.3494182 -1.920023 4288085770
-4.1148376 2.3774605 -1.9246159 4288085770
-4.1434326 3.6449962 -1.8815498 4288085770
-4.0624084 3.724936 -1.8900471 4288085770
-3.9577332 3.8202634 -1.904932 4288085770
-3.8757629 3.900362 -1.9104233 4288085770
-3.7927551 3.9805343 -1.9149036 4288085770
-3.6782532 4.0812197 -1.9278946 4288085770
-3.6012268 4.1574478 -1.9272728 4288085770
-3.4837952 4.2593923 -1.9362831 4288085770
-3.3900146 4.3459916 -1.9379082 4288085770
-3.2696228 4.4481483 -1.9438858 4288085770
-3.1492004 4.5503063 -1.9498615 4288085770
-3.063324 4.628089 -1.942194 4288085770
-2.9646301 4.7151346 -1.9367714 4288085770
-2.8737793 4.7941432 -1.9270897 4288085770
-4.1100159 4.0305271 -1.9221458 4288085770
-2.7562866 4.8906193 -1.9238472 4288085770
-3.9765625 4.133739 -1.9350147 4288085770
-2.6417847 4.9831915 -1.9164696 4288085770
-3.8766174 4.2125583 -1.9352226 4288085770
-2.5282593 5.0738235 -1.9070148 4288085770
-3.7254028 4.3252168 -1.9492836 4288085770
-2.3595581 5.2014461 -1.9105034 4288085770
-3.6372375 4.3930693 -1.9411488 4288085770
-2.1820068 5.3333969 -1.9120693 4288085770
-3.4830322 4.5059857 -1.9511795 4288085770
-1.9926453 5.4726744 -1.9138069 4288085770
-3.3593445 4.5955038 -1.9505596 4288085770
-1.7954102 5.6142178 -1.914547 4288085770
-3.2356567 4.6831579 -1.9468555 4288085770
-1.5705566 5.7744269 -1.9177608 4288085770
-3.1178589 4.7657404 -1.9409981 4288085770
-1.3476868 5.9306736 -1.9188271 4288085770
-2.9862061 4.8546596 -1.9362469 4288085770
-1.1031494 6.0994725 -1.9211712 4288085770
-2.8496094 4.9457154 -1.93153 4288085770
-0.85360718 6.2695394 -1.9205055 4288085770
-2.710022 5.0369411 -1.9247799 4288085770
-0.57266235 6.4593859 -1.9223156 4288085770
-2.5842285 5.1170101 -1.9127102 4288085770
-0.25619507 6.6700296 -1.9285965 4288085770
-2.3786316 5.2495675 -1.9179554 4288085770
0.066192627 6.8821063 -1.9288635 4288085770
-2.2015076 5.3596978 -1.9145679 4288085770
0.4289856 7.1181145 -1.9336758 4288085770
-1.9772034 5.5008602 -1.9179573 4288085770
0.83895874 7.3833361 -1.9411812 4288085770
-1.7429199 5.6452537 -1.9223633 4288085770
1.3050842 7.6819253 -1.9534531 4288085770
-1.5194702 5.7796149 -1.9204617 4288085770
1.6532593 7.8972435 -1.9415302 4288085770
-1.267395 5.9296331 -1.9218903 4288085770
2.0871277 8.1646576 -1.936821 4288085770
-1.0093384 6.080862 -1.9222965 4288085770
2.5524597 8.4489803 -1.9314632 4288085770
-0.75030518 6.2292957 -1.9185638 4288085770
-0.44094849 6.4078474 -1.9215298 4288085770
-0.12466431 6.5866394 -1.923418 4288085770
0.2074585 6.7729092 -1.9244366 4288085770
0.57904053 6.9782238 -1.926796 4288085770
0.956604 7.1837478 -1.928093 4288085770
1.3737183 7.4093199 -1.9307728 4288085770
1.7800598 7.6218624 -1.9270115 4288085770
2.1677856 7.8171616 -1.9167213 4288085770
2.6098328 8.0398684 -1.9089565 4288085770
3.0923462 8.2825603 -1.9045658 4288085770
3.5553284 8.5060711 -1.8915691 4293729569
9.6830139 2.9875236 -0.090747833 4293729569
9.4767456 2.8303974 -0.11945915 4293729569
9.6333313 2.7202084 -0.1486969 4293729569
10.323486 2.6696081 -0.17888451 4293729569
10.712341 0.0014600754 -1.2349281 4288085770
10.100555 -0.10492659 -1.2699318 4288085770
9.5314636 -0.20204258 -1.3028088 4288085770
8.9721985 -0.29284096 -1.3348389 4288085770
8.4157715 -0.37747717 -1.3651028 4288085770
7.8660278 -0.45275593 -1.3916893 4288085770
7.2930298 -0.520504 -1.4148941 4288085770
6.7097473 -0.5792799 -1.4326153 4288085770
6.2196045 -0.63977432 -1.4561024 4288085770
5.7120972 -0.69053507 -1.4752331 4288085770
5.2546387 -0.73999262 -1.4957924 4288085770
4.8119812 -0.78399706 -1.5154095 4288085770
4.4545898 -0.83193827 -1.5407906 4288085770
10.412659 -1.3927231 -1.2553749 4288085770
4.0827942 -0.87102509 -1.5607452 4288085770
9.6538086 -1.4262857 -1.2964363 4288085770
3.7893066 -0.91432619 -1.588541 4288085770
8.9278259 -1.4548435 -1.3352966 4288085770
3.4967346 -0.95555782 -1.6154156 4288085770
8.2799072 -1.4832759 -1.3741894 4288085770
3.197998 -0.99183035 -1.6395817 4288085770
7.538208 -1.4917021 -1.4011173 4288085770
2.9212952 -1.0275345 -1.6644955 4288085770
6.8264465 -1.4962096 -1.4258404 4288085770
2.6675415 -1.0616455 -1.690197 4288085770
6.1846619 -1.5008159 -1.4506874 4288085770
2.3815308 -1.0894341 -1.7115726 4288085770
5.5788269 -1.5033774 -1.4741707 4288085770
2.0198975 -1.1006694 -1.7196083 4288085770
5.0631714 -1.5095191 -1.4983711 4288085770
1.7395935 -1.1200838 -1.7362766 4288085770
4.5875549 -1.5156379 -1.5240746 4288085770
1.5035095 -1.1435313 -1.7582188 4288085770
4.1670532 -1.5253539 -1.5519314 4288085770
1.2633057 -1.1629624 -1.7773857 4288085770
3.7624207 -1.5305438 -1.5777874 4288085770
1.0501404 -1.1837745 -1.7991581 4288085770
3.3908997 -1.5378532 -1.6041355 4288085770
0.77145386 -1.1908374 -1.8093395 4288085770
2.9889526 -1.5346613 -1.6233215 4288085770
0.18447876 -1.1418366 -1.7657852 4288085770
2.6945801 -1.5450044 -1.6525745 4288085770
-0.10055542 -1.1397705 -1.7694397 4288085770
2.4312744 -1.5575695 -1.6833458 4288085770
-0.34136963 -1.1427383 -1.7783298 4288085770
2.1225891 -1.5600915 -1.7081165 4288085770
-0.54904175 -1.1479607 -1.7907066 4288085770
1.8056641 -1.5555782 -1.7272949 4288085770
-0.7527771 -1.1520309 -1.8020859 4288085770
1.5016785 -1.5496655 -1.7453747 4288085770
-0.96166992 -1.152112 -1.8107014 4288085770
1.1865234 -1.5388832 -1.7598 4288085770
-1.1786499 -1.1492858 -1.8165417 4288085770
0.90652466 -1.5322585 -1.7766075 4288085770
-1.3917236 -1.1432662 -1.8204727 4288085770
0.50439453 -1.4969301 -1.7711792 4288085770
-1.5907898 -1.1379428 -1.8262005 4288085770
0.055755615 -1.4473257 -1.7539463 4288085770
-1.7717285 -1.1352477 -1.8345871 4288085770
-0.19439697 -1.4356947 -1.7665997 4288085770
-1.9558411 -1.1284666 -1.8391914 4288085770
-0.45578003 -1.4181557 -1.7746449 4288085770
-2.1268616 -1.1224089 -1.845602 4288085770
-0.67697144 -1.4067616 -1.7879219 4288085770
-2.3040466 -1.1133919 -1.8492146 4288085770
-0.91638184 -1.3885674 -1.7947197 4288085770
-2.460083 -1.1079621 -1.856411 4288085770
-1.1134644 -1.3775487 -1.8086815 4288085770
-2.6091309 -1.1013384 -1.8635712 4288085770
-1.3369141 -1.3588667 -1.8142986 4288085770
-2.7642822 -1.0917964 -1.8689346 4288085770
-1.5483093 -1.3398957 -1.8207817 4288085770
-2.9094238 -1.082932 -1.8731422 4288085770
-1.7446899 -1.3225484 -1.8280048 4288085770
-3.0515747 -1.073029 -1.8783588 4288085770
-1.934082 -1.3049636 -1.8341522 4288085770
-3.1907654 -1.0629997 -1.8825417 4288085770
-2.0982971 -1.2908988 -1.8448334 4288085770
-3.3269958 -1.0518432 -1.8857365 4288085770
-2.2696228 -1.2739 -1.8527279 4288085770
-3.4460449 -1.0433869 -1.8926029 4288085770
-2.453186 -1.251977 -1.8549881 4288085770
-3.5742798 -1.031054 -1.8967514 4288085770
-2.6186218 -1.2326818 -1.8599091 4288085770
-3.6823425 -1.022336 -1.9044933 4288085770
-2.769989 -1.215085 -1.866581 4288085770
-3.8106995 -1.0078306 -1.9047337 4288085770
-2.9153442 -1.1973195 -1.8731823 4288085770
-3.9158325 -0.99798584 -1.9114876 4288085770
-3.0587463 -1.178412 -1.8778114 4288085770
-3.2082825 -1.1565418 -1.8796444 4288085770
-3.3518066 -1.1355052 -1.8813648 4288085770
-3.4660645 -1.120007 -1.8904819 4288085770
-3.5975342 -1.0996799 -1.8930206 4288085770
-3.7139282 -1.0810652 -1.8982983 4288085770
-3.8202209 -1.0642576 -1.9053726 4288085770
-3.9488525 -1.0406756 -1.9040165 4288085770
-4.0827942 0.91798401 -1.9125767 4288085770
-3.973053 0.93309379 -1.9098892 4288085770
-3.8763733 0.94711113 -1.9013081 4288085770
-3.7326355 0.96484756 -1.9053211 4288085770
-3.6209412 0.9791894 -1.898571 4288085770
-3.5072632 0.99367642 -1.889801 4288085770
-3.358551 1.01073 -1.889719 4288085770
-3.2328491 1.02455 -1.8807697 4288085770
-4.0461121 0.96386385 -1.9151936 4288085770
-3.0761414 1.0418684 -1.8796005 4288085770
-3.9252625 0.97719145 -1.9142914 4288085770
-2.9264526 1.0571713 -1.8744259 4288085770
-3.8174744 0.98747349 -1.9064045 4288085770
-2.7647705 1.0738506 -1.8681602 4288085770
-3.6856995 1.0001497 -1.9043388 4288085770
-2.5950623 1.0897079 -1.8627625 4288085770
-3.5629272 1.0117996 -1.8973331 4288085770
-2.4204102 1.1067457 -1.8563538 4288085770
-3.4270935 1.0236771 -1.8931789 4288085770
-2.2307434 1.1231544 -1.8507328 4288085770
-3.2822876 1.035758 -1.8899231 4288085770
-2.0290833 1.1408947 -1.8450222 4288085770
-3.1324463 1.0470228 -1.8855667 4288085770
-1.8093872 1.1590426 -1.8411083 4288085770
-2.9736633 1.0595353 -1.881155 4288085770
-1.5907593 1.176296 -1.8341656 4288085770
-2.8218079 1.0699902 -1.8737373 4288085770
-1.3470764 1.195153 -1.8289871 4288085770
-2.6520386 1.081851 -1.8681602 4288085770
-1.0954285 1.2133191 -1.8216743 4288085770
-2.4641724 1.0940771 -1.8653812 4288085770
-0.8487854 1.2305257 -1.810379 4288085770
-2.2803955 1.1054146 -1.8576069 4288085770
-0.55715942 1.2507513 -1.8036671 4288085770
-2.1045532 1.1146681 -1.8468342 4288085770
-0.26055908 1.2692506 -1.7938118 4288085770
-1.8557129 1.1293111 -1.8494129 4288085770
0.020080566 1.2855761 -1.7780552 4288085770
-1.6468811 1.1393869 -1.8402729 4288085770
0.36465454 1.3063557 -1.7687111 4288085770
-1.4120483 1.1510932 -1.8328819 4288085770
0.77023315 1.3305957 -1.7637691 4288085770
-1.1842041 1.1607385 -1.822485 4288085770
1.1418152 1.3503456 -1.7490406 4288085770
-0.93634033 1.1698933 -1.8128223 4288085770
1.5003967 1.3670943 -1.7263298 4288085770
-0.64950562 1.1819894 -1.8058109 4288085770
1.8520203 1.3808763 -1.6985703 4288085770
-0.36764526 1.1921299 -1.7947655 4288085770
2.2795715 1.3985322 -1.6750469 4288085770
-0.053771973 1.2020645 -1.7853222 4288085770
2.696106 1.4141519 -1.6455669 4288085770
0.25213623 1.2100034 -1.7708817 4288085770
3.2166138 1.4353321 -1.6220512 4288085770
0.66299438 1.2252162 -1.7694798 4288085770
3.756134 1.4542177 -1.5941963 4288085770
1.0228882 1.2326486 -1.7543488 4288085770
4.3595886 1.4758253 -1.5666714 4288085770
1.3887939 1.2393816 -1.7361126 4288085770
5.0270996 1.4983368 -1.5353889 4288085770
1.7546997 1.2433393 -1.7127457 4288085770
5.7175293 1.5196617 -1.4997711 4288085770
2.1836243 1.2498584 -1.6927185 4288085770
6.5318909 1.5444117 -1.4627705 4288085770
2.5115662 1.2463973 -1.6554756 4288085770
7.4222717 1.5703526 -1.4228802 4288085770
2.9765625 1.2490942 -1.6308289 4288085770
8.3675842 1.5951252 -1.3752499 4288085770
3.4755249 1.2518215 -1.6037617 4288085770
9.4408569 1.6206157 -1.3220673 4288085770
4.023468 1.253897 -1.5760651 4288085770
10.644104 1.6479149 -1.2623634 4288085770
4.6425476 1.254946 -1.5474415 4288085770
5.3226013 1.2557244 -1.5170517 4288085770
6.0636902 1.2553251 -1.482851 4288085770
6.9167786 1.2558863 -1.4503155 4288085770
7.8659668 1.2542849 -1.4124889 4288085770
8.827179 1.247422 -1.3652744 4288085770
9.85849 1.2348115 -1.3099308 4288085770
0.3163147 -5.2244787 -0.335989 4293729569
-0.29327393 -4.7811289 0.13527298 4293729569
-0.27023315 -4.8314314 -0.37274361 4293729569
-0.27767944 -4.7426691 0.09070015 4293729569
-0.26983643 -4.7864389 -0.41879654 4293729569
-0.23168945 -4.7213144 0.048261642 4293729569
-0.23492432 -4.7604399 -0.46257973 4293729569
-0.21231079 -4.7247391 -0.50594139 4293729569
-0.16940308 -4.6985197 -0.54963493 4293729569
0.24456787 -4.8812571 -0.60848427 4293729569
1.0455933 -5.2116766 -0.73208046 4293729569
4.7688904 -7.00595 -1.0928822 4293729569
4.4541931 -6.750556 -1.1251678 4293729569
1.2546082 -4.9361639 -0.36444855 4293729569
1.2546997 -4.9945269 -0.94846535 4293729569
1.2998962 -4.8896236 -0.40301895 4293729569
0.10256958 -4.3325768 -0.90104675 4293729569
0.90777588 -4.6211395 -0.43182945 4293729569
0.61917114 -4.5312033 -0.97394943 4293729569
0.31588745 -4.2585392 -0.45227432 4293729569
1.3691101 -4.8386459 -1.0681686 4293729569
3.0658569 -5.600873 -1.2446079 4293729569
2.9097595 -5.4390078 -1.2697716 4293729569
2.7302856 -5.2684755 -1.2886047 4293729569
2.56604 -5.1045628 -1.3079548 4293729569
2.4048767 -4.9434299 -1.3241386 4293729569
2.2741394 -4.7994938 -1.3401852 4293729569
7.4426575 -6.9517279 -0.97760201 4293729569
2.1515503 -4.6603756 -1.3569202 4293729569
7.217926 -6.7308369 -1.0072517 4293729569
2.0614014 -4.5363979 -1.3735809 4293729569
6.9405823 -6.491087 -1.0313778 4293729569
1.9510193 -4.4038038 -1.3868694 4293729569
6.6805115 -6.2608147 -1.0538692 4293729569
1.8618469 -4.2816639 -1.4004345 4293729569
6.4093628 -6.0306187 -1.0714874 4293729569
1.7615967 -4.1566954 -1.4112568 4293729569
6.2030945 -5.8297987 -1.0910034 4293729569
1.6694946 -4.0364532 -1.4207668 4293729569
6.031311 -5.6469746 -1.1082935 4293729569
1.6482544 -3.9446497 -1.437151 4293729569
5.8493958 -5.4603395 -1.1238747 4293729569
1.7627563 -3.9079323 -1.4684353 4293729569
5.6867676 -5.2851219 -1.1377087 4293729569
2.0047302 -3.9183998 -1.5120716 4293729569
5.5494385 -5.1202459 -1.1517754 4293729569
2.2709351 -3.9343767 -1.5591679 4288085770
5.4212646 -4.9610262 -1.1634731 4293729569
2.3608093 -3.8789883 -1.58358 4288085770
5.3285217 -4.8179092 -1.1760216 4293729569
2.290863 -3.7659531 -1.5884972 4288085770
5.2651672 -4.6869755 -1.187664 4293729569
2.2563171 -3.6660728 -1.5953941 4288085770
5.2118835 -4.559763 -1.1990204 4293729569
2.2237549 -3.5670891 -1.6012306 4288085770
5.1666565 -4.4342833 -1.2091999 4293729569
2.183075 -3.465241 -1.6052895 4288085770
5.1447144 -4.3192015 -1.2196331 4293729569
2.1333618 -3.3615074 -1.6065388 4288085770
5.107605 -4.199357 -1.2264576 4293729569
2.1341553 -3.2746453 -1.6124249 4288085770
5.0583496 -4.0767174 -1.2305546 4293729569
2.1137695 -3.1822333 -1.615818 4288085770
5.1091309 -3.9857531 -1.2420235 4293729569
2.0923157 -3.088716 -1.6162663 4288085770
5.2618408 -3.9252806 -1.2578926 4293729569
2.0941467 -3.0046859 -1.619009 4288085770
5.5900879 -3.9146719 -1.2854099 4293729569
2.0938721 -2.9176283 -1.619915 4288085770
6.0423279 -3.9341297 -1.3210831 4293729569
2.1219177 -2.8399649 -1.6240578 4288085770
6.4328308 -3.9298964 -1.3495617 4288085770
2.1600952 -2.765975 -1.6269131 4288085770
6.5921326 -3.8580303 -1.3608646 4288085770
2.1769714 -2.6854429 -1.6273251 4288085770
6.6555786 -3.7583208 -1.3635712 4288085770
2.2402344 -2.6158504 -1.6316833 4288085770
6.7028198 -3.6539221 -1.3636799 4288085770
2.3005371 -2.5462947 -1.6350746 4288085770
6.8055115 -3.5621276 -1.3655529 4288085770
2.3324585 -2.4672108 -1.6322346 4288085770
6.8778687 -3.4609485 -1.3632126 4288085770
2.3916321 -2.3955517 -1.6327286 4288085770
6.9945984 -3.3726759 -1.3627567 4288085770
2.454834 -2.3247809 -1.6331387 4288085770
7.110199 -3.2803464 -1.3604946 4288085770
2.519989 -2.2518244 -1.630619 4288085770
7.2478943 -3.190455 -1.3588581 4288085770
2.5709534 -2.1761694 -1.6263905 4288085770
7.3583679 -3.0950885 -1.3527908 4288085770
2.6592712 -2.1086612 -1.6253471 4288085770
7.5030823 -3.0068665 -1.34799 4288085770
2.7384644 -2.0382719 -1.6215439 4288085770
7.7131348 -2.9289761 -1.3449345 4288085770
2.8206482 -1.9687991 -1.6176624 4288085770
7.9200439 -2.8480854 -1.3400536 4288085770
2.9360352 -1.9045458 -1.6161442 4288085770
8.1419983 -2.767735 -1.3339634 4288085770
3.0352173 -1.8345618 -1.6110783 4288085770
8.3779297 -2.6869578 -1.3267212 4288085770
3.1656189 -1.7698522 -1.6084003 4288085770
8.6016846 -2.6013808 -1.3168392 4288085770
3.3170166 -1.7066088 -1.6064034 4288085770
8.8937073 -2.5241041 -1.309763 4288085770
3.4371948 -1.6369557 -1.5990658 4288085770
9.1947021 -2.445446 -1.2996368 4288085770
3.5814819 -1.5707302 -1.5932865 4288085770
9.4563599 -2.3576503 -1.2853928 4288085770
3.719696 -1.5015383 -1.5847073 4288085770
9.8304749 -2.28198 -1.2742443 4288085770
3.8547974 -1.430387 -1.5752563 4288085770
10.139069 -2.1927614 -1.2564926 4288085770
4.0331116 -1.364181 -1.5680618 4288085770
10.493744 -2.1053176 -1.2391033 4288085770
4.1972351 -1.2921896 -1.5572948 4288085770
10.839294 -2.0139499 -1.2179985 4288085770
4.3703308 -1.2209492 -1.5463867 4288085770
4.5805664 -1.1527772 -1.5368919 4288085770
4.7585144 -1.0782256 -1.5220699 4288085770
4.9846802 -1.0064845 -1.5095387 4288085770
5.2568665 -0.93661213 -1.4993725 4288085770
5.5319824 -0.86457014 -1.4872627 4288085770
5.8642273 -0.79404926 -1.4763966 4288085770
6.1521606 -0.71747732 -1.4603329 4288085770
6.5092163 -0.64114332 -1.4464245 4288085770
6.893219 -0.56306934 -1.4322681 4288085770
7.348114 -0.48205137 -1.4173851 4288085770
7.7909851 -0.3982296 -1.3997726 4288085770
8.2204895 -0.30650949 -1.3766689 4288085770
8.7250977 -0.21481848 -1.3546581 4288085770
9.1914062 -0.11686707 -1.3263855 4288085770
9.6965942 -0.013715744 -1.2948742 4288085770
10.286621 0.094717979 -1.2635727 4288085770
10.850281 1.3505986 -1.2545109 4288085770
9.8513489 1.3936098 -1.3053341 4288085770
8.9764404 1.4350982 -1.3526154 4288085770
8.1376343 1.470942 -1.3912086 4288085770
7.3678284 1.5058506 -1.4249363 4288085770
6.6661072 1.5386667 -1.4567585 4288085770
6.003418 1.5678227 -1.4819489 4288085770
5.4957275 1.6028404 -1.5135784 4288085770
5.0149841 1.6377306 -1.5418816 4288085770
4.4873962 1.6628058 -1.5602818 4288085770
10.829132 2.3187921 -1.2638054 4288085770
4.0247803 1.6905608 -1.5800343 4288085770
9.9758606 2.3379343 -1.308815 4288085770
3.6151123 1.7197604 -1.5992279 4288085770
9.1645813 2.3554533 -1.3482475 4288085770
3.2055664 1.7451482 -1.6142406 4293729569
8.4452515 2.3745725 -1.3846626 4288085770
2.8469543 1.7718349 -1.6307125 4293729569
7.8258362 2.3993673 -1.4211521 4288085770
2.5292969 1.8025455 -1.6488857 4293729569
7.2603455 2.4247708 -1.454031 4288085770
2.2356873 1.8309574 -1.6656666 4288085770
6.6520996 2.4383841 -1.4788685 4288085770
1.9830322 1.8633943 -1.6841507 4288085770
6.1147461 2.4569693 -1.5020943 4288085770
1.7513428 1.896311 -1.7044086 4288085770
5.6582947 2.4806237 -1.5275955 4288085770
1.5107422 1.925262 -1.718586 4288085770
5.2039185 2.5005636 -1.5478973 4288085770
1.2671204 1.9532692 -1.7297535 4288085770
4.7605286 2.5179446 -1.564949 4288085770
1.0305481 1.9794672 -1.7407551 4288085770
4.3990173 2.5433731 -1.5854034 4288085770
0.79397583 2.0028512 -1.7476234 4288085770
3.9787292 2.5566144 -1.5969887 4288085770
0.5763855 2.0277088 -1.7553349 4288085770
3.6412659 2.5788803 -1.6130104 4288085770
0.36685181 2.052784 -1.7629623 4288085770
3.3257751 2.602793 -1.6278439 4288085770
0.17926025 2.078459 -1.7703552 4288085770
3.0352783 2.6264319 -1.6413689 4288085770
0.019622803 2.1087077 -1.7816315 4288085770
2.7706909 2.6536844 -1.6567554 4288085770
-0.16290283 2.1326139 -1.7868824 4288085770
2.5201416 2.6804104 -1.6699467 4288085770
-0.32156372 2.1610754 -1.7940598 4288085770
2.2735596 2.7063389 -1.6810551 4288085770
-0.47512817 2.1867228 -1.8000488 4288085770
2.0350037 2.7315307 -1.6910324 4288085770
-0.64370728 2.2101455 -1.8021107 4288085770
1.8045044 2.7549906 -1.6998348 4288085770
-0.78430176 2.2361934 -1.806963 4288085770
1.5888977 2.7809005 -1.707571 4288085770
-0.90994263 2.2655554 -1.8137913 4288085770
1.3853455 2.8060956 -1.716135 4288085770
-1.0594788 2.2865925 -1.8135166 4288085770
1.2116699 2.8350997 -1.7245178 4288085770
-1.1721191 2.3153546 -1.8191643 4288085770
1.0559692 2.8675027 -1.7348442 4288085770
-1.270813 2.3464482 -1.8257523 4288085770
0.8644104 2.8902533 -1.7381496 4288085770
-1.3764954 2.3754501 -1.8303261 4288085770
0.74060059 2.927475 -1.749321 4288085770
-1.4741821 2.4056172 -1.8358612 4288085770
0.57897949 2.9539957 -1.7534428 4288085770
-1.5579224 2.4381216 -1.8423367 4288085770
0.42532349 2.9817328 -1.7575264 4288085770
-1.6575623 2.4654229 -1.8437595 4288085770
0.25775146 3.0033221 -1.7564888 4288085770
-1.7472229 2.4949028 -1.8471642 4288085770
0.10317993 3.027173 -1.7574043 4288085770
-1.8458557 2.5212774 -1.8475323 4288085770
-0.024536133 3.0566604 -1.7602596 4293729569
-1.9176331 2.5541987 -1.8518829 4288085770
-0.14822388 3.0862584 -1.7630711 4293729569
-1.9883728 2.5871923 -1.8552265 4288085770
-0.24801636 3.1204133 -1.7678127 4293729569
-2.0650635 2.6161184 -1.856451 4288085770
-0.35580444 3.1524892 -1.7695484 4293729569
-2.1268616 2.6503119 -1.8607407 4288085770
-0.43075562 3.1932259 -1.7762966 4288085770
-2.2145081 2.6761231 -1.8579483 4288085770
-0.52359009 3.2286601 -1.7790108 4288085770
-2.2653503 2.7126133 -1.8622169 4288085770
-0.58761597 3.2726939 -1.78578 4288085770
-2.3300781 2.7439098 -1.8624058 4288085770
-0.66455078 3.3115602 -1.7884617 4288085770
-2.3978577 2.7742147 -1.8605862 4288085770
-0.74047852 3.3494534 -1.79109 4288085770
-2.4417419 2.8119402 -1.8638248 4288085770
-0.78961182 3.3969805 -1.7958393 4288085770
-2.4836426 2.8497171 -1.8670444 4288085770
-0.84368896 3.4413762 -1.8005047 4288085770
-2.5264893 2.8865597 -1.8682289 4288085770
-0.9156189 3.478518 -1.8000469 4288085770
-2.5723572 2.9223242 -1.8694 4288085770
-0.95874023 3.5262554 -1.8037319 4288085770
-2.610321 2.9612992 -1.8706245 4288085770
-0.99597168 3.5761528 -1.8074493 4288085770
-2.6462097 2.9983783 -1.870739 4288085770
-1.0301514 3.626128 -1.8111343 4288085770
-2.6861572 3.0353925 -1.8698959 4288085770
-1.0485535 3.6843965 -1.8180122 4288085770
-2.7051697 3.0807445 -1.8741913 4288085770
-1.0847473 3.7324586 -1.8186302 4288085770
-2.735199 3.1210268 -1.8733788 4288085770
-1.0961914 3.7920065 -1.8234825 4288085770
-2.7641602 3.1603396 -1.8725109 4288085770
-1.0888367 3.8589208 -1.8314533 4288085770
-2.7574768 3.2162447 -1.8799839 4288085770
-1.0992737 3.9185405 -1.8352928 4288085770
-2.793396 3.2535062 -1.8761024 4288085770
-1.098877 3.9834516 -1.8392487 4288085770
-2.8164673 3.2950234 -1.8742638 4288085770
-1.0845947 4.0536008 -1.846283 4288085770
-2.8236389 3.3437853 -1.8765736 4288085770
-1.1030273 4.1102328 -1.8450794 4288085770
-2.8199768 3.3978405 -1.878994 4288085770
-1.059082 4.1950874 -1.854435 4288085770
-2.8360901 3.4425442 -1.8772202 4288085770
-1.0508118 4.2643018 -1.856493 4288085770
-2.8225098 3.5018206 -1.8807621 4288085770
-1.0554199 4.3283043 -1.8554611 4288085770
-2.8198547 3.5559363 -1.881197 4288085770
-1.0294189 4.405951 -1.858696 4288085770
-2.8201904 3.6080678 -1.8795738 4288085770
-1.0221863 4.4753184 -1.8567677 4288085770
-2.7947388 3.6725707 -1.8852158 4288085770
-1.0040588 4.5498867 -1.8569508 4288085770
-2.781189 3.7319798 -1.8857632 4288085770
-0.99093628 4.6224613 -1.8540993 4288085770
-2.7162781 3.8182707 -1.8979397 4288085770
-0.94415283 4.7107086 -1.8565693 4288085770
-2.7156677 3.8715611 -1.8933563 4288085770
-0.88168335 4.8102865 -1.861372 4288085770
-2.6665649 3.9496541 -1.900341 4288085770
-0.8527832 4.8913293 -1.8577194 4288085770
-2.6204834 4.0277567 -1.9053593 4288085770
-0.80612183 4.9817553 -1.856287 4288085770
-2.6001282 4.0915318 -1.9020214 4288085770
-0.73770142 5.0845842 -1.8591671 4288085770
-2.5284119 4.1841383 -1.9114037 4288085770
-0.6625061 5.1926842 -1.8602047 4288085770
-2.4912415 4.2572722 -1.9102955 4288085770
-0.5892334 5.2997794 -1.860218 4288085770
-2.4412842 4.3376641 -1.9113693 4288085770
-0.49240112 5.4214163 -1.8626175 4288085770
-2.3637085 4.4355617 -1.9179211 4288085770
-0.3895874 5.5472102 -1.8651371 4288085770
-2.3256531 4.5098586 -1.9138527 4288085770
-0.25527954 5.6917124 -1.8711395 4288085770
-2.2836609 4.5873051 -1.9088802 4288085770
-0.12405396 5.8372669 -1.8742256 4288085770
-2.2051697 4.68641 -1.9114723 4288085770
0.017059326 5.9890857 -1.8774776 4288085770
-2.1651917 4.7619863 -1.9024372 4288085770
0.17486572 6.1523066 -1.8820553 4288085770
-2.1004944 4.8529968 -1.8988152 4288085770
0.34637451 6.3259387 -1.8859444 4288085770
-2.0142212 4.9583993 -1.8996029 4288085770
0.51983643 6.5017138 -1.887907 4288085770
-1.921051 5.068037 -1.8994999 4288085770
0.72769165 6.7003164 -1.8925056 4288085770
-1.8229065 5.1798511 -1.8984356 4288085770
0.93453979 6.8989372 -1.8961182 4288085770
-1.724823 5.2927084 -1.8964176 4288085770
1.1915283 7.1317611 -1.903698 4288085770
-1.597229 5.4242182 -1.8979073 4288085770
1.4739685 7.3842678 -1.9118748 4288085770
-1.4519653 5.5691099 -1.9018002 4288085770
1.7534485 7.6358757 -1.9160442 4288085770
-1.2889404 5.7254295 -1.9070053 4288085770
1.9855652 7.8576698 -1.9094048 4288085770
-1.118103 5.8880062 -1.9114017 4288085770
2.322876 8.1518679 -1.9138317 4288085770
-0.95617676 6.0445251 -1.9116268 4288085770
2.6876831 8.4647999 -1.9187889 4288085770
-0.75784302 6.2258816 -1.915556 4288085770
-0.54772949 6.4155054 -1.920723 4288085770
-0.30917358 6.6258898 -1.9265022 4288085770
-0.068634033 6.8374195 -1.9303093 4288085770
0.20330811 7.0707417 -1.9357414 4288085770
0.50177002 7.3236818 -1.9437561 4288085770
0.88180542 7.6345243 -1.9594574 4288085770
1.2597656 7.9444962 -1.9711361 4288085770
1.6081848 8.2341366 -1.9722309 4288085770
1.9398804 8.5096455 -1.9658737 4293729569
10.708862 0.46384573 -1.2482243 4288085770
9.8045654 0.37153625 -1.2945347 4288085770
9.0000916 0.28688335 -1.3410378 4288085770
8.1773376 0.21114302 -1.3791523 4288085770
7.3662415 0.14508009 -1.4095573 4288085770
6.5878601 0.086085796 -1.4359016 4288085770
5.9014587 0.032535076 -1.4624329 4288085770
5.3139954 -0.017519474 -1.4919815 4288085770
4.7302856 -0.061244011 -1.5167675 4288085770
10.892639 -0.27141714 -1.225729 4288085770
4.2165527 -0.10112238 -1.5419216 4293729569
9.881134 -0.31788731 -1.2803688 4288085770
3.8028564 -0.13956308 -1.571991 4293729569
8.977478 -0.35725498 -1.3300762 4288085770
3.4030457 -0.1755352 -1.6000061 4288085770
8.1566772 -0.39228725 -1.3770218 4288085770
3.0171814 -0.20808744 -1.6270199 4288085770
7.2824707 -0.41712999 -1.4110298 4288085770
2.7084045 -0.24087143 -1.6601353 4288085770
6.4610596 -0.43636036 -1.4406815 4288085770
2.4226074 -0.27198648 -1.6920605 4288085770
5.7467346 -0.45582485 -1.472084 4288085770
2.0453186 -0.29389811 -1.7104435 4288085770
5.0892639 -0.47061443 -1.500042 4288085770
1.7542114 -0.31784058 -1.7357502 4288085770
4.5178528 -0.4861145 -1.5279713 4288085770
1.4660034 -0.33861399 -1.7591648 4288085770
4.0436096 -0.50329971 -1.5617065 4288085770
1.230957 -0.36122084 -1.7878857 4288085770
3.6072693 -0.5183692 -1.5930996 4288085770
1.0942078 -0.3898468 -1.8302135 4282675967
3.1999512 -0.53269672 -1.6251907 4288085770
0.68927002 -0.39346266 -1.8267231 4288085770
2.8365784 -0.54583406 -1.6568279 4288085770
0.071166992 -0.37389517 -1.7837048 4288085770
2.5434265 -0.56234169 -1.6935062 4288085770
-0.25979614 -0.37668896 -1.7834034 4288085770
2.1798706 -0.57016563 -1.71838 4288085770
-0.52554321 -0.38217306 -1.7922344 4288085770
1.8331909 -0.57548666 -1.7421684 4288085770
-0.75119019 -0.38979673 -1.8055077 4288085770
1.49646 -0.57840061 -1.7629528 4288085770
-1.0000305 -0.39268637 -1.8112602 4288085770
1.2521057 -0.58831453 -1.7933598 4288085770
-1.257019 -0.39156675 -1.8122807 4288085770
1.0829468 -0.6026907 -1.8337059 4282675967
-1.4527893 -0.39529324 -1.8233852 4288085770
0.46551514 -0.56838751 -1.7973557 4288085770
-1.6505737 -0.39798212 -1.8325596 4288085770
-0.022460938 -0.5433507 -1.7761059 4288085770
-1.8796692 -0.39406157 -1.832386 4288085770
-0.29244995 -0.53909159 -1.7884312 4288085770
-2.0414124 -0.39691114 -1.8441372 4288085770
-0.58364868 -0.5300436 -1.7932129 4288085770
-2.2384338 -0.39326191 -1.8465824 4288085770
-0.82064819 -0.52589226 -1.8051548 4288085770
-2.3952332 -0.39388609 -1.8563786 4288085770
-1.073761 -0.51690292 -1.8114929 4288085770
-2.5602112 -0.39159632 -1.8633957 4288085770
-1.303894 -0.5093832 -1.8195038 4288085770
-2.7151184 -0.38903284 -1.8703098 4288085770
-1.5330505 -0.50069809 -1.8245525 4288085770
-2.8540344 -0.3871274 -1.8790112 4288085770
-1.7311096 -0.49335289 -1.8331833 4288085770
-3.0121155 -0.381423 -1.8810997 4288085770
-1.9584351 -0.48039246 -1.8333988 4288085770
-3.1591492 -0.37650871 -1.885025 4288085770
-2.1405334 -0.47256851 -1.8408661 4288085770
-3.2901306 -0.37225342 -1.8907394 4288085770
-2.3196411 -0.46361923 -1.8473492 4288085770
-3.4231873 -0.36596203 -1.8945675 4288085770
-2.4867859 -0.45434666 -1.8537083 4288085770
-3.5351562 -0.36232662 -1.903038 4288085770
-2.6287842 -0.44761992 -1.8646679 4288085770
-3.6601868 -0.35581779 -1.9067822 4288085770
-2.7879333 -0.43708467 -1.8699913 4288085770
-3.7691956 -0.35105848 -1.9142666 4288085770
-2.9250488 -0.42813587 -1.8789959 4288085770
-3.8893127 -0.34337187 -1.9170094 4288085770
-3.0762634 -0.41733932 -1.8832378 4288085770
-3.2083435 -0.40816021 -1.8901882 4288085770
-3.3435669 -0.39588547 -1.8933125 4288085770
-3.4848328 -0.38368273 -1.8945026 4288085770
-3.611084 -0.37116528 -1.8975334 4288085770
-3.7171631 -0.36237335 -1.906168 4288085770
-3.8323669 -0.35055494 -1.9090405 4288085770
-4.0484314 1.5039999 -1.9178333 4288085770
-3.9418335 1.521997 -1.9144421 4288085770
-3.8381042 1.5380533 -1.9079914 4288085770
-3.7234802 1.5562661 -1.90452 4288085770
-3.6138611 1.5725276 -1.8970108 4288085770
-3.5031433 1.5878212 -1.8894444 4288085770
-3.3764954 1.6054502 -1.8838081 4288085770
-3.2318726 1.6253774 -1.8820744 4288085770
-4.0061035 1.4881408 -1.915659 4288085770
-3.0892639 1.6443889 -1.8773212 4288085770
-3.8963013 1.5002742 -1.9109612 4288085770
-2.9425964 1.6624663 -1.873476 4288085770
-3.786499 1.5124037 -1.9062653 4288085770
-2.802948 1.6785827 -1.8646183 4288085770
-3.6417542 1.5291076 -1.9093876 4288085770
-2.6573181 1.6949112 -1.8547001 4288085770
-3.5608826 1.5330641 -1.8916321 4288085770
-2.4936523 1.7125375 -1.8486404 4288085770
-3.4260864 1.546731 -1.8897266 4288085770
-2.3050842 1.7346497 -1.846508 4288085770
-3.294281 1.5584557 -1.8847599 4288085770
-2.1035156 1.7571101 -1.844244 4288085770
-3.135498 1.5746291 -1.8856964 4288085770
-1.8979187 1.7797258 -1.8409386 4288085770
-3.001709 1.584548 -1.8776226 4288085770
-1.6653748 1.8048351 -1.8424454 4288085770
-2.8478394 1.5967743 -1.8744316 4288085770
-1.4447937 1.8259494 -1.8368988 4288085770
-2.7089844 1.6048763 -1.8652134 4288085770
-1.229187 1.8451121 -1.8273163 4288085770
-2.558136 1.6142557 -1.8569221 4288085770
-1.0185242 1.861284 -1.8146496 4288085770
-2.3892822 1.6249804 -1.8514881 4288085770
-0.7460022 1.8866582 -1.8117104 4288085770
-2.1894531 1.6393065 -1.8508739 4288085770
-0.47943115 1.9080553 -1.8046532 4288085770
-2.008606 1.6494014 -1.8442745 4288085770
-0.1998291 1.9289002 -1.7954178 4288085770
-1.7947998 1.6631956 -1.8414745 4288085770
0.086761475 1.9490213 -1.784071 4288085770
-1.5709839 1.6762178 -1.8395252 4288085770
0.34643555 1.9637461 -1.7657738 4288085770
-1.3650818 1.6850345 -1.8315792 4288085770
0.67297363 1.9849021 -1.7550201 4288085770
-1.1451416 1.6931844 -1.8244457 4288085770
1.0155029 2.0075326 -1.7431507 4288085770
-0.91323853 1.702702 -1.8162384 4288085770
1.3630981 2.0264387 -1.7280483 4288085770
-0.66931152 1.7104988 -1.808815 4288085770
1.6987915 2.0412595 -1.7078876 4288085770
-0.40539551 1.7188323 -1.8011894 4288085770
2.0334778 2.0522864 -1.6825638 4288085770
-0.15042114 1.7241137 -1.7895203 4288085770
2.4341125 2.0698085 -1.6627884 4288085770
0.13052368 1.7310011 -1.7796345 4288085770
2.8836975 2.0896039 -1.6435642 4288085770
0.40557861 1.7329166 -1.7655792 4288085770
3.3542786 2.1090553 -1.6220837 4288085770
0.73355103 1.73998 -1.7571678 4288085770
3.8768005 2.1308632 -1.6011181 4288085770
1.055603 1.7430685 -1.7446365 4288085770
4.4503479 2.1539989 -1.5806351 4288085770
1.4036865 1.7458169 -1.7327919 4288085770
5.0518799 2.1751182 -1.5547352 4288085770
1.691864 1.7385523 -1.7081585 4288085770
5.6625061 2.191673 -1.524519 4288085770
1.9961243 1.7297242 -1.6832714 4288085770
6.3420715 2.2110858 -1.4936485 4288085770
2.3453369 1.7229676 -1.6609688 4288085770
7.0926514 2.2314548 -1.4610119 4288085770
2.7106323 1.7146459 -1.6384106 4293729569
7.8602905 2.2456126 -1.4208889 4288085770
3.1608276 1.7113321 -1.6211243 4288085770
8.6759338 2.2591581 -1.378191 4288085770
3.6071472 1.7031035 -1.5996513 4288085770
9.5796204 2.2712173 -1.3314171 4288085770
4.1025085 1.6941493 -1.5785885 4288085770
10.651184 2.2917478 -1.2841206 4288085770
4.6448975 1.6844175 -1.5579567 4288085770
5.2233582 1.6727514 -1.5348206 4288085770
5.7139587 1.6483264 -1.4990864 4288085770
6.3396301 1.6272163 -1.4689751 4288085770
6.9963379 1.603945 -1.4384098 4288085770
7.7570496 1.5814297 -1.4076977 4288085770
8.5709839 1.551491 -1.3730373 4288085770
9.3640442 1.5123677 -1.330183 4288085770
10.25827 1.4690175 -1.2849827 4288085770
-0.28909302 -4.7665997 0.16089821 4293729569
-0.29943848 -4.8097544 0.12172699 4293729569
-0.27316284 -4.8749552 0.082983017 4293729569
2.1659546 -7.0870609 -1.2139664 4293729569
1.7466431 -6.8059626 -1.2406788 4293729569
1.3791809 -6.5565891 -1.2683449 4293729569
1.0197449 -6.3097162 -1.2897968 4293729569
0.71936035 -6.099555 -1.3158989 4293729569
0.43624878 -5.8988295 -1.3393631 4293729569
0.37484741 -5.7467718 -0.81146812 4293729569
0.20498657 -5.7309189 -1.3657398 4293729569
0.42388916 -5.7590961 -0.86740494 4293729569
-0.029388428 -5.5589094 -1.3883324 4293729569
0.41171265 -5.7288208 -0.91999245 4293729569
-0.29031372 -5.3682556 -1.4040775 4293729569
0.40145874 -5.6964035 -0.97065544 4293729569
-0.45962524 -5.2356529 -1.4281254 4293729569
0.42581177 -5.6851788 -1.022953 4293729569
-0.68496704 -5.0660267 -1.4424973 4293729569
-0.90432739 -4.8981447 -1.4547195 4293729569
1.7672424 -6.4796124 -1.2524509 4293729569
-1.0462646 -4.7797041 -1.4758034 4293729569
1.4847107 -6.2619762 -1.2786942 4293729569
-1.2147217 -4.6436157 -1.4899902 4293729569
1.1734924 -6.0248003 -1.2991581 4293729569
-1.35672 -4.5229464 -1.5061684 4293729569
0.94781494 -5.8406563 -1.3242149 4293729569
-1.4681702 -4.4216719 -1.5261135 4293729569
0.72116089 -5.6573534 -1.3452415 4293729569
-1.6306152 -4.2871447 -1.534153 4293729569
0.5239563 -5.4913864 -1.3681393 4293729569
-1.782959 -4.1583385 -1.5418148 4293729569
-1.467804 -4.2245131 -1.1617775 4293729569
-1.8843384 -4.0605602 -1.5564785 4293729569
-1.4592285 -4.1908922 -1.1972656 4293729569
-1.9735413 -3.9695415 -1.5726986 4293729569
-1.4517212 -4.156208 -1.2308159 4293729569
-2.0729675 -3.8725691 -1.584301 4293729569
-1.4279175 -4.1301756 -1.2657852 4293729569
-2.0450439 -3.8524208 -1.6189499 4293729569
-1.394043 -4.1079597 -1.3024654 4293729569
-1.9610901 -3.8643932 -1.6655006 4293729569
-0.42572021 -4.6321344 -1.4735622 4293729569
-1.8792725 -3.8723326 -1.7102585 4293729569
-0.53149414 -4.5195312 -1.4899654 4293729569
-1.8025818 -3.8763666 -1.7542553 4288085770
-0.69525146 -4.3749046 -1.4954834 4293729569
-1.8370056 -3.8110895 -1.7736721 4288085770
-0.83261108 -4.2447453 -1.5040417 4293729569
-1.9132385 -3.7213516 -1.7816772 4288085770
-0.91094971 -4.1483459 -1.5183811 4293729569
-2.0016785 -3.6257591 -1.7860832 4288085770
-1.0116882 -4.0403242 -1.5285091 4293729569
-2.0657349 -3.5427337 -1.7946434 4288085770
-1.0819092 -3.948658 -1.5415382 4293729569
-2.1227112 -3.4635158 -1.8029461 4288085770
-1.0932007 -3.8888502 -1.5624466 4293729569
-2.1654053 -3.3930016 -1.8126869 4288085770
-1.0089111 -3.8793201 -1.5989723 4293729569
-2.2142029 -3.3185153 -1.8196793 4288085770
-0.86468506 -3.9007139 -1.6454105 4293729569
-2.2640686 -3.2430105 -1.8257275 4288085770
-0.75314331 -3.9006281 -1.6851978 4293729569
-2.3047791 -3.1723013 -1.8324509 4288085770
-0.65179443 -3.8936863 -1.722414 4288085770
-2.3363647 -3.1063929 -1.8398533 4288085770
-0.67346191 -3.8228397 -1.7369404 4288085770
-2.3648987 -3.0424004 -1.8471336 4288085770
-0.75201416 -3.7228918 -1.739439 4288085770
-2.4066772 -2.9705362 -1.8499203 4288085770
-0.82852173 -3.6248417 -1.7408218 4288085770
-2.4210205 -2.9142017 -1.857687 4288085770
-0.87460327 -3.5421948 -1.7461567 4288085770
-2.4353943 -2.8568239 -1.864502 4288085770
-0.91763306 -3.4604177 -1.7504158 4288085770
-2.4721375 -2.7877312 -1.8651047 4288085770
-0.95462036 -3.3814793 -1.7544785 4288085770
-2.5180359 -2.7137008 -1.86203 4288085770
-0.98443604 -3.3074346 -1.7602348 4288085770
-2.5385132 -2.654254 -1.8640041 4288085770
-1.0193787 -3.2303448 -1.7621841 4288085770
-2.5661011 -2.5899129 -1.8642826 4288085770
-1.0482483 -3.1560907 -1.763937 4288085770
-2.5724182 -2.536128 -1.8668365 4288085770
-1.0690002 -3.0857077 -1.7674198 4288085770
-2.5817566 -2.4804282 -1.8695126 4288085770
-1.0755615 -3.020987 -1.7714844 4288085770
-2.5870361 -2.4266167 -1.872057 4288085770
-1.0760193 -2.960145 -1.7762985 4288085770
-2.6015015 -2.3688698 -1.870882 4288085770
-1.0582886 -2.9049034 -1.7826538 4288085770
-2.6078796 -2.3139496 -1.8704872 4288085770
-1.0456543 -2.8487539 -1.7881088 4288085770
-2.6121521 -2.2609715 -1.869976 4288085770
-1.0542908 -2.7829027 -1.7882423 4288085770
-2.6185303 -2.2070041 -1.8685379 4288085770
-1.0538025 -2.7218046 -1.7880554 4288085770
-2.6127014 -2.1567998 -1.8687878 4288085770
-1.0361328 -2.6663795 -1.7904148 4288085770
-2.6119995 -2.1056409 -1.8671379 4288085770
-1.0255432 -2.6090512 -1.7909431 4288085770
-2.5991516 -2.0592442 -1.8671341 4288085770
-1.02005 -2.5497708 -1.7896137 4288085770
-2.5842285 -2.0137916 -1.8670616 4288085770
-0.99935913 -2.4951711 -1.7898979 4288085770
-2.5693359 -1.9672952 -1.8660374 4288085770
-0.97970581 -2.4405065 -1.7881985 4288085770
-2.5666199 -1.9169402 -1.8613243 4288085770
-0.95706177 -2.3858061 -1.787466 4288085770
-2.5233459 -1.881 -1.8665028 4288085770
-0.93435669 -2.3330135 -1.7846451 4288085770
-2.503479 -1.8363209 -1.8643379 4288085770
-0.89862061 -2.2829595 -1.7835503 4288085770
-2.4794922 -1.7935314 -1.8620396 4288085770
-0.87185669 -2.2310543 -1.7806396 4288085770
-2.4545593 -1.7497163 -1.8597775 4288085770
-0.8543396 -2.1742172 -1.7740593 4288085770
-2.411438 -1.712594 -1.8610077 4288085770
-0.81350708 -2.1259789 -1.771822 4288085770
-2.3753967 -1.672524 -1.8594494 4288085770
-0.76266479 -2.0794711 -1.7693939 4288085770
-2.3373413 -1.6323986 -1.8578701 4288085770
-0.71179199 -2.0329614 -1.7669659 4288085770
-2.2861633 -1.5960135 -1.857975 4288085770
-0.64279175 -1.990056 -1.7661667 4288085770
-2.2320251 -1.5595484 -1.8580494 4288085770
-0.57781982 -1.9471664 -1.7634125 4288085770
-2.203064 -1.5164394 -1.8517036 4288085770
-0.4987793 -1.9059925 -1.7624245 4288085770
-2.1570435 -1.4770093 -1.8480034 4288085770
-0.41870117 -1.8657417 -1.7603779 4288085770
-2.099884 -1.4414163 -1.8470039 4288085770
-0.31750488 -1.83006 -1.7608871 4288085770
-2.0467529 -1.4037943 -1.8431377 4288085770
-0.21130371 -1.7942448 -1.7613468 4288085770
-1.9734802 -1.3708596 -1.8438358 4288085770
-0.14651489 -1.7470851 -1.7527866 4288085770
-1.906311 -1.3359041 -1.8406887 4288085770
-0.052459717 -1.7063684 -1.7486038 4288085770
-1.8492432 -1.2971311 -1.8358326 4288085770
0.068756104 -1.6710558 -1.7468662 4288085770
-1.7710266 -1.2629261 -1.8335285 4288085770
0.19494629 -1.6356568 -1.7460823 4288085770
-1.7079773 -1.2248974 -1.8265686 4288085770
0.38458252 -1.6129661 -1.7530041 4288085770
-1.6116638 -1.1933436 -1.8269424 4288085770
0.62258911 -1.5982494 -1.7650185 4288085770
-1.5102844 -1.1626091 -1.8262215 4288085770
0.83932495 -1.5769238 -1.7735729 4288085770
-1.4150391 -1.1299906 -1.8246536 4288085770
0.99041748 -1.5396733 -1.768589 4288085770
-1.3319702 -1.0924258 -1.8174477 4288085770
1.1484985 -1.501236 -1.7635822 4288085770
-1.2145996 -1.0622602 -1.8165188 4288085770
1.3126526 -1.4635897 -1.7574673 4288085770
-1.0852051 -1.032865 -1.817421 4288085770
1.4686279 -1.4220257 -1.7486229 4288085770
-0.99215698 -0.99498558 -1.8091183 4288085770
1.6286316 -1.3813057 -1.7386932 4288085770
-0.88604736 -0.95880127 -1.8015862 4288085770
1.7915039 -1.3373728 -1.7258778 4288085770
-0.77087402 -0.92342091 -1.79492 4288085770
1.9825439 -1.2978687 -1.7165451 4288085770
-0.63562012 -0.89063787 -1.7909088 4288085770
2.2107239 -1.2625027 -1.7096043 4288085770
-0.49642944 -0.85665798 -1.7849083 4288085770
2.4700317 -1.2283945 -1.704258 4288085770
-0.32705688 -0.82614422 -1.7844105 4288085770
2.658844 -1.1835804 -1.6871872 4288085770
-0.16174316 -0.79455566 -1.7800064 4288085770
2.8495483 -1.1356258 -1.6682377 4288085770
-0.0076293945 -0.75808477 -1.7719536 4288085770
3.0583496 -1.089232 -1.6500149 4288085770
0.27420044 -0.73824453 -1.7847157 4288085770
3.2901001 -1.0431743 -1.6305161 4288085770
0.70367432 -0.73250246 -1.8181896 4288085770
3.5288391 -0.99488401 -1.6100407 4288085770
1.0485229 -0.71111298 -1.8333149 4282675967
3.7856445 -0.94910908 -1.5892467 4288085770
1.1812439 -0.66452694 -1.8109531 4282675967
4.0482788 -0.89904118 -1.5655823 4288085770
1.3058777 -0.61611319 -1.7877655 4288085770
4.3480225 -0.85102272 -1.5424061 4288085770
1.4796753 -0.57160711 -1.7688465 4288085770
4.7128906 -0.8064394 -1.5223427 4288085770
1.6916199 -0.52931261 -1.7544041 4288085770
5.0957336 -0.76132917 -1.5011024 4288085770
1.8994751 -0.48494196 -1.7360992 4288085770
5.5577087 -0.71818972 -1.4808807 4288085770
2.1543884 -0.44149399 -1.7212276 4288085770
6.0756531 -0.67359543 -1.4610977 4288085770
2.4112549 -0.3979001 -1.7043362 4288085770
6.6185303 -0.6271472 -1.4371147 4288085770
2.6078186 -0.34737444 -1.6764336 4288085770
7.2564697 -0.5813365 -1.4160385 4288085770
2.8343811 -0.29608727 -1.649229 4288085770
7.9101562 -0.52978134 -1.3880444 4288085770
3.1080933 -0.24672222 -1.6254101 4288085770
8.5657349 -0.47290325 -1.354269 4288085770
3.4248047 -0.19834328 -1.6040668 4288085770
