# .PCD v0.7 - Point Cloud Data file format
VERSION 0.7
FIELDS x y z rgb
SIZE 4 4 4 4
TYPE F F F U
COUNT 1 1 1 1
WIDTH 1110
HEIGHT 1
VIEWPOINT 0 0 0 1 0 0 0
POINTS 1110
DATA ascii
9.4128876 1.4957848 -1.8341061 4288085770
5.6511521 0.89406776 -1.8229756 4288085770
6.8070674 1.0735936 -1.8190947 4288085770
5.6281476 0.88705492 -1.8129938 4288085770
19.349176 3.0423105 -1.816533 4288085770
16.989367 2.6682425 -1.8473326 4288085770
4.934207 0.77474201 -1.8255234 4288085770
12.717649 1.9872875 -1.8145908 4288085770
6.9660525 1.0886643 -1.808975 4288085770
5.7761412 0.90112334 -1.8148823 4288085770
11.798728 1.8308719 -1.8252931 4288085770
7.1890445 1.1107676 -1.812807 4288085770
5.9371376 0.91519833 -1.8187612 4288085770
7.6530175 1.1769805 -1.8174542 4288085770
9.6428957 1.474893 -1.8369393 4288085770
19.513205 2.9803886 -1.8184205 4288085770
5.7451563 0.87811244 -1.8229086 4288085770
7.3920331 1.12886 -1.8096542 4288085770
6.0981317 0.92927301 -1.8206403 4288085770
5.0192127 0.75978321 -1.8274629 4288085770
13.239644 1.998529 -1.8182031 4288085770
7.6320243 1.1519707 -1.8124734 4288085770
17.345383 2.6094055 -1.8330775 4288085770
6.2731271 0.94335425 -1.823509 4288085770
7.9120173 1.1791016 -1.8212626 4288085770
12.057746 1.7899939 -1.8271074 4288085770
6.4471207 0.95643473 -1.8253784 4288085770
7.8510294 1.1600758 -1.8273104 4288085770
5.8521624 0.86216372 -1.8248322 4288085770
9.8659019 1.4509965 -1.8337778 4288085770
8.1830082 1.2022264 -1.8230588 4288085770
6.6171122 0.96751225 -1.8222512 4288085770
19.704247 2.8694792 -1.8122948 4288085770
13.835643 2.0148063 -1.8277597 4288085770
5.1022177 0.74482316 -1.8284039 4288085770
8.4679976 1.2263579 -1.8258444 4288085770
17.799395 2.5596147 -1.8247486 4288085770
6.7891035 0.97759044 -1.8181225 4288085770
8.8199902 1.2575225 -1.8375797 4288085770
12.340761 1.7511269 -1.8299037 4288085770
8.0200377 1.1381556 -1.8281887 4288085770
5.9591675 0.84621441 -1.8247555 4288085770
6.9610939 0.98666847 -1.811994 4288085770
10.133911 1.4321223 -1.8375823 4288085770
14.493641 2.0321128 -1.8402703 4288085770
9.1489792 1.2826742 -1.8403326 4288085770
5.1892219 0.72886467 -1.8283423 4288085770
7.1640863 0.99876165 -1.8108422 4288085770
9.4659681 1.3048195 -1.8380949 4288085770
18.341408 2.5188653 -1.8213528 4288085770
7.3900814 1.0118663 -1.8136731 4288085770
6.0751734 0.83026981 -1.8266722 4288085770
8.1870441 1.1142339 -1.8270687 4288085770
10.416919 1.4122548 -1.8393759 4288085770
12.664779 1.7142798 -1.8356689 4288085770
9.7809525 1.3229624 -1.8308593 4288085770
15.277642 2.0584793 -1.862686 4288085770
5.2682247 0.71190178 -1.8252864 4288085770
7.6170754 1.022971 -1.8135035 4288085770
10.167941 1.3481405 -1.8315691 4288085770
7.8870726 1.0380971 -1.8203017 4288085770
6.1831765 0.81232029 -1.8235949 4288085770
19.049421 2.4931946 -1.8278317 4288085770
8.3940554 1.094332 -1.8319184 4288085770
10.719927 1.3933966 -1.8431541 4288085770
10.575929 1.374328 -1.8322634 4288085770
5.3592291 0.69694489 -1.8242214 4288085770
15.966641 2.0627983 -1.8681749 4288085770
13.022797 1.679448 -1.8424087 4288085770
8.1370659 1.0492121 -1.820115 4288085770
11.041916 1.4045435 -1.8379139 4288085770
6.3151832 0.79738319 -1.8264996 4288085770
8.3940573 1.0583299 -1.8169234 4288085770
8.5430574 1.0663998 -1.8218119 4288085770
19.783434 2.4645348 -1.8312916 4288085770
5.4602337 0.68199307 -1.8251489 4288085770
11.051935 1.3745513 -1.8459108 4288085770
11.494902 1.428751 -1.8345752 4288085770
16.594643 2.0520873 -1.8627108 4288085770
8.6980543 1.0704709 -1.8206966 4288085770
13.418817 1.6446347 -1.8521199 4288085770
11.946886 1.4489567 -1.8262373 4288085770
6.4341869 0.7804389 -1.824414 4288085770
9.0220509 1.0836214 -1.8254548 4288085770
5.5562382 0.66503847 -1.8240805 4288085770
8.7840691 1.0475141 -1.8296361 4288085770
11.378942 1.3537035 -1.8456713 4288085770
12.489871 1.4762062 -1.8258313 4288085770
17.170639 2.0253496 -1.8462875 4288085770
9.3480463 1.0927722 -1.827212 4288085770
13.879838 1.6128519 -1.8647826 4288085770
6.5781932 0.76550716 -1.8273094 4288085770
13.15686 1.5145152 -1.8363317 4288085770
5.655241 0.64908469 -1.8210095 4288085770
8.9960766 1.024613 -1.8284822 4288085770
9.7030411 1.1039364 -1.8299474 4288085770
11.731949 1.331867 -1.8444127 4288085770
17.805639 1.9996402 -1.83382 4288085770
13.920853 1.55787 -1.8527595 4288085770
6.7061973 0.74856675 -1.824217 4288085770
10.051035 1.1100963 -1.8276887 4288085770
14.423861 1.5861088 -1.8843826 4288085770
5.7632461 0.63313586 -1.8209318 4288085770
14.823844 1.6082903 -1.8750831 4288085770
9.2090816 0.99871159 -1.8233279 4288085770
12.107955 1.3110414 -1.8431365 4288085770
10.477034 1.1212944 -1.8343712 4288085770
18.655647 1.9880333 -1.8381909 4288085770
6.8431993 0.73063016 -1.8201182 4288085770
15.688829 1.6486896 -1.8834361 4288085770
5.8982539 0.62020069 -1.8268335 4288085770
15.038888 1.5623995 -1.9089296 4282675967
10.920032 1.1304997 -1.8390415 4288085770
9.4960938 0.97984695 -1.8311175 4288085770
12.540963 1.2922422 -1.8448179 4288085770
7.0022058 0.71470499 -1.8210024 4288085770
16.472813 1.6720475 -1.8728514 4288085770
19.528652 1.9664361 -1.8375459 4288085770
6.0052557 0.60325015 -1.8217565 4288085770
11.381028 1.1377126 -1.8416986 4288085770
17.217787 1.6853843 -1.8492968 4288085770
13.115973 1.2845117 -1.8603922 4288085770
15.567906 1.5236467 -1.9165421 4282675967
9.776103 0.95797777 -1.8329128 4288085770
7.16221 0.69877964 -1.819886 4288085770
11.821022 1.1389143 -1.836372 4288085770
6.1262584 0.58730656 -1.8196691 4288085770
18.105766 1.7057886 -1.832635 4288085770
7.3512163 0.68486851 -1.8227477 4288085770
13.711987 1.2727901 -1.8729515 4288085770
10.06311 0.93411136 -1.832703 4288085770
12.345021 1.1421564 -1.8379828 4288085770
16.10993 1.479899 -1.9201454 4282675967
6.2562633 0.5713675 -1.8185749 4288085770
19.309748 1.7463425 -1.8357362 4288085770
12.910019 1.1454177 -1.841563 4288085770
7.5532236 0.66996402 -1.8275998 4288085770
14.415002 1.2671192 -1.8924304 4288085770
10.39312 0.91326559 -1.8364608 4288085770
6.383266 0.55542648 -1.8154829 4288085770
16.588947 1.4251195 -1.9107964 4288085770
13.620025 1.1547483 -1.8560348 4288085770
7.730226 0.65304536 -1.8224708 4288085770
15.212018 1.2624921 -1.9148391 4282675967
10.763133 0.89243883 -1.8431889 4288085770
6.543273 0.541502 -1.8183661 4288085770
14.452034 1.167137 -1.8804153 4288085770
17.059958 1.3643349 -1.8954542 4288085770
7.9452329 0.637146 -1.8243133 4288085770
15.917025 1.2458183 -1.9173176 4288085770
6.6942773 0.52557248 -1.8172561 4288085770
11.156142 0.87162226 -1.8478996 4288085770
15.319044 1.1765413 -1.9007703 4288085770
8.1802397 0.62225598 -1.8271408 4288085770
17.688976 1.3116252 -1.8909934 4288085770
6.8702841 0.51065546 -1.8201274 4288085770
16.588028 1.2201256 -1.9068224 4288085770
11.565154 0.84881246 -1.8505986 4288085770
16.11005 1.1699065 -1.9031833 4288085770
8.4182444 0.60736668 -1.8269659 4288085770
7.0412884 0.49573493 -1.8190023 4288085770
17.246025 1.1894244 -1.8853371 4288085770
11.95916 0.82199419 -1.8463093 4288085770
18.445999 1.2619761 -1.8924367 4288085770
16.785044 1.1472131 -1.8826846 4288085770
8.663249 0.59147996 -1.8247857 4288085770
7.2352953 0.48182601 -1.8218601 4288085770
7.9102783 0.51613533 -1.8203545 4288085770
7.6402831 0.49801058 -1.8155572 4288085770
8.1792707 0.53225869 -1.8211527 4288085770
7.4062891 0.4819032 -1.8147331 4288085770
8.4522619 0.54838341 -1.818948 4288085770
18.164032 1.1708474 -1.8836571 4288085770
7.1612921 0.46478969 -1.8089172 4288085770
8.7612543 0.56552517 -1.8197161 4288085770
8.9652586 0.57762158 -1.8315632 4288085770
6.9512997 0.44869363 -1.809075 4288085770
12.393168 0.79519457 -1.8429902 4288085770
17.574039 1.1245737 -1.8681011 4288085770
9.1072493 0.58468503 -1.8244568 4288085770
6.7653074 0.43360919 -1.811215 4288085770
9.5242481 0.60687929 -1.8371444 4288085770
6.5773144 0.41852331 -1.8113565 4288085770
19.272018 1.2103585 -1.8938291 4288085770
9.8862391 0.62304485 -1.8348736 4288085770
6.2763243 0.3973859 -1.812583 4288085770
6.6353154 0.41955048 -1.8133135 4288085770
6.447319 0.40746397 -1.8114547 4288085770
6.8233085 0.42963618 -1.8111725 4288085770
6.1093287 0.38530931 -1.8117083 4288085770
6.3963199 0.40244022 -1.8094931 4288085770
7.4423013 0.46692312 -1.8247081 4288085770
7.0413055 0.44173682 -1.8140092 4288085770
5.9423332 0.37323239 -1.809834 4288085770
10.322234 0.643246 -1.8395472 4288085770
5.8013406 0.36316875 -1.8129399 4288085770
7.2563009 0.45183569 -1.8148482 4288085770
6.2363272 0.3883675 -1.8106136 4288085770
5.649344 0.35109881 -1.8110545 4288085770
7.5002975 0.46394837 -1.8176655 4288085770
10.799228 0.66346633 -1.8451903 4288085770
7.7312903 0.47305363 -1.8144928 4288085770
5.5483565 0.34105551 -1.8221307 4288085770
6.0743327 0.37229344 -1.8097361 4288085770
9.2912683 0.56477445 -1.8393226 4288085770
11.322223 0.684708 -1.8517991 4288085770
5.4023571 0.32898763 -1.8172406 4288085770
8.0172901 0.48518634 -1.8202788 4288085770
19.239038 1.1553432 -1.8858598 4288085770
5.9273396 0.35822672 -1.810847 4288085770
12.861176 0.76841021 -1.8386455 4288085770
18.576048 1.1060356 -1.8683584 4288085770
11.921221 0.70898598 -1.8643512 4288085770
5.2913647 0.31793809 -1.8213245 4288085770
8.304286 0.49531865 -1.8220644 4288085770
7.6323047 0.45101064 -1.8205689 4288085770
5.7863469 0.3431628 -1.8119535 4288085770
5.1703701 0.30688295 -1.8214158 4288085770
8.603282 0.50545639 -1.8238411 4288085770
12.334198 0.71916986 -1.8400429 4288085770
5.6463523 0.32909882 -1.8110595 4288085770
5.0583754 0.29483229 -1.8225005 4288085770
8.9212799 0.51460272 -1.8246036 4288085770
12.916185 0.73643589 -1.8346083 4288085770
9.6042728 0.5489195 -1.839092 4288085770
9.2952776 0.52477634 -1.8313245 4288085770
5.5183582 0.31404099 -1.8121563 4288085770
13.641179 0.7597701 -1.8400669 4288085770
13.428186 0.74467319 -1.8422269 4288085770
19.629051 1.08152 -1.8635786 4288085770
7.8633113 0.43611872 -1.8233992 4288085770
9.6492729 0.53293872 -1.8300604 4288085770
5.4013667 0.30098855 -1.8152449 4288085770
14.600183 0.79121625 -1.8643503 4288085770
10.04627 0.54112172 -1.8317645 4288085770
9.9652805 0.53508759 -1.8438255 4288085770
5.2803717 0.28593349 -1.8143365 4288085770
15.673185 0.82471526 -1.8905489 4288085770
10.50027 0.55033183 -1.8374259 4288085770
8.1273203 0.42324275 -1.8302046 4288085770
5.1763797 0.27188715 -1.8174157 4288085770
14.097202 0.72098392 -1.8497324 4288085770
16.574173 0.8441276 -1.8838769 4288085770
10.976268 0.55855161 -1.8410711 4288085770
10.346289 0.52026457 -1.8465438 4288085770
5.0633845 0.25783572 -1.8165015 4288085770
17.493155 0.85954571 -1.8661919 4288085770
11.493268 0.56579047 -1.8456861 4288085770
8.3903284 0.40836546 -1.8330109 4288085770
18.768143 0.88713288 -1.8722408 4288085770
12.039266 0.57104206 -1.8472797 4288085770
14.912224 0.70136458 -1.8691287 4288085770
10.779299 0.50646615 -1.8532238 4288085770
12.561258 0.57228035 -1.8388914 4288085770
8.6533327 0.3934871 -1.8318173 4288085770
11.212304 0.49166638 -1.8539037 4288085770
13.229258 0.57658845 -1.8423942 4288085770
15.756243 0.67775691 -1.8815039 4288085770
8.9853439 0.38064304 -1.841572 4288085770
13.984262 0.57993764 -1.8498325 4288085770
11.686311 0.47688562 -1.8555528 4288085770
14.895272 0.58536088 -1.8671545 4288085770
16.541252 0.64611793 -1.8759238 4288085770
9.2643471 0.36377108 -1.8363667 4288085770
12.182316 0.46111405 -1.8531858 4288085770
15.870276 0.5868119 -1.8774294 4288085770
9.5643492 0.34790856 -1.8301454 4288085770
17.41326 0.61451864 -1.8692788 4288085770
12.721319 0.44536197 -1.8497869 4288085770
16.789276 0.57923335 -1.8707467 4288085770
9.9213533 0.33307353 -1.8298815 4288085770
13.370328 0.43066227 -1.8543057 4288085770
17.849277 0.57072008 -1.8659594 4288085770
18.399269 0.58097202 -1.863549 4288085770
10.316362 0.31825671 -1.8325895 4288085770
14.076336 0.41698849 -1.8577822 4288085770
19.132284 0.56231165 -1.8710059 4288085770
19.71129 0.55057895 -1.8735765 4288085770
10.758369 0.3034617 -1.8362625 4288085770
15.010355 0.40642342 -1.8780887 4288085770
11.234379 0.28968215 -1.83991 4288085770
15.887362 0.39182785 -1.880438 4288085770
11.720384 0.27390614 -1.8385503 4288085770
16.792364 0.37524283 -1.8727665 4288085770
12.272391 0.25916108 -1.8401413 4288085770
17.939373 0.36177179 -1.8769147 4288085770
12.879395 0.24444073 -1.8396913 4288085770
19.226383 0.34736499 -1.8809588 4288085770
13.614409 0.23078176 -1.8501462 4288085770
14.386418 0.21513817 -1.8535733 4288085770
15.271429 0.20154709 -1.8599166 4288085770
16.311447 0.18702868 -1.8721443 4288085770
19.001423 0.19525898 -1.8471422 4288085770
17.673429 0.17764869 -1.845132 4288085770
17.404455 0.17153224 -1.8743327 4288085770
16.507435 0.15911248 -1.8410013 4288085770
14.305436 0.13409901 -1.8316422 4288085770
15.212436 0.14151666 -1.8359666 4288085770
13.493435 0.12572479 -1.826247 4288085770
16.22444 0.14898258 -1.8402131 4288085770
15.471436 0.14163569 -1.8357738 4288085770
12.765437 0.11638968 -1.8227897 4288085770
17.398441 0.1555239 -1.8483388 4288085770
12.126439 0.10609554 -1.8192663 4288085770
18.697445 0.15912181 -1.8523719 4288085770
14.53844 0.12520593 -1.8294699 4288085770
18.692465 0.15712622 -1.880376 4288085770
11.54944 0.096830346 -1.8176965 4288085770
13.733443 0.108836 -1.8270704 4288085770
11.051445 0.086602204 -1.8190681 4288085770
10.568449 0.07638023 -1.8174285 4288085770
12.988447 0.091493241 -1.8226264 4288085770
10.116451 0.065172128 -1.8137658 4288085770
12.322452 0.075186737 -1.8181237 4288085770
9.7294579 0.053995319 -1.8160549 4288085770
11.755458 0.059926875 -1.818547 4288085770
9.3564625 0.04282447 -1.8163337 4288085770
11.236463 0.044689097 -1.8189348 4288085770
9.04247 0.031681947 -1.8215687 4288085770
10.769472 0.028475523 -1.820284 4288085770
8.7064714 0.019527249 -1.8178198 4288085770
10.315475 0.013266958 -1.8176234 4288085770
8.4054766 0.0083893165 -1.817045 4288085770
9.9194813 -0.00091403723 -1.8189194 4288085770
8.1344814 -0.0027341098 -1.8192478 4288085770
9.5424881 -0.016086467 -1.8192015 4288085770
7.8754864 -0.01485265 -1.8184417 4288085770
9.2054949 -0.03124027 -1.8204539 4288085770
7.6274905 -0.026966117 -1.8176275 4288085770
8.8885021 -0.046385083 -1.8206915 4288085770
7.3934956 -0.040072843 -1.8178031 4288085770
8.5685034 -0.060532235 -1.816931 4288085770
7.1754994 -0.052172482 -1.8169667 4288085770
8.2915096 -0.075658619 -1.8171386 4288085770
6.9655023 -0.064268649 -1.8151243 4288085770
8.0255146 -0.0907804 -1.8153381 4288085770
6.7775073 -0.076353997 -1.8162653 4288085770
5.1275063 -0.056109834 -1.8284911 4288085770
7.7725191 -0.10489598 -1.8145279 4288085770
6.5955119 -0.089436971 -1.8154022 4288085770
5.2265096 -0.069064215 -1.8254189 4288085770
7.5485244 -0.11999793 -1.8146962 4288085770
6.4275174 -0.10151307 -1.8165284 4288085770
5.3465171 -0.084007449 -1.8283312 4288085770
5.4645219 -0.096952468 -1.8282448 4288085770
7.3415313 -0.13409165 -1.8168517 4288085770
6.2605209 -0.11458911 -1.8156542 4288085770
19.63669 -0.37942347 -1.8687266 4288085770
19.750719 -0.39936382 -1.8966436 4288085770
5.5725236 -0.11090318 -1.8231659 4288085770
7.1285353 -0.14918895 -1.8150119 4288085770
6.1095266 -0.12765729 -1.8167679 4288085770
18.275709 -0.40504453 -1.8817416 4288085770
18.284695 -0.40704527 -1.8607352 4288085770
5.6985283 -0.12484473 -1.8220736 4288085770
17.051706 -0.4086082 -1.8746526 4288085770
6.9385409 -0.16327527 -1.8151546 4288085770
5.969533 -0.14072017 -1.8188735 4288085770
5.841536 -0.13977773 -1.8239688 4288085770
17.115698 -0.43258303 -1.8526075 4288085770
5.2195363 -0.12706175 -1.8324302 4288085770
15.967696 -0.40910739 -1.8684593 4288085770
5.9825411 -0.15371223 -1.8238652 4288085770
6.7695479 -0.17835116 -1.8182819 4288085770
5.3435407 -0.13900392 -1.8333392 4288085770
5.8275361 -0.15278448 -1.8189803 4288085770
15.00269 -0.40855193 -1.8621776 4288085770
6.1395493 -0.1676387 -1.8267497 4288085770
16.131706 -0.45803469 -1.8493421 4288085770
14.133683 -0.40595272 -1.8548238 4288085770
5.461544 -0.15094949 -1.8312527 4288085770
6.2925544 -0.18256789 -1.8256373 4288085770
5.5945501 -0.16188736 -1.8331549 4288085770
6.5885506 -0.19243419 -1.8144181 4288085770
5.6905403 -0.16584663 -1.8180838 4288085770
13.382678 -0.4032979 -1.8533825 4288085770
6.4535584 -0.19649373 -1.823519 4288085770
5.7185521 -0.17383072 -1.8290639 4288085770
12.702675 -0.39861077 -1.850888 4288085770
15.267712 -0.48243046 -1.8489872 4288085770
5.8585558 -0.18476611 -1.8279607 4288085770
12.071667 -0.39290166 -1.846357 4288085770
6.6425681 -0.21240525 -1.8273799 4288085770
6.4185538 -0.20651171 -1.8125461 4288085770
5.5815487 -0.17889452 -1.8231664 4288085770
18.996819 -0.63470322 -1.8902267 4288085770
6.0155621 -0.19669297 -1.8298451 4288085770
11.504661 -0.38616297 -1.8427783 4288085770
6.8315754 -0.22631735 -1.8292406 4288085770
17.643797 -0.61032754 -1.8802311 4288085770
6.171566 -0.208621 -1.8287301 4288085770
11.005659 -0.38039187 -1.844149 4288085770
14.444716 -0.50480878 -1.8426018 4288085770
7.0205812 -0.2412301 -1.8281015 4288085770
6.3425717 -0.21954155 -1.830604 4288085770
10.542654 -0.37260479 -1.8434929 4288085770
16.467779 -0.58787036 -1.8711041 4288085770
6.2725606 -0.22057724 -1.8146561 4288085770
5.4585519 -0.19095027 -1.8222591 4288085770
7.2275872 -0.25613445 -1.8279488 4288085770
6.4985733 -0.23047057 -1.8254889 4288085770
10.131653 -0.36579284 -1.8467981 4288085770
15.456762 -0.56633633 -1.8668543 4288085770
6.7105837 -0.24237117 -1.8323324 4288085770
9.7396498 -0.35797292 -1.8470891 4288085770
7.4635973 -0.27202451 -1.8317747 4288085770
14.545748 -0.5457564 -1.8615303 4288085770
9.3456402 -0.34715527 -1.8423812 4288085770
6.9025874 -0.25428274 -1.8311905 4288085770
7.7016044 -0.28791434 -1.8325992 4288085770
7.1085935 -0.26518753 -1.8320383 4288085770
9.0156374 -0.33930644 -1.8446262 4288085770
13.728734 -0.52513349 -1.8561364 4288085770
7.3315988 -0.27608448 -1.8328735 4288085770
8.6716299 -0.32846582 -1.8398811 4288085770
13.745723 -0.52712923 -1.8401239 4288085770
7.5556021 -0.28598183 -1.8307076 4288085770
8.3586206 -0.31761077 -1.836113 4288085770
8.0866175 -0.30773568 -1.8373146 4288085770
7.8146105 -0.29786152 -1.834516 4288085770
7.9596133 -0.3037948 -1.8344086 4288085770
13.001721 -0.50546885 -1.8516756 4288085770
8.2286215 -0.31867027 -1.8362099 4288085770
5.3505592 -0.2039981 -1.8253409 4288085770
6.1345677 -0.23563904 -1.8167603 4288085770
12.343709 -0.48677236 -1.8481634 4288085770
8.5166283 -0.33453748 -1.8359971 4288085770
11.768699 -0.46903709 -1.8475897 4288085770
8.8226347 -0.35039622 -1.8367709 4288085770
11.259692 -0.45227095 -1.8489668 4288085770
9.1656456 -0.36723724 -1.8405172 4288085770
10.81769 -0.43647319 -1.8542943 4288085770
9.5316563 -0.38406798 -1.8432463 4288085770
9.9126644 -0.40089229 -1.8439646 4288085770
10.340676 -0.41869408 -1.8486477 4288085770
13.114731 -0.54941821 -1.8385955 4288085770
19.660892 -0.83239466 -1.8757504 4288085770
5.9985728 -0.24970016 -1.817863 4288085770
5.233561 -0.21705142 -1.8224292 4288085770
19.415932 -0.88650095 -1.8939377 4288085770
12.535735 -0.57168353 -1.8360283 4288085770
18.405893 -0.84497184 -1.8686854 4288085770
5.8595762 -0.26376331 -1.8159679 4288085770
19.378916 -0.90452373 -1.8659668 4288085770
18.174927 -0.90107256 -1.8828622 4288085770
12.031744 -0.59391356 -1.8364055 4288085770
17.275888 -0.85749185 -1.8605272 4288085770
5.7285795 -0.27782279 -1.8140668 4288085770
18.353928 -0.94899398 -1.8597332 4288085770
5.6145859 -0.29187351 -1.816153 4288085770
17.06892 -0.91058201 -1.8726859 4288085770
16.301888 -0.87093967 -1.8542531 4288085770
11.55575 -0.61513126 -1.8347616 4288085770
17.476944 -0.99239522 -1.8573895 4288085770
5.5075917 -0.30692089 -1.8182341 4288085770
16.097918 -0.9190284 -1.867409 4288085770
15.459889 -0.88632566 -1.8528807 4288085770
11.130758 -0.636325 -1.8350797 4288085770
15.260917 -0.92641211 -1.8670323 4288085770
5.4015975 -0.32096815 -1.8193145 4288085770
14.715894 -0.90266645 -1.8514357 4288085770
10.735766 -0.6575048 -1.8363755 4288085770
16.628954 -1.0307848 -1.8490236 4288085770
14.44991 -0.92878556 -1.8596358 4288085770
5.3006034 -0.33601302 -1.8203912 4288085770
14.034897 -0.9179787 -1.8489437 4288085770
10.391777 -0.67966062 -1.8396332 4288085770
15.948969 -1.0730946 -1.850533 4288085770
13.765911 -0.93209869 -1.861145 4288085770
5.2126107 -0.35005128 -1.824458 4288085770
13.427901 -0.93525654 -1.8473966 4288085770
10.061787 -0.70081025 -1.8418807 4288085770
13.099905 -0.93140501 -1.8566403 4288085770
15.319985 -1.1133811 -1.8510042 4288085770
12.875906 -0.95250875 -1.8478087 4288085770
12.498901 -0.929681 -1.8540874 4288085770
9.7387924 -0.72195727 -1.8411227 4288085770
18.727163 -1.4327984 -1.8904967 4288085770
11.954897 -0.92693067 -1.8524917 4288085770
14.745998 -1.1516434 -1.8494344 4288085770
12.36191 -0.9687441 -1.8451924 4288085770
9.4237967 -0.74010164 -1.8363589 4288085770
17.463131 -1.3913826 -1.8764334 4288085770
11.456892 -0.923159 -1.8518618 4288085770
16.413111 -1.3568667 -1.8702114 4288085770
11.906917 -0.98695171 -1.8455323 4288085770
9.1588049 -0.76122129 -1.8385577 4288085770
14.20601 -1.1878899 -1.846839 4288085770
10.968884 -0.91638362 -1.8482243 4288085770
15.513091 -1.3282801 -1.8698784 4288085770
10.566885 -0.91256654 -1.853523 4288085770
11.46892 -1.0041519 -1.8428595 4288085770
18.972286 -1.6806731 -1.9073344 4282675967
8.9008121 -0.7823382 -1.8387514 4288085770
14.70708 -1.3016505 -1.8704756 4288085770
13.729026 -1.2251067 -1.8471967 4288085770
10.183885 -0.90774155 -1.8558074 4288085770
19.688227 -1.7933731 -1.7638109 4293729569
13.93406 -1.2710068 -1.866048 4288085770
9.7868757 -0.89892435 -1.852102 4288085770
11.143934 -1.0282975 -1.8521032 4288085770
8.6498175 -0.80145228 -1.8369398 4288085770
18.022282 -1.6921102 -1.8990415 4288085770
13.259046 -1.2443173 -1.8645477 4288085770
19.150236 -1.8186188 -1.7632129 4293729569
9.4198666 -0.88909328 -1.8493743 4288085770
13.300039 -1.2623016 -1.8475187 4288085770
18.55921 -1.7938952 -1.7426503 4293729569
12.609026 -1.2156171 -1.8600287 4288085770
10.757936 -1.0434746 -1.8473915 4288085770
9.087862 -0.88124561 -1.8486205 4288085770
8.4298239 -0.82155162 -1.8381052 4288085770
17.152277 -1.7005098 -1.892689 4288085770
12.02701 -1.1888853 -1.8564595 4288085770
8.7698536 -0.87039185 -1.8468561 4288085770
12.883051 -1.2964916 -1.8458314 4288085770
18.16221 -1.8450804 -1.7199492 4293729569
11.492995 -1.1631317 -1.8528545 4288085770
8.4708462 -0.86052924 -1.8450778 4288085770
17.550192 -1.7973617 -1.7234006 4293729569
10.430944 -1.0636227 -1.8496362 4288085770
8.2078295 -0.84065259 -1.8352717 4288085770
11.053988 -1.1443319 -1.8591794 4288085770
16.371279 -1.708868 -1.8902701 4282675967
8.188838 -0.84965903 -1.8432866 4288085770
10.596974 -1.1195424 -1.8575172 4288085770
12.477058 -1.3276771 -1.8411356 4288085770
7.9178319 -0.83878374 -1.8414873 4288085770
10.115949 -1.0807664 -1.8468719 4288085770
17.448212 -1.8874112 -1.696483 4293729569
16.765192 -1.8137223 -1.7169851 4293729569
10.175961 -1.0967363 -1.8558285 4288085770
8.0098362 -0.86074191 -1.8354207 4288085770
7.664824 -0.82690024 -1.8396746 4288085770
15.654274 -1.7141964 -1.8888035 4282675967
9.7799492 -1.0729188 -1.8541212 4288085770
7.4328179 -0.81700653 -1.8398463 4288085770
9.3929319 -1.048098 -1.848407 4288085770
9.8339558 -1.0998943 -1.8480831 4288085770
12.126071 -1.3618364 -1.8393992 4288085770
7.2098107 -0.80510896 -1.8390112 4288085770
7.8138404 -0.87883073 -1.8335679 4288085770
9.0779219 -1.0292424 -1.8506397 4288085770
16.156206 -1.8419992 -1.7204399 4293729569
7.0038052 -0.79420346 -1.8391635 4288085770
14.97527 -1.7165078 -1.8863082 4282675967
16.768206 -1.9277265 -1.6709913 4293729569
8.7379074 -1.0053999 -1.8448908 4288085770
6.8148003 -0.78328979 -1.8413032 4288085770
8.4368954 -0.98453879 -1.8431128 4288085770
9.5599613 -1.1190186 -1.8472883 4288085770
6.5987878 -0.76839048 -1.8344628 4288085770
11.79108 -1.3939888 -1.8366506 4288085770
7.6488509 -0.90090412 -1.8366923 4288085770
8.1568842 -0.96366787 -1.8423195 4288085770
6.4177809 -0.75647378 -1.8335966 4288085770
14.337265 -1.7138008 -1.8827821 4282675967
15.585214 -1.8692589 -1.7218661 4293729569
7.8798704 -0.94179618 -1.8385236 4288085770
6.2437739 -0.74455392 -1.832725 4288085770
17.138098 -2.079603 -1.4367274 4293729569
16.419237 -1.998883 -1.6732559 4293729569
7.6388612 -0.92290705 -1.8387015 4288085770
6.0837679 -0.73262721 -1.8338431 4288085770
9.2859612 -1.1351439 -1.8424932 4288085770
5.9297624 -0.72069794 -1.8339567 4288085770
7.416853 -0.90500867 -1.8408651 4288085770
7.1788378 -0.88311964 -1.8350405 4288085770
7.4718547 -0.91998434 -1.8338253 4288085770
5.7807565 -0.7087664 -1.8340666 4288085770
13.75826 -1.713066 -1.8822123 4282675967
11.550103 -1.4360952 -1.8458327 4288085770
5.6297479 -0.69583654 -1.8311779 4288085770
6.9738293 -0.86521387 -1.8351916 4288085770
15.134235 -1.906462 -1.7312039 4293729569
5.5037441 -0.68489379 -1.8342708 4288085770
6.7858233 -0.84830004 -1.8373301 4288085770
17.039186 -2.1506276 -1.5178061 4293729569
5.3797393 -0.67295063 -1.8353621 4288085770
6.5938115 -0.82838899 -1.8354714 4288085770
5.2517323 -0.6600098 -1.8344562 4288085770
6.4058008 -0.80947632 -1.8326095 4288085770
9.0679722 -1.1572417 -1.8456569 4288085770
6.2317891 -0.79155707 -1.8297375 4288085770
16.165277 -2.0779939 -1.6834502 4293729569
6.0857849 -0.77562362 -1.8338451 4288085770
17.261101 -2.2255578 -1.3606465 4293729569
5.9287753 -0.75869644 -1.8319603 4288085770
7.3148618 -0.94005477 -1.8339436 4288085770
13.200253 -1.7083218 -1.8796266 4282675967
5.780766 -0.74076498 -1.8310691 4288085770
5.6407576 -0.72382993 -1.8301719 4288085770
5.2687364 -0.67600149 -1.8324448 4288085770
5.5107512 -0.70788974 -1.8312674 4288085770
5.3847432 -0.69194818 -1.8303598 4288085770
11.294121 -1.4742095 -1.8500259 4288085770
16.656242 -2.1817894 -1.5720928 4293729569
17.036835 -2.246738 -1.0008142 4293729569
14.598238 -1.9287071 -1.7266036 4293729569
17.027235 -2.2709167 -0.20082247 4293729569
8.8409786 -1.1753445 -1.8448269 4288085770
16.997255 -2.2739248 -0.22584496 4293729569
12.671245 -1.7005649 -1.876019 4282675967
7.1558661 -0.95912641 -1.8320633 4288085770
16.86014 -2.2827337 -1.3829482 4293729569
15.937318 -2.1580927 -1.6926252 4293729569
16.458317 -2.2338626 -1.6422435 4293729569
16.940853 -2.3067815 -0.99088973 4293729569
16.965273 -2.322938 -0.22287211 4293729569
11.06514 -1.5123115 -1.8541987 4288085770
16.96656 -2.3268549 -0.59787172 4293729569
14.076236 -1.9459469 -1.7179925 4293729569
16.9459 -2.3517692 -1.0288891 4293729569
8.6219816 -1.1934439 -1.8419911 4288085770
12.214244 -1.6967731 -1.8793582 4282675967
16.915264 -2.3739669 -0.18191272 4293729569
16.055361 -2.2540355 -1.690544 4293729569
16.930277 -2.3799567 -0.19590199 4293729569
7.0298777 -0.98118126 -1.8371587 4288085770
16.86223 -2.3917162 -1.4389542 4293729569
15.630343 -2.2262311 -1.6908578 4293729569
16.9179 -2.4237878 -0.98591477 4293729569
10.822153 -1.5464208 -1.8543817 4288085770
16.934647 -2.4298532 -0.65090245 4293729569
11.731231 -1.6839956 -1.8737159 4282675967
16.901318 -2.435962 -0.21992728 4293729569
13.635242 -1.9701486 -1.7143216 4293729569
8.4219866 -1.2135342 -1.8411411 4288085770
15.487372 -2.2452893 -1.7179652 4293729569
16.964979 -2.4727478 -1.0618831 4293729569
6.8988848 -1.0022396 -1.8382577 4288085770
16.928276 -2.4869649 -0.13791063 4293729569
16.954325 -2.5039406 -0.19089247 4293729569
16.91033 -2.5076759 -1.5009263 4293729569
11.338229 -1.6791745 -1.8770075 4282675967
15.507395 -2.3152804 -1.7069551 4293729569
14.870372 -2.2215695 -1.7334216 4293729569
10.61317 -1.5845139 -1.8575395 4288085770
16.990738 -2.5458093 -0.70986861 4293729569
8.2499971 -1.2356108 -1.8442706 4288085770
13.24025 -1.9963281 -1.7126167 4293729569
16.960375 -2.5679288 -0.21989223 4293729569
6.7648902 -1.0222995 -1.8373587 4288085770
10.916218 -1.6663685 -1.8733201 4282675967
14.125343 -2.1729128 -1.7289714 4293729569
17.874556 -2.7661932 -1.6472279 4293729569
10.393183 -1.6186128 -1.8577051 4288085770
15.332435 -2.3963554 -1.7140903 4293729569
8.0720015 -1.2546909 -1.8434039 4288085770
12.822248 -2.0155199 -1.7039284 4293729569
10.530208 -1.6535456 -1.8716059 4282675967
6.6398954 -1.0413551 -1.836453 4288085770
13.440315 -2.1262283 -1.7254767 4293729569
17.309572 -2.7884486 -1.6586484 4293729569
10.174202 -1.6427084 -1.8718694 4282675967
7.9020057 -1.2747678 -1.8415315 4288085770
12.800285 -2.0785239 -1.7189487 4293729569
10.195195 -1.6537013 -1.8578544 4288085770
15.126467 -2.4704461 -1.717248 4293729569
12.486255 -2.0426724 -1.7011795 4293729569
6.522903 -1.062407 -1.8365413 4288085770
9.8251905 -1.6278688 -1.8691274 4282675967
12.160252 -2.0258207 -1.7074203 4293729569
16.78759 -2.8096836 -1.6720371 4293729569
7.7390113 -1.2948408 -1.8406541 4288085770
9.9962053 -1.6877909 -1.8560045 4288085770
6.4059072 -1.0814594 -1.8346297 4288085770
14.938499 -2.5445285 -1.718392 4293729569
12.027236 -2.0458865 -1.6795202 4293729569
9.497179 -1.6130196 -1.86637 4282675967
11.471196 -1.9571438 -1.6809272 4293729569
16.274605 -2.8269143 -1.6854186 4293729569
7.59902 -1.3159031 -1.8417594 4288085770
9.1931705 -1.5991585 -1.8665948 4282675967
10.930163 -1.9093947 -1.6703254 4293729569
9.8302212 -1.7238643 -1.8581299 4288085770
6.3069162 -1.1035025 -1.8367046 4288085770
11.467194 -2.0251515 -1.6389343 4293729569
14.767532 -2.6206031 -1.7205236 4293729569
8.8831577 -1.5823014 -1.8618237 4282675967
10.601167 -1.8935419 -1.6865685 4293729569
15.826622 -2.8471143 -1.7017519 4293729569
7.4600267 -1.3379651 -1.8418641 4288085770
9.6842384 -1.7629282 -1.8612409 4282675967
6.2079229 -1.1245458 -1.8377796 4288085770
8.5961447 -1.5644336 -1.8590355 4288085770
10.318176 -1.8836668 -1.7067779 4293729569
10.982158 -2.0133801 -1.6052934 4293729569
14.662576 -2.706646 -1.7286065 4293729569
15.27562 -2.8423655 -1.7061602 4293729569
7.3310347 -1.3600221 -1.8429613 4288085770
8.3401356 -1.5505505 -1.8592247 4288085770
10.069187 -1.8757758 -1.7289623 4293729569
6.11093 -1.1455885 -1.8378531 4288085770
9.4732399 -1.7880253 -1.8513989 4288085770
10.656148 -2.0245311 -1.5905358 4293729569
9.769186 -1.8569106 -1.7411834 4293729569
8.0751238 -1.5326725 -1.8554201 4288085770
14.522611 -2.7857065 -1.730715 4293729569
14.879642 -2.8615413 -1.7254548 4293729569
7.2040415 -1.3810786 -1.8430569 4288085770
9.442174 -1.8290598 -1.7454244 4293729569
7.835113 -1.5157827 -1.8545971 4288085770
6.0219378 -1.1676272 -1.8389206 4288085770
9.1772175 -1.7951653 -1.8236188 4288085770
10.431156 -2.0526321 -1.5887043 4293729569
9.1651716 -1.8081847 -1.7556283 4293729569
7.6111045 -1.5008851 -1.8547623 4288085770
14.333629 -2.8437912 -1.7248583 4293729569
14.259621 -2.8388269 -1.7159131 4293729569
7.0840487 -1.4021317 -1.8431473 4288085770
8.9901886 -1.8052588 -1.7817581 4288085770
7.4040966 -1.486979 -1.856915 4288085770
5.9249425 -1.1866701 -1.8369937 4288085770
8.878191 -1.798308 -1.7908407 4288085770
10.295178 -2.0956907 -1.5968075 4293729569
13.766608 -2.8140526 -1.7182769 4293729569
8.8512125 -1.807315 -1.8138613 4288085770
7.1690793 -1.4650885 -1.849088 4288085770
6.9630537 -1.4231858 -1.8412383 4288085770
13.975622 -2.8839588 -1.6971258 4293729569
8.7112341 -1.8083721 -1.8439651 4288085770
5.8429489 -1.2077059 -1.837056 4288085770
6.9930758 -1.4531678 -1.8542179 4288085770
8.6091671 -1.8034358 -1.7630404 4288085770
10.542057 -2.2146199 -1.3706313 4293729569
10.162204 -2.1397469 -1.6049087 4293729569
8.569253 -1.8064308 -1.8730701 4282675967
6.8670645 -1.4472272 -1.8443109 4288085770
6.8010659 -1.4362558 -1.8533593 4288085770
10.481003 -2.2346632 -1.2906777 4293729569
10.554435 -2.2607851 -0.54262424 4293729569
8.3212423 -1.7805438 -1.8762524 4282675967
5.7669578 -1.2297382 -1.8391138 4288085770
6.6230564 -1.4203374 -1.8524903 4288085770
10.4481 -2.2566531 -1.4057034 4293729569
10.481714 -2.2667425 -0.90167868 4293729569
10.580184 -2.2928426 -0.20260668 4293729569
10.47864 -2.2707644 -0.80368108 4293729569
8.3951559 -1.8165363 -1.7431997 4293729569
8.0622253 -1.7496632 -1.8744427 4282675967
10.041226 -2.184798 -1.613001 4293729569
6.7650714 -1.469272 -1.8443878 4288085770
6.4300399 -1.3994271 -1.8466321 4288085770
10.55206 -2.3128898 -0.032628499 4293729569
7.7581911 -1.7058066 -1.8586653 4288085770
10.422029 -2.2986865 -1.292725 4293729569
5.6849627 -1.2497742 -1.8381758 4288085770
10.483443 -2.3198173 -0.52467996 4293729569
6.2710323 -1.3844995 -1.8477491 4288085770
10.38115 -2.304673 -1.4457557 4293729569
10.428767 -2.3157549 -0.94472057 4293729569
7.542181 -1.6809051 -1.8618242 4282675967
10.505216 -2.3528707 -0.21266553 4293729569
8.2571621 -1.8455986 -1.7373036 4293729569
10.441671 -2.339776 -0.80871224 4293729569
9.9462547 -2.2348363 -1.6240741 4293729569
6.6640787 -1.4923166 -1.8434641 4288085770
6.116025 -1.3685702 -1.8488631 4288085770
10.503074 -2.3779106 -0.016668303 4293729569
7.3261666 -1.6530045 -1.8609828 4282675967
10.412826 -2.3727489 -0.99173552 4293729569
10.404064 -2.3706896 -1.2987421 4293729569
5.6019664 -1.268811 -1.8352385 4288085770
10.342207 -2.3576787 -1.4907874 4293729569
5.9610147 -1.3516414 -1.8479772 4288085770
10.462459 -2.3898265 -0.50769937 4293729569
7.1121492 -1.6241035 -1.8581396 4288085770
5.8080015 -1.3327122 -1.8440894 4288085770
8.1501751 -1.879645 -1.7373848 4293729569
10.476253 -2.4238768 -0.22569077 4293729569
10.443708 -2.4167695 -0.8157149 4293729569
6.5710859 -1.5143571 -1.8445343 4288085770
6.9001288 -1.5932024 -1.852295 4288085770
9.8432779 -2.280879 -1.6321528 4293729569
10.419888 -2.4337327 -1.0407336 4293729569
5.662991 -1.3157791 -1.8421959 4288085770
10.295259 -2.4066882 -1.5348247 4293729569
6.7181163 -1.5682859 -1.8524284 4288085770
5.5399761 -1.2928367 -1.8382858 4288085770
10.4031 -2.4466851 -1.304747 4293729569
10.466475 -2.4658237 -0.49070039 4293729569
5.5349832 -1.3008374 -1.84329 4288085770
6.5310988 -1.540373 -1.8485653 4288085770
6.4860945 -1.538394 -1.8445987 4288085770
8.0331812 -1.9096974 -1.7334729 4293729569
10.502297 -2.5068567 -0.23967585 4293729569
10.475748 -2.5007484 -0.82269567 4293729569
9.7523041 -2.3289168 -1.6402224 4293729569
5.4119763 -1.2858933 -1.8453802 4288085770
10.440956 -2.4977088 -1.0927213 4293729569
6.3580847 -1.5144526 -1.8476921 4288085770
10.168297 -2.4367378 -1.5669203 4293729569
6.1910691 -1.4885299 -1.8448144 4288085770
5.289968 -1.2699491 -1.84547 4288085770
5.4759851 -1.3158635 -1.8403345 4288085770
10.467151 -2.5396483 -1.3187042 4293729569
6.0430593 -1.4665977 -1.8459228 4288085770
5.181963 -1.2569977 -1.8485492 4288085770
15.947111 -3.9150126 -1.7307208 4288085770
6.4061036 -1.5624284 -1.8466593 4288085770
10.049334 -2.4657836 -1.6000098 4293729569
7.89118 -1.9337626 -1.7225795 4293729569
5.892045 -1.4416677 -1.8440335 4288085770
9.6543255 -2.3749571 -1.6462976 4293729569
5.7420297 -1.4167373 -1.8411431 4288085770
5.4149928 -1.3378893 -1.8413811 4288085770
5.6040163 -1.3928014 -1.839244 4288085770
13.595855 -3.4061081 -1.709434 4293729569
15.219063 -3.8193486 -1.7292542 4288085770
9.9393702 -2.4948242 -1.6350925 4293729569
6.3331137 -1.5874592 -1.8487146 4288085770
5.4730048 -1.3708616 -1.8383399 4288085770
7.7981906 -1.9678031 -1.7206501 4293729569
9.6113605 -2.4339712 -1.6603322 4293729569
5.3599973 -1.3519131 -1.8414226 4288085770
5.2429857 -1.3309672 -1.8405081 4288085770
5.3469982 -1.3589189 -1.8394327 4288085770
14.516012 -3.7226734 -1.7247691 4288085770
9.769393 -2.5078959 -1.6592189 4293729569
5.1319757 -1.3100181 -1.8415892 4288085770
13.571898 -3.502115 -1.7104564 4288085770
6.2581224 -1.6114916 -1.8497714 4288085770
7.7392106 -2.0088263 -1.7256957 4293729569
9.5283861 -2.4820051 -1.6663959 4293729569
13.825955 -3.6209934 -1.7152742 4288085770
9.5794077 -2.5129778 -1.6793598 4293729569
5.2900052 -1.3809426 -1.8404759 4288085770
13.561943 -3.6021149 -1.7134684 4288085770
6.1871314 -1.6365218 -1.8508252 4288085770
13.205903 -3.5282807 -1.708728 4288085770
7.6642261 -2.0468581 -1.726753 4293729569
9.4584103 -2.5340328 -1.6734502 4293729569
9.3764191 -2.5120666 -1.6965097 4293729569
5.2370143 -1.4049646 -1.8425164 4288085770
12.588847 -3.4305673 -1.698179 4293729569
13.581993 -3.7101002 -1.7184583 4288085770
6.1171393 -1.6605518 -1.8508784 4288085770
9.1214113 -2.4931815 -1.7016973 4293729569
7.6062431 -2.0878811 -1.729798 4293729569
9.3734312 -2.5800681 -1.6775151 4293729569
5.1790199 -1.4259892 -1.8415605 4288085770
12.024795 -3.3388293 -1.6885915 4293729569
8.8954096 -2.4792829 -1.7108636 4293729569
6.0551491 -1.686578 -1.8519254 4288085770
13.604042 -3.8180854 -1.7214469 4288085770
11.914171 0.016393214 -1.8281376 4288085770
16.297173 0.01768712 -1.8662043 4288085770
9.4791737 0.011109956 -1.8260981 4288085770
12.670176 0.0097843558 -1.8441454 4288085770
17.428183 0.0012803748 -1.8722122 4288085770
11.36218 0.0011027828 -1.8251208 4288085770
13.387181 -0.0008411333 -1.8511502 4288085770
9.1161804 -0.0010809153 -1.8230857 4288085770
18.794189 -0.015005022 -1.8842237 4288085770
14.154187 -0.010438785 -1.8551563 4288085770
15.055191 -0.019967973 -1.8641645 4288085770
10.890188 -0.014147826 -1.827105 4288085770
19.073202 -0.033851512 -1.8692173 4288085770
16.033197 -0.028455112 -1.8701744 4288085770
17.148201 -0.035869934 -1.8761871 4288085770
8.8091869 -0.013245039 -1.8260741 4288085770
18.434202 -0.043195892 -1.8852023 4288085770
19.939207 -0.049407195 -1.8962215 4288085770
17.676208 -0.046584509 -1.8601891 4288085770
10.455196 -0.030378621 -1.8280891 4288085770
16.509216 -0.059197661 -1.8541642 4288085770
8.4971933 -0.025409654 -1.8240625 4288085770
15.478218 -0.071740091 -1.8501416 4288085770
10.050203 -0.045593649 -1.8290745 4288085770
8.2191992 -0.037557755 -1.8250514 4288085770
14.561226 -0.085221641 -1.8441203 4288085770
9.687212 -0.060787078 -1.8310603 4288085770
7.9572062 -0.049696609 -1.8240405 4288085770
13.737232 -0.098654233 -1.8381002 4288085770
19.525267 -0.15661663 -1.8721548 4288085770
9.3302202 -0.075976118 -1.8300464 4288085770
13.020239 -0.11203184 -1.8350818 4288085770
7.7072124 -0.061829228 -1.8230296 4288085770
18.089273 -0.17136973 -1.8611248 4288085770
12.357247 -0.1253802 -1.8300642 4288085770
8.9832268 -0.090158574 -1.826033 4288085770
7.4752197 -0.074952975 -1.8230187 4288085770
16.898283 -0.18699692 -1.8570981 4288085770
11.782253 -0.13868356 -1.8280479 4288085770
8.6812353 -0.10531879 -1.8250198 4288085770
15.840288 -0.20255363 -1.8520733 4288085770
7.2622261 -0.087067142 -1.8240086 4288085770
11.281262 -0.15295027 -1.8310322 4288085770
14.931296 -0.21903324 -1.8500503 4288085770
8.3972435 -0.1204701 -1.8250068 4288085770
7.0472331 -0.10018121 -1.8219978 4288085770
10.796268 -0.16720596 -1.8280168 4288085770
14.065304 -0.23348713 -1.8410288 4288085770
8.1262512 -0.13461366 -1.8229945 4288085770
6.8562393 -0.11228351 -1.8219879 4288085770
10.365275 -0.18143505 -1.829002 4288085770
13.332312 -0.24787316 -1.8370095 4288085770
7.8592596 -0.14975396 -1.8179817 4288085770
6.665246 -0.12538511 -1.8199774 4288085770
9.9732828 -0.19564413 -1.8309879 4288085770
12.687321 -0.26321384 -1.8349911 4288085770
19.518412 -0.43363771 -1.8999987 4288085770
9.6092911 -0.20983806 -1.8319745 4288085770
7.6532669 -0.16486706 -1.82397 4288085770
6.4952536 -0.13847703 -1.8209672 4288085770
12.106328 -0.27852178 -1.8349735 4288085770
18.622414 -0.4360981 -1.8709838 4288085770
18.114412 -0.44037378 -1.8869734 4288085770
5.2102432 -0.12015968 -1.8269579 4288085770
9.2602978 -0.2240229 -1.8299609 4288085770
6.3302593 -0.15056589 -1.8209578 4288085770
7.4342752 -0.17898437 -1.8239586 4288085770
11.569336 -0.29380524 -1.8319566 4288085770
16.904421 -0.44500989 -1.8789524 4288085770
17.445433 -0.46471804 -1.8649496 4288085770
5.3212504 -0.13410258 -1.8269515 4288085770
8.9453049 -0.23719066 -1.8299485 4288085770
6.178266 -0.16364852 -1.8219478 4288085770
7.2162828 -0.19410004 -1.8209465 4288085770
15.837417 -0.44657049 -1.8709353 4288085770
11.112345 -0.31004974 -1.8359404 4288085770
5.4332576 -0.14804399 -1.8249453 4288085770
8.642313 -0.25135139 -1.8279357 4288085770
16.410444 -0.49226332 -1.8589182 4288085770
14.909417 -0.44705954 -1.8669208 4288085770
6.0332732 -0.17672752 -1.8229381 4288085770
5.5502658 -0.16198266 -1.822939 4288085770
7.0142899 -0.20820726 -1.8179352 4288085770
10.672352 -0.3252832 -1.8349249 4288085770
14.065415 -0.44550294 -1.8599087 4288085770
5.6822729 -0.17591414 -1.822933 4288085770
8.3633194 -0.26550046 -1.8279233 4288085770
13.292414 -0.44190887 -1.852899 4288085770
15.509454 -0.51773876 -1.85489 4288085770
5.8822799 -0.18980804 -1.8199281 4288085770
10.27836 -0.34149382 -1.8369097 4288085770
6.8412981 -0.22330156 -1.8199238 4288085770
5.8182802 -0.19084406 -1.8239267 4288085770
5.1982698 -0.17117496 -1.8309281 4288085770
12.638411 -0.43825513 -1.852891 4288085770
8.099328 -0.27964127 -1.8269112 4288085770
5.9622879 -0.20476948 -1.8249208 4288085770
5.3222761 -0.18311137 -1.8329232 4288085770
12.031409 -0.43357468 -1.8488842 4288085770
9.8823671 -0.35570288 -1.8328953 4288085770
18.869553 -0.69498241 -1.8928412 4288085770
5.7462869 -0.2028816 -1.8189185 4288085770
6.6643057 -0.23739666 -1.818913 4288085770
14.712467 -0.54215956 -1.8508638 4288085770
5.4462819 -0.19404627 -1.831919 4288085770
6.1122961 -0.21969131 -1.8249146 4288085770
11.475406 -0.42786869 -1.8478789 4288085770
17.545536 -0.66967827 -1.8838352 4288085770
7.8503351 -0.2937738 -1.8248992 4288085770
5.5722885 -0.20598017 -1.830914 4288085770
6.2653031 -0.23361093 -1.8239088 4288085770
10.983403 -0.4221293 -1.8478746 4288085770
9.5473757 -0.37088245 -1.8348817 4288085770
16.379526 -0.64629036 -1.8738306 4288085770
5.6972938 -0.21691307 -1.8269095 4288085770
6.4323115 -0.24852362 -1.8239028 4288085770
10.5384 -0.4153659 -1.8498715 4288085770
5.6232939 -0.21594974 -1.8209089 4288085770
6.4963126 -0.25148714 -1.8179022 4288085770
13.99648 -0.56553781 -1.8468397 4288085770
5.8453002 -0.22883651 -1.828905 4288085770
15.368511 -0.62382239 -1.8678278 4288085770
10.099396 -0.40759748 -1.8478693 4288085770
6.6203189 -0.26342684 -1.8278972 4288085770
7.6313438 -0.30889201 -1.8258871 4288085770
5.9903059 -0.23975959 -1.826901 4288085770
9.7163906 -0.39980087 -1.8488677 4288085770
14.492498 -0.60328394 -1.8638258 4288085770
6.8053269 -0.27832979 -1.8278916 4288085770
6.149313 -0.25167659 -1.8278965 4288085770
9.3413858 -0.39099854 -1.8468668 4288085770
9.2143841 -0.3860594 -1.8328676 4288085770
13.689487 -0.58270645 -1.8588251 4288085770
6.3273191 -0.26358435 -1.8308926 4288085770
7.0073357 -0.29422417 -1.8288857 4288085770
5.5143003 -0.22901139 -1.8248998 4288085770
8.9963808 -0.38218081 -1.8458663 4288085770
6.3343205 -0.26557407 -1.8158915 4288085770
6.4833241 -0.2735 -1.8258893 4288085770
8.6473751 -0.37036237 -1.8388678 4288085770
12.970478 -0.56308508 -1.8548251 4288085770
7.2103434 -0.3091175 -1.8288802 4288085770
6.6893311 -0.28639421 -1.8318852 4288085770
8.3553715 -0.36151746 -1.8398684 4288085770
6.8853364 -0.29729086 -1.8318821 4288085770
8.063365 -0.35067058 -1.83687 4288085770
13.345492 -0.58888233 -1.8438164 4288085770
12.319468 -0.54342777 -1.8508261 4288085770
7.4023504 -0.32201371 -1.8228759 4288085770
7.8043599 -0.34080765 -1.8368715 4288085770
7.1053433 -0.30917656 -1.8358786 4288085770
7.446352 -0.32499501 -1.8328748 4288085770
7.3113484 -0.31906638 -1.8328761 4288085770
7.550354 -0.32994097 -1.8348738 4288085770
11.738458 -0.52573425 -1.8488274 4288085770
7.6833606 -0.34087068 -1.8338695 4288085770
8.9153929 -0.40121934 -1.8328543 4288085770
11.234449 -0.50900185 -1.8508289 4288085770
7.9283681 -0.35574099 -1.8328648 4288085770
10.77544 -0.49224558 -1.8528315 4288085770
8.2093763 -0.37259462 -1.8368596 4288085770
10.30843 -0.4734908 -1.8488349 4288085770
5.396307 -0.24207619 -1.8248903 4288085770
8.4843855 -0.38844904 -1.8358549 4288085770
6.1933284 -0.28065184 -1.8178805 4288085770
8.8213949 -0.40527415 -1.8428504 4288085770
19.894676 -0.9304527 -1.9117237 4282675967
9.8964224 -0.45670825 -1.847838 4288085770
9.1514044 -0.42210022 -1.8438461 4288085770
9.5044117 -0.43891412 -1.8448421 4288085770
7.2083583 -0.33711886 -1.8238642 4288085770
12.778505 -0.61218339 -1.8427941 4288085770
18.879669 -0.91497445 -1.8777169 4288085770
8.6134005 -0.41637883 -1.8278408 4288085770
6.0533357 -0.29472825 -1.8178701 4288085770
5.292315 -0.25613466 -1.8268803 4288085770
18.636686 -0.94611406 -1.9006956 4288085770
7.0293655 -0.35221711 -1.8268527 4288085770
19.033709 -0.9918983 -1.8866757 4288085770
12.246517 -0.63446546 -1.8397733 4288085770
17.726675 -0.92758173 -1.869692 4288085770
8.3474083 -0.4305211 -1.8268286 4288085770
5.1813211 -0.26919547 -1.8258708 4288085770
6.8433733 -0.36631733 -1.8258414 4288085770
17.511692 -0.95970595 -1.8906704 4288085770
8.1054163 -0.44665134 -1.8268155 4288085770
11.756529 -0.65672582 -1.8377528 4288085770
16.723682 -0.94111109 -1.8636687 4288085770
18.093729 -1.0363942 -1.879636 4288085770
6.6673803 -0.38041198 -1.8238305 4288085770
16.485695 -0.96824598 -1.8816497 4288085770
7.8804245 -0.46177262 -1.8268032 4288085770
11.330541 -0.67995429 -1.8397331 4288085770
15.849689 -0.95757365 -1.8606458 4288085770
6.5003886 -0.39450189 -1.8218197 4288085770
15.616697 -0.9757055 -1.8776319 4288085770
17.240753 -1.0788442 -1.8725986 4288085770
7.6704326 -0.47688606 -1.8267912 4288085770
10.954552 -0.70315731 -1.8437138 4288085770
15.094697 -0.97497493 -1.8606241 4288085770
6.3603969 -0.40957987 -1.8248088 4288085770
14.821699 -0.98112679 -1.8756163 4288085770
7.4724402 -0.4919937 -1.8277792 4288085770
16.479774 -1.1192462 -1.8665638 4288085770
14.394705 -0.9903453 -1.8566045 4288085770
10.577563 -0.72535884 -1.842695 4288085770
6.2214046 -0.42365691 -1.8267983 4288085770
14.104702 -0.98550701 -1.8736026 4288085770
7.2714481 -0.50710177 -1.8257673 4288085770
13.773713 -1.0076756 -1.8555847 4288085770
15.863798 -1.1645761 -1.8695285 4288085770
10.249575 -0.74753594 -1.8446772 4288085770
6.0834122 -0.4387328 -1.8267872 4288085770
13.413701 -0.9848718 -1.8675921 4288085770
7.0894556 -0.52220023 -1.8247555 4288085770
12.785701 -0.98220366 -1.8625838 4288085770
5.9454203 -0.45280781 -1.8247769 4288085770
13.191724 -1.0239847 -1.8525662 4288085770
9.9325876 -0.76970685 -1.8456594 4288085770
6.9184637 -0.53729343 -1.8247441 4288085770
19.577003 -1.5486388 -1.9273686 4282675967
15.25482 -1.2059 -1.8674953 4288085770
12.2327 -0.98049825 -1.8625758 4288085770
5.8164268 -0.46687856 -1.8237665 4288085770
18.176975 -1.4973708 -1.9043757 4288085770
12.674732 -1.0412598 -1.8505481 4288085770
9.6245985 -0.78987175 -1.843643 4288085770
6.7674732 -0.55337709 -1.8267324 4288085770
11.712698 -0.97777444 -1.860569 4288085770
14.723841 -1.2471837 -1.8674635 4288085770
16.964952 -1.4530058 -1.8863817 4288085770
5.6984348 -0.48194411 -1.8237557 4288085770
11.217694 -0.97103643 -1.856565 4288085770
12.194742 -1.0595156 -1.8485301 4288085770
6.607481 -0.56846386 -1.8247209 4288085770
9.3286095 -0.81002998 -1.8406265 4288085770
16.025936 -1.4225045 -1.8863844 4288085770
19.557114 -1.754649 -1.9182514 4282675967
10.802694 -0.96926039 -1.8615592 4288085770
5.5944433 -0.49700356 -1.8267452 4288085770
14.199862 -1.2844621 -1.8634337 4288085770
6.4634891 -0.58354354 -1.8257097 4288085770
15.162918 -1.3919621 -1.8843879 4288085770
11.767752 -1.0777444 -1.8485126 4288085770
9.0826216 -0.83216423 -1.8426096 4288085770
10.41269 -0.96547055 -1.8655549 4288085770
14.362902 -1.3613851 -1.8793926 4288085770
18.464115 -1.7572207 -1.8982327 4288085770
5.4874511 -0.51206392 -1.8277346 4288085770
9.9936867 -0.95569152 -1.8595538 4288085770
6.3154969 -0.59862363 -1.8226984 4288085770
13.740882 -1.3227072 -1.8614045 4288085770
19.450184 -1.8846323 -1.7511758 4293729569
11.379762 -1.0979534 -1.8504947 4288085770
8.8246326 -0.85230261 -1.839594 4288085770
13.633886 -1.3307712 -1.8763983 4282675967
19.187181 -1.885766 -1.7371709 4293729569
9.6286831 -0.94788617 -1.8585523 4288085770
5.3884592 -0.52712047 -1.8297241 4288085770
17.492113 -1.7597307 -1.8822156 4288085770
12.962871 -1.301126 -1.8714043 4288085770
6.1935058 -0.61469287 -1.8256869 4288085770
9.259675 -0.93608069 -1.852553 4288085770
11.046774 -1.1201345 -1.8544769 4288085770
