# .PCD v0.7 - Point Cloud Data file format
VERSION 0.7
FIELDS x y z rgb
SIZE 4 4 4 4
TYPE F F F U
COUNT 1 1 1 1
WIDTH 1131
HEIGHT 1
VIEWPOINT 0 0 0 1 0 0 0
POINTS 1131
DATA ascii
6.8090196 -0.59187305 -1.8463061 4288085770
18.060501 -1.6033869 -1.9295765 4288085770
5.3691001 -0.47660568 -1.8373469 4288085770
6.2732654 -0.56555641 -1.8389156 4288085770
11.344757 -1.043812 -1.872147 4288085770
15.227304 -1.4083334 -1.920624 4288085770
16.18438 -1.5077751 -1.9062151 4288085770
17.408993 -1.6529396 -1.9279348 4288085770
5.2629619 -0.49056166 -1.8402308 4288085770
6.1141343 -0.57897556 -1.8357564 4288085770
14.48632 -1.4039934 -1.9160184 4288085770
10.977508 -1.0681807 -1.8727927 4288085770
15.514201 -1.5231504 -1.9086279 4288085770
5.1568255 -0.5045135 -1.8411146 4288085770
5.9809885 -0.59366226 -1.8376164 4288085770
16.801521 -1.6989238 -1.9243369 4288085770
13.786379 -1.3960527 -1.9084539 4288085770
10.639277 -1.0908322 -1.8714662 4288085770
14.853057 -1.5356047 -1.906054 4288085770
5.0496998 -0.51745337 -1.8409997 4288085770
5.8508549 -0.60737461 -1.8374808 4288085770
13.154429 -1.3887912 -1.9039446 4288085770
16.267017 -1.7476385 -1.9247942 4288085770
19.003311 -2.0444825 -1.8114579 4293729569
10.33502 -1.1158283 -1.874163 4288085770
14.24191 -1.5485514 -1.9025207 4288085770
4.9475646 -0.5314427 -1.840887 4288085770
5.7247195 -0.62112647 -1.8373485 4288085770
12.577497 -1.380078 -1.901484 4288085770
17.703918 -1.9785966 -1.7975147 4293729569
10.043775 -1.1399509 -1.8758725 4288085770
15.768533 -1.7957048 -1.9232829 4288085770
12.025584 -1.369606 -1.8960477 4288085770
13.70574 -1.5642422 -1.9000442 4288085770
19.482494 -2.2331936 -1.7944702 4293729569
5.6035752 -0.63592774 -1.8372182 4288085770
16.770241 -1.9413757 -1.8058162 4293729569
11.491714 -1.3553083 -1.8886346 4288085770
5.4944401 -0.64984989 -1.8380998 4288085770
9.7705317 -1.1642493 -1.8765969 4288085770
16.019421 -1.9179872 -1.8252413 4293729569
13.199577 -1.5792298 -1.897594 4288085770
15.294084 -1.8400053 -1.9197991 4288085770
18.293736 -2.2063639 -1.7615391 4293729569
11.022815 -1.343662 -1.8852695 4288085770
15.467428 -1.9125998 -1.8607948 4288085770
5.3803058 -0.66371834 -1.8369774 4288085770
9.4963179 -1.1855303 -1.8733263 4288085770
12.760381 -1.5978866 -1.898192 4288085770
10.599901 -1.3334769 -1.8849398 4288085770
16.707611 -2.1175098 -1.6844051 4293729569
14.851644 -1.8836221 -1.9163436 4288085770
15.042972 -1.9211955 -1.9042011 4288085770
5.2559247 -0.67842293 -1.8319598 4288085770
10.174715 -1.3225905 -1.8800449 4288085770
9.2438078 -1.2092848 -1.8706298 4288085770
12.352857 -1.6193525 -1.8969406 4288085770
14.438164 -1.898208 -1.9218107 4288085770
16.170906 -2.1499457 -1.6984853 4293729569
14.252113 -1.9052653 -1.8856568 4288085770
9.8168087 -1.3120263 -1.8818069 4288085770
5.1637764 -0.69350916 -1.8338567 4288085770
13.772509 -1.860577 -1.9244107 4282675967
16.922607 -2.3018467 -1.4526757 4293729569
9.0015926 -1.2308624 -1.8674006 4288085770
11.950678 -1.636335 -1.8936044 4288085770
9.4519329 -1.2983831 -1.8795711 4288085770
13.050989 -1.8103528 -1.9119993 4288085770
15.8094 -2.1974239 -1.732106 4293729569
5.0796161 -0.70968002 -1.837757 4288085770
13.57413 -1.9044006 -1.84216 4288085770
16.732143 -2.3518248 -1.4014161 4293729569
9.1060677 -1.2839291 -1.8773513 4288085770
12.443375 -1.7692859 -1.9086504 4288085770
8.7793646 -1.2536421 -1.8651832 4288085770
16.512039 -2.3567948 -1.4692423 4293729569
11.586488 -1.654699 -1.8912928 4288085770
8.7881985 -1.2697569 -1.8761516 4288085770
16.650188 -2.4040999 -0.6142289 4293729569
15.259227 -2.2119646 -1.7426666 4293729569
4.9904695 -0.72479373 -1.8386562 4288085770
11.989583 -1.7457922 -1.9213725 4282675967
16.600815 -2.4145219 -0.99116868 4293729569
16.578617 -2.4275408 -1.0901216 4293729569
16.572891 -2.4323905 -0.63910455 4293729569
12.96712 -1.9062531 -1.802709 4293729569
16.609043 -2.4486864 -0.20009112 4293729569
16.474335 -2.4332478 -1.3980322 4293729569
8.4833412 -1.254712 -1.8739635 4288085770
11.277243 -1.6786226 -1.8940086 4288085770
8.592103 -1.2797823 -1.8679838 4288085770
11.358104 -1.6924437 -1.9000353 4288085770
16.427048 -2.4540498 -1.5109479 4293729569
4.9013333 -0.73890275 -1.8375577 4288085770
14.799989 -2.233429 -1.7602776 4293729569
8.1874924 -1.238757 -1.871784 4288085770
16.554123 -2.5111749 -0.62690282 4293729569
10.887442 -1.6567476 -1.8987743 4288085770
16.533688 -2.5162659 -1.1608771 4293729569
16.520752 -2.5197999 -1.0218587 4293729569
12.45603 -1.9160818 -1.7713096 4293729569
16.523819 -2.5428438 -0.61480492 4293729569
7.9216299 -1.2241032 -1.8706238 4288085770
16.523998 -2.5519247 -0.2347824 4293729569
10.939074 -1.6952386 -1.8887206 4288085770
8.4008713 -1.3028756 -1.8677887 4288085770
16.490105 -2.5564475 -1.41475 4293729569
10.438772 -1.6222661 -1.8955265 4288085770
16.485809 -2.5757658 -1.563701 4293729569
14.298885 -2.2414591 -1.7708899 4293729569
7.660779 -1.208497 -1.8684694 4288085770
16.544674 -2.6135628 -1.2376534 4293729569
10.009119 -1.5859716 -1.8912972 4288085770
16.573887 -2.6354074 -0.64062113 4293729569
16.545528 -2.6411428 -1.0605878 4293729569
7.4169269 -1.1930629 -1.8673272 4288085770
12.106738 -1.9455701 -1.7589828 4293729569
10.668827 -1.7195517 -1.8914644 4288085770
8.2016659 -1.3238776 -1.8625927 4288085770
9.5914812 -1.5487849 -1.8820789 4288085770
16.593555 -2.6724901 -0.59354711 4293729569
16.580757 -2.6755822 -0.27152938 4293729569
16.623692 -2.6988418 -1.4395089 4293729569
13.68702 -2.2263434 -1.7644758 4293729569
16.57053 -2.7017431 -1.6174632 4293729569
7.1760864 -1.1766516 -1.8631895 4288085770
9.2118073 -1.5149888 -1.8778805 4288085770
6.9412651 -1.1583002 -1.859061 4288085770
8.8691092 -1.4835639 -1.8747035 4288085770
10.392622 -1.7397928 -1.8892133 4288085770
8.0324249 -1.3481927 -1.8634108 4288085770
11.824369 -1.9827428 -1.7536868 4293729569
13.138138 -2.2128623 -1.7611046 4293729569
6.7344093 -1.1432372 -1.858945 4288085770
8.5613785 -1.455495 -1.8745444 4288085770
16.738075 -2.8455634 -1.6782436 4293729569
6.5465422 -1.1293664 -1.8598404 4288085770
8.2606583 -1.4264914 -1.8723928 4288085770
10.131406 -1.7611858 -1.8879708 4288085770
7.8622065 -1.3704885 -1.8602333 4288085770
12.611296 -2.1955991 -1.7567586 4293729569
6.3646736 -1.1155576 -1.8617399 4288085770
11.42623 -1.99771 -1.7273588 4293729569
7.9899054 -1.4007912 -1.8722551 4288085770
6.1688604 -1.0965902 -1.8556414 4288085770
16.489334 -2.9181299 -1.6968877 4293729569
7.711194 -1.3710021 -1.8681214 4288085770
5.991014 -1.0808144 -1.8545486 4288085770
7.4544721 -1.3424344 -1.8650011 4288085770
12.084517 -2.1723266 -1.7484269 4293729569
9.9001598 -1.7858803 -1.8877424 4288085770
7.7159538 -1.3960352 -1.8620657 4288085770
18.918472 -3.4135349 -1.7704931 4293729569
5.8341537 -1.0662525 -1.8554682 4288085770
7.2227063 -1.3181231 -1.8648889 4288085770
11.076067 -2.0151675 -1.7060601 4293729569
7.0009508 -1.2929093 -1.8637861 4288085770
5.6693177 -1.0496013 -1.8523871 4288085770
16.197708 -2.9802518 -1.7085253 4293729569
11.378138 -2.1101928 -1.7110559 4293729569
6.7722287 -1.2646137 -1.8576857 4288085770
5.5144801 -1.0330523 -1.8503129 4288085770
17.683708 -3.2861648 -1.7468886 4293729569
9.6799212 -1.809687 -1.8885243 4288085770
7.5667138 -1.420545 -1.8608983 4288085770
6.5834394 -1.2427359 -1.8595995 4288085770
5.3656406 -1.0165632 -1.8482431 4288085770
10.669062 -2.017029 -1.6727568 4293729569
6.3906713 -1.2188109 -1.8585149 4288085770
5.2317801 -1.0022281 -1.8481792 4288085770
10.732741 -2.0496716 -1.6757259 4293729569
15.883151 -3.0351305 -1.7141634 4293729569
6.2039051 -1.1949412 -1.8554347 4288085770
16.636726 -3.1806874 -1.7313703 4293729569
5.1089067 -0.9890101 -1.8511207 4288085770
6.0201492 -1.1700987 -1.851359 4288085770
9.4656954 -1.8325461 -1.8863128 4288085770
4.9890432 -0.97481966 -1.8530666 4288085770
7.4274731 -1.4451548 -1.8597381 4288085770
5.8593578 -1.1484976 -1.8522925 4288085770
4.8671827 -0.96060187 -1.8520112 4288085770
5.7045684 -1.1269516 -1.8512304 4288085770
10.39882 -2.0423009 -1.6584984 4293729569
10.352879 -2.034884 -1.6754824 4293729569
15.679679 -3.0821092 -1.7169018 4293729569
5.556777 -1.1054776 -1.8511732 4288085770
15.539672 -3.0827084 -1.7147975 4293729569
5.4089875 -1.0839988 -1.849116 4288085770
9.2405128 -1.8512866 -1.8801035 4288085770
5.2671971 -1.0625775 -1.8460629 4288085770
7.2942319 -1.4698261 -1.8595823 4288085770
5.1433835 -1.043345 -1.8470178 4288085770
10.054905 -2.0309367 -1.6852733 4293729569
5.0205703 -1.0241226 -1.8479736 4288085770
15.023142 -3.0325882 -1.7275374 4293729569
4.9067464 -1.0059899 -1.8489335 4288085770
10.169532 -2.0719886 -1.6472598 4293729569
15.325988 -3.150605 -1.7254788 4293729569
8.9764385 -1.8596147 -1.8638902 4288085770
9.8008633 -2.0334427 -1.7010812 4293729569
14.516369 -3.0065911 -1.7502272 4293729569
7.178968 -1.4966822 -1.8614342 4288085770
9.9981565 -2.1102703 -1.6430434 4293729569
9.588768 -2.0413764 -1.7209071 4293729569
13.888912 -2.9493432 -1.7539028 4293729569
14.971634 -3.1860578 -1.7191341 4293729569
8.6794634 -1.8585929 -1.838675 4288085770
7.071703 -1.5236181 -1.8632921 4288085770
13.183713 -2.8672836 -1.7425804 4293729569
9.3318119 -2.0358431 -1.7327319 4293729569
9.8477488 -2.1517661 -1.6408345 4293729569
8.4094639 -1.8598452 -1.8154744 4288085770
14.87574 -3.2751484 -1.7378516 4293729569
6.9524727 -1.5474246 -1.8611487 4288085770
10.240619 -2.2831693 -1.4278098 4293729569
9.0678968 -2.0262308 -1.7405615 4293729569
9.7472429 -2.2027767 -1.6456398 4293729569
8.1365089 -1.8570579 -1.788281 4288085770
10.088415 -2.3007464 -1.4666568 4293729569
10.115527 -2.3074236 -1.22166 4293729569
8.8080015 -2.0146563 -1.7473989 4293729569
6.8442211 -1.5733432 -1.8600084 4288085770
10.098632 -2.3185306 -0.92262048 4293729569
10.113532 -2.325779 -0.96361423 4293729569
10.182668 -2.3482692 -0.46861014 4293729569
10.176724 -2.3644788 -0.16656648 4293729569
10.012063 -2.3331044 -1.515524 4293729569
9.6397724 -2.2507086 -1.6464474 4293729569
8.5182047 -1.9937639 -1.7462363 4293729569
10.126485 -2.3696175 -0.43051824 4293729569
7.9274311 -1.8659371 -1.7731072 4293729569
10.055906 -2.3698587 -1.2334682 4293729569
6.7569346 -1.6024828 -1.8638757 4288085770
10.051966 -2.3812408 -0.99443763 4293729569
10.051995 -2.3840497 -0.91543072 4293729569
10.097162 -2.3974924 -0.49943075 4293729569
9.9107819 -2.3582039 -1.5603905 4293729569
8.2883177 -1.981491 -1.7540972 4293729569
10.123172 -2.4228804 -0.13938853 4293729569
9.5642262 -2.3059704 -1.652261 4293729569
7.7443123 -1.8790823 -1.7609421 4293729569
10.081827 -2.4371588 -0.42432517 4293729569
9.7795887 -2.3749952 -1.6012546 4293729569
6.663681 -1.6285534 -1.8637462 4288085770
10.017252 -2.4355056 -1.2462841 4293729569
8.0773973 -1.972412 -1.7639647 4293729569
10.023325 -2.444041 -1.0292678 4293729569
10.06255 -2.457233 -0.53426367 4293729569
10.042262 -2.4589441 -0.91124576 4293729569
10.094559 -2.4875255 -0.11021405 4293729569
9.6334658 -2.3846278 -1.6381249 4293729569
7.8315973 -1.9519633 -1.7648333 4293729569
9.480711 -2.3581457 -1.655076 4293729569
7.5981245 -1.8986127 -1.7557892 4293729569
10.068115 -2.510011 -0.41914222 4293729569
6.591373 -1.6598451 -1.8686194 4288085770
10.022474 -2.5136001 -1.2631025 4293729569
10.02162 -2.5131168 -1.0671026 4293729569
10.057866 -2.524277 -0.57110125 4293729569
9.4175253 -2.3765328 -1.6619862 4293729569
10.03952 -2.5349081 -0.90706354 4293729569
7.5858264 -1.9285077 -1.7627094 4293729569
10.121823 -2.564729 -0.081050679 4293729569
7.4798732 -1.9244317 -1.7546417 4293729569
9.4301214 -2.4176612 -1.6628978 4293729569
9.2365303 -2.3737957 -1.6898605 4293729569
10.157129 -2.610893 -0.41596788 4293729569
6.5100889 -1.6890396 -1.8704913 4288085770
10.074777 -2.5957599 -1.1129454 4293729569
10.138975 -2.6121912 -0.61395198 4293729569
7.3580356 -1.907236 -1.7625935 4293729569
10.072591 -2.6021521 -1.2839291 4293729569
8.9717827 -2.3471847 -1.70173 4293729569
7.1462321 -1.8871238 -1.7624865 4293729569
7.3706117 -1.9513403 -1.7534984 4293729569
9.3496094 -2.4698641 -1.6647153 4293729569
6.4278259 -1.71622 -1.8703671 4288085770
8.7220221 -2.3217208 -1.7126079 4293729569
13.717119 -3.6396194 -1.7441342 4293729569
6.9424381 -1.8660942 -1.7633877 4293729569
8.4962282 -2.2995028 -1.7264956 4293729569
7.2553825 -1.9751844 -1.7503579 4293729569
15.139688 -4.0908585 -1.7641034 4293729569
9.3299379 -2.5376933 -1.67454 4293729569
6.7905149 -1.8576058 -1.7742971 4293729569
6.3565402 -1.7455146 -1.8722459 4288085770
13.558504 -3.7020364 -1.7428694 4293729569
8.2574987 -2.2711465 -1.7363886 4293729569
6.6545672 -1.8512865 -1.7892131 4288085770
14.560239 -4.0340724 -1.7608137 4288085770
7.11025 -1.9897112 -1.7392178 4293729569
8.0078239 -2.2376664 -1.7402855 4293729569
9.2963181 -2.6003757 -1.6813669 4293729569
6.2832656 -1.7737868 -1.8731259 4288085770
6.5535436 -1.8523303 -1.8101369 4288085770
13.416856 -3.7676225 -1.7416097 4293729569
7.7940731 -2.2115562 -1.7491915 4293729569
13.98787 -3.9693501 -1.7545481 4288085770
6.4555082 -1.854406 -1.8320608 4288085770
7.0229659 -2.0188434 -1.7400852 4293729569
7.5633974 -2.1782634 -1.752102 4293729569
9.2547112 -2.6619766 -1.6871904 4293729569
6.2219591 -1.8051832 -1.8760073 4288085770
6.3545055 -1.8534472 -1.8519896 4288085770
13.307155 -3.8385317 -1.7423607 4293729569
7.3187957 -2.1378193 -1.7500194 4293729569
13.44649 -3.9059365 -1.7483026 4293729569
6.9436712 -2.0490553 -1.7409559 4293729569
6.251523 -1.8504642 -1.8699217 4288085770
7.0762062 -2.0963874 -1.7449408 4293729569
9.2191029 -2.7236321 -1.6910182 4293729569
6.1556745 -1.8345252 -1.8768897 4288085770
13.198457 -3.9094493 -1.7421125 4293729569
6.1116705 -1.8350865 -1.8768564 4288085770
12.901192 -3.8344765 -1.7390732 4293729569
6.8575726 -2.0592024 -1.7428695 4293729569
6.8573995 -2.0771935 -1.7398267 4293729569
5.9598627 -1.8155774 -1.8787922 4288085770
6.6509285 -2.0231366 -1.7408042 4293729569
9.1974545 -2.7894316 -1.6968464 4293729569
6.0236082 -1.8431602 -1.8567734 4288085770
12.380902 -3.7622664 -1.7298639 4293729569
13.117674 -3.9886494 -1.743865 4293729569
5.800107 -1.790977 -1.8757342 4288085770
6.4672313 -1.9923096 -1.7427435 4293729569
6.7821064 -2.1074433 -1.7397006 4293729569
6.3304033 -1.9739742 -1.7546873 4293729569
5.6523309 -1.7685009 -1.8746799 4288085770
5.8676286 -1.8435396 -1.8296591 4288085770
9.1727962 -2.8562012 -1.7026701 4293729569
11.888591 -3.6923349 -1.72067 4293729569
6.1626844 -1.9453065 -1.756633 4293729569
5.5085521 -1.7460669 -1.8746284 4288085770
13.043874 -4.0699167 -1.7446178 4288085770
5.9930077 -1.9126116 -1.7555871 4293729569
6.7217793 -2.140852 -1.7435776 4293729569
5.3548188 -1.7195193 -1.8685795 4288085770
11.431236 -3.6267545 -1.7124913 4293729569
5.7276254 -1.8460833 -1.8045514 4288085770
9.1282139 -2.9157574 -1.7024964 4293729569
5.8273211 -1.8809544 -1.7535415 4293729569
5.2140632 -1.6951059 -1.864535 4288085770
5.6935472 -1.8576348 -1.7594994 4293729569
5.0813069 -1.6707746 -1.8614962 4288085770
6.6564555 -2.1742039 -1.7444515 4293729569
11.00684 -3.5655124 -1.7083266 4293729569
5.5986552 -1.8457249 -1.7744586 4293729569
5.5776753 -1.8435204 -1.7764486 4293729569
9.0338097 -2.9577949 -1.693328 4293729569
4.9644966 -1.6516122 -1.8624568 4288085770
5.5366745 -1.842165 -1.7984221 4288085770
4.844708 -1.6304127 -1.8604198 4288085770
10.61739 -3.509619 -1.704175 4293729569
5.4886398 -1.8437563 -1.8273836 4288085770
6.5821929 -2.2014587 -1.7423331 4293729569
5.4386272 -1.8433206 -1.8533485 4288085770
5.4775643 -1.8564864 -1.7613456 4293729569
9.0261116 -3.0287318 -1.6981542 4293729569
5.3477659 -1.8284459 -1.8663179 4288085770
10.286802 -3.4673297 -1.7070338 4293729569
6.524868 -2.2348902 -1.7432125 4293729569
5.2230344 -1.8012018 -1.8662916 4288085770
5.0953255 -1.7719232 -1.8642683 4288085770
5.4063754 -1.8767599 -1.7542462 4293729569
9.012435 -3.0976036 -1.7009813 4293729569
9.9702044 -3.4261796 -1.7099005 4293729569
4.9746056 -1.7437146 -1.8622473 4288085770
4.8678517 -1.7186521 -1.863229 4288085770
6.4565969 -2.2632029 -1.740096 4293729569
9.6965103 -3.3944693 -1.7177762 4293729569
5.3621001 -1.9053214 -1.7551471 4293729569
9.0117178 -3.1706069 -1.7048076 4293729569
6.3903255 -2.2915332 -1.7359811 4293729569
9.380003 -3.3443108 -1.7166643 4293729569
5.307869 -1.9297715 -1.7510502 4293729569
9.020978 -3.2457151 -1.7106365 4293729569
9.0794783 -3.2963116 -1.7155592 4293729569
6.3549566 -2.3291929 -1.7408668 4293729569
5.2107983 -1.9387629 -1.7339587 4293729569
9.0122824 -3.316632 -1.711462 4293729569
8.7849922 -3.2443669 -1.7124678 4293729569
6.3155909 -2.366806 -1.7427492 4293729569
5.1416411 -1.9560493 -1.723868 4293729569
8.5244017 -3.2027731 -1.7143767 4293729569
9.0275049 -3.395797 -1.7162855 4293729569
6.248342 -2.3931215 -1.7366384 4293729569
8.2648525 -3.1571825 -1.7132959 4293729569
5.1043577 -1.9856759 -1.7227715 4293729569
9.0397358 -3.4739273 -1.7191094 4293729569
8.0262489 -3.1168077 -1.7152181 4293729569
6.2149639 -2.4317966 -1.7395231 4293729569
5.0272436 -1.998876 -1.7096846 4293729569
9.0509586 -3.5530477 -1.72193 4293729569
7.8006268 -3.0785625 -1.7171447 4293729569
10.264132 -4.0441556 -1.7236491 4293729569
6.1547146 -2.4581821 -1.7334173 4293729569
7.5919819 -3.0424917 -1.7210785 4293729569
4.9730439 -2.020319 -1.7025952 4293729569
9.9179115 -3.96471 -1.7265855 4293729569
9.0711517 -3.6352575 -1.72475 4293729569
6.1074119 -2.4897037 -1.7303085 4293729569
7.3554726 -2.9931231 -1.7170236 4293729569
9.5816927 -3.8853617 -1.7285289 4293729569
4.9049191 -2.034611 -1.6905124 4293729569
9.0953341 -3.7185051 -1.7265705 4293729569
7.1638069 -2.9592192 -1.7199649 4293729569
9.2813683 -3.8163762 -1.7324739 4293729569
6.0690885 -2.5233171 -1.7282016 4293729569
4.8397942 -2.0489306 -1.6774319 4293729569
7.0120034 -2.9387343 -1.7319033 4293729569
8.9482231 -3.7300436 -1.7284361 4293729569
9.1184978 -3.8037422 -1.7283853 4293729569
6.0387225 -2.5610178 -1.7290907 4293729569
8.6589422 -3.6571584 -1.7283986 4293729569
6.8701792 -2.9203491 -1.743844 4293729569
4.7537642 -2.0540273 -1.658358 4293729569
9.14466 -3.8890069 -1.7292025 4293729569
8.3766613 -3.5843403 -1.727366 4293729569
5.9994102 -2.5936191 -1.7259855 4293729569
6.685564 -2.8815081 -1.7438022 4293729569
8.1043816 -3.51162 -1.7253406 4293729569
4.7105541 -2.07658 -1.6512737 4293729569
6.484045 -2.8334837 -1.7377697 4293729569
9.1827631 -3.9803953 -1.7320136 4288085770
5.9650764 -2.6282706 -1.7228789 4293729569
7.8639956 -3.4492271 -1.7273139 4293729569
6.3233767 -2.7998888 -1.7407329 4293729569
4.6862783 -2.1053357 -1.6501888 4293729569
9.2119083 -4.0676875 -1.7318281 4288085770
7.6276112 -3.3868694 -1.7272899 4293729569
5.9446902 -2.6680703 -1.7237703 4293729569
6.1288786 -2.7499294 -1.7327102 4293729569
7.4052176 -3.3256514 -1.7272736 4293729569
4.6699615 -2.1381791 -1.6521001 4293729569
5.9752216 -2.7153995 -1.7336807 4293729569
5.9511976 -2.718153 -1.7306571 4293729569
7.1808443 -3.2624087 -1.7252607 4293729569
5.8076587 -2.671716 -1.7286628 4293729569
6.962472 -3.1992209 -1.721252 4293729569
4.6058784 -2.1485016 -1.6360296 4293729569
5.9138956 -2.7497694 -1.7255555 4293729569
5.608254 -2.6126914 -1.7136582 4293729569
6.7849522 -3.1504602 -1.7252388 4293729569
5.474566 -2.5813603 -1.7146357 4293729569
4.5457835 -2.159869 -1.6219598 4293729569
6.5905271 -3.0925159 -1.7232351 4293729569
5.8994904 -2.7916265 -1.7254465 4293729569
5.3170247 -2.5357695 -1.7066298 4293729569
6.3911452 -3.030513 -1.7172376 4293729569
4.4866996 -2.1702445 -1.6068931 4293729569
6.2007523 -2.9695992 -1.7112439 4293729569
5.1485467 -2.4840577 -1.6936303 4293729569
5.8900723 -2.8345361 -1.7263384 4293729569
6.0462122 -2.9230604 -1.7122421 4293729569
4.8457451 -2.3669021 -1.6376884 4293729569
4.3758693 -2.1560624 -1.5748481 4293729569
5.9404435 -2.899035 -1.7242236 4293729569
5.8736868 -2.8743713 -1.7252334 4293729569
4.6703534 -2.307102 -1.6167037 4293729569
5.7978835 -2.8546174 -1.7262249 4293729569
4.4521942 -2.2248383 -1.5807402 4293729569
4.3267436 -2.1705427 -1.5627779 4293729569
5.6135449 -2.7887466 -1.7132471 4293729569
5.8364081 -2.9039798 -1.7171357 4293729569
4.3067079 -2.1743479 -1.5647544 4293729569
5.4630585 -2.7372351 -1.7092597 4293729569
4.2378392 -2.1606851 -1.5747367 4293729569
5.2956686 -2.6765361 -1.697282 4293729569
4.2667007 -2.1769028 -1.545719 4293729569
5.8190451 -2.9417987 -1.7140329 4293729569
5.1949735 -2.645546 -1.7032821 4293729569
4.1669936 -2.1449947 -1.5817225 4293729569
4.9748993 -2.5542703 -1.6703386 4293729569
4.1170511 -2.1385303 -1.5957018 4293729569
4.2335224 -2.1965497 -1.5366485 4293729569
5.8245668 -2.9908586 -1.7159201 4293729569
4.755836 -2.4619999 -1.6353984 4293729569
4.0770655 -2.1361749 -1.6136782 4293729569
4.4323344 -2.3155982 -1.5635104 4293729569
4.2222724 -2.2234111 -1.5255766 4293729569
4.0251637 -2.1256859 -1.6256657 4293729569
4.1943936 -2.2111351 -1.5265855 4293729569
5.8330679 -3.0419505 -1.7188046 4293729569
4.1524954 -2.2007265 -1.5305798 4293729569
3.9742527 -2.1162071 -1.6376512 4293729569
4.1145687 -2.1923871 -1.5465721 4293729569
3.9183841 -2.102669 -1.6456429 4293729569
4.0935574 -2.1922281 -1.5675572 4293729569
4.181119 -2.2399952 -1.5235075 4293729569
5.8356209 -3.0879779 -1.7196968 4293729569
4.0486841 -2.178807 -1.5785565 4293729569
3.8456101 -2.0799475 -1.647644 4293729569
4.00282 -2.1643763 -1.5895576 4293729569
3.9728818 -2.1571159 -1.6055533 4293729569
3.9379768 -2.1467991 -1.6185526 4293729569
4.1738234 -2.2709196 -1.5224289 4293729569
5.8431425 -3.1370552 -1.7205853 4293729569
3.9080491 -2.1385367 -1.6335505 4293729569
3.8592381 -2.1190643 -1.6395612 4293729569
4.085979 -2.2579734 -1.4933958 4293729569
5.845686 -3.184078 -1.7194753 4293729569
5.860178 -3.236227 -1.7213618 4293729569
4.0518403 -2.2736063 -1.4823341 4293729569
4.1163998 -2.3366652 -1.2402306 4293729569
4.0366173 -2.2974398 -1.4762665 4293729569
4.0604167 -2.3370631 -1.2221892 4293729569
4.0025001 -2.3110702 -1.4642096 4293729569
4.0243282 -2.3476717 -1.2091379 4293729569
3.9674015 -2.3226891 -1.4511566 4293729569
4.094224 -2.3941875 -0.72007674 4293729569
4.1172218 -2.411844 -0.48305097 4293729569
4.1759086 -2.4511857 -0.38199982 4293729569
4.0021772 -2.3644266 -1.1990821 4293729569
3.9432511 -2.3394234 -1.4410994 4293729569
4.056138 -2.4047711 -0.70502418 4293729569
4.0562677 -2.4091954 -0.46601313 4293729569
4.0662241 -2.4191158 -0.39199662 4293729569
3.9889736 -2.3862777 -1.1920207 4293729569
4.0632582 -2.4315715 -0.17896436 4293729569
3.9320278 -2.3632972 -1.4350349 4293729569
4.02601 -2.4194369 -0.69096762 4293729569
4.0221696 -2.4208236 -0.45296094 4293729569
4.0311337 -2.4278042 -0.40795073 4293729569
3.9708123 -2.4040725 -1.1819655 4293729569
4.0232067 -2.436213 -0.19592448 4293729569
3.9128561 -2.3820841 -1.4259765 4293729569
4.0058517 -2.4372044 -0.67791086 4293729569
3.9980426 -2.4365129 -0.42390624 4293729569
3.9970317 -2.4365394 -0.43890554 4293729569
3.9586186 -2.4249318 -1.1739074 4293729569
3.9941139 -2.4449639 -0.2128828 4293729569
3.9155684 -2.4121063 -1.4239074 4293729569
3.9846935 -2.4549623 -0.66485351 4293729569
3.989809 -2.4594741 -0.44184598 4293729569
3.9738822 -2.4532764 -0.42584914 4293729569
3.9543843 -2.4498751 -1.1678452 4293729569
3.9769411 -2.4618363 -0.23083049 4293729569
3.9073443 -2.4360075 -1.4168447 4293729569
3.9716372 -2.4763367 -0.45979294 4293729569
3.9754639 -2.479841 -0.65278792 4293729569
3.9616833 -2.4751263 -0.4137885 4293729569
3.9587979 -2.4756963 -0.2477846 4293729569
3.9432011 -2.4697418 -1.15879 4293729569
3.904099 -2.4619627 -1.4117808 4293729569
3.9674025 -2.4993405 -0.47873542 4293729569
3.9612846 -2.4996684 -0.63973063 4293729569
3.9525824 -2.4966803 -0.26673046 4293729569
3.9534631 -2.4990127 -0.40072593 4293729569
3.9479251 -2.4987743 -1.1527245 4293729569
3.9217277 -2.5001435 -1.413703 4293729569
3.9581881 -2.5202947 -0.4976792 4293729569
3.9433889 -2.5156322 -0.284679 4293729569
3.9570432 -2.5255995 -0.6286661 4293729569
3.9516683 -2.5257974 -1.1466633 4293729569
3.9422741 -2.51987 -0.38766843 4293729569
3.9589224 -2.5463505 -0.517618 4293729569
3.9274406 -2.5301909 -1.409636 4293729569
3.9421535 -2.538666 -0.30362356 4293729569
3.9583812 -2.5558524 -1.1415968 4293729569
3.9528022 -2.5515285 -0.61660159 4293729569
3.9440031 -2.5488584 -0.37560093 4293729569
3.9606576 -2.5724158 -0.53755754 4293729569
3.9468975 -2.5637593 -0.32256761 4293729569
3.9719119 -2.5836565 -1.4185414 4293729569
4.0018873 -2.6062934 -1.1445086 4293729569
3.9674597 -2.5876503 -0.60652649 4293729569
3.947732 -2.5778666 -0.36353487 4293729569
3.9466715 -2.585803 -0.34151521 4293729569
3.9782987 -2.6076453 -0.55948681 4293729569
4.9106746 -3.1947415 -1.7157698 4293729569
4.0298214 -2.6532631 -0.60241592 4293729569
3.9673505 -2.6180336 -0.35145375 4293729569
3.9782524 -2.6271713 -0.36343998 4293729569
4.9312549 -3.2379417 -1.7136818 4293729569
4.9687219 -3.2923226 -1.7165798 4293729569
4.990303 -3.3355308 -1.7134925 4293729569
5.0337582 -3.3909714 -1.7163924 4293729569
5.0682669 -3.4413159 -1.7162975 4293729569
5.1047754 -3.491678 -1.7152044 4293729569
5.149231 -3.5471258 -1.7171046 4293729569
5.2016568 -3.6056538 -1.7190033 4293729569
5.2530818 -3.6641717 -1.7209013 4293729569
5.3094859 -3.7247393 -1.7227981 4293729569
5.3728595 -3.7883785 -1.7256925 4293729569
5.4322634 -3.8489735 -1.7265913 4293729569
5.5035863 -3.9176927 -1.7294794 4293729569
5.5689697 -3.9803474 -1.7303776 4293729569
5.6313944 -4.0389676 -1.7292835 4293729569
9.280632 6.6140509 -1.737136 4288085770
8.9584379 6.3912611 -1.7173156 4288085770
9.5413904 6.7914748 -1.7427938 4288085770
8.6674366 6.188158 -1.7005708 4288085770
9.7437391 6.9264998 -1.7362988 4288085770
9.9148636 7.0378475 -1.72172 4288085770
8.4841242 6.0559587 -1.7010928 4288085770
8.3179064 5.9335871 -1.7036543 4288085770
10.099035 7.1540656 -1.7081656 4288085770
8.170804 5.8230247 -1.7072612 4288085770
10.282171 7.2662992 -1.6916019 4288085770
8.0337515 5.7173619 -1.7118897 4288085770
10.546834 7.4327102 -1.6852409 4288085770
7.9067469 5.6165986 -1.7175395 4288085770
10.844659 7.6157851 -1.6829517 4288085770
7.7767057 5.5118699 -1.7201777 4288085770
11.17568 7.8185315 -1.6817399 4288085770
7.6748371 5.4248557 -1.7268839 4288085770
7.569931 5.3338742 -1.7325786 4288085770
11.151731 7.7217607 -1.6825118 4288085770
7.4891686 5.2576509 -1.7403308 4288085770
10.88171 7.5184088 -1.6847899 4288085770
7.4063883 5.1794467 -1.7480767 4288085770
10.65396 7.3426356 -1.690172 4288085770
10.472488 7.1953964 -1.7006649 4288085770
7.331646 5.1051631 -1.7558393 4288085770
10.323213 7.0678358 -1.7132343 4288085770
7.2578859 5.028872 -1.7625992 4288085770
10.177944 6.9412336 -1.7268103 4288085770
7.1629953 4.9388027 -1.7633071 4288085770
10.049773 6.8244629 -1.7404255 4288085770
7.0942564 4.8644643 -1.7690766 4288085770
9.85215 6.6604052 -1.7398655 4288085770
7.014432 4.7812414 -1.7718155 4288085770
9.5639553 6.4372725 -1.7230823 4288085770
9.2717247 6.2101889 -1.7022867 4288085770
6.931592 4.6960549 -1.7715468 4288085770
9.1093159 6.0677853 -1.701811 4288085770
6.8457236 4.6079011 -1.7702688 4288085770
8.9740601 5.9411049 -1.705398 4288085770
6.7467618 4.5098829 -1.7649558 4288085770
8.8488731 5.8213282 -1.7080106 4288085770
6.6850276 4.4354844 -1.7667331 4288085770
8.7286854 5.7015004 -1.7116287 4288085770
6.600153 4.3463259 -1.7624544 4288085770
8.6336632 5.5984197 -1.7173095 4288085770
4.3338075 2.9104834 -1.8249596 4288085770
4.3861313 2.9429703 -1.8240852 4288085770
4.4454923 2.9793837 -1.8252267 4288085770
4.5018363 3.0138316 -1.8243608 4288085770
4.2864923 2.8789444 -1.8268418 4288085770
4.5641909 3.0492201 -1.8235035 4288085770
4.2351494 2.8444498 -1.8267133 4288085770
6.5353942 4.2689638 -1.7612221 4288085770
4.6396184 3.0924709 -1.826677 4288085770
4.199882 2.8177881 -1.8306191 4288085770
4.7029643 3.1268516 -1.8248187 4288085770
4.1565585 2.785212 -1.8315034 4288085770
8.546689 5.5002599 -1.7230096 4288085770
4.7673016 3.1602244 -1.8219595 4288085770
4.1162548 2.754606 -1.8323954 4288085770
4.8457026 3.2004523 -1.8221302 4288085770
4.0628605 2.714144 -1.8262522 4288085770
6.4686246 4.1906233 -1.758986 4288085770
4.9230967 3.2396924 -1.8212976 4288085770
4.0265579 2.6834989 -1.8271486 4288085770
8.4526577 5.3961749 -1.7266896 4288085770
5.0014806 3.2779229 -1.8204643 4288085770
3.9932652 2.653826 -1.8270503 4288085770
5.0868845 3.3180835 -1.8196425 4288085770
6.4400721 4.1348867 -1.7658391 4288085770
3.9499092 2.6172605 -1.8229268 4288085770
5.1763177 3.3612051 -1.8188314 4288085770
8.3757334 5.3029165 -1.7324111 4288085770
3.9186168 2.5875683 -1.8228307 4288085770
5.2938795 3.4180319 -1.8260802 4288085770
3.8893161 2.5568557 -1.8227348 4288085770
6.3984351 4.0702877 -1.7686595 4288085770
5.383266 3.4561577 -1.8232588 4288085770
8.307848 5.2135692 -1.7381507 4288085770
5.5099888 3.5279253 -1.8165483 4288085770
5.4305081 3.4797053 -1.8173602 4288085770
5.5864425 3.5731814 -1.8127271 4288085770
5.3681197 3.4413068 -1.8232112 4288085770
5.2956605 3.39502 -1.8230348 4288085770
5.6528144 3.609545 -1.8048761 4288085770
5.7362885 3.6567314 -1.8010669 4288085770
5.2312369 3.3526471 -1.8258755 4288085770
3.8660517 2.5300798 -1.8246537 4288085770
5.4756637 3.4952557 -1.8194427 4288085770
5.8167157 3.6989503 -1.7962439 4288085770
5.150703 3.2984481 -1.8216738 4288085770
5.9041824 3.7451022 -1.7904367 4288085770
5.0802259 3.2501459 -1.8194954 4288085770
5.9996676 3.79317 -1.7866426 4288085770
5.0228148 3.2087085 -1.820346 4288085770
6.3668456 4.0105863 -1.7735012 4288085770
5.5680428 3.5323565 -1.8146225 4288085770
3.8397613 2.50034 -1.8235632 4288085770
8.2540407 5.1320791 -1.7459226 4288085770
6.0941443 3.8402526 -1.7808453 4288085770
4.9603567 3.1623249 -1.8191806 4288085770
6.2036881 3.894182 -1.777079 4288085770
4.9059467 3.1208599 -1.8190343 4288085770
5.6644316 3.5704174 -1.8098089 4288085770
3.8154802 2.4715807 -1.8224772 4288085770
6.3162417 3.9490821 -1.7733181 4288085770
4.8585558 3.0813236 -1.8199 4288085770
6.3362684 3.9518783 -1.7763461 4288085770
8.1952019 5.0476422 -1.7516825 4288085770
5.7628217 3.6084609 -1.8039974 4288085770
6.4448514 4.00982 -1.7715869 4288085770
3.7891812 2.440841 -1.8213845 4288085770
4.8131742 3.0427675 -1.8207699 4288085770
6.5634065 4.0646629 -1.7668325 4288085770
4.7738204 3.007148 -1.8236527 4288085770
5.8722391 3.6493907 -1.8002042 4288085770
3.7689013 2.4120417 -1.8203028 4288085770
6.6909904 4.122417 -1.7620941 4288085770
8.1313295 4.959259 -1.755429 4288085770
6.3006434 3.8882222 -1.7781752 4288085770
4.7274132 2.9656084 -1.8215154 4288085770
5.9826589 3.6903155 -1.794412 4288085770
6.8235755 4.1801233 -1.7563614 4288085770
3.7546573 2.3871768 -1.8222362 4288085770
4.6820154 2.9250586 -1.8193814 4288085770
6.9873199 4.2545094 -1.7566978 4288085770
6.0990953 3.7331767 -1.7906307 4288085770
8.0684566 4.8708668 -1.7591765 4288085770
6.2710557 3.8285048 -1.7810193 4288085770
4.6436357 2.8864357 -1.819259 4288085770
3.7464314 2.364248 -1.8261801 4288085770
7.1460185 4.3239512 -1.7550184 4288085770
4.6102843 2.8507609 -1.8201483 4288085770
6.2245531 3.7779505 -1.7858633 4288085770
7.3258142 4.4031816 -1.7543826 4288085770
3.7261434 2.3344536 -1.8230963 4288085770
8.0136242 4.786397 -1.7619412 4288085770
6.2635918 3.7815614 -1.7879145 4288085770
4.571898 2.8111424 -1.8180242 4288085770
6.3500009 3.8217249 -1.7810941 4288085770
7.5206556 4.4872594 -1.7557738 4288085770
3.726944 2.3144298 -1.8300564 4288085770
4.5445561 2.7764082 -1.8189224 4288085770
7.7295656 4.5782003 -1.7571948 4288085770
7.9557714 4.6999569 -1.7646985 4288085770
6.493515 3.8723168 -1.7783588 4288085770
6.2380147 3.7228038 -1.7907652 4288085770
4.5312991 2.7505271 -1.8238546 4288085770
7.956542 4.6759567 -1.7606499 4288085770
3.7116756 2.2865837 -1.8279825 4288085770
6.6330023 3.9199526 -1.7736131 4288085770
7.8798275 4.6037068 -1.7624155 4288085770
8.1613703 4.757947 -1.7570479 4288085770
4.5039406 2.7137952 -1.8237487 4288085770
6.2275138 3.6718941 -1.7956489 4288085770
3.6943798 2.255759 -1.8249002 4288085770
6.792563 3.9753821 -1.7729059 4288085770
8.3963289 4.853631 -1.7575078 4288085770
4.4826202 2.6810045 -1.8236576 4288085770
7.7918196 4.5005846 -1.7551048 4288085770
3.6871281 2.2298274 -1.8258393 4288085770
6.9531178 4.029808 -1.7691976 4288085770
6.2119842 3.618036 -1.7995212 4288085770
8.6252365 4.9433846 -1.7539487 4288085770
4.4552631 2.6442769 -1.8215517 4288085770
7.1126428 4.0812435 -1.7654822 4288085770
3.6869226 2.208822 -1.8287964 4288085770
8.8671799 5.0370083 -1.7504121 4288085770
7.7721786 4.4357576 -1.7629496 4288085770
4.4399614 2.6134217 -1.8234717 4288085770
6.2085218 3.5710549 -1.805421 4288085770
9.1181364 5.1315484 -1.7448875 4288085770
7.2721415 4.1296859 -1.7587605 4288085770
3.6826725 2.1828628 -1.8287388 4288085770
4.4326863 2.585484 -1.8274065 4288085770
7.7012663 4.342464 -1.7576786 4288085770
9.383132 5.2299471 -1.7403864 4288085770
6.204041 3.5220857 -1.8103157 4288085770
7.4527249 4.1869144 -1.7550806 4288085770
4.4153671 2.5526552 -1.8263199 4288085770
3.6854582 2.1608276 -1.8316973 4288085770
9.6541386 5.3292913 -1.7338941 4288085770
7.6635141 4.2658281 -1.7594789 4288085770
7.6694689 4.2607732 -1.7574754 4288085770
6.1975532 3.4721386 -1.8142056 4288085770
4.4111047 2.5256875 -1.8302598 4288085770
3.6852279 2.1368246 -1.8336476 4288085770
9.9341564 5.4295454 -1.727412 4288085770
7.8861856 4.3316364 -1.7578614 4288085770
7.6167297 4.1852903 -1.7572588 4288085770
4.3947787 2.4918516 -1.8281711 4288085770
10.255334 5.5463896 -1.724009 4288085770
6.1910558 3.4211946 -1.8170917 4288085770
3.6789622 2.1088917 -1.8305825 4288085770
8.0837717 4.3887019 -1.7521977 4288085770
4.3824606 2.4589741 -1.827089 4288085770
7.5970736 4.118474 -1.7610968 4288085770
10.575469 5.6582513 -1.7165943 4288085770
3.6837487 2.0868375 -1.833542 4288085770
6.1946044 3.3751471 -1.8219991 4288085770
8.31248 4.4584522 -1.7505946 4288085770
4.3781805 2.4300134 -1.8280239 4288085770
10.919678 5.7778721 -1.7112223 4288085770
7.6015396 4.0644097 -1.7689881 4288085770
3.6925454 2.0657439 -1.8365078 4288085770
8.5743284 4.5428653 -1.7540587 4288085770
6.1750321 3.3163404 -1.8208542 4288085770
4.3708811 2.3990846 -1.8279514 4288085770
11.306062 5.9150743 -1.7069333 4288085770
14.802402 7.6536574 -1.7064148 4288085770
7.5919313 4.002491 -1.7738477 4288085770
3.691287 2.0387576 -1.8354503 4288085770
8.8723106 4.6409135 -1.7615911 4288085770
11.723542 6.0619669 -1.7046988 4288085770
4.3655825 2.3681357 -1.827881 4288085770
6.1665187 3.263422 -1.8207341 4288085770
14.528978 7.4093323 -1.7116014 4288085770
9.1702566 4.7349682 -1.7661148 4288085770
3.7051024 2.0196121 -1.8394259 4288085770
12.20326 6.2332373 -1.7065836 4288085770
7.5692492 3.9327102 -1.7746763 4288085770
4.3653126 2.3401353 -1.8288223 4288085770
6.1600132 3.2114823 -1.8216182 4288085770
9.4782019 4.8289266 -1.7696495 4288085770
12.868811 6.4896383 -1.7268506 4288085770
14.334978 7.2082109 -1.7239658 4288085770
3.7088647 1.9945767 -1.8383781 4288085770
4.3620143 2.3091688 -1.8277543 4288085770
7.5726991 3.8766637 -1.7795625 4288085770
13.557388 6.7488146 -1.7461488 4288085770
6.1615458 3.1634612 -1.8235195 4288085770
9.7891216 4.9198623 -1.7701809 4288085770
3.4222698 1.832424 -1.8257242 4288085770
14.219364 7.0463042 -1.7424984 4288085770
3.7196426 1.9714653 -1.840342 4288085770
4.3657446 2.2811291 -1.8286999 4288085770
3.4694402 1.8489656 -1.8228108 4288085770
7.5751295 3.8186266 -1.7844436 4288085770
3.5356905 1.8743023 -1.8279368 4288085770
14.123316 6.9402428 -1.7441701 4288085770
3.6089582 1.9015656 -1.8350745 4288085770
10.095974 5.0038404 -1.7686932 4288085770
6.1550326 3.1105235 -1.8234017 4288085770
3.6791997 1.9258649 -1.8392028 4288085770
3.7193875 1.9444734 -1.8372859 4288085770
4.3684754 2.2531011 -1.8286448 4288085770
14.077626 6.871664 -1.7569758 4288085770
3.7414155 1.947252 -1.8393161 4288085770
7.5865989 3.7644985 -1.7903429 4288085770
14.703227 7.1295447 -1.7372024 4288085770
10.420876 5.0926423 -1.7672355 4288085770
3.8086319 1.9685876 -1.8404347 4288085770
3.7131481 1.9195362 -1.8362273 4288085770
3.7573557 1.9401052 -1.834319 4288085770
3.6629057 1.8950334 -1.8351207 4288085770
3.6176896 1.8734765 -1.8360261 4288085770
3.8146071 1.9655349 -1.8374349 4288085770
3.5664308 1.8469899 -1.8319143 4288085770
3.8628149 1.9860661 -1.8345309 4288085770
4.3711977 2.2240758 -1.8275874 4288085770
6.1475205 3.0575995 -1.821283 4288085770
3.5222087 1.8244296 -1.8298186 4288085770
3.9190598 2.0105121 -1.834644 4288085770
3.8788567 1.9908931 -1.8415588 4288085770
3.7331762 1.9223325 -1.8392553 4288085770
13.843493 6.6559606 -1.7582662 4288085770
3.4870117 1.804772 -1.8317387 4288085770
3.9702697 2.0310163 -1.8307431 4288085770
4.0295157 2.0554345 -1.8298594 4288085770
15.30517 7.3216319 -1.7282643 4288085770
3.4869552 1.8007363 -1.8487306 4288085770
3.9510922 2.0141795 -1.842687 4288085770
4.1007872 2.0827262 -1.8329948 4288085770
7.6342363 3.7279992 -1.8033189 4288085770
10.764808 5.184257 -1.7648045 4288085770
4.1640339 2.1071072 -1.8311154 4288085770
4.239326 2.1363611 -1.8332595 4288085770
4.0152745 2.0315552 -1.8387942 4288085770
4.373909 2.1940477 -1.8275282 4288085770
4.3015475 2.1577585 -1.8283726 4288085770
3.7429466 1.8982353 -1.8392161 4288085770
6.1500454 3.0085709 -1.8221833 4288085770
15.980357 7.5379963 -1.7204577 4288085770
13.376358 6.3366194 -1.7280838 4288085770
4.3748131 2.1840386 -1.8275084 4288085770
4.0884833 2.0518358 -1.8379171 4288085770
11.070542 5.2552643 -1.7552885 4288085770
4.4500709 2.2093012 -1.8256439 4288085770
7.6557331 3.67677 -1.8102353 4288085770
4.1627021 2.0731087 -1.8360436 4288085770
4.5243292 2.234576 -1.8227787 4288085770
4.3846588 2.1679392 -1.8284857 4288085770
16.733807 7.7815781 -1.7177938 4288085770
3.7456923 1.8712161 -1.8351634 4288085770
4.6045961 2.2607889 -1.8209215 4288085770
4.2318769 2.0894392 -1.8301538 4288085770
6.1495533 2.9575782 -1.8200763 4288085770
13.109138 6.1112623 -1.7203181 4288085770
11.417399 5.3388572 -1.749844 4288085770
4.6858549 2.2859945 -1.8180639 4288085770
4.3221393 2.1155431 -1.8333079 4288085770
7.6842594 3.6284714 -1.8171656 4288085770
4.7801595 2.3160653 -1.8182306 4288085770
4.4014258 2.1437662 -1.8314543 4288085770
3.7745347 1.8549162 -1.8421615 4288085770
4.4033508 2.1357496 -1.8304397 4288085770
4.8825006 2.3500526 -1.8204143 4288085770
11.771245 5.4213853 -1.7424048 4288085770
6.1490703 2.9075832 -1.8189716 4288085770
12.929346 5.9300251 -1.7217406 4288085770
4.9828157 2.3810656 -1.8195894 4288085770
4.4895797 2.1579037 -1.828581 4288085770
7.7067585 3.5772369 -1.8220834 4288085770
4.4151855 2.1186278 -1.8324174 4288085770
5.0831127 2.4100811 -1.8177605 4288085770
4.5808172 2.1810062 -1.8277299 4288085770
3.7863069 1.8308014 -1.8411249 4288085770
12.14814 5.5086837 -1.7360011 4288085770
5.1964555 2.4439642 -1.8179561 4288085770
12.780711 5.7644763 -1.7252306 4288085770
6.1485782 2.8565903 -1.816865 4288085770
4.6599936 2.1972404 -1.8208511 4288085770
5.3248539 2.4836905 -1.8221804 4288085770
4.4359517 2.0944135 -1.8363901 4288085770
7.7252398 3.524044 -1.8259927 4288085770
12.56214 5.6066117 -1.7316601 4288085770
3.8081141 1.8105794 -1.8441073 4288085770
5.4271336 2.5106928 -1.8173494 4288085770
4.7662673 2.2241886 -1.8230245 4288085770
12.680305 5.6224442 -1.7328229 4288085770
6.1541152 2.8085361 -1.8157711 4288085770
5.5334158 2.5376575 -1.8115228 4288085770
4.8715248 2.2491531 -1.8221927 4288085770
4.4466844 2.066309 -1.8353438 4288085770
7.742713 3.4698648 -1.8278989 4288085770
13.012227 5.713182 -1.7283769 4288085770
5.648725 2.5675316 -1.8067123 4288085770
3.8279028 1.7883793 -1.8460834 4288085770
4.9677367 2.2692127 -1.8183408 4288085770
12.635125 5.5038528 -1.747525 4288085770
5.7941351 2.6080937 -1.8089571 4288085770
6.1606622 2.7614739 -1.8136803 4288085770
4.4574184 2.0382061 -1.8332976 4288085770
5.0930467 2.2999694 -1.822543 4288085770
13.515463 5.8352199 -1.7291845 4288085770
7.7621851 3.4156644 -1.8308073 4288085770
5.9475632 2.6505752 -1.8122147 4288085770
3.8426743 1.7642349 -1.8450501 4288085770
5.2113128 2.3258052 -1.8217274 4288085770
6.0819106 2.6842592 -1.8084329 4288085770
12.550818 5.3716636 -1.754156 4288085770
4.4651341 2.0081379 -1.8292439 4288085770
6.1742172 2.7153385 -1.8135993 4288085770
14.050769 5.9639416 -1.7300413 4288085770
7.7977238 3.3683014 -1.8357477 4288085770
5.3345895 2.3525898 -1.8219191 4288085770
6.2664218 2.7354252 -1.8157429 4288085770
3.8715005 1.7459416 -1.8490443 4288085770
6.4248247 2.7748654 -1.8149997 4288085770
12.510671 5.2560282 -1.7668699 4288085770
5.4367852 2.3705988 -1.8140695 4288085770
4.4848847 1.9819398 -1.8302115 4288085770
6.1877837 2.6702056 -1.8125207 4288085770
14.672329 6.1187997 -1.7370474 4288085770
7.8101606 3.3101783 -1.8346404 4288085770
6.5942478 2.8161993 -1.8132726 4288085770
3.8882742 1.7217797 -1.8470131 4288085770
5.5640426 2.3953462 -1.8132615 4288085770
4.501637 1.9557757 -1.8291762 4288085770
12.462508 5.1384773 -1.7765714 4288085770
6.8088245 2.8740649 -1.8226295 4288085770
15.50462 6.3485403 -1.7634416 4288085770
6.2194123 2.6318829 -1.816476 4288085770
5.707356 2.4259307 -1.8144833 4288085770
7.8185816 3.2500994 -1.8315246 4288085770
19.165527 7.735539 -1.7353609 4288085770
3.9170814 1.7014886 -1.8500034 4288085770
6.9772115 2.9114151 -1.8178928 4288085770
5.8335872 2.4476945 -1.8106679 4288085770
4.5243878 1.9295504 -1.8291473 4288085770
16.336826 6.569293 -1.7848167 4288085770
12.416366 5.0229101 -1.7842793 4288085770
7.1696625 2.9555194 -1.8171968 4288085770
6.2389884 2.5876906 -1.8154061 4288085770
5.9979448 2.4830632 -1.8159227 4288085770
7.8520918 3.19976 -1.8344569 4288085770
3.9458885 1.6811974 -1.8529936 4288085770
19.044552 7.5366917 -1.7498121 4288085770
7.368124 3.0005674 -1.8155092 4288085770
4.5471487 1.904325 -1.8291205 4288085770
17.099632 6.7487564 -1.7930294 4288085770
12.352139 4.8985281 -1.7889493 4288085770
6.1462216 2.5096054 -1.8141418 4288085770
6.258563 2.5434978 -1.8143361 4288085770
7.6026964 3.0572457 -1.8198858 4288085770
3.9706798 1.6589522 -1.8529754 4288085770
7.8685427 3.142602 -1.8313563 4288085770
18.919594 7.338891 -1.7612612 4288085770
6.3155627 2.5429311 -1.8163978 4288085770
17.711781 6.8597436 -1.7819337 4288085770
4.5719113 1.8790823 -1.8280959 4288085770
7.8512859 3.1157863 -1.8242816 4288085770
12.300982 4.7810159 -1.7946479 4288085770
6.2941937 2.5051386 -1.817296 4288085770
6.4748487 2.5703626 -1.8156308 4288085770
8.0958328 3.1693723 -1.8256626 4288085770
7.8900108 3.0873921 -1.8292654 4288085770
3.9994693 1.6366655 -1.8539617 4288085770
18.858891 7.1674485 -1.7768363 4288085770
18.44228 7.0065494 -1.7780426 4288085770
4.6006808 1.8547955 -1.8290778 4288085770
6.6852798 2.61327 -1.8239521 4288085770
12.212712 4.6518836 -1.7932816 4288085770
8.3493872 3.2238719 -1.8260555 4288085770
6.3217888 2.4628668 -1.816239 4288085770
4.024261 1.6144223 -1.8529434 4288085770
7.9205065 3.0350914 -1.8281906 4288085770
19.217823 7.1579089 -1.7752107 4288085770
18.713894 6.9658575 -1.7822562 4288085770
4.6334496 1.8304671 -1.831064 4288085770
8.6159649 3.2802432 -1.8264666 4288085770
6.8324761 2.630837 -1.8151511 4288085770
12.035138 4.4906588 -1.7787505 4288085770
8.8835125 3.3336108 -1.8238724 4288085770
7.0438805 2.6707394 -1.8214674 4288085770
6.3534021 2.4225533 -1.8161906 4288085770
4.0500436 1.5911695 -1.8519243 4288085770
7.942976 2.9798758 -1.8241009 4288085770
4.6592026 1.8042163 -1.8290386 4288085770
18.606068 6.7809014 -1.7877517 4288085770
9.1600609 3.3868897 -1.821288 4288085770
7.2402039 2.7018032 -1.8217486 4288085770
11.92081 4.3547983 -1.7703419 4288085770
6.3759799 2.3783352 -1.8131242 4288085770
4.0798349 1.5688748 -1.8519117 4288085770
4.6899652 1.7789141 -1.8280207 4288085770
7.9784813 2.9285254 -1.8230338 4288085770
9.480731 3.452723 -1.8237784 4288085770
18.502258 6.5979033 -1.794256 4288085770
7.4244733 2.7269959 -1.8170044 4288085770
11.85667 4.2384305 -1.7680293 4288085770
9.789319 3.5096881 -1.820237 4288085770
6.4256382 2.3428352 -1.8171059 4288085770
7.6388054 2.758882 -1.8173074 4288085770
4.115643 1.5485166 -1.85391 4288085770
4.7247443 1.7555683 -1.8290113 4288085770
8.0260267 2.8810542 -1.822988 4288085770
18.220879 6.3556967 -1.7804419 4288085770
10.068788 3.5539546 -1.8096372 4288085770
11.825642 4.1337285 -1.7697778 4288085770
7.8511105 2.7877917 -1.8156016 4288085770
4.1484432 1.5271925 -1.8539027 4288085770
6.4752979 2.3073397 -1.8190876 4288085770
4.7685323 1.7331312 -1.8310138 4288085770
10.383321 3.6048687 -1.8020897 4288085770
8.0765705 2.8335557 -1.8219453 4288085770
18.027847 6.1486106 -1.7717983 4288085770
8.0934868 2.8243966 -1.8179452 4288085770
11.832747 4.0426416 -1.7755966 4288085770
10.719901 3.6605659 -1.7945766 4288085770
4.1792259 1.5038903 -1.8528892 4288085770
4.8043022 1.7087773 -1.8310037 4288085770
6.5199394 2.2698953 -1.8200598 4288085770
8.3378477 2.8589864 -1.8182868 4288085770
8.1291237 2.787035 -1.8219074 4288085770
18.034462 6.0085168 -1.7815142 4288085770
11.087539 3.7219522 -1.7891095 4288085770
11.86092 3.9583428 -1.7834529 4288085770
8.5982161 2.8944135 -1.8206477 4288085770
4.8480916 1.6863424 -1.8320061 4288085770
4.223042 1.4844511 -1.8558981 4288085770
6.5745988 2.2343504 -1.8220471 4288085770
8.1957054 2.7433743 -1.8228908 4288085770
11.485222 3.7880375 -1.7856852 4288085770
18.017029 5.8626695 -1.7871917 4288085770
8.9157286 2.9452605 -1.8311038 4288085770
11.867017 3.8662724 -1.7862687 4288085770
4.9008961 1.6658121 -1.8360226 4288085770
4.256835 1.462121 -1.8538901 4288085770
11.91495 3.8588052 -1.7833061 4288085770
6.6152143 2.1939523 -1.8200089 4288085770
8.2753334 2.7045805 -1.8258986 4288085770
18.000584 5.7158175 -1.7908686 4288085770
9.175024 2.9727108 -1.8274469 4288085770
12.384766 3.9381747 -1.7819889 4288085770
11.884161 3.7790887 -1.7911069 4288085770
4.9406691 1.6414232 -1.8340169 4288085770
4.2846012 1.436855 -1.8498693 4288085770
6.6799011 2.1613042 -1.8240132 4288085770
9.4764099 3.0097327 -1.8298566 4288085770
8.3318796 2.6570265 -1.822863 4288085770
18.04031 5.5864048 -1.7976438 4288085770
12.897627 4.0221162 -1.7827288 4288085770
11.925364 3.6976657 -1.7969841 4288085770
4.9864392 1.6169708 -1.8340178 4288085770
9.7968225 3.0495656 -1.8332928 4288085770
4.3294091 1.4164081 -1.8518773 4288085770
6.7235169 2.1208787 -1.8209783 4288085770
13.378342 4.0903926 -1.7744006 4288085770
8.4024506 2.6123302 -1.821849 4288085770
18.095116 5.4648433 -1.8044522 4288085770
10.174354 3.1018198 -1.8438183 4288085770
5.0372386 1.5954686 -1.8340302 4288085770
11.965567 3.6162548 -1.8018601 4288085770
4.3682017 1.3940288 -1.8498749 4288085770
13.939241 4.1778636 -1.7732009 4288085770
6.7911959 2.0872052 -1.8229841 4288085770
8.5151434 2.5802019 -1.8289074 4288085770
18.186985 5.3499141 -1.8123152 4288085770
10.5067 3.1345406 -1.8442531 4288085770
14.67755 4.3075552 -1.7862842 4288085770
5.1040516 1.5757983 -1.839064 4288085770
12.05591 3.5493391 -1.8118216 4288085770
4.4110031 1.3726078 -1.8488789 4288085770
6.8528571 2.0515957 -1.8229792 4288085770
8.5847006 2.5335219 -1.8248882 4288085770
10.825994 3.1614003 -1.8396614 4288085770
18.32299 5.2485433 -1.8232554 4288085770
15.482952 4.4465761 -1.803461 4288085770
5.1588411 1.5532566 -1.8390788 4288085770
4.4467869 1.3492603 -1.845871 4288085770
12.148234 3.4804034 -1.8217812 4288085770
11.169294 3.1890192 -1.8370979 4288085770
6.9285345 2.0178409 -1.8259938 4288085770
16.369488 4.5987954 -1.8217547 4288085770
8.6903467 2.4964709 -1.8279289 4288085770
18.456966 5.1441965 -1.8321873 4288085770
5.2196383 1.5316517 -1.8411022 4288085770
4.4935875 1.3277999 -1.8448794 4288085770
12.209486 3.4037874 -1.8256909 4288085770
11.524586 3.2155235 -1.8325454 4288085770
17.226837 4.7313247 -1.8289753 4288085770
6.9851713 1.9792888 -1.8219776 4288085770
8.7839575 2.4555478 -1.8269483 4288085770
18.601948 5.0397463 -1.8391314 4288085770
5.2994785 1.5148507 -1.8471565 4288085770
11.904902 3.2447746 -1.8310261 4288085770
4.5463963 1.307276 -1.8458962 4288085770
18.140236 4.8683009 -1.836267 4288085770
12.298782 3.3318877 -1.8326414 4288085770
7.0929284 1.9542055 -1.8310456 4288085770
8.9056311 2.4213369 -1.8310127 4288085770
