# .PCD v0.7 - Point Cloud Data file format
VERSION 0.7
FIELDS x y z rgb
SIZE 4 4 4 4
TYPE F F F U
COUNT 1 1 1 1
WIDTH 1123
HEIGHT 1
VIEWPOINT 0 0 0 1 0 0 0
POINTS 1123
DATA ascii
12.622481 -0.16560271 -1.8800097 4288085770
13.563412 -0.18133278 -1.8880779 4288085770
14.380322 -0.20157319 -1.8968647 4288085770
16.435204 -0.23869231 -1.8943778 4288085770
15.297235 -0.22220665 -1.9038731 4288085770
16.314144 -0.24423572 -1.9111016 4288085770
17.535032 -0.26807976 -1.9247807 4288085770
18.923916 -0.29358843 -1.9388304 4288085770
6.7978592 -0.083512798 -1.8311867 4288085770
5.8159084 -0.068630882 -1.8310266 4288085770
15.422159 -0.25167799 -1.888111 4288085770
6.6178088 -0.096800283 -1.8317698 4288085770
5.6588793 -0.080001473 -1.8256631 4288085770
14.535113 -0.26516202 -1.8821237 4288085770
6.4367623 -0.11107965 -1.8293494 4288085770
13.727077 -0.27795595 -1.8743125 4288085770
5.5158443 -0.091431379 -1.823331 4288085770
19.660372 -0.4454723 -1.9232618 4288085770
13.016035 -0.29113618 -1.8687165 4288085770
6.2597218 -0.12437357 -1.8259392 4288085770
5.4127789 -0.10503253 -1.8310847 4288085770
18.256357 -0.45290586 -1.9121345 4288085770
12.372994 -0.30358684 -1.8642722 4288085770
6.1146674 -0.137802 -1.8285998 4288085770
5.2937346 -0.1165626 -1.8328058 4288085770
17.024343 -0.46101841 -1.9003884 4288085770
11.801944 -0.31832331 -1.860985 4288085770
5.9586248 -0.15118021 -1.8262361 4288085770
5.1796889 -0.12911095 -1.8335365 4288085770
15.971321 -0.47084299 -1.8920373 4288085770
11.271905 -0.33121952 -1.8557912 4288085770
5.825573 -0.16465469 -1.8279235 4288085770
15.06528 -0.48225299 -1.8870106 4288085770
5.0606542 -0.14063561 -1.8312577 4288085770
10.815848 -0.34541631 -1.8567601 4288085770
18.943573 -0.64863682 -1.9293977 4288085770
14.233258 -0.49195179 -1.8791506 4288085770
5.6905289 -0.17811722 -1.8266065 4288085770
10.386798 -0.35971585 -1.8547889 4288085770
13.506219 -0.50406981 -1.8745205 4288085770
17.774487 -0.67599714 -1.9177655 4288085770
5.5544868 -0.19157436 -1.8242873 4288085770
10.003736 -0.3752012 -1.8559182 4288085770
12.84818 -0.51646078 -1.8700434 4288085770
9.6536779 -0.38981855 -1.8581221 4288085770
5.4384298 -0.20611715 -1.8270111 4288085770
16.736404 -0.70287704 -1.9074249 4288085770
12.252145 -0.52809697 -1.865705 4288085770
9.3066292 -0.40444094 -1.8553326 4288085770
5.3263812 -0.21967316 -1.827745 4288085770
15.841318 -0.72932523 -1.8994024 4288085770
18.85664 -0.88330132 -1.9438893 4288085770
11.734095 -0.54204559 -1.8645365 4288085770
8.9865789 -0.41917148 -1.8536029 4288085770
5.2203307 -0.23325419 -1.8294924 4288085770
11.250048 -0.55512863 -1.8634449 4288085770
15.06922 -0.75626528 -1.8956525 4288085770
17.633642 -0.89044493 -1.9291648 4288085770
8.6995249 -0.43403509 -1.8539464 4288085770
5.116282 -0.24684179 -1.8302442 4288085770
10.85597 -0.57157826 -1.8705486 4288085770
16.573641 -0.89524007 -1.9198055 4288085770
14.333145 -0.78034258 -1.8879864 4288085770
8.3964939 -0.44682628 -1.8472573 4288085770
5.0162301 -0.26144496 -1.8310035 4288085770
10.423935 -0.58486027 -1.8645723 4288085770
15.641642 -0.89854455 -1.9127322 4288085770
8.1354437 -0.46179 -1.8456584 4288085770
13.687065 -0.80477709 -1.8815199 4288085770
10.040889 -0.59834146 -1.8627045 4288085770
14.806649 -0.89923543 -1.907878 4288085770
7.89539 -0.47683811 -1.8451061 4288085770
13.10598 -0.82947266 -1.8781972 4288085770
14.016684 -0.89609784 -1.898129 4288085770
9.6838436 -0.61292404 -1.8598931 4288085770
5.0530415 -0.31059423 -1.8380216 4288085770
7.6563492 -0.49088618 -1.8415575 4288085770
5.1649904 -0.32503474 -1.8372511 4288085770
13.317703 -0.89432567 -1.8925804 4288085770
9.3478031 -0.62658834 -1.8561295 4288085770
12.605881 -0.85549402 -1.8790529 4288085770
18.744068 -1.2978275 -1.9370812 4288085770
7.4462967 -0.50605285 -1.8410717 4288085770
12.688727 -0.88983327 -1.8891907 4288085770
9.0437584 -0.64038187 -1.8544368 4288085770
19.400579 -1.4134459 -1.9573824 4288085770
12.113805 -0.87854034 -1.87493 4288085770
17.630089 -1.3013994 -1.9206038 4288085770
12.092762 -0.88446879 -1.8838755 4288085770
7.25424 -0.5212934 -1.8426257 4288085770
17.982828 -1.3628085 -1.933304 4288085770
8.7537117 -0.65522939 -1.8517739 4288085770
11.554797 -0.87833518 -1.8796902 4288085770
11.68372 -0.90283453 -1.8729434 4288085770
7.0512013 -0.53548241 -1.8381571 4288085770
16.668085 -1.3095762 -1.9074575 4288085770
16.81501 -1.3221745 -1.9207667 4288085770
11.062831 -0.87138623 -1.8776081 4288085770
8.5056572 -0.67024696 -1.8522038 4288085770
15.832155 -1.2872818 -1.9156324 4288085770
10.628853 -0.86567074 -1.878653 4288085770
6.8851366 -0.55182827 -1.8417674 4288085770
11.272641 -0.9262026 -1.8700002 4288085770
15.92202 -1.3266257 -1.9087789 4288085770
14.972272 -1.2578791 -1.9137639 4288085770
8.2506113 -0.68523288 -1.8496184 4288085770
10.232871 -0.86010832 -1.8817822 4288085770
18.984739 -1.6278043 -1.9671701 4288085770
6.7150879 -0.56715167 -1.8403704 4288085770
14.15142 -1.2246231 -1.9059871 4288085770
9.8129272 -0.8494392 -1.8758649 4288085770
10.912551 -0.95077634 -1.8701686 4288085770
15.244954 -1.3449458 -1.9082518 4288085770
8.0125704 -0.69928461 -1.8460721 4288085770
13.40256 -1.192652 -1.8983686 4288085770
9.4329767 -0.83893234 -1.8730364 4288085770
17.949753 -1.6326897 -1.9518664 4288085770
6.5610342 -0.58254105 -1.8410088 4288085770
12.738683 -1.1640209 -1.8939339 4288085770
9.0760336 -0.82751411 -1.86826 4288085770
10.594447 -0.97752005 -1.8734274 4288085770
7.7925267 -0.71341026 -1.8445656 4288085770
14.592908 -1.3603593 -1.9037843 4288085770
12.120807 -1.1355705 -1.8886015 4288085770
8.7540722 -0.81824058 -1.8685584 4288085770
6.4039907 -0.59691441 -1.8386419 4288085770
18.98719 -1.8236811 -1.8749105 4288085770
17.064745 -1.6401776 -1.9438921 4288085770
11.558928 -1.1073419 -1.8833928 4288085770
8.4391308 -0.80598986 -1.8648764 4288085770
7.6004629 -0.73065048 -1.8461171 4288085770
10.272368 -1.0002414 -1.8716826 4288085770
13.998857 -1.3770024 -1.8994436 4288085770
11.07402 -1.0844243 -1.8833481 4288085770
8.1471834 -0.79483008 -1.861244 4288085770
6.2559419 -0.61232471 -1.8372936 4288085770
10.633106 -1.0616834 -1.8854007 4288085770
7.8682399 -0.78272307 -1.8586417 4288085770
16.255739 -1.6449703 -1.9390904 4288085770
17.734375 -1.8176305 -1.8041381 4293729569
7.4074125 -0.74588412 -1.8456692 4288085770
10.183217 -1.0358979 -1.8804371 4288085770
7.6122923 -0.77070856 -1.8570905 4288085770
9.9952717 -1.0261461 -1.8740337 4288085770
13.448812 -1.392818 -1.8942021 4288085770
9.764327 -1.0112348 -1.8755413 4288085770
7.3643503 -0.75772434 -1.8545581 4288085770
6.1298804 -0.62882727 -1.8399928 4288085770
15.476772 -1.6428754 -1.9293647 4288085770
9.397418 -0.98878288 -1.8747578 4288085770
7.1254106 -0.74477452 -1.8510457 4288085770
7.2243676 -0.76015592 -1.8442446 4288085770
9.0275297 -0.96331269 -1.8689717 4288085770
6.9124599 -0.73293149 -1.8505896 4288085770
9.7141895 -1.0500293 -1.8723783 4288085770
16.983305 -1.8526189 -1.7754238 4293729569
12.972744 -1.4119327 -1.8941202 4288085770
8.6966248 -0.94100064 -1.8662679 4288085770
6.7205005 -0.72217429 -1.8521786 4288085770
6.0038271 -0.64432722 -1.8406935 4288085770
6.5265532 -0.70940655 -1.8517656 4288085770
8.3787298 -0.91773611 -1.8605942 4288085770
14.79978 -1.644192 -1.9258606 4288085770
7.056313 -0.7764883 -1.8438507 4288085770
6.3326144 -0.69663364 -1.8473529 4288085770
8.0908136 -0.89759535 -1.8589827 4288085770
6.1626639 -0.68396235 -1.8479931 4288085770
7.8258996 -0.87654597 -1.8574235 4288085770
5.9897175 -0.67127651 -1.8466269 4288085770
9.464097 -1.0750394 -1.8737906 4288085770
5.8777781 -0.65982431 -1.839394 4288085770
7.5609899 -0.85549372 -1.8538646 4288085770
12.511689 -1.4301016 -1.8900732 4288085770
5.81179 -0.65656435 -1.8402522 4288085770
7.323072 -0.83555108 -1.8523637 4288085770
16.3592 -1.8931201 -1.754984 4293729569
14.14581 -1.6405972 -1.9204146 4288085770
5.6678333 -0.64499736 -1.8419486 4288085770
7.0961537 -0.81565201 -1.8508873 4288085770
6.8862672 -0.79181004 -1.8414539 4288085770
5.5228853 -0.63242245 -1.8406441 4288085770
6.8742423 -0.79576874 -1.846422 4288085770
5.3949232 -0.62092149 -1.8443761 4288085770
5.2609773 -0.60739166 -1.8440973 4288085770
6.6773152 -0.77699113 -1.8470106 4288085770
5.1360211 -0.59589863 -1.8448355 4288085770
6.4853911 -0.75823051 -1.8456103 4288085770
5.0110788 -0.58240175 -1.8425767 4288085770
6.2934761 -0.73846745 -1.8422112 4288085770
5.7537336 -0.67432952 -1.8381003 4288085770
5.0300589 -0.58847499 -1.8416108 4288085770
6.1185513 -0.72077292 -1.8398471 4288085770
12.089642 -1.4464248 -1.8861152 4288085770
9.1910429 -1.0949481 -1.8671588 4288085770
5.1340122 -0.60288048 -1.8378221 4288085770
5.9556203 -0.70312852 -1.8395096 4288085770
5.2589459 -0.61937547 -1.8390771 4288085770
5.3828878 -0.63486409 -1.8383312 4288085770
5.806684 -0.6865409 -1.8402016 4288085770
5.6587553 -0.66895467 -1.8388971 4288085770
5.510828 -0.65136719 -1.8365927 4288085770
13.53585 -1.6351763 -1.9150689 4288085770
6.7392087 -0.80822814 -1.8431065 4288085770
15.913008 -1.9483423 -1.7479193 4293729569
17.008842 -2.0854504 -1.5831648 4293729569
5.6456752 -0.6909017 -1.8398396 4288085770
11.746547 -1.4710696 -1.8893211 4288085770
8.9719582 -1.1190792 -1.867641 4288085770
12.988879 -1.6300091 -1.9128625 4288085770
6.590157 -0.82463419 -1.8417548 4288085770
16.635593 -2.1180484 -1.6402926 4293729569
15.505811 -2.0037212 -1.7429409 4293729569
5.5266385 -0.70542252 -1.835557 4288085770
12.457926 -1.6219022 -1.9086957 4288085770
11.383486 -1.4906272 -1.8864895 4288085770
8.7478867 -1.1411868 -1.8651147 4288085770
16.297342 -2.1507859 -1.698498 4293729569
16.929478 -2.2350039 -1.4907857 4293729569
6.4491096 -0.84007198 -1.840422 4288085770
11.950987 -1.6108894 -1.9035865 4288085770
5.4305773 -0.72204345 -1.8383229 4288085770
15.157598 -2.062336 -1.7400889 4293729569
15.81123 -2.1579158 -1.7384098 4293729569
11.067406 -1.5133747 -1.8867582 4288085770
6.3090663 -0.85551083 -1.8370917 4288085770
8.549798 -1.1664009 -1.8656422 4288085770
16.609169 -2.2987742 -1.5209887 4293729569
16.755962 -2.3198221 -1.1252846 4293729569
16.79459 -2.335948 -0.36134598 4293729569
16.77084 -2.3349192 -1.1542971 4293729569
11.48505 -1.5990387 -1.8985691 4288085770
16.796776 -2.3454275 -0.7123391 4293729569
16.813667 -2.3555355 -0.74336296 4293729569
5.339519 -0.73868293 -1.8400995 4288085770
15.276191 -2.1528382 -1.7682297 4293729569
6.1890097 -0.87203425 -1.8378042 4288085770
16.761435 -2.3917785 -0.33519655 4293729569
14.91632 -2.132386 -1.7464589 4293729569
10.776319 -1.5372225 -1.8880807 4288085770
8.3427343 -1.1875728 -1.861155 4288085770
11.10605 -1.596548 -1.905732 4282675967
16.586643 -2.4027586 -1.5797977 4293729569
14.639269 -2.1263375 -1.7818526 4293729569
16.732515 -2.436723 -1.125074 4293729569
16.727278 -2.4386241 -0.32305717 4293729569
5.2484622 -0.75532091 -1.8408766 4288085770
16.743336 -2.4478512 -1.189083 4293729569
16.751175 -2.4523594 -0.80009305 4293729569
16.722319 -2.4561493 -0.72902364 4293729569
6.0739541 -0.8885774 -1.8385277 4288085770
10.677127 -1.5818425 -1.8998009 4288085770
10.511235 -1.560173 -1.8894621 4288085770
8.1886292 -1.2149665 -1.8657773 4288085770
13.836527 -2.0691447 -1.7681493 4293729569
16.756979 -2.5107539 -0.33502522 4293729569
14.82892 -2.2250655 -1.7691396 4293729569
16.595098 -2.5088713 -1.6426727 4293729569
5.161407 -0.77197462 -1.8416622 4288085770
16.751926 -2.5546625 -0.28395417 4293729569
16.792614 -2.5626016 -0.8630355 4293729569
16.798008 -2.5669808 -1.1290424 4293729569
10.290193 -1.5683073 -1.8969612 4288085770
16.832741 -2.5792534 -1.230103 4293729569
5.9609008 -0.90512705 -1.8382558 4288085770
13.1907 -2.0275872 -1.7657729 4293729569
16.77878 -2.5833981 -0.75297618 4293729569
10.245163 -1.5821157 -1.8878428 4288085770
8.0185547 -1.2372888 -1.8643707 4288085770
14.45279 -2.2685556 -1.7552463 4293729569
9.9162674 -1.5538207 -1.8921518 4288085770
16.358759 -2.5759854 -1.6820574 4293729569
5.0693603 -0.78760594 -1.8404382 4288085770
12.554896 -1.982064 -1.7594243 4293729569
5.8558412 -0.92270958 -1.8390002 4288085770
10.006079 -1.6061677 -1.8882805 4288085770
9.5603456 -1.5384055 -1.8873838 4288085770
7.8494811 -1.2606137 -1.8619652 4288085770
11.964091 -1.9377178 -1.7521741 4293729569
16.065474 -2.6318691 -1.7173308 4293729569
14.175592 -2.3254473 -1.7495543 4293729569
5.7567821 -0.94031578 -1.839758 4288085770
9.2184362 -1.5200447 -1.8816508 4288085770
11.461238 -1.9017284 -1.7521079 4293729569
9.7600145 -1.6271867 -1.884707 4288085770
7.6934094 -1.2829901 -1.8595896 4288085770
8.9224873 -1.5078747 -1.8830113 4288085770
15.694276 -2.6694331 -1.7434562 4293729569
11.032338 -1.8740395 -1.7581944 4293729569
5.6547346 -0.95590764 -1.8385117 4288085770
13.940372 -2.3855095 -1.746951 4293729569
9.5439358 -1.6503284 -1.884197 4288085770
8.6355505 -1.4937381 -1.8823946 4288085770
10.59947 -1.8413286 -1.7592789 4293729569
7.5413356 -1.3063821 -1.8572217 4288085770
15.229195 -2.6846087 -1.7564038 4293729569
5.5596843 -0.97252697 -1.8372797 4288085770
8.3586254 -1.4776381 -1.8798029 4288085770
10.271523 -1.8220472 -1.771578 4293729569
13.756123 -2.4517784 -1.7484525 4293729569
9.3258696 -1.6724579 -1.880684 4288085770
7.4162383 -1.3328875 -1.8599094 4288085770
8.0917006 -1.461578 -1.8772333 4288085770
9.9715624 -1.8058794 -1.7859352 4293729569
14.816099 -2.7019951 -1.773464 4293729569
5.4686279 -0.99016339 -1.8370552 4288085770
7.828793 -1.4425298 -1.8716766 4288085770
9.7515287 -1.8010436 -1.8124541 4288085770
13.613832 -2.5262182 -1.7540357 4293729569
9.139781 -1.6977196 -1.881238 4288085770
7.2891531 -1.3573823 -1.8605956 4288085770
14.276152 -2.6908576 -1.7732813 4293729569
5.3795767 -1.0068064 -1.8358364 4288085770
7.5718918 -1.4225041 -1.8651344 4288085770
9.5924387 -1.8054609 -1.8480958 4288085770
9.4223719 -1.8058295 -1.8797185 4288085770
7.3699346 -1.4107105 -1.8697032 4288085770
13.379666 -2.5772753 -1.7444471 4293729569
8.9756708 -1.7270706 -1.883835 4288085770
7.1580811 -1.380856 -1.8572741 4288085770
5.3075094 -1.0255221 -1.8386526 4288085770
13.666309 -2.6594291 -1.7619712 4293729569
9.1873951 -1.7919217 -1.8962168 4282675967
7.1520123 -1.3938442 -1.8672433 4288085770
8.8515596 -1.7555841 -1.8895217 4288085770
6.9410896 -1.3770059 -1.8647991 4288085770
8.8105841 -1.7524149 -1.8844352 4288085770
13.207436 -2.6405861 -1.7419791 4293729569
7.0499902 -1.4064275 -1.8590008 4288085770
13.073492 -2.6230643 -1.7477057 4293729569
5.2334447 -1.0442283 -1.8404644 4288085770
8.59764 -1.7325881 -1.8959903 4282675967
6.7481623 -1.3602413 -1.8643947 4288085770
8.3017893 -1.6984115 -1.891381 4282675967
6.565227 -1.3455163 -1.8640096 4288085770
8.6814547 -1.7849097 -1.8911055 4282675967
6.9309158 -1.4299498 -1.856706 4288085770
5.1583886 -1.061928 -1.8402754 4288085770
13.059191 -2.7069931 -1.7405601 4293729569
8.0059557 -1.6622298 -1.8827744 4288085770
6.3813076 -1.327785 -1.8616264 4288085770
7.7321076 -1.6281375 -1.8762139 4288085770
6.1924062 -1.3070298 -1.8562362 4288085770
10.468601 -2.2224476 -1.5094734 4293729569
8.4984064 -1.8041726 -1.8836743 4288085770
5.0863361 -1.0786397 -1.8400943 4288085770
6.8378115 -1.4585817 -1.8594618 4288085770
7.4772525 -1.5961205 -1.8696928 4288085770
10.349857 -2.2188311 -1.4012147 4293729569
6.0484467 -1.2954659 -1.8609334 4288085770
7.2593627 -1.5692579 -1.8692466 4288085770
5.8775411 -1.2757821 -1.8555816 4288085770
10.349809 -2.2521715 -0.91416788 4293729569
10.402318 -2.2660346 -0.65926462 4293729569
10.246513 -2.2365928 -1.528962 4293729569
10.346524 -2.259316 -1.0311514 4293729569
10.42328 -2.2761168 -0.65929747 4293729569
7.0344944 -1.5393622 -1.864789 4288085770
8.275423 -1.813264 -1.8661683 4288085770
5.0172796 -1.0963631 -1.8399185 4288085770
10.467294 -2.2986164 -0.16036294 4293729569
5.7286148 -1.2591907 -1.8542745 4288085770
6.7397227 -1.4841912 -1.8602105 4288085770
6.8276138 -1.5115403 -1.8623685 4288085770
10.252655 -2.2744417 -1.400924 4293729569
10.379267 -2.3122537 -0.15114938 4293729569
5.5786929 -1.241594 -1.8519667 4288085770
10.269279 -2.3010631 -1.0729238 4293729569
6.6467071 -1.4878268 -1.8640002 4288085770
10.145295 -2.2742383 -1.5656869 4293729569
10.268582 -2.3108516 -0.91890848 4293729569
10.303156 -2.3206141 -0.64197099 4293729569
10.294068 -2.3226266 -0.67794824 4293729569
5.438766 -1.2250381 -1.8506795 4288085770
8.0195017 -1.812212 -1.838603 4288085770
6.4588237 -1.4610789 -1.8606204 4288085770
10.347072 -2.3451681 -0.18403354 4293729569
6.6446366 -1.509811 -1.8599662 4288085770
5.3158207 -1.2115533 -1.8524257 4288085770
6.2779341 -1.43536 -1.8582547 4288085770
10.218386 -2.3433092 -1.4067549 4293729569
10.232994 -2.3499787 -1.1197773 4293729569
10.010129 -2.3017435 -1.5973505 4293729569
10.32506 -2.3760159 -0.13794282 4293729569
5.18889 -1.1950506 -1.8521672 4288085770
6.1020522 -1.4086584 -1.8539014 4288085770
10.243303 -2.3817554 -0.92575645 4293729569
10.267938 -2.38745 -0.62780237 4293729569
10.260768 -2.3885229 -0.70278519 4293729569
7.7815652 -1.8132336 -1.8130748 4288085770
5.0709496 -1.1805844 -1.8529259 4288085770
5.9401565 -1.3840159 -1.8525764 4288085770
10.310774 -2.4100537 -0.20986529 4293729569
6.5605383 -1.5374773 -1.8617432 4288085770
5.7972417 -1.3624514 -1.8532892 4288085770
10.223672 -2.4060068 -1.1706808 4293729569
9.8949432 -2.3323314 -1.6320539 4293729569
10.201097 -2.4162459 -1.4146177 4293729569
5.6483412 -1.3388606 -1.8519917 4288085770
10.307819 -2.4489229 -0.12380575 4293729569
5.5034475 -1.3142829 -1.8487042 4288085770
10.262693 -2.4614046 -0.61369038 4293729569
7.5566349 -1.8133067 -1.7875769 4288085770
10.255436 -2.4615343 -0.73067456 4293729569
10.249988 -2.460788 -0.93466413 4293729569
5.3685446 -1.2917464 -1.846436 4288085770
10.222342 -2.4630687 -1.2236006 4293729569
10.30345 -2.4810555 -0.23675282 4293729569
9.7358198 -2.3507371 -1.6596763 4293729569
6.4734521 -1.5631287 -1.8615165 4288085770
5.2436323 -1.2702518 -1.8461887 4288085770
5.1327019 -1.2518167 -1.8489683 4288085770
10.208784 -2.4942846 -1.424529 4293729569
10.357521 -2.5370929 -0.10879619 4293729569
5.013793 -1.2303432 -1.8467342 4288085770
10.24798 -2.5262434 -1.2805719 4293729569
9.5367689 -2.3559725 -1.6782284 4293729569
10.268441 -2.5374029 -0.59959996 4293729569
7.3656611 -1.8205233 -1.7691445 4293729569
10.319024 -2.5508244 -0.76369429 4293729569
10.337582 -2.5591488 -0.94972479 4293729569
10.377039 -2.572381 -0.26679209 4293729569
6.4033422 -1.5928527 -1.8653219 4288085770
10.288375 -2.5916193 -1.4435732 4293729569
10.326553 -2.6016359 -1.344644 4293729569
9.2947807 -2.3490286 -1.6897019 4293729569
7.2116494 -1.833894 -1.756786 4293729569
6.3272457 -1.620549 -1.8661165 4288085770
12.826976 -3.3020244 -1.7292342 4293729569
9.0977497 -2.3502698 -1.7062638 4293729569
12.168591 -3.1583934 -1.7069701 4293729569
7.0985842 -1.8564374 -1.7525055 4293729569
12.225366 -3.2116289 -1.7170234 4293729569
6.261138 -1.6502874 -1.8689306 4288085770
8.8967438 -2.3464921 -1.7208239 4293729569
12.141264 -3.2432854 -1.7107937 4293729569
11.652754 -3.1223466 -1.7038757 4293729569
7.0005031 -1.8820428 -1.7502543 4293729569
8.6348333 -2.3244579 -1.7232736 4293729569
6.1820602 -1.674968 -1.8667229 4288085770
11.104143 -3.0331583 -1.6897811 4293729569
8.4348488 -2.3166807 -1.7348416 4293729569
12.125923 -3.3322229 -1.7136382 4293729569
6.9203968 -1.9117243 -1.7520373 4293729569
10.686381 -2.9745059 -1.6899352 4293729569
6.1269469 -1.70575 -1.86956 4288085770
8.2099171 -2.2987964 -1.7403679 4293729569
12.098599 -3.4181111 -1.7144603 4293729569
10.208739 -2.8935964 -1.6749868 4293729569
6.7943759 -1.9272072 -1.7407377 4293729569
8.0399122 -2.294142 -1.754998 4293729569
6.0698357 -1.7365241 -1.8723928 4288085770
9.8549423 -2.842201 -1.6782728 4293729569
12.099242 -3.511112 -1.7173344 4293729569
7.8509498 -2.2814062 -1.7645972 4293729569
6.7043004 -1.9518429 -1.7375054 4293729569
9.5910368 -2.8131745 -1.6917279 4293729569
6.0027528 -1.7622533 -1.8712101 4288085770
7.650023 -2.2626164 -1.7691778 4288085770
12.106876 -3.606142 -1.7212212 4293729569
9.3550978 -2.790262 -1.7082363 4293729569
6.6362009 -1.9805708 -1.7383163 4293729569
7.4011908 -2.2266204 -1.7616761 4293729569
5.941659 -1.7900076 -1.871038 4288085770
9.071249 -2.7501473 -1.7146623 4293729569
12.127491 -3.7062218 -1.7241298 4293729569
6.5710969 -2.0103104 -1.7391324 4293729569
7.183321 -2.1977534 -1.7582332 4293729569
8.7664652 -2.6989379 -1.712057 4293729569
5.8596115 -1.8106683 -1.8628291 4288085770
6.9365187 -2.1567585 -1.7457428 4293729569
8.539566 -2.6690547 -1.7235955 4293729569
12.148108 -3.8063023 -1.7270383 4293729569
6.5029974 -2.0400357 -1.737942 4293729569
6.7596064 -2.1350613 -1.748381 4293729569
5.71769 -1.8100656 -1.8345165 4288085770
8.3016996 -2.6331224 -1.7301177 4293729569
6.5707302 -2.1073101 -1.7460009 4293729569
6.4199409 -2.0616949 -1.7317293 4293729569
12.1817 -3.9124334 -1.7299672 4293729569
8.104784 -2.607358 -1.741717 4293729569
5.5767679 -1.809468 -1.8072063 4288085770
6.3688898 -2.073499 -1.7376006 4293729569
7.9498057 -2.5927706 -1.7613938 4293729569
6.3778043 -2.0975308 -1.7365878 4293729569
12.213296 -4.0185537 -1.7308916 4293729569
6.1880245 -2.0437763 -1.733241 4293729569
7.7758727 -2.5700996 -1.7750397 4288085770
5.4518328 -1.8109362 -1.7819285 4288085770
6.0431027 -2.0242069 -1.7369473 4293729569
7.5190983 -2.5180752 -1.7685423 4288085770
6.3137174 -2.1252694 -1.7334089 4293729569
7.2912917 -2.4721701 -1.7661006 4288085770
5.8951974 -2.001622 -1.737651 4293729569
5.3328857 -1.814431 -1.7586614 4293729569
7.0435324 -2.4181769 -1.7566261 4293729569
5.7532873 -1.9800613 -1.7393668 4293729569
6.2666001 -2.1580815 -1.7352606 4293729569
6.8077722 -2.3652287 -1.7451766 4293729569
5.2658458 -1.8331507 -1.7504884 4293729569
5.5834484 -1.9463761 -1.7300372 4293729569
6.6159382 -2.3254673 -1.7438062 4293729569
6.2065125 -2.1858356 -1.7320905 4293729569
5.4625154 -1.9289031 -1.7347939 4293729569
6.4261193 -2.2837102 -1.7394433 4293729569
5.2197647 -1.8589617 -1.7483523 4293729569
5.3385992 -1.9084139 -1.7365481 4293729569
6.2193446 -2.2338781 -1.7290539 4293729569
6.1364503 -2.2095449 -1.7249037 4293729569
5.2286654 -1.8909843 -1.741329 4293729569
6.0564938 -2.1982315 -1.7277423 4293729569
5.1756854 -1.8847793 -1.7452205 4293729569
5.1317101 -1.877609 -1.7481334 4293729569
5.8826747 -2.1575351 -1.7214134 4293729569
6.0893507 -2.2393532 -1.7237595 4293729569
5.019794 -1.8571675 -1.7499139 4293729569
5.7507844 -2.1290178 -1.725161 4293729569
5.0886984 -1.8944098 -1.7290158 4293729569
4.9158711 -1.8377593 -1.7527109 4293729569
5.6169028 -2.0994904 -1.7269052 4293729569
6.0492411 -2.2711906 -1.7236278 4293729569
5.4560909 -2.0578423 -1.7186065 4293729569
4.8159447 -1.8193666 -1.7555153 4293729569
5.0226769 -1.9101298 -1.7178491 4293729569
5.3112526 -2.0212619 -1.7133361 4293729569
4.7369766 -1.8080651 -1.7643566 4293729569
6.0061336 -2.3030145 -1.7224897 4293729569
5.1524534 -1.9776182 -1.7020448 4293729569
4.6829591 -1.804873 -1.781242 4288085770
5.0295906 -1.9461277 -1.6988162 4293729569
4.9646392 -1.928884 -1.7086962 4293729569
4.9486361 -1.9298215 -1.7096597 4293729569
5.9710217 -2.3358703 -1.7213677 4293729569
4.8726773 -1.914535 -1.7205129 4293729569
4.8186741 -1.9073434 -1.7374035 4293729569
4.9096041 -1.9466503 -1.699551 4293729569
4.7357421 -1.8880229 -1.7432469 4293729569
5.9209371 -2.363663 -1.7172196 4293729569
4.6418424 -1.8626535 -1.745074 4293729569
4.5529399 -1.8383026 -1.745911 4293729569
4.8455925 -1.9603771 -1.6873916 4293729569
5.8758521 -2.391475 -1.7130826 4293729569
4.7825832 -1.9741062 -1.6742345 4293729569
5.8447366 -2.4253466 -1.7119679 4293729569
9.6194611 -4.0152669 -1.7341449 4293729569
4.7465138 -1.9979542 -1.6701231 4293729569
5.802649 -2.4541693 -1.7068361 4293729569
9.3516712 -3.9622133 -1.7386246 4288085770
4.7244148 -2.0268629 -1.6700357 4293729569
5.8034682 -2.5001781 -1.7137755 4293729569
9.0619459 -3.8960631 -1.7360739 4293729569
4.6893482 -2.0507131 -1.6649264 4293729569
8.8121576 -3.8430791 -1.7395934 4288085770
5.77037 -2.5310376 -1.7096606 4293729569
8.5284548 -3.7729499 -1.7350614 4293729569
4.6313424 -2.0634623 -1.6517816 4293729569
5.750247 -2.5669529 -1.7085674 4293729569
8.2826929 -3.7149768 -1.7345968 4293729569
4.5733476 -2.074209 -1.6366395 4293729569
5.7201443 -2.5988243 -1.7044578 4293729569
8.0588999 -3.6640925 -1.7361714 4293729569
4.4874253 -2.0718331 -1.6124536 4293729569
7.8251462 -3.6051652 -1.7347349 4293729569
5.704011 -2.6367567 -1.7043707 4293729569
7.6103678 -3.5513146 -1.7343334 4293729569
4.4324255 -2.0835927 -1.5983168 4293729569
5.7098293 -2.6837823 -1.7093196 4293729569
7.405582 -3.4995029 -1.7339514 4293729569
4.4063606 -2.1064792 -1.5932286 4293729569
5.692709 -2.719707 -1.7062329 4293729569
7.1998105 -3.4446867 -1.7325717 4293729569
4.3613482 -2.120281 -1.5811111 4293729569
7.0010467 -3.388895 -1.7292085 4293729569
5.6935434 -2.7637103 -1.7091749 4293729569
6.8202486 -3.3401785 -1.7288756 4293729569
4.3203282 -2.1351001 -1.5700009 4293729569
5.6484985 -2.7855122 -1.6970457 4293729569
6.6394606 -3.2894607 -1.7275455 4293729569
4.305244 -2.1620324 -1.5669316 4293729569
5.6702847 -2.8396039 -1.7040201 4293729569
6.4556942 -3.2347276 -1.7232144 4293729569
7.9626975 -3.9906914 -1.7385087 4288085770
6.2918968 -3.1860771 -1.7219191 4293729569
7.7380037 -3.9148021 -1.7381159 4288085770
5.6711297 -2.8826034 -1.7039634 4293729569
4.2811856 -2.1839261 -1.5608492 4293729569
7.5203085 -3.8399394 -1.7367371 4288085770
6.1440744 -3.1434913 -1.7216508 4293729569
5.6809483 -2.9306424 -1.7069194 4293729569
4.2371879 -2.1947289 -1.546738 4293729569
7.3215809 -3.7721541 -1.7373909 4288085770
6.0012445 -3.1019263 -1.7223924 4293729569
7.1108999 -3.6953154 -1.7330304 4293729569
5.8524408 -3.0553341 -1.7201275 4293729569
5.7177052 -2.9907968 -1.7159184 4293729569
4.2131352 -2.2156208 -1.5396568 4293729569
6.9231758 -3.6275713 -1.7317085 4293729569
5.6916838 -2.9996877 -1.7128488 4293729569
6.7264862 -3.5537848 -1.7253749 4293729569
4.3741798 -2.3269601 -1.3258599 4293729569
4.1910872 -2.2355196 -1.5315815 4293729569
4.3062692 -2.2967103 -1.3397516 4293729569
4.3944302 -2.3488319 -1.1748744 4293729569
4.2602577 -2.2935472 -1.3546548 4293729569
4.3145208 -2.323524 -1.1817331 4293729569
4.2663651 -2.3014858 -1.2926573 4293729569
4.1730251 -2.2584364 -1.5255111 4293729569
4.2775025 -2.3203995 -1.198656 4293729569
4.2342 -2.298471 -1.3755909 4293729569
4.2454782 -2.3182962 -1.2165885 4293729569
4.2323542 -2.3143318 -1.2805651 4293729569
4.2021613 -2.3003674 -1.393518 4293729569
4.1569552 -2.2823625 -1.5204434 4293729569
4.2254257 -2.321244 -1.2375405 4293729569
4.1771059 -2.3052936 -1.4134564 4293729569
4.2063699 -2.3251963 -1.2584933 4293729569
4.1993494 -2.325182 -1.2684779 4293729569
4.1590347 -2.312252 -1.4364074 4293729569
4.1913066 -2.3301654 -1.2804536 4293729569
4.3229032 -2.4005158 -0.42864493 4293729569
4.1359138 -2.3012638 -1.5113716 4293729569
4.1782441 -2.3351426 -1.3024182 4293729569
4.2948842 -2.3984244 -0.44358623 4293729569
4.1309929 -2.3141656 -1.4553434 4293729569
4.176321 -2.341074 -1.2584058 4293729569
4.1582036 -2.3360884 -1.3213731 4293729569
4.2913232 -2.4081137 -0.22856456 4293729569
4.2579775 -2.3952298 -0.4095093 4293729569
4.100915 -2.312103 -1.4972801 4293729569
4.1089401 -2.3181043 -1.4752895 4293729569
4.1511283 -2.3430922 -1.345348 4293729569
4.2428632 -2.398236 -0.45847222 4293729569
4.1400709 -2.3470764 -1.3663185 4293729569
4.1602726 -2.360996 -1.2503437 4293729569
4.2484655 -2.4078591 -0.16847055 4293729569
4.0908751 -2.3240616 -1.497242 4293729569
4.2363119 -2.4049153 -0.24444808 4293729569
4.135994 -2.3540919 -1.3903 4293729569
4.2249823 -2.406074 -0.39342213 4293729569
4.0848641 -2.3320267 -1.4902179 4293729569
4.0708251 -2.3270082 -1.5171939 4293729569
4.125936 -2.3580799 -1.4112726 4293729569
4.2108002 -2.4081283 -0.47438842 4293729569
4.1069121 -2.3550286 -1.429235 4293729569
4.1502094 -2.3839436 -1.2432905 4293729569
4.2052493 -2.4138129 -0.26136786 4293729569
4.2114739 -2.4176877 -0.15237591 4293729569
4.0908837 -2.3529899 -1.4472028 4293729569
4.0318313 -2.3198707 -1.5301181 4293729569
4.0848255 -2.3559954 -1.4691855 4293729569
3.815074 -2.2061446 -1.6247962 4293729569
4.201961 -2.4229589 -0.37834859 4293729569
4.0708003 -2.3529642 -1.4871588 4293729569
4.0807796 -2.3590021 -1.4861726 4293729569
3.9968319 -2.3127518 -1.5450509 4293729569
3.8489852 -2.2302754 -1.622838 4293729569
4.0587687 -2.3509424 -1.5061352 4293729569
4.1966968 -2.427094 -0.49233183 4293729569
3.8739333 -2.2483625 -1.6148683 4293729569
4.0397649 -2.3438873 -1.5211029 4293729569
3.8929019 -2.262423 -1.6048908 4293729569
4.0147815 -2.3328066 -1.5340632 4293729569
4.1401553 -2.4048905 -1.23524 4293729569
4.186161 -2.4287586 -0.27930573 4293729569
3.9188533 -2.2795143 -1.5969249 4293729569
3.9927936 -2.3227375 -1.5470284 4293729569
3.9628367 -2.305634 -1.557986 4293729569
3.9608445 -2.3046234 -1.5559831 4293729569
3.9288568 -2.2865343 -1.5829372 4293729569
3.9458461 -2.2965837 -1.5699608 4293729569
4.1854639 -2.4315608 -0.13729994 4293729569
4.1849341 -2.4408677 -0.36328688 4293729569
3.9398117 -2.3035653 -1.5749382 4293729569
4.0747042 -2.3839679 -1.4811254 4293729569
4.1795979 -2.4450476 -0.51026994 4293729569
3.9207749 -2.3035152 -1.5938966 4293729569
4.1700697 -2.4447169 -0.29724884 4293729569
4.135088 -2.4288573 -1.2281965 4293729569
4.1664376 -2.449461 -0.12223387 4293729569
3.8957629 -2.2994361 -1.6088474 4293729569
4.1699014 -2.4607844 -0.34822688 4293729569
4.0805984 -2.4149857 -1.4790965 4293729569
3.8667698 -2.2913384 -1.6217947 4293729569
4.1635003 -2.462007 -0.52921164 4293729569
4.1489897 -2.4576554 -0.31518507 4293729569
4.1290274 -2.4508209 -1.2211534 4293729569
3.8228264 -2.2741735 -1.6287216 4293729569
4.1504083 -2.4683735 -0.10717297 4293729569
3.7918448 -2.2640657 -1.6396673 4293729569
4.1578627 -2.4817126 -0.33317202 4293729569
4.0854955 -2.444999 -1.4770665 4293729569
4.1583753 -2.4860096 -0.54816794 4293729569
4.1478662 -2.4806743 -0.33415145 4293729569
4.1259584 -2.4747965 -1.2141142 4293729569
4.1403699 -2.4893103 -0.092122495 4293729569
4.1528125 -2.5056691 -0.31812841 4293729569
4.155251 -2.509022 -0.56813002 4293729569
4.1437454 -2.5026827 -0.35411263 4293729569
4.0963759 -2.4790378 -1.4760442 4293729569
4.1428361 -2.5098574 -1.2121035 4293729569
4.1333218 -2.5132568 -0.076074488 4293729569
4.1416273 -2.5246971 -0.3730782 4293729569
4.1571126 -2.5350552 -0.58909881 4293729569
4.1467657 -2.5286214 -0.30308393 4293729569
4.1162319 -2.5171158 -1.4780362 4293729569
4.152739 -2.5398872 -1.2070847 4293729569
4.1192946 -2.5311775 -0.061019324 4293729569
4.1365194 -2.5437005 -0.39204124 4293729569
4.1619635 -2.5631018 -0.61107141 4293729569
4.1536913 -2.5586247 -0.28805837 4293729569
4.2204709 -2.6041667 -1.2181461 4293729569
4.3843131 -2.7062876 -1.5633684 4293729569
4.1603355 -2.5798237 -0.41504455 4293729569
4.1232305 -2.5591681 -0.044989917 4293729569
4.1977382 -2.6082759 -0.63708878 4293729569
4.1586242 -2.5866206 -0.27303112 4293729569
6.1276774 -3.7973855 -1.7287159 4293729569
4.8059015 -2.9921348 -1.6999065 4293729569
4.2539687 -2.6592305 -0.44414243 4293729569
4.1231747 -2.5841441 -0.029955827 4293729569
6.1794319 -3.8615887 -1.7297417 4293729569
4.2134314 -2.6448174 -0.26107234 4293729569
4.8437014 -3.0432873 -1.7039198 4293729569
6.235178 -3.9278078 -1.7307733 4293729569
4.1400819 -2.6191854 -0.013945284 4293729569
4.8775096 -3.092423 -1.7079269 4293729569
6.2919235 -3.994031 -1.7318072 4288085770
4.9113312 -3.1395557 -1.7089368 4293729569
4.9471402 -3.1886985 -1.7119484 4293729569
4.985949 -3.2388511 -1.7129649 4293729569
5.0197754 -3.2849822 -1.7129761 4293729569
5.0546021 -3.3311176 -1.7129896 4293729569
5.0974121 -3.381285 -1.713015 4293729569
5.1471958 -3.4364834 -1.7160488 4293729569
5.1950011 -3.4876699 -1.7160836 4293729569
5.2457962 -3.5408702 -1.7171226 4293729569
5.3095522 -3.6021259 -1.7211787 4293729569
5.3623538 -3.6543314 -1.7202232 4293729569
5.4261222 -3.7135844 -1.7222822 4293729569
5.5028553 -3.7798927 -1.7273599 4293729569
5.5746098 -3.8421776 -1.7294322 4293729569
5.6344109 -3.8954082 -1.7264906 4293729569
5.7161469 -3.9617338 -1.7295794 4293729569
6.5011411 4.534543 -1.7636087 4288085770
6.3888521 4.4579706 -1.762246 4288085770
6.6234484 4.617075 -1.7670023 4288085770
6.7507615 4.7005892 -1.7694077 4288085770
6.2675414 4.3724403 -1.7558494 4288085770
6.1612611 4.2968493 -1.7525008 4288085770
6.8730597 4.7781281 -1.7687927 4288085770
6.0720077 4.2301855 -1.7532026 4288085770
6.9963598 4.8556652 -1.7671796 4288085770
5.9977851 4.172462 -1.7559506 4288085770
7.1196527 4.9302058 -1.7635615 4288085770
5.9305758 4.1187105 -1.7597201 4288085770
7.2329187 4.9957895 -1.7569072 4288085770
5.8834019 4.0768733 -1.7685511 4288085770
7.3862696 5.0872097 -1.75738 4288085770
5.8071694 4.0141644 -1.7672867 4288085770
7.5125532 5.1567454 -1.7497592 4288085770
5.7639956 3.9713149 -1.7751244 4288085770
7.6328182 5.2203093 -1.7401159 4288085770
5.7128086 3.9235005 -1.779937 4288085770
7.7881541 5.3047304 -1.7355804 4288085770
8.3937054 5.6974893 -1.7085011 4288085770
8.5541191 5.8038902 -1.7040138 4288085770
8.231287 5.589097 -1.7119806 4288085770
8.0889063 5.4916277 -1.7165201 4288085770
8.7175303 5.9082842 -1.6975296 4288085770
8.9140139 6.0335455 -1.6951489 4288085770
7.9655595 5.4040813 -1.724116 4288085770
5.6696315 3.8786547 -1.7857713 4288085770
7.9334607 5.3801956 -1.7280089 4288085770
9.1225157 6.1637611 -1.6928015 4288085770
7.8532367 5.3224926 -1.7317446 4288085770
7.7338948 5.2349358 -1.7363486 4288085770
9.3961515 6.3337164 -1.6986566 4288085770
8.0937958 5.4626017 -1.7214803 4288085770
5.6214461 3.8298326 -1.7885883 4288085770
7.6345906 5.1582985 -1.7440126 4288085770
9.8140993 6.597086 -1.726969 4288085770
7.535285 5.0806637 -1.7506748 4288085770
10.110774 6.7759557 -1.7318864 4288085770
8.2420979 5.5350609 -1.7109095 4288085770
5.5852761 3.7869587 -1.7954404 4288085770
7.4469986 5.0079861 -1.7573684 4288085770
10.379384 6.9329486 -1.7277085 4288085770
10.607901 7.0611067 -1.7153984 4288085770
7.3446774 4.9243674 -1.7610141 4288085770
8.4475107 5.6412873 -1.7095145 4288085770
5.5571194 3.7480521 -1.8033158 4288085770
10.862464 7.2021651 -1.704164 4288085770
7.2483711 4.8437271 -1.7636775 4288085770
8.6519175 5.744523 -1.706112 4288085770
5.5119333 3.6982214 -1.8051374 4288085770
11.105993 7.3322711 -1.689888 4288085770
7.1550694 4.7640781 -1.7653486 4288085770
11.381587 7.4792552 -1.6757069 4288085770
8.857316 5.8437586 -1.6997048 4288085770
7.043726 4.670506 -1.7619587 4288085770
5.4807744 3.6563337 -1.8090017 4288085770
11.759394 7.6888304 -1.6738435 4288085770
6.940402 4.5819044 -1.7585939 4288085770
9.0977802 5.9628534 -1.6984036 4288085770
5.4486046 3.61145 -1.8128586 4288085770
12.203333 7.9351492 -1.6761791 4288085770
6.8380809 4.4933 -1.7542311 4288085770
9.3191967 6.0670295 -1.6920375 4288085770
5.414433 3.5655756 -1.8157096 4288085770
6.7577953 4.416604 -1.7549343 4288085770
9.6107473 6.2109232 -1.6948837 4288085770
6.6825266 4.3438907 -1.7546545 4288085770
5.3812642 3.5196993 -1.8175628 4288085770
12.120643 7.7504587 -1.6806891 4288085770
9.9694262 6.392549 -1.7059327 4288085770
6.6032472 4.2671957 -1.7523596 4288085770
5.3430805 3.4688458 -1.8173971 4288085770
10.441324 6.6397195 -1.732327 4288085770
6.5429988 4.2004218 -1.7541211 4288085770
11.890837 7.538321 -1.6858507 4288085770
5.3018942 3.4160075 -1.815222 4288085770
6.4947762 4.1415997 -1.7579209 4288085770
10.807995 6.8163261 -1.7373834 4288085770
11.732187 7.3709016 -1.6982358 4288085770
5.2777343 3.3720973 -1.8170971 4288085770
6.4605751 4.0897183 -1.7647613 4288085770
11.102507 6.9422331 -1.7272041 4288085770
11.547484 7.1875887 -1.7065396 4288085770
5.2505698 3.3262007 -1.8179626 4288085770
6.4213648 4.0338612 -1.7685848 4288085770
11.414041 7.0750732 -1.7180715 4288085770
11.407887 7.0330977 -1.717986 4288085770
5.2244072 3.2803016 -1.8178303 4288085770
6.3651237 3.9670787 -1.7673544 4288085770
11.758629 7.2227869 -1.7100321 4288085770
5.2032542 3.2373824 -1.8187134 4288085770
6.34795 3.9231298 -1.7762436 4288085770
11.301355 6.8974776 -1.7325326 4288085770
12.136264 7.3843689 -1.7060844 4288085770
6.3177524 3.8702395 -1.7800907 4288085770
5.1851029 3.1954498 -1.8206043 4288085770
11.099634 6.7042432 -1.7327846 4288085770
12.459783 7.5091763 -1.6899619 4288085770
6.282548 3.8143711 -1.7819223 4288085770
5.1679521 3.1525154 -1.8214954 4288085770
12.923561 7.7094283 -1.688257 4288085770
10.744629 6.4226346 -1.7065698 4288085770
3.7818213 2.3267632 -1.8182294 4288085770
3.827919 2.353585 -1.8203702 4288085770
3.8640065 2.3744552 -1.8164803 4288085770
3.7387226 2.2999282 -1.8170948 4288085770
3.9151125 2.4032586 -1.8186347 4288085770
3.9692187 2.4320502 -1.8207953 4288085770
3.7096405 2.2800317 -1.8210011 4288085770
3.6695454 2.2541852 -1.8198743 4288085770
4.022326 2.4598496 -1.8209524 4288085770
6.2583618 3.7644584 -1.7857869 4288085770
3.6284502 2.2263484 -1.8157423 4288085770
4.0654154 2.4806938 -1.8170768 4288085770
5.1477995 3.1085958 -1.8203789 4288085770
3.6003695 2.2054517 -1.8176488 4288085770
4.1305361 2.5134425 -1.8202671 4288085770
13.433411 7.9295039 -1.6886803 4288085770
10.500854 6.209579 -1.6957016 4288085770
3.5692801 2.1815679 -1.818544 4288085770
4.1986594 2.5471778 -1.824465 4288085770
4.2557664 2.5729675 -1.8216267 4288085770
3.5381937 2.1566901 -1.8164376 4288085770
6.2361755 3.7135389 -1.7886537 4288085770
4.3148723 2.5987484 -1.8197926 4288085770
3.5091071 2.1328008 -1.816337 4288085770
5.122632 3.0596974 -1.8182436 4288085770
4.3839917 2.6294854 -1.8209875 4288085770
3.485029 2.110893 -1.8162502 4288085770
10.368295 6.0610757 -1.7001727 4288085770
4.4631257 2.6651812 -1.8242114 4288085770
3.4699612 2.0939438 -1.8201907 4288085770
6.2220016 3.6675844 -1.7945457 4288085770
4.5312405 2.6929278 -1.8223991 4288085770
3.4448786 2.0700414 -1.8190982 4288085770
5.1114922 3.0197401 -1.8191522 4288085770
4.5983515 2.7186821 -1.8185815 4288085770
10.219718 5.9056401 -1.7005991 4288085770
3.4958835 2.0887852 -1.8552357 4282675967
6.2068248 3.6196377 -1.7984321 4288085770
4.6874924 2.7563384 -1.8228294 4288085770
4.6293635 2.7205639 -1.8196485 4288085770
4.6804819 2.7493775 -1.8158031 4288085770
4.5702362 2.6867878 -1.8194691 4288085770
4.7476192 2.7861218 -1.817004 4288085770
4.5231218 2.6579614 -1.822323 4288085770
4.8127561 2.820879 -1.8151973 4288085770
4.8758855 2.8536434 -1.8133833 4288085770
4.469995 2.6241627 -1.8221557 4288085770
5.0963421 2.9758022 -1.818046 4288085770
4.9570417 2.8953331 -1.8156215 4288085770
4.4198761 2.5923526 -1.8219982 4288085770
4.7596049 2.7820735 -1.8190219 4288085770
5.0291834 2.9310639 -1.8138311 4288085770
4.3737617 2.5615277 -1.8218507 4288085770
10.110218 5.7730465 -1.706145 4288085770
5.1243548 2.9776969 -1.8181068 4288085770
4.3306494 2.5316894 -1.8227111 4288085770
6.1976581 3.574666 -1.8033359 4288085770
4.8377266 2.8107843 -1.8162316 4288085770
5.1994982 3.0124204 -1.8143208 4288085770
4.2845335 2.4998665 -1.8215618 4288085770
5.3036757 3.0610178 -1.8196182 4288085770
4.240417 2.4670379 -1.8194149 4288085770
5.0882034 2.9358337 -1.8189608 4288085770
4.9158449 2.8374991 -1.8114381 4288085770
5.3858266 3.0977142 -1.8158499 4288085770
4.2123227 2.4431384 -1.8233163 4288085770
5.4990191 3.1492798 -1.8201709 4288085770
10.021761 5.6523728 -1.7127546 4288085770
6.1935 3.5326738 -1.809255 4288085770
4.1641989 2.4073279 -1.8191562 4288085770
5.0220003 2.8790898 -1.8167275 4288085770
5.6072001 3.1968675 -1.8224746 4288085770
4.1310968 2.3784561 -1.8180389 4288085770
5.0860705 2.8978412 -1.8208914 4288085770
5.7083712 3.2394888 -1.8207556 4288085770
5.1221471 2.9157119 -1.8169961 4288085770
4.0919876 2.3466105 -1.8149042 4288085770
6.190341 3.4896793 -1.8141745 4288085770
5.8175502 3.2840803 -1.8190563 4288085770
9.9282951 5.5287194 -1.7183486 4288085770
5.2333035 2.9562871 -1.8202941 4288085770
4.0638885 2.318718 -1.814799 4288085770
5.9157124 3.321722 -1.8123225 4288085770
5.0679173 2.8519182 -1.8177755 4288085770
4.0417976 2.2947972 -1.8177125 4288085770
5.3464656 2.9978571 -1.8225979 4288085770
6.0409083 3.3722475 -1.813666 4288085770
6.1681499 3.434768 -1.8130347 4288085770
14.264027 7.8053794 -1.6921554 4288085770
9.8789167 5.4308906 -1.7290778 4288085770
4.0207086 2.269877 -1.8186269 4288085770
6.1631017 3.4197915 -1.8109984 4288085770
5.4596167 3.0354302 -1.8228947 4288085770
3.9976153 2.2439635 -1.8195353 4288085770
5.0547729 2.8079762 -1.8146733 4288085770
6.2862926 3.4663339 -1.807331 4288085770
6.1639862 3.3897798 -1.8169485 4288085770
5.5727711 3.0730054 -1.8221912 4288085770
14.058216 7.5921478 -1.6993634 4288085770
9.8225231 5.3280892 -1.7387838 4288085770
3.9755235 2.2170506 -1.818444 4288085770
6.418488 3.5148382 -1.8056854 4288085770
5.6909251 3.1105616 -1.8214983 4288085770
3.9604411 2.1941056 -1.820374 4288085770
6.5266514 3.5494521 -1.7939665 4288085770
5.0596499 2.7729552 -1.8176234 4288085770
6.1558194 3.3428097 -1.8188508 4288085770
13.880473 7.3958116 -1.7056583 4288085770
6.6558409 3.5939748 -1.7883078 4288085770
9.7551126 5.219336 -1.7454572 4288085770
5.8100777 3.1471164 -1.8198055 4288085770
3.9413481 2.1671791 -1.8202888 4288085770
6.8110633 3.6493926 -1.7867212 4288085770
5.0555201 2.7339754 -1.8165481 4288085770
3.9312701 2.1452157 -1.8222309 4288085770
5.9312329 3.183665 -1.8171166 4288085770
6.1326294 3.286906 -1.815707 4288085770
13.740802 7.220325 -1.716067 4288085770
9.7177601 5.1274633 -1.7552209 4288085770
6.9672832 3.7028105 -1.7831329 4288085770
3.9201889 2.122256 -1.8241692 4288085770
6.0543838 3.2192061 -1.81443 4288085770
5.0624003 2.6989493 -1.8185021 4288085770
7.1395249 3.7631636 -1.7815895 4288085770
6.1314697 3.24191 -1.8176271 4288085770
3.9101067 2.0982938 -1.8251076 4288085770
13.643207 7.0666723 -1.7305994 4288085770
6.1885481 3.2587035 -1.8127729 4288085770
9.6433468 5.0157428 -1.7578746 4288085770
7.2927303 3.8105998 -1.7739847 4288085770
3.9040294 2.0763152 -1.8270578 4288085770
5.0612679 2.6589582 -1.8174313 4288085770
6.3417335 3.3051243 -1.8141664 4288085770
6.122303 3.1929498 -1.8165238 4288085770
7.4789839 3.8739004 -1.7724748 4288085770
13.526592 6.9051018 -1.7390794 4288085770
9.5749454 4.9070005 -1.7605458 4288085770
3.8939495 2.0523553 -1.8269963 4288085770
6.5219483 3.3624318 -1.8216341 4288085770
7.6672325 3.9351952 -1.7699655 4288085770
5.0651441 2.6219466 -1.8173758 4288085770
6.1211429 3.1469557 -1.8174422 4288085770
3.8908768 2.0313652 -1.8289546 4288085770
7.8704991 4.0004349 -1.7664936 4288085770
13.316823 6.6969042 -1.7362882 4288085770
6.6571016 3.3959355 -1.8149682 4288085770
9.5095558 4.8012462 -1.7632284 4288085770
3.8857985 2.0073867 -1.8289033 4288085770
8.06775 4.0607014 -1.7610005 4288085770
6.1079688 3.0950139 -1.8143257 4288085770
5.0720234 2.5859222 -1.818328 4288085770
6.8202877 3.4413216 -1.8143803 4288085770
13.000908 6.4411378 -1.7161978 4288085770
9.4121246 4.6806269 -1.7588196 4288085770
8.2870293 4.1288829 -1.7565663 4288085770
3.8807197 1.9834077 -1.8288522 4288085770
6.9894724 3.4856873 -1.8128027 4288085770
6.1078115 3.0490179 -1.8142459 4288085770
5.0688968 2.5459445 -1.8142531 4288085770
8.5253277 4.2039847 -1.7561827 4288085770
3.8776426 1.9604199 -1.8298067 4288085770
12.783167 6.2369804 -1.7073975 4288085770
7.1606569 3.5300453 -1.8112288 4288085770
9.3146982 4.561008 -1.7534124 4288085770
8.7756367 4.2800479 -1.752825 4288085770
6.1166668 3.0069857 -1.8151915 4288085770
5.0767779 2.509918 -1.8142074 4288085770
3.8775721 1.9384227 -1.8297693 4288085770
7.346859 3.5793455 -1.8106943 4288085770
12.666594 6.0824208 -1.7098895 4288085770
9.0329514 4.3580832 -1.749485 4288085770
9.2292986 4.4483442 -1.748042 4288085770
3.8754973 1.9144343 -1.8287244 4288085770
7.5060172 3.6127617 -1.8020768 4288085770
6.1165118 2.9609914 -1.8141117 4288085770
5.0896616 2.4748707 -1.8151736 4288085770
9.3052759 4.4380627 -1.7461787 4288085770
12.569056 5.9387856 -1.7144395 4288085770
9.1799526 4.3525324 -1.7487745 4288085770
3.8764238 1.8914332 -1.8286872 4288085770
7.7022157 3.6610236 -1.8015606 4288085770
9.6276636 4.5388393 -1.7500106 4288085770
6.1173592 2.9149954 -1.8120339 4288085770
5.1085563 2.4437973 -1.818159 4288085770
3.8823543 1.8704097 -1.8306637 4288085770
7.9114261 3.7122386 -1.800076 4288085770
12.495564 5.8070588 -1.7190592 4288085770
9.9860916 4.6504774 -1.7559347 4288085770
9.1476326 4.2656522 -1.7525569 4288085770
6.1222105 2.8699839 -1.809966 4288085770
5.1194401 2.4077613 -1.8171194 4288085770
3.8862848 1.8483973 -1.8306342 4288085770
8.0845861 3.7446053 -1.7894851 4288085770
10.385564 4.7769527 -1.765968 4288085770
12.449121 5.6892257 -1.7267581 4288085770
9.1253328 4.1837335 -1.7563686 4288085770
6.1390743 2.8299217 -1.8109312 4288085770
8.2677488 3.7789314 -1.7809175 4288085770
10.815073 4.9123144 -1.7760777 4288085770
3.8982205 1.8293493 -1.8336265 4288085770
5.1343284 2.37271 -1.8160895 4288085770
12.411688 5.574357 -1.7344805 4288085770
9.1260614 4.1117201 -1.7642444 4288085770
11.182475 5.0129333 -1.7730002 4288085770
8.4709282 3.8181798 -1.7733995 4288085770
3.904151 1.8063312 -1.8325994 4288085770
6.1499324 2.7868857 -1.8098788 4288085770
5.1662345 2.3455842 -1.8211081 4288085770
11.53085 5.1026368 -1.7638646 4288085770
8.6861162 3.8603814 -1.7669107 4288085770
12.403302 5.4733758 -1.7442861 4288085770
3.922091 1.7892569 -1.8376073 4288085770
9.0967569 4.0268331 -1.7650365 4288085770
6.1667953 2.7458258 -1.8098422 4288085770
11.934281 5.2091265 -1.7578703 4288085770
5.1761169 2.3085539 -1.8190645 4288085770
8.9443541 3.9184093 -1.7665373 4288085770
3.92802 1.7652411 -1.8355786 4288085770
12.378896 5.3654585 -1.7520469 4288085770
9.0614481 3.9399734 -1.7638128 4288085770
3.5353329 1.5867119 -1.8434688 4288085770
12.358727 5.3195343 -1.7529252 4288085770
6.1866651 2.7067544 -1.809815 4288085770
9.2045803 3.9724336 -1.7641604 4288085770
3.5603838 1.5906465 -1.8275272 4288085770
5.1940112 2.2744932 -1.8170425 4288085770
3.9429555 1.7451837 -1.8375748 4288085770
3.6164522 1.6074352 -1.8276708 4288085770
12.37152 5.2654762 -1.7598561 4288085770
3.6815283 1.6271863 -1.8298379 4288085770
12.794175 5.4289064 -1.7450004 4288085770
9.0651903 3.8699522 -1.769698 4288085770
3.5593233 1.5686601 -1.8234875 4288085770
9.4908333 4.0353532 -1.7648519 4288085770
3.6514685 1.6063133 -1.8227408 4288085770
3.606395 1.5874822 -1.8236161 4288085770
3.7425995 1.643958 -1.8289917 4288085770
3.5142508 1.5488325 -1.8223615 4288085770
6.2075362 2.6676788 -1.8097899 4288085770
3.5372183 1.5576866 -1.8554238 4282675967
3.7125494 1.6300734 -1.8279065 4288085770
3.7706308 1.6528486 -1.8310643 4288085770
3.823709 1.6726499 -1.830207 4288085770
3.8958001 1.6993667 -1.8364003 4288085770
3.960896 1.726115 -1.8395792 4288085770
3.825686 1.6696302 -1.8372059 4288085770
5.2199087 2.2433951 -1.8190417 4288085770
3.9578824 1.7211304 -1.8375646 4288085770
4.0249696 1.7448716 -1.8407426 4288085770
13.275668 5.5520992 -1.740193 4288085770
3.8937602 1.6873738 -1.8373758 4288085770
12.384167 5.1724148 -1.7697181 4288085770
4.0830522 1.7636595 -1.8368938 4288085770
9.7850819 4.0962448 -1.7645559 4288085770
4.1451378 1.7844288 -1.8350563 4288085770
9.0639248 3.7969542 -1.7735677 4288085770
3.9778476 1.7120458 -1.84359 4288085770
4.2142258 1.8061697 -1.834235 4288085770
6.2264032 2.6266148 -1.807757 4288085770
3.9748325 1.7050653 -1.8395718 4288085770
4.2793102 1.8259295 -1.8314019 4288085770
13.799201 5.685133 -1.7354882 4288085770
4.0569296 1.7327443 -1.8457874 4288085770
5.2498131 2.2142818 -1.8210526 4288085770
4.339396 1.8437154 -1.8245554 4288085770
10.072312 4.1511693 -1.7612352 4288085770
4.4234939 1.8693945 -1.8267715 4288085770
4.1340103 1.7524539 -1.845979 4288085770
12.388809 5.0763898 -1.7765583 4288085770
9.0836878 3.7328711 -1.7804955 4288085770
4.5125942 1.896053 -1.8299992 4288085770
3.9877672 1.6830208 -1.8385609 4288085770
4.202085 1.7682047 -1.8421453 4288085770
6.2552791 2.5895073 -1.8087515 4288085770
14.355757 5.8250403 -1.7318618 4288085770
4.5886893 1.9177731 -1.826192 4288085770
5.2697043 2.179214 -1.8190327 4288085770
