# .PCD v0.7 - Point Cloud Data file format
VERSION 0.7
FIELDS x y z rgb
SIZE 4 4 4 4
TYPE F F F U
COUNT 1 1 1 1
WIDTH 1126
HEIGHT 1
VIEWPOINT 0 0 0 1 0 0 0
POINTS 1126
DATA ascii
2.2732162 1.1810943 -1.7862535 4288085770
10.198555 2.3629584 -1.805746 4288085770
4.1994553 1.4591297 -1.7939848 4288085770
3.7667694 1.3926442 -1.8031256 4288085770
8.5285645 2.0979779 -1.8138011 4288085770
2.4793167 1.1978569 -1.7894161 4288085770
5.9908447 1.7167989 -1.8150041 4288085770
4.556572 1.4935068 -1.8047533 4288085770
2.6703949 1.2105117 -1.7867382 4288085770
4.9086533 1.5238107 -1.8095993 4288085770
10.873886 2.3834245 -1.8120348 4288085770
14.877708 2.9535363 -1.7701277 4288085770
2.8724823 1.223214 -1.7849698 4288085770
3.9422226 1.3692417 -1.8029008 4288085770
6.2542725 1.6946989 -1.8130474 4288085770
5.2487183 1.550018 -1.80858 4288085770
8.8921661 2.0663261 -1.8221111 4288085770
3.1076126 1.2390772 -1.7879031 4288085770
0.51786041 0.8696959 -1.787426 4288085770
5.624794 1.5793791 -1.8102378 4288085770
11.52121 2.3907173 -1.810671 4288085770
3.3517456 1.2539626 -1.7897713 4288085770
5.968811 1.6005176 -1.8002313 4288085770
4.1566925 1.3510321 -1.8083105 4288085770
6.5457077 1.6737068 -1.8118515 4288085770
3.6158981 1.2689265 -1.7924751 4288085770
9.2647476 2.0296788 -1.8273922 4288085770
0.60727692 0.85602963 -1.7918183 4288085770
6.3918839 1.6300349 -1.8005031 4288085770
12.046478 2.3734164 -1.7925265 4288085770
3.8890457 1.283932 -1.7961049 4288085770
6.8329544 1.6585877 -1.7976359 4288085770
4.3501282 1.3276854 -1.8069379 4288085770
6.8751526 1.654876 -1.8133253 4288085770
4.165184 1.2969017 -1.7947282 4288085770
0.69566345 0.84234297 -1.7942189 4288085770
9.6283264 1.9889635 -1.8287838 4288085770
7.3400497 1.692427 -1.800181 4288085770
12.59375 2.3521655 -1.7712371 4288085770
4.4863586 1.3130934 -1.7999543 4288085770
7.9111633 1.7305188 -1.8051642 4288085770
4.5735855 1.3064809 -1.8093008 4288085770
7.2145615 1.6350539 -1.811726 4288085770
0.78503418 0.82865119 -1.7956115 4288085770
4.8035126 1.3262253 -1.8002405 4288085770
8.5763092 1.7750058 -1.8163205 4288085770
10.071915 1.9545949 -1.8364635 4288085770
13.358124 2.348861 -1.7680107 4288085770
5.1626968 1.3425499 -1.8051543 4288085770
0.87439728 0.8139503 -1.7960132 4288085770
4.8120193 1.2873306 -1.8115225 4288085770
7.6210098 1.6215426 -1.8175218 4288085770
9.2894516 1.8196429 -1.8250824 4288085770
5.5268707 1.3548552 -1.8060632 4288085770
10.006554 1.8602493 -1.8288479 4288085770
14.189507 2.3458104 -1.7662336 4288085770
10.562531 1.9214193 -1.8467479 4288085770
0.96975708 0.79927075 -1.7963657 4288085770
5.8790207 1.3640734 -1.802098 4288085770
5.0524445 1.2651689 -1.8117548 4288085770
8.0504532 1.6060927 -1.821147 4288085770
10.854706 1.9103899 -1.8394554 4288085770
6.2721939 1.3734535 -1.7997955 4288085770
15.084915 2.3389945 -1.7649664 4288085770
1.0681076 0.7856034 -1.7966844 4288085770
11.069107 1.8852555 -1.8519282 4288085770
11.632744 1.9440925 -1.8297832 4288085770
5.3388901 1.2462245 -1.8175819 4288085770
8.526886 1.5938374 -1.8273586 4288085770
6.6683578 1.3798158 -1.7944956 4288085770
12.274689 1.9561055 -1.7984188 4288085770
1.1684418 0.77093339 -1.795996 4288085770
7.1605988 1.3926166 -1.7993523 4288085770
9.0763397 1.5848758 -1.8369434 4288085770
5.6082993 1.2231481 -1.8155851 4288085770
11.520645 1.8378067 -1.8476598 4288085770
13.130699 1.986028 -1.7821419 4288085770
1.2758026 0.75629771 -1.7962497 4288085770
7.6407776 1.4003022 -1.7963529 4288085770
14.197784 2.0278027 -1.7760316 4288085770
9.6287689 1.5708793 -1.8415486 4288085770
5.903717 1.2011812 -1.8153657 4288085770
11.917107 1.780055 -1.8319343 4288085770
8.1980209 1.4103223 -1.7997023 4288085770
1.3981628 0.74274206 -1.7993712 4288085770
0.66545105 0.66911507 -1.8020319 4288085770
10.287209 1.5633124 -1.8512287 4288085770
6.2231369 1.1793181 -1.8169488 4288085770
8.8283005 1.4226443 -1.8074335 4288085770
1.5205002 0.72917879 -1.8014928 4288085770
12.305534 1.7182212 -1.8103108 4288085770
0.76377869 0.65645814 -1.8033419 4288085770
9.553627 1.4373559 -1.8203657 4288085770
10.993652 1.5549145 -1.8605233 4288085770
6.5455017 1.1564208 -1.813517 4288085770
1.6348114 0.71354139 -1.7986985 4288085770
0.87012482 0.64384711 -1.8065859 4288085770
12.89106 1.6712555 -1.8059415 4288085770
10.301941 1.4460934 -1.827163 4288085770
11.611977 1.533026 -1.8506594 4288085770
6.9249115 1.1357794 -1.8155981 4288085770
1.7751465 0.70005095 -1.8016723 4288085770
0.96942902 0.63016725 -1.8048968 4288085770
11.133255 1.4551504 -1.8362782 4288085770
13.563591 1.6246148 -1.8028575 4288085770
12.16819 1.5027834 -1.8263776 4288085770
1.9074631 0.68549633 -1.8007208 4288085770
7.3603363 1.1163715 -1.8212099 4288085770
1.0847626 0.61657906 -1.8070761 4288085770
11.863495 1.447669 -1.8263685 4288085770
2.0557938 0.6710254 -1.8026379 4288085770
12.969528 1.485586 -1.8199738 4288085770
1.1960602 0.60295093 -1.8062885 4288085770
7.76371 1.0917611 -1.8171304 4288085770
14.345154 1.5794128 -1.8048682 4288085770
12.535652 1.4298565 -1.8030261 4288085770
2.2020798 0.65651238 -1.8005718 4288085770
1.3073425 0.5893147 -1.8045008 4288085770
13.933891 1.4750365 -1.820176 4288085770
8.3311844 1.0748923 -1.8296391 4288085770
13.459946 1.421113 -1.7975395 4288085770
15.21772 1.5335326 -1.8061402 4288085770
2.3653946 0.64208651 -1.8013657 4288085770
1.4306412 0.57572937 -1.8036146 4288085770
3.7492142 0.7311312 -1.8072377 4288085770
4.0281677 0.74914289 -1.8077921 4288085770
3.4622269 0.7110455 -1.8017671 4288085770
4.3271103 0.76821589 -1.8071736 4288085770
3.2263107 0.69421196 -1.8038498 4288085770
4.6410522 0.78733194 -1.8054316 4288085770
2.9903793 0.67534947 -1.8029509 4288085770
4.993042 0.80761802 -1.807368 4288085770
2.7704391 0.65854478 -1.8019024 4288085770
14.972214 1.4627029 -1.8147887 4288085770
5.3790283 0.82904136 -1.8110161 4288085770
2.5665283 0.64180386 -1.8017223 4288085770
8.8625717 1.0538068 -1.8324804 4288085770
5.7589874 0.84837079 -1.8067319 4288085770
2.3716049 0.62509495 -1.8014683 4288085770
2.2346573 0.6156199 -1.8036747 4288085770
2.4306259 0.62832958 -1.8039562 4288085770
14.486267 1.4097464 -1.7932416 4288085770
2.0527115 0.60296762 -1.804278 4288085770
2.6335983 0.64006329 -1.8041894 4288085770
6.1729507 0.86782789 -1.8031682 4288085770
1.8777542 0.59032196 -1.8028239 4288085770
2.848587 0.65283954 -1.8043146 4288085770
1.7278442 0.57881814 -1.807155 4288085770
2.1897125 0.60843968 -1.8021072 4288085770
3.0695572 0.66461778 -1.8023999 4288085770
2.5376816 0.62870252 -1.8030766 4288085770
1.5698929 0.56624043 -1.8065609 4288085770
6.6479416 0.89055538 -1.8050758 4288085770
3.3205719 0.67754638 -1.8052289 4288085770
2.0158081 0.59180295 -1.8016806 4288085770
1.4169464 0.55367088 -1.804926 4288085770
3.5735626 0.68944585 -1.8040513 4288085770
1.5639343 0.56219804 -1.8046463 4288085770
7.1098938 0.9091537 -1.7981269 4288085770
1.2790375 0.54118055 -1.8061675 4288085770
3.8666 0.70253992 -1.8085351 4288085770
1.8529129 0.57621467 -1.8021544 4288085770
1.1541443 0.52975392 -1.809293 4288085770
7.6869278 0.93426692 -1.8021781 4288085770
4.1556244 0.71357369 -1.8080701 4288085770
1.7080612 0.56071568 -1.8054801 4288085770
9.4119415 1.0287303 -1.8292102 4288085770
1.0061951 0.51515448 -1.8026352 4288085770
4.4686584 0.72571063 -1.8093989 4288085770
8.3369904 0.96067262 -1.8096201 4288085770
1.5611954 0.54519129 -1.8068224 4288085770
0.90234375 0.50483757 -1.8095788 4288085770
2.7219925 0.61436057 -1.8046981 4288085770
4.8056793 0.73792279 -1.8095305 4288085770
9.0810699 0.99043751 -1.8192627 4288085770
1.7102356 0.54973173 -1.8075619 4288085770
1.4122925 0.52962363 -1.8041815 4288085770
0.77342224 0.49134091 -1.8067555 4288085770
5.1407166 0.74709892 -1.8067055 4288085770
9.7380066 1.011704 -1.8086935 4288085770
1.2734375 0.51310748 -1.8034669 4288085770
5.5077515 0.75739753 -1.8046087 4288085770
10.540016 1.0365545 -1.8049052 4288085770
2.9202728 0.60107821 -1.8071955 4288085770
10.038315 1.0049533 -1.828298 4288085770
5.9077911 0.76781178 -1.8022404 4288085770
1.1395569 0.49760053 -1.8017024 4288085770
1.8615189 0.53727448 -1.8094363 4288085770
11.539116 1.0702436 -1.8154249 4288085770
6.3628693 0.77846503 -1.8044202 4288085770
1.0267334 0.48322168 -1.8057561 4288085770
12.523109 1.0977259 -1.8091233 4288085770
6.8239288 0.78708363 -1.8005687 4288085770
3.1155472 0.5867582 -1.8067266 4288085770
0.89484406 0.46769354 -1.8009752 4288085770
2.0007629 0.5237301 -1.806419 4288085770
10.735687 0.98043549 -1.8278114 4288085770
13.650116 1.1267391 -1.8046372 4288085770
7.3390198 0.79491949 -1.7992822 4288085770
0.79803467 0.45337862 -1.8058974 4288085770
14.899117 1.1571642 -1.7971398 4288085770
7.9211273 0.80503738 -1.8024271 4288085770
3.3438339 0.57359159 -1.8099774 4288085770
2.1680374 0.51032954 -1.8081713 4288085770
8.5592575 0.81435204 -1.8051206 4288085770
11.552101 0.95840216 -1.8333286 4288085770
3.5610809 0.55934137 -1.8083283 4288085770
9.3024292 0.82409096 -1.8129507 4288085770
2.3423157 0.49796391 -1.8108572 4288085770
10.110611 0.83203959 -1.8182648 4288085770
12.392464 0.93238139 -1.8306851 4288085770
3.8143692 0.54526323 -1.8113827 4288085770
2.5205612 0.48458526 -1.8105191 4288085770
11.012825 0.83934724 -1.8258154 4288085770
4.0576019 0.53110576 -1.8095196 4288085770
13.374847 0.90690732 -1.8318745 4288085770
2.7108002 0.47225934 -1.8110734 4288085770
11.985008 0.84385526 -1.8278182 4288085770
4.3568802 0.5182184 -1.8151871 4288085770
12.95211 0.84223723 -1.8179165 4288085770
2.9120407 0.4599725 -1.8115376 4288085770
14.423172 0.87760258 -1.8255581 4288085770
14.084274 0.83924437 -1.8116766 4288085770
4.644104 0.50422633 -1.8139626 4288085770
3.1192551 0.44669792 -1.8109615 4288085770
4.9693604 0.49040437 -1.8164256 4288085770
3.3534927 0.43454644 -1.8131545 4288085770
5.2895584 0.47551116 -1.8129392 4288085770
3.5997391 0.42143729 -1.8152578 4288085770
5.6668015 0.46187377 -1.8149748 4288085770
3.8719711 0.40943882 -1.8191382 4288085770
6.0569916 0.44824666 -1.8129041 4288085770
4.1311493 0.39733201 -1.8161261 4288085770
6.4962158 0.43482921 -1.8144305 4288085770
4.4013062 0.38425538 -1.8120328 4288085770
6.9413986 0.42039678 -1.8119169 4288085770
4.7235184 0.37242573 -1.8145027 4288085770
7.4345779 0.40714398 -1.8099999 4288085770
5.0637054 0.36064219 -1.8148249 4288085770
8.0298004 0.39431435 -1.8142444 4288085770
5.4348831 0.34897763 -1.8158922 4288085770
8.6479874 0.38053 -1.8143091 4288085770
5.8360596 0.33741921 -1.8167131 4288085770
9.3762054 0.36818892 -1.8194605 4288085770
6.2672272 0.32596725 -1.8172877 4288085770
14.698555 0.42972031 -1.8593459 4288085770
13.421631 0.40613222 -1.8610104 4288085770
12.025703 0.38514295 -1.8656253 4288085770
10.870544 0.37079698 -1.8452079 4288085770
13.132706 0.39712915 -1.8654566 4288085770
9.9284897 0.35731938 -1.8360395 4288085770
12.262695 0.38294107 -1.859705 4288085770
14.406746 0.40773049 -1.8669332 4288085770
9.0874252 0.34418851 -1.8250411 4288085770
10.214462 0.35527211 -1.8277167 4288085770
6.7323914 0.31464499 -1.8185827 4288085770
8.3704224 0.33155817 -1.8200232 4288085770
11.179688 0.35994548 -1.8497759 4288085770
7.7334518 0.31823605 -1.8173567 4288085770
10.185661 0.33823636 -1.8361068 4288085770
7.1664963 0.30618808 -1.8171058 4288085770
11.186729 0.34387422 -1.8398626 4288085770
7.2135162 0.30333418 -1.8147466 4288085770
6.6685944 0.29340929 -1.8192966 4288085770
9.3486938 0.31714314 -1.8281469 4288085770
12.371086 0.33333319 -1.8622657 4288085770
7.7626495 0.29330051 -1.8143425 4288085770
6.2036743 0.27972862 -1.8192254 4288085770
8.5787277 0.29728609 -1.8196275 4288085770
5.7777634 0.26719382 -1.8198246 4288085770
8.3998032 0.2836135 -1.8172152 4288085770
13.526291 0.32051799 -1.8659264 4288085770
7.9257889 0.27888662 -1.8151374 4288085770
5.3748627 0.25374013 -1.8202437 4288085770
9.1289978 0.27429676 -1.8243315 4288085770
14.83847 0.30825737 -1.8682972 4288085770
7.3739319 0.25990564 -1.8168257 4288085770
5.0039673 0.24038909 -1.8194001 4288085770
9.9211578 0.265185 -1.8289303 4288085770
6.8680573 0.24308729 -1.8181181 4288085770
10.868393 0.25671059 -1.8422548 4288085770
4.6630707 0.2271435 -1.8183098 4288085770
3.7267075 -2.0950706 -1.88783 4288085770
3.9369659 -2.1562448 -1.8884159 4288085770
7.1487503 -3.0887184 -1.8887899 4288085770
2.4403763 -1.7381049 -1.8866668 4288085770
12.361526 -4.6299005 -1.9369901 4288085770
2.172226 -1.6701149 -1.8905779 4288085770
3.4777069 -2.0520949 -1.8838183 4288085770
3.2387009 -2.0100811 -1.8797187 4288085770
2.0163956 -1.6497109 -1.892892 4288085770
3.8685913 -2.1974933 -1.8925267 4288085770
7.0854416 -3.157999 -1.8881476 4288085770
2.3849564 -1.772325 -1.8885761 4288085770
12.322472 -4.7460027 -1.944607 4288085770
3.0437927 -1.9778254 -1.8822905 4288085770
1.8504639 -1.6244073 -1.8892527 4288085770
2.8418427 -1.9426281 -1.8818998 4288085770
1.6875229 -1.5981026 -1.8845733 4288085770
3.7620544 -2.225991 -1.886876 4288085770
7.0612106 -3.2370775 -1.8922267 4288085770
2.3094559 -1.7996736 -1.8856091 4288085770
2.6538849 -1.908366 -1.8823819 4288085770
12.256332 -4.8532724 -1.9463956 4288085770
1.5476456 -1.5766575 -1.8847198 4288085770
2.4829788 -1.8780074 -1.8857384 4288085770
1.3946915 -1.5503143 -1.8799421 4288085770
3.6796036 -2.260345 -1.8860519 4288085770
7.0259552 -3.31423 -1.8933933 4288085770
2.3100204 -1.8456982 -1.885094 4288085770
2.2620392 -1.8348525 -1.8884503 4288085770
1.2447052 -1.5229801 -1.8731242 4288085770
12.230263 -4.9723563 -1.9509172 4288085770
2.156105 -1.8172745 -1.8883041 4288085770
1.1158142 -1.5014925 -1.8731625 4288085770
3.6081772 -2.2976363 -1.887151 4288085770
1.9891205 -1.7839525 -1.8865902 4288085770
7.0187759 -3.3992224 -1.8993685 4288085770
2.1855087 -1.8602362 -1.8824728 4288085770
0.98084259 -1.4760797 -1.8682181 4288085770
1.835144 -1.7525805 -1.8847696 4288085770
12.079887 -5.052093 -1.93924 4288085770
15.885468 -6.2846971 -1.8009551 4293729569
1.6801376 -1.7202225 -1.8819481 4288085770
3.5236816 -2.3300292 -1.8833262 4288085770
1.5451813 -1.6917458 -1.8829714 4288085770
6.9915085 -3.477354 -1.8994677 4288085770
2.1320724 -1.8934703 -1.8823525 4288085770
15.041275 -6.1450071 -1.8017603 4293729569
1.4162369 -1.6652465 -1.883957 4288085770
11.72197 -5.0608945 -1.9028447 4288085770
1.2681656 -1.6299025 -1.8770353 4288085770
3.4562378 -2.3663156 -1.8833759 4288085770
1.1281052 -1.5975281 -1.8700666 4288085770
6.970253 -3.5584629 -1.8995397 4288085770
2.0776062 -1.9247177 -1.8812214 4288085770
14.365395 -6.0505266 -1.8153949 4293729569
1.0101166 -1.5699958 -1.8699334 4288085770
11.374031 -5.0676785 -1.8643305 4293729569
0.89209747 -1.5414947 -1.8667897 4288085770
3.3978271 -2.4055572 -1.8843685 4288085770
13.438843 -5.8613281 -1.7994822 4293729569
6.9650421 -3.6444793 -1.9025071 4288085770
2.0151062 -1.9530272 -1.8771378 4288085770
11.120316 -5.1039882 -1.8362062 4293729569
3.3464127 -2.4467716 -1.8853136 4288085770
12.717651 -5.7281771 -1.7981504 4293729569
6.972847 -3.7344453 -1.9053887 4288085770
1.9817047 -1.9901528 -1.879863 4288085770
10.865562 -5.1343117 -1.8070287 4293729569
3.2869644 -2.4840374 -1.8842957 4288085770
11.93026 -5.5643845 -1.7871426 4293729569
6.9776382 -3.8244441 -1.9063007 4288085770
1.9292145 -2.0204134 -1.8767021 4288085770
10.636841 -5.1705365 -1.7776589 4293729569
11.180824 -5.4004664 -1.7737606 4293729569
3.2345352 -2.5232663 -1.88423 4288085770
6.9884262 -3.9154084 -1.9081641 4288085770
1.8857498 -2.052619 -1.8754739 4288085770
10.47126 -5.2264361 -1.7558792 4293729569
10.374176 -5.2078829 -1.7496352 4293729569
3.2101898 -2.5723355 -1.8889937 4288085770
7.01828 -4.0162792 -1.9119459 4288085770
1.8432999 -2.0858207 -1.8742462 4288085770
9.9815063 -5.1562347 -1.7689469 4293729569
10.364799 -5.3030577 -1.73874 4293729569
3.1547165 -2.6086068 -1.8859266 4288085770
7.0441055 -4.1141863 -1.913736 4288085770
1.8008194 -2.1170323 -1.8719978 4288085770
9.6228867 -5.1134357 -1.7900186 4293729569
10.006645 -5.2799749 -1.69101 4293729569
3.1062546 -2.646841 -1.8838117 4288085770
9.3053436 -5.0804377 -1.8147916 4293729569
7.078949 -4.2180486 -1.9165012 4288085770
1.7603378 -2.1492367 -1.8697405 4288085770
9.8690643 -5.3387785 -1.6679871 4293729569
3.0828781 -2.6939163 -1.887545 4288085770
8.9656906 -5.033577 -1.8346342 4293729569
7.1147766 -4.3209276 -1.9172463 4288085770
1.716835 -2.1794732 -1.8654919 4288085770
9.7464905 -5.4015236 -1.644859 4293729569
3.0574875 -2.7410202 -1.8892984 4288085770
8.6430435 -4.9896493 -1.854341 4293729569
9.9527664 -5.5675702 -1.3725723 4293729569
7.1817017 -4.4376345 -1.9228338 4288085770
1.6934128 -2.2165701 -1.8671196 4288085770
9.6690292 -5.4800444 -1.6264564 4293729569
8.3725357 -4.9624505 -1.8807145 4293729569
3.0150146 -2.7802417 -1.8861355 4288085770
9.8979797 -5.6331391 -1.4368173 4293729569
7.2536163 -4.5573339 -1.9274043 4288085770
1.6519012 -2.2478099 -1.8618622 4288085770
8.1611557 -4.9559517 -1.9137281 4288085770
9.6717529 -5.5901742 -1.6156032 4293729569
3.0026703 -2.8322752 -1.8898138 4288085770
9.8862762 -5.7134886 -1.5057969 4293729569
9.8423615 -5.7174792 -0.08012148 4293729569
9.7012863 -5.6697907 -0.3920334 4293729569
7.3486023 -4.6869121 -1.9348536 4288085770
7.9156418 -4.9306455 -1.9408766 4288085770
1.6535721 -2.2947481 -1.8693491 4288085770
9.7125549 -5.7151265 -1.6075341 4293729569
9.9327545 -5.817533 -1.582458 4293729569
2.9842606 -2.8793514 -1.8914987 4288085770
9.7804337 -5.7973499 -0.11858708 4293729569
9.6304855 -5.7395558 -0.34746975 4293729569
7.5537415 -4.8540039 -1.9476203 4288085770
7.4405823 -4.8175125 -1.9413437 4288085770
9.8939972 -5.8859973 -1.6505773 4293729569
1.6331329 -2.3328438 -1.8699584 4288085770
9.7975006 -5.8618684 -1.6032641 4293729569
9.8106766 -5.9158459 -0.15855849 4293729569
2.9538116 -2.9225161 -1.8892601 4288085770
9.6227798 -5.8340702 -0.30354974 4293729569
7.152626 -4.7536168 -1.9444957 4288085770
9.7218399 -5.8941383 -1.7033638 4293729569
7.4412537 -4.9096398 -1.93132 4288085770
1.6177063 -2.3719096 -1.8715289 4288085770
6.7524719 -4.6492577 -1.9383193 4288085770
2.9504471 -2.9765141 -1.8928713 4288085770
9.4433441 -5.8528433 -1.7416675 4293729569
7.239212 -4.9109082 -1.8873178 4293729569
1.6062851 -2.4129601 -1.8730816 4288085770
6.3492355 -4.5369511 -1.9280881 4288085770
9.1176605 -5.784812 -1.7721497 4293729569
2.9400482 -3.0265598 -1.8945094 4288085770
7.0592346 -4.9190612 -1.8461725 4293729569
6.0252304 -4.4552264 -1.9284049 4288085770
8.716713 -5.6802049 -1.7899812 4293729569
1.5878372 -2.4510589 -1.8726714 4288085770
2.9306335 -3.0766118 -1.8951381 4288085770
8.3076706 -5.5656805 -1.8027859 4293729569
5.6840973 -4.360641 -1.9217526 4288085770
7.0247192 -4.9914165 -1.8272836 4293729569
1.5763855 -2.4911189 -1.8732138 4288085770
2.934288 -3.1335828 -1.8987126 4288085770
7.8995667 -5.4461837 -1.8125284 4293729569
5.3730164 -4.2749081 -1.9178994 4288085770
7.0373611 -5.0845084 -1.8161533 4293729569
1.5729828 -2.5351284 -1.8757194 4288085770
7.5104523 -5.3286347 -1.8201045 4293729569
5.1130981 -4.2088852 -1.9227542 4288085770
2.9419098 -3.1905377 -1.9022477 4288085770
7.056076 -5.1764717 -1.8149523 4293729569
7.1201935 -5.210247 -1.8126816 4293729569
4.8380585 -4.1329937 -1.9206518 4288085770
1.5574875 -2.5722246 -1.8742697 4288085770
2.9455185 -3.2465289 -1.9038119 4288085770
6.7270432 -5.0776601 -1.8251376 4293729569
4.5720291 -4.056067 -1.9184499 4288085770
7.2612457 -5.3656573 -1.8189552 4293729569
1.5500488 -2.61427 -1.874794 4288085770
6.3959503 -4.9738994 -1.8312902 4293729569
2.946106 -3.3005419 -1.904385 4288085770
4.333046 -3.9890058 -1.9190875 4288085770
7.3922119 -5.5151486 -1.8212641 4293729569
6.1390839 -4.9027386 -1.8480616 4293729569
1.5516205 -2.6592693 -1.8762615 4288085770
4.0960388 -3.9209578 -1.9176949 4288085770
2.9607468 -3.3614695 -1.9078939 4288085770
5.995575 -4.8829651 -1.8812678 4293729569
7.5894241 -5.7022915 -1.8323244 4293729569
3.8639984 -3.8508997 -1.9152321 4288085770
1.5501709 -2.7022798 -1.8777373 4288085770
5.8831635 -4.8760099 -1.9203054 4288085770
2.9723434 -3.4194291 -1.9094008 4288085770
3.6620636 -3.7926753 -1.9175997 4288085770
5.6793747 -4.8216138 -1.9397337 4288085770
7.6220551 -5.8083467 -1.8171362 4293729569
1.5537415 -2.7482717 -1.8791958 4288085770
2.9829407 -3.4784033 -1.9099284 4288085770
3.4650803 -3.7334516 -1.9179077 4288085770
5.3992538 -4.7246761 -1.9434576 4288085770
7.7008286 -5.9371619 -1.8077376 4293729569
3.2600555 -3.6682901 -1.9152312 4288085770
5.077919 -4.6040225 -1.9353325 4288085770
1.5603104 -2.7952406 -1.8816353 4288085770
2.9975357 -3.5383618 -1.9104275 4288085770
4.7816238 -4.4922619 -1.9280562 4288085770
3.0760803 -3.611017 -1.9154321 4288085770
7.9300919 -6.1441813 -1.8186949 4293729569
1.571907 -2.8451805 -1.8850572 4288085770
3.0191422 -3.6012721 -1.9128891 4288085770
4.5033493 -4.3854213 -1.9216551 4288085770
2.8940582 -3.5517564 -1.9135925 4288085770
4.2651978 -4.2963643 -1.9210496 4288085770
8.1001511 -6.3235316 -1.8199389 4293729569
3.0457611 -3.6661625 -1.9153227 4288085770
1.5774231 -2.8901844 -1.8844858 4288085770
2.7100143 -3.4895244 -1.9097406 4288085770
4.0340347 -4.2082906 -1.9193857 4288085770
2.5440063 -3.4331915 -1.9087745 4288085770
8.3013 -6.520741 -1.823068 4293729569
3.8078308 -4.1202183 -1.9156727 4288085770
3.0683517 -3.7300897 -1.9157856 4288085770
1.5869751 -2.9381516 -1.8859068 4288085770
2.3759613 -3.3748977 -1.9048073 4288085770
3.6187668 -4.0489302 -1.9187741 4288085770
8.4773331 -6.706109 -1.8203174 4293729569
3.4407043 -3.9806001 -1.9217987 4288085770
3.0909042 -3.7920268 -1.9152274 4288085770
2.2219391 -3.320529 -1.9027443 4288085770
1.6025391 -2.9890857 -1.8883003 4288085770
3.2475357 -3.9023902 -1.9188659 4288085770
2.0668869 -3.2641852 -1.8986701 4288085770
3.0663834 -3.8281229 -1.9168569 4288085770
3.120491 -3.8579156 -1.9166423 4288085770
1.616066 -3.0380478 -1.8886926 4288085770
1.9278717 -3.2137473 -1.897501 4288085770
2.9113159 -3.7657039 -1.9197181 4288085770
1.7958755 -3.1662836 -1.8962948 4288085770
2.7371063 -3.6894407 -1.9146191 4288085770
3.1691437 -3.9336994 -1.9209758 4288085770
1.6326218 -3.0879769 -1.8910657 4288085770
2.5859756 -3.6260474 -1.9134306 4288085770
1.6718597 -3.1197774 -1.8960202 4288085770
0.32780457 -2.3762538 -1.8713077 4288085770
2.42276 -3.5527523 -1.9072549 4288085770
3.2016983 -4.000608 -1.9193723 4288085770
1.548851 -3.0732777 -1.8947358 4288085770
2.2896347 -3.4942782 -1.9069417 4288085770
0.36406708 -2.4091098 -1.8723029 4288085770
1.6601944 -3.1438529 -1.8943942 4288085770
2.1474609 -3.4288707 -1.9036431 4288085770
0.39930725 -2.44099 -1.8712972 4288085770
1.4217758 -3.022836 -1.889449 4288085770
2.0172958 -3.3694165 -1.90029 4288085770
0.43552399 -2.4718659 -1.8702712 4288085770
3.2442856 -4.0724459 -1.9207232 4288085770
1.8830872 -3.3049979 -1.8949233 4288085770
1.308754 -2.9782975 -1.8880869 4288085770
0.4827652 -2.5076671 -1.8721894 4288085770
1.6847305 -3.1977508 -1.8967309 4288085770
1.7689514 -3.2504497 -1.8944649 4288085770
0.52497101 -2.5405192 -1.8711255 4288085770
1.6698456 -3.2028229 -1.8959326 4288085770
1.1916504 -2.9288156 -1.8827118 4288085770
0.58023071 -2.5802789 -1.8740071 4288085770
1.5616837 -3.1492724 -1.8934256 4288085770
3.2908936 -4.1472573 -1.9230663 4288085770
0.64048767 -2.6220193 -1.8768606 4288085770
1.461525 -3.0986803 -1.8918715 4288085770
0.69268036 -2.6578209 -1.8767297 4288085770
1.1016922 -2.8941357 -1.8862286 4288085770
1.3643494 -3.0480864 -1.8892878 4288085770
0.75790405 -2.6995411 -1.8795338 4288085770
1.2741852 -3.0004549 -1.8876667 4288085770
1.6982193 -3.245733 -1.8951132 4288085770
0.82312012 -2.741271 -1.881338 4288085770
1.1819839 -2.9508522 -1.8840444 4288085770
0.8842926 -2.7790372 -1.8811394 4288085770
1.0978012 -2.9041967 -1.8823748 4288085770
0.95548248 -2.8217435 -1.882895 4288085770
1.0246429 -2.8624887 -1.8816494 4288085770
1.0056763 -2.854521 -1.8857516 4288085770
3.3354492 -4.2191081 -1.9223975 4288085770
0.91665649 -2.8168681 -1.8862269 4288085770
1.7297592 -3.3026032 -1.8974129 4288085770
0.82258606 -2.7752655 -1.8837092 4288085770
0.73451996 -2.7356439 -1.8811556 4288085770
3.3839951 -4.2929473 -1.9217131 4288085770
0.6565094 -2.7019382 -1.8825651 4288085770
1.7562485 -3.3555181 -1.8977228 4288085770
0.57240295 -2.6613069 -1.8789598 4288085770
3.4385681 -4.370749 -1.9220115 4288085770
0.50437164 -2.6295614 -1.8802916 4288085770
0.43431854 -2.595834 -1.8806219 4288085770
0.36724091 -2.5621047 -1.8799226 4288085770
1.7887802 -3.4133854 -1.9000252 4288085770
0.31022644 -2.5342953 -1.883188 4288085770
0.2400589 -2.4956181 -1.8784654 4288085770
3.5172195 -4.4614067 -1.9272105 4288085770
0.18297577 -2.4648392 -1.8786991 4288085770
1.8182602 -3.467284 -1.9003149 4288085770
3.6330338 -4.5738363 -1.9402772 4288085770
1.8618088 -3.5300977 -1.9035617 4288085770
3.7207031 -4.6694579 -1.9454405 4288085770
1.9073257 -3.5919023 -1.906778 4288085770
3.7842102 -4.7492557 -1.9426715 4288085770
3.7733536 -4.782526 -1.9221356 4288085770
1.9558411 -3.6556952 -1.9099859 4288085770
3.7172623 -4.7860947 -1.8897262 4288085770
2.0013504 -3.7185211 -1.9112132 4288085770
3.6551285 -4.7836971 -1.8563123 4293729569
2.0528412 -3.7823124 -1.9133916 4288085770
3.6180725 -4.7951612 -1.8267998 4293729569
2.1093521 -3.8500736 -1.9165632 4288085770
3.6252213 -4.8333402 -1.8081388 4293729569
2.1577911 -3.9109066 -1.9157395 4288085770
3.6263046 -4.8655734 -1.7864733 4293729569
2.2222977 -3.9816263 -1.9198639 4288085770
3.643425 -4.9057236 -1.7667345 4293729569
4.2245102 -5.3033414 -1.3012161 4293729569
3.6725998 -4.9527955 -1.7499515 4293729569
2.2797318 -4.0464239 -1.9189938 4288085770
4.1630173 -5.2944169 -0.93468964 4293729569
4.1479111 -5.2873411 -1.3308055 4293729569
3.7077637 -5.0018444 -1.7331302 4293729569
4.1234894 -5.29422 -0.96908283 4293729569
2.3622818 -4.1280513 -1.9250573 4288085770
4.0953751 -5.2842155 -1.3632957 4293729569
3.7599869 -5.0607958 -1.7192471 4293729569
4.1145096 -5.3115683 -0.74833524 4293729569
4.0899658 -5.2959895 -1.0044378 4293729569
2.4256897 -4.1948261 -1.9241492 4288085770
3.8232193 -5.1247044 -1.7053083 4293729569
4.0558929 -5.2890186 -1.3977424 4293729569
4.0594254 -5.2977567 -1.038763 4293729569
4.0202408 -5.2863259 -0.7119931 4293729569
3.8904495 -5.1905971 -1.6913514 4293729569
2.5142441 -4.27843 -1.9301744 4288085770
4.0387039 -5.3173041 -0.22909239 4293729569
4.035881 -5.3014855 -1.0740403 4293729569
4.026413 -5.2977734 -1.4331326 4293729569
3.9335403 -5.2376347 -1.6724297 4293729569
4.025383 -5.3131547 -1.1102741 4293729569
3.97612 -5.2928591 -0.67849696 4293729569
2.5987167 -4.3580804 -1.933197 4288085770
3.9454727 -5.2638855 -1.6445917 4293729569
3.9755325 -5.3099003 -0.19663495 4293729569
4.0049438 -5.3084855 -1.4694648 4293729569
4.0118332 -5.3188343 -1.1464734 4293729569
3.9603882 -5.2891026 -1.618713 4293729569
3.9882355 -5.3175831 -1.1796974 4293729569
2.6962433 -4.4436488 -1.9391543 4288085770
3.9389801 -5.3003654 -0.64494228 4293729569
3.9744186 -5.3122535 -1.5038115 4293729569
3.9672394 -5.3073931 -1.5888394 4293729569
3.982666 -5.3252311 -1.2158388 4293729569
3.9394226 -5.3183818 -0.16508082 4293729569
3.9609985 -5.3137536 -1.5569663 4293729569
3.9770966 -5.3318896 -1.2509696 4293729569
2.8027878 -4.5361824 -1.9450974 4288085770
3.9677887 -5.3270531 -1.5260391 4293729569
3.9755173 -5.3385215 -1.2870606 4293729569
3.9539185 -5.3219719 -1.5391231 4293729569
3.9645233 -5.3324227 -1.4921257 4293729569
3.9839478 -5.3491039 -1.3240952 4293729569
3.9068604 -5.3098412 -0.61235923 4293729569
3.9742813 -5.3437099 -1.4611474 4293729569
3.9803162 -5.3507533 -1.3591527 4293729569
3.9686203 -5.3434529 -1.3921933 4293729569
3.9699631 -5.3440824 -1.4271908 4293729569
3.9002914 -5.3238745 -0.13352434 4293729569
2.912323 -4.6287036 -1.9510107 4288085770
3.9293671 -5.3247156 -1.5733997 4293729569
3.8797379 -5.3212972 -0.57974803 4293729569
3.0137711 -4.7142973 -1.952929 4288085770
3.9098358 -5.3304296 -1.6086587 4293729569
3.8781891 -5.3373008 -0.10188486 4293729569
3.0639114 -4.7632437 -1.9399586 4288085770
3.8842239 -5.329196 -1.6409024 4293729569
3.8706589 -5.3426628 -0.54906523 4293729569
3.049736 -4.7686157 -1.9101541 4288085770
3.8600616 -5.3527226 -0.069227234 4293729569
3.8425446 -5.3150463 -1.6711662 4293729569
3.0314941 -4.7690234 -1.8783358 4293729569
3.766655 -5.2751212 -1.6924897 4293729569
3.8545151 -5.3570757 -0.51637697 4293729569
3.0172501 -4.7694044 -1.8474777 4293729569
3.8449402 -5.3671212 -0.037529066 4293729569
3.6756821 -5.2232952 -1.7098343 4293729569
3.0431824 -4.795536 -1.8255004 4293729569
3.5796509 -5.1655102 -1.7251642 4293729569
3.1203537 -4.8543458 -1.8153689 4293729569
3.8433914 -5.3724585 -0.48464993 4293729569
3.495636 -5.113667 -1.7414392 4293729569
3.1783829 -4.8982911 -1.7992661 4293729569
3.3995361 -5.0519118 -1.7537267 4293729569
3.3104401 -4.9921288 -1.7659663 4293729569
3.2494507 -4.9501753 -1.78412 4293729569
3.8277969 -5.3785162 -0.006818518 4293729569
3.8312378 -5.3858452 -0.45291132 4293729569
3.8240585 -5.3992219 -0.42012322 4293729569
3.8239288 -5.4175515 -0.38931897 4293729569
3.8177185 -5.4279232 -0.35648888 4293729569
3.8145065 -5.4392843 -0.32363969 4293729569
3.8132935 -5.449626 -0.29175988 4293729569
3.791748 -5.4454603 -0.028900281 4293729569
3.8080368 -5.4549932 -0.25886631 4293729569
3.7921295 -5.4521146 -0.061971828 4293729569
3.8007584 -5.4563684 -0.22594985 4293729569
3.7894745 -5.4537921 -0.094019711 4293729569
3.796463 -5.4587307 -0.19301431 4293729569
3.7978439 -5.4624157 -0.12703332 4293729569
3.7981567 -5.4620695 -0.16002995 4293729569
5.6428833 6.9708576 -1.6971658 4288085770
5.4004822 6.7988944 -1.6940867 4288085770
5.9092484 7.1559191 -1.7008995 4288085770
5.186058 6.6450758 -1.6945736 4288085770
4.971611 6.4902248 -1.6920718 4288085770
6.1806183 7.3419881 -1.7035797 4288085770
4.7911453 6.3555393 -1.693063 4288085770
6.4629745 7.5320849 -1.7051226 4288085770
6.7822876 7.7453489 -1.709101 4288085770
4.6106949 6.2188444 -1.6930758 4288085770
4.4412308 6.0881891 -1.6929297 4288085770
7.093605 7.9485426 -1.7092556 4288085770
4.2867432 5.9665971 -1.6935583 4288085770
7.4388733 8.1718798 -1.7109036 4288085770
4.1472549 5.8530717 -1.6949722 4288085770
4.012764 5.7415643 -1.6963216 4288085770
3.8862762 5.6350961 -1.6985487 4288085770
3.7647781 5.5296345 -1.6997222 4288085770
3.6682739 5.4403067 -1.704509 4288085770
7.4939041 8.0490255 -1.70876 4288085770
3.5737762 5.350976 -1.7082788 4288085770
7.2128067 7.8299384 -1.7085193 4288085770
3.4932632 5.2697158 -1.7138423 4288085770
6.9536514 7.6239295 -1.7079505 4288085770
6.6875153 7.4128532 -1.7034956 4288085770
3.4107666 5.1864381 -1.7184445 4288085770
6.4563293 7.2239566 -1.7035037 4288085770
3.3312607 5.1041613 -1.7220101 4288085770
6.2231445 7.0320101 -1.6995615 4288085770
3.2617798 5.0269403 -1.7274362 4288085770
6.0129089 6.8561587 -1.6962502 4288085770
3.1932755 4.9507136 -1.7318428 4288085770
5.8096848 6.682343 -1.6938571 4288085770
3.1067963 4.8603559 -1.7305548 4288085770
5.6334229 6.5266461 -1.6930391 4288085770
5.4891129 6.3921094 -1.6957206 4288085770
3.0253143 4.7720051 -1.7282022 4288085770
5.3268433 6.2444639 -1.6946961 4288085770
2.9658203 4.6987982 -1.7314993 4288085770
5.1845398 6.1089001 -1.6943712 4288085770
2.8883514 4.6124616 -1.7290909 4288085770
5.0522232 5.9793739 -1.6938962 4288085770
2.8248749 4.5352073 -1.7294654 4288085770
4.9299164 5.8549051 -1.6952811 4288085770
2.7843933 4.4710793 -1.7335025 4288085770
4.8265686 5.743516 -1.6973634 4288085770
2.7279205 4.3968506 -1.7337847 4288085770
4.7182312 5.6290874 -1.697521 4288085770
2.6904526 4.3337331 -1.737785 4288085770
4.6258774 5.523737 -1.6994443 4288085770
2.675972 4.2847524 -1.7464373 4288085770
4.5495377 5.4264784 -1.7041442 4288085770
2.6085205 4.2014179 -1.7409105 4288085770
4.4661865 5.3251495 -1.7049471 4288085770
2.61306 4.1625495 -1.7532918 4288085770
4.4068298 5.2379618 -1.7103934 4288085770
2.5485916 4.0812149 -1.7467178 4288085770
4.3444748 5.1487427 -1.713887 4288085770
2.5461502 4.0352759 -1.7552342 4288085770
4.3011017 5.0706229 -1.720099 4288085770
4.2497482 4.9864426 -1.723444 4288085770
2.5046997 3.9670784 -1.7533226 4288085770
-0.19817352 2.3708706 -1.7675896 4288085770
-0.16126251 2.3919847 -1.7650467 4288085770
-0.23406219 2.3497605 -1.7701236 4288085770
-0.2829895 2.3205163 -1.7648557 4288085770
-0.11233521 2.4191961 -1.7673362 4288085770
-0.06640625 2.4433525 -1.765684 4288085770
-0.32388306 2.2943439 -1.7634866 4288085770
-0.028488159 2.4624369 -1.7601544 4288085770
4.199379 4.9032545 -1.7257699 4288085770
-0.34774017 2.2772968 -1.7678744 4288085770
2.467247 3.9008949 -1.7513551 4288085770
0.02848053 2.4916861 -1.7633532 4288085770
-0.37860107 2.2561915 -1.7693654 4288085770
0.077430725 2.5148425 -1.7606858 4288085770
-0.31324768 2.2889359 -1.8164594 4288085770
0.13339233 2.5420566 -1.7609149 4288085770
0.1913681 2.5682657 -1.7601378 4288085770
0.2383194 2.5883813 -1.7545198 4288085770
4.1570206 4.8241177 -1.7299838 4288085770
2.4578094 3.8498878 -1.7559851 4288085770
0.2983017 2.6145871 -1.7527256 4288085770
0.36430359 2.6418245 -1.7518687 4288085770
0.43729401 2.6741087 -1.7528981 4288085770
4.0976486 4.7358537 -1.7284404 4288085770
2.4273682 3.7867396 -1.7549249 4288085770
0.51032257 2.703392 -1.7539593 4288085770
0.59034729 2.7357013 -1.7549284 4288085770
0.58343506 2.7225974 -1.7481279 4288085770
0.53156281 2.693428 -1.7508851 4288085770
4.0492859 4.6526504 -1.7287487 4288085770
0.63831329 2.7527883 -1.7463341 4288085770
0.48071289 2.6632512 -1.7526445 4288085770
0.70620728 2.7880473 -1.7463746 4288085770
0.65834808 2.7609031 -1.7500758 4288085770
0.42883301 2.63305 -1.7524127 4288085770
0.7631073 2.817234 -1.7435743 4288085770
2.3969269 3.7235808 -1.7528645 4288085770
0.37097168 2.5977929 -1.7492862 4288085770
0.82498932 2.8484282 -1.7397095 4288085770
0.33615112 2.5737162 -1.7548432 4288085770
0.89191437 2.8806605 -1.7377909 4288085770
0.28130341 2.5384588 -1.7506909 4288085770
0.74437714 2.7942333 -1.7509825 4288085770
0.9708252 2.9189587 -1.7377046 4288085770
0.2474823 2.5143633 -1.7542396 4288085770
1.052742 2.9582782 -1.7385819 4288085770
0.21266174 2.4892542 -1.7568077 4288085770
1.1386871 2.997611 -1.7394246 4288085770
0.8214035 2.8224883 -1.7480205 4288085770
4.0109329 4.5745058 -1.7309172 4288085770
0.17485046 2.4611011 -1.7564337 4288085770
1.2256165 3.0369272 -1.7382588 4288085770
2.342453 3.6482491 -1.7431395 4288085770
0.14404297 2.4359934 -1.7579672 4288085770
0.90344238 2.8507714 -1.7460151 4288085770
1.3105469 3.0732136 -1.7351425 4288085770
1.3964844 3.109504 -1.7320175 4288085770
0.11625671 2.4119084 -1.7604643 4288085770
0.985466 2.8790333 -1.7420099 4288085770
3.977562 4.4993682 -1.7320105 4288085770
1.5034332 3.1559238 -1.7336044 4288085770
0.084480286 2.3847864 -1.7610278 4288085770
2.339035 3.5982521 -1.746707 4288085770
1.5973816 3.1932313 -1.7293999 4288085770
0.056694031 2.3596787 -1.7615354 4288085770
1.086525 2.9154177 -1.7427552 4288085770
1.7123413 3.2406685 -1.7299074 4288085770
0.033935547 2.3355992 -1.7629894 4288085770
1.1835709 2.9487658 -1.7415673 4288085770
3.9481812 4.4262447 -1.7330478 4288085770
1.833313 3.2901387 -1.7313417 4288085770
0.015190125 2.3135552 -1.7663872 4288085770
2.3246002 3.5431724 -1.7464229 4288085770
1.2896271 2.9851577 -1.7412695 4288085770
1.965271 3.3446703 -1.7346276 4288085770
-0.0095748901 2.2884471 -1.7658691 4288085770
2.0892334 3.3921189 -1.7330577 4288085770
3.9278107 4.3581753 -1.7359539 4288085770
1.4007034 3.0225885 -1.7429178 4288085770
-0.032310486 2.2623451 -1.7653443 4288085770
2.2272034 3.4456398 -1.733303 4288085770
2.2641449 3.4647861 -1.7337815 4288085770
1.5007553 3.0529044 -1.7377362 4288085770
-0.048049927 2.2402899 -1.7667164 4288085770
2.3731613 3.5022008 -1.7344472 4288085770
3.9074478 4.2890954 -1.7378706 4288085770
-0.058753967 2.2192733 -1.7700346 4288085770
1.6158218 3.0893173 -1.7363611 4288085770
2.5181427 3.5547359 -1.7336428 4288085770
2.2717133 3.4208391 -1.7381897 4288085770
-0.069450378 2.198257 -1.7733526 4288085770
2.6861191 3.6183977 -1.7365227 4288085770
1.7448883 3.1318135 -1.737801 4288085770
3.9130783 4.2341738 -1.7454133 4288085770
11.607811 8.1734791 -1.7362741 4288085770
2.8670883 3.6871283 -1.7412367 4288085770
-0.077156067 2.1782403 -1.7756341 4288085770
1.8769836 3.1723092 -1.7382364 4288085770
2.2592697 3.3667557 -1.7368771 4288085770
3.0620728 3.7599204 -1.7467875 4288085770
-0.097877502 2.1511118 -1.7721028 4288085770
2.0080566 3.2127912 -1.7376803 4288085770
3.9217072 4.1792526 -1.7519298 4288085770
11.226234 7.8659253 -1.7298399 4288085770
3.2630386 3.8327131 -1.7502869 4288085770
-0.10054016 2.132134 -1.7763302 4288085770
2.2528534 3.3147039 -1.7364914 4288085770
2.1281281 3.2441688 -1.7313156 4288085770
3.4720001 3.9085457 -1.7546848 4288085770
3.9273376 4.1222982 -1.7564937 4288085770
-0.1132431 2.1080558 -1.7746979 4288085770
10.861626 7.5694113 -1.7211415 4288085770
2.291214 3.2958202 -1.735366 4288085770
3.687973 3.9833813 -1.7570336 4288085770
2.2644272 3.2717602 -1.7398542 4288085770
-0.11489105 2.0880702 -1.7779275 4288085770
2.446312 3.3414111 -1.7365497 4288085770
3.9119263 4.0602479 -1.7592919 4288085770
3.9239731 4.0602903 -1.7591884 4288085770
10.645836 7.3516145 -1.7263254 4288085770
-0.13158417 2.0609441 -1.7733614 4288085770
2.2630081 3.2227378 -1.7403929 4288085770
4.1088867 4.1219301 -1.7539437 4288085770
2.610405 3.3890338 -1.7376343 4288085770
-0.13925171 2.037894 -1.772675 4288085770
3.9175949 3.9962497 -1.7599303 4288085770
10.395065 7.1206241 -1.7259496 4288085770
4.2988281 4.1765332 -1.7437305 4288085770
2.7935104 3.4427581 -1.7414908 4288085770
2.269577 3.1767445 -1.7408305 4288085770
-0.13989258 2.0168898 -1.7739067 4288085770
4.5037842 4.2362118 -1.7353349 4288085770
3.0046082 3.5086372 -1.7499776 4288085770
3.9212265 3.9372663 -1.7625324 4288085770
10.103302 6.8714094 -1.7191194 4288085770
4.754715 4.315124 -1.7323395 4288085770
-0.14154816 1.9958603 -1.773147 4288085770
2.2691498 3.1277142 -1.7403605 4288085770
3.1876984 3.5573084 -1.7488879 4288085770
4.9966507 4.3869805 -1.7274963 4288085770
3.914856 3.8732047 -1.761274 4288085770
-0.14019012 1.9758635 -1.7743505 4288085770
9.8344879 6.637279 -1.7119306 4288085770
3.3988037 3.6181569 -1.7544281 4288085770
2.2827225 3.0847561 -1.7417055 4288085770
5.2865906 4.4760551 -1.7260578 4288085770
-0.1388092 1.9538544 -1.7745754 4288085770
3.60289 3.6719155 -1.7541038 4288085770
3.9324722 3.8212941 -1.7656803 4288085770
9.6415863 6.442512 -1.71167 4288085770
5.5565262 4.5530047 -1.7199199 4288085770
-0.13845062 1.9328432 -1.7747982 4288085770
2.3053284 3.0448627 -1.7459406 4288085770
3.821991 3.7297604 -1.7566071 4288085770
5.8944244 4.658298 -1.7218966 4288085770
3.9190979 3.7531743 -1.7615247 4288085770
9.4626694 6.255795 -1.7112032 4288085770
-0.1300354 1.9128695 -1.775941 4288085770
4.0420837 3.7855771 -1.7561232 4288085770
6.2383347 4.760591 -1.7218535 4288085770
2.3228989 3.0029192 -1.7472399 4288085770
3.9417191 3.7012706 -1.7648875 4288085770
9.3037109 6.0811615 -1.7114356 4288085770
-0.13367462 1.8887999 -1.7722305 4288085770
4.2771912 3.8434696 -1.7574885 4288085770
6.5792236 4.8588428 -1.7188791 4288085770
2.3344803 2.9579327 -1.746623 4288085770
4.5042648 3.8962803 -1.7539763 4288085770
-0.12727356 1.8678083 -1.7724012 4288085770
6.9601059 4.9692616 -1.7174315 4288085770
3.9413376 3.6392193 -1.7625554 4288085770
9.1417465 5.906507 -1.7106936 4288085770
7.3369827 5.0726237 -1.7120936 4288085770
4.7503738 3.953203 -1.7542572 4288085770
2.3640671 2.9200642 -1.7507757 4288085770
-0.11586761 1.8488457 -1.7735074 4288085770
3.9399567 3.5761535 -1.7592424 4288085770
8.9877396 5.7388606 -1.7078079 4288085770
7.7678299 5.1952477 -1.7120867 4288085770
5.0074692 4.0111442 -1.7524326 4288085770
-0.10748291 1.828862 -1.7736501 4288085770
2.3896561 2.8811612 -1.7529737 4288085770
8.2116699 5.3168869 -1.7089784 4288085770
3.9565582 3.5221858 -1.7586778 4288085770
8.8977127 5.600544 -1.7130603 4288085770
5.2495346 4.0609784 -1.745823 4288085770
-0.090049744 1.8119341 -1.7766837 4288085770
2.4102325 2.8392093 -1.75325 4288085770
8.684494 5.4446239 -1.7055621 4288085770
5.5156403 4.1159229 -1.7419587 4288085770
3.9811707 3.4702487 -1.7590289 4288085770
-0.084671021 1.7899067 -1.7738762 4288085770
8.784668 5.4520702 -1.7126273 4288085770
9.2172775 5.5916419 -1.7064273 4288085770
-0.41500854 1.6395249 -1.763319 4288085770
5.8067169 4.1779885 -1.739804 4288085770
2.4298096 2.7962506 -1.7525473 4288085770
-0.32187653 1.671052 -1.7801856 4288085770
-0.075248718 1.7679034 -1.7720342 4288085770
-0.26385498 1.6882614 -1.7795047 4288085770
3.9987717 3.4152734 -1.7574726 4288085770
8.6925964 5.314703 -1.7138962 4288085770
9.7990417 5.7498498 -1.7077531 4288085770
-0.21083832 1.7024087 -1.7748994 4288085770
6.1168137 4.2431445 -1.7394537 4288085770
-0.2895813 1.6631145 -1.775996 4288085770
-0.14879608 1.719632 -1.774184 4288085770
-0.34853363 1.6388235 -1.7697608 4288085770
-0.32226562 1.6492888 -1.8044271 4288085770
-0.2466507 1.6792402 -1.7724552 4288085770
-0.200737 1.6973877 -1.7698673 4288085770
-0.1407547 1.7196485 -1.7731152 4288085770
-0.08682251 1.739846 -1.7724367 4288085770
2.4603882 2.7573543 -1.7537069 4288085770
-0.0548172 1.7509946 -1.7750435 4288085770
-0.026855469 1.7610755 -1.7726959 4288085770
-0.085739136 1.735858 -1.7734709 4288085770
0.039115906 1.7843473 -1.7748817 4288085770
10.412758 5.915164 -1.7077292 4288085770
0.10610962 1.8066118 -1.7760699 4288085770
4.0494003 3.3724928 -1.762503 4288085770
8.6514893 5.2005854 -1.7204794 4288085770
-0.013687134 1.7561381 -1.7746373 4288085770
0.17008972 1.8278443 -1.7752945 4288085770
6.442894 4.3103495 -1.7379446 4288085770
0.23805237 1.8500917 -1.7744743 4288085770
0.06539917 1.777454 -1.7767326 4288085770
0.31204987 1.874392 -1.7765806 4288085770
-0.039390564 1.7310344 -1.7751281 4288085770
0.39105988 1.8986994 -1.7776439 4288085770
11.122452 6.1089063 -1.7135794 4288085770
0.1394577 1.7967306 -1.7768924 4288085770
2.4839783 2.7144098 -1.7529696 4288085770
0.46005249 1.9189279 -1.7748367 4288085770
6.7599869 4.3694882 -1.7335987 4288085770
0.54105377 1.9432317 -1.7748829 4288085770
4.0839996 3.3235998 -1.7627357 4288085770
8.5943756 5.0803657 -1.7232642 4288085770
0.22354126 1.8190752 -1.7799342 4288085770
0.63407135 1.9716221 -1.7787828 4288085770
0.30762482 1.8404094 -1.7819866 4288085770
11.802124 6.2824316 -1.7099029 4288085770
-0.019950867 1.7120885 -1.7751676 4288085770
0.72309113 1.996955 -1.7787497 4288085770
15.924858 7.8413897 -1.7348808 4288085770
0.81308746 2.0222807 -1.7777082 4288085770
0.39272308 1.8607358 -1.7830411 4288085770
2.5335617 2.6826248 -1.7578906 4288085770
7.0590668 4.4184985 -1.7235152 4288085770
0.90209961 2.046592 -1.7756858 4288085770
4.1316147 3.2787766 -1.7648134 4288085770
8.5412521 4.962162 -1.7259933 4288085770
0.46578217 1.875955 -1.778253 4288085770
12.618744 6.4995861 -1.7165866 4288085770
-0.0015106201 1.6921391 -1.7752264 4288085770
0.99913025 2.0719428 -1.7745839 4288085770
0.55486298 1.8962747 -1.7772732 4288085770
7.4701462 4.5040774 -1.7270818 4288085770
1.1001587 2.0983081 -1.7734369 4288085770
15.607208 7.5670447 -1.7255508 4288085770
2.5781555 2.6478002 -1.7608864 4288085770
1.196167 2.1226344 -1.7703545 4288085770
0.65297699 1.9186479 -1.7781947 4288085770
13.492294 6.7269197 -1.7196736 4288085770
8.5041199 4.851028 -1.7295092 4288085770
4.151207 3.2227764 -1.7602502 4288085770
0.017921448 1.6731936 -1.7752657 4288085770
1.3122177 2.1520748 -1.7710462 4288085770
0.756073 1.9430615 -1.7810514 4288085770
7.8932266 4.5876899 -1.7295667 4288085770
1.4372711 2.1845696 -1.7736284 4288085770
15.460411 7.3594646 -1.727042 4288085770
0.85317993 1.9634206 -1.7810029 4288085770
14.513763 6.9958782 -1.7290486 4288085770
2.6127243 2.6089072 -1.7610112 4288085770
1.5563049 2.2130001 -1.7723051 4288085770
4.2078018 3.1809962 -1.763218 4288085770
0.040359497 1.6542584 -1.7752793 4288085770
8.4759903 4.7419343 -1.7339261 4288085770
0.95828247 1.9858086 -1.7808641 4288085770
8.3243027 4.6683106 -1.7300152 4288085770
1.6843491 2.2444744 -1.7718723 4288085770
15.504242 7.2385979 -1.7269695 4288085770
1.0684052 2.0082252 -1.7816823 4288085770
15.400558 7.184288 -1.7354414 4288085770
1.8153992 2.2749588 -1.7714245 4288085770
2.6492844 2.5710113 -1.7601082 4288085770
0.065818787 1.6363455 -1.7762561 4288085770
4.2684021 3.13922 -1.7651513 4288085770
8.4478302 4.6348228 -1.7363213 4288085770
1.1775131 2.0296175 -1.7805198 4288085770
8.7843704 4.7540483 -1.7311605 4288085770
1.931427 2.2993252 -1.7651702 4288085770
2.0784836 2.3328784 -1.7655526 4288085770
1.2826004 2.0489631 -1.7764136 4288085770
15.314682 7.0029635 -1.7391285 4288085770
0.092269897 1.6184464 -1.7782241 4288085770
2.697876 2.5351899 -1.76208 4288085770
2.2385635 2.3695109 -1.7687907 4288085770
9.2284393 4.8276753 -1.7275723 4288085770
1.4087448 2.0734484 -1.7780725 4288085770
4.3310165 3.0974617 -1.7680672 4288085770
8.432663 4.5327573 -1.7385509 4288085770
2.3966141 2.404083 -1.7670678 4288085770
1.5328598 2.0969059 -1.7777597 4288085770
0.11368561 1.5984762 -1.7752569 4288085770
15.093842 6.7769752 -1.7284484 4288085770
9.7275085 4.9145455 -1.7273715 4288085770
2.5526581 2.4366374 -1.7643837 4288085770
2.7514496 2.5023987 -1.7649765 4288085770
1.6620026 2.1193805 -1.7774144 4288085770
4.4016113 3.0577226 -1.7698928 4288085770
8.4304733 4.4357495 -1.7416149 4288085770
2.7147141 2.4692137 -1.7616481 4288085770
1.7921295 2.1418488 -1.7760606 4288085770
0.14214325 1.5805732 -1.7762079 4288085770
10.25856 5.0055537 -1.7288525 4288085770
2.9108047 2.510977 -1.764523 4288085770
14.938972 6.5742793 -1.7219536 4288085770
2.8070526 2.4676144 -1.7678771 4288085770
1.9392853 2.1674104 -1.7775282 4288085770
4.4712143 3.0159786 -1.7717483 4288085770
8.4592972 4.347899 -1.7483153 4288085770
3.1178741 2.5557919 -1.7682712 4288085770
0.17158508 1.5626637 -1.7761501 4288085770
10.845619 5.1068001 -1.7327445 4288085770
2.0864029 2.1929514 -1.7769959 4288085770
3.3179398 2.5955391 -1.7681334 4288085770
14.846031 6.3978662 -1.7196466 4288085770
2.8706284 2.4358585 -1.7706767 4288085770
4.5648193 2.9823663 -1.7773111 4288085770
2.2295456 2.2144561 -1.7745411 4288085770
8.4701004 4.25494 -1.751224 4288085770
3.5450211 2.6424265 -1.7716881 4288085770
11.365685 5.1786728 -1.7255239 4288085770
0.19802856 1.5427325 -1.7751396 4288085770
2.3967056 2.2420905 -1.7758152 4288085770
3.7570953 2.6811957 -1.7694579 4288085770
14.82206 6.2427578 -1.7215204 4288085770
2.9382172 2.405129 -1.7744309 4288085770
4.6374054 2.9406133 -1.7771405 4288085770
8.5318985 4.1782308 -1.7595223 4288085770
11.967728 5.2689104 -1.7234049 4288085770
4.0171967 2.7332356 -1.7756749 4288085770
0.23248291 1.5258517 -1.7760278 4288085770
2.5668716 2.2687361 -1.7770742 4288085770
-0.28273773 1.3478007 -1.7683489 4288085770
4.2712708 2.7801902 -1.7759979 4288085770
14.832031 6.1017737 -1.7229517 4288085770
2.7400208 2.2943716 -1.7763183 4288085770
3.0027847 2.3723674 -1.7762324 4288085770
4.7289963 2.9039612 -1.7797526 4288085770
12.631783 5.3694172 -1.7246453 4288085770
0.27796936 1.5110527 -1.7807996 4288085770
8.5706863 4.0933948 -1.7641039 4288085770
4.5453491 2.8312502 -1.7791053 4288085770
2.9101868 2.3169742 -1.7736202 4288085770
-0.21416473 1.3432232 -1.7858148 4288085770
14.862991 5.9648771 -1.725159 4288085770
4.8224182 2.8802779 -1.7782089 4288085770
3.083374 2.3437059 -1.7818527 4288085770
13.301826 5.4639149 -1.722898 4288085770
0.30638885 1.4921198 -1.7787611 4288085770
3.1243668 2.3518448 -1.7804147 4288085770
4.824585 2.8673241 -1.78233 4288085770
8.6394653 4.0187006 -1.77132 4288085770
5.1084824 2.9293392 -1.7772349 4288085770
-0.18973541 1.3242531 -1.7818108 4288085770
3.3165359 2.3765388 -1.7785059 4288085770
14.830956 5.8106666 -1.7200902 4288085770
14.026871 5.5636358 -1.7226239 4288085770
0.34586334 1.4742564 -1.7796168 4288085770
3.1549454 2.3109696 -1.7835938 4288085770
5.3795242 2.9702821 -1.7704761 4288085770
4.9121704 2.8266256 -1.7820193 4288085770
8.7082367 3.9409854 -1.7765679 4288085770
3.5247116 2.4043229 -1.7794272 4288085770
-0.1552887 1.3083608 -1.781688 4288085770
