# .PCD v0.7 - Point Cloud Data file format
VERSION 0.7
FIELDS x y z rgb
SIZE 4 4 4 4
TYPE F F F U
COUNT 1 1 1 1
WIDTH 1114
HEIGHT 1
VIEWPOINT 0 0 0 1 0 0 0
POINTS 1114
DATA ascii
9.095993 -1.77672 -1.8986452 4288085770
0.22033691 -0.60152292 -1.851562 4288085770
1.538559 -0.80746818 -1.8498553 4288085770
3.812149 -1.129017 -1.8514687 4288085770
8.512413 -1.7834151 -1.9042678 4288085770
0.086807251 -0.62114561 -1.8519295 4288085770
7.9260864 -1.7101109 -1.898913 4288085770
1.365036 -0.82827532 -1.8513337 4288085770
7.9327698 -1.7820911 -1.9058805 4288085770
3.5737076 -1.1601241 -1.8491257 4288085770
-0.058738708 -0.63882363 -1.8473305 4288085770
7.4886246 -1.7381341 -1.8961245 4288085770
1.2035294 -0.8500278 -1.8537782 4288085770
7.3250504 -1.7698944 -1.8995727 4288085770
-0.16422272 -0.66131842 -1.8516189 4288085770
3.3693085 -1.1950753 -1.8506868 4288085770
7.0741577 -1.7650516 -1.8912712 4288085770
1.0490341 -0.8727479 -1.8562027 4288085770
6.7152786 -1.7507062 -1.8872716 4288085770
-0.28073883 -0.68086314 -1.8519384 4288085770
3.1718979 -1.2289939 -1.8512284 4288085770
6.6827087 -1.7918627 -1.8863536 4288085770
0.89852905 -0.89344954 -1.8566164 4288085770
6.2416229 -1.7458944 -1.8905889 4288085770
13.160019 -2.8680992 -1.9191266 4288085770
-0.3782196 -0.70332134 -1.856204 4288085770
3.0055237 -1.2657708 -1.8556824 4288085770
6.3282547 -1.8205035 -1.8823318 4288085770
5.7528992 -1.73315 -1.8879491 4288085770
0.7590332 -0.91510057 -1.8589989 4288085770
12.192116 -2.8105609 -1.9268281 4288085770
-0.49172974 -0.72285199 -1.8535148 4288085770
2.8391342 -1.3015473 -1.8581362 4288085770
5.3001862 -1.7202404 -1.8862089 4288085770
11.205078 -2.7361076 -1.9215856 4288085770
6.0458755 -1.8568144 -1.8861078 4288085770
0.6365509 -0.93867385 -1.8623331 4288085770
-0.59923553 -0.74135566 -1.8518085 4288085770
4.8724518 -1.7062154 -1.8843993 4288085770
10.161911 -2.6419096 -1.9025027 4288085770
2.6977768 -1.3402095 -1.8635194 4288085770
5.7604675 -1.891139 -1.8858917 4288085770
0.53710938 -0.96514201 -1.8706027 4288085770
-0.68871307 -0.76277685 -1.8540512 4288085770
4.46772 -1.6920846 -1.8835256 4288085770
9.2858658 -2.5669444 -1.8929511 4288085770
2.5534058 -1.3768848 -1.8659109 4288085770
0.42262268 -0.98767805 -1.8729147 4288085770
5.509079 -1.9273067 -1.8875805 4288085770
4.0669556 -1.6739348 -1.8796413 4288085770
8.5208817 -2.5034692 -1.8900881 4288085770
-0.79523468 -0.78027534 -1.8493421 4288085770
0.32015991 -1.0121598 -1.8771923 4288085770
3.6811676 -1.6537153 -1.8747157 4288085770
2.4120255 -1.4125463 -1.8682938 4288085770
7.7758484 -2.4349008 -1.8811705 4288085770
5.2236557 -1.9556298 -1.8813647 4288085770
-0.87969971 -0.80167341 -1.8505704 4288085770
3.3303986 -1.6353354 -1.8726922 4288085770
7.1368942 -2.3778458 -1.8789558 4288085770
0.21569824 -1.0356505 -1.8804756 4288085770
2.2776566 -1.4481758 -1.8696569 4288085770
4.9762497 -1.9877784 -1.8790419 4288085770
-0.96218109 -0.82206237 -1.8507932 4288085770
6.5719757 -2.3294501 -1.8795332 4288085770
3.0216599 -1.6217628 -1.8745509 4288085770
0.12024689 -1.0600996 -1.8837332 4288085770
2.1713028 -1.4876769 -1.8749409 4288085770
6.0360413 -2.2799215 -1.8800303 4288085770
2.7168884 -1.6041709 -1.8743993 4288085770
4.7358322 -2.0188951 -1.8746994 4288085770
-1.0506744 -0.84047854 -1.8480331 4288085770
13.218513 -3.8129342 -1.9157376 4288085770
5.5231018 -2.2302859 -1.8774635 4288085770
0.037811279 -1.0864897 -1.888954 4288085770
2.4361267 -1.5894691 -1.8761803 4288085770
2.0369263 -1.5223056 -1.8733032 4288085770
4.5304565 -2.0548508 -1.8732581 4288085770
-1.1110992 -0.86476743 -1.8541932 4288085770
5.0411377 -2.1805077 -1.8748107 4288085770
2.1733551 -1.5736842 -1.8789115 4288085770
12.408737 -3.7716687 -1.9119899 4288085770
-0.062644958 -1.1089617 -1.8892254 4288085770
4.6032257 -2.1365273 -1.875034 4288085770
1.9305878 -1.5608066 -1.8755865 4288085770
1.9346161 -1.5617894 -1.883575 4288085770
4.3410797 -2.091733 -1.8727714 4288085770
-1.1745377 -0.88806951 -1.8573617 4288085770
11.686996 -3.7359984 -1.9109962 4288085770
4.1782913 -2.0904868 -1.8732218 4288085770
-0.14608002 -1.1343559 -1.8924485 4288085770
1.7088547 -1.5488348 -1.8892027 4288085770
1.8152084 -1.5953484 -1.8758951 4288085770
4.1567078 -2.1275923 -1.8712708 4288085770
-1.2459869 -0.90940821 -1.8575526 4288085770
3.7412796 -2.0364995 -1.8634449 4288085770
1.4910965 -1.5358434 -1.8948081 4288085770
10.931137 -3.6824825 -1.9031008 4288085770
-0.23253632 -1.1577642 -1.8936802 4288085770
3.3703461 -1.9942102 -1.8624821 4288085770
1.2783203 -1.5218285 -1.8983996 4288085770
1.7278824 -1.6357621 -1.8801242 4288085770
3.9923553 -2.1663599 -1.8717132 4288085770
-1.3054276 -0.93269193 -1.8607095 4288085770
10.199272 -3.6258557 -1.8941393 4288085770
3.0234299 -1.9538107 -1.861452 4288085770
1.0675354 -1.5058041 -1.9009864 4288085770
-0.33702087 -1.1762533 -1.8879628 4288085770
2.7045212 -1.9172826 -1.8623432 4288085770
0.88375854 -1.4936562 -1.9084971 4282675967
1.6245117 -1.6712486 -1.8793987 4288085770
-1.3638687 -0.95497108 -1.8628635 4288085770
3.8219681 -2.2011542 -1.868173 4288085770
9.5935135 -3.5886512 -1.8958229 4288085770
2.4326477 -1.8875387 -1.8691025 4288085770
-0.41447449 -1.1996197 -1.8891691 4288085770
0.68996429 -1.4775536 -1.9120365 4282675967
2.1577759 -1.8558087 -1.8728704 4288085770
9.0017166 -3.5453818 -1.894469 4288085770
-1.4253159 -0.97626376 -1.8640263 4288085770
1.5381775 -1.7106571 -1.8816243 4288085770
3.6756287 -2.2418389 -1.867564 4288085770
0.52921295 -1.4673004 -1.9214829 4282675967
-0.48690796 -1.2239634 -1.8913609 4288085770
1.9159012 -1.8279269 -1.8795459 4288085770
0.33637238 -1.4471917 -1.9200208 4282675967
8.4369202 -3.5019877 -1.8930401 4288085770
-1.4787598 -0.99851954 -1.8661659 4288085770
1.6619949 -1.7950993 -1.8802561 4288085770
1.4528351 -1.7490613 -1.8818473 4288085770
3.5332642 -2.2795043 -1.8659444 4288085770
0.13948822 -1.4231009 -1.9155707 4282675967
-0.56637573 -1.2453384 -1.8895727 4288085770
1.4591446 -1.7730384 -1.8908219 4288085770
7.8800888 -3.4535561 -1.8905898 4288085770
-0.041374207 -1.4019371 -1.9130756 4282675967
1.2532654 -1.7469907 -1.8973974 4288085770
1.3684998 -1.7874606 -1.8820667 4288085770
3.4089432 -2.3220882 -1.8662727 4288085770
-0.63882446 -1.2686814 -1.8887641 4288085770
-0.22724915 -1.3777956 -1.9075952 4288085770
1.048378 -1.719938 -1.9019701 4288085770
7.3302231 -3.3980918 -1.8841221 4288085770
-0.40415192 -1.3536118 -1.9010898 4288085770
0.83145142 -1.6879399 -1.9025778 4288085770
3.306633 -2.3685706 -1.8685387 4288085770
1.295166 -1.8268096 -1.8842552 4288085770
-0.69622803 -1.2959567 -1.8919126 4288085770
-0.57204437 -1.3303876 -1.8965594 4288085770
0.65055847 -1.6637768 -1.9080834 4288085770
6.8233719 -3.34743 -1.8805338 4288085770
0.4736557 -1.6375951 -1.9135787 4282675967
-0.72993469 -1.308117 -1.8920009 4288085770
1.2128067 -1.8631995 -1.8824689 4288085770
3.2013321 -2.4140668 -1.8698127 4288085770
0.31478882 -1.6163315 -1.9220228 4282675967
-0.76067352 -1.3192631 -1.8920814 4288085770
-0.88282776 -1.2858235 -1.8884288 4288085770
6.3735657 -3.3045065 -1.8807856 4288085770
0.12482452 -1.5842077 -1.9185559 4282675967
-1.0307312 -1.2635065 -1.8838428 4288085770
12.76062 -5.1751966 -1.8995831 4288085770
-0.062164307 -1.5510693 -1.9140811 4282675967
5.932724 -3.2585411 -1.8800129 4288085770
-1.1646194 -1.2441255 -1.8822173 4288085770
3.1080246 -2.4605081 -1.8710527 4288085770
-0.83011627 -1.3415922 -1.890264 4288085770
1.1504898 -1.905498 -1.8846252 4288085770
13.15123 -5.3373847 -1.7894528 4293729569
-0.25317383 -1.5149493 -1.9066184 4288085770
-1.2894974 -1.2257038 -1.8815664 4288085770
12.048622 -5.0834818 -1.9205716 4288085770
-0.42113495 -1.484724 -1.90309 4288085770
5.4838638 -3.2056119 -1.8752643 4288085770
-1.4043655 -1.2092359 -1.8828876 4288085770
-0.57910156 -1.455453 -1.900534 4288085770
-0.8865509 -1.3658621 -1.8904099 4288085770
2.9996948 -2.5030174 -1.8693348 4288085770
1.0821609 -1.944824 -1.8847984 4288085770
13.245476 -5.5129657 -1.778132 4293729569
-0.73810577 -1.4241856 -1.8949814 4288085770
11.140251 -4.9266629 -1.9161212 4288085770
5.0870361 -3.1614437 -1.8743691 4288085770
-0.88408661 -1.3958588 -1.8923919 4288085770
-0.94397736 -1.3901366 -1.8905582 4288085770
-1.0240707 -1.3675041 -1.8887862 4288085770
2.924408 -2.552376 -1.8715231 4288085770
1.0228271 -1.9851081 -1.8849461 4288085770
10.272865 -4.7696548 -1.908558 4288085770
-1.1550522 -1.3411081 -1.8861548 4288085770
4.684166 -3.1103029 -1.8714926 4288085770
-1.288063 -1.312721 -1.8815298 4288085770
-1.4010391 -1.2892425 -1.881848 4288085770
-1.0044098 -1.4134244 -1.8887148 4288085770
9.480545 -4.6253018 -1.9017836 4288085770
2.8350983 -2.5977983 -1.870751 4288085770
0.96550751 -2.0263836 -1.8860877 4288085770
-1.5120239 -1.2657547 -1.8811609 4288085770
4.3253555 -3.0679605 -1.8704917 4288085770
8.794342 -4.5034623 -1.9027094 4288085770
-1.0408249 -1.4416027 -1.8928034 4288085770
3.9684982 -3.0206075 -1.8684868 4288085770
2.7828445 -2.6530514 -1.8748729 4288085770
0.88513184 -2.0597632 -1.8792946 4288085770
8.1571503 -4.3883972 -1.9024978 4288085770
3.6316452 -2.9751627 -1.866426 4288085770
-1.0962677 -1.4648675 -1.8899457 4288085770
2.7155457 -2.703373 -1.8760375 4288085770
0.80875397 -2.0931244 -1.8734903 4288085770
7.5319214 -4.2682757 -1.8972548 4288085770
3.3408508 -2.9395075 -1.8702351 4288085770
-1.1366806 -1.4920639 -1.8920451 4288085770
6.9467316 -4.1539707 -1.8938997 4288085770
2.6572723 -2.7556531 -1.877176 4288085770
0.74739838 -2.1304166 -1.869643 4288085770
3.0450211 -2.898875 -1.8700595 4288085770
6.3995514 -4.0454903 -1.890438 4288085770
-1.1961517 -1.5113459 -1.8861994 4288085770
2.773201 -2.8621316 -1.8728163 4288085770
2.5929794 -2.8049603 -1.8763317 4288085770
0.69706726 -2.1706593 -1.8687639 4288085770
5.8984451 -3.9477994 -1.8898454 4288085770
-1.2465897 -1.5345874 -1.883327 4288085770
2.5093918 -2.8253524 -1.8755511 4288085770
5.4022751 -3.8440845 -1.8842413 4288085770
2.5417099 -2.8592081 -1.877449 4288085770
0.65975189 -2.2148423 -1.8698472 4288085770
2.2285156 -2.7786489 -1.8723363 4288085770
-1.2870407 -1.5587831 -1.8834269 4288085770
4.954155 -3.7501485 -1.8815022 4288085770
9.8498001 -5.5045471 -1.2974247 4293729569
2.49543 -2.9134326 -1.8775524 4288085770
0.6314621 -2.2619848 -1.8719043 4288085770
1.9887085 -2.7437589 -1.8750042 4288085770
4.5370712 -3.6630704 -1.879675 4288085770
-1.3284683 -1.5839837 -1.8815286 4288085770
9.6999512 -5.538034 -0.4658154 4293729569
9.6148071 -5.5175972 -1.1490588 4293729569
1.7478561 -2.7048721 -1.8746762 4288085770
9.6734085 -5.5643573 -1.25388 4293729569
4.1399918 -3.5779004 -1.8767923 4288085770
2.4621964 -2.9725983 -1.8806176 4288085770
0.59114075 -2.3051815 -1.8709954 4288085770
-1.3568802 -1.612125 -1.8835934 4288085770
9.4512939 -5.5601659 -0.4014827 4293729569
1.5069962 -2.6619849 -1.87235 4288085770
9.6357651 -5.6363287 -0.4309482 4293729569
9.4536057 -5.5723581 -1.1934744 4293729569
3.7779312 -3.4995697 -1.876811 4288085770
9.6242294 -5.666585 -1.2189698 4293729569
2.414917 -3.0268271 -1.8787227 4288085770
0.56986237 -2.3542917 -1.8740317 4288085770
1.2991714 -2.6289473 -1.8749293 4288085770
3.4308853 -3.4241691 -1.8747874 4288085770
-1.3963318 -1.6363156 -1.8816898 4288085770
9.4093246 -5.6573806 -0.45555514 4293729569
9.411644 -5.6715755 -1.2475458 4293729569
9.6366882 -5.7593231 -0.39589232 4293729569
9.7103195 -5.8211946 -1.1916685 4293729569
1.0883102 -2.5909221 -1.8745185 4288085770
3.1208801 -3.3566 -1.8776593 4288085770
2.3906784 -3.0879509 -1.8807614 4288085770
0.52751923 -2.3954961 -1.8701282 4288085770
9.4384537 -5.7792692 -0.5124228 4293729569
-1.4307785 -1.6614834 -1.8797718 4288085770
9.4548492 -5.801404 -1.3093718 4293729569
2.813858 -3.2880161 -1.8775234 4288085770
0.87343597 -2.5499148 -1.8721201 4288085770
2.3554001 -3.1441247 -1.880832 4288085770
2.5368652 -3.2262945 -1.8793025 4288085770
0.5112381 -2.4455836 -1.8731496 4288085770
0.68659973 -2.5167801 -1.8736417 4288085770
-1.4622345 -1.6866372 -1.8788452 4288085770
2.2588501 -3.1615767 -1.8790858 4288085770
0.49472809 -2.4786675 -1.8731792 4288085770
2.3482056 -3.2121711 -1.8838205 4288085770
-1.4886703 -1.7137685 -1.8789041 4288085770
0.49694824 -2.495661 -1.8751652 4288085770
1.9898224 -3.0968173 -1.8778445 4288085770
0.32389069 -2.4474587 -1.8746562 4288085770
1.7408066 -3.0359659 -1.8775468 4288085770
2.3309631 -3.2752626 -1.8858378 4288085770
-1.516098 -1.7409046 -1.8779653 4288085770
0.1570282 -2.4142313 -1.8761231 4288085770
0.4796524 -2.5457525 -1.8761886 4288085770
1.4957886 -2.9750965 -1.8762382 4288085770
-0.018844604 -2.3770447 -1.8736161 4288085770
2.3077011 -3.3353806 -1.8838726 4288085770
10.059593 -6.4997592 -1.6174158 4293729569
-1.5395432 -1.7680218 -1.8780156 4288085770
1.2768097 -2.9211075 -1.8768559 4288085770
0.46234894 -2.5948434 -1.876212 4288085770
-0.16569519 -2.3477256 -1.8770269 4288085770
1.0778427 -2.8730268 -1.8804162 4288085770
-1.5629959 -1.7951391 -1.8770658 4288085770
2.3084946 -3.4053903 -1.8878369 4288085770
-0.31755829 -2.3154292 -1.8774524 4288085770
0.85882568 -2.8150368 -1.8770353 4288085770
0.45505524 -2.6468885 -1.8782065 4288085770
-0.46543121 -2.2831132 -1.875867 4288085770
0.66282654 -2.7629414 -1.8765895 4288085770
9.4525223 -6.4755888 -1.6960685 4293729569
-1.5844498 -1.8222466 -1.8761101 4288085770
2.2892227 -3.4664898 -1.8858594 4288085770
-0.60131073 -2.252743 -1.8782481 4288085770
0.4497757 -2.7009249 -1.8801943 4288085770
0.46981812 -2.7108314 -1.8741355 4288085770
9.0427017 -6.4114871 -1.7222059 4293729569
0.29483032 -2.6636395 -1.8746303 4288085770
-0.73416901 -2.2233589 -1.8786205 4288085770
-1.5988846 -1.8523233 -1.8781339 4288085770
2.2960129 -3.5384707 -1.8878058 4288085770
0.13285065 -2.6193881 -1.8760885 4288085770
0.43346405 -2.7500107 -1.8792142 4288085770
-0.86706543 -2.190974 -1.8779945 4288085770
8.6709137 -6.3562112 -1.7502357 4293729569
-0.043167114 -2.5681994 -1.8725879 4288085770
-1.6173325 -1.8804171 -1.8771695 4288085770
-0.99497223 -2.1595659 -1.8773544 4288085770
2.3078156 -3.6124291 -1.8907373 4288085770
-0.18914032 -2.5278742 -1.8750008 4288085770
0.43518829 -2.8060148 -1.8811812 4288085770
8.2910843 -6.2919722 -1.7762909 4293729569
-1.0998001 -2.1380539 -1.882647 4288085770
-1.6307907 -1.9094882 -1.8771907 4288085770
-0.33112335 -2.4875302 -1.8764032 4288085770
2.3005524 -3.6784732 -1.8887235 4288085770
-1.2167206 -2.1075947 -1.8819768 4288085770
-0.47411346 -2.4451904 -1.875809 4288085770
0.43388367 -2.8600316 -1.8821573 4288085770
7.7919006 -6.1672735 -1.783697 4293729569
-1.3436432 -2.0731809 -1.8773352 4288085770
-0.61411285 -2.4028368 -1.8752067 4288085770
-1.6412506 -1.9395459 -1.8782032 4288085770
-0.74210358 -2.3644276 -1.8755699 4288085770
2.3123474 -3.7534311 -1.8896536 4288085770
-1.4495468 -2.0456717 -1.8776335 4288085770
7.2836761 -6.0326157 -1.7881316 4293729569
0.44161987 -2.9200077 -1.8841054 4288085770
-0.87213898 -2.3220274 -1.8739407 4288085770
-1.6446686 -1.9735718 -1.8811944 4288085770
-1.5454178 -2.0221176 -1.8809029 4288085770
-0.98212433 -2.2885356 -1.8752532 4288085770
2.3221359 -3.8273976 -1.8885891 4288085770
6.8766327 -5.9354963 -1.8012749 4288085770
-1.6403198 -1.9965584 -1.8831707 4288085770
-1.0981293 -2.2510717 -1.8755838 4288085770
0.448349 -2.9789886 -1.8860567 4288085770
-1.6702042 -1.9956956 -1.874251 4288085770
-1.2071304 -2.215575 -1.8748945 4288085770
-1.7402496 -1.9680202 -1.8814533 4288085770
-1.3141632 -2.1790683 -1.8742005 4288085770
6.4725952 -5.8363624 -1.8134105 4288085770
-1.8311615 -1.9424417 -1.8817101 4288085770
2.345932 -3.9063003 -1.890484 4288085770
-1.4101639 -2.147512 -1.8754741 4288085770
-1.680687 -2.0247524 -1.8732635 4288085770
0.43701935 -3.0290504 -1.8820606 4288085770
-1.5132217 -2.1099861 -1.8727698 4288085770
-1.6092682 -2.0754285 -1.8710452 4288085770
6.045433 -5.7183323 -1.8186172 4288085770
2.3787689 -3.9911621 -1.8933512 4288085770
-1.6892624 -2.0477989 -1.873274 4288085770
-1.6921921 -2.0518129 -1.8712795 4288085770
-1.7723083 -2.0161817 -1.873513 4288085770
0.45274353 -3.0909898 -1.8849854 4288085770
-1.8473206 -1.9895287 -1.8757279 4288085770
5.5600739 -5.566565 -1.8119973 4288085770
2.3945312 -4.0661001 -1.891269 4288085770
-1.6976776 -2.0818465 -1.8702779 4288085770
0.47148132 -3.1549158 -1.8879007 4288085770
4.9162292 -5.3285136 -1.7778471 4293729569
-1.6871185 -2.1198082 -1.8752288 4288085770
2.4313507 -4.1529427 -1.8931236 4288085770
4.4006653 -5.1458788 -1.7563235 4293729569
0.49821472 -3.2218044 -1.8907927 4288085770
-1.6896057 -2.1508279 -1.8742181 4288085770
2.4741821 -4.2417579 -1.8949608 4288085770
4.0545425 -5.0414743 -1.7583046 4293729569
0.5049057 -3.2797842 -1.889743 4288085770
-1.6881104 -2.1828289 -1.8741962 4288085770
3.7585068 -4.9568419 -1.7661408 4293729569
2.5290451 -4.3375187 -1.8977616 4288085770
0.52964783 -3.3466818 -1.8916398 4288085770
-1.6816101 -2.2168074 -1.8751596 4288085770
3.5386581 -4.9068642 -1.7837542 4293729569
2.5879135 -4.4352603 -1.9005502 4288085770
-1.6861496 -2.2448349 -1.8721557 4288085770
0.55435181 -3.4125786 -1.8925368 4288085770
3.3729401 -4.88164 -1.8092098 4293729569
2.6517868 -4.5359797 -1.9043236 4288085770
-1.6756592 -2.2797947 -1.8731076 4288085770
3.1600571 -4.8286285 -1.824806 4288085770
0.57907867 -3.4794762 -1.893433 4288085770
6.2228775 -6.4895968 -1.8027214 4288085770
-1.662178 -2.3157406 -1.875051 4288085770
2.7477341 -4.6535535 -1.9130018 4288085770
2.9972916 -4.7983899 -1.8482558 4288085770
0.6108017 -3.5493407 -1.8943086 4288085770
5.6941299 -6.2730241 -1.7962496 4293729569
-1.6456909 -2.3526731 -1.8769858 4288085770
2.8776398 -4.7889562 -1.877579 4288085770
2.8015594 -4.7493167 -1.9118038 4288085770
-1.635231 -2.3866317 -1.8759381 4288085770
0.64151001 -3.6182101 -1.8951873 4288085770
2.7198486 -4.7566938 -1.8990163 4288085770
2.7480545 -4.7885637 -1.8889229 4288085770
3.5322723 -5.2208738 -1.5975916 4293729569
-1.6157761 -2.4235499 -1.8768648 4288085770
2.5229034 -4.6996083 -1.9115713 4288085770
0.66820526 -3.6860969 -1.8940766 4288085770
3.3313065 -5.1598072 -1.6201599 4293729569
2.6222992 -4.7841368 -1.8512584 4288085770
-1.6033401 -2.4574988 -1.8758117 4288085770
2.2396774 -4.5919104 -1.9043845 4288085770
3.1734543 -5.1195464 -1.6476015 4293729569
0.71394348 -3.7628977 -1.8969103 4288085770
-1.582901 -2.4944112 -1.8757355 4288085770
2.5597305 -4.8124237 -1.8254073 4288085770
1.9794769 -4.4931068 -1.8991312 4288085770
3.0025406 -5.070343 -1.6720828 4293729569
-1.5654678 -2.5293374 -1.8746686 4288085770
0.73960876 -3.8287885 -1.8938034 4288085770
2.8947754 -5.0518541 -1.7053789 4293729569
1.7463455 -4.4061809 -1.896799 4288085770
2.4911118 -4.8367372 -1.7965742 4293729569
-1.5380402 -2.5692179 -1.875572 4288085770
2.7920074 -5.0343423 -1.7376609 4293729569
1.5252075 -4.3222003 -1.8944333 4288085770
0.78733063 -3.9065802 -1.8956306 4288085770
-1.5106277 -2.6070981 -1.8764766 4288085770
2.4977112 -4.9007106 -1.7825183 4293729569
2.651123 -4.9940019 -1.7620573 4293729569
1.3261337 -4.2481184 -1.8950031 4288085770
-1.4792023 -2.6479602 -1.8773689 4288085770
2.4800873 -4.931797 -1.7805461 4293729569
0.827034 -3.981406 -1.8934805 4288085770
3.2448807 -5.3807421 -0.23225142 4293729569
2.5364151 -4.9835386 -1.7723662 4293729569
1.1199875 -4.1660671 -1.8915963 4288085770
-1.4528198 -2.6848438 -1.8762769 4288085770
2.3371277 -4.8844638 -1.8019518 4293729569
0.94691467 -4.0998664 -1.8940926 4288085770
0.88075256 -4.0621705 -1.89529 4288085770
3.1192551 -5.3703337 -0.26658902 4293729569
-1.4113922 -2.7296603 -1.8791404 4288085770
2.1911469 -4.8331442 -1.8213677 4293729569
2.5580292 -5.0544438 -1.7602661 4293729569
0.76080322 -4.0247235 -1.8916285 4288085770
2.0391083 -4.7758517 -1.8388032 4288085770
-1.3750153 -2.7704978 -1.8790194 4288085770
3.0638123 -5.3996043 -0.30071732 4293729569
0.93948364 -4.1459098 -1.897084 4288085770
2.5826569 -5.1273336 -1.7451566 4293729569
1.9482651 -4.7522817 -1.8660568 4288085770
-1.3356247 -2.8133223 -1.8798891 4288085770
0.60174561 -3.9624579 -1.8940854 4288085770
1.8814468 -4.7386031 -1.8972411 4288085770
-1.2962723 -2.8541458 -1.8787605 4288085770
3.0384369 -5.4447379 -0.33675653 4293729569
0.44165802 -3.8971961 -1.8945465 4288085770
0.99619293 -4.2286587 -1.8968837 4288085770
1.7443924 -4.6832409 -1.9126357 4288085770
2.6193008 -5.2061691 -1.7330116 4293729569
-1.2498932 -2.8989377 -1.8796107 4288085770
0.28455353 -3.8309205 -1.8930004 4288085770
1.5330505 -4.5802107 -1.9092549 4288085770
-1.2025452 -2.9427247 -1.880459 4288085770
3.0291061 -5.4987988 -0.37374774 4293729569
1.0739822 -4.3243132 -1.9016199 4288085770
1.3046188 -4.4642558 -1.8989271 4288085770
2.6438751 -5.2760582 -1.7169034 4293729569
-1.143158 -2.9934571 -1.8832715 4288085770
0.12240601 -3.7596657 -1.8894706 4288085770
1.1092834 -4.3661523 -1.8945012 4288085770
-1.0948486 -3.0362377 -1.8811177 4288085770
-0.013679504 -3.7012937 -1.8898642 4288085770
0.93698883 -4.2789426 -1.8920078 4288085770
3.0698853 -5.5806303 -0.41258985 4293729569
-1.0284576 -3.0899389 -1.8849097 4288085770
1.1487198 -4.4169798 -1.9033657 4288085770
2.6674423 -5.3449516 -1.6997986 4293729569
0.7827301 -4.2006516 -1.8924615 4288085770
-2.229744 -2.3654385 -1.8815156 4288085770
-0.96212006 -3.141638 -1.8867033 4288085770
-0.14576721 -3.643903 -1.8902465 4288085770
0.62844086 -4.1193595 -1.8909172 4288085770
-0.89780426 -3.1913457 -1.8865032 4288085770
0.49822998 -4.051959 -1.8943011 4288085770
-2.1994095 -2.3993034 -1.8824145 4288085770
-0.82146454 -3.2469988 -1.889268 4288085770
-0.26985931 -3.5884755 -1.8916067 4288085770
0.35492706 -3.9736159 -1.8917263 4288085770
2.7070465 -5.421772 -1.6856465 4293729569
1.2475357 -4.5245376 -1.911039 4288085770
-0.75416565 -3.2966919 -1.8880601 4288085770
0.23068237 -3.9051859 -1.8930949 4288085770
-0.67987823 -3.3483531 -1.8878328 4288085770
0.11443329 -3.8407199 -1.8944404 4288085770
-2.1751022 -2.4291954 -1.8803318 4288085770
-0.38996887 -3.5330284 -1.8909565 4288085770
-0.59455109 -3.4069643 -1.8895723 4288085770
-0.015892029 -3.7653162 -1.8898295 4288085770
-0.5213089 -3.4556289 -1.8863494 4288085770
-0.12313843 -3.7028081 -1.8911499 4288085770
-0.43102264 -3.513216 -1.8870765 4288085770
-0.22842407 -3.6392901 -1.890466 4288085770
-0.33873749 -3.5717938 -1.8867977 4288085770
-2.1437988 -2.4620559 -1.8812288 4288085770
-0.50907135 -3.477577 -1.8903035 4288085770
2.7887726 -5.5254011 -1.6763669 4293729569
1.3533707 -4.6360636 -1.9186913 4288085770
-2.1115112 -2.494911 -1.8801231 4288085770
-0.61716461 -3.4270754 -1.8916185 4288085770
-2.0742111 -2.5297439 -1.8810035 4288085770
-0.72829437 -3.3725867 -1.8899441 4288085770
2.8704758 -5.62603 -1.6660891 4293729569
1.3989639 -4.7098584 -1.9105247 4288085770
-2.0299225 -2.5675445 -1.8838633 4288085770
-0.81838989 -3.3280029 -1.893208 4288085770
-0.91751099 -3.2784588 -1.892499 4288085770
-1.9896469 -2.6033628 -1.8837349 4288085770
2.9521637 -5.7266579 -1.654811 4293729569
-1.0226974 -3.2219403 -1.8878101 4288085770
-1.9423828 -2.6411486 -1.8845869 4288085770
1.3472061 -4.7210908 -1.8796529 4288085770
-1.1138611 -3.1723595 -1.8870801 4288085770
-1.9161987 -2.6660283 -1.8775024 4288085770
-1.2020111 -3.124764 -1.8863412 4288085770
-1.8679657 -2.7028089 -1.8773526 4288085770
-1.2811508 -3.0801275 -1.8855766 4288085770
-1.8157272 -2.7415712 -1.8781911 4288085770
3.3589401 -6.0338182 -1.6955509 4293729569
-1.3573151 -3.0364769 -1.8858036 4288085770
-1.7595062 -2.7813151 -1.8790187 4288085770
-1.4385223 -2.987848 -1.8830471 4288085770
-1.7093201 -2.8160856 -1.8768651 4288085770
1.2833862 -4.7233768 -1.8458179 4288085770
-1.6400833 -2.8617704 -1.8806547 4288085770
-1.5096893 -2.9451742 -1.8822606 4288085770
-1.5658417 -2.9094324 -1.8854301 4288085770
4.1540222 -6.5912237 -1.7951152 4293729569
1.3038483 -4.7772837 -1.8297297 4293729569
1.3142395 -4.823235 -1.8116726 4293729569
1.3547363 -4.8880501 -1.7985247 4293729569
1.4654694 -4.9975495 -1.8001645 4293729569
1.578186 -5.1070395 -1.7997991 4293729569
1.6838531 -5.2105598 -1.7974558 4293729569
1.775444 -5.3041425 -1.7901556 4293729569
1.8880997 -5.4106297 -1.7877921 4293729569
2.0017471 -5.5171118 -1.7824259 4293729569
2.1163635 -5.6225896 -1.7760578 4293729569
2.2138824 -5.7141418 -1.7647434 4293729569
2.3093948 -5.8037028 -1.7524354 4293729569
2.3948364 -5.8843083 -1.7361597 4293729569
2.5756073 -6.0294838 -1.7355933 4293729569
2.7985001 -6.201468 -1.7408997 4293729569
3.0856094 -6.4161634 -1.7570108 4293729569
-1.467865 3.4361439 -1.7897782 4288085770
-1.4010391 3.4794316 -1.7917452 4288085770
-1.5336609 3.3918636 -1.7868053 4288085770
-1.3342056 3.521723 -1.792709 4288085770
-1.587471 3.3546219 -1.7878243 4288085770
-1.2653885 3.5650265 -1.7926708 4288085770
-1.1965179 3.6053329 -1.7916229 4288085770
-1.6512299 3.308357 -1.7828397 4288085770
-1.1136856 3.6546867 -1.7945683 4288085770
-1.686058 3.2811816 -1.788842 4288085770
-1.0298309 3.7030525 -1.7955078 4288085770
-1.7208557 3.2530119 -1.7928412 4288085770
-0.92899323 3.7604711 -1.8024325 4288085770
-1.7646103 3.2168145 -1.7938373 4288085770
-0.78623199 3.8440371 -1.8203336 4288085770
-1.8023834 3.1846387 -1.7958311 4288085770
-0.68335724 3.8984787 -1.8232439 4288085770
-1.8381271 3.1514747 -1.7968163 4288085770
-0.63038635 3.9207573 -1.8091788 4288085770
-1.8748703 3.11831 -1.7968042 4288085770
-0.52451324 3.975215 -1.8110811 4288085770
-1.9145813 3.0811381 -1.7947868 4288085770
-0.41763306 4.0296798 -1.8119811 4288085770
-1.9413147 3.0520074 -1.7977618 4288085770
-0.29774475 4.0891962 -1.8148636 4288085770
-0.11222076 4.2040033 -1.817755 4288085770
-0.2109375 4.1405716 -1.8168052 4288085770
-0.029441833 4.2553821 -1.8137069 4288085770
6.1064911 8.1474361 -1.8164184 4288085770
-0.30067444 4.0821781 -1.8158485 4288085770
0.0703125 4.315825 -1.8126442 4288085770
-0.39537048 4.0187697 -1.8128885 4288085770
-1.977005 3.0158532 -1.795737 4288085770
0.17307281 4.3772807 -1.8115772 4288085770
-0.49703217 3.9493411 -1.8069271 4288085770
0.27783966 4.4377522 -1.8085018 4288085770
-0.17983246 4.1457047 -1.8167416 4288085770
-0.56576538 3.9000332 -1.8079454 4288085770
0.40557861 4.5113077 -1.8104094 4288085770
-0.64447021 3.8436911 -1.8059669 4288085770
-2.0017242 2.986737 -1.7967067 4288085770
0.52235413 4.5758319 -1.8073161 4288085770
-0.72613525 3.7833464 -1.8009831 4288085770
-0.047958374 4.2092729 -1.8196063 4288085770
0.62416077 4.6303067 -1.799229 4288085770
5.7700043 7.8629885 -1.803372 4288085770
-0.7988205 3.7280338 -1.7979922 4288085770
-2.0294113 2.9546106 -1.7966744 4288085770
0.7599411 4.7019072 -1.7981098 4288085770
0.077972412 4.2668204 -1.820467 4288085770
-0.86250305 3.6777537 -1.7969943 4288085770
0.93962097 4.8006697 -1.8059647 4288085770
-2.0520935 2.9245024 -1.7976353 4288085770
-0.92916107 3.623467 -1.7939912 4288085770
1.0993652 4.8843679 -1.8068223 4288085770
5.5272827 7.6379189 -1.800275 4288085770
0.20589447 4.3233876 -1.8183192 4288085770
-0.98382568 3.5762265 -1.79298 4288085770
1.2621078 4.9680867 -1.8056725 4288085770
-2.0697479 2.8954127 -1.7995865 4288085770
0.35878754 4.3930435 -1.8221496 4288085770
-1.0484695 3.5219553 -1.7879714 4288085770
1.4258804 5.049809 -1.8045138 4288085770
5.3563995 7.4591279 -1.8081414 4288085770
-1.0901566 3.4817643 -1.7889493 4288085770
1.6225891 5.1496639 -1.8073283 4288085770
-2.0874176 2.8673263 -1.8005413 4288085770
0.47975922 4.4415932 -1.815994 4288085770
1.7604446 5.2103062 -1.7961683 4288085770
-1.1347961 3.4375634 -1.7889216 4288085770
-2.1110687 2.8352203 -1.799498 4288085770
0.64864349 4.5163188 -1.8197991 4288085770
5.0807495 7.2179446 -1.7960763 4288085770
1.9392242 5.2941074 -1.7909774 4288085770
-1.1704483 3.3983991 -1.789887 4288085770
-2.1246948 2.8071475 -1.8014418 4288085770
0.76864624 4.5598774 -1.8096298 4288085770
2.1449585 5.3910146 -1.7897593 4288085770
-1.2120895 3.3552146 -1.7888546 4288085770
4.8370056 6.9978924 -1.7869966 4288085770
2.3696823 5.4960003 -1.7895184 4288085770
0.91161346 4.6145191 -1.804437 4288085770
-1.2477264 3.3150527 -1.7888167 4288085770
-2.1433258 2.7760668 -1.7993889 4288085770
2.5874176 5.5949707 -1.7852759 4288085770
-1.2773438 3.2769134 -1.7897694 4288085770
1.0895233 4.6882915 -1.8062159 4288085770
4.6491547 6.8120608 -1.7848828 4288085770
-2.1459427 2.7530313 -1.8043205 4288085770
2.8341293 5.707056 -1.7840012 4288085770
-1.3069611 3.2377777 -1.7897189 4288085770
1.2834167 4.7681341 -1.8079731 4288085770
-2.1555634 2.7259767 -1.8062568 4288085770
3.1027985 5.8292336 -1.7847022 4288085770
4.4633026 6.6282454 -1.7807698 4288085770
-1.3305817 3.2026608 -1.7916659 4288085770
1.4633636 4.8369279 -1.8057303 4288085770
3.3784714 5.9514465 -1.7833853 4288085770
-2.160141 2.6999419 -1.8081836 4288085770
-1.3591537 3.1625323 -1.7906092 4288085770
4.301384 6.4605284 -1.7786468 4288085770
1.6543045 4.9097667 -1.8044724 4288085770
3.6811066 6.0857697 -1.7850379 4288085770
-2.174736 2.6688781 -1.8061197 4288085770
-1.3827438 3.1254225 -1.7905494 4288085770
4.0177002 6.2352338 -1.7886517 4288085770
1.8642197 4.9896851 -1.8041883 4288085770
4.1464691 6.2968416 -1.7765182 4288085770
-1.4043274 3.0883212 -1.7904842 4288085770
-2.1753235 2.6448579 -1.8090423 4288085770
4.3662796 6.3867617 -1.7892412 4288085770
2.060173 5.0585613 -1.7989043 4288085770
4.0104904 6.1462321 -1.7763826 4288085770
-1.4268875 3.0502183 -1.7894181 4288085770
4.7527924 6.5564418 -1.7937913 4288085770
-2.1808777 2.6168258 -1.8089646 4288085770
2.2711182 5.1334949 -1.795601 4288085770
-1.4344711 3.0201676 -1.7923396 4288085770
5.1533051 6.7281904 -1.7963121 4288085770
3.8695297 5.9936099 -1.7732527 4288085770
-2.1864395 2.5887899 -1.8098868 4288085770
2.5050354 5.2175212 -1.7942679 4288085770
-1.4480286 2.9860976 -1.793263 4288085770
5.59375 6.9171085 -1.8007851 4288085770
-2.1940002 2.5597565 -1.8078108 4288085770
2.7529297 5.3066115 -1.7929149 4288085770
3.7624741 5.8621244 -1.7741034 4288085770
6.1030884 7.1373119 -1.8101811 4288085770
-1.4595795 2.9520397 -1.7931812 4288085770
3.005867 5.3927236 -1.790539 4288085770
-2.1845627 2.5387723 -1.8127165 4288085770
6.6613388 7.3787203 -1.8225194 4288085770
3.6614456 5.7326617 -1.7759445 4288085770
-1.468132 2.9199877 -1.7950979 4288085770
3.2887421 5.49296 -1.7911313 4288085770
-2.1810989 2.5137758 -1.8136247 4288085770
7.1397934 7.5678353 -1.8178943 4288085770
-1.468689 2.8909709 -1.7970037 4288085770
8.4568939 8.2575893 -1.8317227 4288085770
3.5564041 5.6031914 -1.7747954 4288085770
3.5606384 5.5831623 -1.7877192 4288085770
7.7150574 7.8043499 -1.8211725 4288085770
-2.1776199 2.4877791 -1.8145297 4288085770
-1.4652328 2.8639603 -1.8019055 4288085770
8.1554489 7.9892759 -1.8236322 4288085770
3.4942932 5.4958858 -1.7806069 4288085770
3.8705139 5.6885185 -1.787258 4288085770
8.5049286 8.1457338 -1.8462353 4288085770
-2.1761398 2.460777 -1.814436 4288085770
-1.4687576 2.8319368 -1.8018088 4288085770
7.8100739 7.6988006 -1.8065825 4288085770
4.1983643 5.797956 -1.7867631 4288085770
3.4052277 5.3754821 -1.780445 4288085770
-2.6276855 2.2046852 -1.8417724 4288085770
-2.6147003 2.2078006 -1.8247484 4288085770
-2.1686783 2.4377949 -1.8163399 4288085770
-1.4742737 2.798908 -1.800714 4288085770
-2.5736771 2.2229931 -1.8206909 4288085770
-2.518692 2.246227 -1.8226236 4288085770
4.5362244 5.9074407 -1.7852422 4288085770
-2.4567184 2.2724845 -1.8265477 4288085770
7.6653061 7.5171251 -1.8133663 4288085770
3.3540878 5.2762284 -1.7852533 4288085770
-2.4106903 2.2887022 -1.8214805 4288085770
-1.4747849 2.7678938 -1.8016124 4288085770
-2.1611786 2.4128149 -1.817237 4288085770
-2.3516693 2.3109596 -1.8213991 4288085770
4.9010391 6.0280318 -1.7866875 4288085770
-2.2966309 2.3302064 -1.8193184 4288085770
7.5055389 7.3314018 -1.8151751 4288085770
-2.2346115 2.3524809 -1.8182292 4288085770
3.29496 5.173943 -1.789072 4288085770
-1.4662933 2.7399123 -1.8044971 4288085770
-2.1476974 2.3908551 -1.8201281 4288085770
-2.1735764 2.3737497 -1.8171393 4288085770
5.3237762 6.1718607 -1.7930578 4288085770
-2.2542953 2.3264055 -1.8131939 4288085770
-2.206398 2.3506203 -1.8121483 4288085770
-2.2981644 2.3032048 -1.815232 4288085770
-2.1624832 2.371824 -1.8091035 4288085770
-2.3360596 2.2830272 -1.8182645 4288085770
-2.1075897 2.3980658 -1.8090464 4288085770
-2.3709488 2.2638624 -1.8212926 4288085770
-2.1115265 2.3940303 -1.8140434 4288085770
-2.0596466 2.4192867 -1.8059908 4288085770
-2.4167938 2.2376659 -1.8193259 4288085770
-2.0027237 2.4455402 -1.8049283 4288085770
-2.449646 2.2175131 -1.8213451 4288085770
-1.9477768 2.4687881 -1.8028612 4288085770
7.2679214 7.1063738 -1.8060567 4288085770
-2.4875031 2.1953447 -1.8213708 4288085770
-1.4618073 2.7109196 -1.8053889 4288085770
3.2278595 5.0656352 -1.7888912 4288085770
-2.0404587 2.4173393 -1.8139338 4288085770
-1.8788376 2.4980876 -1.8037775 4288085770
-2.1371918 2.3668852 -1.8220204 4288085770
-2.509346 2.1792257 -1.8273746 4288085770
-1.8128967 2.5263765 -1.8036981 4288085770
5.7465363 6.3087049 -1.7954049 4288085770
-2.5541534 2.1510477 -1.8213985 4288085770
-1.9734116 2.4386389 -1.811828 4288085770
-1.7389374 2.5556972 -1.8046011 4288085770
-2.5709915 2.1369467 -1.8283957 4288085770
-1.6619797 2.5870304 -1.8055029 4288085770
-2.5598145 2.1349235 -1.8483595 4288085770
-1.901329 2.4609592 -1.8097126 4288085770
-1.4562988 2.6809316 -1.8062743 4288085770
-1.590004 2.614352 -1.8034045 4288085770
7.054245 6.8964477 -1.797925 4288085770
3.1647339 4.9623466 -1.788716 4288085770
-2.1226807 2.3439317 -1.8239051 4288085770
-1.5110321 2.6446981 -1.8032976 4288085770
6.1932831 6.4506526 -1.7977062 4288085770
-1.8232574 2.4853027 -1.8085881 4288085770
-1.4260635 2.6770697 -1.8031819 4288085770
-1.3590622 2.6993866 -1.7960798 4288085770
-1.7441864 2.5096467 -1.8084611 4288085770
-1.446785 2.652957 -1.808156 4288085770
6.881485 6.7106915 -1.7927654 4288085770
-1.2750702 2.728761 -1.7939566 4288085770
6.6689911 6.6027222 -1.801965 4288085770
-2.1191559 2.3149483 -1.8207986 4288085770
3.1335754 4.8731794 -1.7935034 4288085770
-1.6551056 2.5370314 -1.8093177 4288085770
-1.1710815 2.7662053 -1.7968076 4288085770
-1.5690231 2.5624092 -1.8081754 4288085770
-1.4432755 2.6219671 -1.8070431 4288085770
-1.0630951 2.804667 -1.7996517 4288085770
7.2236023 6.7831249 -1.8101107 4288085770
6.7266922 6.5330057 -1.7895848 4288085770
-2.0996399 2.2940102 -1.8246766 4288085770
-0.96109772 2.8391166 -1.7984979 4288085770
3.0904312 4.7789707 -1.795305 4288085770
-1.4799347 2.587801 -1.8070253 4288085770
-0.85907745 2.8725693 -1.7963411 4288085770
-1.4317474 2.5930045 -1.8079156 4288085770
-1.3838425 2.6152191 -1.8068635 4288085770
7.783226 6.9585547 -1.8162268 4288085770
-0.75006866 2.9080493 -1.7951722 4288085770
-2.0891113 2.2680502 -1.8235615 4288085770
6.5918427 6.3684101 -1.7863942 4288085770
3.0333099 4.67871 -1.7941226 4288085770
-1.2907257 2.639631 -1.8046997 4288085770
-0.63105774 2.9465659 -1.7959875 4288085770
-1.4182358 2.5660512 -1.8087895 4288085770
8.4357147 7.1693711 -1.8292166 4288085770
-0.51702881 2.9810743 -1.7928023 4288085770
-1.1926117 2.6650612 -1.8035259 4288085770
-2.064621 2.249131 -1.8284328 4288085770
6.4879456 6.2189403 -1.786172 4288085770
-0.39200592 3.0196238 -1.7916018 4288085770
3.0021515 4.5905542 -1.7959118 4288085770
-1.0935059 2.6905034 -1.8003495 4288085770
-1.4047012 2.5370979 -1.8096565 4288085770
9.0802689 7.3661714 -1.8361806 4288085770
-0.24699402 3.0652478 -1.7943721 4288085770
-0.98238373 2.7189901 -1.7991517 4288085770
-2.0520554 2.2221823 -1.8263085 4288085770
-0.10699463 3.1088595 -1.7941489 4288085770
6.3500748 6.0573406 -1.7799981 4288085770
2.9769745 4.5064244 -1.7976983 4288085770
-0.86625671 2.748492 -1.799944 4288085770
-1.3801727 2.5131812 -1.813511 4288085770
9.6629486 7.5257421 -1.831183 4288085770
0.055023193 3.1585541 -1.7978883 4288085770
-0.74115753 2.7820308 -1.8017262 4288085770
-2.0315323 2.2002559 -1.8281798 4288085770
0.18707275 3.1931517 -1.7916557 4288085770
6.2790985 5.927011 -1.7807517 4288085770
2.9567795 4.4253125 -1.800481 4288085770
10.430367 7.7590642 -1.8429453 4288085770
-1.3666382 2.4842346 -1.8123776 4288085770
-0.60404205 2.8176143 -1.8054835 4288085770
0.36607361 3.2479169 -1.7963672 4288085770
-2.0199661 2.1723061 -1.8250543 4288085770
0.53110504 3.293642 -1.7950853 4288085770
6.2091293 5.7966828 -1.7825021 4288085770
-0.47990417 2.8461618 -1.8032515 4288085770
11.311623 8.0308685 -1.8605368 4288085770
2.9296112 4.3401804 -1.8002683 4288085770
-1.3491135 2.4572983 -1.8132401 4288085770
0.72111511 3.3484592 -1.7987677 4288085770
-0.35577393 2.8737168 -1.7990158 4288085770
-1.9984283 2.1493869 -1.8259193 4288085770
6.1521301 5.6734152 -1.783241 4288085770
12.170959 8.2796068 -1.8691084 4288085770
0.90612793 3.399272 -1.7974499 4288085770
-1.3145828 2.4364226 -1.8180778 4288085770
2.9244156 4.265131 -1.804031 4288085770
-0.20664215 2.9093561 -1.8017416 4288085770
1.1241379 3.4612045 -1.8030826 4288085770
-1.9668884 2.1304982 -1.8307712 4288085770
-0.067489624 2.9389687 -1.7994733 4288085770
6.0861435 5.5471182 -1.7809929 4288085770
-1.3040085 2.4034693 -1.8149379 4288085770
1.3331528 3.5171156 -1.8037184 4288085770
2.9202194 4.1900902 -1.8067905 4288085770
0.099647522 2.9786806 -1.804165 4288085770
1.5661469 3.5801208 -1.807315 4288085770
-1.9493332 2.1045718 -1.8286359 4288085770
-1.2734756 2.3805828 -1.8177791 4288085770
6.0491028 5.4349351 -1.782715 4288085770
0.25179291 3.0103505 -1.8018692 4288085770
2.9190216 4.1160612 -1.809545 4288085770
1.8121414 3.6461797 -1.8118874 4288085770
-1.9207916 2.0836794 -1.8304887 4288085770
0.41794586 3.0450749 -1.8015466 4288085770
-1.2479172 2.3536844 -1.8176196 4288085770
2.0711365 3.7142992 -1.8154324 4288085770
6.0260468 5.3278146 -1.7844167 4288085770
2.9217987 4.0450511 -1.8122985 4288085770
0.58309174 3.0787983 -1.8002231 4288085770
2.312149 3.7733572 -1.8139942 4288085770
-1.8982162 2.0587714 -1.8293432 4288085770
-1.2213745 2.3277876 -1.8184607 4288085770
6.0149612 5.2267442 -1.7861062 4288085770
0.76425171 3.1155889 -1.7998677 4288085770
2.5851517 3.8405492 -1.8144989 4288085770
2.9056244 3.9649739 -1.8100711 4288085770
-1.8656616 2.0378928 -1.8321847 4288085770
0.94741058 3.1503909 -1.7985001 4288085770
2.8601608 3.9057522 -1.8139914 4288085770
-1.1898117 2.302912 -1.8192916 4288085770
6.0198822 5.1297383 -1.7897667 4288085770
2.9034271 3.8909545 -1.8088268 4288085770
3.1621399 3.9780712 -1.8144366 4288085770
1.1485672 3.1902616 -1.8001019 4288085770
-1.8520889 2.0089629 -1.826049 4288085770
-1.1542435 2.2780502 -1.8211118 4288085770
6.016777 5.0327044 -1.7914474 4288085770
3.4821243 4.0534687 -1.8148444 4288085770
1.3617249 3.231185 -1.8016753 4288085770
2.9072189 3.8199558 -1.8095762 4288085770
-1.8195343 1.988088 -1.82789 4288085770
-1.1226883 2.2521784 -1.8209391 4288085770
3.7961349 4.1228504 -1.8122476 4288085770
1.5858612 3.2751493 -1.8052299 4288085770
6.0136871 4.9346766 -1.7911241 4288085770
2.9040146 3.7459359 -1.8073332 4288085770
4.1241302 4.1932969 -1.8086172 4288085770
1.8040237 3.3141017 -1.8047832 4288085770
-1.7889709 1.9652114 -1.8277295 4288085770
-1.0921249 2.225306 -1.8197649 4288085770
4.4471359 4.2587323 -1.8019828 4288085770
6.014595 4.837667 -1.7907928 4288085770
2.0341949 3.3531103 -1.8033048 4288085770
2.887825 3.6668727 -1.801107 4288085770
-1.0575638 2.1994472 -1.8195838 4288085770
-1.7584076 1.9423356 -1.8275685 4288085770
4.8251114 4.3393903 -1.8002542 4288085770
2.2623749 3.3891137 -1.8008213 4288085770
6.0344696 4.7477374 -1.7914345 4288085770
2.8916168 3.5958836 -1.7988547 4288085770
5.221077 4.4211369 -1.7964817 4288085770
-1.0210037 2.1745968 -1.8194003 4288085770
-1.7228394 1.9204804 -1.8273978 4288085770
2.4965591 3.4241498 -1.7963182 4288085770
6.058342 4.6588292 -1.7910687 4288085770
5.6620102 4.5150619 -1.7976309 4288085770
2.895401 3.5248983 -1.795602 4288085770
2.7647324 3.4673176 -1.7967526 4288085770
-0.97644806 2.1517744 -1.8212023 4288085770
-1.6942673 1.895602 -1.8252348 4288085770
6.1079559 4.6040268 -1.7937498 4288085770
-2.7024841 1.5282499 -1.800658 4288085770
6.0862045 4.5719385 -1.7906982 4288085770
3.0379181 3.508507 -1.7971666 4288085770
-2.6054688 1.5566103 -1.8184969 4288085770
2.9151764 3.4589763 -1.7943236 4288085770
-0.93587494 2.1259453 -1.8200043 4288085770
-2.5414276 1.5718895 -1.8183783 4288085770
-1.6577072 1.8737551 -1.8240609 4288085770
-2.6282654 1.5405242 -1.8135016 4288085770
6.6288452 4.7122965 -1.7967355 4288085770
-2.5723267 1.5587633 -1.8154154 4288085770
-2.5223999 1.5749903 -1.8133379 4288085770
-2.4714279 1.5902239 -1.8102542 4288085770
-2.4803848 1.5861595 -1.8172642 4288085770
-2.4134903 1.6084789 -1.8101625 4288085770
-2.3505325 1.6277552 -1.8100609 4288085770
-2.2865601 1.6460352 -1.809953 4288085770
3.3440704 3.5588312 -1.8005241 4288085770
-2.4113388 1.6024569 -1.8181356 4288085770
-2.2225952 1.6643193 -1.8088453 4288085770
6.0920944 4.4769678 -1.7853577 4288085770
-2.1426239 1.6876522 -1.8137121 4288085770
-2.3452911 1.6177521 -1.8160118 4288085770
7.1547318 4.8175983 -1.7966975 4288085770
2.9349289 3.3940613 -1.7910479 4288085770
-2.0696335 1.7069718 -1.8135837 4288085770
-0.88832092 2.1031404 -1.8207979 4288085770
-1.9946442 1.7272968 -1.8144536 4288085770
-2.2812347 1.6310459 -1.8118863 4288085770
-1.625145 1.8498909 -1.8228904 4288085770
-1.9146576 1.7486438 -1.8153135 4288085770
3.6682205 3.6102309 -1.8048373 4288085770
-2.2061691 1.6473699 -1.8127416 4288085770
-1.8296509 1.7700118 -1.8161601 4288085770
7.7066193 4.924017 -1.7955939 4288085770
-1.7596436 1.7863359 -1.8110292 4288085770
-2.1220856 1.6657251 -1.8155801 4288085770
6.1848831 4.4123378 -1.7918893 4288085770
-1.6676331 1.809731 -1.8128641 4288085770
2.9706802 3.3342025 -1.7917466 4288085770
-0.84375 2.078325 -1.8205923 4288085770
-2.0370178 1.6840888 -1.817416 4288085770
-1.5776215 1.8311253 -1.8126973 4288085770
4.0043945 3.660686 -1.808115 4288085770
-1.5845795 1.828058 -1.8227054 4288085770
-1.948967 1.7034659 -1.8192475 4288085770
-1.4736099 1.8565692 -1.8155072 4288085770
8.3304443 5.0477395 -1.7983581 4288085770
-1.3685913 1.8810178 -1.818311 4288085770
-1.8558731 1.7218651 -1.821062 4288085770
6.3136368 4.3568554 -1.8013562 4288085770
-1.2725677 1.9024488 -1.8151282 4288085770
4.3275681 3.7041025 -1.8064029 4288085770
-0.78321075 2.0585666 -1.8243613 4288085770
2.9974442 3.2703183 -1.7884549 4288085770
-1.7687836 1.7382482 -1.8198853 4288085770
-1.5460129 1.8052202 -1.8215219 4288085770
-1.1645279 1.9259174 -1.8159204 4288085770
9.0072556 5.1786933 -1.8010057 4288085770
-1.6836853 1.7536296 -1.8167107 4288085770
-1.0514755 1.9494109 -1.8156992 4288085770
4.6897354 3.7546723 -1.8096113 4288085770
-1.5885925 1.7710439 -1.8165163 4288085770
-0.93845367 1.9739088 -1.8144817 4288085770
6.4204254 4.2922897 -1.8068494 4288085770
-0.72364807 2.0368063 -1.8271258 4288085770
9.6311264 5.286447 -1.7947142 4288085770
3.0611725 3.2185707 -1.792106 4288085770
-0.79541016 2.0055056 -1.8222086 4288085770
-1.4904785 1.7874751 -1.8153105 4288085770
-1.5024414 1.7834005 -1.8213283 4288085770
-0.66736603 2.0310657 -1.8219546 4288085770
-1.3873749 1.8059248 -1.8150984 4288085770
5.0958862 3.8124278 -1.8147271 4288085770
10.426865 5.4369202 -1.7981117 4288085770
6.4982224 4.2196188 -1.8063911 4288085770
-0.54129791 2.0546234 -1.8196987 4288085770
-0.67108917 2.0130262 -1.8269016 4288085770
-1.2682648 1.8274294 -1.8188539 4288085770
3.1148987 3.1627944 -1.7917691 4288085770
-1.457901 1.7625891 -1.8201356 4288085770
-0.39225769 2.0852647 -1.8224063 4288085770
-1.1521454 1.8469319 -1.8196105 4288085770
5.4980545 3.8651729 -1.8178358 4288085770
-2.5771484 1.409636 -1.8279022 4288085770
-0.25320435 2.1108763 -1.821123 4288085770
11.298553 5.6007128 -1.8053523 4288085770
-1.0320282 1.8664483 -1.8213564 4288085770
-0.60953522 1.9912829 -1.8276602 4288085770
6.5830307 4.1469774 -1.8059136 4288085770
-0.098144531 2.1395538 -1.8208075 4288085770
3.1596375 3.103986 -1.7894454 4288085770
-1.4093246 1.7407881 -1.8209282 4288085770
5.8782578 3.9058418 -1.8149612 4288085770
-0.9068985 1.8859906 -1.8220888 4288085770
0.0679245 2.170269 -1.8234695 4288085770
12.232201 5.7727818 -1.8114557 4288085770
-2.5906525 1.3816357 -1.8088391 4288085770
-0.79676056 1.9004884 -1.816844 4288085770
0.23098755 2.1989856 -1.8221328 4288085770
-0.55197144 1.9675245 -1.8274221 4288085770
6.6848145 4.0784082 -1.8064044 4288085770
6.2934647 3.9506586 -1.814007 4288085770
-1.3577728 1.7209995 -1.8217199 4288085770
3.2413559 3.0553179 -1.7930574 4288085770
-0.64962769 1.9241121 -1.8215319 4288085770
13.263802 5.9592772 -1.8183477 4288085770
0.39706421 2.2267182 -1.8197844 4288085770
-2.5441895 1.3717979 -1.8176785 4288085770
0.59313202 2.2605653 -1.8223768 4288085770
-0.51347351 1.9427091 -1.8202314 4288085770
-0.49143219 1.9447834 -1.8261796 4288085770
6.723671 3.9945447 -1.8120093 4288085770
6.8285751 4.021009 -1.8108209 4288085770
0.79220581 2.2944288 -1.8239617 4288085770
-1.3072128 1.6992146 -1.8205067 4288085770
-2.536705 1.3498567 -1.80758 4288085770
-0.35434723 1.9673822 -1.8258908 4288085770
3.3440475 3.0127316 -1.7996339 4288085770
0.9872818 2.3252861 -1.8225464 4288085770
-0.19819641 1.9890524 -1.8285475 4288085770
-0.43186951 1.9200376 -1.8249322 4288085770
7.1688995 4.0364957 -1.8099645 4288085770
6.9583435 3.958559 -1.8122563 4288085770
1.193367 2.357187 -1.8221053 4288085770
-2.5842285 1.3127725 -1.7705755 4288085770
-1.2496567 1.6794493 -1.822282 4288085770
-0.059043884 2.0046773 -1.8232286 4288085770
3.4157562 2.9600379 -1.7982578 4288085770
1.4304581 2.3942096 -1.825599 4288085770
7.6810837 4.0907192 -1.8137828 4288085770
-0.36231232 1.8983293 -1.8256686 4288085770
0.11012268 2.0264044 -1.8258505 4288085770
-2.4137497 1.3352774 -1.835196 4288085770
7.1040802 3.899179 -1.8136593 4288085770
1.6445389 2.4241638 -1.8201295 4288085770
-1.1911163 1.6596955 -1.8220543 4288085770
3.4894714 2.9073493 -1.7978758 4288085770
0.28929138 2.0491755 -1.8284494 4288085770
8.1882935 4.1369362 -1.8135861 4288085770
1.8816299 2.4572051 -1.8186092 4288085770
-0.29476929 1.8746189 -1.8244029 4288085770
0.46746826 2.0699461 -1.8300437 4288085770
7.259819 3.8408437 -1.8150384 4288085770
-1.1355591 1.6379285 -1.8218272 4288085770
2.1327286 2.4923034 -1.8180586 4288085770
3.5881653 2.8597634 -1.799444 4288085770
0.64964294 2.0897408 -1.8296238 4288085770
8.7235184 4.1822748 -1.813311 4288085770
2.3948135 2.5274575 -1.8154787 4288085770
-0.22721863 1.8509123 -1.8221372 4288085770
0.86280823 2.1156535 -1.8341422 4288085770
-1.0710144 1.618198 -1.8225828 4288085770
7.3995819 3.7754514 -1.8124348 4288085770
2.6579361 2.5596225 -1.8108852 4288085770
9.3017349 4.2317953 -1.8149351 4288085770
3.6938629 2.8132045 -1.8019966 4288085770
1.0619888 2.1365197 -1.8346804 4288085770
-0.15067291 1.8282412 -1.8208506 4288085770
2.9630203 2.5999577 -1.810208 4288085770
-1.0134888 1.5974478 -1.8203537 4288085770
7.591301 3.7222698 -1.8147341 4288085770
1.2691956 2.1554239 -1.8341901 4288085770
9.8969574 4.2773986 -1.814499 4288085770
3.2991028 2.6444147 -1.813462 4288085770
3.7835617 2.7615933 -1.7995738 4288085770
13.277634 5.0712576 -1.811219 4288085770
-0.063148499 1.8086083 -1.8225449 4288085770
1.5053787 2.1804376 -1.8386433 4288085770
3.6072083 2.678781 -1.8077554 4288085770
-0.94293976 1.5777398 -1.822093 4288085770
7.7680435 3.6630373 -1.8130515 4288085770
10.522202 4.322125 -1.8159791 4288085770
1.7305832 2.1994243 -1.8371048 4288085770
3.9052505 2.7161083 -1.8010862 4288085770
0.020385742 1.7869649 -1.8222427 4288085770
3.955307 2.7193089 -1.805963 4288085770
13.278763 4.926228 -1.8157071 4288085770
-0.8733902 1.5570344 -1.8218313 4288085770
1.9558029 2.2164147 -1.834559 4288085770
11.172455 4.3639641 -1.8163816 4288085770
4.3134155 2.7578902 -1.8011369 4288085770
7.9727631 3.607924 -1.8123077 4288085770
4.0259399 2.6696188 -1.8025972 4288085770
0.11791992 1.7673756 -1.82391 4288085770
13.290871 4.7862501 -1.8191824 4288085770
2.2220078 2.2395666 -1.8369249 4288085770
4.7005081 2.8005934 -1.7982472 4288085770
-0.80686951 1.5363239 -1.8195775 4288085770
11.899681 4.4141321 -1.8196061 4288085770
8.220459 3.5609846 -1.8154767 4288085770
2.4682312 2.2556531 -1.8333191 4288085770
