# .PCD v0.7 - Point Cloud Data file format
VERSION 0.7
FIELDS x y z rgb
SIZE 4 4 4 4
TYPE F F F U
COUNT 1 1 1 1
WIDTH 1137
HEIGHT 1
VIEWPOINT 0 0 0 1 0 0 0
POINTS 1137
DATA ascii
4.3722038 0.85459387 -1.797581 4288085770
11.359154 1.9731134 -1.7784163 4288085770
7.7871819 1.3963641 -1.7982192 4288085770
6.0153008 1.1079334 -1.786678 4288085770
7.217186 1.3012575 -1.8061204 4288085770
9.3780937 1.6477691 -1.8151096 4288085770
5.2713699 0.97878802 -1.7949492 4288085770
8.0932999 1.4214386 -1.8004053 4288085770
6.2154427 1.1189796 -1.7874647 4288085770
12.737404 2.1413689 -1.7576329 4288085770
4.4564896 0.8376087 -1.796959 4288085770
17.41021 2.8704739 -1.7759571 4288085770
8.4454079 1.4505359 -1.806769 4288085770
6.4365654 1.1330367 -1.7903301 4288085770
7.3724899 1.2752939 -1.8068088 4288085770
9.6503716 1.6268452 -1.8202633 4288085770
11.609478 1.9291841 -1.7825341 4288085770
5.3846397 0.96181262 -1.7954456 4288085770
8.7805443 1.4746128 -1.8070755 4288085770
6.6666985 1.1460963 -1.7932346 4288085770
13.275665 2.1465025 -1.7608095 4288085770
4.5577507 0.82264173 -1.8014019 4288085770
17.96854 2.8296189 -1.7803236 4288085770
9.1546822 1.5017015 -1.8085339 4288085770
6.8928566 1.1561443 -1.7921298 4288085770
9.9516449 1.607932 -1.8265306 4288085770
7.524807 1.2473181 -1.80349 4288085770
5.5019073 0.9448396 -1.7959585 4288085770
11.867805 1.8822509 -1.7846919 4288085770
9.5618172 1.5298043 -1.8121243 4288085770
13.839935 2.1476398 -1.7631019 4288085770
4.6510315 0.80565917 -1.8008168 4288085770
7.1479912 1.1692098 -1.795136 4288085770
18.562859 2.7887707 -1.7838371 4288085770
9.9829559 1.5569049 -1.8137741 4288085770
5.6351662 0.92887533 -1.7985345 4288085770
10.222942 1.5819925 -1.8256925 4288085770
7.4081383 1.1802744 -1.7971673 4288085770
7.7031097 1.2213606 -1.8042725 4288085770
12.156128 1.836331 -1.78897 4288085770
14.432205 2.1467848 -1.7655134 4288085770
4.7383156 0.78766978 -1.7982099 4288085770
10.419109 1.5830036 -1.8134875 4288085770
7.674305 1.1893319 -1.7962278 4288085770
5.7744255 0.91291296 -1.8011348 4288085770
10.879288 1.6071011 -1.8103034 4288085770
10.540234 1.5590698 -1.827035 4288085770
7.8924026 1.1964031 -1.8040979 4288085770
7.9704628 1.2004055 -1.798406 4288085770
4.8435707 0.77169597 -1.7996718 4288085770
15.067478 2.1419435 -1.7691097 4288085770
12.442463 1.7884001 -1.7892448 4288085770
11.352478 1.6301926 -1.8041749 4288085770
8.2696419 1.2084714 -1.7976034 4288085770
5.9096832 0.895944 -1.8017215 4288085770
10.870522 1.5361506 -1.8284305 4288085770
8.0966873 1.1714545 -1.8059845 4288085770
11.857685 1.6512901 -1.7971812 4288085770
4.9498291 0.75571954 -1.800138 4288085770
15.736763 2.1341076 -1.7718521 4288085770
8.5838203 1.2155412 -1.7968644 4288085770
12.762787 1.7414829 -1.7916561 4288085770
6.0579262 0.87998092 -1.8033589 4288085770
12.388885 1.6733915 -1.7892916 4288085770
11.196815 1.5102202 -1.8258172 4288085770
8.2919769 1.1454936 -1.8038371 4288085770
8.9239922 1.2236227 -1.7982289 4288085770
5.0770607 0.74176228 -1.805685 4288085770
16.449051 2.1222816 -1.7737794 4288085770
12.998081 1.6985203 -1.7847127 4288085770
6.2051849 0.86301291 -1.8029951 4288085770
13.128094 1.6975826 -1.7962443 4288085770
9.2831764 1.2297069 -1.7986757 4288085770
11.555111 1.4852973 -1.8233324 4288085770
5.2062988 0.72680008 -1.8092427 4288085770
8.5142632 1.1195453 -1.8037997 4288085770
13.698265 1.7286855 -1.785493 4288085770
9.7033272 1.240826 -1.8063592 4288085770
6.3694229 0.84705436 -1.8046979 4288085770
17.196342 2.1044674 -1.7768639 4288085770
14.473434 1.7618719 -1.787572 4288085770
13.511406 1.6506847 -1.7999129 4288085770
5.3315544 0.70982885 -1.8097889 4288085770
11.964375 1.4633981 -1.8250484 4288085770
8.7795219 1.0966204 -1.8089308 4288085770
10.120514 1.2459265 -1.8080447 4288085770
6.5406685 0.83009446 -1.8054321 4288085770
15.320625 1.7950736 -1.7889447 4288085770
18.020622 2.086678 -1.7822627 4288085770
10.545715 1.2490247 -1.8077677 4288085770
5.4607964 0.69385874 -1.8103496 4288085770
12.388657 1.4394923 -1.8228307 4288085770
13.97369 1.6088227 -1.8098923 4288085770
9.0397949 1.0716835 -1.8100464 4288085770
6.7328911 0.81514895 -1.809247 4288085770
16.255817 1.829295 -1.789674 4288085770
11.013912 1.2511367 -1.8086686 4288085770
5.5940437 0.67688429 -1.8089287 4288085770
12.85194 1.4155966 -1.8207722 4288085770
17.293011 1.8655447 -1.7918146 4288085770
9.3080673 1.0457443 -1.8091975 4288085770
6.9221268 0.79919112 -1.8090525 4288085770
14.41301 1.5589339 -1.8117971 4288085770
11.499126 1.2502476 -1.8076459 4288085770
5.7442741 0.66092491 -1.8115748 4288085770
18.426216 1.8998131 -1.7923515 4288085770
13.418186 1.3967458 -1.826122 4288085770
7.1283493 0.78324378 -1.8109273 4288085770
9.6133347 1.0198225 -1.8114995 4288085770
12.007343 1.2463619 -1.8057244 4288085770
14.930298 1.5140783 -1.8190087 4288085770
5.8905029 0.64495397 -1.8102052 4288085770
7.3415794 0.76629269 -1.8108331 4288085770
14.03244 1.3779038 -1.8306679 4288085770
12.563572 1.2414883 -1.8040009 4288085770
9.9166145 0.99188936 -1.8097981 4288085770
6.0687103 0.63001072 -1.8159634 4288085770
15.497589 1.4662353 -1.8264313 4288085770
7.5827942 0.7513572 -1.8138487 4288085770
13.19178 1.2376472 -1.8075689 4288085770
14.724674 1.3610846 -1.8365275 4288085770
10.238892 0.96395504 -1.8061748 4288085770
6.2199516 0.61203277 -1.811619 4288085770
7.825016 0.73441327 -1.8138731 4288085770
5.7560844 0.55990267 -1.8038493 4288085770
5.9410858 0.57494497 -1.8035679 4288085770
6.1390915 0.5909903 -1.8033373 4288085770
5.5681114 0.54285085 -1.8011229 4288085770
5.3981171 0.52781224 -1.801465 4288085770
6.3471031 0.60603857 -1.8031496 4288085770
5.2471199 0.51378357 -1.8038825 4288085770
13.893982 1.2328299 -1.813441 4288085770
6.5681114 0.62308967 -1.8030106 4288085770
16.10788 1.4164013 -1.8330346 4288085770
5.084156 0.49773812 -1.8012555 4288085770
6.7981453 0.63813746 -1.8009124 4288085770
4.9351845 0.48269868 -1.7996831 4288085770
7.0481644 0.65519857 -1.8018912 4288085770
15.449921 1.3422664 -1.8395265 4288085770
4.8181953 0.47068095 -1.8032343 4288085770
4.5551872 0.44862783 -1.8062139 4288085770
4.691185 0.45966101 -1.8067423 4288085770
4.9671974 0.48172033 -1.8048155 4288085770
4.7962189 0.46766722 -1.8001517 4288085770
4.4431801 0.43861437 -1.8107808 4288085770
5.1202049 0.49275756 -1.8054132 4288085770
7.3251839 0.67227149 -1.8049799 4288085770
4.3162079 0.42658019 -1.8092911 4288085770
6.4061623 0.59608293 -1.8144126 4288085770
10.594158 0.93603551 -1.8046861 4288085770
5.2922058 0.50480783 -1.8090857 4288085770
4.6602592 0.45263112 -1.7986321 4288085770
4.1912346 0.41454124 -1.8058096 4288085770
7.5892372 0.68732262 -1.8010205 4288085770
5.4532318 0.5148387 -1.8067183 4288085770
4.074276 0.40250707 -1.8033609 4288085770
5.6272545 0.52588129 -1.8074015 4288085770
4.5422974 0.4386102 -1.8011836 4288085770
7.8962631 0.70539761 -1.8022293 4288085770
8.1052132 0.71949065 -1.8180478 4288085770
5.8042946 0.53591609 -1.8050991 4288085770
4.430336 0.42459071 -1.8037596 4288085770
8.2303009 0.72348249 -1.8045479 4288085770
6.0023193 0.54696727 -1.8068801 4288085770
14.613213 1.2210037 -1.8143994 4288085770
4.3073883 0.41055489 -1.8012906 4288085770
6.2103577 0.55701804 -1.807704 4288085770
8.5783501 0.7405647 -1.8049262 4288085770
4.1984367 0.39653051 -1.8018786 4288085770
6.6013641 0.58113289 -1.8162408 4288085770
16.741177 1.3625652 -1.8367419 4288085770
6.4234085 0.56706452 -1.8065482 4288085770
16.247173 1.3224612 -1.8408223 4288085770
8.9204292 0.75563204 -1.8002845 4288085770
10.97641 0.9081248 -1.8043078 4288085770
4.0944977 0.38250732 -1.8024868 4288085770
6.66045 0.57712531 -1.8084904 4288085770
8.3844147 0.7035588 -1.8192213 4288085770
9.3314819 0.77473319 -1.8019148 4288085770
6.8955193 0.58617437 -1.8064266 4288085770
9.747551 0.79182422 -1.7995701 4288085770
15.422424 1.2102114 -1.8197229 4288085770
7.164566 0.59624588 -1.8094991 4288085770
6.8165512 0.56619668 -1.8211507 4288085770
10.222618 0.81094134 -1.8014615 4288085770
7.4396324 0.60531056 -1.8095983 4288085770
17.179398 1.3067006 -1.8466591 4288085770
8.6926117 0.68863773 -1.8215107 4288085770
11.439648 0.88224876 -1.8092551 4288085770
10.690716 0.82703722 -1.7963313 4288085770
17.44648 1.305745 -1.8397501 4288085770
7.7187119 0.61237097 -1.8077189 4288085770
11.277775 0.84819067 -1.8016744 4288085770
16.295654 1.1934303 -1.8233217 4288085770
8.0327873 0.62044835 -1.8089794 4288085770
7.0307617 0.54924583 -1.8210614 4288085770
11.869869 0.86632621 -1.8000453 4288085770
8.3748589 0.62953496 -1.8113518 4288085770
8.9948273 0.6707015 -1.8187828 4288085770
18.300587 1.2950064 -1.8602576 4288085770
11.939869 0.85638273 -1.8143537 4288085770
12.461994 0.88244498 -1.7924209 4288085770
8.7249489 0.63561618 -1.8107641 4288085770
18.257767 1.2499601 -1.8461888 4288085770
7.264946 0.53330898 -1.8240514 4288085770
17.2309 1.1696581 -1.8241905 4288085770
9.102047 0.64170361 -1.8102865 4288085770
13.195091 0.90261853 -1.7923621 4288085770
9.3360214 0.65478063 -1.8182096 4288085770
9.4361916 0.64275074 -1.7986455 4288085770
12.461109 0.82851398 -1.8165431 4288085770
14.046165 0.92583859 -1.7987773 4288085770
7.5061417 0.51736569 -1.8240702 4288085770
9.7002106 0.63886607 -1.8177305 4288085770
9.8313255 0.64482653 -1.7922506 4288085770
15.018238 0.95109665 -1.8086815 4288085770
18.341122 1.1459514 -1.8337734 4288085770
10.294441 0.64793265 -1.7911309 4288085770
7.761322 0.50142872 -1.8251462 4288085770
16.076336 0.97536051 -1.8129388 4288085770
12.966381 0.79461372 -1.8086818 4288085770
10.05843 0.61993325 -1.8112341 4288085770
10.810543 0.65106177 -1.7932276 4288085770
17.289429 1.0006691 -1.8198261 4288085770
8.0544891 0.48550987 -1.8293774 4288085770
11.37466 0.65319955 -1.7945222 4288085770
10.492607 0.6050365 -1.8110385 4288085770
13.668571 0.76881278 -1.8196052 4288085770
18.814476 1.0350887 -1.8399647 4288085770
11.987785 0.65334952 -1.7960215 4288085770
8.3546638 0.46958435 -1.8306373 4288085770
10.98877 0.59016597 -1.8150957 4288085770
14.311821 0.73495615 -1.8153075 4288085770
12.695881 0.65454102 -1.8039061 4288085770
8.6788292 0.45366812 -1.8329953 4288085770
11.51894 0.57429659 -1.8162943 4288085770
13.505978 0.6547637 -1.814209 4288085770
15.095032 0.70415735 -1.8195741 4288085770
8.9800262 0.43472135 -1.8262666 4288085770
12.097095 0.55944228 -1.8186865 4288085770
14.392078 0.65200877 -1.8258296 4288085770
9.3152084 0.41778886 -1.8216726 4288085770
12.739243 0.54560411 -1.8213378 4288085770
15.962238 0.67037725 -1.8231907 4288085770
15.134304 0.63714015 -1.8088917 4288085770
9.6783829 0.3998636 -1.8171947 4288085770
13.474388 0.53079224 -1.825371 4288085770
16.116463 0.62537682 -1.8089256 4288085770
17.005424 0.63765609 -1.8325233 4288085770
10.091553 0.38195634 -1.8149214 4288085770
14.286522 0.51699948 -1.8297163 4288085770
17.264599 0.61167037 -1.8146417 4288085770
10.557686 0.36607373 -1.8168595 4288085770
18.084629 0.59992218 -1.8340153 4288085770
15.208645 0.50323868 -1.8355103 4288085770
18.467789 0.58995008 -1.8106019 4293729569
11.089813 0.35021353 -1.8210671 4288085770
16.266758 0.48951483 -1.8428597 4288085770
7.103035 -3.5685964 -1.9356945 4288085770
9.069294 -4.4958973 -1.9714705 4288085770
4.2680817 -2.3046355 -1.8813545 4288085770
5.2771378 -2.7682643 -1.9013823 4288085770
6.889267 -3.5146852 -1.93124 4288085770
8.6783333 -4.3469572 -1.978531 4288085770
11.257267 -5.539916 -1.8770889 4293729569
8.7754784 -4.4099846 -1.9704057 4288085770
6.7054634 -3.4707289 -1.9330026 4288085770
5.2724495 -2.8112643 -1.9035954 4288085770
4.2534142 -2.3376513 -1.8814579 4288085770
8.4846687 -4.3210826 -1.9673406 4288085770
8.7176781 -4.4389548 -1.9792547 4288085770
11.299652 -5.6539469 -1.8719518 4293729569
6.5066872 -3.4178071 -1.9296342 4288085770
8.1938705 -4.2282047 -1.9602531 4288085770
5.2517815 -2.8463042 -1.8996779 4288085770
4.2507172 -2.3746452 -1.8846484 4288085770
6.3039246 -3.35991 -1.9222165 4288085770
8.7810097 -4.5439215 -1.9841801 4288085770
11.392014 -5.7919326 -1.8722177 4293729569
7.9500313 -4.1542654 -1.9615247 4288085770
5.2610626 -2.8952761 -1.9059997 4288085770
6.1361198 -3.3169608 -1.9220709 4288085770
4.2400436 -2.4086595 -1.8847787 4288085770
7.6852264 -4.0683799 -1.9546164 4288085770
8.8383484 -4.6469011 -1.9870619 4282675967
11.215534 -5.8002243 -1.8323094 4293729569
5.9663277 -3.2700245 -1.9198923 4288085770
7.4274292 -3.9815044 -1.9457403 4288085770
5.2583694 -2.9382868 -1.9062234 4288085770
4.227356 -2.4396796 -1.8838817 4288085770
7.2065964 -3.9095755 -1.9441472 4288085770
5.7945366 -3.2191062 -1.9146805 4288085770
8.9206657 -4.7618556 -1.9931451 4282675967
11.186974 -5.8793588 -1.8125938 4293729569
7.0027466 -3.8436303 -1.9446789 4288085770
5.2586746 -2.9832907 -1.9074743 4288085770
5.644722 -3.1771517 -1.9146374 4288085770
4.2226677 -2.4756858 -1.8850555 4288085770
6.785923 -3.7677307 -1.9380851 4288085770
9.0679245 -4.9097195 -2.0117624 4282675967
11.121429 -5.9385338 -1.7875673 4293729569
5.4939156 -3.1332152 -1.9115779 4288085770
5.2579842 -3.0273008 -1.9077142 4288085770
6.5890923 -3.7008128 -1.9336492 4288085770
10.01656 -5.4309611 -0.41573673 4293729569
10.072376 -5.4617128 -0.45521033 4293729569
4.2109985 -2.5087123 -1.8831749 4288085770
5.3620834 -3.0962434 -1.9136596 4288085770
10.059547 -5.4793763 -1.0182555 4293729569
6.4072342 -3.6368718 -1.9323107 4288085770
9.148243 -5.0256863 -2.0158398 4282675967
10.240383 -5.5826373 -1.6408244 4293729569
5.2702637 -3.0762887 -1.9110518 4288085770
5.2182808 -3.0523109 -1.9096378 4288085770
9.9080544 -5.4492412 -0.37425014 4293729569
10.001438 -5.4974957 -0.4960264 4293729569
6.2303772 -3.5739417 -1.929005 4288085770
4.2132835 -2.5467038 -1.8863972 4288085770
9.9676247 -5.5071836 -1.0559138 4293729569
5.0884476 -3.0123558 -1.9087136 4288085770
6.0615196 -3.5130095 -1.9257535 4288085770
9.054718 -5.0539064 -1.9844897 4288085770
9.909996 -5.4961166 -1.575556 4293729569
5.2765541 -3.1222961 -1.9113405 4288085770
9.9574814 -5.5442567 -0.53904927 4293729569
9.8535461 -5.493505 -0.33319956 4293729569
5.9026527 -3.4560618 -1.9245781 4288085770
4.9556198 -2.9684196 -1.9047509 4288085770
4.2135925 -2.5847085 -1.8876091 4288085770
9.926693 -5.5589523 -1.0979806 4293729569
5.7397995 -3.3941455 -1.9183534 4288085770
8.9242249 -5.0601854 -1.9448174 4288085770
9.8524399 -5.5462956 -1.549522 4293729569
4.8327866 -2.9294679 -1.9028701 4288085770
9.9415245 -5.6060047 -0.58330661 4293729569
5.2888298 -3.1712894 -1.9136779 4288085770
9.8190346 -5.5467558 -0.29330689 4293729569
5.6029091 -3.3441787 -1.9193357 4288085770
4.2278633 -2.6286845 -1.8929294 4288085770
9.9057426 -5.620697 -1.1432108 4293729569
4.7189407 -2.892508 -1.9020488 4288085770
5.4500504 -3.2832646 -1.9121705 4288085770
9.9545631 -5.6817389 -0.62879819 4293729569
9.8078728 -5.6014585 -1.525586 4293729569
8.8396873 -5.0884027 -1.9135153 4288085770
9.8335114 -5.6229925 -0.25380662 4293729569
5.2991142 -3.2182956 -1.9139936 4288085770
5.3281479 -3.2372935 -1.913256 4288085770
4.6021004 -2.8525605 -1.8991948 4288085770
4.2271538 -2.6646948 -1.8931245 4288085770
9.8967819 -5.6874261 -1.1905335 4293729569
5.2042503 -3.1883404 -1.911314 4288085770
4.5022354 -2.8205841 -1.9004768 4288085770
9.9575882 -5.7504687 -0.67519677 4293729569
5.0773506 -3.1363943 -1.9083391 4288085770
9.8739929 -5.7132206 -0.21452443 4293729569
8.8290863 -5.1535206 -1.8958181 4288085770
9.7992897 -5.6755915 -1.5049497 4293729569
5.305397 -3.2633085 -1.9132766 4288085770
4.3903923 -2.7806468 -1.89565 4288085770
4.9674377 -3.0924251 -1.9085006 4288085770
9.9727707 -5.7980766 -1.2475594 4293729569
4.2264442 -2.6997101 -1.8923138 4288085770
4.8565331 -3.0464737 -1.9056453 4288085770
4.2905273 -2.7446878 -1.8939098 4288085770
4.7526131 -3.0025139 -1.9038391 4288085770
5.3346443 -3.3192844 -1.9177445 4288085770
9.826683 -5.7676907 -1.4886076 4293729569
8.8424683 -5.2326016 -1.8833281 4293729569
4.6456909 -2.9545667 -1.8999946 4288085770
4.1926575 -2.7087278 -1.8921804 4288085770
4.2377129 -2.7416987 -1.8956069 4288085770
4.5627403 -2.9195766 -1.9023517 4288085770
4.4618111 -2.872633 -1.8975451 4288085770
4.0948029 -2.6717858 -1.8874457 4288085770
4.3748627 -2.8326674 -1.8958528 4288085770
5.3529129 -3.3702812 -1.9191253 4288085770
4.2879143 -2.791707 -1.893155 4288085770
8.866848 -5.3166847 -1.8699253 4293729569
4.0208893 -2.6457887 -1.8909013 4288085770
4.2059555 -2.7517452 -1.8904899 4288085770
4.1319771 -2.7157631 -1.8908901 4288085770
4.2449951 -2.7817001 -1.8968673 4288085770
4.0490265 -2.6738188 -1.8852085 4288085770
3.9389954 -2.6148176 -1.8902862 4288085770
3.9820366 -2.63884 -1.884652 4288085770
3.7420082 -2.505919 -1.8816165 4288085770
3.7980232 -2.5379021 -1.8820968 4288085770
3.9250298 -2.6088462 -1.8861773 4288085770
3.8590393 -2.5728781 -1.8836209 4288085770
5.3681679 -3.4172907 -1.9184676 4288085770
3.8501129 -2.578866 -1.8866056 4288085770
8.9331818 -5.4227071 -1.8648709 4293729569
3.7821884 -2.5528727 -1.8890936 4288085770
4.2542648 -2.8207064 -1.8971326 4288085770
3.7042923 -2.5209117 -1.8864945 4288085770
5.3984184 -3.4742718 -1.9219465 4288085770
8.9915314 -5.5257559 -1.8557569 4293729569
4.2675171 -2.8616993 -1.8994306 4288085770
5.4266663 -3.5282707 -1.9223979 4288085770
9.0548668 -5.6307907 -1.8486806 4293729569
4.2897568 -2.9076777 -1.9038051 4288085770
5.4638901 -3.5872436 -1.9269254 4288085770
9.1431885 -5.7498059 -1.8438172 4293729569
4.3099976 -2.952662 -1.9071631 4288085770
5.5091019 -3.6502132 -1.9315184 4288085770
9.2544937 -5.8818021 -1.8411502 4293729569
5.5363464 -3.7032242 -1.9299586 4288085770
4.3232498 -2.992672 -1.9064555 4288085770
5.5865479 -3.7681918 -1.9345896 4288085770
4.3384857 -3.0326753 -1.9067588 4288085770
9.3608093 -6.0128055 -1.8374503 4293729569
10.934002 -6.9582367 -1.8662038 4293729569
5.6267586 -3.82618 -1.9361279 4288085770
4.3597183 -3.0766706 -1.9081163 4288085770
10.50819 -6.7664065 -1.8568351 4293729569
9.5030975 -6.1647744 -1.8380615 4293729569
5.664978 -3.8831868 -1.9346496 4288085770
4.3859367 -3.122664 -1.9095123 4288085770
10.105377 -6.5845714 -1.8476466 4293729569
9.6313896 -6.3077645 -1.8355471 4293729569
5.7261505 -3.9521441 -1.9403621 4288085770
4.4081497 -3.1646643 -1.9098643 4288085770
9.7225761 -6.4087405 -1.8365993 4293729569
9.8825989 -6.5266109 -1.8521186 4293729569
5.7793427 -4.0171275 -1.9420092 4288085770
9.3437653 -6.2289209 -1.8235515 4293729569
4.4313622 -3.207664 -1.9102273 4288085770
5.8375282 -4.0831094 -1.943689 4288085770
10.104836 -6.7295055 -1.8614448 4293729569
9.0688972 -6.1079865 -1.825393 4293729569
4.4705467 -3.2596352 -1.9147265 4288085770
5.8997002 -4.1520896 -1.9454069 4288085770
10.317089 -6.9284225 -1.8676946 4293729569
8.8359947 -6.0100031 -1.8335888 4293729569
5.9678574 -4.2220612 -1.9481629 4288085770
4.5117226 -3.3116045 -1.9192365 4288085770
8.6270866 -5.923007 -1.8429755 4293729569
6.0380173 -4.295033 -1.9509462 4288085770
4.5339203 -3.3516216 -1.9165775 4288085770
6.1171646 -4.3710012 -1.9537947 4288085770
8.4461479 -5.8499789 -1.8565911 4293729569
4.5760956 -3.4036026 -1.9190928 4288085770
6.1903076 -4.4419827 -1.9545832 4288085770
8.2182617 -5.7440357 -1.8577698 4293729569
4.6172562 -3.4535837 -1.9215918 4288085770
6.2804298 -4.5229406 -1.958519 4288085770
7.9903793 -5.6341047 -1.8569266 4293729569
6.3845444 -4.6128769 -1.9655802 4288085770
4.6594162 -3.5035758 -1.9220961 4288085770
9.8899612 -6.8847141 -1.8411354 4293729569
7.7594986 -5.5191913 -1.8530394 4293729569
6.4956398 -4.7058163 -1.971696 4288085770
9.5820007 -6.7138004 -1.840521 4293729569
4.7135544 -3.5605397 -1.9267042 4288085770
6.6217155 -4.8067327 -1.9809371 4288085770
7.5745773 -5.430223 -1.8565449 4293729569
9.272068 -6.5379214 -1.8338683 4293729569
6.7527924 -4.9096537 -1.9892166 4288085770
4.7576981 -3.6105309 -1.9272193 4288085770
8.9291611 -6.337101 -1.8188989 4293729569
7.3796692 -5.3322744 -1.8569466 4293729569
6.819931 -4.9696884 -1.9809119 4288085770
8.7221603 -6.2211137 -1.8261356 4293729569
4.8038445 -3.6605268 -1.9267452 4288085770
6.8151512 -4.9818625 -1.951952 4288085770
8.528141 -6.1111164 -1.834476 4293729569
7.2007484 -5.2413158 -1.8584735 4293729569
6.8013725 -4.9860516 -1.9208995 4288085770
8.3501244 -6.0081201 -1.8419418 4293729569
4.8639565 -3.7184882 -1.9313911 4288085770
6.802578 -4.9972234 -1.8919667 4293729569
8.1491318 -5.888166 -1.8431891 4293729569
7.0318298 -5.1553602 -1.8590825 4293729569
6.8926811 -5.0652494 -1.8838309 4293729569
7.9561234 -5.770215 -1.8434908 4293729569
6.9558105 -5.1143255 -1.8684436 4293729569
7.7930946 -5.6702247 -1.8490543 4293729569
7.0399055 -5.1753707 -1.8572365 4293729569
4.9240685 -3.7754674 -1.9330314 4288085770
7.6230736 -5.5622611 -1.8505359 4293729569
7.1220169 -5.2334342 -1.843002 4293729569
7.4540558 -5.4543076 -1.850023 4293729569
7.2510681 -5.3204241 -1.8391821 4293729569
6.9258385 -5.1073074 -1.8732423 4293729569
4.9851761 -3.8314462 -1.9346719 4288085770
6.8088531 -5.0492754 -1.8842874 4293729569
5.0452766 -3.8864303 -1.9353012 4288085770
6.6908722 -4.9882617 -1.8923105 4293729569
5.1093674 -3.9424129 -1.9359578 4288085770
6.6527939 -4.9791045 -1.921054 4288085770
5.1894417 -4.0083728 -1.9397563 4288085770
6.6337051 -4.9809303 -1.9519613 4288085770
5.26651 -4.0713387 -1.9425218 4288085770
6.5976143 -4.9677839 -1.9786936 4288085770
5.3485641 -4.1353035 -1.94532 4288085770
6.5095901 -4.9197421 -1.9899509 4288085770
5.4296227 -4.1972795 -1.9461018 4288085770
6.3726196 -4.8347979 -1.9867388 4288085770
5.5166702 -4.2622533 -1.9469329 4288085770
6.2136688 -4.733901 -1.976319 4288085770
5.6146965 -4.3322062 -1.9508508 4288085770
6.0627174 -4.6360016 -1.9659591 4288085770
5.7097244 -4.3991771 -1.9517361 4288085770
5.9397316 -4.5550642 -1.9608449 4288085770
5.8137436 -4.471139 -1.9536978 4288085770
10.689667 7.9724011 -1.6943316 4288085770
10.366833 7.74019 -1.6900626 4288085770
10.050018 7.507977 -1.6848164 4288085770
9.8321266 7.3438745 -1.6916651 4288085770
9.5852776 7.1567235 -1.6914985 4288085770
9.3244667 6.9585481 -1.6873242 4288085770
9.090641 6.7773948 -1.6841819 4288085770
8.8788185 6.6092587 -1.6820697 4288085770
8.6799965 6.4491324 -1.6809736 4288085770
8.4831924 6.2880044 -1.6788893 4288085770
8.3073769 6.140892 -1.6778268 4288085770
8.1465645 6.0037932 -1.6777797 4288085770
7.997757 5.8717065 -1.6787574 4288085770
7.8709297 5.75564 -1.6817527 4288085770
7.7381363 5.6335559 -1.6817498 4288085770
7.6353149 5.5305157 -1.6877823 4288085770
7.5205269 5.4184484 -1.6888062 4288085770
11.137135 7.811646 -1.6946585 4288085770
7.415741 5.3123903 -1.6908433 4288085770
10.833458 7.562427 -1.68653 4288085770
7.2959747 5.1973023 -1.6878608 4288085770
10.627701 7.3763251 -1.6925124 4288085770
7.1982079 5.0942445 -1.6889118 4288085770
10.445942 7.207233 -1.697516 4288085770
4.2543297 3.1556191 -1.7257401 4288085770
4.1903648 3.1135721 -1.7236707 4288085770
4.3133278 3.1926465 -1.723811 4288085770
4.1204224 3.0665131 -1.7195994 4288085770
4.3803215 3.2336826 -1.7228956 4288085770
4.0744514 3.0334969 -1.7225611 4288085770
4.4523087 3.27773 -1.7239869 4288085770
4.0354805 3.0044928 -1.7275327 4288085770
7.1104317 4.9971957 -1.690976 4288085770
4.5193329 3.3157573 -1.7210839 4288085770
3.980545 2.9644504 -1.7254893 4288085770
10.205246 6.9990649 -1.6924567 4288085770
4.6033401 3.3638158 -1.7232038 4288085770
3.9256287 2.9224038 -1.722454 4288085770
4.6873589 3.4108696 -1.7243279 4288085770
3.8906822 2.8933978 -1.7264407 4288085770
4.7663994 3.452908 -1.7224536 4288085770
3.8537598 2.8613825 -1.7284323 4288085770
7.0266685 4.9031501 -1.6930428 4288085770
10.000534 6.8139348 -1.691439 4288085770
4.8454475 3.4939423 -1.7195835 4288085770
3.8158531 2.8273616 -1.7294282 4288085770
4.949482 3.549016 -1.7227501 4288085770
3.7709732 2.7883201 -1.7264184 4288085770
9.8018341 6.632803 -1.6894275 4288085770
6.9429169 4.8080955 -1.6931138 4288085770
5.0545197 3.6030908 -1.7259243 4288085770
3.7420769 2.7583084 -1.7284319 4288085770
5.1965256 3.6782188 -1.7371519 4288085770
3.7061958 2.7242808 -1.7274356 4288085770
9.6311264 6.4686956 -1.6894518 4288085770
5.2806282 3.7152395 -1.7303166 4288085770
6.8671684 4.7180495 -1.6941942 4288085770
5.4605789 3.8263483 -1.7305403 4288085770
5.364624 3.7652822 -1.7284282 4288085770
5.5914993 3.9084644 -1.7396979 4288085770
5.277668 3.7082329 -1.7293338 4288085770
5.6595268 3.9484696 -1.7307904 4288085770
5.1787529 3.6421523 -1.724231 4288085770
5.7385559 3.9944801 -1.7218997 4288085770
3.6813126 2.6952748 -1.7304599 4288085770
5.0958176 3.585093 -1.7221516 4288085770
5.8265686 4.0455084 -1.7160224 4288085770
5.3857155 3.7642894 -1.727511 4288085770
5.0188942 3.5310416 -1.7210824 4288085770
5.9255981 4.1005478 -1.71117 4288085770
4.9479752 3.4789972 -1.7210277 4288085770
6.0486069 4.1686177 -1.7103547 4288085770
3.6534538 2.6632547 -1.7304856 4288085770
9.4474411 6.2965665 -1.6854596 4288085770
5.5637054 3.8574629 -1.7448001 4288085770
6.8094101 4.6370306 -1.6993055 4288085770
4.8880501 3.4329681 -1.7229897 4288085770
6.1566429 4.2266617 -1.705524 4288085770
6.2786751 4.291719 -1.701717 4288085770
4.8221512 3.3819227 -1.7219498 4288085770
3.6266022 2.6312356 -1.7305149 4288085770
5.6588364 3.8954868 -1.7370019 4288085770
4.7632446 3.3348861 -1.7219195 4288085770
6.3997307 4.3527708 -1.6969225 4288085770
9.295742 6.1454668 -1.6845022 4288085770
6.7326927 4.5449719 -1.6973902 4288085770
6.5407753 4.4258432 -1.6941543 4288085770
4.7023621 3.284842 -1.7208943 4288085770
3.6097374 2.6052341 -1.7335571 4288085770
5.8039093 3.9635839 -1.7402688 4288085770
4.6464767 3.237802 -1.7198756 4288085770
6.6918182 4.5019288 -1.6934112 4288085770
3.594883 2.5792375 -1.7376068 4288085770
5.8980713 3.9965944 -1.7294869 4288085770
9.1730156 6.0114045 -1.6885841 4288085770
6.8618584 4.5880313 -1.6936984 4288085770
4.6055946 3.1977878 -1.7228844 4288085770
6.6879349 4.4729605 -1.7025135 4288085770
7.0429001 4.6781402 -1.6940105 4288085770
4.5647125 3.1577682 -1.7248935 4288085770
6.0521584 4.0656939 -1.7317834 4288085770
3.5780487 2.551228 -1.7386575 4288085770
7.2319412 4.7722569 -1.6953362 4288085770
9.0433121 5.8743219 -1.6886518 4288085770
4.5238609 3.1157408 -1.7249106 4288085770
6.6421852 4.3999486 -1.7076366 4288085770
6.1323547 4.0876703 -1.7149936 4288085770
3.5582352 2.5202122 -1.7387089 4288085770
7.3920555 4.8433151 -1.6866468 4288085770
4.4840012 3.0747175 -1.7259274 4288085770
6.300457 4.1597815 -1.7183299 4288085770
8.9186249 5.7392435 -1.68873 4288085770
7.5951195 4.9394331 -1.6860166 4288085770
3.5503998 2.496223 -1.7437767 4288085770
4.443161 3.0326862 -1.7249445 4288085770
6.5734863 4.3108945 -1.705739 4288085770
7.8211823 5.0455732 -1.6874316 4288085770
6.4445953 4.2168508 -1.7146373 4288085770
4.4093208 2.9926662 -1.7259796 4288085770
3.5355949 2.4672146 -1.7448387 4288085770
8.8179169 5.6191864 -1.690837 4288085770
8.0552483 5.1547122 -1.6878643 4288085770
6.5397491 4.2438846 -1.7098827 4288085770
6.5787697 4.2638927 -1.7059475 4288085770
4.3774872 2.9536476 -1.7270182 4288085770
3.5217896 2.4392018 -1.7449003 4288085770
8.3193054 5.2778835 -1.691352 4288085770
8.7222137 5.5021319 -1.6929505 4288085770
4.3426781 2.9126148 -1.7250538 4288085770
6.7648888 4.3400102 -1.7083343 4288085770
6.5259895 4.1889129 -1.7200524 4288085770
8.5813789 5.39604 -1.6918522 4288085770
3.5179939 2.4142103 -1.7489873 4288085770
4.3198586 2.8766055 -1.7271138 4288085770
6.924057 4.3970804 -1.7026973 4288085770
8.6275215 5.3860784 -1.6950636 4288085770
8.8434715 5.5111856 -1.6893646 4288085770
3.5072098 2.386199 -1.74906 4288085770
6.5152512 4.1329365 -1.7292371 4288085770
4.2990456 2.8415971 -1.7291772 4288085770
7.1122093 4.468184 -1.7011114 4288085770
9.1315575 5.6373544 -1.6889291 4288085770
8.5448265 5.2770319 -1.6971929 4288085770
3.4944458 2.3551779 -1.7471377 4288085770
4.278244 2.8065844 -1.7302407 4288085770
9.4246597 5.7625194 -1.6865162 4288085770
7.2883911 4.529263 -1.695521 4288085770
6.4645615 4.054893 -1.7273614 4288085770
4.2614403 2.7725778 -1.7323148 4288085770
8.4481621 5.1589608 -1.6953062 4288085770
3.4926643 2.3311839 -1.7502278 4288085770
9.7597466 5.9067221 -1.6871824 4288085770
7.4965401 4.6063828 -1.6949849 4288085770
6.472805 4.0099454 -1.7405723 4288085770
4.2406654 2.7355566 -1.7313864 4288085770
10.119835 6.0609388 -1.6879014 4288085770
3.4889107 2.3041806 -1.7513226 4288085770
7.7037125 4.6794939 -1.692461 4288085770
8.3694916 5.0519085 -1.6954421 4288085770
10.494915 6.2191653 -1.6886597 4288085770
4.2268867 2.7015471 -1.7324718 4288085770
6.4401131 3.9409237 -1.7417269 4288085770
7.9488564 4.7706475 -1.6950059 4288085770
3.4961281 2.2832031 -1.7574341 4288085770
8.2728348 4.9358339 -1.692547 4288085770
10.912987 6.395431 -1.6925048 4288085770
4.2201042 2.6715546 -1.7365669 4288085770
6.4064293 3.8709021 -1.7428819 4288085770
8.1890221 4.855783 -1.6935557 4288085770
3.492382 2.2561955 -1.7575289 4288085770
11.357059 6.581708 -1.6954062 4288085770
8.2161522 4.8418026 -1.6947119 4288085770
4.2053375 2.6365366 -1.7356526 4288085770
8.4401894 4.9439287 -1.6931343 4288085770
6.3717499 3.8018713 -1.742029 4288085770
3.4926376 2.2301936 -1.7586342 4288085770
11.848118 6.7870221 -1.7004052 4288085770
4.2045708 2.6075468 -1.739766 4288085770
8.1604881 4.747767 -1.6958805 4288085770
8.7333374 5.050117 -1.6967962 4288085770
12.37817 7.00736 -1.7054883 4288085770
3.492897 2.2041922 -1.7597398 4288085770
6.3570595 3.7418723 -1.7462139 4288085770
4.2017975 2.5785522 -1.742872 4288085770
9.0115089 5.1432796 -1.6964539 4288085770
8.1187973 4.6627531 -1.7000645 4288085770
12.918247 7.2246928 -1.7076201 4288085770
3.4981689 2.1791968 -1.7618597 4288085770
4.1900673 2.5425315 -1.7409725 4288085770
6.3503647 3.6858826 -1.7514124 4288085770
9.3276672 5.2534776 -1.6991843 4288085770
13.407379 7.4089503 -1.6986946 4288085770
8.0921211 4.5837517 -1.7052799 4288085770
3.507431 2.1572084 -1.7649822 4288085770
4.1893196 2.5125337 -1.7430898 4288085770
9.643837 5.3586688 -1.699934 4288085770
14.169346 7.7274842 -1.7172432 4288085770
6.3177109 3.6168451 -1.7485663 4288085770
8.0634422 4.5037456 -1.7094918 4288085770
4.1965637 2.4865522 -1.7482204 4288085770
3.5147095 2.1322145 -1.7671094 4288085770
9.963028 5.4598484 -1.6977106 4288085770
6.2890587 3.5498133 -1.7467268 4288085770
8.0477562 4.4317541 -1.7157193 4288085770
4.1928444 2.4535408 -1.7473384 4288085770
3.5239944 2.1082215 -1.7692399 4288085770
10.3162 5.5750623 -1.6985565 4288085770
6.2634163 3.4827828 -1.7448983 4288085770
4.1981163 2.4245453 -1.7494737 4288085770
8.0300903 4.3567543 -1.7199515 4288085770
3.5252991 2.0802078 -1.7673566 4288085770
10.677391 5.687273 -1.6974435 4288085770
6.2637367 3.4307938 -1.7491057 4288085770
4.2003899 2.3945446 -1.7506015 4288085770
11.064575 5.8085027 -1.6973902 4288085770
3.5375862 2.0572162 -1.7694939 4288085770
7.9884453 4.27072 -1.7191384 4288085770
4.2066689 2.3655462 -1.7517403 4288085770
6.2211266 3.3557291 -1.7412457 4288085770
11.482754 5.9387569 -1.698415 4288085770
3.5528755 2.0352311 -1.7726383 4288085770
7.94981 4.1866822 -1.7173282 4288085770
4.2119637 2.3355436 -1.7518791 4288085770
11.916946 6.0690126 -1.697498 4288085770
6.1775131 3.2816639 -1.7333783 4288085770
3.5651817 2.0112352 -1.7737795 4288085770
7.9431496 4.1166887 -1.7215799 4288085770
4.2252541 2.308557 -1.7550355 4288085770
12.421089 6.2283401 -1.7037233 4288085770
6.1678734 3.2236481 -1.7325721 4288085770
3.5794868 1.9872447 -1.775928 4288085770
7.9185104 4.0396652 -1.7207931 4288085770
4.2385483 2.2815633 -1.7561915 4288085770
12.925259 6.3796563 -1.7069798 4288085770
16.288349 7.924788 -1.728255 4288085770
6.1672211 3.1706457 -1.733779 4288085770
3.5918007 1.9622453 -1.7760729 4288085770
7.920845 3.9756808 -1.7260536 4288085770
13.490406 6.5520225 -1.7133768 4288085770
4.2548447 2.2545786 -1.7593588 4288085770
15.871868 7.6065097 -1.7229753 4288085770
6.1595802 3.1146302 -1.7329717 4288085770
3.6171074 1.9422728 -1.7812457 4288085770
7.9122047 3.9056697 -1.7262973 4288085770
14.077557 6.7273936 -1.7178419 4288085770
4.269146 2.2275844 -1.7605183 4288085770
15.4454 7.2892127 -1.7146544 4288085770
3.6314392 1.9172703 -1.7803975 4288085770
6.1609383 3.0616236 -1.7331855 4288085770
14.775669 6.940866 -1.7305641 4288085770
7.9165573 3.8416791 -1.7295648 4288085770
4.2824707 2.1975856 -1.760686 4288085770
15.2318 7.0721211 -1.725721 4288085770
3.6447754 1.8912672 -1.7795497 4288085770
6.1712952 3.0126286 -1.7344161 4288085770
15.395855 7.111239 -1.7301687 4288085770
7.9299011 3.7816973 -1.733849 4288085770
4.3047714 2.172605 -1.7638668 4288085770
3.0581245 1.615877 -1.7724791 4288085770
3.1201973 1.6349212 -1.7746325 4288085770
14.905296 6.8088984 -1.7205538 4288085770
3.6621132 1.8662702 -1.7797124 4288085770
3.1882591 1.6569771 -1.7787958 4288085770
15.995075 7.2635722 -1.7227662 4288085770
6.1696625 2.9586167 -1.7336226 4288085770
3.1183815 1.6199039 -1.7716854 4288085770
4.3380623 2.1516423 -1.770072 4288085770
3.0664139 1.5968555 -1.7675849 4288085770
3.166378 1.6399335 -1.7717829 4288085770
3.0174446 1.5748173 -1.7654917 4288085770
7.9342613 3.7166982 -1.7351197 4288085770
3.2373657 1.6699811 -1.7729251 4288085770
3.219368 1.6619741 -1.7738906 4288085770
3.0433311 1.5849649 -1.7985475 4288085770
3.2673874 1.6809956 -1.7719922 4288085770
3.3353729 1.7080601 -1.7781353 4288085770
3.384407 1.7260777 -1.7752446 4288085770
3.3164291 1.6950516 -1.7791171 4288085770
3.4444351 1.7481176 -1.7763784 4288085770
14.622768 6.5697136 -1.7184532 4288085770
3.5034676 1.7691499 -1.7755125 4288085770
3.6904182 1.8472961 -1.7838917 4288085770
16.7952 7.4910932 -1.7318047 4288085770
3.3885155 1.7161013 -1.7812994 4288085770
3.5625076 1.790177 -1.7736466 4288085770
6.1800232 2.909616 -1.7338526 4288085770
3.6225662 1.810201 -1.7707884 4288085770
4.3583832 2.1246524 -1.7712531 4288085770
3.4506264 1.732129 -1.7794645 4288085770
7.948616 3.656713 -1.7384069 4288085770
3.6916161 1.8332421 -1.7709514 4288085770
3.7676544 1.8592952 -1.7731282 4288085770
3.5277214 1.7541784 -1.7806609 4288085770
3.829731 1.8783122 -1.7682812 4288085770
14.351246 6.3375306 -1.7153651 4288085770
17.722279 7.7607217 -1.7481422 4288085770
3.7147522 1.8243116 -1.7860719 4288085770
3.9107933 1.9043647 -1.7694764 4288085770
3.5998421 1.7722157 -1.7798549 4288085770
6.1863899 2.8586097 -1.7330759 4288085770
4.3857079 2.0996699 -1.7734516 4288085770
3.9908714 1.9284085 -1.7686758 4288085770
7.9659767 3.5967269 -1.740705 4288085770
3.6839447 1.795277 -1.7830731 4288085770
4.0739479 1.9534537 -1.7678823 4288085770
18.620399 8.0053015 -1.7564708 4282675967
14.08073 6.1103373 -1.7092608 4288085770
3.7610626 1.8143173 -1.7822814 4288085770
4.1700134 1.9835232 -1.7711167 4288085770
3.7410889 1.8023282 -1.7882553 4288085770
4.4150162 2.0756927 -1.7766535 4288085770
4.2511139 2.0055547 -1.7673277 4288085770
6.205761 2.8116188 -1.7343308 4288085770
3.841198 1.8333563 -1.7805007 4288085770
7.9923401 3.5397453 -1.7430239 4288085770
4.3451996 2.0326114 -1.7675666 4288085770
3.9163475 1.8493797 -1.7757133 4288085770
13.88916 5.9212241 -1.7112961 4288085770
4.4373055 2.0576582 -1.7658058 4288085770
3.7784119 1.7833632 -1.793467 4288085770
4.4393501 2.0487008 -1.7768487 4288085770
4.0044746 1.8704308 -1.775954 4288085770
4.5274239 2.0806913 -1.7610458 4288085770
6.2361107 2.770647 -1.7386019 4288085770
8.028698 3.4867773 -1.7473631 4288085770
4.640522 2.111763 -1.7623384 4288085770
4.0906219 1.8894688 -1.773195 4288085770
13.704597 5.7361064 -1.7113411 4288085770
4.7316589 2.1327887 -1.7555897 4288085770
3.8037529 1.7603751 -1.7946504 4288085770
4.1887589 1.9115306 -1.7744683 4288085770
4.4716797 2.0237255 -1.7800651 4288085770
6.2634735 2.7266645 -1.7408737 4288085770
4.8657494 2.169889 -1.7609357 4288085770
8.0380745 3.4227734 -1.7466465 4288085770
4.2889061 1.9335884 -1.7747487 4288085770
4.9599037 2.1899123 -1.7532018 4288085770
13.54504 5.5620084 -1.7124339 4288085770
3.8290901 1.7373835 -1.7948335 4288085770
4.3970451 1.9576558 -1.7760503 4288085770
4.4960251 1.9957258 -1.7782637 4288085770
5.0830307 2.2199774 -1.7515347 4288085770
6.290844 2.6826787 -1.7421452 4288085770
8.0414772 3.3557501 -1.7419194 4288085770
4.4982147 1.9777073 -1.7743423 4288085770
5.2121544 2.2510552 -1.7518855 4288085770
13.404461 5.3999257 -1.7145492 4288085770
3.8594437 1.7143985 -1.7960348 4288085770
4.5923843 1.9947377 -1.7686201 4288085770
4.5403442 1.9747652 -1.7835079 4288085770
5.3442879 2.2821259 -1.7502474 4288085770
6.3242073 2.6407003 -1.7444304 4288085770
8.0678596 3.29776 -1.7422407 4288085770
5.5024071 2.3212366 -1.7546729 4288085770
4.709549 2.0178075 -1.7689584 4288085770
13.277885 5.2438512 -1.7166914 4288085770
5.6435471 2.3533092 -1.7520633 4288085770
4.5706787 1.9487771 -1.7837204 4288085770
3.8857956 1.6904026 -1.7952251 4288085770
4.8357086 2.0428939 -1.7723217 4288085770
6.3645668 2.6007352 -1.748733 4288085770
5.7897034 2.3843856 -1.749476 4288085770
8.0972404 3.2407689 -1.7415686 4288085770
4.9538918 2.0639505 -1.7696714 4288085770
13.184299 5.1018066 -1.7208991 4288085770
5.9488564 2.4194732 -1.7479203 4288085770
4.6020279 1.9217891 -1.7839401 4288085770
3.9091644 1.6643974 -1.7924123 4288085770
5.0810623 2.0880222 -1.7690421 4288085770
6.1090126 2.4525576 -1.745376 4288085770
6.3949394 2.556747 -1.7490145 4288085770
8.1416092 3.1887984 -1.7439315 4288085770
5.2052574 2.1080832 -1.7664174 4288085770
13.036751 4.9416947 -1.7169795 4288085770
4.6373711 1.895804 -1.7841704 4288085770
6.271183 2.4846396 -1.7418427 4288085770
3.9395103 1.6414083 -1.7926129 4288085770
5.3524132 2.1361828 -1.769845 4288085770
6.4593353 2.5247488 -1.7413731 4288085770
6.449295 2.5207939 -1.7543519 4288085770
8.1829948 3.1348143 -1.7432908 4288085770
12.939171 4.8016343 -1.718164 4288085770
4.6826973 1.8738369 -1.7874212 4288085770
5.4866104 2.1572504 -1.7672526 4288085770
3.9778557 1.6204318 -1.7948349 4288085770
6.6405144 2.558846 -1.738901 4288085770
5.6457901 2.1853533 -1.7697237 4288085770
6.5066528 2.4848428 -1.7597001 4288085770
6.8306961 2.5949454 -1.7354538 4288085770
8.2283707 3.0828366 -1.7436564 4288085770
4.7270317 1.8508617 -1.7886723 4288085770
12.842609 4.6635661 -1.7173437 4288085770
4.0082169 1.5964352 -1.793039 4288085770
5.7949905 2.2074342 -1.7681817 4288085770
7.0518456 2.6400838 -1.7370843 4288085770
6.5410347 2.4408536 -1.7589951 4288085770
8.2727547 3.0288544 -1.7430258 4288085770
7.2570419 2.6761885 -1.7326914 4288085770
5.9521904 2.2315207 -1.7666608 4288085770
4.7763672 1.8278962 -1.7919412 4288085770
12.774017 4.5385246 -1.7185749 4288085770
4.0415688 1.573444 -1.79225 4288085770
7.4742203 2.7153049 -1.7293303 4288085770
6.1114006 2.2536035 -1.7641548 4288085770
6.5904007 2.4018817 -1.7603251 4288085770
8.3371239 2.9818935 -1.7444404 4288085770
4.8297043 1.8059341 -1.7952205 4288085770
7.71241 2.7574377 -1.7270337 4288085770
12.730427 4.4215016 -1.7208651 4288085770
4.0689392 1.5474375 -1.7884507 4288085770
6.2766151 2.2756901 -1.7616705 4288085770
7.9945679 2.8116269 -1.7318503 4288085770
6.6517601 2.3659286 -1.7646865 4288085770
6.4518242 2.299788 -1.7602144 4288085770
8.4015007 2.9339314 -1.7458586 4288085770
4.8710518 1.7799491 -1.7944714 4288085770
12.688831 4.3064804 -1.7231545 4288085770
4.1082954 1.5254508 -1.7876793 4288085770
8.2567596 2.8567748 -1.7296289 4288085770
6.6270523 2.3208766 -1.7567699 4288085770
6.7091293 2.3279657 -1.767041 4288085770
8.4788628 2.8899779 -1.7473079 4288085770
4.9353714 1.7610017 -1.7997786 4288085770
8.55793 2.9109678 -1.7325143 4288085770
12.662239 4.1964722 -1.7264788 4288085770
4.1416626 1.5004555 -1.7858975 4288085770
6.8122749 2.3429766 -1.7543577 4288085770
8.8591232 2.9611449 -1.7314144 4288085770
7.0115013 2.367085 -1.7519884 4288085770
6.7704964 2.2910056 -1.7694057 4288085770
4.9837227 1.7360204 -1.7990507 4288085770
8.5452499 2.8410091 -1.7467363 4288085770
12.634644 4.0874553 -1.7277949 4288085770
4.1880112 1.4794809 -1.7871472 4288085770
9.1563339 3.0063071 -1.7273192 4288085770
7.2217255 2.3922091 -1.7516547 4288085770
5.0360756 1.7110461 -1.799337 4288085770
6.8158798 2.2490149 -1.7667314 4288085770
9.4965363 3.0605092 -1.7263452 4288085770
8.6366119 2.7990732 -1.7502279 4288085770
4.2313652 1.4574965 -1.7863897 4288085770
12.639042 3.9884653 -1.7311882 4288085770
7.4359512 2.4163308 -1.7503393 4288085770
9.8597183 3.1197333 -1.7274349 4288085770
5.0994034 1.6900865 -1.8016475 4288085770
8.7389641 2.7611437 -1.7537436 4288085770
6.8952255 2.2160778 -1.7721453 4288085770
7.6551933 2.4384522 -1.7480493 4288085770
4.282711 1.4375249 -1.7876531 4288085770
12.652439 3.8904862 -1.7356097 4288085770
10.253914 3.1819816 -1.7296251 4288085770
7.8884315 2.4625821 -1.745802 4288085770
5.1507607 1.6641036 -1.7999336 4288085770
10.666096 3.2462416 -1.7318723 4288085770
8.8223457 2.7141862 -1.7532246 4288085770
6.9765854 2.182138 -1.7765698 4288085770
4.3300629 1.4155465 -1.7879096 4288085770
12.682827 3.7985172 -1.7400692 4288085770
8.1456528 2.4907432 -1.7476262 4288085770
11.0933 3.3084984 -1.7311813 4288085770
5.2190895 1.6431473 -1.8022617 4288085770
8.9337082 2.6752586 -1.7557759 4288085770
7.0889168 2.1562409 -1.7870756 4288085770
4.3764191 1.3925606 -1.7861661 4288085770
8.4029007 2.5138927 -1.7464691 4288085770
12.73122 3.7105637 -1.7455779 4288085770
11.568501 3.3777976 -1.7336366 4288085770
5.2864342 1.6201867 -1.8035936 4288085770
8.6751366 2.5400558 -1.7463546 4288085770
9.0390778 2.6333194 -1.7563165 4288085770
7.173275 2.1222959 -1.7895105 4288085770
4.4367523 1.3736027 -1.7894577 4288085770
12.046715 3.4430828 -1.7321175 4288085770
12.772617 3.6205978 -1.7490685 4288085770
3.1671486 1.0197355 -1.7692105 4288085770
3.0583687 0.98748529 -1.7229393 4293729569
3.2871666 1.0478255 -1.7735381 4288085770
3.2621422 1.0408446 -1.7824743 4288085770
3.3551636 1.0648714 -1.7747194 4288085770
3.4211655 1.0819088 -1.7738934 4288085770
8.9533958 2.5632143 -1.7442727 4288085770
5.3637581 1.6002363 -1.80595 4288085770
3.4822006 1.0959307 -1.7700608 4288085770
3.3262062 1.0528716 -1.7796606 4288085770
3.5562134 1.112981 -1.7712638 4288085770
12.575901 3.5184212 -1.7357445 4288085770
3.6312408 1.1300229 -1.7704705 4288085770
3.3962746 1.0659066 -1.7778646 4288085770
9.1794281 2.5994215 -1.7619528 4288085770
3.7132645 1.1480814 -1.7726988 4288085770
7.2426605 2.082325 -1.7879134 4288085770
4.4950943 1.3536359 -1.7907455 4288085770
3.7923012 1.1651224 -1.77092 4288085770
3.4713364 1.0799481 -1.777083 4288085770
3.8713531 1.181163 -1.7691451 4288085770
12.812016 3.530623 -1.7505513 4288085770
3.5394211 1.0909733 -1.7732875 4288085770
3.9643784 1.2012285 -1.7714055 4288085770
9.2506409 2.5873938 -1.7442557 4288085770
13.149101 3.5967789 -1.7375183 4288085770
4.052433 1.2182747 -1.7696594 4288085770
3.6175041 1.1040124 -1.7715206 4288085770
5.422123 1.5732502 -1.8022645 4288085770
4.1574745 1.2393512 -1.7729594 4288085770
3.7085686 1.1200794 -1.7747893 4288085770
4.2645149 1.260429 -1.7762666 4288085770
9.3137856 2.5615091 -1.764582 4288085770
4.5494576 1.3306547 -1.7890303 4288085770
7.3320198 2.0473828 -1.7903694 4288085770
3.7956429 1.1351291 -1.7740471 4288085770
4.3745613 1.281504 -1.7785846 4288085770
9.5449104 2.6075554 -1.7402424 4288085770
13.760307 3.6771617 -1.7394214 4288085770
12.859421 3.4416528 -1.7520585 4288085770
3.8827362 1.148177 -1.7733128 4288085770
4.4836197 1.3015751 -1.7799029 4288085770
5.498455 1.5512952 -1.8036242 4288085770
4.5886993 1.3196279 -1.7772144 4288085770
3.9758263 1.1622339 -1.7735964 4288085770
4.7087669 1.3407015 -1.7775687 4288085770
9.8481789 2.6267262 -1.737265 4288085770
4.0709267 1.1762832 -1.7718871 4288085770
9.4611359 2.526608 -1.7682464 4288085770
4.6098022 1.3096851 -1.7893288 4288085770
14.388519 3.755548 -1.7393929 4288085770
7.4343758 2.0144525 -1.7938641 4288085770
4.8438225 1.3648006 -1.7819657 4288085770
4.1790047 1.1933571 -1.7742133 4288085770
12.890831 3.3506613 -1.750515 4288085770
4.9639168 1.3838626 -1.7793276 4288085770
5.5708046 1.5273262 -1.8019769 4288085770
4.2841187 1.2074202 -1.7745402 4288085770
5.1099854 1.4079684 -1.7837642 4288085770
10.17944 2.6479197 -1.7353808 4288085770
15.054745 3.834949 -1.737497 4288085770
4.4041977 1.2255093 -1.7789056 4288085770
4.6711426 1.2887126 -1.7886308 4288085770
5.2530823 1.4300562 -1.7841977 4288085770
9.5945015 2.4866829 -1.7678787 4288085770
7.5337334 1.980513 -1.7953516 4288085770
4.5233002 1.2415897 -1.7812754 4288085770
5.3991623 1.4531461 -1.7846382 4288085770
12.974224 3.269722 -1.7541209 4288085770
5.6611137 1.5083884 -1.8053753 4288085770
10.544697 2.6731462 -1.7366037 4288085770
5.574234 1.4812776 -1.7911642 4288085770
15.754974 3.9143696 -1.7347231 4288085770
4.6454048 1.2576681 -1.782656 4288085770
4.7404823 1.2687529 -1.7899575 4288085770
5.7583046 1.5094188 -1.7987226 4288085770
9.7358627 2.4477673 -1.7685355 4288085770
4.7625313 1.2717315 -1.7810259 4288085770
7.6330948 1.9455694 -1.7958425 4288085770
5.9234161 1.5325128 -1.7972317 4288085770
10.915962 2.6943727 -1.736863 4288085770
4.895649 1.2878162 -1.7824459 4288085770
5.7394562 1.4844235 -1.8037494 4288085770
16.541187 4.0048561 -1.7352172 4288085770
13.04063 3.1837564 -1.7536836 4288085770
6.1304855 1.5636722 -1.8058616 4288085770
5.0147896 1.299873 -1.7788308 4288085770
4.7988205 1.2467712 -1.7872519 4288085770
9.8912277 2.4098568 -1.7682387 4288085770
6.3235931 1.5897993 -1.80846 4288085770
7.7524529 1.9136502 -1.7993939 4288085770
11.303234 2.7146058 -1.7361832 4288085770
5.1778946 1.3200003 -1.7863437 4288085770
17.330437 4.0853224 -1.729759 4288085770
5.8407822 1.4644924 -1.8071908 4288085770
6.5197105 1.6149203 -1.8090731 4288085770
13.137024 3.1048217 -1.7563274 4288085770
5.3270149 1.3370992 -1.7888175 4288085770
6.7408104 1.6440731 -1.8137609 4288085770
4.8861465 1.228839 -1.7926357 4288085770
10.079582 2.3759823 -1.7720451 4288085770
18.324612 4.2029686 -1.7378993 4288085770
11.705509 2.7338486 -1.7355607 4288085770
5.4911385 1.3552116 -1.7923417 4288085770
7.898777 1.8867677 -1.8080231 4288085770
6.942955 1.6671783 -1.8094031 4288085770
5.9341164 1.442541 -1.8066107 4288085770
5.6532784 1.3713149 -1.7938663 4288085770
13.233429 3.0248752 -1.7559744 4288085770
7.165081 1.6933125 -1.8091058 4288085770
4.953476 1.2078663 -1.7909582 4288085770
12.144783 2.7551188 -1.7360636 4288085770
5.8154335 1.3854102 -1.7933981 4288085770
10.270931 2.3421021 -1.7738619 4288085770
8.0301247 1.8548566 -1.8116169 4288085770
7.3752441 1.7134148 -1.8027877 4288085770
6.0394325 1.4226092 -1.8090661 4288085770
6.0015678 1.4035364 -1.7970012 4288085770
7.6343689 1.74358 -1.8046085 4288085770
13.355816 2.9499569 -1.7586957 4288085770
5.0248222 1.1858927 -1.7882987 4288085770
12.610054 2.7764139 -1.7386594 4288085770
6.1967049 1.4216725 -1.8016366 4288085770
10.450291 2.3042073 -1.7736501 4288085770
7.8945236 1.7697345 -1.8034478 4288085770
8.1434937 1.817911 -1.8091642 4288085770
6.1357613 1.3996557 -1.8074999 4288085770
6.3978424 1.4398082 -1.8052936 4288085770
8.1896515 1.801926 -1.8063904 4288085770
13.4842 2.8750386 -1.7604378 4288085770
13.116318 2.7987394 -1.7423985 4288085770
5.1071472 1.1659421 -1.7896713 4288085770
6.6040001 1.4559427 -1.8079762 4288085770
10.658642 2.2703347 -1.7745271 4288085770
8.4528313 1.8240584 -1.7992553 4288085770
6.2380905 1.3777064 -1.8059515 4288085770
8.2788429 1.7839946 -1.8107789 4288085770
6.8101616 1.4710699 -1.8086622 4288085770
13.64859 2.8190851 -1.747238 4288085770
8.7389984 1.8492175 -1.7951915 4288085770
5.1954727 1.1459917 -1.7900649 4288085770
13.626598 2.8001261 -1.7612299 4288085770
10.894978 2.2394876 -1.777493 4288085770
6.345417 1.354761 -1.8044245 4288085770
7.0323334 1.4862076 -1.8094058 4288085770
9.0411758 1.8743829 -1.7901852 4288085770
8.4191971 1.7500781 -1.8114113 4288085770
14.222851 2.8424625 -1.7532169 4288085770
5.2907791 1.1280533 -1.7924761 4288085770
7.242527 1.4973212 -1.806121 4288085770
9.4063339 1.9076153 -1.7923753 4288085770
13.785984 2.7282276 -1.7630711 4288085770
6.4617386 1.3328243 -1.8039259 4288085770
11.151321 2.2086535 -1.7805306 4288085770
8.5845337 1.7191888 -1.815122 4288085770
9.7664986 1.9378332 -1.7915586 4288085770
7.4807053 1.5114688 -1.8069255 4288085770
