# .PCD v0.7 - Point Cloud Data file format
VERSION 0.7
FIELDS x y z rgb
SIZE 4 4 4 4
TYPE F F F U
COUNT 1 1 1 1
WIDTH 1141
HEIGHT 1
VIEWPOINT 0 0 0 1 0 0 0
POINTS 1141
DATA ascii
3.6489179 2.0116918 -1.8012292 4288085770
3.6959131 2.0357051 -1.8031906 4288085770
3.7369094 2.0557106 -1.8021593 4288085770
7.7255397 4.2362351 -1.7105623 4288085770
3.7859046 2.078722 -1.8031237 4288085770
3.8269026 2.0977225 -1.8000947 4288085770
8.8595104 4.8378968 -1.4705818 4293729569
5.3447552 2.9219711 -1.7867388 4288085770
4.499836 2.4608405 -1.7974989 4288085770
3.8728995 2.1177266 -1.7980649 4288085770
8.8167191 4.7995591 -0.88665384 4293729569
8.8525639 4.8185658 -1.325624 4293729569
3.932893 2.1447468 -1.8020242 4288085770
3.985889 2.1677544 -1.8009901 4288085770
4.0358863 2.1877568 -1.797962 4288085770
7.7065487 4.1692495 -1.7177114 4288085770
5.3367605 2.8849735 -1.7878217 4288085770
4.4928427 2.4258361 -1.7955773 4288085770
4.10288 2.2157762 -1.8009214 4288085770
8.9155083 4.8039641 -1.494682 4293729569
8.8947315 4.7904959 -0.851704 4293729569
8.9385757 4.8095112 -1.293677 4293729569
4.165875 2.240788 -1.8008865 4288085770
4.2248716 2.2617946 -1.7988591 4288085770
5.3267679 2.8449731 -1.7879107 4288085770
7.6915574 4.1032634 -1.7238594 4288085770
8.9857435 4.7864375 -0.81774735 4293729569
4.5018454 2.4008479 -1.7996383 4288085770
4.2938666 2.2888076 -1.7988218 4288085770
9.0245876 4.7994571 -1.2617326 4293729569
9.3574448 4.9732466 -1.5814525 4293729569
4.3578634 2.3118155 -1.7967917 4288085770
4.3438649 2.2988107 -1.7958167 4288085770
4.285872 2.2677958 -1.7938672 4288085770
4.2328777 2.2397835 -1.7929127 4288085770
4.4088573 2.3318317 -1.7997639 4288085770
4.187881 2.2147799 -1.7949543 4288085770
4.4608541 2.3578365 -1.7977226 4288085770
5.3167744 2.8059702 -1.7869972 4288085770
4.1498842 2.1917801 -1.7979937 4288085770
4.5168495 2.3848426 -1.7956805 4288085770
9.0967531 4.7903848 -0.78477943 4293729569
4.1138873 2.1707804 -1.8010291 4288085770
4.433857 2.3388319 -1.7977568 4288085770
4.5778446 2.4128513 -1.7946379 4288085770
7.6615691 4.0302649 -1.7260183 4288085770
4.0638938 2.1407645 -1.7980802 4288085770
9.1196003 4.7914033 -1.2297866 4293729569
4.5008512 2.3688464 -1.7987117 4288085770
4.6478391 2.4438643 -1.7945917 4288085770
4.0238991 2.1147549 -1.7971259 4288085770
9.9203653 5.1986003 -1.6901375 4288085770
4.7218318 2.4778826 -1.7965399 4288085770
4.5128508 2.3678491 -1.7987183 4288085770
3.9909024 2.091754 -1.799167 4288085770
4.7818289 2.5028825 -1.7915038 4288085770
3.9589057 2.0697505 -1.8002063 4288085770
4.8508244 2.5318887 -1.7884618 4288085770
9.2097645 4.7943335 -0.75181234 4293729569
4.5818481 2.3898556 -1.7956924 4288085770
5.3127813 2.768971 -1.7870814 4288085770
3.9279099 2.0467472 -1.801248 4288085770
4.9288187 2.5639009 -1.787416 4288085770
9.2206097 4.7853541 -1.1988385 4293729569
7.6385794 3.9612691 -1.7291701 4288085770
4.5018563 2.3378458 -1.7977835 4288085770
3.9069114 2.0277553 -1.8062842 4288085770
5.0028143 2.5929077 -1.784376 4288085770
4.6558447 2.4128628 -1.7926661 4288085770
9.9583673 5.1456537 -1.7092751 4288085770
3.8689179 1.9997394 -1.8023351 4288085770
5.0958061 2.6309299 -1.7863219 4288085770
9.2897768 4.7792716 -0.71687722 4293729569
4.7468381 2.4438848 -1.7946274 4288085770
5.3037882 2.7289662 -1.7851708 4288085770
5.1887994 2.6679475 -1.78627 4288085770
3.8429222 1.977735 -1.8023764 4288085770
9.3326197 4.7823095 -1.1688871 4293729569
4.5038629 2.3068449 -1.7968558 4288085770
5.2887912 2.705971 -1.7882185 4288085770
3.816926 1.9547307 -1.80242 4288085770
7.6565843 3.9113002 -1.740293 4288085770
4.8268342 2.4678929 -1.7916009 4288085770
9.9153824 5.0476575 -1.7134879 4288085770
5.3787856 2.738981 -1.785175 4288085770
9.4037876 4.7792182 -0.68291974 4293729569
3.7949295 1.9337294 -1.8034604 4288085770
5.3067932 2.6949704 -1.7862506 4288085770
4.9108305 2.4939024 -1.7885714 4288085770
9.4536295 4.7812686 -1.1399348 4293729569
5.4967761 2.7840123 -1.7891139 4288085770
3.7609365 1.9057097 -1.7975127 4288085770
4.5128665 2.2788506 -1.7979236 4288085770
7.6565914 3.8543186 -1.7474254 4288085770
5.0018249 2.5209174 -1.7875419 4288085770
5.6067677 2.824033 -1.7890615 4288085770
9.5217981 4.7781653 -0.64896619 4293729569
3.7509377 1.88872 -1.8025482 4288085770
9.8773956 4.9546657 -1.7186903 4288085770
5.7257586 2.8680601 -1.791003 4288085770
5.3097987 2.6599748 -1.7873325 4288085770
9.573638 4.7792253 -1.1099842 4293729569
5.0988197 2.5499341 -1.7865101 4288085770
3.7949252 1.8987968 -1.8325408 4282675967
5.8217554 2.8980627 -1.7839687 4288085770
4.5158725 2.2478478 -1.7959961 4288085770
9.6928053 4.8021293 -0.61797398 4293729569
7.641602 3.787323 -1.7495756 4288085770
5.204813 2.5819561 -1.7874746 4288085770
3.7559345 1.8657672 -1.8226026 4288085770
9.8244133 4.8536596 -1.7189059 4288085770
5.9447474 2.9400837 -1.7829162 4288085770
5.3168039 2.625982 -1.7894137 4288085770
9.6746521 4.7641735 -1.0780567 4293729569
5.3138065 2.6139798 -1.7884402 4288085770
6.0757389 2.9851115 -1.78386 4288085770
9.8468122 4.8160858 -0.58499885 4293729569
4.5418735 2.2268698 -1.8030537 4288085770
7.6506081 3.7333431 -1.7567046 4288085770
6.1887345 3.0191193 -1.7778227 4288085770
5.4258003 2.6470039 -1.7894049 4288085770
9.7814293 4.7586589 -1.7211111 4288085770
5.3068128 2.5839705 -1.784507 4288085770
9.793664 4.7571292 -1.0471174 4293729569
6.3377242 3.0691521 -1.7797614 4288085770
10.023819 4.8360486 -0.55301833 4293729569
5.5347948 2.676018 -1.7863775 4288085770
4.5488791 2.1968701 -1.8021255 4288085770
6.4907141 3.1191859 -1.7817017 4288085770
7.6556158 3.6763604 -1.7628386 4288085770
5.3218174 2.5539818 -1.7875818 4288085770
9.9276714 4.7540908 -1.0181744 4293729569
9.6944532 4.6416278 -1.7133512 4288085770
5.6637864 2.7130494 -1.7893389 4288085770
6.6457038 3.1682158 -1.7816449 4288085770
10.203826 4.8560128 -0.52103889 4293729569
4.5538855 2.1648655 -1.7992011 4288085770
5.7667837 2.7360559 -1.7833234 4288085770
6.7916975 3.2112346 -1.7775991 4288085770
10.037685 4.737042 -0.98625511 4293729569
7.6726217 3.6243818 -1.7699656 4288085770
5.3278232 2.5189822 -1.7866648 4288085770
9.6164742 4.5306034 -1.7075804 4288085770
10.364835 4.8639669 -0.48608035 4293729569
5.898777 2.7710838 -1.7842906 4288085770
6.9606867 3.2632673 -1.7775407 4288085770
4.5798869 2.1428835 -1.8042611 4288085770
10.180696 4.7350059 -0.95731306 4293729569
5.3338299 2.48298 -1.7847502 4288085770
6.0187726 2.8000958 -1.7792674 4288085770
7.6766305 3.5663941 -1.7741017 4288085770
7.1306772 3.3132949 -1.7754874 4288085770
9.582489 4.4405985 -1.7067772 4288085770
10.542843 4.8769288 -0.45311648 4293729569
7.3276644 3.3743401 -1.7784185 4288085770
17.409349 7.9926205 -0.19142413 4293729569
6.1517663 2.8321171 -1.7772419 4288085770
4.594892 2.1148875 -1.8043308 4288085770
10.516683 4.8170443 -0.94524741 4293729569
5.3588333 2.4559982 -1.7898216 4288085770
7.6966367 3.5154166 -1.7812274 4288085770
10.75385 4.9018941 -0.41913694 4293729569
7.5386505 3.4383893 -1.7823478 4288085770
9.5765018 4.3626094 -1.7109562 4288085770
6.3027582 2.8701515 -1.7792095 4288085770
17.673326 7.9928236 -0.25652322 4293729569
4.6188941 2.0909026 -1.8083947 4288085770
10.477715 4.7259364 -0.89944482 4293729569
7.7606368 3.5044394 -1.7852767 4288085770
5.3768373 2.4240053 -1.7909018 4288085770
6.4637494 2.9111869 -1.7811735 4288085770
10.863866 4.8778324 -0.38123387 4293729569
7.7046447 3.4594276 -1.7843603 4288085770
9.5705147 4.2866192 -1.7141308 4288085770
7.9516287 3.5544651 -1.780231 4288085770
6.6137433 2.9452116 -1.7791498 4288085770
10.630726 4.7199025 -0.8705157 4293729569
4.6388993 2.0639081 -1.8084639 4288085770
5.3858447 2.3900018 -1.7879835 4288085770
8.1316242 3.5974751 -1.7691977 4288085770
7.6986561 3.3954287 -1.7845064 4288085770
9.5765247 4.213634 -1.7193027 4288085770
6.7847347 2.9862473 -1.7801175 4288085770
8.3406143 3.6505044 -1.7641521 4288085770
10.865728 4.7468958 -0.84654045 4293729569
4.6589031 2.0379155 -1.809531 4288085770
5.4078493 2.3590119 -1.790063 4288085770
6.9717245 3.0322955 -1.7850796 4288085770
7.6976662 3.3344316 -1.7846475 4288085770
8.5366087 3.6945179 -1.7531223 4288085770
9.6065311 4.151659 -1.726458 4288085770
3.6699848 1.5837564 -1.8212179 4288085770
7.1387177 3.0663211 -1.7820624 4288085770
4.6729088 2.0079124 -1.8066049 4288085770
5.4348531 2.3310235 -1.7921375 4288085770
8.7665997 3.7505491 -1.7470777 4288085770
7.6956782 3.2724316 -1.7837903 4288085770
9.5895452 4.0706573 -1.7256396 4288085770
7.3187103 3.1053519 -1.7800382 4288085770
3.7299738 1.5878325 -1.8492299 4282675967
8.9775953 3.7975631 -1.7350465 4288085770
18.830954 7.950469 -1.3150604 4293729569
4.6889148 1.9789128 -1.8046774 4288085770
5.4568586 2.3000293 -1.7922169 4288085770
7.519701 3.149394 -1.7810105 4288085770
3.6360021 1.5277042 -1.8003337 4288085770
9.2275848 3.8565986 -1.7290022 4288085770
7.6956887 3.2114296 -1.7819315 4288085770
9.5805607 3.9916542 -1.7238197 4288085770
19.271297 7.9762945 -0.31716308 4293729569
5.4718657 2.2650273 -1.7893028 4288085770
4.7199183 1.9549267 -1.8077437 4288085770
7.7176933 3.1884305 -1.7799929 4288085770
9.5115719 3.925647 -1.7259473 4288085770
3.6430058 1.5087042 -1.7993796 4288085770
19.39818 7.9630947 -0.65824246 4293729569
7.6867018 3.1464217 -1.7780787 4288085770
9.6155691 3.9296777 -1.7299764 4288085770
19.502983 7.9483948 -1.2213175 4293729569
19.474327 7.9211965 -0.25436771 4293729569
9.821558 4.0017037 -1.7238859 4288085770
7.9346833 3.2344775 -1.7819663 4288085770
3.6500087 1.4907067 -1.7994232 4288085770
5.4958711 2.2340333 -1.7893831 4288085770
4.7359238 1.9259245 -1.804816 4288085770
10.16354 4.0877724 -1.724813 4288085770
8.1646738 3.2825277 -1.78394 4288085770
7.6927118 3.088423 -1.7772151 4288085770
19.890995 7.9613733 -1.1764328 4293729569
9.6495781 3.8676987 -1.7351329 4288085770
19.835346 7.9251356 -0.19449396 4293729569
3.660012 1.4727094 -1.7994677 4288085770
5.518877 2.2020354 -1.787465 4288085770
4.7599297 1.8979282 -1.8038889 4288085770
10.459532 4.1508102 -1.7157766 4288085770
8.4016628 3.3285768 -1.7849207 4288085770
3.6770141 1.4567204 -1.8025101 4288085770
7.6997228 3.0304227 -1.7753519 4288085770
9.699585 3.8127275 -1.7422789 4288085770
10.830513 4.2388806 -1.7147099 4288085770
5.5578804 2.1760509 -1.790539 4288085770
8.6316547 3.3706179 -1.7829083 4288085770
4.7859344 1.8709326 -1.8029603 4288085770
3.6840179 1.436718 -1.8005583 4288085770
11.186498 4.3169389 -1.709661 4288085770
7.7107329 2.9744227 -1.7734854 4288085770
9.7515926 3.7567546 -1.748428 4288085770
8.876646 3.413662 -1.7808993 4288085770
5.585886 2.1450558 -1.7896205 4288085770
4.8099394 1.8429344 -1.8010331 4288085770
3.7000206 1.4197245 -1.8016028 4288085770
11.615479 4.4170256 -1.7105881 4288085770
9.1236391 3.454704 -1.7778956 4288085770
7.7457409 2.9264395 -1.7766092 4288085770
9.8185987 3.7057862 -1.755571 4288085770
5.6338887 2.1210761 -1.7936931 4288085770
3.7130244 1.4017255 -1.8006483 4288085770
12.069457 4.5221167 -1.711513 4288085770
3.6150351 1.3616867 -1.7917048 4288085770
4.8449435 1.8189471 -1.8031007 4288085770
3.7100232 1.3907456 -1.8096724 4288085770
9.3796301 3.4957485 -1.7748951 4288085770
3.7700207 1.4067528 -1.8076572 4288085770
3.6350362 1.3526936 -1.7927322 4288085770
3.6960304 1.3747163 -1.7977037 4288085770
3.7450271 1.3927233 -1.7966803 4288085770
9.9016018 3.6578286 -1.765713 4288085770
7.7687497 2.8724463 -1.7767425 4288085770
3.8030221 1.4127414 -1.7996552 4288085770
3.8290179 1.421762 -1.8066441 4288085770
12.668422 4.6732697 -1.727385 4288085770
3.7330263 1.3857348 -1.8026919 4288085770
3.871016 1.4357655 -1.8046271 4288085770
3.9450092 1.4597957 -1.8115988 4288085770
5.6678944 2.0910821 -1.7927743 4288085770
3.995007 1.4757962 -1.80758 4288085770
3.9020135 1.4397807 -1.8086292 4288085770
9.6606226 3.543802 -1.7738878 4288085770
4.0839977 1.5048382 -1.8185456 4288085770
4.881947 1.7959578 -1.8041668 4288085770
4.1539931 1.525856 -1.8205227 4288085770
3.9920058 1.4648209 -1.8186041 4288085770
4.2249885 1.5468721 -1.8215003 4288085770
13.25839 4.8144083 -1.737277 4288085770
4.292985 1.5668807 -1.8194789 4288085770
4.0630021 1.4818349 -1.8185906 4288085770
3.7490296 1.366739 -1.8027408 4288085770
4.3719802 1.5899005 -1.8214548 4288085770
9.9736109 3.6058595 -1.7718598 4288085770
7.8137569 2.8274646 -1.7798629 4288085770
9.943614 3.5868518 -1.7708929 4288085770
5.6968999 2.0600846 -1.7908561 4288085770
4.4279804 1.6028912 -1.812445 4288085770
4.1529951 1.503866 -1.8245726 4288085770
4.9099517 1.7689605 -1.8022388 4288085770
4.5079756 1.6249087 -1.8134235 4288085770
4.2339907 1.5228863 -1.8265584 4288085770
13.832362 4.9425306 -1.7411934 4288085770
4.5939708 1.6479278 -1.8144019 4288085770
3.7640336 1.3487382 -1.8007871 4288085770
4.6769676 1.6699393 -1.8123814 4288085770
4.3189859 1.5429099 -1.829543 4288085770
10.210609 3.6198876 -1.7629151 4288085770
10.045616 3.5538902 -1.7780068 4288085770
7.8287673 2.771461 -1.7759978 4288085770
4.7629638 1.690954 -1.8113644 4288085770
5.7419052 2.0330977 -1.7919345 4288085770
4.3979836 1.5589185 -1.8265349 4288085770
14.428337 5.0706477 -1.741118 4288085770
4.8429618 1.7099583 -1.8063498 4288085770
4.9509559 1.7459743 -1.8043061 4288085770
4.471983 1.5729218 -1.8215294 4288085770
4.9289594 1.7299638 -1.801335 4288085770
3.7860358 1.331748 -1.8028337 4288085770
10.506601 3.660938 -1.7589296 4288085770
5.0269551 1.7519808 -1.80032 4288085770
4.5619788 1.5909419 -1.8225206 4288085770
10.101625 3.4959092 -1.7801617 4288085770
15.011314 5.1857495 -1.7350678 4288085770
7.8707757 2.7244766 -1.7781216 4288085770
5.7829094 2.0041053 -1.791016 4288085770
5.1209531 1.7729902 -1.7963058 4288085770
4.6409779 1.604944 -1.8165171 4288085770
4.9959588 1.7229917 -1.8073751 4288085770
3.8090386 1.3147557 -1.8038806 4288085770
5.2189493 1.7940001 -1.7922932 4288085770
10.812596 3.7009857 -1.7529503 4288085770
4.7359743 1.6239626 -1.8165079 4288085770
15.634292 5.3078618 -1.7300165 4288085770
5.337944 1.8210282 -1.7942743 4288085770
5.8329134 1.9791188 -1.7920915 4288085770
4.8209729 1.6379681 -1.8115066 4288085770
10.165634 3.4379272 -1.7813197 4288085770
7.921782 2.6804938 -1.7802418 4288085770
5.4569387 1.8480515 -1.7942556 4288085770
3.8400397 1.3007717 -1.8079233 4288085770
11.11659 3.7360313 -1.7459818 4288085770
5.036963 1.6990011 -1.8074448 4288085770
4.9149709 1.6539803 -1.8085039 4288085770
5.5699353 1.8710647 -1.790244 4288085770
16.320265 5.4439907 -1.7269561 4288085770
5.0189672 1.6729982 -1.807498 4288085770
5.7069283 1.9000986 -1.7932272 4288085770
5.8769188 1.9501271 -1.7911742 4288085770
10.240643 3.3849523 -1.7844701 4288085770
7.9757891 2.6365137 -1.783363 4288085770
11.450583 3.775085 -1.7400151 4288085770
3.8650427 1.2837777 -1.8079709 4288085770
5.8249259 1.9231107 -1.7882172 4288085770
5.1149654 1.6870086 -1.8035007 4288085770
5.0659695 1.669997 -1.8025218 4288085770
17.028242 5.5751152 -1.7199155 4288085770
5.9569216 1.9481323 -1.7862079 4288085770
5.2309618 1.7080317 -1.8034945 4288085770
11.837572 3.8281629 -1.7400358 4288085770
3.8900456 1.2667837 -1.8080184 4288085770
5.9299231 1.9231412 -1.7922553 4288085770
6.0959167 1.9751554 -1.7841965 4288085770
10.33665 3.3379884 -1.790614 4288085770
7.9938011 2.5815067 -1.7774965 4288085770
17.834211 5.7292686 -1.7168581 4288085770
5.3469582 1.7260525 -1.8024952 4288085770
5.1219716 1.6500208 -1.8075877 4288085770
6.2589092 2.0081916 -1.7861801 4288085770
5.4569564 1.7420654 -1.7984986 4288085770
12.218564 3.872231 -1.7360749 4288085770
6.4159026 2.0372231 -1.7861708 4288085770
3.9210472 1.2507975 -1.8110659 4288085770
5.9809284 1.8961508 -1.7913359 4288085770
18.744177 5.9054489 -1.7167886 4288085770
10.434656 3.2890198 -1.7947634 4288085770
8.0588074 2.5395288 -1.7806172 4288085770
5.5819526 1.7610881 -1.7975004 4288085770
5.1679749 1.6270332 -1.8086571 4288085770
6.5838971 2.0682566 -1.7861608 4288085770
12.626554 3.9213109 -1.7351125 4288085770
5.6999507 1.7771027 -1.7935065 4288085770
3.9490504 1.2338037 -1.8111144 4288085770
6.7328949 2.0922706 -1.7791599 4288085770
19.73114 6.0926452 -1.716722 4288085770
6.0389323 1.8701663 -1.7924165 4288085770
10.528664 3.2390482 -1.7979136 4288085770
8.1128149 2.493542 -1.7807429 4288085770
5.8449454 1.7991362 -1.7955087 4288085770
6.9378843 2.1313245 -1.7851454 4288085770
5.231976 1.6080589 -1.8137237 4288085770
13.051544 3.9693902 -1.732159 4288085770
3.9770536 1.2158082 -1.8101656 4288085770
7.1208792 2.1613564 -1.7831434 4288085770
5.9929399 1.8211703 -1.7975122 4288085770
6.1029372 1.8461828 -1.7934949 4288085770
10.631672 3.1890767 -1.8000672 4288085770
8.1788235 2.45156 -1.7818638 4288085770
7.332871 2.1984034 -1.7851357 4288085770
6.1319375 1.8391914 -1.7945215 4288085770
5.289979 1.5870786 -1.8167926 4288085770
13.518532 4.0234871 -1.733207 4288085770
4.0160546 1.2018259 -1.8142112 4288085770
7.5428643 2.2324429 -1.7841345 4288085770
6.2809343 1.858217 -1.7925321 4288085770
6.1729398 1.8232031 -1.795573 4288085770
10.72868 3.1371014 -1.8012229 4288085770
8.2418299 2.4075751 -1.7819881 4288085770
7.7498584 2.2644796 -1.7821368 4288085770
14.01052 4.0795884 -1.7342596 4293729569
5.3339849 1.5600822 -1.8138702 4288085770
6.446929 1.8802547 -1.7945423 4288085770
4.0540566 1.1868391 -1.8162588 4288085770
7.9838514 2.3005266 -1.7821398 4288085770
6.2539411 1.802232 -1.8006506 4288085770
6.5979271 1.8962765 -1.7905607 4288085770
14.560505 4.1427088 -1.7383177 4293729569
10.848687 3.0901351 -1.8043756 4288085770
8.3028383 2.3625875 -1.7811142 4288085770
5.3819895 1.5350888 -1.8119448 4288085770
8.2468395 2.3435884 -1.7861375 4288085770
4.0920591 1.1708519 -1.8183087 4288085770
6.765924 1.9163055 -1.7885761 4288085770
6.3189468 1.7752447 -1.7997363 4288085770
8.4988327 2.3806343 -1.7841446 4288085770
15.071495 4.1888056 -1.7354007 4293729569
6.9489183 1.9373448 -1.7895948 4288085770
10.945698 3.0361516 -1.8015361 4288085770
4.1220636 1.1518545 -1.8163626 4288085770
8.3918438 2.3246148 -1.7842342 4288085770
5.4429936 1.5131044 -1.813017 4288085770
8.7568274 2.4166815 -1.7821565 4288085770
7.132915 1.9563775 -1.7876185 4288085770
6.3989506 1.7522666 -1.8018181 4288085770
15.610486 4.2359118 -1.7334919 4293729569
9.0578165 2.4607489 -1.7851659 4288085770
4.162066 1.1358657 -1.8174132 4288085770
11.054708 2.9831722 -1.7996986 4288085770
5.5129957 1.4921291 -1.8170905 4288085770
7.3639054 1.9864423 -1.795634 4288085770
8.4838495 2.2856424 -1.7873576 4288085770
9.3418112 2.4977944 -1.7801852 4288085770
6.4809537 1.7292869 -1.8029006 4288085770
16.147478 4.2730098 -1.7286054 4293729569
7.5299072 1.9964535 -1.7856717 4288085770
4.1970696 1.1188717 -1.8164644 4288085770
9.6668015 2.5418622 -1.7812035 4288085770
11.179717 2.9342005 -1.7998577 4288085770
5.5779996 1.4691436 -1.8171666 4288085770
8.5558596 2.242655 -1.7854829 4288085770
7.7409029 2.0164967 -1.7857032 4288085770
6.5629582 1.7043076 -1.8039877 4288085770
16.780466 4.330143 -1.730708 4293729569
10.010792 2.5879357 -1.7832241 4288085770
4.2460713 1.103889 -1.8195161 4288085770
7.9748974 2.0405483 -1.7877338 4288085770
11.295728 2.8812206 -1.7970226 4288085770
5.642004 1.4461579 -1.8172423 4288085770
8.6188698 2.1936591 -1.7806187 4288085770
10.375781 2.6350098 -1.7832503 4288085770
6.656961 1.6833324 -1.8060701 4288085770
17.412458 4.3752685 -1.7288384 4293729569
4.2790761 1.0848877 -1.8155711 4288085770
8.2078924 2.0605934 -1.7867734 4288085770
10.795768 2.6911077 -1.789276 4288085770
5.7230062 1.4271848 -1.8213151 4288085770
11.431737 2.8312442 -1.794188 4288085770
8.7488708 2.1627033 -1.7877375 4288085770
8.4618883 2.0826497 -1.7888159 4288085770
18.248432 4.4614716 -1.7439494 4288085770
6.7329674 1.6553428 -1.8031619 4288085770
11.219754 2.7442 -1.7923102 4288085770
4.3230796 1.0678978 -1.8156253 4288085770
8.7228813 2.1047053 -1.7898612 4288085770
5.8040085 1.4062092 -1.8243923 4288085770
11.574746 2.783272 -1.7923512 4288085770
11.641744 2.7922814 -1.7903553 4288085770
8.8568783 2.1247299 -1.7888646 4288085770
19.392387 4.6097927 -1.7840314 4288085770
4.3670821 1.0509052 -1.8146797 4288085770
6.8319707 1.6333666 -1.8042483 4288085770
8.9708815 2.1197448 -1.7849178 4288085770
12.059738 2.834352 -1.7844127 4288085770
5.8840122 1.3852291 -1.8254694 4288085770
11.763753 2.7433202 -1.7955132 4288085770
8.9748831 2.0877633 -1.7919928 4288085770
4.4110861 1.0339129 -1.8137342 4288085770
6.9379745 1.6103942 -1.8063397 4288085770
9.2828722 2.1468241 -1.7919704 4288085770
12.560727 2.8904557 -1.7854686 4288085770
5.9620156 1.3622487 -1.8265501 4288085770
11.929762 2.6963503 -1.7926825 4288085770
9.5688696 2.1638784 -1.7900364 4288085770
4.4600892 1.0169239 -1.8137903 4288085770
13.186705 2.9696138 -1.7995176 4288085770
9.1148891 2.0548053 -1.79712 4288085770
7.0299792 1.5854101 -1.8044304 4288085770
9.882864 2.1839426 -1.7901059 4288085770
13.933677 3.0678163 -1.8225675 4288085770
6.0390205 1.3392611 -1.8246307 4288085770
4.5100932 0.99993259 -1.8128468 4288085770
12.122769 2.6543925 -1.7928503 4288085770
9.258893 2.0208476 -1.8022509 4288085770
7.1589808 1.5664489 -1.8095211 4288085770
10.204861 2.202009 -1.7901831 4288085770
14.825639 3.1890771 -1.8586181 4288085770
6.1320238 1.3182859 -1.8267125 4288085770
4.5740943 0.98595554 -1.8169016 4288085770
12.339776 2.6134415 -1.7940246 4288085770
7.2739854 1.5424743 -1.809618 4288085770
9.3888998 1.9818769 -1.802388 4288085770
15.568619 3.2682462 -1.8667108 4288085770
10.583853 2.2270999 -1.7962651 4288085770
4.4640918 0.9430024 -1.8469592 4282675967
4.4611049 0.94092065 -1.8109628 4288085770
4.5401034 0.9559297 -1.8079574 4288085770
4.6410975 0.9749586 -1.8119508 4288085770
4.7310944 0.99097425 -1.8109472 4288085770
4.6170993 0.96695393 -1.8119602 4288085770
6.2140293 1.2942996 -1.824797 4288085770
4.8290915 1.0079939 -1.8109441 4288085770
4.4490976 0.92897731 -1.8369853 4288085770
4.9300876 1.0260117 -1.8099399 4288085770
16.187614 3.3143432 -1.8538336 4288085770
5.0330849 1.0430324 -1.8099385 4288085770
10.946849 2.246177 -1.7973551 4288085770
4.4821062 0.92992991 -1.8129952 4288085770
12.569783 2.5744917 -1.7941992 4288085770
7.394989 1.5205004 -1.8097124 4288085770
5.1340833 1.0590436 -1.8059388 4288085770
4.5781031 0.94395155 -1.8139981 4288085770
9.5429049 1.9469173 -1.8055247 4288085770
5.2480793 1.0770643 -1.8049393 4288085770
4.6850982 0.95998198 -1.8180007 4288085770
5.3690753 1.0950906 -1.8059423 4288085770
4.7820959 0.97299927 -1.8170063 4288085770
4.6841006 0.95297533 -1.8150162 4288085770
5.4970722 1.1141164 -1.8059456 4288085770
6.3160319 1.2733262 -1.826882 4288085770
16.773615 3.3454165 -1.832979 4288085770
11.326844 2.2622528 -1.7964581 4288085770
5.6430655 1.1361592 -1.8119488 4288085770
4.880095 0.98501223 -1.8140146 4288085770
5.8020582 1.1602044 -1.817952 4288085770
7.5259924 1.4985309 -1.8108107 4288085770
4.9790936 0.99702328 -1.8100232 4288085770
12.799791 2.5325398 -1.7933805 4288085770
5.9450545 1.1792333 -1.817961 4288085770
9.6969109 1.9109533 -1.806664 4288085770
5.0850925 1.009038 -1.8070345 4288085770
6.1080484 1.202275 -1.8219678 4288085770
4.7411046 0.93598574 -1.8140752 4288085770
17.335621 3.3654697 -1.8051406 4288085770
5.2010894 1.0220613 -1.8070471 4288085770
11.72284 2.2773368 -1.7975696 4288085770
6.4200354 1.2533534 -1.8289653 4288085770
6.2540455 1.2202957 -1.8179802 4288085770
5.326086 1.0370891 -1.8080585 4288085770
6.4450383 1.2453499 -1.8249929 4288085770
7.687993 1.4815812 -1.8179089 4288085770
13.090796 2.4996107 -1.7975638 4288085770
5.4540834 1.0501173 -1.8090754 4288085770
6.6000361 1.2633698 -1.8200084 4288085770
9.855917 1.8739905 -1.8078072 4288085770
18.106611 3.4186006 -1.7933036 4288085770
4.8071074 0.9200024 -1.8151354 4288085770
12.128838 2.2894166 -1.7956916 4288085770
5.594079 1.06615 -1.8110901 4288085770
6.782032 1.2844045 -1.8190269 4288085770
6.5060415 1.2283611 -1.8240539 4288085770
5.7380757 1.0801814 -1.8121105 4288085770
6.9500308 1.3014252 -1.8130498 4288085770
7.851995 1.4636273 -1.82301 4288085770
5.89607 1.0972247 -1.8171295 4288085770
13.375802 2.462672 -1.7977538 4288085770
19.060595 3.4957981 -1.7944793 4288085770
7.1520262 1.3234684 -1.8140733 4288085770
12.562835 2.3025064 -1.7958217 4288085770
4.8661113 0.90200871 -1.8121974 4288085770
10.044922 1.8400407 -1.8119545 4288085770
6.0530667 1.1112614 -1.8191549 4288085770
7.3520226 1.3445022 -1.8110987 4288085770
6.6170454 1.2073874 -1.8251421 4288085770
6.2200627 1.1262999 -1.8211818 4288085770
7.5630193 1.3645384 -1.8081303 4288085770
7.9949999 1.4406538 -1.821115 4288085770
13.032831 2.3156059 -1.7969651 4288085770
13.721805 2.4327569 -1.8029506 4288085770
4.9381137 0.88702667 -1.8132577 4288085770
6.3810601 1.1403303 -1.8202085 4288085770
7.8370099 1.3946142 -1.817162 4288085770
10.255926 1.8080997 -1.8181053 4288085770
6.7180505 1.183403 -1.8222337 4288085770
8.0790062 1.4176614 -1.8161982 4288085770
6.5600567 1.1543715 -1.822242 4288085770
8.1720018 1.4217005 -1.8252231 4288085770
13.537826 2.329715 -1.7991191 4288085770
8.3649988 1.4457307 -1.8212391 4288085770
6.720057 1.1643906 -1.8162779 4288085770
5.0041184 0.8700366 -1.8113201 4288085770
14.167801 2.4158845 -1.8181539 4288085770
8.6829882 1.4768133 -1.8292849 4288085770
10.466931 1.7751544 -1.8222586 4288085770
6.9100533 1.1774297 -1.8163177 4288085770
6.8220572 1.1584144 -1.8173286 4288085770
8.3550024 1.4027486 -1.8293335 4288085770
8.9919825 1.5038807 -1.8313367 4288085770
14.194812 2.3618927 -1.818288 4288085770
7.0740552 1.1854453 -1.8083594 4288085770
5.0771217 0.85405028 -1.8103827 4288085770
14.709795 2.4110494 -1.8413653 4288085770
9.2789793 1.5259283 -1.8263917 4288085770
7.3010507 1.2005007 -1.8124083 4288085770
10.688934 1.7422113 -1.8264159 4288085770
6.9270639 1.1334262 -1.8124239 4288085770
8.5580053 1.3848007 -1.8334491 4288085770
9.6139736 1.5519967 -1.8264554 4288085770
14.942796 2.3990984 -1.8414788 4288085770
7.49405 1.2095292 -1.8074584 4288085770
5.157124 0.83806992 -1.8114481 4288085770
9.9599695 1.5770607 -1.8235253 4288085770
15.191794 2.3891735 -1.8515936 4288085770
7.7320461 1.2235827 -1.8095137 4288085770
7.0490689 1.1104484 -1.8105211 4288085770
10.92294 1.7072685 -1.8295819 4288085770
8.7850046 1.367867 -1.8415713 4288085770
15.638786 2.4192722 -1.8546897 4288085770
10.348964 1.6061449 -1.8256019 4288085770
5.2401271 0.82208794 -1.8115144 4288085770
8.0290384 1.2446706 -1.8215747 4288085770
10.771955 1.6362362 -1.8276889 4288085770
15.676796 2.3642917 -1.85883 4288085770
8.3030329 1.2597382 -1.826641 4288085770
7.1880732 1.089478 -1.8106197 4288085770
11.165946 1.6723254 -1.8317516 4288085770
8.9960089 1.3479142 -1.8426944 4288085770
16.286785 2.4234111 -1.8569198 4288085770
5.3281293 0.80610919 -1.8125826 4288085770
11.191951 1.6623156 -1.8247839 4288085770
8.593029 1.2738068 -1.8307153 4288085770
11.645946 1.6904042 -1.8228872 4288085770
16.149803 2.3313942 -1.8600805 4288085770
7.3380766 1.0685127 -1.8117224 4288085770
8.9220209 1.2908947 -1.8397974 4288085770
5.4061346 0.78911954 -1.8096495 4288085770
9.1990137 1.3249507 -1.8398215 4288085770
16.814793 2.4024889 -1.8421628 4288085770
11.411953 1.6353786 -1.8319267 4288085770
12.113941 1.7164893 -1.8179998 4288085770
9.1940222 1.2969351 -1.8328836 4288085770
7.4850807 1.0475421 -1.8108242 4288085770
5.4921393 0.77213138 -1.8067192 4288085770
16.60281 2.2914774 -1.8543394 4288085770
12.663935 1.7486045 -1.8191292 4288085770
4.8161569 0.67600656 -1.81169 4288085770
9.4310179 1.3040023 -1.8409545 4288085770
17.360804 2.3775704 -1.8274219 4288085770
9.5090199 1.3070028 -1.8339765 4288085770
11.677959 1.5994382 -1.833107 4288085770
13.313922 1.7887561 -1.8272773 4288085770
5.5861425 0.75614953 -1.8057898 4288085770
9.8280191 1.31406 -1.8300776 4288085770
7.6400857 1.0255711 -1.8089309 4288085770
4.8851609 0.6600126 -1.8077511 4288085770
9.6650219 1.2830477 -1.8390886 4288085770
17.054823 2.2465489 -1.8436095 4288085770
17.973812 2.3526704 -1.8147057 4288085770
13.966914 1.8238974 -1.8304375 4288085770
11.949967 1.5614944 -1.8322942 4288085770
10.194015 1.3241403 -1.8321896 4288085770
5.690145 0.7411741 -1.8068618 4288085770
7.833087 1.0076256 -1.8150425 4288085770
4.9661636 0.6450302 -1.8078145 4288085770
14.833895 1.8801181 -1.849629 4288085770
9.9020281 1.2600894 -1.8352282 4288085770
17.537838 2.2016253 -1.8318911 4288085770
10.590013 1.3332267 -1.8343146 4288085770
18.776812 2.3438473 -1.8190229 4288085770
12.275971 1.5275731 -1.8364919 4288085770
5.7931485 0.7251941 -1.8059355 4288085770
15.721878 1.9303343 -1.8648421 4288085770
5.0761633 0.63307166 -1.8158816 4288085770
8.0230894 0.9876706 -1.8171577 4288085770
11.040008 1.3453357 -1.8414527 4288085770
10.209029 1.2431653 -1.84038 4288085770
18.163841 2.1677508 -1.8292001 4288085770
19.654812 2.3320425 -1.8243746 4288085770
16.518875 1.961483 -1.8580652 4288085770
5.9081502 0.71022332 -1.8080115 4288085770
12.611978 1.4906473 -1.8377005 4288085770
11.455009 1.3494174 -1.8395964 4288085770
5.1681662 0.61809379 -1.816949 4288085770
8.2120943 0.96670872 -1.8162749 4288085770
10.518032 1.2242353 -1.8425369 4288085770
17.237877 1.976583 -1.8362962 4288085770
18.912846 2.1429129 -1.831534 4288085770
11.890008 1.3514991 -1.8357521 4288085770
6.0311532 0.69425184 -1.8090926 4288085770
5.2611694 0.60311157 -1.8160168 4288085770
13.02398 1.4597552 -1.846923 4288085770
8.4200964 0.94575554 -1.817399 4288085770
18.159878 2.0067539 -1.8275678 4288085770
10.871032 1.208323 -1.8487033 4288085770
12.370007 1.3535969 -1.8349243 4288085770
6.1451569 0.67927188 -1.8071682 4288085770
19.73485 2.1160903 -1.8338995 4288085770
5.3611717 0.58913535 -1.8170849 4288085770
19.268866 2.0479813 -1.8268832 4288085770
8.6521006 0.92581385 -1.8215297 4288085770
13.521979 1.4338963 -1.863166 4288085770
11.228035 1.1894007 -1.8498781 4288085770
12.967002 1.3627436 -1.8451236 4288085770
6.2741599 0.66330177 -1.8082519 4288085770
5.4511762 0.57314587 -1.8131539 4288085770
8.8881035 0.90586632 -1.8226621 4288085770
11.595038 1.170476 -1.8490565 4288085770
13.68399 1.3769374 -1.865356 4288085770
14.061978 1.4070461 -1.8794268 4288085770
6.4011641 0.64632231 -1.8053368 4288085770
5.5511808 0.55716074 -1.8102264 4288085770
14.486978 1.3931601 -1.8906155 4288085770
9.1281071 0.88391525 -1.8218002 4288085770
11.986044 1.1495543 -1.8472484 4288085770
6.5401669 0.6313498 -1.8044218 4288085770
14.708973 1.3842361 -1.9037178 4288085770
5.6531849 0.5411759 -1.8072999 4288085770
15.325967 1.404382 -1.9118997 4288085770
9.4151106 0.86498493 -1.825949 4288085770
12.428047 1.1306477 -1.8474548 4288085770
6.6981692 0.6163879 -1.8065135 4288085770
5.7811866 0.52721006 -1.8103783 4288085770
15.333975 1.352402 -1.9190215 4282675967
16.051968 1.3975337 -1.9121835 4288085770
9.7071133 0.84405363 -1.8291043 4288085770
6.8581724 0.60142416 -1.8076062 4288085770
12.985044 1.1187911 -1.8596876 4288085770
5.8821926 0.51121616 -1.8034517 4288085770
15.919979 1.3135376 -1.9243268 4282675967
16.708979 1.3756385 -1.8974763 4288085770
7.0401735 0.58646971 -1.810707 4288085770
10.038116 0.82513487 -1.8342693 4288085770
13.586042 1.1069396 -1.8699365 4288085770
6.0241942 0.49725544 -1.8075351 4288085770
17.37299 1.3487334 -1.8777833 4288085770
7.2331753 0.5725196 -1.8148097 4288085770
10.376118 0.80521321 -1.8374393 4288085770
16.438993 1.2626238 -1.9136349 4288085770
14.304038 1.1001325 -1.8892173 4288085770
6.1581964 0.48328173 -1.8066161 4288085770
7.4081793 0.55655235 -1.8129102 4288085770
18.293993 1.330929 -1.8791642 4288085770
10.778119 0.78631818 -1.8466307 4288085770
15.154029 1.0963662 -1.9145398 4288085770
6.2852015 0.46730012 -1.8026986 4288085770
16.960009 1.2077019 -1.898953 4288085770
7.6181812 0.54160136 -1.8150213 4288085770
6.4452038 0.45334083 -1.8057891 4288085770
19.308996 1.3091443 -1.8805894 4288085770
15.936028 1.0825481 -1.9228603 4282675967
11.174122 0.76540637 -1.8488244 4288085770
17.562027 1.1558011 -1.8862939 4288085770
7.8411827 0.52765542 -1.8181351 4288085770
6.6102052 0.43937814 -1.8068814 4288085770
16.61404 1.0566595 -1.90917 4288085770
11.630122 0.74551833 -1.856038 4288085770
8.0681858 0.51270348 -1.8182527 4288085770
6.789207 0.42542291 -1.8099788 4288085770
18.367035 1.1089759 -1.8886986 4288085770
17.334049 1.0297711 -1.8914975 4288085770
12.055128 0.72160161 -1.8532493 4288085770
8.3251877 0.49776685 -1.8223811 4288085770
6.9662099 0.41146278 -1.8110754 4288085770
18.313053 1.0129719 -1.8898978 4288085770
19.361038 1.0652082 -1.899166 4288085770
12.460139 0.69366062 -1.8414624 4288085770
8.5721912 0.48181462 -1.8205085 4288085770
7.1552124 0.396503 -1.8111789 4288085770
9.0401936 0.47790366 -1.8166898 4288085770
9.3911896 0.49497831 -1.8177807 4288085770
8.7131968 0.46083176 -1.8146079 4288085770
8.4012022 0.44476074 -1.8115292 4288085770
8.8631926 0.4678852 -1.8246473 4288085770
19.466055 0.99822229 -1.8943578 4288085770
9.7481842 0.51104981 -1.8168759 4288085770
8.1032076 0.42769039 -1.8074579 4288085770
12.982142 0.66976857 -1.8407096 4288085770
10.202178 0.53116602 -1.8269979 4288085770
7.8292117 0.41062728 -1.8043954 4288085770
10.646173 0.54926229 -1.8291209 4288085770
7.5932145 0.39558324 -1.8063424 4288085770
11.160167 0.56838208 -1.8352672 4288085770
7.3612146 0.38255116 -1.8132865 4288085770
7.353219 0.37952718 -1.8032902 4288085770
11.693162 0.58750141 -1.8394206 4288085770
7.2162209 0.37050131 -1.8042601 4288085770
7.453217 0.38155696 -1.8073226 4288085770
6.9942236 0.359451 -1.8022033 4288085770
7.6922154 0.3916041 -1.806388 4288085770
6.7902265 0.3484067 -1.8011531 4288085770
7.1222243 0.36347082 -1.7992413 4288085770
7.9322143 0.40164474 -1.8024538 4288085770
6.5982285 0.33736718 -1.8011072 4288085770
12.242159 0.60561061 -1.8375823 4288085770
8.2522087 0.41373563 -1.8135445 4288085770
6.4112325 0.32632646 -1.8000631 4288085770
6.9152274 0.3484261 -1.7981989 4288085770
9.1571951 0.4529472 -1.8247896 4288085770
8.5442047 0.42379612 -1.8136296 4288085770
12.817156 0.62271863 -1.8327557 4288085770
6.2512326 0.31530032 -1.8030291 4288085770
8.8622036 0.43286419 -1.8147262 4288085770
6.7322292 0.33439532 -1.8011632 4288085770
6.0852351 0.30426395 -1.8019928 4288085770
13.622144 0.64892125 -1.8489937 4288085770
13.507151 0.64186627 -1.8349673 4288085770
9.2102003 0.44294316 -1.8178319 4288085770
7.5782166 0.36860389 -1.816398 4288085770
5.9292378 0.29323193 -1.8019601 4288085770
6.5382338 0.31834885 -1.7981279 4288085770
9.5322008 0.44999659 -1.8119347 4288085770
14.36514 0.66607565 -1.8492292 4288085770
5.7752414 0.28119588 -1.7999305 4288085770
6.3612375 0.30330819 -1.7960966 4288085770
9.926198 0.45808291 -1.814062 4288085770
9.4731979 0.43801618 -1.8259401 4288085770
5.6532412 0.27018437 -1.8059102 4288085770
15.369126 0.69332868 -1.8695383 4288085770
6.2062397 0.28928325 -1.799071 4288085770
10.375195 0.46718967 -1.8202071 4288085770
5.5332417 0.25917107 -1.8108908 4288085770
7.8012195 0.35465112 -1.8165118 4288085770
16.334122 0.71453136 -1.8708467 4288085770
14.375142 0.62911093 -1.8633171 4288085770
10.897186 0.47732502 -1.8323768 4288085770
6.0512424 0.27525377 -1.8000455 4288085770
5.4012442 0.2471441 -1.8108691 4288085770
17.273123 0.73069757 -1.8581573 4288085770
9.8072014 0.42208451 -1.8250996 4288085770
11.398185 0.48443156 -1.8335458 4288085770
5.2732477 0.2361134 -1.8088468 4288085770
5.909245 0.26022708 -1.8010269 4288085770
18.537115 0.75597602 -1.8655668 4288085770
8.0432205 0.34070456 -1.8176326 4288085770
11.940182 0.49054891 -1.8357321 4288085770
5.1602492 0.22409487 -1.8108321 4288085770
5.7652488 0.24619547 -1.8000054 4288085770
15.24514 0.60933393 -1.8816838 4288085770
19.914108 0.77826244 -1.8660256 4288085770
10.197202 0.40817785 -1.8302752 4288085770
12.503181 0.49365962 -1.8329332 4288085770
5.0452518 0.21207145 -1.8108166 4288085770
5.6362505 0.23217595 -1.8029892 4288085770
8.297224 0.32675824 -1.817758 4288085770
13.150181 0.49779904 -1.835163 4288085770
5.5032549 0.21714443 -1.800974 4288085770
16.104143 0.58452809 -1.8880579 4288085770
10.593205 0.39225912 -1.8294578 4288085770
13.876178 0.50095505 -1.8374243 4288085770
8.5762262 0.31181952 -1.8188947 4288085770
5.3882565 0.20412549 -1.8029609 4288085770
14.787171 0.50618315 -1.8547492 4288085770
11.036208 0.37835687 -1.831653 4288085770
5.2802582 0.19011256 -1.8069526 4288085770
16.93915 0.55468619 -1.8804346 4288085770
8.8912277 0.29889712 -1.8240404 4288085770
15.787164 0.50942552 -1.8701117 4288085770
5.1682615 0.17608985 -1.8069426 4288085770
11.540208 0.36347404 -1.8368732 4288085770
16.738165 0.50561988 -1.8684722 4288085770
9.1892309 0.28395566 -1.8221842 4288085770
17.940157 0.52589458 -1.8798707 4288085770
5.061264 0.16206816 -1.8069346 4288085770
12.049211 0.34858117 -1.8370951 4288085770
17.768169 0.49781752 -1.860871 4288085770
9.5302334 0.27002981 -1.823342 4288085770
19.237156 0.49819607 -1.8934137 4288085770
12.606215 0.33369601 -1.8363348 4288085770
19.106165 0.49111766 -1.8703812 4288085770
9.867238 0.25609195 -1.8194981 4288085770
13.268215 0.31884855 -1.8426135 4288085770
10.283238 0.24218851 -1.8236833 4288085770
13.977217 0.30400416 -1.8459094 4288085770
10.72024 0.22828722 -1.8268764 4288085770
5.1282711 0.12009305 -1.8110533 4288085770
14.828215 0.29020503 -1.8562557 4288085770
11.206241 0.21539834 -1.8310854 4288085770
15.745217 0.2754086 -1.8616287 4288085770
5.2292743 0.10711251 -1.8101197 4288085770
11.730244 0.20151523 -1.8343107 4288085770
16.804214 0.26165074 -1.8710519 4288085770
12.261247 0.18762022 -1.8315388 4288085770
5.3342781 0.093130633 -1.8081897 4288085770
17.928219 0.24688861 -1.8725015 4288085770
12.917248 0.17477137 -1.8378106 4288085770
19.26722 0.2321848 -1.8800305 4288085770
13.632247 0.16193485 -1.8441046 4288085770
5.4552798 0.079161033 -1.8102658 4288085770
14.448246 0.14912392 -1.8524356 4288085770
5.5562859 0.065169379 -1.8043345 4288085770
15.360245 0.13633531 -1.8618023 4288085770
16.338247 0.12254485 -1.8641957 4288085770
17.502247 0.11080885 -1.8736534 4288085770
5.6962862 0.051210478 -1.8094175 4288085770
18.873251 0.10506436 -1.8601741 4288085770
17.539255 0.097774759 -1.8546968 4288085770
16.358261 0.090512693 -1.847276 4288085770
18.852245 0.098113999 -1.8841822 4288085770
15.332265 0.081285313 -1.840917 4288085770
19.219255 0.089130774 -1.8573383 4288085770
14.409269 0.072079465 -1.834596 4288085770
13.603273 0.062898085 -1.8283186 4288085770
5.0932875 0.039098457 -1.8152215 4288085770
17.859261 0.072840691 -1.8538719 4288085770
12.881277 0.052738771 -1.8240741 4288085770
5.8302889 0.037241384 -1.8104986 4288085770
16.652269 0.055573687 -1.8464642 4288085770
12.222281 0.041592665 -1.8198556 4288085770
15.620274 0.039349914 -1.842119 4288085770
11.649284 0.03047125 -1.8186684 4288085770
5.2132888 0.02712857 -1.8172928 4288085770
6.3995714 1.9088733 -1.7952238 4288085770
8.9011631 2.6501734 -1.7775763 4288085770
7.7530694 2.300499 -1.7890226 4288085770
11.960399 3.5303333 -1.764479 4288085770
14.481598 4.2595968 -1.7275678 4293729569
4.310792 1.2714803 -1.8263254 4288085770
4.9118395 1.4463038 -1.8171066 4288085770
10.775293 3.1467147 -1.8029802 4288085770
9.1801739 2.6820998 -1.7795622 4288085770
6.4579592 1.8808529 -1.79557 4288085770
12.385418 3.5902071 -1.7584382 4288085770
7.8240619 2.2624712 -1.7861005 4288085770
14.658583 4.1995654 -1.7387036 4293729569
9.4641848 2.7120197 -1.7785524 4288085770
4.9628367 1.427289 -1.8181467 4288085770
4.3497896 1.252465 -1.8253635 4288085770
12.866439 3.6610711 -1.7553867 4288085770
10.83128 3.080698 -1.8041066 4288085770
3.659745 1.0505464 -1.7666165 4288085770
3.8117502 1.0885744 -1.8065718 4288085770
6.5339546 1.8538342 -1.7986287 4288085770
3.7977493 1.0805674 -1.8005837 4288085770
3.7987454 1.0806155 -1.8285836 4288085770
3.8707542 1.1005511 -1.8025593 4288085770
3.8467536 1.0935454 -1.7955681 4288085770
3.9237583 1.114537 -1.8025424 4288085770
7.9100566 2.2294452 -1.7861718 4288085770
3.992763 1.1325219 -1.8045211 4288085770
9.751193 2.7399387 -1.7775469 4288085770
4.0777678 1.1545126 -1.812495 4288085770
3.9577584 1.1195412 -1.8105385 4288085770
4.1597724 1.174499 -1.8174719 4288085770
4.2397771 1.1944828 -1.8204483 4288085770
13.367461 3.7299278 -1.7513418 4288085770
14.835568 4.1375299 -1.7478427 4288085770
5.0068336 1.4052703 -1.8161913 4288085770
4.3117819 1.2114596 -1.818429 4288085770
4.3917871 1.2334487 -1.8244023 4288085770
4.0287628 1.1325178 -1.8085259 4288085770
4.3827868 1.2264347 -1.815413 4288085770
4.1247683 1.1535072 -1.8175031 4288085770
10.888264 3.0146778 -1.803233 4288085770
4.4617929 1.2444098 -1.8133931 4288085770
4.5507979 1.264389 -1.8153709 4288085770
6.5909486 1.8218105 -1.7956934 4288085770
4.211772 1.1694882 -1.8204874 4288085770
10.078202 2.7738538 -1.7805367 4288085770
4.6358037 1.2823622 -1.8133519 4288085770
8.0070505 2.1984177 -1.7872413 4288085770
13.931483 3.8107743 -1.7512856 4288085770
4.2907767 1.1834645 -1.8194745 4288085770
4.7428098 1.3053417 -1.8183271 4288085770
5.0528307 1.3832514 -1.814236 4288085770
4.8288145 1.3223114 -1.81431 4288085770
4.433785 1.2144341 -1.8244408 4288085770
15.021554 4.0764923 -1.7569813 4288085770
4.3757811 1.1984408 -1.8194604 4288085770
4.92382 1.3402817 -1.8122923 4288085770
4.4617858 1.2134154 -1.8184465 4288085770
10.418215 2.8077655 -1.7835288 4288085770
10.95325 2.9506569 -1.8033571 4288085770
5.0298262 1.3612545 -1.8132709 4288085770
14.527506 3.8936107 -1.7502309 4293729569
6.6719437 1.7947905 -1.7987528 4288085770
4.5667911 1.2323966 -1.8244286 4288085770
5.1378326 1.3822246 -1.8132499 4288085770
8.1030445 2.1663885 -1.7873124 4288085770
4.656796 1.2463682 -1.822417 4288085770
5.2438383 1.4011903 -1.8102322 4288085770
5.1118283 1.3642342 -1.8152775 4288085770
4.4817824 1.1954179 -1.8244803 4288085770
15.195537 4.0084529 -1.7631305 4288085770
10.805226 2.8506732 -1.7915121 4288085770
5.3528447 1.420157 -1.8082148 4288085770
4.7328005 1.2563312 -1.8134104 4288085770
15.196533 3.9874332 -1.7521682 4288085770
5.4848509 1.4441259 -1.8111923 4288085770
11.011234 2.882633 -1.800487 4288085770
4.8358049 1.2723043 -1.8143975 4288085770
6.7519388 1.7667677 -1.7998137 4288085770
5.6248579 1.4690943 -1.815169 4288085770
8.200038 2.1323574 -1.7863871 4288085770
4.9518104 1.2902792 -1.8183829 4288085770
5.1668253 1.3442163 -1.81532 4288085770
11.169235 2.881577 -1.7935133 4288085770
4.5377798 1.1794031 -1.8265158 4288085770
5.7588644 1.4920576 -1.8151484 4288085770
15.850557 4.0692487 -1.7481246 4293729569
15.427524 3.9544051 -1.7732637 4288085770
5.0578156 1.3052461 -1.8163719 4288085770
5.8888712 1.5120182 -1.8131325 4288085770
11.081221 2.8176074 -1.7986134 4288085770
5.1608205 1.3182104 -1.8123643 4288085770
6.8269334 1.7367425 -1.7988776 4288085770
6.0168767 1.5309727 -1.8071182 4288085770
8.3330326 2.1073275 -1.7914513 4288085770
11.526244 2.9054754 -1.7915261 4288085770
5.2318225 1.3261976 -1.8163607 4288085770
16.529583 4.151053 -1.7410853 4293729569
5.2928252 1.3371825 -1.8173504 4288085770
4.5777779 1.1583822 -1.8225577 4288085770
6.1698852 1.5549307 -1.8070987 4288085770
15.633509 3.8903568 -1.7794105 4288085770
6.3338923 1.5798876 -1.8080792 4288085770
5.4148307 1.3521466 -1.8163419 4288085770
11.186207 2.7605793 -1.8007311 4288085770
6.9029279 1.706717 -1.7979414 4288085770
11.888253 2.9263656 -1.7855449 4288085770
6.4988999 1.6048422 -1.8080599 4288085770
17.230604 4.2268438 -1.7300601 4293729569
5.5368357 1.3671112 -1.8153335 4288085770
8.4590273 2.0792935 -1.79352 4288085770
5.2908192 1.3061769 -1.8154037 4288085770
4.6327748 1.1403661 -1.8235964 4288085770
6.6589065 1.6257913 -1.8040471 4288085770
5.6768413 1.3850758 -1.8173227 4288085770
15.865496 3.8303022 -1.7855543 4288085770
6.8129134 1.6447365 -1.7970366 4288085770
12.303263 2.9552534 -1.7865579 4288085770
17.959627 4.3006248 -1.7170429 4293729569
5.820847 1.4030395 -1.8193126 4288085770
11.251193 2.6925483 -1.7948618 4288085770
7.0069232 1.6816928 -1.8020008 4288085770
5.3458166 1.2841537 -1.8124499 4288085770
8.5930223 2.05126 -1.7965896 4288085770
7.0019217 1.6706848 -1.7970192 4288085770
4.6857729 1.121347 -1.8226366 4288085770
5.9728522 1.4200008 -1.8213052 4288085770
7.20193 1.6966283 -1.7960037 4288085770
16.127481 3.774241 -1.7926954 4288085770
12.753273 2.9861357 -1.7895728 4288085770
6.110858 1.4339554 -1.8173012 4288085770
7.1069188 1.655668 -1.8050613 4288085770
11.365179 2.6355178 -1.7969807 4288085770
7.4099379 1.7235713 -1.7959876 4288085770
5.4238138 1.266135 -1.8154923 4288085770
8.7360163 2.0252235 -1.7996572 4288085770
4.7377706 1.1023262 -1.8206767 4288085770
6.2638626 1.4489131 -1.8172976 4288085770
7.6089454 1.745508 -1.790979 4288085770
13.287285 3.0310111 -1.801576 4288085770
16.392466 3.7141755 -1.7978442 4288085770
6.4308681 1.4658668 -1.8172927 4288085770
7.8509545 1.7764471 -1.793961 4288085770
5.495811 1.2481127 -1.815534 4288085770
7.1949129 1.6256378 -1.8031271 4288085770
11.486166 2.5794823 -1.7970985 4288085770
8.8770132 1.9961827 -1.7997298 4288085770
4.7957673 1.0843077 -1.820716 4288085770
6.6108742 1.4838223 -1.8202878 4288085770
13.9163 3.089875 -1.8215693 4288085770
8.1039619 1.8063798 -1.7949467 4288085770
6.7578793 1.4937658 -1.8112923 4288085770
16.660452 3.6541059 -1.8009934 4288085770
5.5668082 1.2280889 -1.814579 4288085770
8.3609715 1.8353095 -1.7949345 4288085770
7.3139086 1.6016095 -1.8071867 4288085770
9.0540085 1.9731424 -1.8057972 4288085770
4.8517652 1.0652845 -1.8177568 4288085770
11.615155 2.524446 -1.7982161 4288085770
6.9268842 1.505712 -1.8072966 4288085770
14.676319 3.1687241 -1.8535476 4288085770
8.6689825 1.8722358 -1.8009163 4288085770
7.1018887 1.5176549 -1.8023018 4288085770
5.662806 1.2130706 -1.820619 4288085770
16.947441 3.595031 -1.8041438 4288085770
8.9749918 1.9061575 -1.8039031 4288085770
7.4179029 1.5735767 -1.8062514 4288085770
4.9157634 1.0472641 -1.8177968 4288085770
9.2260036 1.9470983 -1.8088691 4288085770
15.279328 3.2055755 -1.8625761 4288085770
11.757142 2.4694049 -1.7983356 4288085770
7.3118944 1.5346003 -1.8043038 4288085770
9.2800026 1.9380741 -1.8038933 4288085770
5.7428026 1.194046 -1.8206636 4288085770
17.217424 3.5279522 -1.8023055 4288085770
7.5268998 1.5505414 -1.8043082 4288085770
9.5760098 1.9639816 -1.7968928 4288085770
4.9747601 1.0282419 -1.815838 4288085770
7.5428987 1.5475452 -1.8093157 4288085770
9.4059973 1.9220541 -1.8129407 4288085770
15.840336 3.2244213 -1.8616302 4288085770
11.905132 2.4153633 -1.7994537 4288085770
7.7549062 1.567482 -1.8063127 4288085770
9.9130201 1.9948878 -1.79589 4288085770
5.8298001 1.1750197 -1.8207092 4288085770
17.51741 3.4648669 -1.8014648 4288085770
5.0347576 1.0082159 -1.8118809 4288085770
16.368341 3.2302651 -1.8547022 4288085770
7.6728945 1.5235143 -1.8133771 4288085770
9.5849915 1.8950031 -1.8130156 4288085770
8.0109119 1.5864203 -1.8113182 4288085770
10.308031 2.0347874 -1.7998801 4288085770
12.07212 2.3623173 -1.8005735 4288085770
5.9197979 1.1579945 -1.821752 4288085770
8.2759171 1.6053543 -1.815325 4288085770
10.720042 2.0736828 -1.8038749 4288085770
5.1157546 0.99219626 -1.8149204 4288085770
16.808342 3.2111104 -1.834805 4288085770
17.871395 3.4067712 -1.8026236 4288085770
7.8188896 1.4994788 -1.8174413 4288085770
9.771987 1.86695 -1.8130935 4288085770
11.120053 2.1065688 -1.8008783 4288085770
8.5279236 1.6192832 -1.8143387 4288085770
12.229107 2.3062687 -1.7986968 4288085770
6.0167947 1.1399672 -1.8227975 4288085770
5.1817532 0.97317034 -1.8119625 4288085770
11.540064 2.1384475 -1.7968866 4288085770
17.242338 3.1849537 -1.8129194 4288085770
8.8449278 1.641212 -1.8233485 4288085770
7.9708843 1.4754434 -1.8225062 4288085770
9.9869833 1.8428948 -1.8161687 4288085770
18.286386 3.3576639 -1.8067759 4288085770
6.1027918 1.1189361 -1.8198465 4288085770
12.424095 2.2562163 -1.8008152 4288085770
11.997075 2.1733181 -1.7938957 4288085770
9.1099329 1.6511323 -1.8193715 4288085770
5.2677507 0.9571479 -1.8140026 4288085770
17.824341 3.1787798 -1.8040212 4288085770
8.1078806 1.4484022 -1.821574 4288085770
10.224979 1.8198364 -1.8212457 4288085770
18.772377 3.3155427 -1.8139267 4288085770
12.496086 2.2101796 -1.7919077 4288085770
9.4109373 1.66505 -1.8193929 4288085770
6.2107897 1.101908 -1.8218919 4288085770
12.637084 2.2061598 -1.8029366 4288085770
