# .PCD v0.7 - Point Cloud Data file format
VERSION 0.7
FIELDS x y z rgb
SIZE 4 4 4 4
TYPE F F F U
COUNT 1 1 1 1
WIDTH 1129
HEIGHT 1
VIEWPOINT 0 0 0 1 0 0 0
POINTS 1129
DATA ascii
10.984543 5.8151679 -1.6816723 4288085770
5.097898 2.7081215 -1.7990183 4288085770
4.308959 2.289988 -1.8047229 4288085770
7.3367558 3.8695133 -1.7626748 4288085770
9.3986187 4.9298701 -1.7340357 4288085770
11.346526 5.9342265 -1.6792133 4288085770
5.0899053 2.6711199 -1.7979795 4288085770
4.324955 2.2679865 -1.8097248 4288085770
7.3037682 3.7965071 -1.7615787 4288085770
9.3436346 4.8308597 -1.7348937 4288085770
11.704516 6.0452881 -1.6727437 4288085770
5.0899086 2.6371188 -1.7989528 4288085770
4.3319578 2.2399859 -1.8107108 4288085770
7.3107657 3.7445018 -1.7695481 4288085770
12.108499 6.1743546 -1.6703451 4288085770
5.0739217 2.5951183 -1.7939003 4288085770
9.2786531 4.7268491 -1.7327356 4288085770
4.34096 2.2139862 -1.8117011 4288085770
12.591467 6.3374295 -1.6740708 4288085770
7.296773 3.6804969 -1.7714822 4288085770
5.0789227 2.5631168 -1.7958812 4288085770
9.1966801 4.6158381 -1.7265508 4288085770
4.3469639 2.1859863 -1.8116859 4288085770
13.195412 6.5525155 -1.6899868 4288085770
7.3097701 3.6304924 -1.7794607 4288085770
5.0859261 2.5321167 -1.7968655 4288085770
9.1496935 4.5218296 -1.7254224 4288085770
4.3489718 2.1549878 -1.8086634 4288085770
13.863349 6.7906103 -1.7090003 4288085770
5.0869322 2.4971166 -1.7958391 4288085770
7.3147736 3.5754893 -1.7834255 4288085770
9.1097069 4.4318199 -1.7263056 4288085770
4.3759646 2.1359866 -1.815681 4288085770
14.465308 6.9867034 -1.7149007 4288085770
5.092937 2.4641163 -1.7958206 4288085770
7.3177752 3.5194852 -1.7883868 4288085770
9.1087132 4.3608155 -1.7312517 4288085770
4.3859682 2.1079874 -1.8156708 4288085770
15.029284 7.1557951 -1.712734 4288085770
5.0999432 2.4311175 -1.7948033 4288085770
7.3397722 3.4714818 -1.796378 4288085770
9.0697289 4.2708087 -1.7301363 4288085770
4.3989725 2.0809886 -1.815665 4288085770
15.572271 7.3058877 -1.7035275 4288085770
5.1109452 2.4001181 -1.7957923 4288085770
7.3447766 3.4164793 -1.7993426 4288085770
16.102268 7.4429808 -1.6902956 4288085770
9.0497408 4.1918039 -1.7300526 4288085770
4.4159732 2.0559897 -1.8166659 4288085770
5.1299458 2.372118 -1.7987938 4288085770
7.3457837 3.3584774 -1.8003001 4288085770
3.6970382 1.7008756 -1.8105001 4288085770
16.739244 7.6200867 -1.6832277 4288085770
4.4369731 2.0319903 -1.8196725 4288085770
9.0767374 4.1338005 -1.7390434 4288085770
3.759032 1.7208842 -1.812592 4288085770
17.368206 7.8711891 -1.6822026 4288085770
5.1479483 2.3421192 -1.7997924 4288085770
3.8220272 1.7408935 -1.8136849 4288085770
3.8930178 1.7639018 -1.8177904 4288085770
17.418222 7.8071976 -1.6782203 4288085770
3.7740364 1.7078874 -1.8105996 4288085770
3.7280395 1.6868799 -1.8105263 4288085770
3.8160353 1.7258955 -1.8086654 4288085770
3.7350087 1.6888649 -1.8345363 4288085770
3.8740277 1.7509029 -1.8117566 4288085770
7.333796 3.294476 -1.798237 4288085770
3.9350169 1.7759093 -1.8168515 4288085770
4.4359879 1.9969941 -1.8116431 4288085770
3.9920132 1.7989185 -1.8169397 4288085770
3.9540169 1.781913 -1.8158795 4288085770
9.0877409 4.0667968 -1.7440075 4288085770
4.0460105 1.8209277 -1.8160235 4288085770
17.053242 7.6001301 -1.6896105 4288085770
4.1040068 1.8429372 -1.8161123 4288085770
5.1599536 2.3101208 -1.7987821 4288085770
4.1640038 1.8649473 -1.8152034 4288085770
4.0380049 1.8079222 -1.8220032 4288085770
4.2180061 1.8839586 -1.8112849 4288085770
4.2909985 1.9109688 -1.8133962 4288085770
4.1129961 1.8309321 -1.8251134 4288085770
4.3510003 1.930981 -1.8094857 4288085770
7.333806 3.2354748 -1.7971923 4288085770
4.4659839 1.9759947 -1.816663 4288085770
4.1839938 1.8509439 -1.8242166 4288085770
4.4289932 1.9579922 -1.8116032 4288085770
9.0717564 3.9877942 -1.7419289 4288085770
16.880251 7.3960862 -1.708246 4288085770
5.1839547 2.2831221 -1.8007904 4288085770
4.5089869 1.9850043 -1.8127229 4288085770
4.2509961 1.8669568 -1.8203115 4288085770
4.5949788 2.0140162 -1.8158518 4288085770
4.6709781 2.0370302 -1.8129636 4288085770
4.3309917 1.8889695 -1.8204274 4288085770
7.3288174 3.1754737 -1.7951407 4288085770
4.469996 1.9439985 -1.8106422 4288085770
4.7529764 2.0630445 -1.8110852 4288085770
16.718258 7.2000465 -1.725901 4288085770
9.0777636 3.9187915 -1.7448853 4288085770
5.194962 2.2491243 -1.7987773 4288085770
4.4039931 1.906983 -1.8175315 4288085770
4.830977 2.0850594 -1.8071989 4288085770
4.4799929 1.9249969 -1.8146392 4288085770
4.9159765 2.1100752 -1.8043236 4288085770
5.0019774 2.1340911 -1.8004485 4288085770
4.4979944 1.9210001 -1.8136582 4288085770
7.326829 3.1154735 -1.793093 4288085770
16.545273 7.0000057 -1.739539 4288085770
4.56599 1.9460107 -1.8137618 4288085770
9.1037645 3.8587906 -1.7498734 4288085770
5.2249608 2.2231259 -1.8017941 4288085770
5.0899787 2.1581078 -1.7965761 4288085770
4.6509905 1.9660262 -1.8108824 4288085770
5.2009697 2.1911235 -1.7987392 4288085770
4.520997 1.8960029 -1.8136666 4288085770
4.7419877 1.9870411 -1.8100113 4288085770
7.3298392 3.0584741 -1.7910537 4288085770
5.3009691 2.2171416 -1.7958833 4288085770
16.299299 6.7719603 -1.7450649 4288085770
5.2479649 2.1941288 -1.8017998 4288085770
9.1347685 3.7987909 -1.7548679 4288085770
5.4329557 2.2561591 -1.8010772 4288085770
4.838985 2.009057 -1.8091484 4288085770
5.533958 2.2801781 -1.7962213 4288085770
4.9359822 2.0310731 -1.8082856 4288085770
4.5569935 1.8750044 -1.8186939 4288085770
5.2629733 2.1611323 -1.7987924 4288085770
15.829384 6.4578967 -1.7212453 4288085770
7.3368492 3.0024743 -1.7900202 4288085770
9.1627731 3.7377915 -1.757858 4288085770
5.6589518 2.3131979 -1.796402 4288085770
5.0339804 2.0520897 -1.8064233 4288085770
5.7579603 2.3352199 -1.7865421 4288085770
5.1299815 2.0711071 -1.8025572 4288085770
5.2989726 2.1361346 -1.8018173 4288085770
4.5829968 1.8500077 -1.8187059 4288085770
15.435448 6.1778407 -1.705546 4288085770
5.8909545 2.3682408 -1.7867328 4288085770
7.3548555 2.9514751 -1.7910041 4288085770
9.202776 3.680793 -1.762866 4288085770
5.2409792 2.094125 -1.8017126 4288085770
6.0289497 2.4032633 -1.7859316 4288085770
6.1729431 2.4382856 -1.7861381 4288085770
5.3609724 2.1201434 -1.8028818 4288085770
5.3279762 2.1071386 -1.8018308 4288085770
4.6070008 1.824011 -1.8177148 4288085770
15.238477 5.9818048 -1.7071563 4288085770
7.3588696 2.8944769 -1.7869661 4288085770
9.2737684 3.6367958 -1.7729229 4288085770
6.3369317 2.4793093 -1.7893738 4288085770
5.4769711 2.1421626 -1.801043 4288085770
5.3699732 2.0841417 -1.8058647 4288085770
6.4869294 2.513335 -1.786587 4288085770
4.6420002 1.8020138 -1.8207403 4288085770
15.112493 5.8177776 -1.7148793 4288085770
5.5979691 2.1651828 -1.7992113 4288085770
7.389873 2.8474793 -1.7889695 4288085770
9.3487616 3.5927994 -1.7829846 4288085770
6.6739154 2.559361 -1.7918557 4288085770
5.7239671 2.1882031 -1.7973857 4288085770
5.3959799 2.0531459 -1.8038728 4288085770
6.8509078 2.5993886 -1.7921072 4288085770
15.014505 5.6657524 -1.7246462 4288085770
4.6700039 1.7760178 -1.8197544 4288085770
7.4288735 2.8034813 -1.7929852 4288085770
5.8479671 2.2092249 -1.7945564 4288085770
9.4007635 3.5378034 -1.7870095 4288085770
7.0348997 2.6404181 -1.7923687 4288085770
5.9759688 2.2302482 -1.7897321 4288085770
5.4389796 2.0281498 -1.8069067 4288085770
7.2148976 2.6784477 -1.7896228 4288085770
14.959511 5.5307326 -1.7364799 4288085770
4.700007 1.7510216 -1.8197714 4288085770
7.447885 2.7514846 -1.7899698 4288085770
9.4677649 3.4898088 -1.7930584 4288085770
6.1339579 2.2612698 -1.7939532 4288085770
7.4208894 2.7224801 -1.789914 4288085770
5.4679871 1.9981552 -1.8039193 4288085770
6.2909513 2.2892938 -1.7951707 4288085770
14.896519 5.3927121 -1.7473013 4288085770
4.728013 1.7250265 -1.8177854 4288085770
7.6278839 2.7655132 -1.789206 4288085770
7.4698944 2.7004874 -1.7889589 4288085770
9.5197687 3.4328129 -1.796082 4288085770
6.4469476 2.3153183 -1.7943857 4288085770
7.8668694 2.8175483 -1.7935452 4288085770
5.5089884 1.9721597 -1.8049501 4288085770
14.869523 5.2686977 -1.7591784 4288085770
4.768012 1.7030305 -1.8198175 4288085770
6.6099448 2.3413444 -1.7936094 4288085770
8.0918646 2.8615849 -1.7908609 4288085770
7.5338898 2.6634912 -1.7960116 4288085770
9.5707741 3.3768189 -1.7971051 4288085770
5.5399976 1.9411663 -1.8009645 4288085770
8.3198595 2.9036224 -1.788179 4288085770
6.7849374 2.3703711 -1.7948506 4288085770
4.8010168 1.6780353 -1.8188385 4288085770
14.832528 5.1416817 -1.7700406 4288085770
7.5768943 2.6204965 -1.7970331 4288085770
9.6227827 3.3218255 -1.79713 4288085770
8.5838499 2.9566631 -1.7895508 4288085770
6.9569354 2.3953989 -1.7930851 4288085770
5.5879984 1.9161716 -1.803005 4288085770
4.8250284 1.6490421 -1.8128452 4288085770
14.815534 5.0216703 -1.7799332 4288085770
8.89083 3.0197065 -1.7969842 4288085770
7.1349325 2.4214277 -1.7913281 4288085770
9.6797905 3.2658329 -1.7971606 4288085770
7.6248994 2.5765018 -1.7980603 4288085770
9.1978149 3.0797517 -1.8014154 4288085770
5.6429968 1.8931772 -1.8060557 4288085770
7.3179302 2.4464574 -1.7895768 4288085770
4.881022 1.6310461 -1.8189005 4288085770
14.756549 4.8876548 -1.7847626 4288085770
9.4768114 3.1277986 -1.796803 4288085770
9.7577934 3.2168407 -1.8012233 4288085770
7.6679058 2.5305071 -1.79808 4288085770
7.5579114 2.4874887 -1.7989092 4288085770
5.6870022 1.8651837 -1.8050889 4288085770
9.8027992 3.1878479 -1.7992588 4288085770
14.698565 4.7576404 -1.787596 4288085770
4.9230247 1.6060517 -1.818933 4288085770
7.7469134 2.509521 -1.7941635 4288085770
9.8417978 3.167851 -1.8032935 4288085770
7.7139115 2.485513 -1.798104 4288085770
10.159783 3.2529018 -1.8027576 4288085770
5.7390046 1.8401909 -1.8051345 4288085770
7.9639072 2.5375545 -1.7944576 4288085770
4.971025 1.5850568 -1.8209761 4288085770
14.398634 4.551609 -1.759068 4288085770
10.543765 3.3229592 -1.8072945 4288085770
9.9128046 3.1148605 -1.8033444 4288085770
7.7559218 2.4395201 -1.7951224 4288085770
8.1749096 2.5605905 -1.7897406 4288085770
5.7990046 1.8161979 -1.8071909 4288085770
10.888763 3.3760169 -1.8017697 4288085770
5.0130296 1.5600638 -1.8190087 4288085770
14.21068 4.3835864 -1.7437091 4293729569
8.4139042 2.5906274 -1.7900643 4288085770
10.002809 3.0668714 -1.8054229 4288085770
7.8269219 2.4015274 -1.7991834 4288085770
11.252764 3.4300773 -1.79627 4288085770
5.8570075 1.7912059 -1.8072442 4288085770
8.6608992 2.6186662 -1.789397 4288085770
5.0530353 1.5350704 -1.8170389 4288085770
14.154702 4.257576 -1.7415478 4293729569
11.634761 3.485141 -1.789794 4288085770
10.103813 3.0198841 -1.8075162 4288085770
7.8899274 2.3595357 -1.7992313 4288085770
5.9120126 1.7652142 -1.8062929 4288085770
8.9308891 2.6517057 -1.7927623 4288085770
12.027761 3.5402074 -1.7823322 4288085770
5.1120334 1.5150768 -1.8200969 4288085770
14.2157 4.1675758 -1.753561 4293729569
10.19282 2.9688969 -1.8065917 4288085770
9.2098827 2.6827481 -1.794138 4288085770
7.9479361 2.3155446 -1.7972716 4288085770
5.9900079 1.7452221 -1.8113753 4288085770
12.475756 3.6052797 -1.7789477 4288085770
5.1660357 1.4920843 -1.8201461 4288085770
14.248706 4.0695739 -1.7595329 4293729569
9.4778805 2.7077913 -1.7914953 4288085770
12.951748 3.6733561 -1.775601 4288085770
10.286828 2.9189107 -1.8056743 4288085770
3.7920504 1.0878391 -1.8581094 4288085770
8.0209379 2.2765532 -1.7993346 4288085770
6.051013 1.7192317 -1.809432 4288085770
3.7651098 1.0758646 -1.8130659 4288085770
3.741091 1.0648501 -1.8290272 4288085770
3.7451243 1.0658678 -1.8030329 4288085770
3.8011231 1.0808774 -1.8021148 4288085770
3.8301089 1.0888753 -1.8121574 4288085770
3.8781116 1.1018856 -1.8082277 4288085770
3.9461067 1.1188952 -1.8103262 4288085770
4.0300937 1.1409037 -1.8174485 4288085770
9.7768755 2.7388375 -1.7918966 4288085770
4.1120825 1.1619127 -1.8235675 4288085770
5.2140412 1.4680921 -1.8181872 4288085770
3.9041049 1.1038864 -1.8132615 4288085770
4.1950741 1.1819232 -1.827687 4288085770
13.459741 3.743438 -1.7722968 4288085770
14.303711 3.9765751 -1.7675363 4288085770
3.9840977 1.1208968 -1.8163749 4288085770
4.2660737 1.1979356 -1.8257884 4288085770
4.3350759 1.213949 -1.8218871 4288085770
4.0810823 1.1409061 -1.8255117 4288085770
4.4200711 1.2329618 -1.8230085 4288085770
10.404832 2.8749266 -1.8077916 4288085770
8.0809488 2.2325633 -1.7963778 4288085770
6.1400075 1.7002409 -1.8155292 4288085770
4.5040698 1.2509756 -1.8221277 4288085770
4.16008 1.1559185 -1.8256223 4288085770
10.116861 2.775887 -1.7973545 4288085770
4.5920677 1.26999 -1.8212527 4288085770
4.2470751 1.1719306 -1.8277436 4288085770
14.049725 3.8295283 -1.7751085 4288085770
4.6830635 1.2890041 -1.8213817 4288085770
5.2790399 1.4480993 -1.8212529 4288085770
4.7800612 1.3090194 -1.8215188 4288085770
4.3340716 1.1879441 -1.827865 4288085770
14.399708 3.8935809 -1.7785994 4288085770
4.8800573 1.329035 -1.8216597 4288085770
4.4190702 1.2019579 -1.8269823 4288085770
10.533836 2.8319435 -1.809924 4288085770
4.9840541 1.3490512 -1.8218056 4288085770
10.468847 2.811938 -1.8028269 4288085770
6.2150087 1.6762508 -1.816605 4288085770
8.1769476 2.1985741 -1.8004736 4288085770
14.657711 3.9136231 -1.7749419 4288085770
4.519063 1.2189715 -1.8301207 4288085770
5.0870523 1.3680687 -1.8199496 4288085770
4.6140594 1.2349863 -1.8302522 4288085770
5.3360424 1.4251078 -1.8203065 4288085770
5.1920543 1.3860877 -1.8160952 4288085770
5.3100491 1.4081053 -1.8172606 4288085770
14.524702 3.8185897 -1.7917049 4288085770
4.6970654 1.246003 -1.8243648 4288085770
10.857832 2.8519938 -1.8093495 4288085770
15.319694 4.0037246 -1.7768486 4288085770
10.655843 2.7869616 -1.8090459 4288085770
6.2770166 1.649262 -1.8126624 4288085770
5.440043 1.4311242 -1.8194417 4288085770
8.2409573 2.1545856 -1.7965218 4288085770
4.7970638 1.2610192 -1.8235018 4288085770
5.5840316 1.4581436 -1.8246435 4288085770
4.8970637 1.275036 -1.8216381 4288085770
5.4150372 1.4071155 -1.8263915 4288085770
5.7220244 1.4811637 -1.8268348 4288085770
11.225825 2.8820498 -1.8108386 4288085770
15.981688 4.0848322 -1.7707493 4293729569
5.0100579 1.2920521 -1.8237932 4288085770
14.70469 3.7546034 -1.8098886 4288085770
5.8470273 1.5001862 -1.8220066 4288085770
6.3810091 1.6322727 -1.8197802 4288085770
10.781849 2.7409804 -1.8081725 4288085770
8.3359623 2.1175981 -1.7976143 4288085770
5.1150608 1.305071 -1.8199351 4288085770
5.9880247 1.522209 -1.821201 4288085770
11.570829 2.9031065 -1.805292 4288085770
5.4750423 1.3831249 -1.8244482 4288085770
5.2560468 1.3270875 -1.8281292 4288085770
6.1300254 1.5432328 -1.818396 4288085770
16.691679 4.1689463 -1.7657136 4293729569
14.876677 3.6876168 -1.8270599 4288085770
6.2910204 1.5672579 -1.8186171 4288085770
5.3700485 1.3401078 -1.8242826 4288085770
6.4650121 1.6082847 -1.8198678 4288085770
10.943852 2.7020016 -1.8113499 4288085770
8.4449606 2.0826111 -1.8017266 4288085770
6.4610143 1.5932837 -1.8198513 4288085770
11.934829 2.9231648 -1.8017693 4288085770
5.4930482 1.3541281 -1.8224481 4288085770
17.400681 4.2460628 -1.756672 4293729569
5.5460415 1.3621337 -1.8265209 4288085770
6.6180172 1.6133113 -1.8150645 4288085770
5.6300421 1.3721479 -1.8246344 4288085770
15.087663 3.6256354 -1.8452848 4288085770
6.5510149 1.5842968 -1.819958 4288085770
6.7630267 1.6303402 -1.8052605 4288085770
11.102857 2.6600249 -1.8115215 4288085770
12.342823 2.9502275 -1.8023076 4288085770
5.7910304 1.3931689 -1.8308535 4288085770
18.237667 4.3441949 -1.7538087 4293729569
8.5489635 2.0456252 -1.8028308 4288085770
5.6200423 1.3421434 -1.8275986 4288085770
6.9650178 1.6583694 -1.808537 4288085770
5.9530206 1.4131905 -1.8360729 4288085770
7.1510186 1.6814009 -1.8047895 4288085770
6.6510162 1.5633109 -1.8210684 4288085770
15.291652 3.5606546 -1.8614987 4288085770
12.827806 2.9892969 -1.8109528 4288085770
6.0810266 1.4242147 -1.8292427 4288085770
11.270862 2.6190488 -1.8127055 4288085770
8.6569672 2.0086396 -1.8039404 4288085770
7.3640118 1.7094332 -1.80608 4288085770
5.704041 1.3211536 -1.830688 4288085770
6.2320266 1.4382393 -1.827444 4288085770
7.5900068 1.7374682 -1.8063869 4288085770
13.374782 3.0353732 -1.8236823 4288085770
6.7490163 1.5403244 -1.8221747 4288085770
6.3980222 1.4552642 -1.8286666 4288085770
15.468646 3.4856715 -1.8736713 4288085770
11.446869 2.5780754 -1.8118997 4288085770
7.8250012 1.7655044 -1.8067055 4288085770
8.7809696 1.974656 -1.8060726 4288085770
5.7910399 1.3011649 -1.8327823 4288085770
6.558023 1.4682909 -1.8258786 4288085770
8.0729942 1.7945422 -1.8080413 4288085770
14.059734 3.1054616 -1.8516051 4288085770
6.8460207 1.5163389 -1.821279 4288085770
6.7350211 1.4843189 -1.8251145 4288085770
15.624648 3.4066889 -1.8808144 4288085770
8.3479843 1.8275827 -1.8114147 4288085770
11.628874 2.5371022 -1.8111018 4288085770
8.9269667 1.9426743 -1.8112341 4288085770
5.8620458 1.2781763 -1.8308539 4288085770
6.8930278 1.4943477 -1.8183219 4288085770
14.765692 3.1695545 -1.8765508 4288085770
8.6309767 1.8596252 -1.8137975 4288085770
6.9540229 1.4943548 -1.8213991 4288085770
7.0830264 1.509378 -1.8165736 4288085770
8.9549618 1.8976713 -1.8202367 4288085770
11.841878 2.4991331 -1.8123456 4288085770
15.779655 3.3237073 -1.8859535 4288085770
9.0929604 1.9136934 -1.8194238 4288085770
5.951046 1.2571886 -1.8319502 4288085770
15.388671 3.2086434 -1.8873732 4288085770
7.2850227 1.5244091 -1.8168409 4288085770
9.2509594 1.925719 -1.8176335 4288085770
7.0630269 1.4703714 -1.8205191 4288085770
7.4900231 1.5384415 -1.8151113 4288085770
9.5509615 1.9527684 -1.8130344 4288085770
12.07288 2.4631662 -1.8146141 4288085770
15.907668 3.2337255 -1.8850534 4288085770
6.0320511 1.2352014 -1.8300356 4288085770
9.2449589 1.8797137 -1.822592 4288085770
15.948672 3.2237313 -1.8850987 4288085770
7.186028 1.4503887 -1.8216599 4288085770
7.7240157 1.5554756 -1.8184208 4288085770
9.8939562 1.9858221 -1.8124949 4288085770
12.302888 2.4232011 -1.8128785 4288085770
6.1470432 1.2182137 -1.837168 4288085770
7.9780073 1.574512 -1.8227572 4288085770
10.281946 2.0228801 -1.8160155 4288085770
16.041681 3.1457434 -1.8851625 4288085770
16.434689 3.2188137 -1.872716 4288085770
9.3959637 1.8447348 -1.8237582 4288085770
7.3170271 1.4304067 -1.8238109 4288085770
8.2310009 1.5915496 -1.8250912 4288085770
10.687935 2.0609412 -1.81856 4288085770
12.562888 2.3892386 -1.8151857 4288085770
6.2440472 1.1962283 -1.836274 4288085770
16.877716 3.1988938 -1.8532677 4288085770
16.223692 3.062768 -1.8873364 4288085770
9.5569649 1.8107572 -1.8259383 4288085770
11.104929 2.0960059 -1.8191166 4288085770
8.5059919 1.6085891 -1.8294533 4288085770
7.4520292 1.4084264 -1.8239657 4288085770
11.500935 2.1240721 -1.8116416 4288085770
8.7959843 1.6266316 -1.8328352 4288085770
6.3450489 1.175243 -1.8363858 4288085770
17.352739 3.1789773 -1.8358608 4288085770
12.834894 2.3532791 -1.8155069 4288085770
9.7299671 1.7767812 -1.8281338 4288085770
7.5960288 1.3884465 -1.8261335 4288085770
16.364712 2.9697897 -1.8834513 4288085770
11.976929 2.1611462 -1.8112751 4288085770
9.0949764 1.6426754 -1.8362274 4288085770
6.4410553 1.1522589 -1.83349 4288085770
17.930752 3.1700718 -1.8265936 4288085770
13.154892 2.3233244 -1.8198941 4288085770
12.476923 2.1982238 -1.8099395 4288085770
9.383975 1.6537206 -1.8346033 4288085770
7.7710209 1.3724679 -1.8333441 4288085770
9.9159689 1.7438072 -1.8303466 4288085770
16.512732 2.8768139 -1.877575 4288085770
13.018917 2.238308 -1.80966 4288085770
6.5490589 1.1312753 -1.832611 4288085770
9.6869764 1.663769 -1.8319967 4288085770
18.663742 3.1801813 -1.8305382 4288085770
13.489893 2.2923732 -1.8222997 4288085770
7.943018 1.3534915 -1.8365486 4288085770
10.114968 1.7098353 -1.8325754 4288085770
13.675897 2.2904043 -1.8185362 4288085770
16.655756 2.783839 -1.8696927 4288085770
10.008978 1.67382 -1.8294142 4288085770
6.6540651 1.1082926 -1.8297268 4288085770
19.455734 3.1882999 -1.8355571 4288085770
8.1170177 1.3345153 -1.8397559 4288085770
13.876887 2.2654274 -1.828775 4288085770
14.511854 2.363518 -1.842656 4288085770
10.375972 1.6878743 -1.8328923 4288085770
10.344965 1.6788654 -1.8388464 4288085770
16.826777 2.692867 -1.8628476 4288085770
6.7620716 1.0853101 -1.8268466 4288085770
15.421809 2.4416425 -1.8678743 4288085770
8.3110123 1.3165417 -1.8439896 4288085770
10.778962 1.7019333 -1.8374166 4288085770
14.399864 2.2554948 -1.8474365 4288085770
10.568965 1.6448967 -1.8421077 4288085770
16.214798 2.4907637 -1.869923 4288085770
6.8750801 1.0623299 -1.821973 4288085770
17.021799 2.6028993 -1.856034 4288085770
11.154963 1.7079927 -1.834901 4288085770
8.5020142 1.2965695 -1.8452181 4288085770
14.930844 2.2415648 -1.8641056 4288085770
16.86882 2.512877 -1.8507754 4288085770
10.804966 1.6119304 -1.8443849 4288085770
11.560965 1.7150557 -1.8334244 4288085770
6.9910893 1.0383501 -1.8171024 4288085770
17.24682 2.5169356 -1.8502618 4288085770
8.7230072 1.2795988 -1.8514873 4288085770
17.612835 2.5400023 -1.8347465 4288085770
15.485828 2.2256403 -1.8778042 4288085770
11.994963 1.7211227 -1.8329831 4288085770
11.075963 1.5809674 -1.8497087 4288085770
7.1350899 1.0183707 -1.8182707 4288085770
8.9380083 1.2606302 -1.8527476 4288085770
18.535833 2.5831485 -1.8289583 4288085770
17.49184 2.429975 -1.8435149 4288085770
5.1991425 0.73307157 -1.8115919 4288085770
5.31914 0.74909019 -1.8117567 4288085770
4.972147 0.70103621 -1.8112788 4288085770
5.0961394 0.71805292 -1.8154495 4288085770
5.4481354 0.7651096 -1.8129328 4288085770
4.8671498 0.68501991 -1.8111331 4288085770
12.46896 1.7271943 -1.8345934 4288085770
4.7581563 0.6690048 -1.8079822 4288085770
5.5771341 0.78113031 -1.8121091 4288085770
5.7231278 0.79915166 -1.8143084 4288085770
4.7391462 0.66399652 -1.8159542 4288085770
16.011824 2.1987171 -1.8824586 4288085770
5.8651271 0.81617433 -1.813502 4288085770
4.8371472 0.67601305 -1.8140879 4288085770
6.0241199 0.83419704 -1.8167179 4288085770
4.9501443 0.68802977 -1.8152406 4288085770
5.0691404 0.7010476 -1.8164018 4288085770
6.1851163 0.85122186 -1.8169357 4288085770
11.329968 1.5440056 -1.8490065 4288085770
7.2890902 0.99939293 -1.8194525 4288085770
5.1871386 0.71306592 -1.816561 4288085770
6.3741055 0.87224722 -1.8231919 4288085770
19.696814 2.6493225 -1.8374912 4288085770
9.150012 1.2386631 -1.8510019 4288085770
5.3071384 0.72508574 -1.8147225 4288085770
6.5451035 0.8892743 -1.8224224 4288085770
5.4391365 0.73710608 -1.8148996 4288085770
12.993953 1.7362717 -1.8392711 4288085770
6.7271018 0.90630311 -1.8216671 4288085770
5.5731339 0.74912667 -1.8150792 4288085770
6.8901105 0.9203341 -1.8128852 4288085770
17.785858 2.3480203 -1.839834 4288085770
5.7021375 0.76014924 -1.8112515 4288085770
7.0931077 0.93936533 -1.8131578 4288085770
16.508837 2.1627948 -1.8790696 4288085770
7.4420938 0.97741634 -1.8186311 4288085770
5.857132 0.7721718 -1.813458 4288085770
7.3031063 0.95739907 -1.8114389 4288085770
11.603973 1.5080466 -1.8493311 4288085770
9.3830175 1.2186986 -1.8502848 4288085770
6.0381198 0.78819519 -1.8207004 4288085770
7.5430989 0.97743422 -1.8147597 4288085770
13.582938 1.7453566 -1.8480308 4288085770
6.2071137 0.80121922 -1.8239253 4288085770
7.8100867 1.0004715 -1.8211173 4288085770
6.3701153 0.8112461 -1.8211405 4288085770
8.0770807 1.0215112 -1.8234733 4288085770
18.171865 2.2740762 -1.8422771 4288085770
16.977856 2.1188731 -1.8676394 4288085770
7.6190929 0.95844132 -1.8208425 4288085770
6.5501122 0.82327312 -1.8223788 4288085770
8.3650723 1.0435537 -1.8268571 4288085770
9.6270208 1.1977365 -1.8485812 4288085770
11.876982 1.4700891 -1.846653 4288085770
14.245918 1.7574492 -1.8618879 4288085770
6.7201166 0.8333025 -1.817603 4288085770
8.6870594 1.0675992 -1.8332858 4288085770
6.9251113 0.84533274 -1.8198731 4288085770
8.9920578 1.0876468 -1.8326899 4288085770
7.8080912 0.93946749 -1.8240695 4288085770
17.512873 2.0789602 -1.858297 4288085770
7.1151147 0.8543644 -1.8161222 4288085770
18.59787 2.2001374 -1.8457714 4288085770
9.8800278 1.1757765 -1.8458886 4288085770
9.3360491 1.1106979 -1.8361461 4288085770
15.089878 1.7815605 -1.8899853 4288085770
12.230978 1.439139 -1.8520839 4288085770
7.3351116 0.86639816 -1.8164119 4288085770
9.7090416 1.1337532 -1.8396394 4288085770
7.5721068 0.87743312 -1.8187222 4288085770
7.992094 0.91949487 -1.8242896 4288085770
10.109033 1.1578127 -1.8431681 4288085770
10.19602 1.1598201 -1.8522809 4288085770
15.779869 1.7806623 -1.8958685 4288085770
18.145884 2.0450597 -1.8530844 4288085770
7.823103 0.88847095 -1.820051 4288085770
10.544022 1.1838763 -1.8487432 4288085770
19.106874 2.1292095 -1.8523746 4288085770
12.572982 1.4021902 -1.8524953 4288085770
8.0900965 0.90050995 -1.8234007 4288085770
11.018009 1.2109457 -1.8543689 4288085770
8.2120876 0.90152448 -1.8295572 4288085770
10.523019 1.142868 -1.8546869 4288085770
8.360095 0.90955186 -1.8227521 4288085770
16.454876 1.7697674 -1.8927257 4288085770
11.481008 1.2330182 -1.8529773 4288085770
18.95788 2.0231802 -1.8581102 4288085770
8.6580896 0.92059547 -1.8261411 4288085770
13.050965 1.3772517 -1.8690895 4288085770
19.620882 2.0542843 -1.8549818 4288085770
11.970009 1.2540958 -1.849618 4288085770
8.4220905 0.88055587 -1.82981 4288085770
10.893011 1.1279194 -1.8621495 4288085770
8.963089 0.92864263 -1.8255368 4288085770
17.0509 1.7428682 -1.8774709 4288085770
12.539002 1.2801824 -1.851365 4288085770
19.788885 1.9943069 -1.8571557 4288085770
9.3000832 0.93769306 -1.8279742 4288085770
13.557949 1.350319 -1.8837198 4288085770
13.301969 1.3202865 -1.8723706 4288085770
8.6240978 0.85858858 -1.8260521 4288085770
11.257012 1.1089742 -1.8626019 4288085770
9.6880703 0.94974774 -1.8354793 4288085770
17.746918 1.7169814 -1.8663452 4288085770
14.135932 1.3624002 -1.8954687 4288085770
10.06007 0.95680445 -1.8359604 4288085770
8.9080887 0.84162611 -1.834403 4288085770
14.124929 1.3243936 -1.901428 4288085770
15.103889 1.4095318 -1.9227424 4288085770
11.631018 1.0890319 -1.8610666 4288085770
10.506059 0.96686739 -1.8445385 4288085770
18.658907 1.702116 -1.8735043 4288085770
15.963876 1.441661 -1.9278675 4288085770
4.8851728 0.45001239 -1.8149705 4288085770
9.1540928 0.82066363 -1.8337024 4288085770
10.989043 0.97793537 -1.8541648 4288085770
12.044022 1.0690957 -1.8595811 4288085770
14.790902 1.3014795 -1.9252656 4288085770
16.688902 1.4547856 -1.9078063 4288085770
19.600908 1.6782584 -1.8756963 4288085770
11.441042 0.98200494 -1.8537468 4288085770
4.9641781 0.43502587 -1.8120594 4288085770
9.4790812 0.8047061 -1.8441068 4288085770
17.498924 1.4689231 -1.8878549 4288085770
12.512019 1.0521653 -1.8621689 4288085770
15.411889 1.2685655 -1.9380387 4282675967
11.903047 0.98207849 -1.8493387 4288085770
5.0681739 0.42203864 -1.8161819 4288085770
18.587923 1.4980918 -1.8862721 4288085770
9.760088 0.7817502 -1.84145 4288085770
13.066012 1.0382447 -1.869869 4288085770
12.444043 0.9851597 -1.8520343 4288085770
19.767923 1.525277 -1.880805 4288085770
5.1601763 0.40705281 -1.8152876 4288085770
15.995896 1.2266533 -1.9387584 4288085770
13.090027 0.99125177 -1.8628668 4288085770
10.066091 0.76079762 -1.8398268 4288085770
13.713995 1.0273346 -1.8836923 4288085770
5.2611766 0.39306706 -1.8164057 4288085770
13.80701 0.99635333 -1.8757896 4288085770
16.541914 1.1777427 -1.9284251 4288085770
10.500072 0.74585277 -1.8563721 4288085770
14.501966 1.0214401 -1.9066987 4288085770
5.3541827 0.37808326 -1.8125128 4288085770
14.712972 1.0074741 -1.9039596 4288085770
10.866075 0.72390801 -1.8568256 4288085770
15.352939 1.0145561 -1.9287856 4288085770
17.096943 1.1238364 -1.9130996 4288085770
15.66494 1.0136043 -1.9281853 4288085770
5.4651842 0.36409977 -1.8126438 4288085770
16.125937 0.99867302 -1.9307667 4288085770
11.323065 0.70597118 -1.8663987 4288085770
16.406952 0.99872428 -1.9181273 4288085770
5.5721889 0.34911689 -1.8107691 4288085770
17.786959 1.0759456 -1.9059521 4288085770
16.853958 0.97279304 -1.916683 4288085770
11.770065 0.68403816 -1.8679565 4288085770
5.6891904 0.33513486 -1.809908 4288085770
4.9751887 0.29502049 -1.8159636 4288085770
17.174978 0.97785252 -1.9010986 4288085770
18.664965 1.0280777 -1.9080464 4288085770
17.645983 0.94792432 -1.9006827 4288085770
12.181081 0.65710658 -1.8584646 4288085770
5.0821877 0.28303501 -1.818091 4288085770
5.8161893 0.32115251 -1.8120599 4288085770
18.069994 0.95699579 -1.8912333 4288085770
19.637966 0.97922379 -1.9112623 4288085770
5.9461913 0.30717182 -1.8122157 4288085770
18.813969 0.9370957 -1.9121749 4288085770
5.1951852 0.27004987 -1.8212256 4288085770
12.664089 0.63418227 -1.8550683 4288085770
19.276981 0.94217306 -1.902773 4288085770
9.3551521 0.44368851 -1.8266866 4288085770
9.6921577 0.45874411 -1.8211298 4288085770
9.0061579 0.42663616 -1.8242266 4288085770
6.0881915 0.29319242 -1.8133869 4288085770
5.3001895 0.2570667 -1.81935 4288085770
10.186132 0.4788096 -1.837778 4288085770
8.6851616 0.4105868 -1.8238032 4288085770
10.626128 0.49687648 -1.8393555 4288085770
8.3741665 0.39454088 -1.8203926 4288085770
13.259083 0.61226922 -1.8608165 4288085770
11.143115 0.51595122 -1.8470325 4288085770
8.0901709 0.37849784 -1.8190166 4288085770
11.654114 0.53303021 -1.8467004 4288085770
7.7991824 0.36145693 -1.8126309 4288085770
12.243105 0.5521186 -1.8504701 4288085770
7.5531859 0.34541968 -1.8113037 4288085770
7.4121871 0.33839795 -1.8111178 4288085770
7.6571846 0.34843493 -1.8124391 4288085770
7.9151821 0.35947457 -1.8127782 4288085770
7.1831894 0.32736278 -1.8108159 4288085770
6.9711895 0.31732953 -1.8115367 4288085770
8.2181711 0.37051645 -1.8201751 4288085770
12.823111 0.56821132 -1.8452258 4288085770
6.7621946 0.30629867 -1.8092606 4288085770
7.3261876 0.33038399 -1.8120015 4288085770
8.5171671 0.38056165 -1.8215657 4288085770
6.5711946 0.29526863 -1.8100073 4288085770
13.518104 0.5883165 -1.8481323 4288085770
8.8541603 0.39061072 -1.8260055 4288085770
5.4131913 0.24408418 -1.8184847 4288085770
6.2241969 0.27821457 -1.8105496 4288085770
7.0941935 0.31435016 -1.8086922 4288085770
6.3802004 0.28324109 -1.8067535 4288085770
9.1831589 0.39966172 -1.825434 4288085770
14.388081 0.61144072 -1.8632655 4288085770
13.939076 0.59136778 -1.868675 4288085770
6.2122006 0.27221456 -1.8075299 4288085770
6.8851986 0.29931918 -1.8064128 4288085770
9.5111656 0.40671584 -1.81986 4288085770
6.0422049 0.26118898 -1.8063036 4288085770
9.8891659 0.41477501 -1.8183508 4288085770
15.440044 0.63858616 -1.8886354 4288085770
6.6902013 0.284289 -1.8061516 4288085770
5.8982024 0.25016472 -1.8091108 4288085770
10.378147 0.42584136 -1.8319863 4288085770
16.386042 0.65873158 -1.8888644 4288085770
6.5152006 0.27026066 -1.8079169 4288085770
6.3821955 0.26423696 -1.8127418 4288085770
5.5361924 0.2311025 -1.8186321 4288085770
5.7472057 0.23814201 -1.8079079 4288085770
10.837145 0.43291152 -1.8325807 4288085770
17.340057 0.6748873 -1.8751009 4288085770
14.767056 0.57248253 -1.8867249 4288085770
6.3252101 0.25423449 -1.8026612 4288085770
5.6192007 0.22711891 -1.8127353 4288085770
11.369135 0.4409883 -1.8402693 4288085770
18.617046 0.69808012 -1.8807573 4288085770
5.4882007 0.21609798 -1.8135592 4288085770
6.1662102 0.24020919 -1.8034467 4288085770
11.92913 0.44707251 -1.8429925 4288085770
6.5501943 0.25026077 -1.8149467 4288085770
5.6541967 0.21812135 -1.8167735 4288085770
5.3602014 0.20407745 -1.8143858 4288085770
6.0122113 0.22618461 -1.8042387 4288085770
12.50913 0.4511624 -1.8417401 4288085770
15.631044 0.5496065 -1.8988189 4288085770
5.238203 0.19205847 -1.8142201 4288085770
13.188124 0.45626348 -1.8466158 4288085770
5.8662119 0.21116129 -1.8050399 4288085770
5.7782016 0.20514178 -1.8139225 4288085770
6.7291932 0.23628634 -1.8171657 4288085770
5.118206 0.1810405 -1.8130578 4288085770
13.937116 0.4593752 -1.85158 4288085770
5.73421 0.19713873 -1.80786 4288085770
16.508045 0.5237397 -1.8999276 4288085770
5.006206 0.16902238 -1.8139048 4288085770
14.88109 0.46550703 -1.8717968 4288085770
5.5942144 0.18311831 -1.8056697 4288085770
5.9222012 0.19216269 -1.8150972 4288085770
6.9011955 0.22131276 -1.8163753 4288085770
15.849076 0.46664882 -1.8820413 4288085770
5.4742126 0.1690976 -1.8085049 4288085770
17.428059 0.49488389 -1.8940896 4288085770
6.0632043 0.17918444 -1.8142682 4288085770
7.0871997 0.20634201 -1.8146027 4288085770
16.800079 0.46279705 -1.8782605 4288085770
5.3512149 0.15507844 -1.8083364 4288085770
17.901085 0.45696622 -1.8776714 4288085770
6.2222023 0.167207 -1.8164632 4288085770
18.603052 0.46805859 -1.901581 4288085770
7.3001962 0.19237146 -1.8188659 4288085770
5.2422137 0.1420601 -1.8101865 4288085770
19.249075 0.45016778 -1.8853991 4288085770
5.1392121 0.12804198 -1.8130436 4288085770
6.3692093 0.15423164 -1.8126421 4288085770
7.5211959 0.17840409 -1.8201392 4288085770
19.856056 0.43724972 -1.9021703 4288085770
6.561202 0.1412566 -1.8188788 4288085770
7.7601938 0.16343817 -1.8234352 4288085770
6.7402053 0.12928423 -1.8181 4288085770
8.0091915 0.14947444 -1.8257447 4288085770
6.9342051 0.11631278 -1.8193394 4288085770
8.2691936 0.13451371 -1.8260679 4288085770
7.1352067 0.10434309 -1.8195887 4288085770
8.5671902 0.12055618 -1.8304408 4288085770
7.3662009 0.091374703 -1.8248758 4288085770
8.8591928 0.10560098 -1.8298051 4288085770
7.5982008 0.0794091 -1.8261652 4288085770
9.1861925 0.090649135 -1.8322146 4288085770
7.8392034 0.06744618 -1.8254662 4288085770
9.536191 0.075700842 -1.8346537 4288085770
8.1022034 0.055485345 -1.8267956 4288085770
9.8781996 0.060755886 -1.8300827 4288085770
8.393199 0.043526806 -1.8311609 4288085770
10.312193 0.045817822 -1.83663 4288085770
8.6922007 0.031572104 -1.8315367 4288085770
10.763191 0.030884974 -1.8391993 4288085770
9.0141993 0.019619636 -1.8339422 4288085770
11.228194 0.015956208 -1.8387867 4288085770
9.3362064 0.00867109 -1.8303484 4288085770
11.767193 0.0010361448 -1.8424693 4288085770
9.7252016 -0.0022724271 -1.8348408 4288085770
12.35319 -0.014876116 -1.8452117 4288085770
10.108204 -0.013212949 -1.8333256 4288085770
13.017184 -0.03077906 -1.8520546 4288085770
10.555203 -0.024146304 -1.8358928 4288085770
13.721184 -0.04567261 -1.8539497 4288085770
11.032201 -0.035075072 -1.8384985 4288085770
11.545201 -0.044997655 -1.8401513 4288085770
14.579174 -0.062547907 -1.8640414 4288085770
12.143193 -0.055910543 -1.8469127 4288085770
15.501167 -0.079411477 -1.8712156 4288085770
12.772193 -0.064815387 -1.8487157 4288085770
18.442162 -0.10196496 -1.8779827 4288085770
18.825136 -0.1099223 -1.9024701 4288085770
13.516184 -0.074706607 -1.8566656 4288085770
16.545162 -0.095256366 -1.8785475 4288085770
14.311176 -0.082589328 -1.8636829 4288085770
17.450148 -0.10412493 -1.8897054 4288085770
16.280159 -0.098298848 -1.8812046 4288085770
15.236168 -0.091452882 -1.8718665 4288085770
17.739153 -0.11307973 -1.8880709 4288085770
19.151136 -0.1308724 -1.901875 4288085770
17.161171 -0.11615698 -1.8703254 4288085770
16.057186 -0.13132137 -1.861895 4288085770
15.106194 -0.14546499 -1.8576617 4288085770
14.215207 -0.16059688 -1.8495051 4288085770
13.455213 -0.17471132 -1.8455175 4288085770
19.000181 -0.27488726 -1.8835822 4288085770
12.757221 -0.18981507 -1.8396087 4288085770
17.652199 -0.28908694 -1.8718383 4288085770
12.149228 -0.20390636 -1.8358165 4288085770
16.520208 -0.3032569 -1.8653721 4288085770
11.592234 -0.21799049 -1.8330898 4288085770
15.520217 -0.31740677 -1.8590755 4288085770
11.106234 -0.23406646 -1.8344527 4288085770
14.638227 -0.33253857 -1.8529301 4288085770
10.649237 -0.24813598 -1.8328546 4288085770
19.689198 -0.49179319 -1.8933208 4288085770
13.842235 -0.34665728 -1.8468958 4288085770
10.240238 -0.26419955 -1.8333166 4288085770
18.954185 -0.51291507 -1.9063605 4288085770
13.155239 -0.3617613 -1.8440009 4288085770
18.385218 -0.52298731 -1.8826213 4288085770
9.8742352 -0.27925849 -1.8368345 4288085770
17.6402 -0.5211094 -1.8946638 4288085770
12.534245 -0.37685594 -1.8421907 4288085770
9.5232363 -0.29431319 -1.8373717 4288085770
16.536207 -0.52627498 -1.8882393 4288085770
17.246231 -0.55215675 -1.8731354 4288085770
11.971249 -0.39194107 -1.8394554 4288085770
15.534221 -0.52842295 -1.878948 4288085770
9.1872396 -0.30936432 -1.8359281 4288085770
16.274242 -0.58130336 -1.8678641 4288085770
11.459251 -0.40701905 -1.8377852 4288085770
14.645224 -0.52955747 -1.8758026 4288085770
8.8562469 -0.32341206 -1.8304914 4288085770
13.831235 -0.52767658 -1.8667557 4288085770
11.010254 -0.42308936 -1.8391956 4288085770
15.416253 -0.60943186 -1.8617402 4288085770
13.106239 -0.52478468 -1.8618242 4288085770
8.569252 -0.33845568 -1.8291106 4288085770
10.61225 -0.43915325 -1.8426716 4288085770
12.462243 -0.5208804 -1.8569975 4288085770
8.2952538 -0.35249734 -1.8277473 4288085770
14.649262 -0.63554782 -1.8577346 4288085770
11.867246 -0.51596993 -1.8542343 4288085770
18.559227 -0.81798285 -1.9056439 4288085770
5.1322389 -0.21697667 -1.8227671 4288085770
10.206256 -0.45421374 -1.8391378 4288085770
11.32525 -0.5110507 -1.8505396 4288085770
17.276241 -0.79117107 -1.8930103 4288085770
5.2422433 -0.23095897 -1.8208987 4288085770
8.0392599 -0.36753562 -1.8254063 4288085770
10.847248 -0.50512427 -1.8509277 4288085770
16.166246 -0.76633555 -1.884598 4288085770
13.945271 -0.66065282 -1.8518105 4288085770
5.356246 -0.24494132 -1.8200351 4288085770
9.8262615 -0.46827033 -1.8356379 4288085770
10.404245 -0.4991931 -1.8523611 4288085770
15.179254 -0.74148113 -1.876344 4288085770
5.4742508 -0.25892237 -1.8181767 4288085770
9.9892454 -0.49125573 -1.8508316 4288085770
7.8022609 -0.38257229 -1.8250896 4288085770
5.6062508 -0.27290323 -1.8193368 4288085770
14.314256 -0.71961021 -1.8712448 4288085770
9.6082439 -0.48431441 -1.8513455 4288085770
5.1262379 -0.2549814 -1.82673 4288085770
13.335277 -0.68674606 -1.8500063 4288085770
9.5002623 -0.48532185 -1.8372054 4288085770
13.534258 -0.69772625 -1.8662553 4288085770
5.7402539 -0.28788254 -1.8184983 4288085770
9.2302475 -0.47436941 -1.8468653 4288085770
5.2452397 -0.26696354 -1.8268746 4288085770
12.847259 -0.67682886 -1.8623846 4288085770
19.58724 -1.0408409 -1.9218158 4288085770
5.8872547 -0.30286115 -1.819677 4288085770
8.8852491 -0.46542063 -1.8444266 4288085770
7.5762644 -0.39760667 -1.8237872 4288085770
5.3712416 -0.27794459 -1.8270291 4288085770
8.5612516 -0.45546794 -1.8410158 4288085770
19.94326 -1.0807799 -1.9102471 4288085770
12.211261 -0.65692365 -1.8585788 4288085770
6.0432544 -0.317839 -1.8218671 4288085770
5.4982443 -0.28992486 -1.8261842 4288085770
8.2632532 -0.445512 -1.8386387 4288085770
11.64226 -0.63700885 -1.8558595 4288085770
6.1962571 -0.33281541 -1.8210534 4288085770
9.1662683 -0.49937138 -1.8337647 4288085770
5.6252489 -0.3009038 -1.8233398 4288085770
7.9872532 -0.43555331 -1.8372898 4288085770
5.7732496 -0.31288216 -1.8245221 4288085770
12.783281 -0.71183044 -1.8482778 4288085770
11.136258 -0.61908567 -1.8552198 4288085770
7.7162552 -0.42459255 -1.8339481 4288085770
6.3632584 -0.34779024 -1.8212579 4288085770
19.005276 -1.072915 -1.8970445 4288085770
5.9302483 -0.32485977 -1.8267157 4288085770
7.4802508 -0.41462964 -1.8356507 4288085770
6.0892496 -0.33583575 -1.8269129 4288085770
6.5482569 -0.36276433 -1.8244859 4288085770
10.675255 -0.60115635 -1.8556381 4288085770
7.2422533 -0.40366378 -1.8323516 4288085770
6.2522511 -0.34781113 -1.8271146 4288085770
7.0262523 -0.39269659 -1.8320807 4288085770
7.3692646 -0.41263944 -1.8245089 4288085770
6.4212546 -0.35778427 -1.8253254 4288085770
6.6182518 -0.36975703 -1.829571 4288085770
6.8162532 -0.3817271 -1.8298178 4288085770
18.392258 -1.0560167 -1.9092667 4288085770
6.7412558 -0.37873656 -1.8267231 4288085770
10.228253 -0.58222294 -1.8530753 4288085770
9.8172579 -0.56428337 -1.849558 4288085770
6.9392591 -0.39470673 -1.8269669 4288085770
7.1412621 -0.40967557 -1.8262167 4288085770
9.4362545 -0.54634058 -1.8480793 4288085770
8.8772688 -0.51541609 -1.8333805 4288085770
7.3792577 -0.42664286 -1.8315116 4288085770
9.0882549 -0.52939266 -1.8466426 4288085770
7.618258 -0.4426074 -1.8328084 4288085770
8.7362614 -0.51044148 -1.839202 4288085770
8.4132652 -0.49248713 -1.8337983 4288085770
7.8642602 -0.4595702 -1.8331134 4288085770
8.1432581 -0.47652996 -1.8364614 4288085770
18.957279 -1.1309273 -1.9019433 4288085770
12.266287 -0.73590881 -1.8455945 4288085770
17.875288 -1.085083 -1.8875809 4288085770
7.1742687 -0.42766908 -1.8232461 4288085770
17.31727 -1.0681748 -1.8978736 4288085770
8.586277 -0.52945781 -1.8279949 4288085770
6.9902682 -0.4426983 -1.8239974 4288085770
11.818289 -0.76097864 -1.8459996 4288085770
16.863304 -1.0972314 -1.876269 4288085770
18.036301 -1.1750611 -1.8887271 4288085770
16.360283 -1.0773169 -1.8896346 4288085770
8.3252811 -0.54449689 -1.825647 4288085770
6.813271 -0.45772523 -1.8227577 4288085770
11.390295 -0.78404409 -1.8444314 4288085770
16.036306 -1.1143576 -1.8741918 4288085770
15.503289 -1.0854455 -1.8845248 4288085770
8.1012793 -0.56053352 -1.8283463 4288085770
17.261312 -1.2211775 -1.8826971 4288085770
6.656271 -0.47375113 -1.8245428 4288085770
11.009295 -0.80910432 -1.8459226 4288085770
14.727295 -1.0895617 -1.8795218 4288085770
7.8692842 -0.5755682 -1.8260357 4288085770
15.268314 -1.1314735 -1.8701901 4288085770
6.4802785 -0.48677522 -1.8193055 4288085770
16.551327 -1.266284 -1.8767514 4288085770
14.015302 -1.091668 -1.8746024 4288085770
7.666285 -0.59160042 -1.8267618 4288085770
10.650298 -0.83315992 -1.8454423 4288085770
14.591317 -1.1495775 -1.869305 4288085770
6.3372788 -0.50279826 -1.8201088 4288085770
13.371305 -1.0927653 -1.8717713 4288085770
15.955331 -1.3123763 -1.8759518 4288085770
7.4632883 -0.60763133 -1.8254877 4288085770
10.356291 -0.86021078 -1.8530438 4288085770
13.965324 -1.1666712 -1.8644863 4288085770
6.2022781 -0.51782066 -1.8219228 4288085770
12.772306 -1.0908555 -1.8690001 4288085770
7.2812881 -0.62366027 -1.8262408 4288085770
19.636311 -1.7218629 -1.9414171 4288085770
15.440334 -1.3614587 -1.8792542 4288085770
10.0233 -0.88125908 -1.847599 4288085770
13.405328 -1.1847566 -1.8627515 4288085770
12.218309 -1.0879383 -1.8652874 4288085770
6.0682778 -0.5338425 -1.8227373 4288085770
4.3018117 -2.4175591 -1.0901352 4293729569
4.3243022 -2.4303234 -0.23314421 4293729569
4.0615044 -2.2907338 -1.5920321 4293729569
4.303915 -2.4305108 -0.91013193 4293729569
4.2737327 -2.4146013 -1.225119 4293729569
4.3091745 -2.4353876 -0.45813325 4293729569
4.2988772 -2.4325302 -0.97612822 4293729569
4.3133278 -2.4413145 -0.19013362 4293729569
4.2887988 -2.4315691 -1.1131223 4293729569
4.0565114 -2.3057325 -1.5820236 4293729569
4.2983112 -2.4453251 -0.21812302 4293729569
4.3009028 -2.4475195 -0.93412417 4293729569
4.2837863 -2.4485774 -1.1371132 4293729569
4.2647386 -2.4386027 -1.2181051 4293729569
4.2961831 -2.4573877 -0.44411758 4293729569
4.0575166 -2.3237314 -1.5750178 4293729569
4.2898831 -2.456531 -0.96811426 4293729569
4.2983193 -2.4613233 -0.20611745 4293729569
4.2888908 -2.4565277 -0.95511371 4293729569
4.2843199 -2.4663255 -0.20410709 4293729569
4.275774 -2.4645865 -1.1601028 4293729569
4.2848778 -2.470536 -0.97910643 4293729569
4.0655212 -2.3447299 -1.5690155 4293729569
4.285192 -2.4793878 -0.43010315 4293729569
4.2687435 -2.4706025 -1.2130965 4293729569
4.2828894 -2.4805315 -0.95910162 4293729569
4.2793112 -2.4783318 -0.22109984 4293729569
4.2798667 -2.4835434 -1.0010988 4293729569
4.0805264 -2.3697274 -1.5650159 4293729569
4.2737603 -2.482595 -1.1860952 4293729569
4.2713299 -2.4873254 -0.18909177 4293729569
4.2738538 -2.4945519 -1.0240911 4293729569
4.0945311 -2.3927248 -1.5600164 4293729569
4.2644296 -2.4912791 -0.013086069 4293729569
4.2637477 -2.4946036 -1.2080849 4293729569
4.2822018 -2.5053859 -0.41609228 4293729569
4.2767477 -2.5036023 -1.2100898 4293729569
4.2798963 -2.5065317 -0.95109081 4293729569
4.2753034 -2.5043387 -0.23808834 4293729569
4.2718406 -2.5075595 -1.0470855 4293729569
4.1095366 -2.4157221 -1.5550177 4293729569
4.2593384 -2.5073252 -0.17507744 4293729569
4.2707334 -2.5166113 -1.2360817 4293729569
4.2718282 -2.5205667 -1.0710807 4293729569
4.2464213 -2.507288 -0.029069422 4293729569
4.121542 -2.4357195 -1.549018 4293729569
4.2742119 -2.5283849 -0.40107942 4293729569
4.2869024 -2.5385303 -0.94508398 4293729569
4.2847528 -2.5376017 -1.2060829 4293729569
4.2672949 -2.5273468 -0.2550754 4293729569
4.2818155 -2.5385725 -1.0970807 4293729569
4.2777195 -2.5386186 -1.2640784 4293729569
4.1335483 -2.4557161 -1.5410184 4293729569
4.2513485 -2.5303242 -0.16006453 4293729569
4.2798023 -2.5495799 -1.1200757 4293729569
4.242414 -2.5302947 -0.044058971 4293729569
4.1485548 -2.4767127 -1.5340203 4293729569
4.2937055 -2.5646253 -1.2940792 4293729569
4.2772207 -2.5563824 -0.38807154 4293729569
4.3079076 -2.577528 -0.94208342 4293729569
4.298789 -2.5725853 -1.1480795 4293729569
4.2612863 -2.5503535 -0.27206376 4293729569
4.3267565 -2.5905976 -1.2100905 4293729569
4.1915584 -2.512707 -1.5360342 4293729569
4.3267756 -2.5985894 -1.1780877 4293729569
4.3276896 -2.6006303 -1.3290876 4293729569
4.2543592 -2.558321 -0.14505666 4293729569
4.2575588 -2.5617003 -1.5460579 4293729569
4.2454062 -2.5573001 -0.061051458 4293729569
4.3527613 -2.6245947 -1.2090948 4293729569
4.3245602 -2.6116927 -1.5550821 4293729569
4.2902317 -2.5913785 -0.37506744 4293729569
4.3739128 -2.6435208 -0.94710135 4293729569
5.5065804 -3.3285539 -1.7135628 4293729569
4.2732792 -2.5833588 -0.29005972 4293729569
6.133635 -3.7084587 -1.719818 4293729569
6.2776446 -3.7994392 -1.7278755 4293729569
4.6265388 -2.8036711 -1.6442019 4293729569
6.0256252 -3.6544764 -1.7217703 4293729569
4.7595353 -2.8916585 -1.6722536 4293729569
5.404572 -3.2845707 -1.7145154 4293729569
4.251369 -2.5833194 -0.13004617 4293729569
5.909616 -3.5934947 -1.7197201 4293729569
4.2453985 -2.581306 -0.078043148 4293729569
4.8315396 -2.9416494 -1.6782807 4293729569
5.8026075 -3.535511 -1.7186744 4293729569
4.9395399 -3.0136378 -1.6953226 4293729569
4.3302441 -2.6413713 -0.36307484 4293729569
5.6955996 -3.4765267 -1.715629 4293729569
4.3122735 -2.6333594 -0.31006652 4293729569
5.0255442 -3.070627 -1.703356 4293729569
5.3035636 -3.240587 -1.7144687 4293729569
5.6045909 -3.4265416 -1.7165902 4293729569
6.3256516 -3.8684342 -1.7298824 4293729569
5.0935502 -3.116617 -1.7043821 4293729569
5.4965839 -3.3635569 -1.7115455 4293729569
5.1715555 -3.1666059 -1.7074131 4293729569
5.4055772 -3.3105707 -1.7095077 4293729569
5.3215699 -3.2595828 -1.7074734 4293729569
5.2485623 -3.2155948 -1.7094436 4293729569
4.2713814 -2.6213138 -0.11504539 4293729569
4.2613921 -2.6153102 -0.095041275 4293729569
5.197557 -3.1916037 -1.7114205 4293729569
5.0975504 -3.1436188 -1.7083757 4293729569
6.376658 -3.9374287 -1.7318914 4288085770
5.016542 -3.1066327 -1.7113385 4293729569
4.9125371 -3.0536475 -1.7042928 4293729569
6.422667 -4.0044231 -1.7308978 4288085770
4.8115325 -3.0016615 -1.6962484 4293729569
3.8284583 -2.3908029 -1.661852 4293729569
4.6755328 -2.9256773 -1.6751909 4293729569
3.8464642 -2.4097993 -1.6558564 4293729569
4.5615301 -2.8626912 -1.6601421 4293729569
3.8654692 -2.4277949 -1.6498619 4293729569
4.4165325 -2.7777061 -1.6330819 4293729569
3.8854759 -2.4457905 -1.642868 4293729569
4.3135309 -2.7187188 -1.6190385 4293729569
3.9044826 -2.4627857 -1.634874 4293729569
4.2555256 -2.6867278 -1.6190135 4293729569
3.9164903 -2.474781 -1.6228771 4293729569
4.1635242 -2.6317384 -1.6059759 4293729569
3.9304988 -2.4857759 -1.611882 4293729569
4.0925212 -2.5887477 -1.5999467 4293729569
3.9655044 -2.5097697 -1.6078954 4293729569
4.045516 -2.5607557 -1.6019272 4293729569
4.0065098 -2.536763 -1.6059115 4293729569
7.1393843 4.9544272 -1.7440822 4288085770
7.0363913 4.8824129 -1.7490001 4288085770
7.2523775 5.0314441 -1.7391715 4288085770
7.3733687 5.1124611 -1.7352668 4288085770
6.9343987 4.8093982 -1.752918 4288085770
6.8214087 4.7273831 -1.7528269 4288085770
7.4843636 5.1834774 -1.7273531 4288085770
6.71242 4.6463685 -1.7527384 4288085770
7.6033583 5.2574954 -1.7204447 4288085770
6.5944347 4.5563536 -1.7476416 4288085770
7.722353 5.3305125 -1.7125361 4288085770
6.4954443 4.4783397 -1.7475597 4288085770
7.8483486 5.4055309 -1.7036322 4288085770
6.3794603 4.3883262 -1.7404639 4288085770
7.9933405 5.4915514 -1.6977426 4288085770
6.2884698 4.3143144 -1.7393875 4288085770
8.1553307 5.5855732 -1.6918653 4288085770
6.2014813 4.240303 -1.7373135 4288085770
8.3323193 5.6875968 -1.6889992 4288085770
6.144485 4.1862926 -1.7422631 4288085770
9.3882332 6.3827367 -1.6788268 4288085770
8.514308 5.7906213 -1.684136 4288085770
9.1202621 6.2007046 -1.6706147 4288085770
