# .PCD v0.7 - Point Cloud Data file format
VERSION 0.7
FIELDS x y z rgb
SIZE 4 4 4 4
TYPE F F F U
COUNT 1 1 1 1
WIDTH 1127
HEIGHT 1
VIEWPOINT 0 0 0 1 0 0 0
POINTS 1127
DATA ascii
5.1106262 -0.48239613 -1.8309975 4288085770
5.2008057 -0.46832275 -1.8263197 4288085770
5.2919006 -0.45325518 -1.8196449 4288085770
5.4040527 -0.44014788 -1.8180637 4288085770
5.5211487 -0.42703438 -1.8165035 4288085770
5.6452637 -0.41391087 -1.8159733 4288085770
5.7694092 -0.40079737 -1.8124428 4288085770
5.8945007 -0.38768578 -1.8079166 4288085770
6.0246582 -0.3735733 -1.8024063 4288085770
5.0784912 -0.28948975 -1.8301058 4288085770
6.1467896 -0.35947895 -1.7938643 4288085770
5.200592 -0.27736425 -1.8305702 4288085770
6.303894 -0.34732342 -1.7924747 4288085770
5.2857361 -0.26332092 -1.8188725 4288085770
6.4710388 -0.33415699 -1.7911243 4288085770
5.4088745 -0.2522049 -1.8163433 4288085770
6.6291504 -0.32101488 -1.7857351 4288085770
5.5249939 -0.23910713 -1.8107786 4288085770
6.7952881 -0.30886602 -1.7793837 4288085770
5.6611328 -0.22797394 -1.8093042 4288085770
6.9754333 -0.29569864 -1.774087 4288085770
5.8012695 -0.21583891 -1.8068419 4288085770
7.1685486 -0.28251791 -1.7688446 4288085770
5.9463806 -0.20470381 -1.8034058 4288085770
7.3627014 -0.27034378 -1.7616091 4288085770
6.0805359 -0.19259739 -1.79492 4288085770
7.5748291 -0.25814629 -1.7554502 4288085770
6.2446289 -0.18143845 -1.7925625 4288085770
7.816925 -0.24590254 -1.7534151 4288085770
6.4247742 -0.17024994 -1.793272 4288085770
8.0440979 -0.23269892 -1.7443142 4288085770
6.5869141 -0.15911007 -1.7859058 4288085770
8.307251 -0.22144604 -1.7383718 4288085770
6.7610474 -0.14795589 -1.7785892 4288085770
8.5813904 -0.20918465 -1.7314701 4288085770
6.9561462 -0.1367712 -1.7743616 4288085770
8.8675232 -0.19691896 -1.7226191 4288085770
7.1772766 -0.12654495 -1.7732449 4288085770
9.205658 -0.18557501 -1.7199926 4288085770
7.3774109 -0.11537218 -1.7640371 4288085770
9.5467834 -0.17324543 -1.7123709 4288085770
7.5895691 -0.1041851 -1.75488 4288085770
9.9759216 -0.16279316 -1.7131262 4288085770
7.8377075 -0.09394455 -1.749876 4288085770
10.451996 -0.15228367 -1.7160778 4288085770
8.0728455 -0.083740234 -1.7388163 4288085770
10.798218 -0.13899851 -1.6944714 4288085770
8.3570251 -0.073461056 -1.7339621 4288085770
11.263397 -0.1265521 -1.6823692 4288085770
8.6441345 -0.063189507 -1.7261209 4288085770
11.712585 -0.11415243 -1.6621971 4288085770
8.9513245 -0.052903652 -1.716361 4288085770
12.118805 -0.10083532 -1.6308413 4288085770
9.3504028 -0.043478966 -1.7189932 4288085770
12.565063 -0.087483406 -1.5976505 4288085770
9.6905823 -0.033167362 -1.7063713 4288085770
13.08432 -0.075047016 -1.5667715 4288085770
10.192688 -0.024616241 -1.7134361 4288085770
13.682556 -0.062516689 -1.5382204 4288085770
10.588837 -0.015253067 -1.6990509 4288085770
14.378784 -0.050881386 -1.5100832 4288085770
11.013031 -0.0058655739 -1.6827831 4288085770
15.162048 -0.039163589 -1.47931 4288085770
11.516174 0.0036206245 -1.670845 4288085770
16.109253 -0.028255463 -1.4532261 4288085770
11.945435 0.011967182 -1.6415987 4288085770
17.190491 -0.017217159 -1.4236994 4288085770
12.37973 0.021304131 -1.6073685 4288085770
18.323761 -0.0051608086 -1.3833876 4288085770
12.895935 0.028728485 -1.577486 4288085770
19.559113 0.0059528351 -1.3325014 4288085770
13.500183 0.036261559 -1.5489769 4288085770
14.186401 0.042883873 -1.5208111 4288085770
14.981659 0.049627781 -1.4941006 4288085770
15.912872 0.055511951 -1.4669609 4288085770
16.948151 0.060488701 -1.4342585 4288085770
18.121429 0.063594341 -1.3971395 4288085770
19.28479 0.065642357 -1.3459768 4288085770
19.90686 1.4763708 -0.65235233 4293729569
19.007141 1.5452557 -0.59358025 4293729569
18.829285 1.6629353 -0.55446625 4293729569
18.776428 1.789752 -0.51781082 4293729569
18.828552 1.924675 -0.48253632 4293729569
18.900665 2.0636148 -0.44632721 4293729569
19.083771 2.213666 -0.40951443 4293729569
19.263916 2.3657093 -0.37068081 4293729569
19.435028 2.520731 -0.32980347 4293729569
19.652161 2.6827927 -0.28608227 4293729569
19.157928 0.15742874 -1.3411655 4288085770
18.015839 0.17949152 -1.3899021 4288085770
16.898804 0.19953251 -1.424737 4288085770
15.871765 0.21863842 -1.4529066 4288085770
15.018768 0.2379179 -1.4837112 4288085770
14.243805 0.25525379 -1.5088091 4288085770
13.546783 0.27265739 -1.5321941 4288085770
19.687622 0.41174889 -1.3061008 4288085770
12.959808 0.2901783 -1.558979 4288085770
18.463531 0.43073034 -1.3535557 4288085770
12.418823 0.30773592 -1.5839348 4288085770
17.393463 0.44984102 -1.3955736 4288085770
12.008789 0.32744312 -1.6163607 4288085770
16.36145 0.46494961 -1.425745 4288085770
11.574829 0.34510803 -1.6427059 4288085770
15.422455 0.48013449 -1.4522572 4288085770
11.151825 0.36276388 -1.6630945 4288085770
14.648468 0.49648523 -1.4813681 4288085770
10.719879 0.37838554 -1.675457 4288085770
13.938446 0.51188087 -1.5057163 4288085770
10.324951 0.39404297 -1.6879539 4288085770
13.336456 0.52938843 -1.5324516 4288085770
9.8450623 0.40556049 -1.6821566 4288085770
12.751526 0.54488897 -1.5522575 4288085770
9.4941406 0.42024708 -1.6908197 4288085770
12.233521 0.56045389 -1.5723085 4288085770
9.16922 0.43395662 -1.6985807 4288085770
11.877502 0.58121538 -1.6059313 4288085770
8.8722839 0.4486928 -1.7064419 4288085770
11.426575 0.59583378 -1.6222286 4288085770
8.5834045 0.46342945 -1.7123308 4288085770
11.054565 0.61354589 -1.644805 4288085770
8.3314819 0.47821474 -1.7223558 4288085770
10.669647 0.63022232 -1.6603384 4288085770
8.08255 0.49299049 -1.7283926 4288085770
10.288696 0.64388418 -1.6698971 4288085770
7.8416138 0.50677061 -1.7334623 4288085770
9.8757935 0.65448523 -1.670351 4288085770
7.6147156 0.52056122 -1.7375822 4288085770
9.5738525 0.67023373 -1.6831903 4288085770
7.3798218 0.53333044 -1.7376776 4288085770
9.2389832 0.68291712 -1.6859217 4288085770
7.1699524 0.54612875 -1.7388639 4288085770
8.9580383 0.6966691 -1.6938467 4288085770
6.98703 0.56096411 -1.7441416 4288085770
8.6701355 0.71040154 -1.6977453 4288085770
6.8101196 0.57480335 -1.7484455 4288085770
8.407196 0.72316027 -1.7027407 4288085770
6.6462097 0.58965731 -1.7537937 4288085770
8.1573181 0.7359252 -1.705781 4288085770
6.478302 0.60249901 -1.7561331 4288085770
7.931427 0.75072145 -1.7109032 4288085770
6.3233948 0.61635113 -1.7585182 4288085770
7.6875 0.76147509 -1.7089758 4288085770
6.1685181 0.63019896 -1.7589025 4288085770
7.5035706 0.77732038 -1.717247 4288085770
6.0455933 0.64609909 -1.7663965 4288085770
7.2967224 0.78911781 -1.7174492 4288085770
5.9077148 0.6589632 -1.7668457 4288085770
7.1237793 0.80396366 -1.722765 4288085770
5.7817993 0.67384481 -1.7693338 4288085770
6.9538574 0.81880713 -1.7260923 4288085770
5.6628723 0.68873644 -1.7728462 4288085770
6.7939453 0.8336587 -1.7294569 4288085770
5.5339966 0.70160151 -1.7713299 4288085770
6.6530457 0.84953785 -1.7358856 4288085770
5.4290771 0.71650887 -1.7758942 4288085770
6.5071411 0.86440372 -1.7393017 4288085770
5.3132324 0.72938919 -1.7744246 4288085770
6.3622742 0.8782649 -1.7407227 4288085770
5.2103271 0.74428558 -1.7749958 4288085770
6.2203674 0.89112091 -1.7401581 4288085770
5.1363831 0.76123905 -1.7846651 4288085770
6.1064453 0.90802288 -1.7456837 4288085770
5.063446 0.7791872 -1.7923365 4288085770
6.0005188 0.92493677 -1.7522373 4288085770
5.8856201 0.94082785 -1.7547626 4288085770
5.7737122 0.9557209 -1.7563009 4288085770
5.6738281 0.97163105 -1.759881 4288085770
5.579895 0.98854494 -1.7634792 4288085770
5.467041 1.0014215 -1.7600222 4288085770
5.3751221 1.0173311 -1.761631 4288085770
5.2872314 1.0332484 -1.7632551 4288085770
5.1983337 1.0491533 -1.7628736 4288085770
5.128418 1.0670972 -1.7675571 4288085770
5.0515137 1.084022 -1.7692175 4288085770
5.030426 3.3031998 -1.6874523 4288085770
5.1334839 3.3712835 -1.6865883 4288085770
5.2145691 3.4233236 -1.6776981 4288085770
5.3336487 3.4984264 -1.6778688 4288085770
5.4127502 3.547451 -1.6649799 4288085770
5.5637817 3.6385984 -1.6702099 4288085770
5.7268066 3.7357683 -1.678462 4288085770
5.9048157 3.8399515 -1.6867447 4288085770
6.0787964 3.9411163 -1.6910229 4288085770
6.2029114 4.008193 -1.6812334 4288085770
5.0444946 3.3661642 -1.69522 4288085770
6.368927 4.0993319 -1.6795149 4288085770
5.1625671 3.4272556 -1.6924295 4288085770
6.5060425 4.1714163 -1.6687536 4288085770
5.2636719 3.4773197 -1.6856155 4288085770
6.6690979 4.2565365 -1.6620436 4288085770
5.3727722 3.5293875 -1.6778212 4288085770
6.8441467 4.3476753 -1.6573544 4288085770
5.4729004 3.57444 -1.6670189 4288085770
7.0082397 4.4287853 -1.6466589 4288085770
5.6608887 3.6716413 -1.6783571 4288085770
7.1733398 4.5078859 -1.6339722 4288085770
5.8329163 3.7558069 -1.6836805 4288085770
7.4013367 4.6220913 -1.6343937 4288085770
5.9819641 3.8249235 -1.6799717 4288085770
7.6343689 4.7362871 -1.6308327 4288085770
6.1799927 3.9201231 -1.6873493 4288085770
7.8784485 4.8544884 -1.6262951 4288085770
6.3590393 4.0022793 -1.6877031 4288085770
8.1484375 4.9837217 -1.624814 4288085770
6.5281372 4.0744114 -1.6830521 4288085770
8.4284668 5.1159639 -1.6223574 4288085770
6.6882324 4.1395283 -1.6753922 4288085770
8.734436 5.2592344 -1.6219549 4288085770
6.860321 4.2086573 -1.6687613 4288085770
9.0404663 5.39849 -1.6165657 4288085770
7.0014343 4.2567282 -1.6530886 4288085770
9.3734436 5.5487785 -1.614234 4288085770
7.194519 4.33288 -1.6475077 4288085770
9.7194214 5.7030745 -1.6099339 4288085770
7.3965759 4.4110365 -1.6419497 4288085770
10.096436 5.8683977 -1.6057053 4288085770
7.6306152 4.5032396 -1.64046 4288085770
10.482422 6.0347261 -1.6005039 4288085770
7.830719 4.5743876 -1.631917 4288085770
10.900421 6.2130861 -1.5953751 4288085770
8.0467834 4.6505461 -1.6224146 4288085770
11.327393 6.3904457 -1.5882797 4288085770
8.3158569 4.7527847 -1.6220112 4288085770
11.788361 6.5798321 -1.5802631 4288085770
8.5848999 4.8500128 -1.6196241 4288085770
12.258362 6.768218 -1.5692806 4288085770
8.8699036 4.9512548 -1.6162786 4288085770
12.783325 6.9786644 -1.5614157 4288085770
9.1739502 5.060523 -1.614974 4288085770
13.245361 7.1490154 -1.5414591 4288085770
9.4700012 5.1597662 -1.6096706 4288085770
13.780334 7.3494482 -1.52666 4288085770
9.8100281 5.2760649 -1.6084661 4288085770
14.353363 7.5629063 -1.5089483 4288085770
10.147034 5.3863497 -1.60427 4288085770
14.911346 7.760335 -1.4862356 4288085770
10.463135 5.4815979 -1.5940475 4288085770
15.538361 7.9838362 -1.4666777 4288085770
10.816193 5.5908966 -1.5889072 4288085770
11.165253 5.6921759 -1.5797777 4288085770
11.531311 5.7964745 -1.5706968 4288085770
11.932343 5.9108057 -1.562705 4288085770
12.319397 6.013114 -1.5517006 4288085770
12.745453 6.1284637 -1.5427895 4288085770
13.193481 6.2478361 -1.5339403 4288085770
13.639587 6.3591976 -1.5231075 4288085770
14.101654 6.471571 -1.5113258 4288085770
14.551727 6.5689182 -1.4945498 4288085770
15.041809 6.6783133 -1.4818726 4288085770
15.544891 6.7867174 -1.4672403 4288085770
16.011993 6.871069 -1.4475613 4288085770
16.532104 6.9704781 -1.4300137 4288085770
17.00824 7.0438271 -1.4073963 4288085770
17.539337 7.1322374 -1.3879204 4288085770
18.140442 7.2377224 -1.3716297 4288085770
18.683533 7.3151331 -1.349225 4288085770
19.308655 7.4146357 -1.3320312 4282675967
19.882782 7.4880753 -1.3097448 4282675967
19.113251 3.1413097 -0.44498634 4293729569
19.03952 2.9912252 -0.44317913 4293729569
18.938812 2.8381224 -0.44228935 4293729569
18.857025 2.6910429 -0.44444752 4293729569
18.777283 2.5449705 -0.44760799 4293729569
18.74649 2.406949 -0.45290756 4293729569
18.766693 2.2759809 -0.46135998 4293729569
18.734924 2.1379671 -0.4696579 4293729569
18.718109 2.0029764 -0.48099518 4293729569
18.739319 1.873024 -0.49444675 4293729569
18.762512 1.7440796 -0.50889969 4293729569
18.871704 1.6212254 -0.52762604 4293729569
19.302795 1.5216942 -0.55736446 4293729569
19.868225 -1.2655792 -1.3473549 4288085770
19.41333 -1.3639188 -1.3721085 4288085770
18.987457 -1.4562316 -1.3969431 4288085770
18.527588 -1.5415854 -1.4186411 4288085770
18.127686 -1.6248755 -1.4435368 4288085770
17.6698 -1.6982293 -1.4642067 4288085770
17.210938 -1.7645926 -1.4818535 4288085770
16.703064 -1.8180137 -1.4952974 4288085770
16.203156 -1.868434 -1.5067606 4288085770
15.811279 -1.9237309 -1.526598 4288085770
15.329376 -1.9611397 -1.5360842 4288085770
14.9375 -2.0054464 -1.5528917 4288085770
14.535614 -2.043766 -1.567647 4288085770
14.173706 -2.0810494 -1.5835342 4288085770
13.839783 -2.119297 -1.602519 4288085770
13.520874 -2.1525345 -1.6205397 4288085770
19.422516 -3.1479228 -1.4242496 4288085770
13.221954 -2.187746 -1.6406317 4288085770
18.741547 -3.1494548 -1.4509592 4288085770
12.910034 -2.214983 -1.6566582 4288085770
18.07959 -3.1479719 -1.4767246 4288085770
12.590149 -2.2372322 -1.6706419 4288085770
17.406647 -3.1355109 -1.4984226 4288085770
12.292236 -2.2594557 -1.6867008 4288085770
16.827637 -3.1299601 -1.5224543 4288085770
12.071289 -2.291585 -1.7110462 4288085770
16.201691 -3.1104691 -1.5402889 4288085770
11.829346 -2.3177428 -1.7323046 4288085770
15.63974 -3.0939207 -1.5583458 4288085770
11.50647 -2.3230128 -1.7402277 4288085770
15.064758 -3.0693963 -1.5723372 4288085770
11.247528 -2.3382025 -1.7563982 4288085770
14.54483 -3.047816 -1.588521 4288085770
11.008636 -2.3533692 -1.773633 4288085770
14.072876 -3.0291924 -1.6048737 4288085770
10.690735 -2.3486471 -1.7775459 4288085770
13.655945 -3.0175068 -1.625433 4288085770
10.411835 -2.3488817 -1.7846041 4288085770
13.223969 -2.9978473 -1.6419191 4288085770
10.07196 -2.3312025 -1.7804041 4288085770
12.825012 -2.9801555 -1.6595211 4288085770
9.7050781 -2.3035688 -1.7700872 4288085770
12.447052 -2.9624469 -1.6761932 4288085770
9.4381714 -2.2948041 -1.77316 4288085770
12.084106 -2.9427271 -1.6919098 4288085770
9.215271 -2.2929807 -1.7823992 4288085770
11.769165 -2.9309535 -1.7118111 4288085770
8.9363708 -2.2742376 -1.7814026 4288085770
11.401215 -2.9022567 -1.7214861 4288085770
8.7444763 -2.2753787 -1.7937555 4288085770
11.050262 -2.8725419 -1.732214 4288085770
8.5235596 -2.266562 -1.7999821 4288085770
10.68335 -2.8348618 -1.736866 4288085770
8.3296509 -2.2617135 -1.8093119 4288085770
10.391388 -2.8120875 -1.749815 4288085770
8.1487122 -2.256846 -1.8206844 4288085770
10.074463 -2.7793577 -1.7556496 4288085770
7.9378052 -2.242033 -1.8229275 4288085770
9.786499 -2.7505896 -1.7655916 4288085770
7.7449036 -2.2291951 -1.8282366 4288085770
9.5275879 -2.7267888 -1.7776461 4288085770
7.5709839 -2.2203307 -1.8366213 4288085770
9.2366638 -2.6900449 -1.7805567 4288085770
7.4040833 -2.2104597 -1.8450251 4288085770
8.9867249 -2.6632452 -1.7896328 4288085770
7.2341614 -2.1985974 -1.8514137 4288085770
8.7478027 -2.6354356 -1.7987432 4288085770
7.037262 -2.1747847 -1.849679 4288085770
8.5248413 -2.6096091 -1.8089132 4288085770
6.8703308 -2.158927 -1.8540668 4288085770
8.3139343 -2.584774 -1.8181257 4288085770
6.7014465 -2.1400795 -1.8554392 4288085770
8.0930176 -2.5539584 -1.8242884 4288085770
6.5495605 -2.124207 -1.8598757 4288085770
7.8740845 -2.5221457 -1.828455 4288085770
6.4006653 -2.1073313 -1.8643217 4288085770
7.6731567 -2.4923115 -1.8346872 4288085770
6.2517395 -2.0894594 -1.8677645 4288085770
7.4862061 -2.4654627 -1.8419762 4288085770
6.0958557 -2.0666065 -1.8671684 4288085770
7.3092957 -2.4395995 -1.8502998 4288085770
5.941925 -2.0427551 -1.8655777 4288085770
7.1213684 -2.4077587 -1.8545704 4288085770
5.8100586 -2.0238671 -1.8690729 4288085770
6.9264526 -2.3719416 -1.8538065 4288085770
5.6811218 -2.0049801 -1.8715811 4288085770
6.7505798 -2.3390956 -1.8561144 4288085770
5.5572205 -1.9870863 -1.8751078 4288085770
6.581665 -2.307241 -1.8594484 4288085770
5.4253235 -1.9632111 -1.8745899 4288085770
6.4057312 -2.271409 -1.857748 4288085770
5.2984009 -1.9403286 -1.8750916 4288085770
6.2587891 -2.2435293 -1.8631678 4288085770
5.180542 -1.9194379 -1.8756294 4288085770
6.1208496 -2.2166409 -1.8686199 4288085770
5.0516357 -1.8925691 -1.8721132 4288085770
5.9639587 -2.1817875 -1.8679857 4288085770
5.8150635 -2.1479287 -1.867382 4288085770
5.6931458 -2.1230235 -1.8738947 4288085770
5.5602417 -2.091146 -1.8743496 4288085770
5.4403076 -2.0632472 -1.8778601 4288085770
5.3164062 -2.033361 -1.8783512 4288085770
5.1925049 -2.0004807 -1.8778343 4288085770
5.0656128 -1.9666119 -1.8733034 4288085770
5.0576782 0.14126396 -1.8105898 4288085770
5.1448364 0.15329504 -1.7998123 4288085770
5.2399292 0.16434288 -1.7920637 4288085770
5.3890381 0.176476 -1.7974777 4288085770
5.5041504 0.18854666 -1.7917871 4288085770
5.6143188 0.19960403 -1.7830839 4288085770
5.7593994 0.21071434 -1.7824888 4288085770
5.9035339 0.22281837 -1.7798862 4288085770
5.0475159 0.22418261 -1.80723 4288085770
6.0456848 0.23391294 -1.7742786 4288085770
5.1586609 0.23425293 -1.8025322 4288085770
6.2047729 0.24502516 -1.7707262 4288085770
5.2717896 0.24231863 -1.7958469 4288085770
6.3789062 0.2561574 -1.7692175 4288085770
5.4158936 0.25243807 -1.7982502 4288085770
6.5580444 0.268291 -1.7667208 4288085770
5.5450134 0.26052284 -1.7936125 4288085770
6.7251892 0.27839518 -1.758193 4288085770
5.6751709 0.26960564 -1.7879753 4288085770
6.9172974 0.28953028 -1.752739 4288085770
5.8193054 0.27770376 -1.7833843 4288085770
7.1304321 0.3006916 -1.7503481 4288085770
5.9734192 0.28581572 -1.7808228 4288085770
7.3525696 0.3118577 -1.7469854 4288085770
6.1275635 0.29391861 -1.7752609 4288085770
7.5787048 0.3230176 -1.740634 4288085770
6.2946777 0.30203772 -1.77174 4288085770
7.8298035 0.3342042 -1.7363605 4288085770
6.4827576 0.30918121 -1.7702847 4288085770
8.0929565 0.34440184 -1.7321234 4288085770
6.6679077 0.31731319 -1.7658167 4288085770
8.3531189 0.35458088 -1.7228775 4288085770
6.8440552 0.32342196 -1.7563276 4288085770
8.6262512 0.36376762 -1.7126732 4288085770
7.0761719 0.33061504 -1.7590065 4288085770
8.9203796 0.37397194 -1.7025299 4288085770
7.267334 0.33673286 -1.7485609 4288085770
9.2745056 0.38424826 -1.6995707 4288085770
7.5104675 0.34291887 -1.746274 4288085770
9.6106567 0.39348078 -1.6875582 4288085770
7.7545776 0.34909678 -1.7409906 4288085770
10.007782 0.40378189 -1.6817284 4288085770
8.0047302 0.35427523 -1.7347269 4288085770
10.465912 0.41514635 -1.6800804 4288085770
8.2768555 0.35847378 -1.7285337 4288085770
10.895081 0.42445135 -1.6663494 4288085770
8.5430603 0.36265135 -1.7173204 4288085770
11.328278 0.43174744 -1.648634 4288085770
8.8541565 0.36587811 -1.710248 4288085770
11.784454 0.43805265 -1.6279917 4288085770
9.1813049 0.36911821 -1.7032242 4288085770
12.160675 0.44023848 -1.5901165 4288085770
9.5304565 0.37137318 -1.6952696 4288085770
12.690857 0.44559717 -1.5667009 4288085770
9.9266052 0.37467623 -1.6904535 4288085770
13.256042 0.44997215 -1.5393934 4288085770
10.391724 0.3770504 -1.6898499 4288085770
13.907257 0.45441818 -1.5123472 4288085770
10.809906 0.37634373 -1.6761103 4288085770
14.693481 0.45999479 -1.4917078 4288085770
11.228088 0.37462616 -1.6583729 4288085770
15.469696 0.46152353 -1.458046 4288085770
11.700287 0.37095308 -1.6408052 4288085770
16.450897 0.46624136 -1.4309998 4288085770
12.082458 0.36315393 -1.6059761 4288085770
17.509094 0.46800756 -1.3991957 4288085770
12.56369 0.35646105 -1.579442 4288085770
18.679352 0.46884489 -1.3607311 4288085770
13.133911 0.34784698 -1.5551825 4288085770
19.907654 0.46368265 -1.3064566 4288085770
13.75412 0.33826923 -1.5290785 4288085770
14.479309 0.32678461 -1.5052967 4288085770
15.223541 0.31229782 -1.4755802 4288085770
16.138763 0.29696369 -1.4503832 4288085770
17.153992 0.27669811 -1.4205036 4288085770
18.259277 0.25248766 -1.3849049 4288085770
19.429535 0.22229862 -1.3385201 4288085770
17.686188 -7.8075395 -1.2841148 4293729569
17.278046 -7.499815 -1.3000679 4293729569
16.868896 -7.1981034 -1.3120356 4293729569
16.51178 -6.9223509 -1.3242254 4293729569
16.163635 -6.6555996 -1.3334665 4293729569
15.881561 -6.4187913 -1.3449774 4293729569
15.614471 -6.1919785 -1.3545599 4293729569
15.389404 -5.9871292 -1.3653212 4293729569
15.148346 -5.7773061 -1.371027 4293729569
14.983307 -5.5984101 -1.3820324 4293729569
14.85025 -5.436491 -1.3931751 4293729569
14.71225 -5.2725797 -1.402297 4293729569
16.707611 -5.846982 -0.73243237 4293729569
14.569214 -5.1086812 -1.4084082 4293729569
16.702576 -5.7159367 -0.75401592 4293729569
14.454193 -4.9567595 -1.4156303 4293729569
16.76355 -5.6098337 -0.77785206 4293729569
14.358185 -4.8138266 -1.4209328 4293729569
14.410187 -4.7207432 -1.4407835 4293729569
14.769165 -4.7223473 -1.4887533 4293729569
15.233185 -4.7548466 -1.5460978 4288085770
15.427155 -4.695632 -1.5744381 4288085770
15.326172 -4.5477209 -1.5737104 4288085770
15.297211 -4.4217405 -1.5782452 4288085770
15.243195 -4.2887926 -1.5786924 4288085770
15.244232 -4.172792 -1.5823374 4288085770
15.20224 -4.0438404 -1.5808296 4288085770
15.173279 -3.9208794 -1.5783739 4288085770
15.251343 -3.8248096 -1.5862875 4288085770
15.281342 -3.7167959 -1.587038 4288085770
15.251404 -3.5938482 -1.5805788 4288085770
15.298431 -3.4888282 -1.5793839 4288085770
15.380493 -3.3927722 -1.5813093 4288085770
15.419525 -3.284766 -1.5770836 4288085770
15.470581 -3.1807528 -1.5729027 4288085770
15.508667 -3.0727556 -1.5656738 4288085770
15.5867 -2.972723 -1.5605783 4288085770
15.693787 -2.8786621 -1.5575771 4288085770
15.779816 -2.7786298 -1.5505037 4288085770
15.884888 -2.6815825 -1.5434885 4288085770
16.052948 -2.5924773 -1.5406694 4288085770
16.160065 -2.4934363 -1.530654 4288085770
16.329132 -2.4023385 -1.5248308 4288085770
16.519196 -2.3102274 -1.5180616 4288085770
16.702271 -2.2151279 -1.5092659 4288085770
16.956299 -2.1269636 -1.5046797 4288085770
17.222382 -2.0387926 -1.4991283 4288085770
17.461487 -1.9446564 -1.4884844 4288085770
17.69455 -1.845531 -1.4758101 4288085770
17.937622 -1.7454038 -1.4611597 4288085770
18.207733 -1.6472559 -1.4465885 4288085770
18.478821 -1.5431166 -1.4290018 4288085770
18.806915 -1.4409313 -1.4125748 4288085770
19.097015 -1.3327866 -1.3920279 4288085770
19.458099 -1.2265849 -1.3726778 4288085770
19.788208 -1.1134238 -1.3472233 4288085770
19.797089 0.32030535 -1.3110352 4288085770
18.676056 0.37565851 -1.3522005 4288085770
17.663086 0.42606974 -1.3876352 4288085770
16.759064 0.47254086 -1.4183435 4288085770
15.886108 0.51501369 -1.4411383 4288085770
15.151154 0.55558205 -1.4662666 4288085770
14.509186 0.59420872 -1.4896231 4288085770
13.975189 0.63291693 -1.5172377 4288085770
13.417267 0.66758728 -1.5358067 4288085770
19.338715 0.99086523 -1.298007 4288085770
12.872345 0.69925356 -1.5494146 4288085770
18.332703 1.0232854 -1.3345156 4288085770
12.392426 0.73096514 -1.5641794 4288085770
17.488739 1.0588126 -1.3714027 4288085770
11.986481 0.76473665 -1.5831146 4288085770
16.671783 1.0883398 -1.4003696 4288085770
11.588531 0.79450369 -1.5980806 4288085770
15.90683 1.1158853 -1.4234676 4288085770
11.266602 0.82733202 -1.617219 4288085770
15.282837 1.1455317 -1.4498959 4288085770
10.95163 0.8591609 -1.6353779 4288085770
14.668884 1.1721725 -1.4713573 4288085770
10.656708 0.88999653 -1.6505861 4288085770
14.124969 1.2008619 -1.492979 4288085770
10.327789 0.91579008 -1.6577301 4288085770
13.531036 1.2194843 -1.5015106 4288085770
9.9968872 0.93856955 -1.6598759 4288085770
13.085083 1.2462277 -1.5203733 4288085770
9.7419739 0.96542025 -1.6711922 4288085770
12.636169 1.269958 -1.5332346 4288085770
9.4750671 0.99025202 -1.6774864 4288085770
12.217255 1.2927051 -1.5461731 4288085770
9.2141724 1.0130816 -1.6807995 4288085770
11.877319 1.3205147 -1.5622854 4288085770
8.9822388 1.0369372 -1.6871796 4288085770
11.540375 1.3463211 -1.5764112 4288085770
8.728363 1.0567579 -1.6855183 4288085770
11.274414 1.3781891 -1.5966892 4288085770
8.523468 1.0816264 -1.6909618 4288085770
10.987518 1.4040232 -1.6089325 4288085770
8.33255 1.1055093 -1.6974401 4288085770
10.671631 1.4258251 -1.6161194 4288085770
8.153656 1.1303988 -1.7029428 4288085770
10.378693 1.4466352 -1.6213646 4288085770
7.9667358 1.1522717 -1.7044373 4288085770
10.122772 1.4704838 -1.6296883 4288085770
7.7878418 1.1731486 -1.7059546 4288085770
9.8438721 1.4882956 -1.6319752 4288085770
7.6029663 1.1920123 -1.7034607 4288085770
9.6269531 1.5131655 -1.6403904 4288085770
7.4320679 1.2118897 -1.7019987 4288085770
9.387085 1.5330057 -1.6417646 4288085770
7.2781982 1.2327819 -1.7025738 4288085770
9.2061768 1.5599022 -1.6512604 4288085770
7.1412964 1.2556906 -1.7051849 4288085770
8.9952698 1.58076 -1.6536999 4288085770
6.9963989 1.2755866 -1.7047844 4288085770
8.8023376 1.6026335 -1.6571827 4288085770
6.8745117 1.2975063 -1.7074337 4288085770
8.62146 1.6245184 -1.6606913 4288085770
6.7695923 1.3234425 -1.7131138 4288085770
8.4705505 1.6514301 -1.6682587 4288085770
6.6596985 1.3463688 -1.7147884 4288085770
8.3076477 1.6743212 -1.6708078 4288085770
6.5567932 1.3713017 -1.7184763 4288085770
8.1737061 1.7002411 -1.6764193 4288085770
6.4468994 1.3922195 -1.7181578 4288085770
8.0328369 1.7251453 -1.6800165 4288085770
6.3510132 1.416153 -1.7198629 4288085770
7.881958 1.7460394 -1.6795998 4288085770
6.2521057 1.4380836 -1.7205687 4288085770
7.7540283 1.7709551 -1.682229 4288085770
6.1701965 1.4630289 -1.7233057 4288085770
7.6271667 1.7938671 -1.6838646 4288085770
6.0873413 1.4869709 -1.7250433 4288085770
7.4972839 1.815773 -1.6834965 4288085770
6.0163879 1.5139275 -1.7298012 4288085770
7.3693848 1.837678 -1.6821337 4288085770
5.9604797 1.5438986 -1.7365875 4288085770
7.2614746 1.8626013 -1.6828108 4288085770
5.8806152 1.5658407 -1.7363386 4288085770
7.1695862 1.8895388 -1.6855183 4288085770
5.8086853 1.5907869 -1.7371006 4288085770
7.0606995 1.9124584 -1.6841974 4288085770
5.7478333 1.6177464 -1.7398825 4288085770
6.9737854 1.9403963 -1.6859169 4288085770
5.6879272 1.6447048 -1.7416677 4288085770
6.8838806 1.9653311 -1.6866369 4288085770
5.6240234 1.6686554 -1.7424498 4288085770
6.8150024 1.9952888 -1.6903915 4288085770
5.5571289 1.6925974 -1.7402267 4288085770
6.7290955 2.0212202 -1.6891184 4288085770
5.4972534 1.7175474 -1.7390175 4288085770
6.6681824 2.0531816 -1.6928873 4288085770
5.4403381 1.7425041 -1.7388163 4288085770
6.6002808 2.0821323 -1.6936493 4288085770
5.3774414 1.7654457 -1.7356052 4288085770
6.5383911 2.1130896 -1.6954193 4288085770
5.3235779 1.791398 -1.7334061 4288085770
6.4735107 2.1420374 -1.6951876 4288085770
5.285675 1.8213711 -1.7362375 4288085770
6.4146118 2.1719894 -1.6949682 4288085770
5.2297668 1.8443174 -1.7320433 4288085770
6.3637085 2.2039509 -1.6967621 4288085770
5.1878967 1.872283 -1.7318687 4288085770
6.2998047 2.2318964 -1.6935368 4288085770
5.1440125 1.8992405 -1.7296925 4288085770
6.2549133 2.2648602 -1.6943417 4288085770
5.1210938 1.9322252 -1.7335501 4288085770
6.197998 2.293808 -1.6911316 4288085770
5.0832214 1.9611921 -1.7323837 4288085770
6.1551208 2.3277702 -1.6909389 4288085770
5.0623169 1.9951773 -1.7352438 4288085770
6.1252441 2.364748 -1.6927691 4288085770
5.0244141 2.023138 -1.733079 4288085770
6.0933228 2.401721 -1.6935959 4288085770
6.0534363 2.4336815 -1.6914167 4288085770
6.0274963 2.4716587 -1.692255 4288085770
6.0055847 2.5116377 -1.6930981 4288085770
5.9687195 2.5445957 -1.6889229 4288085770
5.9498291 2.5855751 -1.6887693 4288085770
5.9458923 2.6315699 -1.6916399 4288085770
5.9070435 2.6625195 -1.6844645 4288085770
5.8861389 2.7014914 -1.6813135 4288085770
5.8772278 2.7454729 -1.6801767 4288085770
5.8493347 2.7794304 -1.6730213 4288085770
5.8374329 2.8214054 -1.6698837 4288085770
5.8185425 2.8593693 -1.6637383 4288085770
5.8156433 2.9033527 -1.6606169 4288085770
5.7958069 2.9403105 -1.6524715 4288085770
5.8128662 2.9943132 -1.6523714 4288085770
5.8259583 3.0473108 -1.6512623 4288085770
5.842041 3.1003094 -1.6501608 4288085770
5.8631592 3.1573124 -1.6490612 4288085770
5.9012146 3.2223349 -1.6519823 4288085770
5.9393311 3.2873526 -1.6529007 4288085770
5.9913635 3.3603868 -1.6568336 4288085770
6.0734253 3.4504557 -1.666791 4288085770
6.115509 3.5184727 -1.6657124 4288085770
6.180542 3.5995131 -1.6696548 4288085770
6.2406311 3.6785431 -1.669589 4288085770
6.3006897 3.7565737 -1.6695271 4288085770
5.0111389 3.1147671 -1.6761751 4288085770
6.4017639 3.8596487 -1.6774969 4288085770
5.0562439 3.1767864 -1.6751204 4288085770
6.4738159 3.9456835 -1.6774416 4288085770
5.1213074 3.2508316 -1.6800785 4288085770
6.5328979 4.0236998 -1.6723776 4288085770
5.1783752 3.3198624 -1.6810341 4288085770
6.6099854 4.1117353 -1.6703291 4288085770
5.2084961 3.37185 -1.6719685 4288085770
6.6580811 4.1827297 -1.6592579 4288085770
5.2845459 3.4519033 -1.676939 4288085770
6.7151794 4.2587328 -1.6491938 4288085770
5.3706055 3.5379648 -1.6829157 4288085770
6.7972412 4.3487644 -1.6441517 4288085770
5.3877258 3.5799246 -1.6658468 4288085770
6.8952942 4.4498062 -1.6401205 4288085770
5.4478455 3.648942 -1.6608076 4288085770
6.9734192 4.5388212 -1.6300716 4288085770
5.5448914 3.7420034 -1.664793 4288085770
7.0864563 4.6478748 -1.6260529 4288085770
5.7038574 3.8751497 -1.6858215 4288085770
7.2195129 4.7689457 -1.6240511 4288085770
5.7759705 3.9501677 -1.6787949 4288085770
7.370575 4.9030304 -1.6230555 4288085770
5.8870544 4.0512323 -1.6807909 4288085770
7.5296021 5.0421171 -1.6220684 4288085770
5.9770813 4.13727 -1.6757793 4288085770
7.6986389 5.1862116 -1.6200895 4288085770
6.0871582 4.2353258 -1.6747818 4288085770
7.8896484 5.3443251 -1.6211281 4288085770
6.163269 4.3103371 -1.6627645 4288085770
8.0836792 5.5044317 -1.6191673 4288085770
6.2803345 4.4113932 -1.6587753 4288085770
8.2967224 5.6765528 -1.617218 4288085770
6.3994141 4.5134497 -1.654788 4288085770
8.5207214 5.8546772 -1.6152802 4288085770
6.5215149 4.6164999 -1.6478052 4288085770
8.7717285 6.0518217 -1.6133566 4288085770
6.6116028 4.695509 -1.6318092 4288085770
9.0427246 6.2609816 -1.6124477 4288085770
6.8006592 4.8426323 -1.6368685 4288085770
9.3427124 6.4881601 -1.6125603 4288085770
6.9526978 4.9617043 -1.6319141 4288085770
9.6826782 6.7413664 -1.6147003 4288085770
7.1287537 5.0968008 -1.628974 4288085770
10.074585 7.0296173 -1.6208706 4288085770
7.3307495 5.2479191 -1.6290541 4288085770
10.547485 7.3719358 -1.6330891 4288085770
7.5368042 5.400033 -1.6271391 4288085770
11.023376 7.7142439 -1.6413155 4288085770
7.7698059 5.569171 -1.627244 4288085770
11.353394 7.9543886 -1.6214638 4288085770
8.0098267 5.7403069 -1.6253595 4288085770
8.2668457 5.9224548 -1.624485 4288085770
8.5528564 6.1216249 -1.6236343 4288085770
8.8508301 6.3267946 -1.6217966 4288085770
9.1818237 6.5519924 -1.6219826 4288085770
9.560791 6.8072271 -1.6252031 4288085770
9.9457397 7.0634575 -1.6254339 4288085770
10.496613 7.4308367 -1.6447649 4288085770
10.982544 7.7481394 -1.6490726 4288085770
11.354553 7.9823179 -1.6313267 4288085770
19.299164 -0.64788294 -1.3500633 4288085770
18.570282 -0.72524166 -1.3836861 4288085770
17.856415 -0.79260206 -1.4133167 4288085770
17.158478 -0.85295868 -1.4399691 4288085770
16.466583 -0.90532684 -1.4596167 4288085770
15.834717 -0.95265627 -1.4813776 4288085770
15.204803 -0.99399662 -1.4971333 4288085770
14.67688 -1.0352645 -1.5191021 4288085770
14.177002 -1.071517 -1.5401182 4288085770
13.7211 -1.1067429 -1.5622272 4288085770
19.789917 -1.6426964 -1.3591185 4288085770
13.340179 -1.1439104 -1.5894957 4288085770
18.958954 -1.6670904 -1.4024115 4288085770
12.960297 -1.1760883 -1.6127577 4288085770
18.123993 -1.6815066 -1.4366751 4288085770
12.602356 -1.2062502 -1.6370611 4288085770
17.346069 -1.6918969 -1.4690523 4288085770
12.30545 -1.2383647 -1.6664963 4288085770
16.532135 -1.69033 -1.4903278 4288085770
12.047485 -1.2694526 -1.6980124 4288085770
15.792206 -1.6887197 -1.5117588 4288085770
11.740601 -1.2925882 -1.7204075 4288085770
15.121307 -1.6860743 -1.531333 4288085770
11.41571 -1.3107471 -1.7377558 4288085770
14.509369 -1.6833906 -1.5520325 4288085770
11.123779 -1.3288765 -1.7591715 4282675967
13.98645 -1.6846495 -1.5759258 4288085770
10.849884 -1.3460007 -1.7786236 4282675967
13.543518 -1.6908503 -1.6039972 4288085770
10.662933 -1.3710461 -1.810277 4282675967
13.143555 -1.6990237 -1.6341667 4288085770
10.151093 -1.3504033 -1.7871494 4282675967
12.741638 -1.7022061 -1.6603193 4288085770
9.5612793 -1.3138542 -1.7428265 4288085770
12.395721 -1.7083483 -1.6895952 4288085770
9.3123779 -1.3209767 -1.7563114 4288085770
12.064758 -1.7144856 -1.7179041 4288085770
9.0404968 -1.3221278 -1.7627344 4288085770
11.68985 -1.7086668 -1.7370958 4288085770
8.7906189 -1.3222628 -1.7702026 4288085770
11.300934 -1.6978736 -1.7492476 4288085770
8.5257263 -1.3184223 -1.7716303 4288085770
10.993988 -1.6950126 -1.7705889 4288085770
8.2968445 -1.3175449 -1.7791405 4288085770
10.708069 -1.6931329 -1.7939749 4282675967
8.059967 -1.3126822 -1.7826252 4288085770
10.463135 -1.6952252 -1.8194561 4282675967
7.8580322 -1.3107891 -1.7911911 4288085770
9.774353 -1.6197515 -1.7658434 4288085770
7.6291809 -1.3029304 -1.7906866 4288085770
9.3854675 -1.5910015 -1.7579594 4288085770
7.4392395 -1.3000312 -1.7982759 4288085770
9.0885315 -1.5731707 -1.7632923 4288085770
7.2493591 -1.294138 -1.8028574 4288085770
8.8146667 -1.5573211 -1.7696743 4288085770
7.0964661 -1.2932076 -1.8145275 4288085770
8.5897217 -1.54743 -1.7831745 4288085770
6.9205627 -1.2863064 -1.8191357 4288085770
8.3278503 -1.5285802 -1.7865782 4288085770
6.7336731 -1.2764206 -1.8197165 4288085770
8.0869446 -1.5117149 -1.7920303 4288085770
6.5737915 -1.2685108 -1.824358 4288085770
7.8850098 -1.4998183 -1.8015738 4288085770
6.414917 -1.2606015 -1.828001 4288085770
7.6711121 -1.4829359 -1.8070822 4288085770
6.2470093 -1.2487073 -1.8276176 4288085770
7.4392395 -1.4610791 -1.8065424 4288085770
6.1030884 -1.2397876 -1.8322906 4288085770
7.2443848 -1.4451857 -1.8120918 4288085770
5.9682312 -1.2318597 -1.8379841 4288085770
7.0684509 -1.4302778 -1.819685 4288085770
5.813324 -1.2179608 -1.8356247 4288085770
6.8565674 -1.4074154 -1.816186 4288085770
5.6874695 -1.2090306 -1.8403349 4288085770
6.6826477 -1.3905125 -1.8207798 4288085770
5.5645752 -1.200098 -1.8450527 4288085770
6.5167542 -1.3726072 -1.8243876 4288085770
5.4386902 -1.1881747 -1.846756 4288085770
6.3648682 -1.3576894 -1.8300295 4288085770
5.3197937 -1.1772447 -1.8494778 4288085770
6.2080078 -1.3397813 -1.8326559 4288085770
5.2019043 -1.1653156 -1.8512001 4288085770
6.0420837 -1.3178906 -1.8302565 4288085770
5.0829773 -1.151392 -1.850915 4288085770
5.913208 -1.3029561 -1.8369484 4288085770
5.7742615 -1.285038 -1.839613 4288085770
5.6364136 -1.2661252 -1.8392773 4288085770
5.5205078 -1.2511845 -1.8459969 4288085770
5.4016113 -1.2342539 -1.8487053 4288085770
5.2797241 -1.2153296 -1.8494043 4288085770
5.1468201 -1.1934223 -1.8450737 4288085770
5.0519104 -1.1784697 -1.8518381 4288085770
5.086792 0.71641445 -1.7846956 4288085770
5.1849365 0.72744083 -1.7768488 4288085770
5.2920532 0.73947763 -1.771018 4288085770
5.4141846 0.75252724 -1.7682133 4288085770
5.5253296 0.7625618 -1.7603922 4288085770
5.6764221 0.77863693 -1.7626352 4288085770
5.8215637 0.79170465 -1.7618723 4288085770
5.028595 0.72033882 -1.7885237 4288085770
5.9307251 0.80072594 -1.7490492 4288085770
5.1267395 0.72736835 -1.7816858 4288085770
6.0848083 0.81379366 -1.7463026 4288085770
5.2418823 0.73541069 -1.7768784 4288085770
6.2339478 0.82485056 -1.7405519 4288085770
5.3589783 0.74345398 -1.7720718 4288085770
6.4100647 0.83893299 -1.7398424 4288085770
5.4781189 0.75049496 -1.7662735 4288085770
6.577179 0.85100079 -1.7341223 4288085770
5.6142273 0.75955677 -1.765501 4288085770
6.7583008 0.86307669 -1.7294273 4288085770
5.7623596 0.76862621 -1.7657518 4288085770
6.9194641 0.87213039 -1.7186995 4288085770
5.8994751 0.77567863 -1.759984 4288085770
7.114563 0.88421154 -1.7130299 4288085770
6.0256348 0.77971554 -1.7502041 4288085770
7.3356934 0.89731407 -1.7114058 4288085770
6.1847229 0.78678465 -1.7474775 4288085770
7.573822 0.91142654 -1.7098112 4288085770
6.3528748 0.7938571 -1.7447672 4288085770
7.8419189 0.92756271 -1.7122679 4288085770
6.5389709 0.80194473 -1.7440882 4288085770
8.1020203 0.94068003 -1.707716 4288085770
6.7141113 0.8070178 -1.7393961 4288085770
8.3601685 0.95179176 -1.7011633 4288085770
6.8722534 0.81006908 -1.7286749 4288085770
8.6103516 0.95988894 -1.6896 4288085770
7.0663757 0.81415129 -1.7240181 4288085770
8.9154358 0.97303104 -1.6861305 4288085770
7.2735291 0.81924438 -1.7203827 4288085770
9.2235718 0.98416567 -1.678668 4288085770
7.4816284 0.82232857 -1.7137537 4288085770
9.574707 0.99633169 -1.6742849 4288085770
7.7417603 0.82946301 -1.7172117 4288085770
9.8788757 1.0024443 -1.6578245 4288085770
7.9938965 0.83357906 -1.7146616 4288085770
10.201996 1.0075688 -1.6414022 4288085770
8.2280273 0.83467436 -1.7060833 4288085770
10.637115 1.0207753 -1.6361685 4288085770
8.4871521 0.83478403 -1.6985521 4288085770
11.055267 1.0289555 -1.6239138 4288085770
8.7673035 0.83590841 -1.6930571 4288085770
11.408447 1.0290761 -1.5985537 4288085770
9.0794067 0.83705091 -1.6886215 4288085770
11.798615 1.0292182 -1.5742617 4288085770
9.3885803 0.83518934 -1.6821852 4288085770
12.246796 1.0303922 -1.5510721 4288085770
9.6976929 0.83131504 -1.6707535 4288085770
12.776947 1.0346179 -1.5330296 4288085770
10.045868 0.82646704 -1.6613941 4288085770
13.349091 1.0378613 -1.5130644 4288085770
10.421997 0.82163334 -1.6530867 4288085770
14.039246 1.0441771 -1.498311 4288085770
10.815155 0.8158083 -1.6438103 4288085770
14.718414 1.0454707 -1.4755449 4288085770
11.187317 0.80395508 -1.6265068 4288085770
15.382568 1.0397339 -1.4427643 4288085770
11.549469 0.78908491 -1.6041908 4288085770
16.170776 1.0370693 -1.4142036 4288085770
11.95163 0.77223825 -1.5829525 4288085770
17.108948 1.0354834 -1.3859158 4288085770
12.381836 0.75440168 -1.5597649 4288085770
18.052155 1.0268831 -1.3496494 4288085770
12.909973 0.7376318 -1.5447569 4288085770
19.056335 1.0132966 -1.3055038 4288085770
13.469147 0.71787453 -1.5278091 4288085770
14.075317 0.69413662 -1.508955 4288085770
14.646484 0.66536045 -1.4810448 4288085770
15.353668 0.63466644 -1.4583883 4288085770
16.155853 0.60102367 -1.4369087 4288085770
17.04007 0.56341696 -1.4135866 4288085770
17.940247 0.51680183 -1.3823109 4288085770
18.866486 0.46318674 -1.3450937 4288085770
19.874695 0.40260458 -1.3030376 4288085770
11.815277 -7.9026103 -1.4565783 4293729569
11.451233 -7.6067638 -1.4703894 4293729569
9.8129883 -6.4229488 -0.71643162 4293729569
11.109192 -7.3289099 -1.4822731 4293729569
9.7789917 -6.3498912 -0.76021385 4293729569
10.618164 -6.9521713 -1.4697227 4293729569
10.262146 -6.667345 -1.4705753 4293729569
10.188141 -6.5633225 -1.5062323 4293729569
10.04718 -6.4173541 -1.5297003 4293729569
9.8461914 -6.2314291 -1.5439959 4293729569
9.6352234 -6.0405226 -1.5512667 4293729569
9.4692383 -5.8785863 -1.5636673 4293729569
9.1781006 -5.5797915 -0.99461555 4293729569
9.2502441 -5.6836944 -1.5649195 4293729569
9.1541138 -5.5057516 -1.0264149 4293729569
7.9812622 -4.8566208 -1.3872662 4293729569
9.1141357 -5.4197235 -1.0561676 4293729569
7.9373169 -4.7766109 -1.4080238 4293729569
9.2141724 -5.415606 -1.0993023 4293729569
7.9663696 -4.7395463 -1.4409838 4293729569
10.300323 -5.9808168 -1.2591152 4293729569
8.0354309 -4.72545 -1.4800501 4293729569
11.798431 -6.7617388 -1.4740028 4293729569
8.490448 -4.9300489 -1.5881586 4293729569
9.6583557 -5.4721603 -1.2440701 4293729569
8.4825134 -4.8650169 -1.6120024 4293729569
9.6303711 -5.3871346 -1.2698421 4293729569
8.4065857 -4.7600431 -1.6216621 4293729569
8.3436584 -4.6620622 -1.6323576 4293729569
8.2766724 -4.5630846 -1.642045 4293729569
10.725555 -5.7562447 -1.4942474 4293729569
8.2577209 -4.4890738 -1.6578569 4293729569
9.5695496 -5.0660305 -1.3610563 4293729569
8.3748169 -4.4879508 -1.7000256 4293729569
10.574646 -5.5152817 -1.5225058 4293729569
8.5208435 -4.5008087 -1.7462692 4293729569
10.641693 -5.469202 -1.5545063 4293729569
8.6868896 -4.519649 -1.7965536 4288085770
10.567719 -5.3492279 -1.5641394 4293729569
8.7879639 -4.5035458 -1.8326674 4288085770
10.481781 -5.2252655 -1.5707474 4293729569
8.7110596 -4.3955917 -1.8323221 4288085770
10.421844 -5.1142874 -1.5794201 4293729569
8.6121216 -4.2786598 -1.8249254 4288085770
10.337891 -4.9933286 -1.5830374 4293729569
8.5901794 -4.1976652 -1.8327208 4288085770
10.28595 -4.8873496 -1.5897341 4293729569
8.53125 -4.1007071 -1.8304272 4288085770
10.235016 -4.7823749 -1.5944357 4293729569
8.4953613 -4.01473 -1.8321905 4288085770
10.150085 -4.662425 -1.5930548 4293729569
8.4474182 -3.9247642 -1.8309288 4288085770
10.171143 -4.592401 -1.6069384 4293729569
8.4055176 -3.8367968 -1.82868 4288085770
10.323212 -4.5772839 -1.6391335 4293729569
8.3916016 -3.7628059 -1.8325024 4288085770
10.54129 -4.5911198 -1.6794882 4293729569
8.383667 -3.6908157 -1.8343382 4288085770
10.789337 -4.6129346 -1.724906 4288085770
8.369751 -3.6168301 -1.8351612 4288085770
10.948364 -4.5938187 -1.7551041 4288085770
8.3738403 -3.5498314 -1.8390265 4288085770
10.900482 -4.4868574 -1.7508068 4288085770
8.3989563 -3.4928188 -1.844943 4288085770
10.87854 -4.3918819 -1.7495756 4288085770
8.3980103 -3.4238296 -1.8447971 4288085770
10.856628 -4.2979035 -1.7483444 4288085770
8.394104 -3.3548431 -1.843647 4288085770
10.852722 -4.2119193 -1.747159 4288085770
8.3931885 -3.2858579 -1.8415012 4288085770
10.849823 -4.1239352 -1.743969 4288085770
8.4183044 -3.2278528 -1.8434162 4288085770
10.84491 -4.0379553 -1.7407827 4288085770
8.4173889 -3.1598685 -1.8402729 4288085770
10.843994 -3.9529738 -1.7366028 4288085770
8.4305115 -3.0968776 -1.8371611 4288085770
10.863068 -3.8749797 -1.7344694 4288085770
8.4285889 -3.0289009 -1.8310175 4288085770
10.886169 -3.7979832 -1.7323437 4288085770
8.4466858 -2.9669073 -1.8279152 4288085770
10.904236 -3.7209978 -1.7262106 4288085770
8.4907837 -2.915895 -1.829875 4288085770
10.938354 -3.647999 -1.7231102 4288085770
8.4989014 -2.8499148 -1.8217497 4288085770
10.993469 -3.5809889 -1.7210541 4288085770
8.5109863 -2.78793 -1.8156376 4288085770
11.048523 -3.5149786 -1.7190008 4288085770
8.5410767 -2.7299364 -1.810564 4288085770
11.12561 -3.4549587 -1.7169924 4288085770
8.577179 -2.6749372 -1.8065033 4288085770
11.20871 -3.3959341 -1.7159958 4288085770
8.6233215 -2.6229339 -1.8024645 4288085770
11.299835 -3.3379054 -1.7150126 4288085770
8.6653748 -2.5679345 -1.7974148 4288085770
11.403931 -3.2828741 -1.7130575 4288085770
8.7075195 -2.513936 -1.7913656 4288085770
11.515045 -3.2298369 -1.7121153 4288085770
8.7806091 -2.4679165 -1.7903824 4288085770
11.640137 -3.1797941 -1.7112007 4288085770
8.8357239 -2.4169106 -1.7853594 4288085770
11.756226 -3.1247604 -1.7072639 4288085770
8.908844 -2.3688936 -1.7823706 4288085770
11.86734 -3.0677309 -1.7023144 4288085770
8.9869385 -2.321876 -1.7783928 4288085770
11.98645 -3.0107009 -1.6953783 4288085770
9.0860291 -2.2818427 -1.7784605 4288085770
12.100555 -2.9536755 -1.6874332 4288085770
9.1741638 -2.2358193 -1.774498 4288085770
12.249664 -2.9006312 -1.68155 4288085770
9.2872314 -2.1947799 -1.7745876 4288085770
12.36673 -2.8406105 -1.6706066 4288085770
9.3863525 -2.149755 -1.7696447 4288085770
12.533844 -2.7905598 -1.6637583 4288085770
9.4884338 -2.1047282 -1.7647076 4288085770
12.718018 -2.7424996 -1.657938 4288085770
9.6265564 -2.0656786 -1.7648363 4288085770
12.901093 -2.6924448 -1.6501131 4288085770
9.8356628 -2.0405774 -1.7751036 4288085770
13.094208 -2.6413879 -1.6413031 4288085770
10.130737 -2.0314131 -1.7995319 4288085770
13.301331 -2.5923252 -1.6315184 4288085770
10.395813 -2.0102792 -1.8158932 4282675967
13.524445 -2.5432534 -1.622756 4288085770
10.534943 -1.9642415 -1.8080091 4282675967
13.740601 -2.4901943 -1.6089773 4288085770
10.683075 -1.9181995 -1.8011398 4282675967
13.983673 -2.4401202 -1.5972443 4288085770
10.798187 -1.8651843 -1.7872076 4288085770
14.230804 -2.3890481 -1.5835161 4288085770
10.944305 -1.8161526 -1.7753296 4288085770
14.511932 -2.3399606 -1.5698442 4288085770
11.109406 -1.7691078 -1.7654848 4288085770
14.824036 -2.2928591 -1.5572252 4288085770
11.281525 -1.7200632 -1.7546463 4288085770
15.161163 -2.2467465 -1.5436449 4288085770
11.44165 -1.6700287 -1.7407875 4288085770
15.571259 -2.2065964 -1.5341883 4288085770
11.694763 -1.6299338 -1.7380924 4288085770
15.980438 -2.1624546 -1.5207224 4288085770
11.930878 -1.5858569 -1.7293615 4288085770
16.427521 -2.1182957 -1.5073156 4288085770
12.109009 -1.5308242 -1.7105207 4288085770
16.932648 -2.0761127 -1.493 4288085770
12.291138 -1.474792 -1.6906853 4288085770
17.460785 -2.0329242 -1.4767179 4288085770
12.469299 -1.4177647 -1.66784 4288085770
18.008911 -1.9857326 -1.4574604 4288085770
12.680389 -1.362721 -1.6470499 4288085770
18.558075 -1.9315505 -1.432188 4288085770
12.938538 -1.3106499 -1.6303377 4288085770
19.125183 -1.8753657 -1.4049397 4288085770
13.172668 -1.253602 -1.6065788 4288085770
19.71637 -1.8161812 -1.3717222 4288085770
13.44577 -1.1985307 -1.5858841 4288085770
13.769897 -1.1454349 -1.5672703 4288085770
14.106049 -1.0893393 -1.5456696 4288085770
14.542175 -1.0381851 -1.5322313 4288085770
14.964294 -0.98105192 -1.5107603 4288085770
15.431427 -0.92389822 -1.4903574 4288085770
15.974548 -0.86570835 -1.4720697 4288085770
16.614685 -0.80847311 -1.4559317 4288085770
17.307831 -0.74721861 -1.4378662 4288085770
18.037933 -0.67895746 -1.4138432 4288085770
18.756073 -0.60571623 -1.3827934 4288085770
19.526215 -0.52645969 -1.3478098 4288085770
19.109558 0.66883183 -1.3144884 4288085770
18.371643 0.74861765 -1.3434582 4288085770
17.648682 0.82239866 -1.3664551 4288085770
17.031769 0.89321566 -1.3895884 4288085770
16.435852 0.9590354 -1.4097557 4288085770
15.85791 1.019855 -1.4249525 4288085770
15.359009 1.0807037 -1.4422464 4288085770
14.972076 1.1445951 -1.464673 4288085770
19.377625 1.5203505 -0.97943687 4293729569
14.556183 1.2024684 -1.480073 4288085770
18.4617 1.5610704 -1.0022564 4293729569
14.137268 1.2553363 -1.4914789 4288085770
18.241699 1.6540585 -1.0548401 4293729569
13.768341 1.3092208 -1.5049438 4288085770
18.155731 1.7580967 -1.1135712 4293729569
13.391418 1.358099 -1.5124083 4288085770
18.493683 1.9053078 -1.197752 4293729569
13.048553 1.4079885 -1.5219126 4288085770
18.80069 2.0555058 -1.2808886 4288085770
12.741638 1.4558907 -1.5314627 4288085770
18.347748 2.1233873 -1.3112316 4288085770
12.472717 1.5058069 -1.5420561 4288085770
17.760834 2.1682034 -1.3264475 4288085770
12.2258 1.555728 -1.5526791 4288085770
17.290894 2.2220659 -1.3467922 4288085770
11.965942 1.6016455 -1.5602903 4288085770
16.827026 2.2719269 -1.3631506 4288085770
11.742035 1.6495733 -1.5689421 4288085770
16.377106 2.3187885 -1.3765316 4288085770
11.536133 1.6985073 -1.5776176 4288085770
15.938202 2.3626499 -1.3869305 4288085770
11.342224 1.7464476 -1.587307 4288085770
15.575287 2.4115362 -1.4004145 4288085770
11.152313 1.7933836 -1.5940046 4288085770
15.267365 2.4664469 -1.4159565 4288085770
10.954407 1.8363142 -1.5976982 4288085770
14.902466 2.5073261 -1.422451 4288085770
10.759521 1.8782454 -1.6003971 4288085770
14.60257 2.5582323 -1.4330111 4288085770
10.572632 1.9201765 -1.6031055 4288085770
14.301666 2.6031342 -1.4405766 4288085770
10.411743 1.9641218 -1.606843 4288085770
14.051758 2.655057 -1.4501953 4288085770
10.269836 2.0100698 -1.6116018 4288085770
13.774872 2.6979609 -1.4547939 4288085770
10.096954 2.0480022 -1.6103344 4288085770
13.566956 2.7528963 -1.4644604 4288085770
9.9340515 2.0869398 -1.6100788 4288085770
13.322083 2.7968102 -1.4680977 4288085770
9.7981567 2.1288872 -1.6108513 4288085770
13.125153 2.8487463 -1.474782 4288085770
9.6232605 2.1608124 -1.6045914 4288085770
12.957245 2.9036922 -1.4824963 4288085770
9.497406 2.2017622 -1.6043768 4288085770
12.778381 2.9546299 -1.4872036 4288085770
9.3984985 2.2487249 -1.6071882 4288085770
12.676453 3.0236034 -1.499979 4288085770
9.3076172 2.2956886 -1.6110067 4288085770
12.52356 3.0775471 -1.5037136 4288085770
9.2017517 2.338645 -1.6108141 4288085770
12.440643 3.1475248 -1.5145092 4288085770
9.0908508 2.3795948 -1.6076212 4288085770
12.344757 3.2144938 -1.5232954 4288085770
9.0019531 2.4235582 -1.608448 4288085770
12.242828 3.2784576 -1.5290775 4288085770
8.9180603 2.4685192 -1.6082802 4288085770
12.177948 3.3514395 -1.5378914 4288085770
8.8491516 2.51649 -1.609127 4288085770
12.091034 3.4174051 -1.5436907 4288085770
8.7812805 2.5654602 -1.609972 4288085770
12.012115 3.4853745 -1.5474968 4288085770
8.7153625 2.6134281 -1.6098232 4288085770
11.950226 3.5573521 -1.5533161 4288085770
8.6684875 2.6664057 -1.6116896 4288085770
11.881317 3.6273212 -1.5561323 4288085770
8.6166077 2.718379 -1.6115513 4288085770
