# .PCD v0.7 - Point Cloud Data file format
VERSION 0.7
FIELDS x y z rgb
SIZE 4 4 4 4
TYPE F F F U
COUNT 1 1 1 1
WIDTH 1128
HEIGHT 1
VIEWPOINT 0 0 0 1 0 0 0
POINTS 1128
DATA ascii
3.8049622 0.28525543 -1.8353577 4288085770
5.4154968 0.356884 -1.9020872 4288085770
3.6081238 0.29455376 -1.8233976 4288085770
5.1526184 0.36795998 -1.8928061 4288085770
3.4452209 0.30397892 -1.8196001 4288085770
4.9117737 0.37811089 -1.8846321 4288085770
3.2713623 0.31436157 -1.8097515 4288085770
4.6559143 0.38820457 -1.8703861 4288085770
3.10849 0.32378101 -1.8009539 4288085770
4.4130859 0.39834118 -1.8552017 4288085770
2.9566345 0.33324242 -1.793211 4288085770
4.2071533 0.40861511 -1.8471956 4288085770
2.8247375 0.34377956 -1.7905636 4288085770
4.0072937 0.41990566 -1.8372173 4288085770
2.6898193 0.35329628 -1.7839022 4288085770
3.8184204 0.43023777 -1.8282948 4288085770
2.5629578 0.36384583 -1.7782784 4288085770
3.627594 0.43955803 -1.8153629 4288085770
3.4667053 0.45098782 -1.8085737 4288085770
3.3018188 0.46140099 -1.7987661 4288085770
3.157959 0.4718914 -1.7930603 4288085770
3.0050659 0.48234653 -1.7823114 4288085770
2.8702087 0.49286652 -1.7756481 4288085770
2.7602844 0.50547886 -1.7751045 4288085770
2.6443787 0.51706791 -1.771533 4288085770
2.5444946 0.52871609 -1.771039 4288085770
2.538269 2.6899567 -1.7050219 4288085770
2.6522217 2.7353401 -1.7055349 4288085770
2.8031006 2.7968607 -1.7162142 4288085770
2.9310303 2.8462944 -1.718792 4288085770
3.0958862 2.9118662 -1.7305355 4288085770
3.2507935 2.9703989 -1.7372379 4288085770
3.430603 3.0390196 -1.7480507 4288085770
3.5905457 3.0965624 -1.752779 4288085770
3.780365 3.1662169 -1.762641 4288085770
2.5914612 2.6450777 -1.7073498 4288085770
4.0031128 3.248992 -1.7796497 4288085770
2.7224121 2.6875248 -1.7119503 4288085770
4.1960144 3.3156538 -1.7865314 4288085770
2.8683472 2.7350273 -1.7196198 4288085770
4.4297485 3.3984613 -1.8005953 4288085770
3.0272522 2.7855749 -1.7293491 4288085770
4.6665344 3.4792795 -1.8136768 4288085770
3.1841736 2.8341131 -1.7360716 4288085770
4.9292908 3.5691881 -1.8288755 4288085770
3.3540955 2.8866987 -1.7458534 4288085770
5.1940613 3.658103 -1.8430862 4288085770
3.5190125 2.9342613 -1.7516165 4288085770
5.4658203 3.7460394 -1.8553333 4288085770
3.7387695 3.0050297 -1.772625 4288085770
5.7625427 3.8410654 -1.8706951 4288085770
3.9157104 3.0526342 -1.7774467 4288085770
6.044342 3.9270315 -1.878993 4288085770
4.1246033 3.1123552 -1.7904129 4288085770
6.3640442 4.0261335 -1.8924637 4288085770
4.3085327 3.1589823 -1.7942705 4288085770
6.6808472 4.1192217 -1.901927 4288085770
4.5463562 3.2258062 -1.8093719 4288085770
7.0445251 4.2284765 -1.9186039 4288085770
4.7732544 3.2855864 -1.8204288 4288085770
7.3982544 4.3286924 -1.9292421 4288085770
5.0180664 3.349431 -1.8335676 4288085770
7.8148499 4.4511309 -1.9481649 4288085770
5.3048401 3.4274282 -1.8548994 4288085770
8.2933655 4.5937872 -1.9753714 4288085770
5.5646973 3.4913244 -1.8661118 4288085770
8.7828979 4.7354822 -1.9996347 4288085770
5.8165894 3.5481863 -1.8742943 4288085770
9.2984314 4.8802633 -2.0230217 4288085770
6.1044312 3.6161776 -1.8876419 4288085770
9.8708801 5.0422468 -2.051672 4288085770
6.3833313 3.6771345 -1.8959513 4288085770
10.495239 5.2164087 -2.0835638 4288085770
6.710083 3.7522631 -1.9134836 4288085770
11.157623 5.3977022 -2.1156368 4288085770
7.006958 3.8112822 -1.9218855 4288085770
11.846954 5.5810823 -2.1458406 4288085770
7.3288269 3.8763876 -1.9324036 4288085770
12.624207 5.7887754 -2.1834507 4288085770
7.7105713 3.9597044 -1.9521971 4288085770
13.467377 6.0086908 -2.222374 4288085770
8.0424805 4.0188398 -1.9587717 4288085770
14.581146 6.3155699 -2.2915373 4288085770
8.4761658 4.1113386 -1.9828119 4288085770
15.881653 6.6770964 -2.3755636 4282675967
8.8690186 4.1816893 -1.9956741 4288085770
17.194244 7.0236578 -2.4486637 4282675967
9.3406982 4.2743177 -2.0179005 4288085770
9.8563538 4.3761034 -2.0463324 4288085770
10.402008 4.4819899 -2.0749083 4288085770
11.007538 4.5980864 -2.1087675 4288085770
11.667084 4.7233744 -2.146884 4288085770
12.320679 4.8386316 -2.1789808 4288085770
13.044189 4.9671354 -2.2174091 4288085770
13.869568 5.1159983 -2.265317 4288085770
14.647125 5.2396841 -2.3010159 4288085770
15.382782 5.3432169 -2.3285303 4288085770
16.686584 5.5957613 -2.4226837 4288085770
17.302399 -5.1565995 -1.9739065 4293729569
16.723419 -5.1325707 -1.980031 4293729569
16.083374 -5.0837598 -1.9768286 4293729569
15.549347 -5.0575762 -1.9831734 4293729569
15.220551 -5.0295739 -1.1245136 4293729569
15.006317 -5.0204272 -1.9874611 4293729569
14.774445 -5.0140643 -1.1573019 4293729569
14.560333 -5.0029392 -1.9992466 4293729569
14.308319 -4.987627 -1.1879797 4293729569
14.1633 -4.9952788 -2.016283 4293729569
13.789154 -4.9353752 -1.2113695 4293729569
13.604248 -4.9311914 -2.0114641 4293729569
13.585175 -4.9770298 -1.259408 4293729569
13.643433 -5.0499997 -2.0817795 4293729569
13.136993 -4.936533 -1.2861595 4293729569
12.914246 -4.9195137 -2.051055 4293729569
12.786926 -4.9226971 -1.3194218 4293729569
12.228058 -4.7918816 -2.0215445 4293729569
12.467834 -4.914752 -1.3548431 4293729569
11.678955 -4.7037687 -2.00875 4293729569
12.052673 -4.8681479 -1.3787508 4293729569
11.284882 -4.659111 -2.012763 4293729569
11.831635 -4.8818655 -1.4206753 4293729569
10.983826 -4.6411228 -2.0312614 4293729569
11.546509 -4.8698053 -1.4552593 4293729569
10.707825 -4.6290503 -2.0498905 4293729569
11.141357 -4.81217 -1.4752054 4293729569
10.438812 -4.6139498 -2.0705509 4293729569
10.978363 -4.8356848 -1.5204277 4293729569
10.177765 -4.5998249 -2.09025 4293729569
10.756256 -4.8354092 -1.5593328 4293729569
9.9347229 -4.5886345 -2.1130419 4293729569
10.535187 -4.8331308 -1.5972424 4293729569
9.6947021 -4.5744371 -2.1348448 4293729569
10.263062 -4.8060322 -1.6268759 4293729569
9.4706726 -4.5621824 -2.1577301 4288085770
10.015961 -4.7848463 -1.6596365 4293729569
9.2606201 -4.5518789 -2.1816835 4288085770
9.809845 -4.7755203 -1.6946115 4293729569
8.9905701 -4.5147915 -2.1943159 4288085770
8.6064758 -4.4271145 -2.1813345 4282675967
9.4116821 -4.7548151 -1.7656298 4293729569
8.1662903 -4.3106432 -2.1550474 4288085770
9.4487 -4.8366261 -1.8378963 4293729569
7.7701416 -4.2080135 -2.1339912 4288085770
9.2045898 -4.8014345 -1.8656588 4293729569
7.3530273 -4.0904665 -2.1038151 4288085770
8.6772766 -4.6412506 -1.8438978 4293729569
7.0039062 -3.995676 -2.0859995 4288085770
8.2920227 -4.5355663 -1.8418913 4293729569
6.6968384 -3.9157372 -2.0734053 4288085770
8.0869141 -4.5042429 -1.8688507 4293729569
6.4037476 -3.8377485 -2.0628815 4288085770
7.954834 -4.5016613 -1.907197 4293729569
6.1016541 -3.7517958 -2.0473051 4288085770
7.8177185 -4.4930973 -1.9445133 4293729569
5.8135376 -3.6687965 -2.0318012 4288085770
7.6846619 -4.4855165 -1.982851 4293729569
5.5554504 -3.5946894 -2.0204535 4288085770
7.5705566 -4.4828739 -2.0222855 4293729569
5.2953796 -3.5155916 -2.0060911 4288085770
7.4654846 -4.4831953 -2.0637693 4288085770
5.0632935 -3.4473953 -1.9968786 4288085770
7.3414001 -4.4715862 -2.1011477 4288085770
4.8442383 -3.3811531 -1.9887314 4288085770
7.0821838 -4.3944664 -2.1067915 4288085770
4.6622009 -3.3297768 -1.9887819 4288085770
6.7249756 -4.267704 -2.0879021 4288085770
4.4261169 -3.2506018 -1.9715395 4288085770
6.3997803 -4.1518278 -2.0721817 4288085770
4.2520752 -3.1972027 -1.968627 4288085770
6.0935974 -4.0408878 -2.0565605 4288085770
4.0530396 -3.1298952 -1.9565783 4288085770
5.8034058 -3.9348927 -2.0430222 4288085770
3.8539734 -3.0595903 -1.9425249 4288085770
5.5332642 -3.8338261 -2.0305882 4288085770
3.6819458 -3.0011873 -1.9356184 4288085770
5.2861023 -3.7416811 -2.020277 4288085770
3.5088806 -2.9397917 -1.9247026 4288085770
5.0509949 -3.6524935 -2.0110283 4288085770
3.3538818 -2.8843298 -1.9188833 4288085770
4.816864 -3.561307 -1.9987822 4288085770
3.1978455 -2.8268738 -1.9100552 4288085770
4.5937195 -3.4730816 -1.9865932 4288085770
3.0508118 -2.7713852 -1.9032745 4288085770
4.3886108 -3.3917913 -1.9784994 4288085770
2.8977661 -2.7109222 -1.8914595 4288085770
4.1715393 -3.3005486 -1.9623375 4288085770
2.7827454 -2.6693163 -1.8928499 4288085770
3.997406 -3.2301502 -1.957408 4288085770
2.6457214 -2.6137972 -1.8831177 4288085770
3.8053284 -3.1478205 -1.9443769 4288085770
2.5167236 -2.5612478 -1.8754292 4288085770
3.6212463 -3.0664644 -1.9303875 4288085770
3.4781799 -3.0059586 -1.9276218 4288085770
3.3120728 -2.9305382 -1.9157257 4288085770
3.1630249 -2.86306 -1.9069233 4288085770
3.0309448 -2.8025179 -1.9022112 4288085770
2.9059143 -2.7439537 -1.8965349 4288085770
2.7788391 -2.6833973 -1.8898478 4288085770
2.6588135 -2.6248169 -1.8831978 4288085770
2.5407715 -2.5652304 -1.875555 4288085770
2.6723022 -0.38351631 -1.8041019 4288085770
2.7643738 -0.36921597 -1.8025446 4288085770
2.8894348 -0.35779667 -1.8111534 4288085770
3.0144653 -0.34637928 -1.8177624 4288085770
3.1355286 -0.3329792 -1.8213511 4288085770
3.2745972 -0.32151318 -1.8290291 4288085770
3.4196472 -0.31003094 -1.8367376 4288085770
3.5856628 -0.29947281 -1.8485508 4288085770
3.7327271 -0.28598404 -1.8522682 4288085770
3.9077759 -0.27439785 -1.8621244 4288085770
2.7307739 -0.17839336 -1.8041964 4288085770
4.0868225 -0.26279926 -1.8700018 4288085770
2.8598328 -0.16696453 -1.8108273 4288085770
4.2579041 -0.25023079 -1.8738384 4288085770
2.9639587 -0.1536274 -1.8063297 4288085770
4.4859009 -0.24046135 -1.8909597 4288085770
3.1708984 -0.14591789 -1.8343496 4288085770
4.6739807 -0.22683811 -1.8938799 4288085770
3.2980042 -0.1335001 -1.8339682 4288085770
4.9179993 -0.21601486 -1.9090796 4288085770
3.4390564 -0.12203503 -1.8356571 4288085770
5.1270752 -0.20332336 -1.9121046 4288085770
3.6171265 -0.11143684 -1.8465309 4288085770
5.3621216 -0.19054127 -1.9172583 4288085770
3.7871704 -0.099871635 -1.8533621 4288085770
5.6221619 -0.17767334 -1.9255362 4288085770
3.9682007 -0.088267326 -1.8602486 4288085770
5.9031982 -0.16573429 -1.9359198 4288085770
4.209198 -0.079450607 -1.8814363 4288085770
6.21521 -0.15468788 -1.9484558 4288085770
4.4032898 -0.067806244 -1.8853893 4288085770
6.557251 -0.14254093 -1.9631414 4288085770
4.5933838 -0.055179596 -1.8863201 4288085770
6.9082642 -0.13036728 -1.9758711 4288085770
4.8433838 -0.044340134 -1.8995495 4288085770
7.3232422 -0.11896992 -1.9959192 4288085770
5.0744324 -0.033572197 -1.9056854 4288085770
7.741272 -0.10657024 -2.0109816 4288085770
5.3244934 -0.021738052 -1.9119148 4288085770
8.2132874 -0.093981743 -2.031311 4288085770
5.6125488 -0.010774612 -1.9243345 4288085770
8.7382507 -0.08221817 -2.0539045 4288085770
5.910553 0.0012207031 -1.9348011 4288085770
9.334198 -0.070214272 -2.0818501 4288085770
6.2426147 0.012334824 -1.949439 4288085770
10.023132 -0.058889389 -2.1172562 4288085770
6.5956116 0.023514748 -1.9621792 4288085770
10.781036 -0.046337128 -2.1540051 4288085770
6.995636 0.034856796 -1.980154 4288085770
11.649963 -0.034406662 -2.1973047 4288085770
7.4226379 0.045290947 -1.9982624 4288085770
12.593842 -0.021224976 -2.2409754 4288085770
7.8846436 0.05684185 -2.0175438 4288085770
13.785614 -0.0081968307 -2.3068771 4288085770
8.3766174 0.068490982 -2.0359735 4288085770
15.134338 0.0053577423 -2.3775549 4288085770
8.9536133 0.080428123 -2.0618258 4288085770
9.6305237 0.091711998 -2.0971746 4288085770
10.377441 0.10323048 -2.13587 4288085770
11.210327 0.11603451 -2.1769905 4288085770
12.152222 0.12920666 -2.221653 4288085770
13.268005 0.14197159 -2.2801781 4288085770
14.593781 0.15544796 -2.3507433 4288085770
16.826019 0.1720438 -2.5238056 4288085770
15.00415 0.66144276 -2.3485022 4288085770
13.666595 0.66309166 -2.2747765 4288085770
12.626953 0.66971874 -2.2285461 4288085770
11.638306 0.67349911 -2.1725731 4288085770
10.853546 0.68095303 -2.1386213 4288085770
10.089844 0.68646431 -2.0967789 4288085770
9.4401245 0.6943512 -2.0665054 4288085770
17.128784 1.113308 -2.5028172 4288085770
8.8533325 0.70244408 -2.0385485 4288085770
14.920868 1.0590868 -2.3287611 4288085770
8.3155518 0.71069336 -2.0118389 4288085770
13.669373 1.0460176 -2.2614794 4288085770
7.8327332 0.71912098 -1.9874048 4288085770
12.674744 1.0397921 -2.2154856 4288085770
7.4429016 0.72985935 -1.9764366 4288085770
11.701172 1.0306206 -2.1585979 4288085770
7.0560608 0.74059963 -1.9604826 4288085770
10.979401 1.0322828 -2.1309681 4288085770
6.6952209 0.75042725 -1.9446602 4288085770
10.253723 1.0299206 -2.0933218 4288085770
6.385376 0.76241875 -1.9360924 4288085770
9.6269836 1.0308838 -2.0631704 4288085770
6.0675049 0.77138329 -1.919487 4288085770
8.9992981 1.0278368 -2.0260162 4288085770
5.7727051 0.78142071 -1.9059973 4288085770
8.4974976 1.0312052 -2.002492 4288085770
5.5357666 0.79465103 -1.9017944 4288085770
8.0706787 1.0378189 -1.9863386 4288085770
5.2919006 0.80585957 -1.89256 4288085770
7.7197876 1.0496864 -1.9815655 4288085770
5.046051 0.81605244 -1.8793144 4288085770
7.3389587 1.0554466 -1.9646454 4288085770
4.8331604 0.82836056 -1.8722343 4288085770
6.9791565 1.0622749 -1.9478312 4288085770
4.5883484 0.83555317 -1.8529978 4288085770
6.6513062 1.0692081 -1.933177 4288085770
4.4045105 0.84795475 -1.8470621 4288085770
6.3624573 1.0792704 -1.9237175 4288085770
4.2056274 0.8572998 -1.8340559 4288085770
6.0746155 1.0863285 -1.9092636 4288085770
4.0207825 0.8666935 -1.8231173 4288085770
5.8067932 1.0944548 -1.8959112 4288085770
3.8529053 0.87814331 -1.8132639 4288085770
5.5719299 1.1046925 -1.8877211 4288085770
3.7060242 0.89066029 -1.8085155 4288085770
5.3560181 1.1149883 -1.8806267 4288085770
3.5571594 0.90117264 -1.8007574 4288085770
5.1401672 1.1242828 -1.870533 4288085770
3.4033203 0.9106636 -1.7889767 4288085770
4.9253235 1.1335793 -1.8584452 4288085770
3.2693787 0.9232235 -1.7822914 4288085770
4.740448 1.1449757 -1.8515062 4288085770
3.1325684 0.93377018 -1.7725954 4288085770
4.5326538 1.1512909 -1.8354559 4288085770
3.0266418 0.94742489 -1.7710514 4288085770
4.3697205 1.162755 -1.8286266 4288085770
2.9127502 0.96004963 -1.7654676 4288085770
4.2148438 1.1752529 -1.8238382 4288085770
2.8108215 0.97371387 -1.7629442 4288085770
4.0629883 1.1867533 -1.8160648 4288085770
2.7139282 0.98739719 -1.7604456 4288085770
3.9111023 1.1972551 -1.807292 4288085770
2.6180115 1.0000782 -1.7549534 4288085770
3.7712097 1.2087908 -1.7985792 4288085770
2.5201416 1.0127535 -1.7494497 4288085770
3.6483459 1.2223883 -1.7939501 4288085770
3.5144653 1.2329473 -1.7852678 4288085770
3.4025574 1.2455797 -1.7796946 4288085770
3.2817383 1.2561779 -1.7710781 4288085770
3.1668396 1.2677994 -1.7634907 4288085770
3.0559692 1.2794294 -1.7549229 4288085770
2.960083 1.2931147 -1.7494297 4288085770
2.8621826 1.305788 -1.7419262 4288085770
2.767334 1.3174715 -1.7344389 4288085770
2.694397 1.3342304 -1.7330589 4288085770
2.6174622 1.3499756 -1.7286577 4288085770
2.5485535 1.3657465 -1.7262983 4288085770
2.5488892 3.2193365 -1.6977549 4288085770
2.6298218 3.2825899 -1.699111 4288085770
2.7306824 3.356904 -1.7045565 4288085770
2.8544922 3.4453039 -1.7161064 4288085770
3.0021973 3.5477819 -1.7337646 4288085770
3.1090393 3.6231146 -1.73524 4288085770
3.2279053 3.7044878 -1.7397709 4288085770
3.3527527 3.7898798 -1.74333 4288085770
3.5054932 3.8893671 -1.7530165 4288085770
3.6513062 3.984828 -1.7596712 4288085770
3.7980957 4.0792894 -1.7623329 4288085770
2.51474 3.3551588 -1.7024765 4288085770
4.0097351 4.2119703 -1.7822895 4288085770
2.6535339 3.4416056 -1.7161036 4288085770
4.1983948 4.3285723 -1.7931423 4288085770
2.7634583 3.507947 -1.7166023 4288085770
4.3841553 4.4421568 -1.7989845 4288085770
2.9231873 3.6044626 -1.7323284 4288085770
4.5858459 4.563798 -1.8069 4288085770
3.0530701 3.6788683 -1.7349205 4288085770
4.8154907 4.6995306 -1.8199453 4288085770
3.1829529 3.7532759 -1.7375145 4288085770
5.0610962 4.8443155 -1.8330622 4288085770
3.3477173 3.8468008 -1.7482672 4288085770
5.3535767 5.0152502 -1.854394 4288085770
3.5045471 3.9332952 -1.752986 4288085770
5.6271667 5.1711245 -1.866643 4288085770
3.6912842 4.036891 -1.7658424 4288085770
5.9116821 5.3310289 -1.8789454 4288085770
3.8700867 4.1324587 -1.7726641 4288085770
6.2012939 5.4909468 -1.8872719 4288085770
4.0947266 4.2551775 -1.7896948 4288085770
6.5118408 5.6599321 -1.896698 4288085770
4.3124084 4.3698702 -1.8026972 4288085770
6.8822632 5.8621149 -1.9143963 4288085770
4.518219 4.4745226 -1.8096485 4288085770
7.2416992 6.0532579 -1.9270506 4288085770
4.7249756 4.5771742 -1.8136063 4288085770
7.5982361 6.2383852 -1.9326935 4288085770
5.0065308 4.7220774 -1.8349056 4288085770
8.0684509 6.4878855 -1.9568577 4288085770
5.2632141 4.8488932 -1.8460951 4288085770
8.588562 6.7615499 -1.9842529 4288085770
5.5996704 5.0199747 -1.8726501 4288085770
9.1635742 7.0623922 -2.0149021 4288085770
5.8793335 5.1518621 -1.8829508 4288085770
9.7077332 7.3381243 -2.0344162 4288085770
6.1589661 5.2807474 -1.8902559 4288085770
10.445465 7.7204943 -2.0788193 4288085770
6.4855957 5.4337873 -1.9037762 4288085770
11.191193 8.0988798 -2.1162653 4288085770
6.7942505 5.5707636 -1.9112196 4288085770
7.1507874 5.7318926 -1.9238863 4288085770
7.5582275 5.9171972 -1.944788 4288085770
7.9397888 6.0804033 -1.9545784 4288085770
8.3971863 6.2818632 -1.974719 4288085770
8.9074707 6.507493 -2.0011082 4288085770
9.4636841 6.7502718 -2.0297127 4288085770
10.091766 7.0242834 -2.0646553 4288085770
10.646149 7.2510424 -2.0832653 4288085770
11.367096 7.5583525 -2.1226492 4288085770
12.105042 7.8657122 -2.1581202 4288085770
16.533051 -3.2810211 -2.5885153 4288085770
15.109283 -3.1296005 -2.4721575 4288085770
14.128418 -3.0447445 -2.4091063 4288085770
13.30658 -2.979373 -2.3628788 4288085770
12.591675 -2.9236584 -2.3252029 4288085770
11.938812 -2.8727427 -2.2938461 4288085770
11.327881 -2.8226957 -2.262701 4288085770
10.74704 -2.7725525 -2.2327099 4288085770
10.201111 -2.723299 -2.2038965 4288085770
9.7072144 -2.6788778 -2.1803513 4288085770
9.2463074 -2.6363497 -2.1589756 4288085770
15.766296 -4.1845608 -2.5594349 4288085770
8.7774048 -2.5858526 -2.1315527 4288085770
14.463196 -3.9637413 -2.4626274 4288085770
8.3364868 -2.5372658 -2.1062717 4288085770
13.502136 -3.8128147 -2.4056177 4288085770
7.9216003 -2.4895983 -2.0811253 4288085770
12.627045 -3.6736116 -2.3550539 4288085770
7.528656 -2.4428577 -2.0580893 4288085770
11.904999 -3.5639143 -2.3212938 4288085770
7.1837158 -2.4039621 -2.042305 4288085770
11.199951 -3.4511662 -2.2826166 4288085770
6.8718262 -2.3709583 -2.0296946 4288085770
10.549866 -3.344245 -2.2472229 4288085770
6.5748901 -2.3379068 -2.0191584 4288085770
9.954895 -3.2461481 -2.214118 4288085770
6.2799683 -2.3008528 -2.0036287 4288085770
9.4048462 -3.1529055 -2.1842442 4288085770
6.0140076 -2.2687025 -1.9942522 4288085770
8.8818359 -3.0615807 -2.1535101 4288085770
5.763092 -2.237504 -1.984951 4288085770
8.3808594 -2.9701862 -2.1218872 4288085770
5.5301819 -2.2092476 -1.9787445 4288085770
7.9228516 -2.8866539 -2.0944891 4288085770
5.2792358 -2.1730537 -1.9644394 4288085770
7.5068359 -2.8109856 -2.071312 4288085770
5.0462646 -2.1387987 -1.9542265 4288085770
7.1087952 -2.73526 -2.047224 4288085770
4.8283691 -2.1074991 -1.9440947 4288085770
6.8038025 -2.6842299 -2.0396318 4288085770
4.6274414 -2.0781412 -1.9370489 4288085770
6.4707947 -2.6212969 -2.0228863 4288085770
4.4354858 -2.0497551 -1.9320498 4288085770
6.1607971 -2.5622883 -2.0082617 4288085770
4.246582 -2.0193605 -1.9240646 4288085770
5.8678589 -2.5042257 -1.9937248 4288085770
4.068634 -1.9909315 -1.9171362 4288085770
5.5938416 -2.4501038 -1.9802856 4288085770
3.8846741 -1.9575233 -1.9071732 4288085770
5.3418579 -2.3989105 -1.9699621 4288085770
3.7107849 -1.9260836 -1.898263 4288085770
5.0898743 -2.3467178 -1.9566374 4288085770
3.5597839 -1.9005661 -1.894475 4288085770
4.8628845 -2.2994452 -1.9464436 4288085770
3.4108887 -1.8740435 -1.8896971 4288085770
4.6479187 -2.2531338 -1.9373121 4288085770
3.2649536 -1.8455133 -1.8839302 4288085770
4.4269409 -2.2028437 -1.9241467 4288085770
3.1240234 -1.8179655 -1.878191 4288085770
4.2429504 -2.1634312 -1.919179 4288085770
2.9910583 -1.7923946 -1.8744936 4288085770
4.059967 -2.1220179 -1.9122133 4288085770
2.8511353 -1.7618465 -1.865757 4288085770
3.8890381 -2.0825653 -1.906312 4288085770
2.7341919 -1.7382202 -1.8641424 4288085770
3.7210388 -2.0431042 -1.8994246 4288085770
3.5630493 -2.0056114 -1.89359 4288085770
3.3951111 -1.9621534 -1.882699 4288085770
3.2581482 -1.9285917 -1.8809748 4288085770
3.1131897 -1.8900576 -1.8732052 4288085770
2.9832153 -1.8564749 -1.8695154 4288085770
2.8552246 -1.8218861 -1.8648367 4288085770
2.7322693 -1.7882814 -1.8601828 4288085770
2.607666 0.2535181 -1.7778959 4288085770
2.7357178 0.26691532 -1.7855396 4288085770
2.856781 0.28028965 -1.7891474 4288085770
2.9798279 0.29266739 -1.7917662 4288085770
3.1228943 0.30710888 -1.7974863 4288085770
3.2639771 0.31954384 -1.8021975 4288085770
3.4309998 0.33406639 -1.8120403 4288085770
3.5900574 0.34755516 -1.8178434 4288085770
2.6003113 0.34044552 -1.7787905 4288085770
3.7650757 0.36109924 -1.8257265 4288085770
2.7363892 0.35086823 -1.786479 4288085770
3.9571228 0.37569714 -1.8356972 4288085770
2.859436 0.36224556 -1.7880983 4288085770
4.1621704 0.39033699 -1.846734 4288085770
3.0015259 0.37268448 -1.7938175 4288085770
4.3622131 0.40395546 -1.852746 4288085770
3.1615295 0.38418007 -1.8036261 4288085770
4.6052246 0.41971588 -1.8679762 4288085770
3.324585 0.39568615 -1.811451 4288085770
4.8452148 0.43546391 -1.8791904 4288085770
3.4927063 0.40620804 -1.8183022 4288085770
5.1102295 0.45128918 -1.8925333 4288085770
3.6647644 0.41774082 -1.824173 4288085770
5.3563232 0.4650507 -1.8977814 4288085770
3.8407898 0.42828465 -1.8300657 4288085770
5.6413269 0.480937 -1.9092264 4288085770
4.0578003 0.43996239 -1.8441658 4288085770
5.9293823 0.49683094 -1.9176874 4288085770
4.2668152 0.45161152 -1.8532257 4288085770
6.2903442 0.51395988 -1.93752 4288085770
4.5168762 0.46339417 -1.8694963 4288085770
6.6393433 0.53104687 -1.9492912 4288085770
4.7359314 0.47407246 -1.874608 4288085770
6.9973755 0.54715729 -1.9601097 4288085770
5.0049744 0.48591232 -1.8899746 4288085770
7.4203491 0.56547832 -1.9782591 4288085770
5.2430115 0.49564552 -1.894186 4288085770
7.8763428 0.5838995 -1.9965773 4288085770
5.5170593 0.50649643 -1.9025793 4288085770
8.3742981 0.6034565 -2.0171099 4288085770
5.822113 0.51744556 -1.9151316 4288085770
8.9412537 0.62522793 -2.0429926 4288085770
6.1601257 0.52950001 -1.9308519 4288085770
9.5991211 0.64829063 -2.0773392 4288085770
6.518158 0.54061604 -1.9466753 4288085770
10.319 0.67354298 -2.111002 4288085770
6.8981628 0.55180168 -1.9616098 4288085770
11.117889 0.69904423 -2.1490698 4288085770
7.3091736 0.56307983 -1.977705 4288085770
12.003723 0.72681808 -2.1885796 4288085770
7.7461853 0.57344341 -1.9939337 4288085770
13.02652 0.7570219 -2.2367878 4288085770
8.2431641 0.58499336 -2.0144682 4288085770
14.35318 0.79719162 -2.3125439 4288085770
8.8011169 0.59773731 -2.0403128 4288085770
15.985657 0.84532833 -2.4108582 4288085770
9.4171143 0.61066246 -2.0684557 4288085770
10.156952 0.62598324 -2.10923 4288085770
10.943848 0.63944721 -2.1482468 4288085770
11.825745 0.65320587 -2.1887503 4288085770
12.84259 0.66939545 -2.2399416 4288085770
14.002411 0.68502808 -2.2978659 4288085770
15.321167 0.70116138 -2.3606043 4288085770
7.928833 -4.674201 -0.70349312 4293729569
8.1368408 -4.6935425 -0.74827766 4293729569
8.3328552 -4.7039185 -0.79200935 4293729569
8.5238037 -4.7093115 -0.83471966 4293729569
8.6867676 -4.6987915 -0.87531567 4293729569
8.9598083 -4.7329292 -0.92434978 4293729569
9.8547363 -4.747097 -1.1016731 4293729569
10.241791 -4.8038807 -1.1601467 4293729569
10.538788 -4.8209457 -1.2092581 4293729569
10.827759 -4.8300362 -1.2583351 4293729569
11.166779 -4.852972 -1.310606 4293729569
11.477722 -4.8609943 -1.3597631 4293729569
11.815735 -4.8739328 -1.4120245 4293729569
12.18869 -4.8927641 -1.4654198 4293729569
12.552673 -4.904623 -1.5177765 4293729569
13.029694 -4.9471302 -1.5805731 4293729569
13.392639 -4.9459934 -1.6309166 4293729569
13.74054 -4.9329052 -1.6791954 4293729569
14.330597 -4.9920607 -1.7504244 4293729569
14.853577 -5.0194273 -1.8143806 4293729569
15.36554 -5.0368299 -1.875289 4293729569
16.039551 -5.0947256 -1.9528284 4293729569
16.734558 -5.1465583 -2.0304403 4293729569
17.33847 -5.1646762 -2.0976906 4293729569
15.901123 1.3805895 -2.3874531 4288085770
14.574554 1.3715401 -2.3045273 4288085770
13.552887 1.374424 -2.2477255 4288085770
12.675171 1.3797503 -2.201458 4288085770
11.911377 1.388423 -2.1646109 4288085770
11.266571 1.4014606 -2.1352034 4288085770
10.650787 1.4115829 -2.1049061 4288085770
10.137878 1.427022 -2.0849857 4288085770
9.6630554 1.4415751 -2.0652103 4288085770
17.841766 2.3844233 -2.502924 4288085770
9.1862183 1.4521198 -2.0404282 4288085770
15.99173 2.2777615 -2.3591223 4288085770
8.7644043 1.4658327 -2.0208492 4288085770
14.809235 2.2331524 -2.285758 4288085770
8.3356018 1.4735203 -1.993248 4288085770
13.9086 2.2114096 -2.2384253 4288085770
7.9557495 1.4843559 -1.9718266 4288085770
13.101898 2.1959524 -2.1974373 4288085770
7.619873 1.4983311 -1.954567 4288085770
12.385193 2.1837673 -2.16078 4288085770
7.3380127 1.516469 -1.9455042 4288085770
11.770416 2.1798964 -2.1324959 4288085770
7.0621033 1.5326271 -1.933466 4288085770
11.228607 2.1812458 -2.109479 4288085770
6.8192139 1.5508862 -1.9245481 4288085770
10.734833 2.1837425 -2.0886421 4288085770
6.6202698 1.5752811 -1.92379 4288085770
10.253021 2.1832714 -2.0638494 4288085770
6.4223328 1.5976782 -1.9210358 4288085770
9.8421936 2.1900215 -2.0473156 4288085770
6.2224426 1.6170683 -1.914278 4288085770
9.425415 2.1907482 -2.0237656 4288085770
6.0175171 1.6334381 -1.9045019 4288085770
9.0665588 2.1976528 -2.0084248 4288085770
5.8186646 1.6508274 -1.8937492 4288085770
8.7416687 2.208662 -1.9942074 4288085770
5.6377258 1.6672716 -1.8850632 4288085770
8.4288635 2.2177038 -1.9790363 4288085770
5.4688416 1.6857538 -1.876421 4288085770
8.1119995 2.2227354 -1.9608536 4288085770
5.3129272 1.7052736 -1.8698254 4288085770
7.8651123 2.2389803 -1.9519234 4288085770
5.1700134 1.7268353 -1.8652773 4288085770
7.6272278 2.2552538 -1.9420252 4288085770
5.0401001 1.7484379 -1.8617773 4288085770
7.3773804 2.2654886 -1.9280882 4288085770
4.8971863 1.765996 -1.8532324 4288085770
7.1524963 2.2787991 -1.9162416 4288085770
4.7533264 1.7825508 -1.8426838 4288085770
6.9755554 2.301259 -1.9125652 4288085770
4.6353455 1.8041859 -1.8382273 4288085770
6.7946472 2.3207026 -1.9048777 4288085770
4.5424194 1.8299007 -1.837863 4288085770
6.6327209 2.3442087 -1.9012575 4288085770
4.4295044 1.8505516 -1.8314257 4288085770
6.4738159 2.3667212 -1.895649 4288085770
4.2956238 1.8651352 -1.8179159 4288085770
6.3398743 2.3923111 -1.8931313 4288085770
4.1957397 1.8858223 -1.8125286 4288085770
6.2208862 2.4219465 -1.8926659 4288085770
4.0828552 1.9024706 -1.8020954 4288085770
6.0889587 2.4465427 -1.8881559 4288085770
4.0128784 1.9302549 -1.8018141 4288085770
5.9480591 2.4671068 -1.8796158 4288085770
3.9498901 1.9600601 -1.8035564 4288085770
5.8191528 2.4907084 -1.8731184 4288085770
3.8240356 1.970664 -1.7860794 4288085770
5.6812439 2.5092793 -1.8615904 4288085770
3.7770996 2.0025196 -1.7898808 4288085770
5.5932617 2.5410099 -1.8622389 4288085770
3.6941528 2.0242586 -1.7825546 4288085770
5.4933472 2.5686989 -1.8578463 4288085770
3.6441956 2.0541039 -1.7843466 4288085770
5.4003906 2.5984125 -1.8534784 4288085770
3.5393372 2.0667725 -1.7679462 4288085770
5.3144226 2.6271439 -1.8491354 4288085770
3.4863892 2.0946054 -1.765727 4288085770
5.2135315 2.6518307 -1.8407421 4288085770
3.4324036 2.1224356 -1.7635059 4288085770
5.1425476 2.6846104 -1.8394527 4288085770
3.3675232 2.1452274 -1.7552462 4288085770
5.0506287 2.709321 -1.8300915 4288085770
3.3664551 2.1892281 -1.7672081 4288085770
4.9896545 2.7441292 -1.8278379 4288085770
3.2746277 2.2009335 -1.7498569 4288085770
4.9277039 2.777935 -1.8245821 4288085770
3.2416382 2.2338285 -1.7497091 4288085770
4.8677368 2.8117476 -1.8203335 4288085770
3.192688 2.2606697 -1.7445068 4288085770
4.8187561 2.8495903 -1.8191214 4288085770
3.1577454 2.2915573 -1.7423525 4288085770
4.7598267 2.8834028 -1.8128767 4288085770
3.1257935 2.3244562 -1.7402096 4288085770
4.7277832 2.9262991 -1.812726 4288085770
3.0988159 2.3573666 -1.7390833 4288085770
4.6878052 2.9641724 -1.8095474 4288085770
3.0608826 2.3862419 -1.7329197 4288085770
4.6598206 3.0080814 -1.809411 4288085770
3.0328979 2.4191504 -1.7297897 4288085770
4.6158447 3.0459394 -1.8032188 4288085770
3.0129395 2.4540844 -1.7286892 4288085770
4.6187744 3.1009455 -1.8091888 4288085770
4.5858154 3.1418352 -1.8040352 4288085770
4.5538025 3.1837301 -1.7988834 4288085770
4.5547791 3.2377253 -1.7998466 4288085770
4.5417786 3.2866812 -1.797761 4288085770
4.5377197 3.3396616 -1.7967052 4288085770
4.5656128 3.4067411 -1.8027601 4288085770
4.5775757 3.4677687 -1.8027582 4288085770
4.5865173 3.5257883 -1.8017473 4288085770
4.6064758 3.5898428 -1.8027744 4288085770
4.6264343 3.6538954 -1.8018007 4288085770
3.000885 2.9299726 -1.7252827 4288085770
4.6602783 3.7249937 -1.8048735 4288085770
3.0288086 2.9880514 -1.728344 4288085770
4.702179 3.8011122 -1.8069715 4288085770
3.0507812 3.0421124 -1.7303848 4288085770
4.7450867 3.8772364 -1.8090754 4288085770
3.0777588 3.0991926 -1.7314453 4288085770
4.7860107 3.9523573 -1.8101759 4288085770
3.1156921 3.162303 -1.7355385 4288085770
4.8448486 4.0385294 -1.8133287 4288085770
3.1486206 3.2213964 -1.7366161 4288085770
4.90271 4.122695 -1.8154802 4288085770
3.1686096 3.2744493 -1.7336493 4288085770
4.9855042 4.2219439 -1.8227139 4288085770
3.2374573 3.3546534 -1.743845 4288085770
5.0473633 4.309123 -1.8228779 4288085770
3.280365 3.4197779 -1.7449551 4288085770
5.1281738 4.407361 -1.8261042 4288085770
3.3272705 3.4889116 -1.7460756 4288085770
5.2120056 4.5086069 -1.8283396 4288085770
3.393158 3.5681067 -1.7512617 4288085770
5.3317566 4.6299677 -1.8376942 4288085770
3.4351196 3.6322241 -1.7483683 4288085770
5.4554749 4.7553339 -1.8460598 4288085770
3.5059814 3.7154322 -1.7525692 4288085770
5.571228 4.87568 -1.8504009 4288085770
3.5638733 3.7885981 -1.751729 4288085770
5.730835 5.0241594 -1.8628836 4288085770
3.6437073 3.8768358 -1.7559586 4288085770
5.8755188 5.1635904 -1.8703165 4288085770
3.7355347 3.9721079 -1.762228 4288085770
6.0122375 5.2979956 -1.8727226 4288085770
3.8253479 4.0663729 -1.7664909 4288085770
6.1658936 5.4444532 -1.8781853 4288085770
3.9401245 4.1757154 -1.7748365 4288085770
6.3056335 5.580863 -1.8766031 4288085770
4.0548706 4.2850599 -1.7821798 4288085770
6.5191956 5.7655039 -1.8892593 4288085770
4.1676636 4.3933935 -1.7875175 4288085770
6.7207336 5.9421053 -1.8958759 4288085770
4.2824707 4.5027323 -1.7908621 4288085770
6.9472351 6.1357832 -1.9065742 4288085770
4.4281616 4.6311693 -1.8003082 4288085770
7.1339111 6.3033323 -1.9041424 4288085770
4.5739136 4.7606058 -1.8077526 4288085770
7.452179 6.5572939 -1.9251375 4288085770
4.7355652 4.9000883 -1.8172483 4288085770
7.7295837 6.7841215 -1.934 4288085770
4.9541016 5.0777502 -1.8379288 4288085770
8.0658875 7.0511332 -1.9500513 4288085770
5.1377258 5.2322969 -1.8464947 4288085770
8.387207 7.3090944 -1.9580545 4288085770
5.3313293 5.3918791 -1.8550959 4288085770
8.8312073 7.6484346 -1.9854536 4288085770
5.526947 5.5514612 -1.8617039 4288085770
9.2792358 7.9907846 -2.0058651 4288085770
5.7305603 5.7170668 -1.8663368 4288085770
5.9511414 5.892724 -1.8730249 4288085770
6.2106628 6.0945024 -1.8828392 4288085770
6.4880676 6.307332 -1.8947105 4288085770
6.7615662 6.5161505 -1.9015713 4288085770
7.1387634 6.7952852 -1.9247656 4288085770
7.453186 7.0292253 -1.9317598 4288085770
7.8224792 7.2993307 -1.9439306 4288085770
8.2765198 7.6266966 -1.9663754 4288085770
8.7994385 8.0002756 -1.9970417 4288085770
17.681061 -1.8048649 -2.6552973 4288085770
15.145569 -1.6435814 -2.4118404 4288085770
14.173798 -1.6215076 -2.3672428 4288085770
13.238983 -1.5933256 -2.3197765 4288085770
12.403168 -1.5678453 -2.2776775 4288085770
11.629364 -1.5411787 -2.2378054 4288085770
10.938568 -1.5182619 -2.2042437 4288085770
10.318695 -1.4971313 -2.174943 4288085770
9.7048645 -1.4709845 -2.1416607 4288085770
17.219147 -2.4613295 -2.6290302 4288085770
9.1480408 -1.4456663 -2.11059 4288085770
14.922333 -2.2283068 -2.4204044 4288085770
8.6311646 -1.4212294 -2.0826674 4288085770
13.882385 -2.1514359 -2.3715162 4288085770
8.1803284 -1.400589 -2.0619898 4288085770
12.933472 -2.0782948 -2.3249683 4288085770
7.7714539 -1.3818226 -2.0444679 4288085770
12.004547 -1.9990997 -2.2694883 4288085770
7.3855591 -1.3629904 -2.0260315 4288085770
11.253632 -1.938364 -2.2326784 4288085770
7.021698 -1.3440876 -2.009676 4288085770
10.555695 -1.8814669 -2.1990652 4288085770
6.6928101 -1.3270798 -1.9974499 4288085770
9.9197693 -1.8263855 -2.1666822 4288085770
6.3839417 -1.3110113 -1.9862995 4288085770
9.3088379 -1.7712297 -2.13239 4288085770
6.0730286 -1.2919512 -1.971138 4288085770
8.7419434 -1.7179432 -2.1002636 4288085770
5.8011475 -1.2747726 -1.9611225 4288085770
8.2510376 -1.6724243 -2.0754213 4288085770
5.544281 -1.2595482 -1.9521637 4288085770
7.8050842 -1.6307697 -2.0547476 4288085770
5.274353 -1.2383661 -1.9371529 4288085770
7.3991394 -1.5919962 -2.035223 4288085770
5.0584717 -1.2250166 -1.9333467 4288085770
7.012207 -1.5541639 -2.0167694 4288085770
4.818573 -1.2057438 -1.9204464 4288085770
6.6652832 -1.5192099 -2.0024643 4288085770
4.613678 -1.1903629 -1.9146805 4288085770
6.3453674 -1.487175 -1.990262 4288085770
4.4317627 -1.1779099 -1.9129992 4288085770
6.0394287 -1.4550982 -1.9771109 4288085770
4.2118835 -1.1555805 -1.897171 4288085770
5.7695312 -1.4269114 -1.9690943 4288085770
4.0509949 -1.1440649 -1.8965693 4288085770
5.5175781 -1.400671 -1.9621458 4288085770
3.8790894 -1.1275854 -1.8909225 4288085770
5.2466736 -1.3684921 -1.9471235 4288085770
3.6661682 -1.1022377 -1.8711176 4288085770
5.0107422 -1.3412046 -1.9382343 4288085770
3.5173035 -1.0886879 -1.8685589 4288085770
4.7828064 -1.3128948 -1.9283724 4288085770
3.3673706 -1.0721436 -1.8629923 4288085770
4.5588989 -1.2845669 -1.9165306 4288085770
3.1965027 -1.0506582 -1.8493519 4288085770
4.361969 -1.2591619 -1.9097862 4288085770
3.0585938 -1.035078 -1.8438311 4288085770
4.1880493 -1.2376862 -1.9081278 4288085770
3.9661255 -1.2053652 -1.8882866 4288085770
3.7872009 -1.1789083 -1.8796072 4288085770
3.6112976 -1.1534443 -1.8689394 4288085770
3.458374 -1.1299076 -1.8643579 4288085770
3.2964783 -1.105402 -1.8537426 4288085770
3.1535034 -1.0818357 -1.848197 4288085770
3.030304 0.88794994 -1.7739496 4288085770
3.1543579 0.90331078 -1.773387 4288085770
3.3144226 0.92278099 -1.7829533 4288085770
3.4914246 0.94330692 -1.7965813 4288085770
3.6434937 0.95974827 -1.799119 4288085770
3.8285217 0.98029518 -1.8087769 4288085770
4.0215454 1.0008631 -1.8184614 4288085770
4.2236023 1.0204582 -1.8281803 4288085770
3.0861816 0.89506721 -1.7751245 4288085770
4.4436035 1.0431061 -1.839963 4288085770
3.2392578 0.90851593 -1.7816706 4288085770
4.6896362 1.0668354 -1.8558388 4288085770
3.4083557 0.92301559 -1.7912731 4288085770
4.910675 1.086484 -1.8616266 4288085770
3.5993042 0.94058228 -1.8069525 4288085770
5.1626892 1.1082268 -1.8725262 4288085770
3.7624207 0.95205688 -1.809536 4288085770
5.4346924 1.1320286 -1.8844957 4288085770
3.9764404 0.96969128 -1.8262997 4288085770
5.711731 1.1548443 -1.8954849 4288085770
4.1495361 0.98019409 -1.82792 4288085770
6.00177 1.1766977 -1.9045229 4288085770
4.3685608 0.99584293 -1.840704 4288085770
6.3637085 1.2057714 -1.9258165 4288085770
4.6005859 1.0105267 -1.8535357 4288085770
6.6997375 1.2307615 -1.9370184 4288085770
4.8336182 1.0252132 -1.8633699 4288085770
7.0157776 1.2506857 -1.9401522 4288085770
5.0926819 1.0409794 -1.8772993 4288085770
7.4008179 1.2758188 -1.9525328 4288085770
5.3637085 1.0567818 -1.8912716 4288085770
7.8258057 1.3040733 -1.9680557 4288085770
5.6087646 1.0674973 -1.895153 4288085770
8.3337097 1.3375778 -1.9938774 4288085770
5.9068298 1.0813751 -1.9082251 4288085770
8.9285889 1.3793468 -2.0290098 4288085770
6.2348633 1.0973444 -1.9244061 4288085770
9.5534973 1.4191999 -2.0612526 4288085770
6.553894 1.1102829 -1.9345531 4288085770
10.185425 1.4570713 -2.088522 4288085770
6.8729553 1.1202183 -1.9407053 4288085770
10.895355 1.4971733 -2.1180744 4288085770
7.2430115 1.1333084 -1.9540396 4288085770
11.666199 1.5404568 -2.1508446 4288085770
7.6360474 1.1464663 -1.9674587 4288085770
12.5401 1.5870447 -2.1869888 4288085770
8.0611267 1.1587181 -1.9809942 4288085770
13.693787 1.6544752 -2.2521353 4288085770
8.565094 1.17521 -2.0048122 4288085770
14.892548 1.7180338 -2.3094492 4288085770
9.1680298 1.1980019 -2.040988 4288085770
16.867798 1.8429375 -2.4525442 4288085770
9.7640381 1.2147655 -2.0681419 4288085770
10.412018 1.2316837 -2.0964851 4288085770
11.189941 1.2529907 -2.1372976 4288085770
11.962921 1.2702789 -2.1700945 4288085770
12.915802 1.293108 -2.2195425 4288085770
13.983612 1.3182793 -2.2754068 4288085770
15.182495 1.3438387 -2.3357477 4288085770
17.660583 1.4432697 -2.54669 4288085770
4.3795166 -4.5153122 -0.56356144 4293729569
4.3854675 -4.5032701 -0.60257244 4293729569
4.509491 -4.5308332 -0.72703743 4293729569
4.5124207 -4.5088024 -0.76402855 4293729569
4.5874329 -4.5345554 -0.81031704 4293729569
4.5943604 -4.5125132 -0.84732342 4293729569
4.7703247 -4.5359211 -0.97597313 4293729569
4.9047852 -4.5418415 -0.59145927 4293729569
4.8112793 -4.5277786 -1.0161123 4293729569
4.9497681 -4.5326891 -0.62861252 4293729569
4.8372192 -4.5086803 -1.0531883 4293729569
5.0257568 -4.5424433 -0.66989326 4293729569
9.8887634 -7.7123828 -1.8729639 4293729569
5.080719 -4.5362606 -0.70708466 4293729569
5.0272522 -4.5530682 -1.1469069 4293729569
5.104248 -4.5598173 -1.1911879 4293729569
8.7085266 -6.7678633 -1.8299494 4293729569
5.3127136 -4.545516 -0.82592392 4293729569
8.3548584 -6.4819102 -1.8134432 4293729569
5.3716736 -4.5333233 -0.8621254 4293729569
5.289093 -4.5382061 -1.3128328 4293729569
5.3590698 -4.5319777 -1.3540792 4293729569
5.5606689 -4.5467272 -0.94181347 4293729569
7.5072937 -5.7704191 -1.7768135 4293729569
5.8137207 -4.5869389 -1.0277557 4293729569
7.0914917 -5.3946528 -1.7620106 4293729569
5.9006653 -4.581665 -1.0650625 4293729569
5.9271851 -4.6561899 -1.5662203 4293729569
5.9250488 -4.5961847 -1.5901632 4293729569
6.1567078 -4.6088705 -1.149004 4293729569
6.03302 -4.5978432 -1.6355524 4293729569
6.2016296 -4.5737238 -1.1791363 4293729569
6.1399841 -4.5975046 -1.6799345 4293729569
11.296936 -7.2813578 -1.9396734 4293729569
6.2058716 -4.5712929 -1.7151499 4293729569
6.4676514 -4.5909014 -1.2621069 4293729569
6.2817993 -4.5490532 -1.7504044 4293729569
10.684723 -6.7551699 -1.9130411 4293729569
6.2086182 -4.4452686 -1.7540569 4293729569
6.7947083 -4.6308966 -1.3513145 4293729569
6.2805481 -4.4190397 -1.7872925 4293729569
10.181732 -6.3016605 -1.8908615 4293729569
6.4095154 -4.4196386 -1.8317566 4293729569
7.0776062 -4.6350288 -1.4313335 4293729569
6.5704651 -4.4351397 -1.8823471 4293729569
7.2576294 -4.6534777 -1.4769964 4293729569
6.7094421 -4.4347076 -1.9268475 4293729569
9.5865173 -5.7234306 -1.8632469 4293729569
6.8664551 -4.4422235 -1.9744167 4293729569
7.6176758 -4.6793804 -1.564311 4293729569
7.0383911 -4.4546928 -2.0250444 4288085770
7.8396912 -4.708704 -1.6141329 4293729569
7.2103882 -4.4631624 -2.0736694 4288085770
7.8916016 -4.6535463 -1.6342735 4293729569
7.313324 -4.4368448 -2.1070175 4288085770
8.1266174 -4.6838331 -1.6841431 4293729569
7.2761536 -4.3429594 -2.1078062 4288085770
8.4176941 -4.7329521 -1.7422304 4293729569
7.2089844 -4.2351665 -2.1004763 4288085770
8.6657104 -4.759201 -1.7921438 4293729569
7.1258545 -4.1224251 -2.0880842 4288085770
8.7345886 -4.7039948 -1.8103456 4293729569
7.0937195 -4.0335283 -2.0858946 4288085770
8.9055786 -4.6914797 -1.8459501 4293729569
7.0655823 -3.9446192 -2.0827208 4288085770
8.9094238 -4.6044722 -1.8508921 4293729569
7.0284729 -3.8527393 -2.0765104 4288085770
9.0033264 -4.5551939 -1.8701878 4293729569
7.0093689 -3.7688046 -2.0733728 4288085770
9.2173157 -4.5515509 -1.9079542 4293729569
7.0042419 -3.6918278 -2.0722895 4288085770
9.4773254 -4.5637693 -1.952899 4293729569
7.0001526 -3.6148491 -2.069212 4288085770
9.7553101 -4.579937 -1.9989119 4293729569
6.9970703 -3.538867 -2.0671377 4288085770
10.035339 -4.5940981 -2.043931 4293729569
6.9890137 -3.4609032 -2.0610437 4288085770
10.328339 -4.6072216 -2.0889931 4293729569
6.9959412 -3.3898926 -2.0580091 4288085770
10.637329 -4.6222982 -2.1351175 4293729569
7.0288696 -3.328804 -2.0590773 4288085770
10.958313 -4.6373405 -2.1822834 4293729569
7.0438232 -3.2597723 -2.0550728 4288085770
11.306335 -4.6563034 -2.2315502 4288085770
7.0857544 -3.2006559 -2.0571747 4288085770
11.660339 -4.6732492 -2.2788363 4288085770
7.1247253 -3.1395512 -2.0562639 4288085770
11.967316 -4.6693392 -2.3169374 4288085770
7.1826782 -3.0843897 -2.0584259 4288085770
12.187256 -4.6316919 -2.3396969 4288085770
7.2316284 -3.0262566 -2.0575533 4288085770
12.358185 -4.5771961 -2.3522663 4288085770
7.305603 -2.9760456 -2.0617771 4288085770
12.506104 -4.5117722 -2.3577433 4288085770
7.3575439 -2.9179058 -2.0589151 4288085770
12.665009 -4.4493151 -2.365263 4288085770
7.4545288 -2.8726282 -2.0652266 4288085770
12.841949 -4.3908072 -2.371851 4288085770
7.5455017 -2.8263702 -2.0685129 4288085770
13.055908 -4.340188 -2.3835783 4288085770
7.65448 -2.7810564 -2.0748672 4288085770
13.283844 -4.2905283 -2.3943558 4288085770
7.747467 -2.7317963 -2.0751591 4288085770
13.554779 -4.2497416 -2.409296 4288085770
7.8544617 -2.686492 -2.0785065 4288085770
13.794739 -4.1980515 -2.4171162 4288085770
7.9944153 -2.6470871 -2.0869761 4288085770
14.144684 -4.1720295 -2.4403515 4288085770
8.128418 -2.6057034 -2.0924225 4288085770
14.411652 -4.1202602 -2.4472694 4288085770
8.2663879 -2.5623083 -2.0968819 4288085770
14.798615 -4.0961323 -2.4696398 4288085770
8.444397 -2.5277939 -2.1074924 4288085770
15.220612 -4.0739021 -2.4931383 4288085770
8.6103821 -2.4913158 -2.1150579 4288085770
15.848633 -4.0970573 -2.543416 4288085770
8.8043518 -2.4567556 -2.1247263 4288085770
16.627655 -4.1437616 -2.6102543 4288085770
8.9413452 -2.4073687 -2.1231766 4288085770
17.532684 -4.2090921 -2.6885633 4288085770
9.1713257 -2.3776999 -2.1369781 4288085770
9.4033508 -2.3460283 -2.1487856 4288085770
9.6613464 -2.31528 -2.1626873 4288085770
9.9413147 -2.2864666 -2.1776676 4288085770
10.221313 -2.2556553 -2.1916485 4288085770
10.515259 -2.222805 -2.2036781 4288085770
10.842285 -2.1938562 -2.2198277 4288085770
11.190277 -2.1648455 -2.2360544 4288085770
11.579254 -2.1377144 -2.2554293 4288085770
12.014221 -2.1144466 -2.279974 4288085770
12.447205 -2.0841913 -2.2985048 4288085770
12.95517 -2.0617104 -2.3253107 4288085770
13.515106 -2.0400782 -2.3563051 4288085770
14.084076 -2.0144234 -2.382328 4288085770
14.684052 -1.9856787 -2.4084606 4288085770
15.429993 -1.968503 -2.4481277 4288085770
17.247742 -2.0631208 -2.6277418 4288085770
15.723419 2.7608862 -2.3351297 4288085770
15.083588 2.7830315 -2.3008289 4288085770
14.493744 2.8073196 -2.2697029 4288085770
13.963898 2.8337831 -2.2407885 4288085770
13.475006 2.8603649 -2.2150211 4288085770
13.072113 2.8971977 -2.1975498 4288085770
12.673187 2.9290371 -2.1760979 4288085770
12.347229 2.9720964 -2.164896 4288085770
11.977356 3.0000172 -2.1425524 4288085770
11.66745 3.0371161 -2.1264124 4288085770
11.375488 3.0742674 -2.1113377 4288085770
11.07959 3.1074018 -2.0922518 4288085770
10.867615 3.1557875 -2.0854521 4288085770
10.637665 3.1971178 -2.0725946 4288085770
10.478668 3.2526541 -2.0699778 4288085770
10.288696 3.2981024 -2.0602589 4288085770
10.087708 3.3395128 -2.0475044 4288085770
9.9257202 3.3880377 -2.0388832 4288085770
9.7807007 3.4406118 -2.0313177 4288085770
9.6487122 3.495225 -2.0257978 4288085770
9.5187378 3.547843 -2.0182867 4288085770
9.4176941 3.6085443 -2.0138712 4288085770
9.2987061 3.6611929 -2.0053988 4288085770
9.2206116 3.7269621 -2.0030622 4288085770
9.1615601 3.7977877 -2.0017872 4288085770
9.061554 3.8524885 -1.9923811 4288085770
17.763977 6.6926107 -2.4689398 4288085770
8.9795532 3.9142408 -1.985034 4288085770
17.51297 6.760869 -2.4459829 4288085770
8.9474487 3.9911432 -1.9848499 4288085770
17.157135 6.7908182 -2.4076853 4288085770
8.8913879 4.0599718 -1.9795885 4288085770
17.089935 6.9176188 -2.4043341 4288085770
8.8882446 4.1459589 -1.9825001 4288085770
16.796051 6.9607458 -2.3692455 4288085770
8.8521729 4.2218466 -1.978303 4288085770
16.68988 7.0694265 -2.3557692 4288085770
8.8390808 4.3038015 -1.9761829 4288085770
16.957214 7.3162069 -2.3885059 4288085770
8.8589172 4.3998537 -1.9801674 4288085770
17.60495 7.7141047 -2.4654675 4282675967
8.9017334 4.5059748 -1.9862261 4288085770
8.9385681 4.610074 -1.9892645 4288085770
8.9743958 4.7141714 -1.9912996 4288085770
9.0551147 4.8364 -1.9994783 4288085770
9.1118774 4.9505568 -2.0025797 4288085770
9.1337585 5.0506086 -1.9985685 4288085770
9.2434692 5.1899214 -2.0068359 4288085770
9.3142395 5.313117 -2.0079794 4288085770
9.3959961 5.4413443 -2.0081568 4288085770
9.5086975 5.5866594 -2.0124283 4288085770
9.6542969 5.7480745 -2.0218048 4288085770
9.7650757 5.8943815 -2.0210695 4288085770
9.9116821 6.0597944 -2.0264454 4288085770
10.124176 6.2614031 -2.0390244 4288085770
10.347656 6.4690428 -2.0516376 4288085770
10.574158 6.6816854 -2.0622578 4288085770
10.892456 6.9446039 -2.0851612 4288085770
11.107971 7.1582098 -2.0877399 4288085770
11.429291 7.4301271 -2.1036463 4288085770
11.764557 7.7130842 -2.1185923 4288085770
12.183655 8.0482855 -2.1417913 4288085770
16.137878 -0.81865788 -2.4750051 4288085770
14.4263 -0.7795887 -2.3508968 4288085770
13.272583 -0.76289558 -2.2897863 4288085770
12.362793 -0.75249767 -2.2505474 4288085770
11.463074 -0.73607922 -2.2013397 4288085770
10.688293 -0.72229862 -2.1625767 4288085770
9.9844666 -0.70831871 -2.1260653 4288085770
17.940247 -1.2235022 -2.6377459 4288085770
9.3406982 -0.69416618 -2.0927677 4288085770
15.255798 -1.0862684 -2.4010992 4288085770
8.7718506 -0.68079662 -2.063736 4288085770
13.985016 -1.0349083 -2.3345432 4288085770
8.263031 -0.6682539 -2.0409184 4288085770
12.864227 -0.98812008 -2.2735233 4288085770
7.8181763 -0.65752888 -2.0233288 4288085770
11.91037 -0.94785213 -2.2261028 4288085770
7.4143372 -0.6476841 -2.0098858 4288085770
11.081543 -0.91122437 -2.1851273 4288085770
7.0044861 -0.63486099 -1.9884186 4288085770
10.315704 -0.87642097 -2.1453781 4288085770
6.6456299 -0.62388992 -1.9741344 4288085770
9.6318359 -0.84438133 -2.1099224 4288085770
6.3207397 -0.61381817 -1.9629698 4288085770
9.0090027 -0.81316948 -2.0756826 4288085770
6.0088806 -0.60271645 -1.9498529 4288085770
8.4661255 -0.786726 -2.0487318 4288085770
5.7380066 -0.59248829 -1.9428816 4288085770
8.0032654 -0.76305008 -2.0310669 4288085770
5.4661255 -0.58226967 -1.9329052 4288085770
7.5663757 -0.74030018 -2.0134954 4288085770
5.2302551 -0.57294273 -1.9280586 4288085770
7.1684875 -0.71943951 -1.9980631 4288085770
4.9733582 -0.5596838 -1.9151344 4288085770
6.7926025 -0.69751644 -1.9817085 4288085770
4.753479 -0.54931259 -1.9083433 4288085770
6.4437256 -0.67651749 -1.9664507 4288085770
4.5306091 -0.53695679 -1.8965397 4288085770
6.1278076 -0.65742207 -1.9543114 4288085770
4.3307495 -0.52553177 -1.8898182 4288085770
5.8459167 -0.63922691 -1.9472933 4288085770
4.1228638 -0.51313114 -1.878068 4288085770
5.5800171 -0.6219883 -1.939333 4288085770
3.9459839 -0.50163937 -1.8734293 4288085770
5.2961426 -0.60180759 -1.9233065 4288085770
3.7840576 -0.49210167 -1.8708439 4288085770
5.0622253 -0.58547688 -1.9174604 4288085770
3.5991821 -0.4786396 -1.8581743 4288085770
4.8293457 -0.56714439 -1.9076166 4288085770
3.4213257 -0.46415901 -1.8445292 4288085770
4.6024475 -0.54980087 -1.895793 4288085770
3.2674561 -0.45260429 -1.8369713 4288085770
4.3985901 -0.53238583 -1.8880539 4288085770
3.134552 -0.44198513 -1.8354883 4288085770
4.206665 -0.51593971 -1.8803558 4288085770
4.0237732 -0.49946499 -1.8726912 4288085770
3.8448792 -0.48298264 -1.8640394 4288085770
3.6959534 -0.46940708 -1.8634977 4288085770
3.5150452 -0.45093536 -1.8488379 4288085770
3.3502197 -0.43341255 -1.8372355 4288085770
3.2012939 -0.41784668 -1.8286915 4288085770
3.0614014 -0.4022522 -1.8211794 4288085770
3.1030579 1.5480452 -1.7623272 4288085770
3.2301331 1.5703955 -1.7637558 4288085770
3.3851318 1.5998297 -1.7722759 4288085770
