# .PCD v0.7 - Point Cloud Data file format
VERSION 0.7
FIELDS x y z rgb
SIZE 4 4 4 4
TYPE F F F U
COUNT 1 1 1 1
WIDTH 1106
HEIGHT 1
VIEWPOINT 0 0 0 1 0 0 0
POINTS 1106
DATA ascii
-2.2982178 -0.18412971 -1.8188971 4288085770
-0.038299561 -0.36014938 -1.7685558 4288085770
-2.1122742 -0.16773033 -1.8128314 4288085770
0.34698486 -0.35027695 -1.772014 4288085770
-1.8891907 -0.15406132 -1.8117435 4288085770
0.77636719 -0.3420763 -1.776262 4288085770
-1.6914062 -0.13756943 -1.8023512 4288085770
1.2698669 -0.33540344 -1.7837504 4288085770
-1.4705505 -0.12090588 -1.7943274 4288085770
1.8183594 -0.3283186 -1.7917303 4288085770
-1.1964417 -0.1058569 -1.7928442 4288085770
2.376709 -0.32015038 -1.7944424 4288085770
-0.987854 -0.086268425 -1.776161 4288085770
3.0021362 -0.31148338 -1.7993176 4288085770
-0.68579102 -0.072003365 -1.7729104 4288085770
3.7116699 -0.30418968 -1.8048863 4288085770
-0.35171509 -0.057506561 -1.7707825 4288085770
4.5433655 -0.29998875 -1.8141018 4288085770
-0.0097351074 -0.04093647 -1.764442 4288085770
5.4781189 -0.29501724 -1.8244946 4288085770
0.42156982 -0.027721405 -1.7686497 4288085770
6.5489197 -0.29102898 -1.8351564 4288085770
0.92501831 -0.014970779 -1.7758809 4288085770
7.9995117 -0.29623699 -1.8663967 4288085770
1.4825134 -0.0018186569 -1.7846327 4288085770
9.649231 -0.30195618 -1.8981804 4288085770
2.0749207 0.012600899 -1.7904292 4288085770
2.7564392 0.026679993 -1.7997842 4288085770
3.4558105 0.042907715 -1.8016546 4288085770
4.3215332 0.057362556 -1.8139663 4288085770
5.2901611 0.074591637 -1.8234618 4288085770
6.3969116 0.091850281 -1.8351748 4288085770
7.8331604 0.10955048 -1.8608631 4288085770
9.5777588 0.12754631 -1.8931068 4288085770
9.6679077 0.5314436 -1.8779999 4288085770
7.8806152 0.52572823 -1.8495228 4288085770
6.3354187 0.52188015 -1.8206081 4288085770
5.1627808 0.5208683 -1.8087964 4288085770
4.1291809 0.51992798 -1.7972852 4288085770
3.2236633 0.52097225 -1.7853712 4288085770
2.4462585 0.52399254 -1.7780536 4288085770
10.125946 0.63800049 -1.8742272 4288085770
1.7117615 0.52635574 -1.7655908 4288085770
8.2054749 0.6332674 -1.8402696 4288085770
1.0884399 0.52956486 -1.7581748 4288085770
6.6713562 0.63149166 -1.8150481 4288085770
0.53814697 0.53433323 -1.7518193 4288085770
5.4596558 0.6321764 -1.8022637 4288085770
0.053955078 0.53860569 -1.7487047 4288085770
4.4361267 0.63430595 -1.7934793 4288085770
-0.35003662 0.54448318 -1.7514644 4288085770
3.4925842 0.63605309 -1.7815667 4288085770
-0.68887329 0.55085278 -1.7604939 4288085770
2.722229 0.64012432 -1.7760562 4288085770
-1.0167542 0.5573101 -1.7662314 4288085770
1.9797058 0.64442062 -1.7638018 4288085770
-1.3056335 0.56406784 -1.7729319 4288085770
1.3292847 0.6484251 -1.754099 4288085770
-1.5643616 0.57205009 -1.7838352 4288085770
0.74893188 0.65296555 -1.7455348 4288085770
-1.8122253 0.58012009 -1.7914466 4288085770
0.26373291 0.65922737 -1.7424463 4288085770
-2.0570984 0.58821869 -1.7969782 4288085770
-0.15029907 0.66602898 -1.7444695 4288085770
-2.2648315 0.59659576 -1.8065253 4288085770
-0.4680481 0.67455101 -1.7569408 4288085770
-2.5078735 0.6037178 -1.8060024 4288085770
-0.83712769 0.68170452 -1.7557677 4288085770
-2.6916809 0.6122818 -1.8149114 4288085770
-1.1189575 0.69151211 -1.7652842 4288085770
-2.8795471 0.62182045 -1.819929 4288085770
-1.3837585 0.7004509 -1.7733469 4288085770
-3.0453491 0.63052368 -1.8273591 4288085770
-1.6416321 0.70944691 -1.7792239 4288085770
-3.2182617 0.63917923 -1.830976 4288085770
-1.865448 0.71969986 -1.7891982 4288085770
-3.3650513 0.64902687 -1.8389025 4288085770
-2.0943298 0.72892094 -1.7933043 4288085770
-3.5200195 0.65882206 -1.8420428 4288085770
-2.3313904 0.73808956 -1.7936234 4288085770
-3.6608276 0.66872215 -1.84781 4288085770
-2.5272217 0.74756527 -1.7998518 4288085770
-3.8057861 0.67759609 -1.8496821 4288085770
-2.7050781 0.75817585 -1.8066034 4288085770
-3.9245911 0.68866253 -1.856866 4288085770
-2.8718872 0.76887035 -1.8140627 4288085770
-4.0646057 0.69757748 -1.8566055 4288085770
-3.0227356 0.78068542 -1.8220983 4288085770
-4.1835327 0.70765114 -1.8597882 4288085770
-3.1926575 0.79036903 -1.8246357 4288085770
-4.3034973 0.71771908 -1.8609973 4288085770
-3.3274536 0.80230904 -1.8322463 4288085770
-4.4073486 0.72790337 -1.8657807 4288085770
-3.4734497 0.81217575 -1.8341461 4288085770
-3.603302 0.82415771 -1.8406235 4288085770
-3.741272 0.83508682 -1.8423123 4288085770
-3.8833313 0.84398937 -1.8401041 4288085770
-3.9841003 0.85719204 -1.8488125 4288085770
-4.085968 0.86939144 -1.8545458 4288085770
-4.2069702 0.88045406 -1.8537829 4288085770
-4.3068848 0.89167213 -1.8564616 4288085770
-4.414917 0.90283489 -1.8563533 4288085770
-4.4141541 3.0785971 -1.8249493 4288085770
-4.3104248 3.1234055 -1.8203042 4288085770
-4.1716614 3.1844759 -1.8237665 4288085770
-4.0810547 3.2191982 -1.8124472 4288085770
-3.957428 3.2701654 -1.8082886 4288085770
-3.8337708 3.3191328 -1.8031262 4288085770
-3.6740417 3.3833694 -1.8050439 4288085770
-3.5203552 3.4435616 -1.8041134 4288085770
-4.4754944 3.00807 -1.8325121 4288085770
-3.3797302 3.4956684 -1.7975119 4288085770
-4.3727722 3.0428762 -1.8268754 4288085770
-3.2161255 3.5579395 -1.7953237 4288085770
-4.2328796 3.0929546 -1.8302919 4288085770
-3.0484924 3.618247 -1.7920275 4288085770
-4.1321716 3.1227503 -1.8216999 4288085770
-2.8608704 3.6877041 -1.791222 4288085770
-4.0074158 3.1637259 -1.8174967 4288085770
-2.6672363 3.7572107 -1.7902595 4288085770
-3.8856812 3.1996794 -1.8123636 4288085770
-2.4716492 3.825736 -1.7862444 4288085770
-3.7519226 3.2417221 -1.8079268 4288085770
-2.2791138 3.8892431 -1.7802997 4288085770
-3.604187 3.2858763 -1.8051251 4288085770
-2.087677 3.9507465 -1.771379 4288085770
-3.4533997 3.3310499 -1.8032471 4288085770
-1.881134 4.0173664 -1.7650735 4288085770
-3.3077393 3.3721895 -1.7974945 4288085770
-1.6616516 4.0860863 -1.7574311 4288085770
-3.1650085 3.4093103 -1.7908139 4288085770
-1.4312134 4.1568928 -1.7495044 4288085770
-2.9962769 3.4576254 -1.7874705 4288085770
-1.1977844 4.2257233 -1.740496 4288085770
-2.8245544 3.5029688 -1.7830433 4288085770
-0.91030884 4.3169632 -1.7381092 4288085770
-2.6277771 3.5574942 -1.7839745 4288085770
-0.58987427 4.4184532 -1.7388734 4288085770
-2.427063 3.6120577 -1.7818028 4288085770
-0.29348755 4.5057716 -1.7322458 4288085770
-2.2163086 3.667696 -1.7813703 4288085770
0.080932617 4.6236801 -1.734624 4288085770
-2.0306396 3.7091532 -1.773571 4288085770
0.53137207 4.7681656 -1.7450535 4288085770
-1.8480225 3.747591 -1.7638459 4288085770
0.99072266 4.911726 -1.7522476 4288085770
-1.6413269 3.793211 -1.7565036 4288085770
1.5220642 5.0798378 -1.7645959 4288085770
-1.4266663 3.838891 -1.7499515 4288085770
2.156311 5.2847366 -1.7853062 4288085770
-1.20401 3.8856363 -1.7431918 4288085770
2.7835693 5.4775906 -1.8001814 4288085770
-0.94332886 3.9446678 -1.7404566 4288085770
3.4127502 5.6654682 -1.8099986 4288085770
-0.63555908 4.0190544 -1.744514 4288085770
3.994751 5.8250046 -1.8070027 4288085770
-0.36791992 4.0731468 -1.738588 4288085770
4.7997742 6.0652409 -1.8252963 4288085770
-0.15332031 4.1028404 -1.7240115 4288085770
5.4796143 6.246542 -1.8217714 4288085770
0.28250122 4.2152023 -1.740777 4288085770
6.3714905 6.4994621 -1.8358099 4288085770
0.60714722 4.2787361 -1.7363738 4288085770
7.4621582 6.8149128 -1.85874 4288085770
0.97183228 4.3525753 -1.7359389 4288085770
8.705658 7.1745472 -1.8867376 4288085770
1.417572 4.4510288 -1.7444216 4288085770
9.8090515 7.4661331 -1.8932931 4288085770
1.919342 4.564909 -1.7574625 4288085770
2.4100037 4.667717 -1.7647748 4288085770
2.9938049 4.7952309 -1.7806904 4288085770
3.6044922 4.9239597 -1.7949017 4288085770
4.2041626 5.0426121 -1.8043859 4288085770
4.8538208 5.1696491 -1.8165745 4288085770
5.4604187 5.2733707 -1.8188525 4288085770
6.1430664 5.3926754 -1.8261653 4288085770
6.9006958 5.5265598 -1.8355381 4288085770
7.7803345 5.6863785 -1.8537571 4288085770
8.710022 5.8505898 -1.8706751 4288085770
9.6615601 6.0069809 -1.8830051 4288085770
10.545563 -4.6011043 -1.7898463 4293729569
9.9086914 -4.5691195 -1.8085728 4293729569
10.345612 -4.756978 -0.93655038 4293729569
9.3208923 -4.5417542 -1.8280078 4293729569
9.8358154 -4.7480626 -0.98692703 4293729569
8.7611084 -4.5131698 -1.8477118 4293729569
9.1522827 -4.6854901 -1.0289295 4293729569
8.247406 -4.4912291 -1.8691984 4293729569
8.8149109 -4.7112355 -1.0827415 4293729569
7.7657776 -4.4690399 -1.8918481 4288085770
8.3128052 -4.6832519 -1.1279438 4293729569
7.2498474 -4.4311085 -1.9084151 4288085770
7.8598022 -4.6638832 -1.1728461 4293729569
6.6021423 -4.3471775 -1.9104983 4288085770
7.4047241 -4.6375322 -1.2178147 4293729569
5.8858337 -4.2347589 -1.9004151 4288085770
6.9946899 -4.6188269 -1.2625916 4293729569
5.1382446 -4.1035709 -1.8831778 4288085770
6.5936279 -4.5970507 -1.306139 4293729569
4.5241394 -4.0023603 -1.8764033 4288085770
6.2598572 -4.5927558 -1.3529003 4293729569
3.9381104 -3.904932 -1.8698885 4288085770
5.8645935 -4.5609274 -1.3933091 4293729569
3.425293 -3.8209362 -1.8664385 4288085770
5.5266113 -4.5436583 -1.4361992 4293729569
2.9465942 -3.7416716 -1.8650846 4288085770
5.3703918 -4.5809841 -1.4912479 4293729569
2.5150452 -3.6720514 -1.8664875 4288085770
5.228302 -4.6222119 -1.5489266 4293729569
2.0904541 -3.5993748 -1.8667126 4288085770
4.5391846 -4.4706163 -1.5561986 4293729569
1.6415405 -3.5118742 -1.8595941 4288085770
3.926239 -4.3364277 -1.5644503 4293729569
1.2338257 -3.4340582 -1.856384 4288085770
3.5274048 -4.2706017 -1.5910013 4293729569
0.84906006 -3.3580608 -1.8515691 4288085770
3.2913818 -4.2595296 -1.6312115 4293729569
0.50354004 -3.2907667 -1.8517168 4288085770
3.0593872 -4.2454276 -1.6713226 4293729569
0.19317627 -3.2342043 -1.8549278 4288085770
2.8373413 -4.2322445 -1.7111703 4293729569
-0.10519409 -3.1755457 -1.8568293 4288085770
2.6404419 -4.2248697 -1.7523532 4293729569
-0.45812988 -3.0932884 -1.8471889 4288085770
2.4475098 -4.216464 -1.7934328 4293729569
-0.78488159 -3.0168352 -1.8398567 4288085770
2.2645569 -4.2079806 -1.8352512 4288085770
-1.0593567 -2.9559832 -1.8391343 4288085770
2.0040283 -4.166081 -1.8651471 4288085770
-1.2785034 -2.9137144 -1.8459375 4288085770
1.5862732 -4.0583591 -1.8692489 4288085770
-1.5218811 -2.8586226 -1.8463931 4288085770
1.1643066 -3.9416618 -1.8694724 4288085770
-1.7370605 -2.8123198 -1.8510988 4288085770
0.7694397 -3.8327541 -1.8689754 4288085770
-1.9402466 -2.7679224 -1.8554875 4288085770
0.39459229 -3.7266884 -1.86895 4288085770
-2.1636658 -2.7126713 -1.8544201 4288085770
0.046844482 -3.6274157 -1.8702054 4288085770
-2.3477783 -2.6701269 -1.8603078 4288085770
-0.34844971 -3.5034904 -1.8597375 4288085770
-2.5299683 -2.626564 -1.8641454 4288085770
-0.67025757 -3.4070063 -1.8573084 4288085770
-2.7061462 -2.5839577 -1.8688238 4288085770
-1.0123596 -3.2966681 -1.8484291 4288085770
-2.8753357 -2.5412912 -1.8723196 4288085770
-1.276886 -3.2177486 -1.8514755 4288085770
-3.0354309 -2.5005598 -1.8775759 4288085770
-1.5233154 -3.1436863 -1.8550422 4288085770
-3.1905823 -2.4597855 -1.8817017 4288085770
-1.7587891 -3.0705385 -1.8583196 4288085770
-3.3488159 -2.4150333 -1.8839136 4288085770
-1.979187 -3.0012722 -1.8611978 4288085770
-3.5070801 -2.369276 -1.8841279 4288085770
-2.1986694 -2.9309978 -1.8630514 4288085770
-3.6482544 -2.3283901 -1.8868878 4288085770
-2.4111328 -2.8596668 -1.8637244 4288085770
-3.7763672 -2.292408 -1.8922982 4288085770
-2.5924377 -2.8010988 -1.8695621 4288085770
-3.8953552 -2.258359 -1.8994693 4288085770
-2.7808533 -2.7365808 -1.8705952 4288085770
-4.0194702 -2.2203398 -1.9027793 4288085770
-2.94104 -2.6838503 -1.8768727 4288085770
-4.1507568 -2.177371 -1.9022824 4288085770
-3.1225281 -2.6182728 -1.8757249 4288085770
-4.2597961 -2.14324 -1.9071926 4288085770
-3.2646484 -2.5694036 -1.8825248 4288085770
-4.3790283 -2.1021776 -1.9073782 4288085770
-3.4190063 -2.5116177 -1.8836564 4288085770
-3.558197 -2.4617195 -1.8883801 4288085770
-3.6984863 -2.4078283 -1.8911377 4288085770
-3.8297729 -2.3578634 -1.8926533 4288085770
-3.9428711 -2.3137674 -1.8996862 4288085770
-4.0691528 -2.262763 -1.9010729 4288085770
-4.1823425 -2.2166586 -1.9041103 4288085770
-4.2996521 -2.1665821 -1.9042604 4288085770
-4.4159851 -2.1154947 -1.9033864 4288085770
-4.3944092 0.030426025 -1.8704277 4288085770
-4.2893372 0.04324913 -1.870744 4288085770
-4.1974182 0.056980133 -1.8654004 4288085770
-4.0743103 0.068943977 -1.86725 4288085770
-3.9925537 0.083607674 -1.8561693 4288085770
-3.8836365 0.097472191 -1.8513875 4288085770
-3.7495422 0.10952568 -1.8519547 4288085770
-3.6175537 0.12256908 -1.8495766 4288085770
-3.4825745 0.13563728 -1.8461221 4288085770
-4.4177246 0.20221233 -1.8694112 4288085770
-3.3506165 0.14968586 -1.8397486 4288085770
-4.2935791 0.21318531 -1.8712341 4288085770
-3.2097168 0.16280556 -1.834141 4288085770
-4.1866455 0.22503376 -1.8665004 4288085770
-3.0547485 0.17603397 -1.8301721 4288085770
-4.0726929 0.23693752 -1.8625861 4288085770
-2.8887634 0.18834782 -1.8259176 4288085770
-3.9446716 0.24894714 -1.8603103 4288085770
-2.730896 0.2026062 -1.8178754 4288085770
-3.8096313 0.26101208 -1.8588539 4288085770
-2.5680542 0.21590805 -1.8087033 4288085770
-3.6806946 0.27203655 -1.8535523 4288085770
-2.3700562 0.22847366 -1.8046247 4288085770
-3.5447693 0.28411674 -1.8480726 4288085770
-2.1419678 0.24127102 -1.8047711 4288085770
-3.3977966 0.29528141 -1.8443067 4288085770
-1.9179688 0.25404549 -1.8000228 4288085770
-3.237793 0.30754948 -1.8402082 4288085770
-1.6920776 0.26784134 -1.7932268 4288085770
-3.0949402 0.31869411 -1.8305486 4288085770
-1.4360657 0.28086758 -1.7886547 4288085770
-2.9179382 0.33009243 -1.8270105 4288085770
-1.214325 0.2946434 -1.7739662 4288085770
-2.7128296 0.34171009 -1.8267493 4288085770
-0.9303894 0.30789566 -1.7676742 4288085770
-2.5410156 0.35308361 -1.8163435 4288085770
-0.58328247 0.32163429 -1.7667558 4288085770
-2.3561707 0.36556339 -1.8056054 4288085770
-0.25234985 0.33526325 -1.7582542 4288085770
-2.1281738 0.37636566 -1.8017521 4288085770
0.11566162 0.34917831 -1.7517985 4288085770
-1.8981934 0.38819122 -1.795851 4288085770
0.5859375 0.36288261 -1.7557079 4288085770
-1.649231 0.3991642 -1.7904583 4288085770
1.1202698 0.37708569 -1.7619674 4288085770
-1.4073792 0.41109562 -1.7792511 4288085770
1.7267456 0.39085865 -1.7703694 4288085770
-1.1133728 0.42242336 -1.7736999 4288085770
2.3961792 0.40712833 -1.7781532 4288085770
-0.83154297 0.433671 -1.7624612 4288085770
3.146698 0.42303753 -1.7868487 4288085770
-0.47747803 0.44547176 -1.7593641 4288085770
3.9851379 0.43964481 -1.794278 4288085770
-0.089324951 0.45653725 -1.7573894 4288085770
4.95578 0.45828724 -1.8063076 4288085770
0.31674194 0.46875191 -1.7529547 4288085770
6.0253906 0.47771835 -1.8147899 4288085770
0.85519409 0.4809866 -1.7621123 4288085770
7.4615479 0.50000858 -1.8418345 4288085770
1.4154968 0.49340153 -1.7657064 4288085770
9.0755615 0.52472305 -1.8613008 4288085770
2.0950012 0.50675011 -1.7752334 4288085770
2.8546143 0.52072716 -1.7876997 4288085770
3.6721497 0.53516674 -1.7956759 4288085770
4.6558533 0.5509119 -1.8093748 4288085770
5.682373 0.56701279 -1.8149713 4288085770
6.9873047 0.58528805 -1.8334049 4288085770
8.7177734 0.60789394 -1.8688893 4288085770
9.9037476 1.0033607 -1.8844622 4288085770
8.0753479 0.99226379 -1.843855 4288085770
6.7477112 0.99126148 -1.8308389 4288085770
5.5559692 0.98940372 -1.8114415 4288085770
4.5744934 0.99127007 -1.8018311 4288085770
3.6989746 0.99302101 -1.7895861 4288085770
2.9707031 0.99797916 -1.7846937 4288085770
2.2372437 0.99991226 -1.770919 4288085770
9.7264709 1.4339819 -1.8619996 4288085770
1.5917664 1.0025759 -1.7579576 4288085770
8.1597595 1.4080067 -1.8408495 4288085770
1.0104065 1.0047693 -1.7454053 4288085770
6.7810059 1.3836021 -1.8160338 4288085770
0.5652771 1.0130682 -1.7454854 4288085770
5.6043396 1.3638668 -1.7952094 4288085770
0.13113403 1.0204639 -1.7422904 4288085770
4.7522278 1.3597841 -1.7943696 4288085770
-0.21884155 1.0305433 -1.7460129 4288085770
3.9479675 1.3541079 -1.7893333 4288085770
-0.48461914 1.0452995 -1.7596574 4288085770
3.1646118 1.3456221 -1.7757695 4288085770
-0.82678223 1.0534601 -1.7561772 4288085770
2.4471741 1.336689 -1.7615647 4288085770
-1.0514832 1.0685558 -1.7708031 4288085770
1.8288574 1.3315716 -1.7499088 4288085770
-1.3245239 1.0782804 -1.7706115 4288085770
1.2284241 1.3236151 -1.7327995 4288085770
-1.5534058 1.0903578 -1.7773305 4288085770
0.75723267 1.3237066 -1.7275028 4288085770
-1.8014526 1.100296 -1.7765177 4288085770
0.42941284 1.3349543 -1.7376779 4288085770
-2.0024109 1.1126108 -1.7815417 4288085770
0.021270752 1.3355713 -1.731817 4288085770
-2.201355 1.1249428 -1.785516 4288085770
-0.28866577 1.3439789 -1.7365383 4288085770
-2.3862915 1.137394 -1.7891426 4288085770
-0.55554199 1.3557377 -1.744199 4288085770
-2.5552368 1.1499739 -1.7933718 4288085770
-0.86865234 1.3601389 -1.7409863 4288085770
-2.7000427 1.1657457 -1.8020116 4288085770
-1.0934753 1.3732462 -1.7496065 4288085770
-2.8600159 1.1784067 -1.805017 4288085770
-1.3485107 1.3811216 -1.7489605 4288085770
-2.993927 1.1922741 -1.8113792 4288085770
-1.543396 1.3934803 -1.7568339 4288085770
-3.1248169 1.2071695 -1.8166693 4288085770
-1.7352905 1.4058666 -1.7626327 4288085770
-3.251709 1.221096 -1.8218578 4288085770
-1.9071655 1.4204178 -1.7699398 4288085770
-3.3817139 1.2340078 -1.8231188 4288085770
-2.0971375 1.4308281 -1.7716848 4288085770
-3.4986572 1.2480211 -1.827059 4288085770
-2.2660828 1.4434109 -1.774913 4288085770
-3.6327209 1.2589073 -1.8254147 4288085770
-2.4210815 1.45611 -1.7787937 4288085770
-3.7446899 1.2729673 -1.8272308 4288085770
-2.5820618 1.4677649 -1.779821 4288085770
-3.8305664 1.2892313 -1.8344055 4288085770
-2.7129211 1.4826574 -1.7861103 4288085770
-3.9104004 1.3065434 -1.8434335 4288085770
-2.8629761 1.4934034 -1.7858623 4288085770
-2.9758606 1.5104485 -1.7917097 4288085770
-3.0827332 1.5265398 -1.7984055 4288085770
-3.1996765 1.540555 -1.8013451 4288085770
-3.3237305 1.5525217 -1.8004543 4288085770
-3.416687 1.570734 -1.8058076 4288085770
-3.5166321 1.5848904 -1.8083253 4288085770
-3.620697 1.5990219 -1.8079424 4288085770
-3.7146606 1.6142321 -1.8093139 4288085770
-3.8006592 1.6305056 -1.811489 4288085770
-3.8866882 1.6457844 -1.812662 4288085770
-3.9586487 1.6641731 -1.8164941 4288085770
-3.9429016 3.854105 -1.8324013 4288085770
-3.8664856 3.9167614 -1.8246574 4288085770
-3.7649841 3.9936123 -1.8233286 4288085770
-3.6595459 4.0725002 -1.8209063 4288085770
-3.5471802 4.1544476 -1.8173189 4288085770
-3.4077759 4.2526093 -1.8201022 4288085770
-3.286438 4.337635 -1.8153014 4288085770
-3.1401062 4.4378605 -1.8149184 4288085770
-2.9898376 4.5391235 -1.8134403 4288085770
-2.8285828 4.6454754 -1.8127029 4288085770
-2.7053833 4.724535 -1.799843 4288085770
-3.9627075 3.9918976 -1.8342921 4288085770
-2.5452271 4.8278942 -1.793126 4288085770
-3.8462524 4.0648804 -1.8305861 4288085770
-2.3751221 4.9343319 -1.7871699 4288085770
-3.7247925 4.1389046 -1.8267598 4288085770
-2.1750183 5.058012 -1.7855138 4288085770
-3.5783997 4.2271328 -1.8263495 4288085770
-1.9429626 5.2009583 -1.7871134 4288085770
-3.446991 4.3032436 -1.8212827 4288085770
-1.7139587 5.3388824 -1.7847773 4288085770
-3.3026428 4.3864632 -1.8169123 4288085770
-1.4880676 5.4717903 -1.7785053 4288085770
-3.1312866 4.4838982 -1.8169087 4288085770
-1.229187 5.62397 -1.7754645 4288085770
-2.967926 4.5752716 -1.8140893 4288085770
-0.95037842 5.7853165 -1.7729532 4288085770
-2.8006592 4.6656895 -1.8081708 4288085770
-0.67166138 5.9436703 -1.7664368 4288085770
-2.6493835 4.744976 -1.798622 4288085770
-0.32705688 6.1385593 -1.767378 4288085770
-2.4551697 4.8476181 -1.7940673 4288085770
0.055419922 6.3557663 -1.7694358 4288085770
-2.2639465 4.9462318 -1.7885779 4288085770
0.59066772 6.6622086 -1.7909276 4288085770
-2.0258179 5.0712299 -1.7889909 4288085770
1.1317749 6.9677181 -1.8072728 4288085770
-1.7896729 5.1922112 -1.7874451 4288085770
1.6777954 7.2712746 -1.8184935 4288085770
-1.5555725 5.3081875 -1.7829386 4288085770
2.2277222 7.5698853 -1.8226076 4288085770
-1.3094788 5.4272652 -1.7771447 4288085770
2.9082947 7.9425678 -1.8376666 4288085770
-1.0244446 5.5676594 -1.7764393 4288085770
3.6227112 8.3285427 -1.8499222 4288085770
-0.73449707 5.7070999 -1.7726105 4288085770
-0.43359375 5.8486385 -1.7675166 4288085770
-0.089752197 6.0125237 -1.7674155 4288085770
0.38894653 6.2505074 -1.7841591 4288085770
0.8475647 6.4703407 -1.7923567 4288085770
1.3920593 6.7348766 -1.80954 4288085770
1.9464417 6.9975033 -1.8214757 4288085770
2.5397339 7.2744598 -1.8344862 4288085770
3.0739746 7.5109539 -1.8318609 4288085770
3.7420349 7.8145409 -1.8430915 4288085770
4.5348816 8.178154 -1.8633924 4288085770
10.866089 -2.2140322 -1.9689221 4288085770
9.6578369 -2.1691694 -1.944626 4288085770
8.5596619 -2.1233788 -1.9216337 4288085770
7.5766296 -2.0836287 -1.9028066 4288085770
6.6445923 -2.0394468 -1.8827385 4288085770
5.8347778 -2.0022459 -1.8676624 4288085770
5.1211853 -1.9732466 -1.858212 4288085770
4.5148621 -1.9523573 -1.8551185 4288085770
3.912384 -1.9254293 -1.8489408 4288085770
3.3549805 -1.8991251 -1.8446578 4288085770
2.8235168 -1.8695936 -1.8367455 4288085770
10.879913 -3.3999672 -1.9862866 4288085770
2.3039551 -1.8369608 -1.8275458 4288085770
9.4785767 -3.2367315 -1.9599575 4288085770
1.8747559 -1.8165846 -1.8271097 4288085770
8.2012939 -3.0834465 -1.9325655 4288085770
1.4273071 -1.7853489 -1.820141 4288085770
7.0461426 -2.9401312 -1.90516 4288085770
1.0269775 -1.7607222 -1.8170035 4288085770
5.9951172 -2.8049412 -1.8791862 4288085770
0.71304321 -1.7473898 -1.8227308 4288085770
5.0814209 -2.6876049 -1.8578123 4288085770
0.3729248 -1.7262659 -1.8231134 4288085770
4.3513794 -2.60075 -1.8498805 4288085770
-0.0076293945 -1.6924582 -1.8135077 4288085770
3.7055359 -2.5251942 -1.845863 4288085770
-0.2755127 -1.6787386 -1.820107 4288085770
3.0655518 -2.4435749 -1.8357131 4288085770
-0.61499023 -1.6465883 -1.8114918 4288085770
2.5409546 -2.3810053 -1.8356991 4288085770
-0.92440796 -1.616188 -1.8051367 4288085770
1.9910889 -2.3076305 -1.8273239 4288085770
-1.1523132 -1.6031332 -1.8117536 4288085770
1.5184021 -2.2466145 -1.8230323 4288085770
-1.3812866 -1.5860786 -1.8154049 4288085770
1.0708008 -2.1863909 -1.8201255 4288085770
-1.5932312 -1.5708838 -1.8206345 4288085770
0.65924072 -2.1308622 -1.8173257 4288085770
-1.7961731 -1.5556173 -1.8266435 4288085770
0.33410645 -2.0926275 -1.8243765 4288085770
-1.9910889 -1.5402813 -1.8324564 4288085770
-0.0052185059 -2.0474997 -1.8257872 4288085770
-2.1750183 -1.5258522 -1.8379978 4288085770
-0.33963013 -1.9993219 -1.8240829 4288085770
-2.3489075 -1.5113411 -1.844294 4288085770
-0.73156738 -1.9326038 -1.8108199 4288085770
-2.5712585 -1.4812098 -1.8388044 4288085770
-1.0632019 -1.8783884 -1.802057 4288085770
-2.7190552 -1.4704828 -1.8474541 4288085770
-1.2851562 -1.8502893 -1.8115594 4288085770
-2.8789978 -1.4528503 -1.8524144 4288085770
-1.5092163 -1.8202019 -1.8181158 4288085770
-3.0137939 -1.4410162 -1.8617475 4288085770
-1.7575073 -1.780304 -1.818284 4288085770
-3.1799316 -1.4194221 -1.8618646 4288085770
-1.9534302 -1.752984 -1.8271475 4288085770
-3.3319397 -1.3997202 -1.8646337 4288085770
-2.1535339 -1.7226887 -1.8321162 4288085770
-3.461792 -1.3858385 -1.8718492 4288085770
-2.3597107 -1.6874409 -1.8342439 4288085770
-3.5917053 -1.3689528 -1.877072 4288085770
-2.5448303 -1.6570168 -1.8378458 4288085770
-3.7287903 -1.3491192 -1.8784738 4288085770
-2.7057495 -1.6323996 -1.8458449 4288085770
-3.8699036 -1.3263149 -1.8779806 4288085770
-2.8768311 -1.60186 -1.8501035 4288085770
-3.0288391 -1.5761633 -1.8558853 4288085770
-3.1809082 -1.5484629 -1.8606718 4288085770
-3.3279419 -1.5207205 -1.8653358 4288085770
-3.4689636 -1.493928 -1.8698505 4288085770
-3.6050415 -1.4670916 -1.8732432 4288085770
-3.7451782 -1.4362841 -1.8747432 4288085770
-3.8621521 -1.4132891 -1.8796613 4288085770
-3.9475708 0.68260002 -1.8572172 4288085770
-3.8286743 0.69562531 -1.851362 4288085770
-3.6987 0.70873737 -1.8472397 4288085770
-3.5557251 0.72195911 -1.8448013 4288085770
-3.416748 0.7351532 -1.8394614 4288085770
-3.2658081 0.74844742 -1.8348302 4288085770
-3.1179504 0.76072121 -1.8272705 4288085770
-2.9490051 0.77417088 -1.8222032 4288085770
-3.9161987 0.74584103 -1.8556477 4288085770
-2.7781067 0.78764248 -1.815088 4288085770
-3.781189 0.75599384 -1.8523973 4288085770
-2.6011963 0.80016613 -1.8078253 4288085770
-3.6381836 0.76621914 -1.848953 4288085770
-2.4132996 0.81378269 -1.8002985 4288085770
-3.4871521 0.77650833 -1.8463144 4288085770
-2.1802063 0.82876587 -1.8006798 4288085770
-3.3462219 0.78572464 -1.838918 4288085770
-1.9562683 0.84268665 -1.7952793 4288085770
-3.1731873 0.79620075 -1.8367462 4288085770
-1.7223816 0.85669518 -1.7886369 4288085770
-3.011261 0.80559349 -1.8308402 4288085770
-1.4754333 0.87081337 -1.7816799 4288085770
-2.8493958 0.81399536 -1.8209335 4288085770
-1.1954651 0.8862133 -1.7759242 4288085770
-2.6312256 0.82584572 -1.8236715 4288085770
-0.93566895 0.89945698 -1.7636518 4288085770
-2.4734192 0.83222485 -1.808859 4288085770
-0.59460449 0.91636944 -1.7624179 4288085770
-2.2493896 0.84213829 -1.8064489 4288085770
-0.28378296 0.93004513 -1.7509089 4288085770
-2.0193787 0.852108 -1.8018944 4288085770
0.1192627 0.94848633 -1.7491747 4288085770
-1.7955017 0.86003876 -1.7924826 4288085770
0.54125977 0.96609974 -1.7439791 4288085770
-1.5505676 0.86914253 -1.7845637 4288085770
1.0574341 0.98849297 -1.7475108 4288085770
-1.2705078 0.87854099 -1.7797951 4288085770
1.6848145 1.0148191 -1.7583557 4288085770
-0.99960327 0.88587475 -1.7702422 4288085770
2.4153442 1.044014 -1.774706 4288085770
-0.68463135 0.89457607 -1.7636238 4288085770
3.1626892 1.0723715 -1.7836455 4288085770
-0.35964966 0.90336514 -1.7557639 4288085770
4.071228 1.1070824 -1.8006907 4288085770
0.0073852539 0.91151047 -1.7498829 4288085770
4.9574585 1.1366415 -1.8032632 4288085770
0.44256592 0.922225 -1.7493563 4288085770
5.9476013 1.1690979 -1.8023211 4288085770
0.93283081 0.93340302 -1.751496 4288085770
7.4105835 1.2195082 -1.8349565 4288085770
1.5091248 0.94730568 -1.7575542 4288085770
9.050415 1.2734499 -1.8613083 4288085770
2.2147522 0.96429062 -1.773487 4288085770
2.9963684 0.9819212 -1.7905774 4288085770
3.7928162 0.9957056 -1.7972993 4288085770
4.7394409 1.0127573 -1.8103882 4288085770
5.7960815 1.0307484 -1.8238115 4288085770
6.9095764 1.0442476 -1.8278456 4288085770
8.4967957 1.0707226 -1.8614255 4288085770
10.407257 1.0999498 -1.9001759 4288085770
-0.6333313 -4.2565408 -0.46831036 4293729569
-0.3649292 -4.2784257 -0.54584217 4293729569
-0.25790405 -4.2715979 -0.58330321 4293729569
0.029388428 -4.2883124 -0.65839267 4293729569
0.35784912 -4.3146768 -0.73547173 4293729569
0.51498413 -4.3204203 -0.77369905 4293729569
0.84829712 -4.3287416 -0.85070467 4293729569
1.02948 -4.3372774 -0.88934827 4293729569
1.4148865 -4.35215 -0.96708798 4293729569
1.6441956 -4.3712749 -1.0075507 4293729569
1.8176575 -4.348392 -0.44627213 4293729569
1.7598877 -4.3383574 -1.0398645 4293729569
2.0758057 -4.372242 -0.47602916 4293729569
2.0806885 -4.388711 -1.0870588 4293729569
2.3419189 -4.3950224 -0.50559664 4293729569
2.3340149 -4.4046311 -1.128953 4293729569
2.6019897 -4.4108543 -0.53532648 4293729569
2.5561829 -4.4058127 -1.1676307 4293729569
2.861969 -4.4226837 -0.56406689 4293729569
2.819519 -4.418643 -1.2082932 4293729569
3.1169739 -4.4285569 -0.59294295 4293729569
3.111908 -4.4392285 -1.2512388 4293729569
3.3788757 -4.4333668 -0.62065434 4293729569
3.3862 -4.4479661 -1.2926478 4293729569
3.6216736 -4.4273386 -0.64685059 4293729569
3.6182251 -4.4380555 -1.3291156 4293729569
4.0672913 -4.4915781 -0.68001103 4293729569
3.9889221 -4.474977 -1.3771441 4293729569
4.2215881 -4.4452991 -0.70142698 4293729569
4.2087402 -4.4511647 -1.4109371 4293729569
4.7192993 -4.5170908 -0.73531938 4293729569
4.7402039 -4.5337305 -1.4710014 4293729569
5.0140991 -4.5116086 -0.76026607 4293729569
5.2554932 -4.6034312 -1.5294845 4293729569
5.3469543 -4.5148015 -0.78627777 4293729569
5.5957947 -4.6065979 -1.5713234 4293729569
5.8163452 -4.5578251 -0.81591892 4293729569
5.540863 -4.4740801 -1.5769632 4293729569
6.2876282 -4.5918322 -0.84553552 4293729569
5.6497803 -4.395184 -1.5955455 4293729569
6.6724854 -4.5935707 -0.87030244 4293729569
5.9918823 -4.3863254 -1.633369 4293729569
7.0844116 -4.5980744 -0.89441466 4293729569
6.4424744 -4.4065514 -1.6805212 4293729569
7.5654907 -4.6169868 -0.92083192 4293729569
6.921051 -4.4275389 -1.7279991 4293729569
8.113739 -4.6493235 -0.9486053 4293729569
7.4197083 -4.4483547 -1.7769969 4293729569
8.8063965 -4.7144213 -0.97983479 4293729569
7.9835815 -4.4806175 -1.8294033 4293729569
9.1647339 -4.6793661 -0.99632573 4293729569
8.5452881 -4.5048914 -1.8798798 4293729569
10.00473 -4.7641993 -1.0309734 4293729569
9.1641846 -4.5336804 -1.9339744 4288085770
10.616699 -4.7789712 -1.0542579 4293729569
9.6463013 -4.5186138 -1.9734527 4288085770
9.8821106 -4.4346113 -1.9890012 4288085770
10.088745 -4.3408465 -1.9992726 4288085770
10.174805 -4.2170925 -1.9975075 4288085770
10.382324 -4.1203103 -2.0037646 4288085770
10.560608 -4.0137663 -2.004745 4288085770
10.76593 -3.9109926 -2.007067 4288085770
10.937073 -3.7985001 -2.0032325 4288085770
9.6742249 1.5966539 -1.8711576 4288085770
8.3804932 1.6003523 -1.8547976 4288085770
7.2658997 1.6046171 -1.8401988 4288085770
6.105011 1.5965157 -1.8086593 4288085770
5.25354 1.6040726 -1.7988379 4288085770
4.5842896 1.620204 -1.7977268 4288085770
3.940979 1.6305742 -1.7929851 4288085770
3.318634 1.6401396 -1.783744 4288085770
2.7593079 1.6482544 -1.7750071 4288085770
2.2559814 1.6588564 -1.7679495 4288085770
9.9637756 2.5482864 -1.8577511 4288085770
1.7425842 1.6633825 -1.7541139 4288085770
8.7764587 2.5149088 -1.8427739 4288085770
1.2862854 1.6704025 -1.7439339 4288085770
7.6059875 2.470705 -1.8163676 4288085770
0.86590576 1.6767445 -1.7318997 4288085770
6.6636963 2.4444733 -1.8016071 4288085770
0.51669312 1.6886902 -1.7271973 4288085770
5.8634338 2.4264832 -1.7895021 4288085770
0.21258545 1.7030258 -1.7254325 4288085770
5.2253418 2.4238882 -1.7876076 4288085770
-0.055541992 1.7206697 -1.7258283 4288085770
4.6011963 2.4174213 -1.782371 4288085770
-0.28256226 1.7416639 -1.7302612 4288085770
4.0710754 2.4187746 -1.7799287 4288085770
-0.44943237 1.7691689 -1.7422887 4288085770
3.5439148 2.4141655 -1.7723998 4288085770
-0.63543701 1.7925167 -1.7487561 4288085770
3.0677795 2.4129992 -1.7676713 4288085770
-0.8104248 1.8169651 -1.7549655 4288085770
2.5975647 2.407897 -1.7567914 4288085770
-0.95135498 1.8446989 -1.7653769 4288085770
2.1433105 2.4009361 -1.7455262 4288085770
-1.1123657 1.8672714 -1.7702501 4288085770
1.7510986 2.4005108 -1.7368106 4288085770
-1.260376 1.8919554 -1.7758205 4288085770
1.3728943 2.3982143 -1.7267582 4288085770
-1.4254456 1.9115028 -1.7767804 4288085770
1.0497131 2.4033899 -1.7204225 4288085770
-1.5825806 1.9311209 -1.7765512 4288085770
0.76358032 2.4118843 -1.7172189 4288085770
-1.7035828 1.9570389 -1.782485 4288085770
0.45141602 2.4121666 -1.7076098 4288085770
-1.8135376 1.9850559 -1.7891632 4288085770
0.2253418 2.4271774 -1.7080016 4288085770
-1.9466248 2.0058823 -1.7903683 4288085770
0.014221191 2.4433241 -1.7070417 4288085770
-2.048645 2.0319719 -1.7948526 4288085770
-0.17282104 2.4626751 -1.7095209 4288085770
-2.165741 2.0549402 -1.7956842 4288085770
-0.34286499 2.4841719 -1.7116036 4288085770
-2.2597656 2.0820961 -1.8009813 4288085770
-0.45184326 2.5181875 -1.7222736 4288085770
-2.3899536 2.0989637 -1.7961055 4288085770
-0.60092163 2.5418711 -1.7248644 4288085770
-2.4639893 2.1292963 -1.8019372 4288085770
-0.77609253 2.5583353 -1.7220521 4288085770
-2.5420227 2.1575966 -1.8068584 4288085770
-0.90014648 2.5842361 -1.7250569 4288085770
-2.644165 2.1787004 -1.8053298 4288085770
-1.0202332 2.6111736 -1.7279693 4288085770
-2.6941528 2.2122383 -1.8136014 4288085770
-1.1062317 2.6453953 -1.7360954 4288085770
-2.7822876 2.2364626 -1.8127489 4288085770
-1.2033081 2.6765318 -1.7394739 4288085770
-2.8603821 2.2617712 -1.8136626 4288085770
-1.2893982 2.7107582 -1.7455999 4288085770
-2.9204712 2.291235 -1.816161 4288085770
-1.4035645 2.7347555 -1.744363 4288085770
-2.9865723 2.3196487 -1.8177984 4288085770
-1.4896851 2.7649927 -1.7464794 4288085770
-3.047699 2.3481045 -1.8193177 4288085770
-1.5678101 2.798296 -1.7494141 4288085770
-3.112854 2.3745317 -1.8179268 4288085770
-1.6419373 2.8316355 -1.7522542 4288085770
-3.17099 2.403018 -1.8183753 4288085770
-1.7210693 2.8619375 -1.7532051 4288085770
-3.2241516 2.4315443 -1.8187056 4288085770
-1.8092651 2.8901634 -1.7513635 4288085770
-3.2762756 2.4620857 -1.8190172 4288085770
-1.8634033 2.9276772 -1.7547411 4288085770
-3.3164062 2.4947214 -1.8220499 4288085770
-1.9205627 2.9641685 -1.7561872 4288085770
-3.3525391 2.5283976 -1.8239909 4288085770
-1.9827881 2.9976206 -1.7557442 4288085770
-3.3977051 2.5589972 -1.8231373 4288085770
-2.0179443 3.0412989 -1.7606879 4288085770
-3.4489441 2.5865555 -1.8194183 4288085770
-2.0741882 3.0758057 -1.7591057 4288085770
-3.4870911 2.6182165 -1.8194015 4288085770
-2.1193848 3.1144047 -1.7592738 4288085770
-3.5232849 2.6508961 -1.8183404 4288085770
-2.160614 3.1540394 -1.7603496 4288085770
-3.5464783 2.6886864 -1.8199846 4288085770
-2.1858521 3.1998091 -1.7630626 4288085770
-3.5846863 2.7193556 -1.8169656 4288085770
-2.2201233 3.2415066 -1.7619783 4288085770
-3.6139526 2.754097 -1.8157442 4288085770
-2.241394 3.2883139 -1.7645994 4288085770
-3.6291199 2.7929583 -1.8172021 4288085770
-2.2656555 3.3330975 -1.764287 4288085770
-3.6413269 2.8338461 -1.8185941 4288085770
-2.2759399 3.3840008 -1.766659 4288085770
-3.6555481 2.8737173 -1.8190311 4288085770
-2.2672119 3.4430628 -1.7716025 4288085770
-3.6667786 2.9146137 -1.8193998 4288085770
-2.2925415 3.4858446 -1.769309 4288085770
-3.6690063 2.9595871 -1.8215661 4288085770
-2.2628174 3.5550871 -1.7767819 4288085770
-3.6722717 3.0035553 -1.8217537 4288085770
-2.2601624 3.6111059 -1.7778605 4288085770
-3.7026062 3.0353031 -1.8145494 4288085770
-2.2244873 3.6834011 -1.7851999 4288085770
-3.704895 3.0792818 -1.8137139 4288085770
-2.230896 3.7363453 -1.7834837 4288085770
-3.7061768 3.1242704 -1.8128573 4288085770
-2.2373352 3.7882986 -1.7787657 4288085770
-3.7175293 3.1641817 -1.8082246 4288085770
-2.2367859 3.8453112 -1.7758948 4288085770
-3.6948242 3.2213688 -1.8118316 4288085770
-2.2182312 3.9094753 -1.7756169 4288085770
-3.6851196 3.2714529 -1.8117281 4288085770
-2.1966858 3.9756622 -1.7752733 4288085770
-3.6795044 3.3195057 -1.8087147 4288085770
-2.1602173 4.0489826 -1.775594 4288085770
-3.6638184 3.3716421 -1.8084751 4288085770
-2.1257019 4.1222839 -1.775962 4288085770
-3.6342163 3.4319 -1.8099252 4288085770
-2.0952759 4.1935558 -1.7734193 4288085770
-3.6056213 3.4921474 -1.8103997 4288085770
-2.066864 4.2628174 -1.7689201 4288085770
-3.5859985 3.5473242 -1.8080742 4288085770
-2.0234985 4.342205 -1.767092 4288085770
-3.5474243 3.6126575 -1.8093256 4288085770
-1.9680786 4.4256916 -1.7669913 4288085770
-3.4728394 3.698287 -1.8197773 4288085770
-1.9117737 4.5121956 -1.7638754 4288085770
-3.4292908 3.7676706 -1.8199217 4288085770
-1.8334656 4.6118793 -1.7652731 4288085770
-3.3907776 3.8350124 -1.8171797 4288085770
-1.7771912 4.6973896 -1.7601558 4288085770
-3.3512878 3.9003658 -1.814409 4288085770
-1.7249451 4.7808666 -1.7531283 4288085770
-3.2878113 3.9809189 -1.8161103 4288085770
-1.5988159 4.9079666 -1.7584637 4288085770
-3.2424011 4.0503273 -1.8122092 4288085770
-1.4996948 5.0198402 -1.7573994 4288085770
-3.1859741 4.1268291 -1.8100667 4288085770
-1.384613 5.1428547 -1.7579858 4288085770
-3.1156006 4.2114487 -1.8096143 4288085770
-1.2525635 5.2750149 -1.7591951 4288085770
-3.0492554 4.2930393 -1.8062497 4288085770
-1.0956421 5.4233913 -1.762856 4288085770
-2.9719238 4.3827248 -1.804646 4288085770
-0.92974854 5.5798473 -1.765326 4288085770
-2.8756104 4.4835682 -1.8066224 4288085770
-0.77493286 5.7282162 -1.7640365 4288085770
-2.7904053 4.5773277 -1.8028417 4288085770
-0.63015747 5.8715076 -1.7589711 4288085770
-2.7041931 4.6720943 -1.79904 4288085770
-0.46948242 6.0249386 -1.7535547 4288085770
-2.6150208 4.7678947 -1.7931715 4288085770
-0.23596191 6.2259903 -1.7575375 4288085770
-2.4978943 4.8819313 -1.7916884 4288085770
0.0034484863 6.4321003 -1.7593931 4288085770
-2.3818054 4.9949627 -1.7882277 4288085770
0.35159302 6.7091331 -1.7758578 4288085770
-2.2228088 5.1373558 -1.7918267 4288085770
0.73156738 7.009449 -1.7916292 4288085770
-2.0628662 5.2787609 -1.7944006 4288085770
1.0934448 7.298624 -1.8007991 4288085770
-1.9069519 5.4171429 -1.7920628 4288085770
1.4352417 7.5756378 -1.8024123 4288085770
-1.7501221 5.5575333 -1.7887073 4288085770
1.8866882 7.927597 -1.8146234 4288085770
-1.5703125 5.7111263 -1.786844 4288085770
2.335022 8.2785397 -1.8219051 4288085770
-1.4006348 5.8576393 -1.7802001 4288085770
-1.1939697 6.0284672 -1.7787457 4288085770
-0.97845459 6.2053795 -1.7740965 4288085770
-0.72509766 6.408617 -1.7736192 4288085770
-0.47970581 6.603796 -1.7683117 4288085770
-0.11270142 6.8840103 -1.7803441 4288085770
0.28216553 7.1834736 -1.7907678 4288085770
0.73275757 7.5204201 -1.8049685 4288085770
1.1842346 7.8573895 -1.8131492 4288085770
1.7103882 8.2450066 -1.8266935 4288085770
9.5614014 -0.87228203 -1.9133288 4288085770
8.1802979 -0.85945225 -1.8834927 4288085770
6.9372864 -0.84440708 -1.8564473 4288085770
5.9316101 -0.83628273 -1.8398672 4288085770
5.0862122 -0.83075714 -1.8305553 4288085770
4.3058472 -0.82465553 -1.8217305 4288085770
3.6004944 -0.81689072 -1.8131634 4288085770
2.9983521 -0.8132267 -1.811188 4288085770
2.4431763 -0.80714607 -1.8081241 4288085770
9.4345398 -1.5334539 -1.9221171 4288085770
1.9169922 -0.80080509 -1.8043844 4288085770
7.9838257 -1.453249 -1.8940256 4288085770
1.403717 -0.78934288 -1.7973545 4288085770
6.6932068 -1.3776197 -1.8642008 4288085770
0.9354248 -0.77848339 -1.7912756 4288085770
5.6500549 -1.3188286 -1.8475877 4288085770
0.56045532 -0.77381897 -1.7940167 4288085770
4.7441711 -1.2678347 -1.8357675 4288085770
0.15826416 -0.76337719 -1.7893996 4288085770
3.9715881 -1.2266731 -1.8298287 4288085770
-0.16262817 -0.7592392 -1.7938818 4288085770
3.2699585 -1.1858778 -1.8222371 4288085770
-0.48666382 -0.75111866 -1.7944431 4288085770
2.6213684 -1.1476164 -1.8154056 4288085770
-0.8420105 -0.73625183 -1.7857418 4288085770
2.0629883 -1.1155643 -1.813465 4288085770
-1.0988159 -0.73155022 -1.7927345 4288085770
1.5264587 -1.0803108 -1.8070204 4288085770
-1.3457336 -0.72675323 -1.7974949 4288085770
1.026001 -1.0467367 -1.8007336 4288085770
-1.5614929 -0.7226944 -1.8065315 4288085770
0.60174561 -1.0205021 -1.8006606 4288085770
-1.7752686 -0.71761131 -1.8135241 4288085770
0.181427 -0.99022388 -1.7965041 4288085770
-1.9720764 -0.71338367 -1.8221186 4288085770
-0.18078613 -0.96644115 -1.7969825 4288085770
-2.1810303 -0.70424652 -1.8250042 4288085770
-0.51797485 -0.94243717 -1.7978797 4288085770
-2.3638611 -0.69889069 -1.8322753 4288085770
-0.86331177 -0.91448879 -1.7919726 4288085770
-2.5739441 -0.68675518 -1.8301914 4288085770
-1.1463928 -0.89401054 -1.7946048 4288085770
-2.7156067 -0.68304634 -1.8425038 4288085770
-1.3873291 -0.87816906 -1.8022481 4288085770
-2.8955688 -0.67265415 -1.8447169 4288085770
-1.6282959 -0.86032486 -1.8078964 4288085770
-3.0514526 -0.66505051 -1.8493649 4288085770
-1.8411865 -0.84523582 -1.8148869 4288085770
-3.2134705 -0.65449715 -1.8511595 4288085770
-2.0622253 -0.82621002 -1.8190726 4288085770
-3.3583069 -0.64479923 -1.8565559 4288085770
-2.2752991 -0.80710697 -1.8200728 4288085770
-3.5022583 -0.63508701 -1.8589294 4288085770
-2.4723206 -0.78987026 -1.8246956 4288085770
-3.637146 -0.62530231 -1.8640931 4288085770
-2.6472168 -0.77444172 -1.8308024 4288085770
-3.7600098 -0.6164093 -1.8699756 4288085770
-2.8191528 -0.75898743 -1.8368392 4288085770
-3.8808899 -0.60749912 -1.8748114 4288085770
-2.9680176 -0.74533081 -1.844337 4288085770
-3.1249695 -0.72873974 -1.8490278 4288085770
-3.2769775 -0.71210003 -1.8526024 4288085770
-3.4199219 -0.69638348 -1.8569653 4288085770
-3.5619202 -0.67965698 -1.860307 4288085770
-3.6837769 -0.66575718 -1.867177 4288085770
-3.8258667 -0.64702415 -1.8665236 4288085770
-3.9317017 -0.63398647 -1.8750191 4288085770
-3.8648376 1.2711916 -1.8401341 4288085770
-3.7499695 1.2852297 -1.8325406 4288085770
-3.624054 1.2993641 -1.826695 4288085770
-3.4801025 1.3166504 -1.8244439 4288085770
-3.3321533 1.3329744 -1.8210995 4288085770
-3.201355 1.3461628 -1.8111396 4288085770
-3.0423889 1.3615885 -1.8065422 4288085770
-3.9448853 1.2484484 -1.8389915 4288085770
-2.8623962 1.3801918 -1.8064703 4288085770
-3.8128662 1.2596273 -1.8370013 4288085770
-2.7035828 1.3946295 -1.7968732 4288085770
-3.6899109 1.2697372 -1.8302164 4288085770
-2.5296936 1.4091949 -1.7899325 4288085770
-3.5448914 1.2810307 -1.8289293 4288085770
-2.3337708 1.4269514 -1.785495 4288085770
-3.3918457 1.2933969 -1.827462 4288085770
-2.1559448 1.4395618 -1.7744603 4288085770
-3.2499084 1.3026724 -1.8212448 4288085770
-1.9099426 1.4617529 -1.7748904 4288085770
-3.092926 1.3120813 -1.8166786 4288085770
-1.6499023 1.4840717 -1.7749962 4288085770
-2.9289551 1.3225546 -1.8119552 4288085770
-1.4411621 1.4969616 -1.7622517 4288085770
-2.7720337 1.3299704 -1.8033862 4288085770
-1.1932983 1.5141935 -1.7536237 4288085770
-2.5900574 1.3396053 -1.7982494 4288085770
-0.90435791 1.5347786 -1.7500643 4288085770
-2.4020691 1.3482933 -1.7929735 4288085770
-0.634552 1.5502148 -1.7389303 4288085770
-2.210144 1.3570175 -1.7866067 4288085770
-0.28753662 1.5753117 -1.7380542 4288085770
-2.0031738 1.3658772 -1.7808971 4288085770
0.06237793 1.5974455 -1.7331036 4288085770
-1.7580872 1.3780632 -1.7803245 4288085770
0.42724609 1.6187201 -1.7268094 4288085770
-1.5481567 1.3839598 -1.7705417 4288085770
0.98352051 1.6606503 -1.7421863 4288085770
-1.3132324 1.3910751 -1.7621895 4288085770
1.5527344 1.7007036 -1.7542635 4288085770
-1.0462036 1.3994694 -1.7571076 4288085770
2.2090149 1.7475281 -1.7703654 4288085770
-0.76818848 1.4069614 -1.7517725 4288085770
2.9012146 1.7926817 -1.7826422 4288085770
-0.4581604 1.4167385 -1.7477106 4288085770
3.6644287 1.8404713 -1.794302 4288085770
-0.11807251 1.4267807 -1.7449634 4288085770
4.4735413 1.8886824 -1.8019133 4288085770
0.20388794 1.4316759 -1.7356186 4288085770
5.2664795 1.9277735 -1.7988741 4288085770
0.60202026 1.4412317 -1.7345442 4288085770
6.3757629 1.9946394 -1.8186647 4288085770
1.0963135 1.4586296 -1.74229 4288085770
7.722229 2.0756044 -1.8470659 4288085770
1.6636963 1.4786692 -1.7543718 4288085770
9.1485596 2.1543036 -1.8676368 4288085770
2.3132324 1.5014277 -1.7715839 4288085770
10.866943 2.2486 -1.8935655 4288085770
2.9976196 1.5235138 -1.7849964 4288085770
3.7200623 1.5409422 -1.7955309 4288085770
4.5165405 1.5600309 -1.8073784 4288085770
5.271759 1.5677872 -1.8041426 4288085770
6.3123474 1.5910454 -1.821421 4288085770
7.6062622 1.623538 -1.8519335 4288085770
8.9000244 1.6450624 -1.8694268 4288085770
10.484955 1.6731691 -1.8962816 4288085770
-1.9667053 -4.5245767 -0.094565153 4293729569
-1.9684753 -4.5446963 -0.13658524 4293729569
-1.9712524 -4.5608239 -0.17763758 4293729569
-1.980072 -4.57201 -0.22083735 4293729569
-2.0010071 -4.5723009 -0.26233554 4293729569
-2.0068665 -4.5794587 -0.3044765 4293729569
-2.0096741 -4.5885906 -0.34754491 4293729569
-2.0315857 -4.5818949 -0.39108181 4293729569
-2.0284729 -4.5899706 -0.43301702 4293729569
-2.0555115 -4.5753183 -0.47568607 4293729569
-2.0140991 -4.5960212 -0.084608078 4293729569
-2.5963745 -4.2032208 -0.49777174 4293729569
-2.0099792 -4.5960894 -0.1275394 4293729569
-2.5983887 -4.2013378 -0.53784323 4293729569
-2.0210266 -4.5832934 -0.16984129 4293729569
-2.0300293 -4.5924087 -0.60514474 4293729569
-2.0058899 -4.5872626 -0.21251392 4293729569
-2.0249329 -4.5914688 -0.64805579 4293729569
-2.0129395 -4.5734305 -0.25472784 4293729569
-2.0168152 -4.5905032 -0.69189858 4293729569
-1.9938049 -4.5753622 -0.29731464 4293729569
-2.0258789 -4.5766869 -0.73315787 4293729569
-1.9848022 -4.568387 -0.34014964 4293729569
-2.0148315 -4.5726919 -0.77594018 4293729569
-2.0009766 -4.5416312 -0.38059831 4293729569
-2.0259705 -4.5528908 -0.81625915 4293729569
-1.9940186 -4.5296717 -0.4224906 4293729569
-2.0169373 -4.5439148 -0.85909867 4293729569
-1.9830627 -4.5176735 -0.46329236 4293729569
-2.4830017 -4.2100935 -0.85739207 4293729569
-1.9700928 -4.5056562 -0.50404906 4293729569
-2.3863525 -4.2583408 -0.90412283 4293729569
-2.386322 -4.2034473 -0.52714968 4293729569
-2.2120056 -4.3559127 -0.95999002 4293729569
-2.1075134 -4.3660665 -0.57650852 4293729569
-2.4200745 -4.1938195 -0.97606969 4293729569
-1.8851318 -4.4871941 -0.62623525 4293729569
-1.977417 -4.4660587 -1.0624902 4293729569
-1.9820862 -4.3941455 -0.65965509 4293729569
-1.9231262 -4.4756808 -1.1072659 4293729569
-2.2313232 -4.2004328 -0.68073654 4293729569
-1.8911133 -4.4674931 -1.1485832 4293729569
-2.1520691 -4.2218199 -0.72091889 4293729569
-2.2204285 -4.2204385 -1.1435866 4293729569
-2.1604919 -4.1839795 -0.75521374 4293729569
-2.2056885 -4.2003951 -1.1803174 4293729569
-2.1465454 -4.2049675 -1.2219927 4293729569
-1.980957 -4.2285652 -0.8361001 4293729569
-0.43499756 -5.2722697 -1.4980237 4293729569
-1.9673157 -4.1995254 -0.86987638 4293729569
-0.67663574 -5.0734491 -1.501941 4293729569
-1.8851318 -4.2118859 -0.9100132 4293729569
-1.9208374 -4.2402573 -1.3518806 4293729569
-1.8718872 -4.2319112 -1.3908143 4293729569
-1.7098389 -4.236505 -0.98903966 4293729569
-1.376709 -4.4977322 -1.501075 4293729569
-1.6448975 -4.2310095 -1.0256054 4293729569
-1.7286682 -4.2348299 -1.4746153 4293729569
2.5436707 -6.7115493 -1.5015969 4293729569
-1.6061401 -4.2648482 -1.5238039 4293729569
-1.4515686 -4.2534661 -1.105231 4293729569
-1.5673828 -4.2405882 -1.5600035 4293729569
-1.3877563 -4.2409811 -1.1408367 4293729569
-1.6832275 -4.1226454 -1.5668938 4293729569
1.3883972 -5.8108983 -1.4937408 4293729569
-1.7364502 -4.0421638 -1.5832903 4293729569
-1.1633606 -4.2671599 -1.2217531 4293729569
-1.6716309 -4.0296698 -1.6198733 4293729569
-1.0975952 -4.2506504 -1.2553246 4293729569
-1.5643616 -4.0408106 -1.6634483 4293729569
0.60464478 -5.1549382 -1.4959433 4293729569
-1.4672546 -4.0440369 -1.7042694 4293729569
-0.85125732 -4.27563 -1.3347485 4293729569
-1.3580322 -4.0501604 -1.7478118 4293729569
-0.80877686 -4.2403178 -1.3638871 4293729569
-1.243866 -4.058238 -1.7902371 4293729569
-0.12506104 -4.5514498 -1.478797 4293729569
-1.1367493 -4.0593758 -1.8318375 4288085770
-0.52432251 -4.2709594 -1.4464395 4293729569
-1.0236511 -4.0604572 -1.8733031 4288085770
-0.43658447 -4.2532482 -1.4785182 4293729569
-1.0125732 -4.0064068 -1.893189 4288085770
-0.33981323 -4.2394576 -1.5113842 4293729569
-1.1105347 -3.8932819 -1.8906628 4288085770
-0.40542603 -4.1400652 -1.5191002 4293729569
-1.2176514 -3.7762299 -1.8843502 4288085770
-0.3621521 -4.0957336 -1.5432396 4293729569
-1.3086243 -3.6690378 -1.8796515 4288085770
-0.21807861 -4.1005268 -1.5799985 4293729569
-1.3734131 -3.5736179 -1.8793356 4288085770
-0.055999756 -4.1101613 -1.6183388 4293729569
-1.4502869 -3.4743004 -1.8753012 4288085770
0.10510254 -4.118803 -1.655705 4293729569
-1.5039673 -3.3877831 -1.8747152 4288085770
0.26516724 -4.1224523 -1.6931061 4293729569
-1.5647278 -3.2973213 -1.8712968 4288085770
0.44433594 -4.1329336 -1.732061 4293729569
-1.6063538 -3.2176952 -1.870423 4288085770
0.61837769 -4.1384544 -1.7681426 4293729569
-1.6409607 -3.1399994 -1.8693879 4288085770
0.80047607 -4.1429014 -1.806044 4288085770
-1.6896973 -3.0574284 -1.8646747 4288085770
1.0077209 -4.1571341 -1.8463521 4288085770
-1.7101746 -2.9876156 -1.865297 4288085770
1.1685486 -4.1477647 -1.8787578 4288085770
-1.7236633 -2.9207392 -1.8657542 4288085770
1.1559143 -4.059885 -1.882244 4288085770
-1.7401733 -2.8538866 -1.8642796 4288085770
1.1160889 -3.961236 -1.8793676 4288085770
-1.7557068 -2.7860231 -1.8627849 4288085770
1.0782776 -3.8655701 -1.8764386 4288085770
-1.7864075 -2.7132874 -1.8566415 4288085770
1.0666199 -3.780673 -1.875896 4288085770
-1.7888184 -2.6533089 -1.855834 4288085770
1.0448608 -3.6928606 -1.8725868 4288085770
-1.7913208 -2.5933256 -1.8530269 4288085770
1.0482788 -3.6138277 -1.8716915 4288085770
-1.7998657 -2.5303965 -1.8493627 4288085770
