# .PCD v0.7 - Point Cloud Data file format
VERSION 0.7
FIELDS x y z rgb
SIZE 4 4 4 4
TYPE F F F U
COUNT 1 1 1 1
WIDTH 1117
HEIGHT 1
VIEWPOINT 0 0 0 1 0 0 0
POINTS 1117
DATA ascii
3.5714264 0.9371497 -1.7851479 4288085770
5.0524826 1.1288935 -1.8049438 4288085770
2.742363 0.82785189 -1.7795436 4288085770
3.7194519 0.95402318 -1.7873251 4288085770
2.643364 0.81393558 -1.7787547 4288085770
2.7303391 0.82386106 -1.7864468 4288085770
3.8694916 0.96989554 -1.7885182 4288085770
2.8343811 0.83477211 -1.7862737 4288085770
6.6976929 1.3324962 -1.8170404 4288085770
4.0155563 0.98577034 -1.7876792 4288085770
2.9454269 0.8466773 -1.7861564 4288085770
4.1766052 1.002633 -1.7889593 4288085770
3.0644684 0.8585754 -1.7881021 4288085770
13.026604 2.1271305 -1.8234267 4288085770
3.1795349 0.87047708 -1.7860167 4288085770
4.3436813 1.0184898 -1.788286 4288085770
4.5337296 1.0373278 -1.791796 4288085770
3.3115921 0.88236308 -1.7880652 4288085770
14.163696 2.2521632 -1.8404672 4288085770
9.0609894 1.6064876 -1.8398404 4288085770
3.4446564 0.89424908 -1.7891214 4288085770
3.1835861 0.86147034 -1.7920432 4288085770
4.7198105 1.0541681 -1.7922733 4288085770
5.2097931 1.110751 -1.8071711 4288085770
4.9138947 1.0710024 -1.7918131 4288085770
3.5817337 0.9051317 -1.7892087 4288085770
6.9260025 1.3142941 -1.8188264 4288085770
3.7198257 0.91601211 -1.7883039 4288085770
5.1449509 1.090804 -1.797647 4288085770
3.8858871 0.92886961 -1.7936206 4288085770
5.3470764 1.1066307 -1.7952495 4288085770
13.552956 2.097672 -1.8265505 4288085770
4.0429611 0.94073451 -1.7948661 4288085770
5.5781784 1.1244326 -1.7950816 4288085770
14.834053 2.2385838 -1.8427358 4288085770
3.2848892 0.84637636 -1.794832 4288085770
9.3453445 1.5712355 -1.8420553 4288085770
4.2100677 0.95159012 -1.7951899 4288085770
5.3581543 1.0886164 -1.8043251 4288085770
5.8172913 1.1412274 -1.7949765 4288085770
7.1643143 1.2950826 -1.8206904 4288085770
4.3831787 0.96244103 -1.7955608 4288085770
6.0904083 1.1609931 -1.7971411 4288085770
4.5573044 0.97229075 -1.7939391 4288085770
6.3805008 1.1817441 -1.80144 4288085770
3.3831787 0.83128494 -1.796597 4288085770
14.09433 2.0672014 -1.8267913 4288085770
2.7121429 0.75085282 -1.7952576 4288085770
15.575378 2.2249436 -1.8495626 4288085770
4.7554016 0.98412037 -1.7965076 4288085770
5.5454254 1.0714488 -1.8097889 4288085770
6.6596527 1.1985046 -1.7986498 4288085770
9.6486969 1.5369678 -1.8434205 4288085770
7.4365921 1.2778428 -1.8258231 4288085770
4.9645157 0.99493986 -1.7991621 4288085770
6.9927673 1.2192186 -1.8032873 4288085770
5.1586761 1.002772 -1.7956965 4288085770
3.4764938 0.815198 -1.7943218 4288085770
7.373848 1.2438915 -1.8123057 4288085770
2.7854614 0.73578346 -1.791826 4288085770
14.688705 2.035686 -1.8264487 4288085770
5.7257385 1.0512873 -1.8101959 4288085770
5.3908081 1.0135717 -1.798532 4288085770
16.30674 2.1993113 -1.8503025 4288085770
7.739006 1.2635787 -1.8131945 4288085770
7.7079163 1.2576038 -1.8259461 4288085770
9.9890213 1.503668 -1.8480775 4288085770
5.6409225 1.0243556 -1.8025093 4288085770
8.1611176 1.2872162 -1.8205347 4288085770
3.5857849 0.80009764 -1.7951729 4288085770
2.8717499 0.7217024 -1.7924972 4288085770
5.8900681 1.0341405 -1.8034782 4288085770
5.931015 1.0331045 -1.8148003 4288085770
8.5842743 1.3078532 -1.8228812 4288085770
15.373039 2.0080938 -1.8298168 4288085770
8.0281677 1.2423227 -1.8334577 4288085770
17.120102 2.1726089 -1.8536866 4288085770
6.1721878 1.0448973 -1.8087075 4288085770
10.356346 1.470346 -1.8519468 4288085770
9.0564194 1.3304483 -1.8276143 4288085770
3.7070465 0.78598738 -1.7991195 4288085770
2.9760056 0.70860648 -1.7983103 4288085770
6.448349 1.0526588 -1.8088875 4288085770
9.5635757 1.3530132 -1.8326232 4288085770
6.1253204 1.0119313 -1.8143165 4288085770
8.3514557 1.2240404 -1.8359909 4288085770
16.142387 1.9814289 -1.8338544 4288085770
6.7655029 1.0613854 -1.8133912 4288085770
3.824295 0.77188069 -1.801034 4288085770
10.121735 1.3775352 -1.8380349 4288085770
10.714699 1.432031 -1.8517416 4288085770
3.0722885 0.69451731 -1.7990599 4288085770
7.0686874 1.0671237 -1.8117824 4288085770
6.3526001 0.99372995 -1.818094 4288085770
10.74688 1.4039992 -1.8459752 4288085770
8.7017212 1.2067341 -1.8407371 4288085770
7.3968658 1.073841 -1.8123713 4288085770
3.9555588 0.75676149 -1.8040583 4288085770
16.966736 1.9527177 -1.8353233 4288085770
3.1795197 0.68141931 -1.8038964 4288085770
11.369087 1.4244658 -1.8468881 4288085770
11.128021 1.3956696 -1.8539703 4288085770
7.7570419 1.0795302 -1.8142109 4288085770
6.565918 0.97154063 -1.8157587 4288085770
9.088974 1.1893971 -1.8457744 4288085770
11.901421 1.4340097 -1.8300848 4288085770
4.0828171 0.74164653 -1.8050508 4288085770
3.2778168 0.66632849 -1.801661 4288085770
8.1362228 1.0842035 -1.8161998 4288085770
12.592682 1.4524181 -1.8245392 4288085770
11.533394 1.3553151 -1.8501334 4288085770
6.8261566 0.9533121 -1.820796 4288085770
9.4922409 1.1720459 -1.8489373 4288085770
8.5773697 1.0908235 -1.8236778 4288085770
4.2130814 0.72652936 -1.8040667 4288085770
3.3840714 0.65223151 -1.802489 4288085770
13.4039 1.4747231 -1.826941 4288085770
9.0345535 1.0954295 -1.8272805 4288085770
7.0984268 0.93407261 -1.8239267 4288085770
9.8655853 1.1487212 -1.8418603 4288085770
11.889824 1.3080021 -1.836906 4288085770
4.3543396 0.71140271 -1.8041694 4288085770
14.285156 1.4959688 -1.8258927 4288085770
3.4983215 0.63812804 -1.8033798 4288085770
9.5427094 1.0999924 -1.8352845 4288085770
15.248413 1.5171447 -1.8244901 4288085770
7.3627167 0.91184002 -1.8229923 4288085770
4.5135651 0.69726038 -1.8084142 4288085770
10.329842 1.1303186 -1.8445024 4288085770
10.057915 1.1005485 -1.8383408 4288085770
3.6075974 0.62302846 -1.8012309 4288085770
12.376175 1.2675791 -1.8347063 4288085770
16.36367 1.541191 -1.8272855 4288085770
4.6727982 0.68211848 -1.8096581 4288085770
7.6599731 0.89158028 -1.823319 4288085770
10.507225 1.0921618 -1.8258717 4288085770
10.849083 1.11387 -1.8485785 4288085770
3.7308273 0.60991758 -1.8021927 4288085770
12.963455 1.2290702 -1.8413024 4288085770
11.128418 1.0906273 -1.8327606 4288085770
4.8609848 0.66895211 -1.8171313 4288085770
7.9762344 0.87130457 -1.824795 4288085770
11.410347 1.0953847 -1.8509839 4288085770
3.8520813 0.59480816 -1.8011377 4288085770
11.770638 1.085075 -1.833812 4288085770
5.0202484 0.65181053 -1.8133738 4288085770
13.564781 1.1875488 -1.8410063 4288085770
4.0092697 0.58166796 -1.8073671 4288085770
8.3364792 0.84999001 -1.8276165 4288085770
11.977638 1.0748953 -1.847435 4288085770
12.436905 1.0745018 -1.8320491 4288085770
5.2124557 0.63764131 -1.8158779 4288085770
4.1474991 0.56754458 -1.8084462 4288085770
8.7316971 0.82964694 -1.8327136 4288085770
12.684868 1.0572865 -1.8529894 4288085770
14.216087 1.1439853 -1.8411024 4288085770
13.202118 1.0648444 -1.8350656 4288085770
5.4196548 0.62245893 -1.8194993 4288085770
4.2996979 0.5544095 -1.8096361 4288085770
9.1519165 0.8092826 -1.8370075 4288085770
13.426109 1.0386485 -1.854811 4288085770
14.007385 1.0491527 -1.8343928 4288085770
14.970398 1.0993342 -1.8430078 4288085770
5.6378479 0.60826737 -1.8222077 4288085770
4.4668961 0.54026145 -1.8129435 4288085770
14.24736 1.0199432 -1.8552616 4288085770
9.6091385 0.78788644 -1.8405919 4288085770
5.8760223 0.59405899 -1.8270731 4288085770
14.89164 1.0293938 -1.8343387 4288085770
4.6370926 0.52611107 -1.8142741 4288085770
15.817673 1.0536033 -1.8466444 4288085770
15.225563 1.0041037 -1.8619499 4288085770
10.140312 0.76742756 -1.8497591 4288085770
6.095253 0.57786733 -1.8237879 4288085770
15.942848 1.0104917 -1.8425989 4288085770
4.8292542 0.51294231 -1.8197784 4288085770
6.3414459 0.56265247 -1.8237157 4288085770
16.294777 0.98618668 -1.8673525 4288085770
16.787926 1.0047679 -1.8532462 4288085770
10.696495 0.74594778 -1.856122 4288085770
5.0074539 0.4987855 -1.8191719 4288085770
7.4276886 0.59672719 -1.812289 4288085770
7.0666962 0.58103412 -1.8084364 4288085770
7.7837448 0.61042416 -1.8091006 4288085770
8.2107315 0.62706107 -1.8134732 4288085770
6.7646561 0.5662905 -1.8130493 4288085770
8.6567612 0.64268064 -1.8159945 4288085770
17.009132 0.98057705 -1.8399699 4288085770
6.4436874 0.55056316 -1.8085117 4288085770
9.1627655 0.6592499 -1.8219891 4288085770
6.187645 0.53677982 -1.8144872 4288085770
9.7157745 0.67677832 -1.8283541 4288085770
5.9186707 0.5220077 -1.81236 4288085770
6.6315765 0.54840058 -1.8309901 4288085770
10.305817 0.69327521 -1.8320096 4288085770
5.6627045 0.50722438 -1.8103352 4288085770
5.7677155 0.51113534 -1.8091645 4288085770
5.5296936 0.50133729 -1.8112843 4288085770
17.503998 0.96915102 -1.8708572 4288085770
6.0596924 0.52188641 -1.8164701 4288085770
5.2976913 0.49153453 -1.8104515 4288085770
5.0687103 0.48172915 -1.8076422 4288085770
11.338638 0.72539425 -1.8681622 4288085770
10.994812 0.71168834 -1.8424459 4288085770
6.3347168 0.53065217 -1.8166411 4288085770
5.2066269 0.48561114 -1.8207309 4288085770
6.5998001 0.5384264 -1.8097327 4288085770
5.4147568 0.49243444 -1.8063736 4288085770
4.8667068 0.47090012 -1.8090451 4288085770
6.9008713 0.54617006 -1.8071074 4288085770
4.6587448 0.46007663 -1.8054008 4288085770
11.720863 0.72806817 -1.8481717 4288085770
5.2027893 0.47761327 -1.8076949 4288085770
7.2399139 0.55388039 -1.8077815 4288085770
4.4558029 0.44924861 -1.7997959 4288085770
12.475952 0.744425 -1.8481262 4288085770
7.6129608 0.561562 -1.8107231 4288085770
4.2868347 0.43839115 -1.8004587 4288085770
4.9668808 0.4628126 -1.800828 4288085770
6.9107742 0.53315777 -1.8311775 4288085770
13.354027 0.76167613 -1.8520491 4288085770
8.0090103 0.56822366 -1.812845 4288085770
4.1148911 0.42753631 -1.7980978 4288085770
4.7868958 0.44896376 -1.8044021 4288085770
5.4187927 0.47142571 -1.8223917 4288085770
12.011803 0.70281523 -1.8744447 4288085770
8.4410706 0.57485431 -1.8142502 4288085770
3.9549179 0.41667098 -1.7978315 4288085770
14.294151 0.77687371 -1.8504589 4288085770
4.5809937 0.43413752 -1.7987714 4288085770
8.9411011 0.5814271 -1.8221908 4288085770
3.7940063 0.40480644 -1.7945569 4288085770
15.427231 0.79490691 -1.8583894 4288085770
7.2089615 0.51689935 -1.8295135 4288085770
9.4581528 0.58698523 -1.8262641 4288085770
4.4060669 0.41928393 -1.7983847 4288085770
3.6520538 0.39392537 -1.7944324 4288085770
5.6499405 0.45822412 -1.8262024 4288085770
16.590393 0.80991536 -1.853554 4288085770
12.735992 0.67819232 -1.8781276 4288085770
3.5131302 0.38304183 -1.7933316 4288085770
10.049187 0.59147996 -1.8339195 4288085770
4.2411423 0.40542185 -1.7980773 4288085770
7.532135 0.50161958 -1.8290467 4288085770
10.69323 0.59592915 -1.8419917 4288085770
3.3961639 0.37213898 -1.7974041 4288085770
4.0782242 0.39155829 -1.7967858 4288085770
5.8980865 0.44400817 -1.8301463 4288085770
3.2582703 0.36025435 -1.7933109 4288085770
11.44825 0.59928364 -1.8559365 4288085770
3.9203339 0.37669009 -1.794533 4288085770
13.526184 0.65251386 -1.8813283 4288085770
7.8892899 0.48631096 -1.8308473 4288085770
12.214317 0.60062873 -1.8619668 4288085770
3.1523285 0.34934181 -1.7974701 4288085770
6.1562195 0.43078417 -1.8331692 4288085770
3.7814026 0.36380589 -1.7954311 4288085770
13.020432 0.59794003 -1.8633094 4288085770
3.0274506 0.33744562 -1.7934794 4288085770
8.2954102 0.47196084 -1.8360341 4288085770
14.462326 0.62671101 -1.8896782 4288085770
3.6435165 0.34892023 -1.7943361 4288085770
6.4054031 0.41656786 -1.8301208 4288085770
13.958534 0.59513813 -1.8686903 4288085770
8.7464981 0.45757234 -1.8445747 4288085770
3.5066452 0.33503371 -1.7922497 4288085770
6.6865463 0.4023245 -1.8303242 4288085770
15.548424 0.60178012 -1.9042084 4288085770
14.997627 0.58824968 -1.8748634 4288085770
3.3817673 0.32113671 -1.7912579 4288085770
9.2206192 0.4421646 -1.8492956 4288085770
16.110786 0.57829857 -1.8736165 4288085770
6.9816971 0.38806933 -1.8296373 4288085770
16.661613 0.57082617 -1.904947 4288085770
3.2658768 0.30823195 -1.7923374 4288085770
9.7636948 0.4276979 -1.8575599 4288085770
17.428917 0.56517208 -1.8779809 4288085770
7.3098297 0.37478653 -1.8302109 4288085770
3.1569901 0.29432115 -1.7934716 4288085770
10.351768 0.41219318 -1.8661778 4288085770
7.657959 0.36048627 -1.8309407 4288085770
3.0421448 0.28041542 -1.7905588 4288085770
11.092735 0.39855796 -1.888 4288085770
8.0480499 0.34815085 -1.8350024 4288085770
11.841766 0.38291597 -1.9008844 4288085770
8.5081024 0.33475575 -1.8436143 4288085770
12.659805 0.36821595 -1.9113119 4288085770
8.9811707 0.32134956 -1.849328 4288085770
13.555855 0.35144952 -1.920352 4288085770
9.5202103 0.30888748 -1.8585618 4288085770
14.500954 0.3346414 -1.9227779 4288085770
10.120224 0.29637325 -1.8692753 4288085770
15.62899 0.31867796 -1.931644 4288085770
10.815201 0.28277838 -1.8847356 4288085770
16.939018 0.30155918 -1.9429412 4288085770
11.641113 0.2710717 -1.9082277 4288085770
12.441132 0.25838798 -1.9175146 4288085770
13.357109 0.24560538 -1.9307144 4288085770
3.0097733 0.21642201 -1.8072639 4288085770
14.264198 0.23283094 -1.9298434 4288085770
17.099274 0.22541459 -1.9361484 4288085770
15.45414 0.22081488 -1.9471996 4288085770
15.735344 0.21857622 -1.9234099 4288085770
14.550415 0.21058542 -1.9120796 4288085770
16.694176 0.2087574 -1.9519494 4288085770
13.607384 0.2023873 -1.9146531 4288085770
3.1189041 0.20232444 -1.8101139 4288085770
12.716431 0.19314513 -1.9106355 4288085770
17.376457 0.18117428 -1.9272981 4288085770
11.878517 0.1848579 -1.9000356 4288085770
16.018524 0.16632915 -1.9196017 4288085770
11.048698 0.17456417 -1.8794978 4288085770
3.2300491 0.18922621 -1.8109801 4288085770
14.932526 0.15125233 -1.9210451 4288085770
10.295891 0.16520485 -1.8585668 4288085770
13.91658 0.13711581 -1.9170406 4288085770
9.7069778 0.15370438 -1.8529243 4288085770
3.3471985 0.17612213 -1.8118935 4288085770
13.001671 0.12189303 -1.91083 4288085770
9.1600876 0.14316833 -1.8456135 4288085770
8.6731873 0.13158095 -1.8407741 4288085770
12.113838 0.1076474 -1.8968334 4288085770
3.4493866 0.16203162 -1.8066883 4288085770
8.1883316 0.12099229 -1.829951 4288085770
11.377937 0.092271924 -1.8910317 4288085770
7.7784424 0.10833894 -1.8267171 4288085770
10.559219 0.079967894 -1.86358 4288085770
3.5874786 0.14791021 -1.8117661 4288085770
7.4324951 0.096630648 -1.829987 4288085770
9.9533539 0.064481147 -1.8568017 4288085770
3.7225952 0.13379148 -1.8138204 4288085770
7.0806198 0.083927572 -1.8262095 4288085770
9.4014816 0.050948523 -1.8504498 4288085770
3.1036606 0.13531666 -1.8139515 4288085770
3.8647156 0.11966646 -1.8159292 4288085770
6.7637177 0.072194442 -1.8257082 4288085770
8.8826447 0.036387354 -1.8423572 4288085770
3.2227554 0.12321199 -1.8168807 4288085770
4.0158157 0.10553425 -1.818109 4288085770
6.4638443 0.05944673 -1.8243401 4288085770
3.3438644 0.11210605 -1.8168266 4288085770
8.4038086 0.022792399 -1.8335798 4288085770
4.1809006 0.090390474 -1.8223982 4288085770
17.331863 -0.16482694 -1.9837048 4282675967
3.471962 0.099993959 -1.8178265 4288085770
16.521194 -0.15413482 -1.9413321 4288085770
6.2109299 0.045658529 -1.828341 4288085770
7.9669952 0.0081610978 -1.8261323 4288085770
4.3469849 0.076246016 -1.8246958 4288085770
16.013 -0.16970544 -1.9733236 4282675967
3.5841141 0.087895744 -1.8117011 4288085770
5.9710312 0.032858908 -1.831445 4288085770
7.6141052 -0.0065423399 -1.8273461 4288085770
15.469284 -0.18024366 -1.9450369 4288085770
4.5220718 0.061093919 -1.8270636 4288085770
14.910088 -0.17276807 -1.9696426 4282675967
3.726181 0.076772168 -1.8138118 4288085770
4.6941605 0.046944357 -1.8274081 4288085770
13.837265 -0.17185573 -1.9552014 4288085770
3.8822403 0.064636797 -1.8180318 4288085770
5.7311554 0.020059854 -1.8315492 4288085770
7.2872086 -0.021267563 -1.8297641 4288085770
14.370514 -0.20231162 -1.9303753 4288085770
4.9101868 0.031757489 -1.8350978 4288085770
12.883423 -0.16904469 -1.9426978 4288085770
4.0532761 0.052488476 -1.8233697 4288085770
12.013588 -0.16430502 -1.9288564 4288085770
5.4813461 0.007268846 -1.8255751 4288085770
5.1202545 0.016576082 -1.8377409 4288085770
4.2163391 0.040347405 -1.8246446 4288085770
6.9603653 -0.035993025 -1.8271825 4288085770
11.250725 -0.1586559 -1.9178576 4288085770
4.3913803 0.029196203 -1.8270147 4288085770
5.3293228 0.0013956577 -1.8383756 4288085770
13.454712 -0.22453626 -1.9231539 4288085770
10.48394 -0.15100326 -1.8968294 4288085770
4.5804138 0.017033532 -1.8304939 4288085770
5.2655029 -0.0055514723 -1.8248684 4288085770
5.5753555 -0.014816418 -1.8433006 4288085770
4.7764511 0.0058643818 -1.8330288 4288085770
9.852066 -0.1434655 -1.8858626 4288085770
6.6715088 -0.050751343 -1.8278999 4288085770
5.8143997 -0.02902177 -1.8441718 4288085770
9.278183 -0.13497727 -1.8753529 4288085770
16.50248 -0.35414183 -1.9710453 4288085770
4.9884644 -0.00631769 -1.8376887 4288085770
8.7572861 -0.12653382 -1.8672597 4288085770
5.2094879 -0.017507523 -1.8404202 4288085770
12.595955 -0.24580927 -1.9113815 4288085770
6.0894165 -0.045258373 -1.8503246 4288085770
15.372505 -0.33618027 -1.972167 4282675967
8.2644043 -0.11711435 -1.8563883 4288085770
5.4364929 -0.028701946 -1.843199 4288085770
5.0546646 -0.018376037 -1.8222013 4288085770
7.8374634 -0.10775049 -1.8510354 4288085770
6.3464813 -0.060478806 -1.847337 4288085770
5.6804962 -0.039910734 -1.8451114 4288085770
14.218681 -0.3131972 -1.9551039 4288085770
7.4664841 -0.099434599 -1.8501222 4288085770
6.4096375 -0.065532386 -1.8298299 4288085770
5.9524689 -0.051143482 -1.8512435 4288085770
7.1165009 -0.090136722 -1.849375 4288085770
6.2154922 -0.061368033 -1.8503058 4288085770
6.7725449 -0.079843327 -1.8446758 4288085770
6.4705505 -0.070585519 -1.8443062 4288085770
6.6245346 -0.075717196 -1.8465142 4288085770
13.24778 -0.29236996 -1.9464788 4288085770
6.937561 -0.090985402 -1.8479667 4288085770
12.300957 -0.27056301 -1.9270439 4288085770
7.2795639 -0.10727797 -1.8516464 4288085770
11.545029 -0.25191897 -1.921109 4288085770
11.830208 -0.26516169 -1.8993428 4288085770
7.6245956 -0.12257285 -1.8503506 4288085770
10.784187 -0.23126994 -1.9031365 4288085770
8.0265732 -0.13891651 -1.8545022 4288085770
10.100304 -0.21068634 -1.8887696 4288085770
4.856842 -0.031211585 -1.8196366 4288085770
9.4924164 -0.19116767 -1.8759997 4288085770
8.4695282 -0.15629481 -1.8609755 4288085770
8.9764481 -0.1747276 -1.8719516 4288085770
6.183754 -0.081344932 -1.8360424 4288085770
11.154442 -0.28559124 -1.8920116 4288085770
4.6700363 -0.044057041 -1.8171582 4288085770
5.9269562 -0.095130518 -1.831013 4288085770
4.482254 -0.05690147 -1.8116727 4288085770
16.29422 -0.53698415 -1.9392774 4288085770
10.463776 -0.30200732 -1.8725657 4288085770
5.7021255 -0.10994373 -1.8312345 4288085770
4.332428 -0.070779145 -1.8134854 4288085770
15.276398 -0.55412227 -1.9382572 4288085770
5.4703445 -0.12375112 -1.8264017 4288085770
9.9090347 -0.32053989 -1.8631883 4288085770
4.1806107 -0.083654508 -1.8132827 4288085770
5.2665405 -0.13858275 -1.825789 4288085770
14.260689 -0.56626201 -1.924257 4288085770
9.4272537 -0.33913517 -1.8593853 4288085770
4.0228348 -0.096525237 -1.8100333 4288085770
5.0697632 -0.15342028 -1.823231 4288085770
13.332008 -0.57647562 -1.9079428 4288085770
8.997467 -0.35877472 -1.8579907 4288085770
3.8680878 -0.1093982 -1.8038077 4288085770
4.8729935 -0.16725792 -1.8186743 4288085770
12.541275 -0.5908075 -1.8987119 4288085770
8.5437546 -0.37539375 -1.84741 4288085770
16.832909 -0.86447716 -1.9502866 4288085770
3.73629 -0.12229146 -1.8037632 4288085770
4.6992035 -0.18111525 -1.8172984 4288085770
11.863525 -0.60623604 -1.8943691 4288085770
8.1630173 -0.39407533 -1.8424022 4288085770
16.901138 -0.92654133 -1.9387798 4288085770
3.6115112 -0.13619082 -1.8037729 4288085770
15.866142 -0.88866079 -1.9496639 4288085770
4.5334396 -0.19597952 -1.814985 4288085770
11.269768 -0.62373626 -1.891686 4288085770
7.817276 -0.41278702 -1.8396699 4288085770
3.4967346 -0.15009893 -1.8048618 4288085770
4.3696899 -0.20984586 -1.8116882 4288085770
16.13842 -0.98190117 -1.9387407 4288085770
14.822525 -0.89777732 -1.9314468 4288085770
10.657074 -0.63722032 -1.8808568 4288085770
7.5114899 -0.43353319 -1.8412509 4288085770
3.3859558 -0.16301052 -1.8049824 4288085770
4.2189331 -0.22372307 -1.8094938 4288085770
13.884903 -0.90498459 -1.9140651 4288085770
10.131355 -0.65177822 -1.874711 4288085770
15.380768 -1.0322653 -1.932745 4288085770
7.2217331 -0.4522928 -1.8409591 4288085770
3.2771912 -0.17692398 -1.8051186 4288085770
4.0791779 -0.23861019 -1.8083851 4288085770
13.077209 -0.91130221 -1.9047065 4288085770
9.6396561 -0.66636556 -1.865833 4288085770
6.9430008 -0.47106206 -1.8387544 4288085770
3.1754303 -0.19084342 -1.8063097 4288085770
3.9484177 -0.25350469 -1.8083475 4288085770
14.59922 -1.0726084 -1.9145682 4288085770
12.352486 -0.91769063 -1.8990011 4288085770
9.2328949 -0.68402559 -1.8666217 4288085770
6.699234 -0.49086136 -1.8408241 4288085770
3.080658 -0.20476894 -1.8075562 4288085770
3.8276596 -0.26840848 -1.8093884 4288085770
11.742699 -0.92617738 -1.9011986 4288085770
13.954605 -1.1160685 -1.9044671 4288085770
8.8341827 -0.70069265 -1.8624747 4288085770
6.4495316 -0.50965559 -1.8378477 4288085770
3.700943 -0.28230655 -1.8053832 4288085770
11.078026 -0.922616 -1.8889728 4288085770
8.4475021 -0.71537006 -1.8554232 4288085770
13.379982 -1.1595888 -1.8979168 4288085770
6.247757 -0.52949089 -1.8422482 4288085770
3.5842056 -0.29621375 -1.8044567 4288085770
10.506287 -0.92213416 -1.8844762 4288085770
16.935455 -1.5366369 -1.965626 4288085770
8.1038055 -0.73208416 -1.8517089 4288085770
6.057991 -0.55033666 -1.8467424 4288085770
9.9425964 -0.91765916 -1.8740454 4288085770
3.4744949 -0.31112707 -1.8025849 4288085770
12.879341 -1.2051721 -1.8949475 4288085770
15.762787 -1.4946412 -1.9524302 4288085770
7.7871017 -0.7488215 -1.8492072 4288085770
9.466835 -0.91525888 -1.8723056 4288085770
5.8403091 -0.56815863 -1.8420191 4288085770
3.377739 -0.32605135 -1.8048153 4288085770
14.598228 -1.4446517 -1.9263039 4288085770
12.449661 -1.2528163 -1.8955355 4288085770
8.9951096 -0.90886176 -1.8655999 4288085770
7.5203552 -0.76860154 -1.8510966 4288085770
13.646568 -1.404844 -1.9118457 4288085770
3.2840042 -0.34097838 -1.8060691 4288085770
5.6446152 -0.58599901 -1.8394687 4288085770
8.5463791 -0.90048373 -1.8580766 4288085770
16.771133 -1.7845243 -1.9631617 4288085770
12.870811 -1.3771873 -1.9097631 4288085770
12.076958 -1.3025091 -1.9005704 4288085770
7.2656326 -0.78839236 -1.8520806 4288085770
3.1902847 -0.35590583 -1.8063235 4288085770
8.1486206 -0.89414954 -1.8549531 4288085770
5.4738998 -0.60586149 -1.8411138 4288085770
12.19799 -1.3546187 -1.9144874 4288085770
7.7858353 -0.88784504 -1.8531048 4288085770
15.91954 -1.7978072 -1.9534543 4288085770
7.0129395 -0.80618435 -1.8500819 4288085770
3.1055679 -0.37184125 -1.8076479 4288085770
11.516235 -1.3240409 -1.9091465 4288085770
11.734276 -1.3512278 -1.9038427 4288085770
5.3071976 -0.62472689 -1.840791 4288085770
7.4410477 -0.88055563 -1.8523986 4288085770
10.871513 -1.292495 -1.9010975 4288085770
6.8032074 -0.82801384 -1.8544188 4288085770
15.064003 -1.8000863 -1.9367232 4288085770
7.1472244 -0.87530947 -1.855092 4288085770
5.136528 -0.64258897 -1.8374381 4288085770
10.30574 -1.2650162 -1.896667 4288085770
11.363647 -1.3919218 -1.8999002 4288085770
6.8394165 -0.86605096 -1.8536785 4288085770
6.5944901 -0.847844 -1.856765 4288085770
9.7959442 -1.2395853 -1.8966758 4288085770
14.240479 -1.7953913 -1.9182494 4288085770
4.9758682 -0.66146028 -1.8351629 4288085770
6.5536194 -0.85781181 -1.8534372 4288085770
9.2901764 -1.2111573 -1.890718 4288085770
11.038017 -1.4366547 -1.8993094 4288085770
6.300766 -0.8496002 -1.8564551 4288085770
6.4037704 -0.86968982 -1.8602519 4288085770
17.287262 -2.2620099 -1.9468918 4288085770
8.7834702 -1.1787283 -1.8777554 4288085770
13.607803 -1.8058608 -1.918267 4288085770
4.8371735 -0.68035042 -1.836061 4288085770
6.0369492 -0.83937907 -1.8553882 4288085770
8.3407135 -1.1493535 -1.8702939 4288085770
10.762329 -1.4844306 -1.9031098 4288085770
5.7831573 -0.82816631 -1.8524008 4288085770
6.2021103 -0.88752604 -1.8576548 4288085770
7.9449234 -1.1250197 -1.8671985 4288085770
13.033119 -1.8153793 -1.9197416 4288085770
16.611656 -2.2964442 -1.9405549 4288085770
4.6885223 -0.69823176 -1.8328815 4288085770
5.5393448 -0.81496155 -1.8484931 4288085770
7.5691376 -1.0997019 -1.8622611 4288085770
5.31353 -0.80377233 -1.8467255 4288085770
6.0403976 -0.9103967 -1.8623693 4288085770
7.2372894 -1.0774221 -1.8636675 4288085770
10.541618 -1.5372536 -1.9123392 4288085770
12.499413 -1.8229326 -1.9235401 4288085770
5.0857315 -0.789581 -1.8409445 4288085770
4.5518723 -0.71612364 -1.8297963 4288085770
15.982079 -2.3279173 -1.9325824 4288085770
6.934433 -1.0561664 -1.864301 4288085770
4.8689194 -0.77539885 -1.8362498 4288085770
6.6495743 -1.0359263 -1.8660755 4288085770
5.8727036 -0.93026197 -1.8630388 4288085770
4.6611176 -0.76122433 -1.8296258 4288085770
11.984726 -1.8265017 -1.9244912 4288085770
10.291969 -1.5830518 -1.914346 4288085770
6.3966675 -1.0177135 -1.8710997 4288085770
4.4142456 -0.73301488 -1.8257041 4288085770
4.4772568 -0.74807024 -1.8291898 4288085770
15.358543 -2.3543961 -1.920661 4288085770
6.142807 -0.99850011 -1.8731174 4288085770
4.2884521 -0.73391187 -1.8227153 4288085770
5.8709946 -0.97426987 -1.866997 4288085770
5.70504 -0.95012796 -1.8627083 4288085770
11.514992 -1.8311094 -1.9297953 4288085770
4.1285706 -0.7217778 -1.823467 4288085770
5.5802307 -0.94502378 -1.8537307 4288085770
4.2965927 -0.75192314 -1.8247681 4288085770
10.04335 -1.6268506 -1.9133625 4288085770
17.416443 -2.7581699 -1.9375682 4293729569
3.966713 -0.70864201 -1.8212037 4288085770
5.3653412 -0.9258424 -1.8540547 4288085770
14.838951 -2.3889632 -1.914552 4288085770
3.8168335 -0.69651645 -1.8210344 4288085770
5.1295166 -0.90264273 -1.8482165 4288085770
5.5354156 -0.96799183 -1.8583641 4288085770
11.007355 -1.8246841 -1.9258089 4288085770
3.6649628 -0.68238878 -1.8178501 4288085770
4.891716 -0.87644136 -1.8373647 4288085770
4.1789551 -0.77083153 -1.8228319 4288085770
3.5280838 -0.6702742 -1.8177826 4288085770
4.6818771 -0.85426378 -1.8307302 4288085770
9.8306961 -1.6736802 -1.9156599 4288085770
3.4031677 -0.65916961 -1.8198087 4288085770
4.496994 -0.83410758 -1.8282905 4288085770
17.325691 -2.8811066 -1.9497714 4288085770
14.363365 -2.4245679 -1.9087887 4288085770
3.2772598 -0.64606363 -1.8198283 4288085770
4.3171005 -0.81395561 -1.8258903 4288085770
5.3977203 -0.98888302 -1.861269 4288085770
10.564659 -1.8213141 -1.9273312 4288085770
16.484932 -2.793391 -1.9452205 4288085770
3.1583557 -0.633964 -1.8199019 4288085770
4.1372452 -0.79280293 -1.8194907 4288085770
3.9773407 -0.77366757 -1.8182468 4288085770
4.068306 -0.7887457 -1.8219519 4288085770
3.8354111 -0.75654781 -1.8191428 4288085770
3.6994629 -0.73943239 -1.820086 4288085770
9.625061 -1.7195159 -1.9170134 4288085770
3.5585556 -0.72131288 -1.8169906 4288085770
10.150948 -1.8169684 -1.9290826 4288085770
17.125046 -2.985949 -1.948123 4288085770
3.4136658 -0.70119005 -1.8118651 4288085770
5.2660599 -1.01078 -1.8632209 4288085770
15.413452 -2.7074819 -1.9238539 4288085770
14.029678 -2.4782953 -1.9151297 4288085770
3.3006973 -0.68609416 -1.8139875 4288085770
3.1817398 -0.66899329 -1.814064 4288085770
3.0647888 -0.65189338 -1.8131564 4288085770
3.9736557 -0.80967444 -1.8231957 4288085770
3.1380539 -0.61684436 -1.8167987 4288085770
13.497734 -2.2370703 -1.9137223 4288085770
3.9361267 -0.75085878 -1.8262806 4288085770
7.7458115 -1.3498611 -1.8985891 4288085770
11.295692 -1.9169298 -1.9364636 4288085770
7.6870422 -1.3589101 -1.8762999 4288085770
16.148712 -2.7140849 -1.9616821 4288085770
10.940895 -1.8859569 -1.9185333 4288085770
7.4260635 -1.3378581 -1.8958838 4288085770
10.785912 -1.886907 -1.9397221 4288085770
3.8314743 -0.76786166 -1.8247666 4288085770
13.260147 -2.3080714 -1.9146309 4288085770
7.109314 -1.322857 -1.8921876 4288085770
7.5274048 -1.3959013 -1.8805418 4288085770
10.274132 -1.8508927 -1.9389565 4288085770
15.385139 -2.6990917 -1.9496419 4288085770
10.625298 -1.9179574 -1.9169464 4288085770
3.722847 -0.78287053 -1.8202274 4288085770
6.8465347 -1.3148421 -1.8957899 4288085770
9.8003616 -1.8178788 -1.9383969 4288085770
13.043556 -2.3770726 -1.9156451 4288085770
14.628578 -2.6761045 -1.9346206 4288085770
7.3557892 -1.428901 -1.880712 4288085770
6.5817566 -1.3028331 -1.896373 4288085770
10.330681 -1.9489571 -1.9154673 4288085770
9.3326035 -1.7818733 -1.9338624 4288085770
3.6321945 -0.80086935 -1.8207891 4288085770
6.3479538 -1.2938157 -1.901125 4288085770
8.9248123 -1.7508562 -1.9356534 4288085770
12.873947 -2.4540687 -1.9199235 4288085770
13.98996 -2.665098 -1.9302442 4288085770
7.2071762 -1.4648948 -1.8840094 4288085770
10.06707 -1.9819556 -1.9151549 4288085770
3.5375595 -0.81687444 -1.8183253 4288085770
6.1261444 -1.284799 -1.9059401 4288085770
8.5020599 -1.7138575 -1.9283526 4288085770
5.9093323 -1.273784 -1.9097772 4288085770
8.0783157 -1.6728675 -1.9170375 4288085770
13.409317 -2.6550877 -1.9281743 4288085770
12.627403 -2.5150838 -1.9137628 4288085770
7.081543 -1.5028843 -1.889432 4288085770
3.4489136 -0.83287936 -1.8158932 4288085770
9.8094711 -2.0149546 -1.9148743 4288085770
7.6975555 -1.6348718 -1.9089546 4288085770
5.7035294 -1.2637694 -1.9136739 4282675967
12.88266 -2.6470735 -1.9283919 4288085770
7.3637695 -1.6038663 -1.9061339 4288085770
5.4947205 -1.2497607 -1.9145463 4282675967
12.394867 -2.5751038 -1.9056733 4288085770
3.3732758 -0.85187614 -1.8175356 4288085770
6.9459305 -1.5378801 -1.8917952 4288085770
9.5708771 -2.0489554 -1.9136953 4288085770
7.0669479 -1.5758549 -1.9065137 4288085770
5.2669525 -1.2307667 -1.9083078 4282675967
12.337044 -2.6290696 -1.9234879 4288085770
6.8041077 -1.5528359 -1.9110825 4288085770
5.0581589 -1.2127688 -1.9041715 4288085770
3.3016357 -0.87087297 -1.8191991 4288085770
12.29525 -2.6590943 -1.9133339 4288085770
6.8333054 -1.5778698 -1.89729 4288085770
9.3502731 -2.0829566 -1.9126108 4288085770
6.5592651 -1.5308148 -1.9167483 4288085770
4.7784882 -1.1798161 -1.8776295 4288085770
11.874359 -2.6210477 -1.928041 4288085770
6.3274078 -1.5097942 -1.9224842 4288085770
4.56073 -1.155835 -1.8654327 4288085770
3.2329941 -0.88986957 -1.8208783 4288085770
6.1025391 -1.4867754 -1.9272528 4282675967
6.7166901 -1.6148617 -1.9017572 4288085770
12.139687 -2.732101 -1.9126768 4288085770
9.1267014 -2.1149623 -1.9095058 4288085770
4.3629608 -1.1358479 -1.8563495 4288085770
11.38372 -2.6000435 -1.9234185 4288085770
5.8447495 -1.4567775 -1.9218328 4282675967
4.1791611 -1.1158565 -1.8493395 4288085770
3.1703491 -0.90886652 -1.8225889 4288085770
5.6298904 -1.4327654 -1.9236515 4282675967
4.0073624 -1.0968633 -1.843395 4288085770
6.611084 -1.6528559 -1.9052846 4288085770
8.9021225 -2.1439712 -1.9043891 4288085770
11.983131 -2.802114 -1.9090078 4288085770
10.953041 -2.5870233 -1.9271286 4288085770
5.4110565 -1.405762 -1.9214425 4282675967
17.955734 -4.084219 -1.9961767 4288085770
3.8455582 -1.0788702 -1.8375051 4288085770
5.2002106 -1.3787583 -1.9192755 4282675967
3.0997162 -0.92586744 -1.822253 4288085770
3.6857376 -1.0598769 -1.8316233 4288085770
4.974411 -1.3477695 -1.9100213 4282675967
16.977089 -3.9801989 -1.988811 4288085770
10.48542 -2.5590255 -1.919611 4288085770
6.5034866 -1.6898519 -1.907799 4288085770
8.7085495 -2.1789751 -1.9024484 4288085770
3.5419083 -1.0428778 -1.8288302 4288085770
11.87355 -2.8801169 -1.9106028 4288085770
4.7326279 -1.3107953 -1.8936698 4288085770
3.4240494 -1.0308658 -1.8321841 4288085770
4.4878769 -1.2718319 -1.8722982 4288085770
16.056442 -3.8801813 -1.9817581 4288085770
10.098732 -2.5430076 -1.922545 4288085770
3.29319 -1.0138663 -1.829459 4288085770
4.2840576 -1.2388495 -1.8601549 4288085770
6.3928986 -1.7258524 -1.9082954 4288085770
8.5149841 -2.2099848 -1.8974986 4288085770
3.1783295 -1.0008589 -1.8308263 4288085770
4.1012344 -1.2108618 -1.8511329 4288085770
11.75898 -2.9561243 -1.9101672 4288085770
3.9283905 -1.1838719 -1.8431654 4288085770
15.153831 -3.7721744 -1.9687819 4288085770
9.7070694 -2.521996 -1.9224415 4288085770
3.7765198 -1.1598734 -1.8393147 4288085770
3.6296463 -1.1358776 -1.8344903 4288085770
6.3052979 -1.7668449 -1.9129236 4288085770
8.340416 -2.2439911 -1.8946552 4288085770
3.4917679 -1.112878 -1.8317151 4288085770
11.665405 -3.0361302 -1.9108505 4288085770
14.370171 -3.6801608 -1.9614654 4288085770
9.3433838 -2.5009844 -1.9224849 4288085770
3.3628693 -1.0918758 -1.8299918 4288085770
3.2389679 -1.0698761 -1.8272924 4288085770
3.133049 -1.0528663 -1.8296983 4288085770
13.650505 -3.5961421 -1.9575021 4288085770
6.213707 -1.8038431 -1.9145219 4288085770
8.1998215 -2.283989 -1.8960032 4288085770
8.9657288 -2.472981 -1.9184396 4288085770
11.583824 -3.1181364 -1.9116013 4288085770
12.964844 -3.5101302 -1.9507127 4288085770
8.5860901 -2.4399855 -1.9103725 4288085770
6.1281204 -1.8418399 -1.9171538 4288085770
8.0842133 -2.3289821 -1.9004931 4288085770
11.530243 -3.2061386 -1.9145122 4288085770
12.318184 -3.4271193 -1.9441345 4288085770
8.2364349 -2.4099841 -1.9054694 4288085770
6.0545197 -1.8838323 -1.9218576 4288085770
7.9426498 -2.3669863 -1.8988316 4288085770
11.68055 -3.3381209 -1.9315901 4288085770
11.458679 -3.2901478 -1.9143195 4288085770
7.9227524 -2.3839772 -1.903764 4288085770
11.128876 -3.2651093 -1.9265323 4288085770
7.8020935 -2.4019973 -1.8941686 4288085770
5.9399872 -1.9128493 -1.9143176 4288085770
7.6630173 -2.3689539 -1.9103661 4288085770
11.437073 -3.3851492 -1.9184136 4288085770
10.596191 -3.1901007 -1.9205697 4288085770
18.149254 -5.2305164 -1.9257095 4293729569
7.3543625 -2.3369553 -1.9046736 4288085770
7.671524 -2.4390039 -1.8915625 4288085770
5.8843765 -1.956838 -1.9211202 4288085770
10.139488 -3.1290853 -1.9190366 4288085770
11.396507 -3.4751565 -1.9193971 4288085770
7.1036301 -2.3169384 -1.9083118 4288085770
18.316177 -5.4237599 -1.8270087 4293729569
17.576912 -5.224607 -1.8776906 4293729569
9.693779 -3.0650723 -1.9165547 4288085770
7.5549545 -2.4780087 -1.890034 4288085770
5.8008118 -1.9928454 -1.9187579 4288085770
6.8399353 -2.289932 -1.9068663 4288085770
11.365936 -3.5681641 -1.9204395 4288085770
9.2740707 -3.0040598 -1.9142156 4288085770
17.520584 -5.3387423 -1.8216443 4293729569
17.08857 -5.2356877 -1.8361497 4293729569
6.6231918 -2.2739096 -1.9136918 4288085770
7.4523849 -2.5210121 -1.8895879 4288085770
5.7212524 -2.0288503 -1.917417 4288085770
8.8583832 -2.9400556 -1.907891 4288085770
11.34436 -3.6651723 -1.9215379 4288085770
6.3824844 -2.2479031 -1.9123693 4288085770
16.833954 -5.2747087 -1.8258979 4293729569
16.792137 -5.2967453 -1.8097262 4293729569
8.4816589 -2.8810461 -1.9047821 4288085770
7.346817 -2.5600193 -1.8871171 4288085770
5.635704 -2.0628614 -1.9130402 4288085770
6.1687393 -2.226887 -1.9161992 4288085770
11.365761 -3.7741716 -1.9278884 4288085770
16.335236 -5.2556529 -1.8442371 4293729569
8.1209564 -2.8240392 -1.9007616 4288085770
16.599648 -5.3827896 -1.791904 4293729569
5.9590073 -2.2038746 -1.9180458 4288085770
7.2602463 -2.6050208 -1.8877592 4288085770
5.5311966 -2.0888846 -1.9025457 4288085770
7.7952118 -2.7730267 -1.8999376 4288085770
15.796539 -5.2166038 -1.8583221 4293729569
11.34919 -3.8711843 -1.9270132 4288085770
5.7592697 -2.1818604 -1.9209471 4288085770
7.4724808 -2.7180204 -1.8961208 4288085770
16.398186 -5.46384 -1.771023 4293729569
7.171669 -2.6480262 -1.8863866 4288085770
5.4466553 -2.1208999 -1.8961697 4288085770
5.5535355 -2.1548543 -1.9198058 4288085770
15.352798 -5.2015429 -1.8799586 4293729569
7.1907272 -2.6730049 -1.897541 4288085770
11.367607 -3.9801922 -1.9293478 4288085770
5.3767853 -2.1358385 -1.9238343 4288085770
16.448593 -5.6228533 -1.7736366 4293729569
6.9379501 -2.6339836 -1.9021266 4288085770
7.0721207 -2.6860394 -1.880945 4288085770
16.898743 -5.7931676 -1.1913651 4293729569
5.4170532 -2.1688888 -1.9031172 4288085770
14.858109 -5.1624966 -1.8932743 4293729569
16.969994 -5.8400917 -0.77483571 4293729569
5.1411209 -2.0948572 -1.9105051 4288085770
11.389023 -4.088202 -1.9306962 4288085770
6.6692047 -2.5869746 -1.9006107 4288085770
16.528992 -5.7878737 -1.7764204 4293729569
16.810738 -5.8870311 -1.2591093 4293729569
4.9413986 -2.0628669 -1.9043839 4288085770
6.4184418 -2.542969 -1.9001954 4288085770
7.0195236 -2.7390409 -1.8847826 4288085770
14.416374 -5.1324477 -1.9108868 4293729569
5.3285065 -2.1969135 -1.8947105 4288085770
16.951622 -5.9682145 -0.72801745 4293729569
11.416428 -4.2002163 -1.9320824 4288085770
4.7446899 -2.0298755 -1.896276 4288085770
6.1976471 -2.5059505 -1.9039521 4288085770
16.812698 -6.0108786 -1.3343881 4293729569
16.445496 -5.9029169 -1.761229 4293729569
14.024635 -5.1133885 -1.9317834 4288085770
6.9579391 -2.78704 -1.88656 4288085770
5.9788742 -2.4669359 -1.9057152 4288085770
17.051254 -6.1373339 -0.68290651 4293729569
4.5539703 -1.9958817 -1.8891969 4288085770
5.2909393 -2.2419102 -1.8976076 4288085770
11.452835 -4.3152261 -1.9335215 4288085770
5.788063 -2.4349158 -1.9106407 4288085770
4.3692627 -1.9628905 -1.8811519 4288085770
13.663879 -5.0993233 -1.9558539 4288085770
16.466942 -6.0529475 -1.7546659 4293729569
6.8803864 -2.8290513 -1.8822405 4288085770
5.5922623 -2.3988996 -1.9135311 4288085770
5.2243958 -2.275923 -1.8923285 4288085770
4.2115097 -1.9358891 -1.8782618 4288085770
11.518242 -4.4412313 -1.9381371 4288085770
5.3804932 -2.3558958 -1.9103222 4288085770
13.283134 -5.0722675 -1.974791 4288085770
4.0248108 -1.8979107 -1.8641953 4288085770
16.531395 -6.2169762 -1.7503593 4293729569
6.8118134 -2.8730583 -1.8799727 4288085770
5.1777267 -2.3128948 -1.9061608 4288085770
5.1608429 -2.3099356 -1.8870649 4288085770
3.9090118 -1.8818914 -1.8705499 4288085770
11.586655 -4.5702405 -1.9407747 4288085770
12.814453 -5.0092306 -1.982187 4288085770
4.9739685 -2.2688973 -1.8999918 4288085770
3.7542648 -1.8518981 -1.8636689 4288085770
17.48439 -6.6968818 -1.828414 4293729569
6.7622223 -2.9230597 -1.8808179 4288085770
4.7761993 -2.2239006 -1.8938525 4288085770
5.0893173 -2.3399546 -1.878751 4288085770
12.298836 -4.922215 -1.9782841 4288085770
3.6254883 -1.8288916 -1.86394 4288085770
11.669037 -4.704246 -1.9454973 4288085770
4.6064072 -2.1868958 -1.8918774 4288085770
3.4887314 -1.8018949 -1.8591604 4288085770
4.4286346 -2.1458991 -1.8858519 4288085770
6.7206497 -2.9760621 -1.8817112 4288085770
5.0567322 -2.3829556 -1.8796699 4288085770
11.779236 -4.8282051 -1.9713447 4288085770
3.3559647 -1.7738985 -1.8543997 4288085770
4.24086 -2.0979149 -1.8737586 4288085770
11.828377 -4.8682389 -1.9586895 4288085770
4.0930481 -2.0639091 -1.8729057 4288085770
3.2411652 -1.7518939 -1.8537464 4288085770
6.6820602 -3.0300636 -1.882623 4288085770
11.239662 -4.7182088 -1.9572651 4288085770
5.0091858 -2.4209669 -1.8754995 4288085770
3.9352493 -2.0239148 -1.8659875 4288085770
3.1273804 -1.7288914 -1.8520963 4288085770
11.88781 -4.9972582 -1.95628 4288085770
16.108437 -6.5878019 -1.840935 4293729569
3.798439 -1.9919113 -1.864197 4288085770
3.0265579 -1.7088829 -1.8535213 4288085770
10.763054 -4.6242018 -1.9495521 4288085770
3.6696014 -1.9599081 -1.8624485 4288085770
6.6444778 -3.0830657 -1.8835375 4288085770
4.9806061 -2.4659681 -1.8764439 4288085770
15.268791 -6.3817635 -1.837069 4293729569
3.5407867 -1.9279071 -1.8597002 4288085770
11.660454 -5.0183492 -1.9131272 4288085770
10.330406 -4.5401893 -1.9450917 4288085770
3.4109573 -1.8929096 -1.8549402 4288085770
6.6019058 -3.1340742 -1.8814218 4288085770
3.295105 -1.8629066 -1.8532643 4288085770
14.527122 -6.2017217 -1.837775 4293729569
4.9440536 -2.5079756 -1.8743398 4288085770
3.1742706 -1.8289121 -1.8475537 4288085770
11.405128 -5.0254502 -1.8637965 4293729569
9.8927994 -4.4491854 -1.93659 4288085770
3.0813904 -1.8058993 -1.8510144 4288085770
13.785461 -6.0106912 -1.8324571 4293729569
2.9925003 -1.7828863 -1.8544958 4288085770
6.5783157 -3.1920743 -1.8834209 4288085770
4.8974991 -2.5439885 -1.8691702 4288085770
9.5231476 -4.3781691 -1.9354892 4288085770
11.29969 -5.0875177 -1.834374 4293729569
13.000885 -5.794682 -1.8158586 4293729569
6.5447388 -3.2450824 -1.8813567 4288085770
9.1554947 -4.3031592 -1.9313903 4288085770
4.868927 -2.5869939 -1.8681104 4288085770
11.18026 -5.1425881 -1.8028626 4293729569
12.335243 -5.6156626 -1.8069663 4293729569
8.790863 -4.2241507 -1.9262981 4288085770
6.532135 -3.3060832 -1.8834205 4288085770
11.712601 -5.443645 -1.7983153 4293729569
4.8493423 -2.6329975 -1.8681042 4288085770
11.206718 -5.2546282 -1.7902429 4293729569
8.4522018 -4.1501412 -1.922354 4288085770
11.202904 -5.3116136 -1.7993455 4293729569
6.5225372 -3.3690844 -1.885504 4288085770
4.8267517 -2.6770029 -1.8670783 4288085770
11.262177 -5.3796659 -1.7798042 4293729569
8.1355438 -4.0801325 -1.918534 4288085770
10.791153 -5.2135673 -1.8099651 4293729569
6.5139236 -3.432085 -1.887593 4288085770
7.8468628 -4.0191164 -1.9188807 4288085770
4.8111725 -2.7250068 -1.8670979 4288085770
11.491508 -5.5796661 -1.7914433 4293729569
10.353432 -5.1005321 -1.8144152 4293729569
6.5103302 -3.4970868 -1.8897128 4288085770
7.5681763 -3.9581027 -1.9182801 4288085770
10.018646 -5.0264788 -1.8304915 4293729569
4.7925873 -2.7710123 -1.866097 4288085770
11.620911 -5.7386923 -1.7884674 4293729569
7.2715225 -3.885098 -1.9125588 4288085770
9.7458191 -4.9744153 -1.852942 4293729569
6.4987335 -3.5590937 -1.8887839 4288085770
11.939186 -5.9826832 -1.8076706 4293729569
4.7790146 -2.8190181 -1.8651271 4288085770
9.545929 -4.9493361 -1.8848348 4288085770
7.0138245 -3.8250844 -1.9120708 4288085770
6.5121078 -3.6310914 -1.8930082 4288085770
12.34642 -6.2716613 -1.8364394 4293729569
9.3820114 -4.9392457 -1.9229493 4288085770
6.7711258 -3.7690699 -1.9126704 4288085770
4.7764053 -2.8720181 -1.8672259 4288085770
9.1561584 -4.897181 -1.9466686 4288085770
6.5095062 -3.6960988 -1.8921332 4288085770
6.5154495 -3.7030671 -1.9071798 4288085770
12.700699 -6.5426583 -1.8548906 4293729569
4.7717972 -2.9230196 -1.8683097 4288085770
8.8024216 -4.7921576 -1.947578 4288085770
6.2857437 -3.6440585 -1.9048412 4288085770
6.5278702 -3.770097 -1.8963883 4288085770
13.033989 -6.8086629 -1.869221 4293729569
8.4037552 -4.6631589 -1.9351983 4288085770
4.7641983 -2.9720259 -1.8673735 4288085770
6.0680466 -3.5890486 -1.9035742 4288085770
8.0590439 -4.5531502 -1.9291441 4288085770
6.537262 -3.8401036 -1.8965874 4288085770
5.8423538 -3.5270462 -1.8982503 4288085770
4.7625961 -3.0250304 -1.8674774 4288085770
7.7453156 -4.4541388 -1.9252768 4288085770
5.6456223 -3.4750347 -1.8981004 4288085770
6.5586319 -3.9161057 -1.8988626 4288085770
7.4495773 -4.3601255 -1.9225149 4288085770
4.7649918 -3.0790348 -1.8676047 4288085770
5.4569016 -3.4250259 -1.896997 4288085770
7.1758347 -4.2731113 -1.9208839 4288085770
6.5790024 -3.9911103 -1.9001303 4288085770
9.6027908 -5.4735241 -1.3682528 4293729569
5.272171 -3.3740172 -1.8959124 4288085770
4.760376 -3.1290431 -1.8656867 4288085770
6.905098 -4.183104 -1.9162624 4288085770
6.6093674 -4.0711136 -1.9024615 4288085770
5.07547 -3.3150179 -1.8897474 4288085770
6.673317 -4.1090841 -1.9178805 4288085770
9.503334 -5.5096059 -1.3308053 4293729569
4.7847366 -3.1930377 -1.8709512 4288085770
9.56073 -5.5839534 -0.72325802 4293729569
6.4135742 -4.018084 -1.9103148 4288085770
4.892746 -3.2590196 -1.8836627 4288085770
6.6327286 -4.14712 -1.9027474 4288085770
9.4448776 -5.5656819 -1.2976171 4293729569
6.1678391 -3.9310808 -1.9038312 4288085770
4.7339935 -3.2130094 -1.8837256 4288085770
4.7931137 -3.2500424 -1.8711166 4288085770
9.4742508 -5.6240296 -0.68888772 4293729569
5.9630432 -3.8620682 -1.9036024 4288085770
6.6750717 -4.2341189 -1.9071572 4288085770
4.5632706 -3.1590111 -1.8777084 4288085770
9.4193954 -5.6347556 -1.2666308 4293729569
5.7472687 -3.7840626 -1.899296 4288085770
4.8144684 -3.3130412 -1.8743634 4288085770
9.4217758 -5.6801052 -0.65573108 4293729569
4.4055176 -3.1090095 -1.8737679 4288085770
9.4980087 -5.7274551 -0.046225011 4293729569
5.5454865 -3.7110558 -1.8960745 4288085770
6.7124176 -4.3181252 -1.908534 4288085770
9.4278793 -5.7218227 -1.2398623 4293729569
4.2667465 -3.0670002 -1.8739448 4288085770
5.371666 -3.6500413 -1.8970261 4288085770
4.8388138 -3.3770404 -1.8776283 4288085770
9.4113007 -5.7581825 -0.62384319 4293729569
9.5031815 -5.8143849 -0.081439853 4293729569
4.1359787 -3.0279911 -1.8741703 4288085770
5.186882 -3.5810378 -1.8929024 4288085770
6.7507706 -4.4011331 -1.9089141 4288085770
5.012085 -3.515034 -1.8888378 4288085770
3.9902344 -2.9779942 -1.8682933 4288085770
9.4268036 -5.848258 -0.59311819 4293729569
4.8501816 -3.4340496 -1.8758097 4288085770
4.8482742 -3.4530292 -1.8858399 4288085770
6.8021011 -4.4931355 -1.9123821 4288085770
3.8614426 -2.9349892 -1.8665206 4288085770
4.6874619 -3.3900261 -1.8818557 4288085770
4.874527 -3.4980509 -1.8780744 4288085770
3.7306747 -2.8899884 -1.8627331 4288085770
4.5366287 -3.3300216 -1.8789306 4288085770
6.8734131 -4.5951338 -1.9179771 4288085770
3.6088867 -2.8469882 -1.8589976 4288085770
4.394783 -3.273015 -1.8770592 4288085770
4.8938751 -3.5590584 -1.8773065 4288085770
4.2629395 -3.2200098 -1.8752491 4288085770
3.4930954 -2.8059862 -1.8562977 4288085770
6.9806824 -4.7171206 -1.9308047 4288085770
4.1220932 -3.1600115 -1.8693767 4288085770
3.3902664 -2.7699778 -1.8566771 4288085770
4.0112152 -3.1150007 -1.8706944 4288085770
4.9202194 -3.6240618 -1.8785841 4288085770
3.8933411 -3.0639954 -1.8689628 4288085770
3.2864456 -2.7319739 -1.855047 4288085770
7.0210266 -4.802135 -1.9281998 4288085770
3.7784729 -3.0139947 -1.8652487 4288085770
3.1916046 -2.697964 -1.856473 4288085770
3.6645813 -2.9619937 -1.8615355 4288085770
3.5537109 -2.9109979 -1.8558407 4288085770
4.9595413 -3.6960618 -1.8819454 4288085770
3.1017685 -2.6649568 -1.8569272 4288085770
3.4567947 -2.8659935 -1.8542323 4288085770
7.0353928 -4.8731627 -1.9184279 4288085770
3.3678741 -2.8249879 -1.8536747 4288085770
3.0059433 -2.6279573 -1.8533411 4288085770
3.2899323 -2.7879782 -1.8551836 4288085770
2.5890121 -2.398921 -1.8536489 4288085770
3.2079849 -2.7479725 -1.854665 4288085770
2.6310577 -2.426929 -1.8519309 4288085770
3.1290436 -2.7079692 -1.8531623 4288085770
2.6850891 -2.460933 -1.8522887 4288085770
3.055069 -2.6699619 -1.8536901 4288085770
5.0008545 -3.769062 -1.8853195 4288085770
2.9250717 -2.5969462 -1.8558474 4288085770
2.7341232 -2.490941 -1.8506119 4288085770
2.9880981 -2.6349552 -1.8542614 4288085770
2.915123 -2.5949543 -1.8517904 4288085770
2.7921448 -2.5259457 -1.8509932 4288085770
2.8481445 -2.5579515 -1.8503575 4288085770
6.9488831 -4.8862295 -1.8869987 4288085770
2.8422165 -2.5639434 -1.8543386 4288085770
2.7643433 -2.5329361 -1.8548605 4288085770
5.0351791 -3.8380661 -1.8866479 4288085770
2.6974411 -2.5059252 -1.8574488 4288085770
6.8253937 -4.8753109 -1.8473227 4293729569
2.6185684 -2.4719245 -1.8549592 4288085770
2.5626373 -2.4489102 -1.8596141 4288085770
5.0834656 -3.9140663 -1.8900652 4288085770
6.7558594 -4.8933744 -1.8179936 4293729569
5.1167908 -3.9810767 -1.8883841 4288085770
6.7712173 -4.9584064 -1.8062139 4293729569
5.1630783 -4.0560789 -1.890789 4288085770
6.7715912 -5.0154471 -1.7893379 4293729569
5.2023926 -4.1270928 -1.8881483 4288085770
6.7829437 -5.0764856 -1.7745285 4293729569
5.2486649 -4.2010994 -1.888551 4288085770
6.895195 -5.1984892 -1.7793829 4293729569
7.0473862 -5.344481 -1.7914999 4293729569
5.3199234 -4.2900968 -1.8941178 4288085770
7.1516418 -5.4614949 -1.7913015 4293729569
5.368187 -4.3641081 -1.8925309 4288085770
7.2658768 -5.583508 -1.7921667 4293729569
5.4614105 -4.4661031 -1.9002419 4288085770
7.4110794 -5.7255116 -1.7982385 4293729569
5.5695953 -4.5770888 -1.9130511 4288085770
7.4583817 -5.8045545 -1.7826579 4293729569
5.6398392 -4.6640973 -1.9136086 4288085770
7.5996017 -5.9445686 -1.7837043 4293729569
5.7140656 -4.754106 -1.9141936 4288085770
7.7677765 -6.099575 -1.7899253 4293729569
5.7453537 -4.8151379 -1.9024894 4288085770
7.9089737 -6.2365961 -1.7879655 4293729569
5.6867447 -4.8162088 -1.8691814 4288085770
8.0711517 -6.3866119 -1.7891443 4293729569
5.6401215 -4.8222775 -1.8369474 4293729569
8.2233505 -6.5316367 -1.7862597 4293729569
5.5894928 -4.8243461 -1.8046837 4293729569
8.406517 -6.6946564 -1.7865772 4293729569
5.6417313 -4.892375 -1.7951052 4293729569
5.6679916 -4.9424148 -1.779351 4293729569
5.6842575 -4.9834619 -1.7595246 4293729569
5.7624359 -5.0654836 -1.7541134 4293729569
5.857605 -5.1575022 -1.7508135 4293729569
6.0286636 -5.3004937 -1.7630241 4293729569
