# .PCD v0.7 - Point Cloud Data file format
VERSION 0.7
FIELDS x y z rgb
SIZE 4 4 4 4
TYPE F F F U
COUNT 1 1 1 1
WIDTH 1107
HEIGHT 1
VIEWPOINT 0 0 0 1 0 0 0
POINTS 1107
DATA ascii
3.3596802 2.5652056 -1.8008041 4288085770
-0.61727142 1.5645878 -1.8183005 4288085770
7.9885178 3.6852791 -1.7966778 4288085770
1.6657028 2.1214342 -1.827879 4288085770
10.294434 4.2392979 -1.7921236 4288085770
3.6957855 2.6094933 -1.803349 4288085770
4.180275 2.7264695 -1.7885544 4288085770
13.675476 5.0315356 -1.7824664 4288085770
0.33317566 1.7752856 -1.8186727 4288085770
1.9019089 2.1463244 -1.83182 4288085770
4.0039062 2.6437242 -1.796978 4288085770
-0.54673004 1.5448418 -1.8198271 4288085770
8.1652145 3.6259654 -1.7944412 4288085770
10.919693 4.2837205 -1.7922006 4288085770
2.1271286 2.1652067 -1.8297825 4288085770
4.3019485 2.6809225 -1.789675 4288085770
0.41670227 1.753603 -1.8181224 4288085770
4.3520203 2.6840878 -1.7944388 4288085770
13.676544 4.886498 -1.7866342 4288085770
-0.47719574 1.5241039 -1.8193531 4288085770
2.3523407 2.1820943 -1.8267331 4288085770
11.569969 4.3252468 -1.7911339 4288085770
4.7101364 2.7225087 -1.7888374 4288085770
8.3699036 3.5707555 -1.7930853 4288085770
4.4226227 2.6343722 -1.7907946 4288085770
0.51422119 1.7339633 -1.8195128 4288085770
13.688599 4.7465062 -1.7897739 4288085770
2.6185684 2.2051132 -1.8285108 4288085770
5.0972443 2.7650311 -1.7851121 4288085770
-0.41068268 1.5033662 -1.8168943 4288085770
12.297218 4.3750572 -1.7927225 4288085770
8.6175919 3.5236905 -1.7955568 4288085770
2.8647919 2.2210891 -1.8243492 4288085770
0.60574341 1.7123113 -1.8189218 4288085770
5.5253448 2.8117027 -1.7832022 4288085770
4.5772858 2.5939372 -1.794776 4288085770
13.676651 4.599452 -1.7879941 4288085770
-0.3471756 1.4806279 -1.812439 4288085770
12.996536 4.4077864 -1.7893548 4288085770
3.1070251 2.2330661 -1.8171847 4288085770
5.9684677 2.8564441 -1.7792046 4288085770
8.8822708 3.4756978 -1.796936 4288085770
0.7012558 1.6906816 -1.8173101 4288085770
4.6969528 2.5434055 -1.7918766 4288085770
3.3692627 2.2471099 -1.8119307 4288085770
6.4195786 2.8992283 -1.7731547 4288085770
-0.25965118 1.4629431 -1.8148901 4288085770
0.80476379 1.6700766 -1.8166637 4288085770
9.1839371 3.432838 -1.8001559 4288085770
3.6264877 2.2571576 -1.8026786 4288085770
6.9536896 2.9532974 -1.7737477 4288085770
4.8296051 2.4949257 -1.7889223 4288085770
-0.17914581 1.443249 -1.8143656 4288085770
7.5297928 3.0105362 -1.7731452 4288085770
3.9177399 2.2703149 -1.7972713 4288085770
0.91226196 1.6494883 -1.8159964 4288085770
9.5006027 3.3890438 -1.8022931 4288085770
5.0012589 2.4535627 -1.7918103 4288085770
-0.093650818 1.4235736 -1.8138154 4288085770
8.1688843 3.0740042 -1.7752576 4288085770
4.2590103 2.2896273 -1.7986448 4288085770
1.0247498 1.6289253 -1.8143039 4288085770
9.8182602 3.3442585 -1.8034189 4288085770
8.8919678 3.1467719 -1.7819963 4288085770
4.5942764 2.304939 -1.7960255 4288085770
5.1778946 2.4112318 -1.7926664 4288085770
-0.017166138 1.4018871 -1.8092992 4288085770
1.1332474 1.6063517 -1.8116198 4288085770
9.6900558 3.225821 -1.7903891 4288085770
4.9695435 2.3233902 -1.7962208 4288085770
10.191879 3.3056872 -1.805295 4288085770
0.080345154 1.3832476 -1.8106935 4288085770
5.3565369 2.3669147 -1.7925007 4288085770
1.2777405 1.5898855 -1.8147876 4288085770
10.556122 3.3081367 -1.7984545 4288085770
5.3308334 2.3338151 -1.7914402 4288085770
-1.251442 1.1180627 -1.808944 4288085770
-1.1604843 1.1334244 -1.8075693 4288085770
-1.0605392 1.1508157 -1.8071606 4288085770
-0.95156097 1.168225 -1.809706 4288085770
-0.8425827 1.1856512 -1.8092515 4288085770
-0.72460938 1.2041008 -1.8107569 4288085770
10.551529 3.2600837 -1.8032007 4288085770
-0.61264801 1.2215508 -1.8082874 4288085770
-1.297142 1.0968496 -1.8140535 4288085770
0.18984985 1.3656439 -1.8140326 4288085770
-0.4916687 1.2390234 -1.8077719 4288085770
-1.1981277 1.1102363 -1.8136261 4288085770
5.5551758 2.3256698 -1.7932503 4288085770
11.463188 3.3876364 -1.8022945 4288085770
-0.36767578 1.2565141 -1.806241 4288085770
-1.0991135 1.1226346 -1.811193 4288085770
5.7311172 2.3483758 -1.7894852 4288085770
1.4122314 1.5703963 -1.8149886 4288085770
-0.24168396 1.2730242 -1.8026941 4288085770
-0.99008942 1.1370484 -1.8127208 4288085770
-0.1036911 1.2915637 -1.802098 4288085770
-0.87604523 1.1504875 -1.8132172 4288085770
0.052314758 1.3131558 -1.8044281 4288085770
-0.75801086 1.1649423 -1.813699 4288085770
0.20733643 1.3327553 -1.8047512 4288085770
10.95816 3.2176542 -1.8028851 4288085770
0.29033661 1.3460331 -1.8124056 4288085770
12.390251 3.4612434 -1.8009984 4288085770
6.1504135 2.3610106 -1.7874219 4288085770
-0.63395691 1.1784199 -1.8141444 4288085770
0.36934662 1.3523884 -1.804039 4288085770
5.7718124 2.2834945 -1.7939024 4288085770
1.5567093 1.5519474 -1.8151445 4288085770
-0.50991058 1.1919101 -1.8125899 4288085770
0.54638672 1.3730679 -1.8052564 4288085770
-0.3878479 1.2034032 -1.8090339 4288085770
0.7334137 1.3947871 -1.8064289 4288085770
13.489288 3.5544715 -1.8079398 4288085770
-0.25379181 1.2169318 -1.8074286 4288085770
0.41182709 1.3294764 -1.8156891 4288085770
0.90843201 1.4134936 -1.8016448 4288085770
6.6117249 2.3747971 -1.7871511 4288085770
11.41478 3.1794131 -1.8033381 4288085770
1.110466 1.4362711 -1.802747 4288085770
-0.10971069 1.2304878 -1.8077724 4288085770
1.7121964 1.533535 -1.8162446 4288085770
5.9974518 2.2413557 -1.7945085 4288085770
1.3194962 1.4580818 -1.8028076 4288085770
0.052375793 1.2460967 -1.8110363 4288085770
1.556572 1.4819782 -1.8067377 4288085770
7.0750504 2.3836043 -1.7848411 4288085770
0.21247864 1.2597091 -1.812299 4288085770
0.51729584 1.3088918 -1.8130307 4288085770
11.893387 3.1412649 -1.8026793 4288085770
1.7806168 1.5038651 -1.8037224 4288085770
1.8646622 1.5141234 -1.8153539 4288085770
0.36855316 1.2723296 -1.809576 4288085770
-1.1774521 1.0212864 -1.8129992 4288085770
6.2390671 2.2002795 -1.7950385 4288085770
2.0326691 1.5278382 -1.8045764 4288085770
0.52662659 1.2839633 -1.8058369 4288085770
7.6133728 2.3996758 -1.7871907 4288085770
2.2957306 1.5518597 -1.8043745 4288085770
0.63176727 1.2893312 -1.8123322 4288085770
0.72373962 1.3007023 -1.8099291 4288085770
2.0361328 1.4957795 -1.815372 4288085770
-1.1030045 1.0065578 -1.8145323 4288085770
12.417992 3.1042964 -1.8017919 4288085770
2.5868073 1.577973 -1.8070421 4288085770
0.90885162 1.3134241 -1.8090587 4288085770
6.4786835 2.1562128 -1.7925608 4288085770
8.1637192 2.4088049 -1.7874384 4288085770
2.8878708 1.6031431 -1.806653 4288085770
1.1099854 1.3262087 -1.8081071 4288085770
0.76524353 1.2718272 -1.8145485 4288085770
3.2059479 1.6283796 -1.8061776 4288085770
-1.0426178 0.99081504 -1.8091311 4288085770
2.2065735 1.4764444 -1.8133895 4288085770
1.3090973 1.3379962 -1.8051598 4288085770
13.032585 3.0746574 -1.8044879 4288085770
3.5530243 1.6567179 -1.8075726 4288085770
8.7390747 2.4160383 -1.7865474 4288085770
1.5582428 1.3559217 -1.8119934 4288085770
6.7933044 2.1203866 -1.7987485 4288085770
0.89768982 1.2543316 -1.8147702 4288085770
3.9011078 1.6810838 -1.804939 4288085770
-0.95718384 0.97711849 -1.8126142 4288085770
2.3840256 1.4571365 -1.8113713 4288085770
1.7673645 1.3657658 -1.8059835 4288085770
4.2931976 1.7096037 -1.8051054 4288085770
9.4304504 2.4326677 -1.7951195 4288085770
2.0055084 1.3767005 -1.8038323 4288085770
1.0391464 1.2358712 -1.81494 4288085770
7.0959244 2.0785491 -1.7989619 4288085770
-0.87377167 0.96342504 -1.8141074 4288085770
4.6892776 1.7351629 -1.801234 4288085770
2.5894699 1.4399203 -1.8122225 4288085770
2.273674 1.3907231 -1.8065457 4288085770
5.1253662 1.7638613 -1.8001771 4288085770
10.199829 2.4515781 -1.807307 4288085770
2.5478363 1.4037813 -1.8072231 4288085770
1.1976166 1.2184651 -1.817029 4288085770
-0.79236603 0.94874191 -1.8126051 4288085770
2.8009109 1.4227344 -1.8120427 4288085770
7.4415359 2.0408623 -1.8019795 4288085770
5.5954666 1.792698 -1.7979474 4288085770
2.8450165 1.4159286 -1.8077779 4288085770
10.991226 2.4626033 -1.8143358 4288085770
6.1185608 1.824731 -1.797466 4288085770
1.3400574 1.1980257 -1.814182 4288085770
-0.69293976 0.93509388 -1.8170168 4288085770
3.1531906 1.4281187 -1.8082767 4288085770
3.0453568 1.4066596 -1.8147013 4288085770
7.7971497 2.000221 -1.8039286 4288085770
6.6606598 1.8548439 -1.7958765 4288085770
3.472374 1.4383643 -1.8067076 4288085770
11.655647 2.4472315 -1.8048575 4288085770
-0.60353851 0.92043591 -1.8164735 4288085770
1.4984894 1.1796378 -1.8132651 4288085770
7.2827606 1.8902525 -1.79691 4288085770
3.2807922 1.3885728 -1.8133938 4288085770
3.8225708 1.4497132 -1.807987 4288085770
8.1877594 1.9597169 -1.8056993 4288085770
7.9398651 1.9248089 -1.7957599 4288085770
-0.51516724 0.90578616 -1.8139355 4288085770
12.432076 2.4382582 -1.8018451 4288085770
1.6959305 1.1643673 -1.8181672 4288085770
4.1617661 1.4560602 -1.8022931 4288085770
3.5572128 1.3746177 -1.8169012 4288085770
8.6879807 1.9637048 -1.7971706 4288085770
4.5469589 1.4655579 -1.8013828 4288085770
-0.41377258 0.89116991 -1.8143313 4288085770
8.6153717 1.9203509 -1.8082876 4288085770
1.8653412 1.1450344 -1.8151886 4288085770
9.6001053 2.014178 -1.8088129 4288085770
13.268532 2.4255128 -1.799504 4288085770
3.8366241 1.3576983 -1.8163757 4288085770
4.9631958 1.4731761 -1.8003035 4288085770
-0.32039642 0.87554574 -1.8107617 4288085770
10.680237 2.0762503 -1.8296661 4288085770
-1.0040283 0.79783654 -1.8187945 4288085770
2.0507584 1.1257586 -1.8131285 4288085770
9.0969772 1.8811853 -1.8126013 4288085770
5.3924179 1.4798578 -1.7971518 4288085770
4.109024 1.3387752 -1.8118742 4288085770
11.559326 2.1067407 -1.816359 4288085770
-0.20903015 0.86196887 -1.8111124 4288085770
-0.92367554 0.78415585 -1.8163028 4288085770
5.8586426 1.4856777 -1.7948065 4288085770
2.2651825 1.1085725 -1.8149326 4288085770
4.4504471 1.3250688 -1.8160508 4288085770
12.500404 2.1364801 -1.8017313 4288085770
9.6865997 1.8493894 -1.8254068 4288085770
-0.085647583 0.84842134 -1.8144019 4288085770
6.3759003 1.49168 -1.7952018 4288085770
-0.82427979 0.77052569 -1.817714 4288085770
2.4876022 1.0904237 -1.81569 4288085770
4.7868423 1.3083783 -1.8142354 4288085770
6.9031525 1.4937453 -1.7915227 4288085770
0.040725708 0.83489132 -1.8166764 4288085770
10.374237 1.8199472 -1.8427255 4288085770
-0.72292328 0.75789785 -1.820121 4288085770
2.705986 1.0712836 -1.8124619 4288085770
5.1872482 1.2949036 -1.8181124 4288085770
7.5234451 1.5001206 -1.7963943 4288085770
0.16107178 0.8203615 -1.814975 4288085770
-0.62156677 0.74528217 -1.8205283 4288085770
11.009857 1.7773845 -1.8462319 4288085770
2.9703979 1.0542879 -1.8150115 4288085770
5.540596 1.2753154 -1.8101928 4288085770
8.1317291 1.4975085 -1.7912743 4288085770
0.30343628 0.80688894 -1.8181679 4288085770
-0.50820923 0.73170185 -1.8228683 4288085770
3.2347794 1.0363098 -1.8145554 4288085770
5.9699707 1.2599834 -1.8089106 4288085770
8.8710251 1.5003556 -1.7945173 4288085770
11.566437 1.7245836 -1.8380806 4288085770
0.43677521 0.79241645 -1.8154008 4288085770
-0.40286255 0.71811295 -1.8212492 4288085770
3.5221634 1.0184164 -1.8149822 4288085770
9.7663879 1.5087366 -1.8099971 4288085770
6.4433441 1.244818 -1.8084047 4288085770
0.58311462 0.77797109 -1.8165677 4288085770
-0.29153442 0.70454872 -1.8195996 4288085770
12.185005 1.6710315 -1.8286083 4288085770
3.8385544 1.0006301 -1.8162615 4288085770
6.9536972 1.2308041 -1.8067164 4288085770
0.740448 0.76457465 -1.8166845 4288085770
10.768768 1.5145309 -1.8259151 4288085770
-0.17922974 0.69099426 -1.8169451 4288085770
12.96862 1.6210656 -1.8283141 4288085770
4.14991 0.98184848 -1.8135602 4288085770
0.90577698 0.75020993 -1.8167546 4288085770
7.5300522 1.2170428 -1.8056927 4288085770
11.66111 1.5040123 -1.8222978 4288085770
-0.04989624 0.67748821 -1.8172038 4288085770
1.0600815 0.73483181 -1.8118749 4288085770
4.5042801 0.96322358 -1.8126407 4288085770
8.1763992 1.2045374 -1.8073189 4288085770
0.076408386 0.66398895 -1.8144779 4288085770
12.617477 1.486768 -1.8143141 4288085770
1.2483978 0.7215457 -1.813834 4288085770
4.8826294 0.94469213 -1.8115988 4288085770
0.22270966 0.65153825 -1.8166564 4288085770
8.8817444 1.1922692 -1.8076453 4288085770
1.4506989 0.70831448 -1.815722 4288085770
0.38905334 0.63914204 -1.8227329 4288085770
5.2909775 0.92627907 -1.8104045 4288085770
9.7160873 1.1834768 -1.8123341 4288085770
1.6740265 0.69514775 -1.820503 4288085770
0.53533173 0.6257211 -1.8199055 4288085770
5.7263184 0.90698338 -1.8070672 4288085770
10.657433 1.1760859 -1.8194847 4288085770
1.8863068 0.68097943 -1.8183343 4288085770
0.70761871 0.6133731 -1.8219519 4288085770
6.2336655 0.88993454 -1.8093755 4288085770
11.690758 1.1680791 -1.8221617 4288085770
2.1235962 0.66788578 -1.8200445 4288085770
0.87490082 0.60002851 -1.8200178 4288085770
12.845062 1.1605519 -1.8232241 4288085770
6.7779999 0.87104213 -1.809484 4288085770
2.3748779 0.65385854 -1.8196776 4288085770
1.0421448 0.58669615 -1.8160834 4288085770
7.3933334 0.85341609 -1.8112373 4288085770
2.6281433 0.63985109 -1.8173006 4288085770
4.4229126 0.70888609 -1.8075459 4288085770
1.2484283 0.57348108 -1.8179512 4288085770
4.8518295 0.7265836 -1.8024609 4288085770
4.007988 0.69026649 -1.8085542 4288085770
3.6230621 0.6727643 -1.8094156 4288085770
5.3407745 0.74548674 -1.8020766 4288085770
3.2691422 0.65538359 -1.8101194 4288085770
5.8577118 0.76452339 -1.79755 4288085770
6.4466705 0.7848115 -1.7976632 4288085770
2.9522552 0.63813555 -1.8126349 4288085770
2.6293259 0.62089407 -1.8101811 4288085770
7.1116333 0.80539155 -1.7983902 4288085770
7.8275986 0.82718259 -1.7968638 4288085770
2.350441 0.60379446 -1.8125036 4288085770
8.0616531 0.83500445 -1.8117156 4288085770
2.9374161 0.62702203 -1.8216448 4288085770
2.2134933 0.59724587 -1.8151639 4288085770
1.9405289 0.58618855 -1.814492 4288085770
2.4924545 0.60834408 -1.8128057 4288085770
2.7874069 0.61949956 -1.8113656 4288085770
1.7106094 0.57526374 -1.8196013 4288085770
3.1013794 0.62973511 -1.8088231 4288085770
8.6285858 0.84929538 -1.7969053 4288085770
2.0855637 0.58775544 -1.8137608 4288085770
1.4676819 0.56232899 -1.8177648 4288085770
1.4827118 0.56234628 -1.824688 4288085770
3.4393539 0.64006388 -1.8061588 4288085770
1.2337265 0.55043608 -1.8148882 4288085770
3.8343582 0.65158677 -1.8082104 4288085770
9.5305557 0.87280822 -1.7954395 4288085770
1.8316879 0.57076561 -1.8139558 4288085770
1.0318069 0.53863835 -1.816849 4288085770
4.2203522 0.66110319 -1.8052957 4288085770
0.82489014 0.52684486 -1.8148353 4288085770
10.522545 0.89667463 -1.7935162 4288085770
1.6028137 0.55485594 -1.8170297 4288085770
4.6613693 0.67081749 -1.8051016 4288085770
3.2346725 0.61318088 -1.820044 4288085770
0.65801239 0.51515996 -1.8206182 4288085770
5.1263733 0.6806438 -1.8017855 4288085770
8.8009796 0.81686372 -1.8128331 4288085770
11.658516 0.92210972 -1.7898672 4288085770
1.3649216 0.53895187 -1.8131497 4288085770
1.6869507 0.54915333 -1.8215661 4288085770
0.4661026 0.5024308 -1.8175218 4288085770
5.6374207 0.68863213 -1.8012235 4288085770
1.1520538 0.52312243 -1.8131421 4288085770
13.114563 0.9537034 -1.800621 4288085770
0.3012085 0.49078324 -1.8182943 4288085770
6.2184677 0.6978882 -1.8013115 4288085770
3.5589218 0.59944046 -1.8193064 4288085770
0.95921326 0.50735921 -1.8150327 4288085770
0.14133453 0.47816113 -1.8180354 4288085770
6.8435135 0.70631641 -1.8011701 4288085770
1.9221878 0.53705806 -1.8222923 4288085770
9.6322861 0.79709029 -1.8124707 4288085770
-0.035575867 0.465514 -1.8108628 4288085770
0.77136993 0.49162686 -1.814898 4288085770
7.5495987 0.71305561 -1.8016047 4288085770
3.9131622 0.58581144 -1.819416 4288085770
-0.17142487 0.45296794 -1.8134813 4288085770
0.59752655 0.47694343 -1.8156979 4288085770
8.3046722 0.71899903 -1.7997847 4288085770
2.1644287 0.52399665 -1.8219774 4288085770
10.612633 0.77985257 -1.8193629 4288085770
-0.29026031 0.44147044 -1.8190193 4288085770
0.43070221 0.46128738 -1.8164561 4288085770
9.1717682 0.72536254 -1.8003953 4288085770
4.3094025 0.57333505 -1.8213184 4288085770
2.4306412 0.51202941 -1.8215461 4288085770
-0.42410278 0.42894942 -1.8186278 4288085770
0.26685333 0.44665498 -1.8152051 4288085770
10.124878 0.72906888 -1.7995508 4288085770
11.717957 0.76111603 -1.8236082 4288085770
-0.54995728 0.41745394 -1.8192015 4288085770
4.7056198 0.55888844 -1.8182087 4288085770
11.294037 0.73356664 -1.8066082 4288085770
0.12003326 0.43207112 -1.8168674 4288085770
2.6958466 0.49907559 -1.8181143 4288085770
-0.66778564 0.4049899 -1.8197281 4288085770
12.559181 0.73546529 -1.8091598 4288085770
5.1638336 0.54666138 -1.8187959 4288085770
12.932274 0.74081826 -1.8252873 4288085770
-0.028785706 0.41650292 -1.8145337 4288085770
2.9940643 0.48723376 -1.8175206 4288085770
-0.78662109 0.39253321 -1.8182602 4288085770
-0.1776123 0.40194073 -1.8112061 4288085770
5.6250305 0.53247553 -1.8143563 4288085770
3.3242569 0.47551155 -1.8177643 4288085770
-0.3104248 0.38742325 -1.810797 4288085770
6.1612396 0.51955408 -1.8145411 4288085770
3.6834717 0.46389073 -1.8198605 4288085770
6.7904434 0.5079788 -1.8172593 4288085770
-0.41618347 0.37297577 -1.8162503 4288085770
4.0576477 0.4523468 -1.8188808 4288085770
7.4586411 0.49556243 -1.8187733 4288085770
-0.52796173 0.35951626 -1.8197401 4288085770
4.4568176 0.44090116 -1.8177741 4288085770
8.1658096 0.48332268 -1.8160896 4288085770
4.913002 0.42966044 -1.8193774 4288085770
-0.64375305 0.34507078 -1.8182442 4288085770
8.9799881 0.47048455 -1.8158557 4288085770
5.4091644 0.41957718 -1.8207839 4288085770
9.9251862 0.45913526 -1.8189621 4288085770
5.9062958 0.40853912 -1.8151791 4288085770
-0.75352478 0.33064264 -1.8177176 4288085770
10.971344 0.4481999 -1.8185554 4288085770
6.5074463 0.39886123 -1.8170521 4288085770
12.188499 0.43791056 -1.8212798 4288085770
7.1706085 0.38941401 -1.8206098 4288085770
13.561653 0.42724925 -1.8202052 4288085770
7.8817215 0.38018477 -1.8189237 4288085770
8.6958389 0.37134716 -1.8187141 4288085770
9.6139603 0.36390498 -1.8199823 4288085770
10.674088 0.3569954 -1.8245285 4288085770
13.566048 0.36138529 -1.798789 4288085770
11.851189 0.35056201 -1.8254805 4288085770
12.163101 0.34692055 -1.8008652 4288085770
13.213272 0.34585863 -1.8244979 4288085770
10.958191 0.33321872 -1.8039353 4288085770
9.8642578 0.31897572 -1.8024352 4288085770
8.9483643 0.30439329 -1.8060241 4288085770
8.0884552 0.29006591 -1.8033285 4288085770
-0.74052429 0.27661037 -1.8283248 4288085770
7.3635788 0.27622572 -1.8069465 4288085770
12.505638 0.27726027 -1.7976999 4288085770
6.6596756 0.26151475 -1.8024521 4288085770
11.281784 0.25748312 -1.8008301 4288085770
-0.64131165 0.26301849 -1.8237357 4288085770
6.0908279 0.24727312 -1.807271 4288085770
10.179924 0.23720759 -1.7993343 4288085770
5.5559845 0.23317608 -1.809917 4288085770
9.2220764 0.21847236 -1.8011122 4288085770
-0.53308868 0.24944434 -1.8221009 4288085770
5.0531311 0.21922213 -1.8094006 4288085770
8.3862381 0.20022032 -1.80127 4288085770
4.5982819 0.20445026 -1.8096337 4288085770
-0.42588043 0.23587799 -1.8184714 4288085770
7.6514359 0.18133964 -1.804908 4288085770
4.1754379 0.19080384 -1.8097103 4288085770
6.9615936 0.16365941 -1.8043237 4288085770
-0.29165649 0.2223759 -1.8217046 4288085770
3.7966309 0.17631724 -1.8115571 4288085770
6.3558044 0.14628959 -1.8063121 4288085770
-0.15744781 0.20888582 -1.822938 4288085770
3.4107895 0.16183893 -1.8074391 4288085770
5.792984 0.12910044 -1.806082 4288085770
-0.018241882 0.19542186 -1.8231459 4288085770
3.0849762 0.14756578 -1.8080163 4288085770
-0.6621933 0.19889885 -1.8264537 4288085770
5.3021927 0.11217493 -1.8084855 4288085770
0.13294983 0.18199249 -1.8252928 4288085770
13.259995 -0.024931252 -1.8110397 4288085770
-0.53700256 0.1873735 -1.827745 4288085770
2.7871933 0.13338961 -1.810451 4288085770
4.834404 0.095351234 -1.8087718 4288085770
12.612251 -0.041566581 -1.8302472 4288085770
0.28014374 0.16756561 -1.8244543 4288085770
-0.42287445 0.17683615 -1.8240981 4288085770
2.5234146 0.11932948 -1.8157127 4288085770
11.998291 -0.054847151 -1.8123009 4288085770
11.364365 -0.04941994 -1.8305702 4288085770
4.4136124 0.079711944 -1.8088257 4288085770
0.4393158 0.15418604 -1.8235607 4288085770
-0.29071045 0.16535082 -1.823354 4288085770
10.229446 -0.053806663 -1.8263369 4288085770
0.61049652 0.1398415 -1.8246002 4288085770
2.2626572 0.10429803 -1.8179529 4288085770
-0.15055847 0.15388529 -1.8245692 4288085770
4.0298462 0.063204914 -1.8106852 4288085770
10.868538 -0.082216263 -1.8079035 4288085770
9.2485352 -0.055620313 -1.826333 4288085770
0.78364563 0.12651689 -1.8236358 4288085770
-0.015419006 0.14242384 -1.8218098 4288085770
8.3786011 -0.055992872 -1.8247712 4288085770
2.02388 0.090347141 -1.8210874 4288085770
0.15174103 0.13104613 -1.8258879 4288085770
0.98684692 0.11127968 -1.8275065 4288085770
3.666069 0.046794057 -1.8094428 4288085770
9.9188538 -0.10992834 -1.8105845 4288085770
7.6236725 -0.054939121 -1.8266308 4288085770
0.32188416 0.11968642 -1.8289509 4288085770
1.1910019 0.097064957 -1.8283787 4288085770
6.9337311 -0.052624941 -1.8271663 4288085770
1.7921143 0.076435328 -1.822186 4288085770
0.48400116 0.10832527 -1.8270547 4288085770
1.4111481 0.082907125 -1.8301697 4288085770
3.324295 0.031469345 -1.8080945 4288085770
6.2987671 -0.049082905 -1.8254285 4288085770
0.67211914 0.09804216 -1.8290324 4288085770
13.201752 -0.24629655 -1.8290086 4288085770
1.6322861 0.068765044 -1.8299553 4288085770
9.0381317 -0.13434106 -1.8079329 4288085770
5.7207947 -0.044323266 -1.8244069 4288085770
0.86422729 0.086781085 -1.8299839 4288085770
5.1968079 -0.038358182 -1.8241169 4288085770
11.88974 -0.22840545 -1.8308129 4288085770
1.8583984 0.054660439 -1.8267159 4288085770
1.5743637 0.061578304 -1.8232071 4288085770
1.0473099 0.076508552 -1.8269873 4288085770
4.7128296 -0.032242686 -1.8246238 4288085770
3.035553 0.015316129 -1.8124704 4288085770
1.2734222 0.0653629 -1.8307662 4288085770
10.698692 -0.21001074 -1.8270025 4288085770
2.141571 0.038719714 -1.8331747 4288085770
4.262825 -0.024981409 -1.8229644 4288085770
1.5105362 0.054259896 -1.8344891 4288085770
3.8608322 -0.017550319 -1.8240607 4288085770
1.7385864 0.045152664 -1.8332701 4288085770
9.6516495 -0.19206998 -1.8254547 4288085770
2.4206924 0.023798943 -1.8336601 4288085770
3.4757919 -0.0090342462 -1.822077 4288085770
1.9986725 0.034151971 -1.8348763 4288085770
2.2557144 0.025164336 -1.8325102 4288085770
3.1207733 -0.0014069974 -1.8209348 4288085770
8.2684326 -0.15933639 -1.8077106 4288085770
2.5277405 0.016241372 -1.8290679 4288085770
2.8067474 0.007363528 -1.8225904 4288085770
8.7155838 -0.17468825 -1.8223364 4288085770
2.6687546 0.01081112 -1.8253155 4288085770
1.3595886 0.047750592 -1.8212192 4288085770
7.9145584 -0.15880752 -1.8235204 4288085770
2.9678497 -0.004019022 -1.8236995 4288085770
3.3039551 -0.018721819 -1.8248956 4288085770
7.1875076 -0.142625 -1.8223286 4288085770
2.7638397 -0.0017705858 -1.8167539 4288085770
6.5444717 -0.12613729 -1.8247099 4288085770
3.6440353 -0.033385128 -1.8220713 4288085770
5.9434052 -0.11046088 -1.8228717 4288085770
4.0341187 -0.048870385 -1.8219869 4288085770
4.4501953 -0.063259482 -1.8227768 4288085770
5.404335 -0.094553828 -1.8227186 4288085770
4.9102783 -0.079476178 -1.8233309 4288085770
7.618782 -0.18489811 -1.8128724 4288085770
1.1548309 0.03395611 -1.8201804 4288085770
2.5071182 -0.017792702 -1.819967 4288085770
0.96208954 0.020208389 -1.8190801 4288085770
6.9990845 -0.20730653 -1.8118994 4288085770
13.129097 -0.43649289 -1.8102343 4288085770
2.2413788 -0.033820629 -1.8182256 4288085770
13.668732 -0.50957799 -1.8390408 4288085770
0.78636932 0.0055149496 -1.8198874 4288085770
11.98642 -0.45596781 -1.8149486 4288085770
6.418396 -0.22955671 -1.8097284 4288085770
1.9986496 -0.049770147 -1.8183672 4288085770
13.228912 -0.54215503 -1.8160884 4288085770
0.6256485 -0.0091196895 -1.8206184 4288085770
12.463051 -0.53026974 -1.8390691 4288085770
1.787941 -0.065606564 -1.8203461 4288085770
10.884674 -0.47122183 -1.8094788 4288085770
5.9257355 -0.25249162 -1.8121035 4288085770
0.46393585 -0.023752421 -1.820354 4288085770
11.343315 -0.5446068 -1.835696 4288085770
12.273438 -0.5898993 -1.8196762 4288085770
1.5752258 -0.080439061 -1.8203409 4288085770
9.9469604 -0.48785779 -1.8071628 4288085770
5.4610748 -0.27430579 -1.8123422 4288085770
0.31822205 -0.037334502 -1.8220143 4288085770
1.3805313 -0.096207201 -1.821238 4288085770
10.309547 -0.55359483 -1.8299165 4288085770
9.1262894 -0.50605416 -1.8072402 4288085770
5.0254059 -0.29499999 -1.8114393 4288085770
11.378922 -0.63338089 -1.8189776 4288085770
0.16851044 -0.050908476 -1.8196948 4288085770
1.1908035 -0.11093727 -1.8191159 4288085770
9.4347992 -0.56198955 -1.8283286 4288085770
8.407608 -0.52385676 -1.8077989 4288085770
4.6237488 -0.31556156 -1.8103633 4288085770
0.0207901 -0.064462543 -1.8153651 4288085770
10.517365 -0.67068529 -1.8101473 4288085770
8.6620636 -0.57001495 -1.8312221 4288085770
1.0231323 -0.12661216 -1.8218756 4288085770
7.7779617 -0.54333496 -1.811893 4288085770
4.254097 -0.33600393 -1.8101246 4288085770
3.0352173 0.27353552 -1.8210435 4288085770
1.1512985 0.26437795 -1.8365114 4288085770
1.5463028 0.26236394 -1.8266947 4288085770
2.5053635 0.26486689 -1.8343627 4288085770
1.3764801 0.25342113 -1.8393748 4288085770
2.7344055 0.25709248 -1.8212404 4288085770
1.3264771 0.24931128 -1.8265588 4288085770
2.8045578 0.25126711 -1.8368623 4288085770
1.6246643 0.24254522 -1.845135 4288085770
2.4676208 0.24076262 -1.8262844 4288085770
3.1217346 0.2377748 -1.8372815 4288085770
1.1256561 0.23633006 -1.8283374 4288085770
1.8688126 0.23171039 -1.8449135 4288085770
3.454895 0.22437979 -1.8356287 4288085770
2.1978302 0.22446907 -1.8263421 4288085770
2.1039276 0.22187349 -1.8407428 4288085770
0.92584229 0.22337395 -1.8281116 4288085770
3.8130493 0.21109569 -1.8348639 4288085770
2.3530502 0.21111387 -1.8354993 4288085770
1.9600372 0.20930934 -1.8282664 4288085770
0.74404907 0.20949419 -1.8287947 4288085770
4.2142181 0.19698812 -1.836895 4288085770
2.6281509 0.20146966 -1.8311491 4288085770
4.6493835 0.18306543 -1.8367732 4288085770
2.9492874 0.19097717 -1.8335814 4288085770
1.7062454 0.19312271 -1.8252523 4288085770
3.2944107 0.18159987 -1.835916 4288085770
0.55622864 0.1966258 -1.825515 4288085770
5.1205292 0.16930622 -1.8374898 4288085770
12.809883 0.12410085 -1.8310761 4288085770
13.500038 0.11914527 -1.85589 4288085770
3.6695251 0.17235771 -1.8391159 4288085770
12.103065 0.11449793 -1.8531904 4288085770
5.6186447 0.15669788 -1.8360956 4288085770
4.0446014 0.16318633 -1.8353164 4288085770
10.881088 0.11268419 -1.8507252 4288085770
4.4936981 0.15528086 -1.8401937 4288085770
6.1947937 0.14242496 -1.8383298 4288085770
1.4994965 0.17709181 -1.8290265 4288085770
11.60112 0.099268898 -1.836313 4288085770
9.7950745 0.11253662 -1.8466589 4288085770
0.39144135 0.18382813 -1.8261318 4288085770
4.9407654 0.14744683 -1.837081 4288085770
8.8240356 0.11495434 -1.8410966 4288085770
6.8079147 0.1293613 -1.8374081 4288085770
5.4518433 0.1398609 -1.83968 4288085770
7.9870071 0.11797753 -1.8389318 4288085770
6.0059128 0.13249247 -1.8410857 4288085770
6.5919418 0.12730916 -1.8393686 4288085770
7.2549896 0.12147693 -1.8392949 4288085770
7.4960403 0.11562917 -1.839139 4288085770
8.2561569 0.10225426 -1.8395462 4288085770
10.469315 0.076889187 -1.8332253 4288085770
9.1392899 0.088432387 -1.8433897 4288085770
10.100388 0.075017571 -1.8438833 4288085770
1.283699 0.16207834 -1.8268521 4288085770
13.9077 0.036118716 -1.8521781 4288085770
11.205498 0.062266886 -1.846729 4288085770
12.465599 0.049253911 -1.8498678 4288085770
0.24167633 0.17008175 -1.8286707 4288085770
9.4935226 0.055230916 -1.8324358 4288085770
1.0879288 0.14714064 -1.8265877 4288085770
0.088882446 0.157352 -1.8282337 4288085770
8.6057281 0.035037607 -1.8272617 4288085770
0.89917755 0.13122673 -1.8272812 4288085770
-0.065910339 0.14465216 -1.823806 4288085770
7.8289566 0.014328837 -1.8265779 4288085770
0.71941376 0.11637633 -1.8259447 4288085770
13.529839 -0.11250737 -1.8323574 4288085770
-0.20166016 0.13099369 -1.8242819 4288085770
7.1782074 -0.0058126748 -1.8293273 4288085770
12.250076 -0.13266262 -1.8359656 4288085770
0.54665375 0.10156967 -1.8235769 4288085770
6.566452 -0.024756312 -1.8309124 4288085770
-0.31639099 0.11738507 -1.8296635 4288085770
11.091309 -0.15218401 -1.8340304 4288085770
5.9936981 -0.044482112 -1.8293116 4288085770
0.39294434 0.085813344 -1.8251133 4288085770
-0.45415497 0.1047671 -1.8251593 4288085770
10.047523 -0.17014048 -1.8305886 4288085770
5.4759521 -0.06295234 -1.8284738 4288085770
0.25621796 0.071119249 -1.8285835 4288085770
-0.55987549 0.091212094 -1.8295004 4288085770
13.995483 -0.29963371 -1.8643088 4288085770
9.137764 -0.18845102 -1.826534 4288085770
5.0272141 -0.081120253 -1.8303261 4288085770
12.885628 -0.32166556 -1.8371239 4288085770
12.649727 -0.31804743 -1.8622351 4288085770
0.11550903 0.055436015 -1.8290613 4288085770
-0.67462921 0.078674644 -1.8278928 4288085770
8.341011 -0.20625731 -1.8259714 4288085770
4.5884857 -0.099210411 -1.8291335 4288085770
11.446915 -0.32974133 -1.8565807 4288085770
-0.029243469 0.041773856 -1.8255782 4288085770
11.81208 -0.36181828 -1.8385887 4288085770
7.6562958 -0.22555372 -1.8278844 4288085770
4.177742 -0.11614484 -1.8258255 4288085770
10.377113 -0.33983389 -1.8543391 4288085770
-0.15596008 0.027157724 -1.8260036 4288085770
7.0285721 -0.24357542 -1.8295517 4288085770
10.83548 -0.39745244 -1.8346596 4288085770
9.4222794 -0.3463622 -1.8506114 4288085770
3.8190231 -0.13386923 -1.8262732 4288085770
-0.28868103 0.012553215 -1.8224564 4288085770
6.4688568 -0.26126924 -1.8309135 4288085770
8.5644226 -0.35041234 -1.8454688 4288085770
3.4973373 -0.15243557 -1.8285439 4288085770
9.9258652 -0.43074349 -1.82845 4288085770
7.807579 -0.35302636 -1.844882 4288085770
-0.39437103 -0.0019921064 -1.8257871 4288085770
5.9231415 -0.27885541 -1.8282125 4288085770
3.1896286 -0.16992423 -1.8297625 4288085770
7.1217117 -0.35329762 -1.8439968 4288085770
9.197319 -0.46527311 -1.8324053 4288085770
-0.49706268 -0.016513109 -1.8281045 4288085770
5.4394226 -0.29516312 -1.8272431 4288085770
13.870712 -0.69526196 -1.8617897 4288085770
6.5268631 -0.35418049 -1.847692 4288085770
2.9029388 -0.18731216 -1.8308864 4288085770
12.479691 -0.67087424 -1.8583643 4288085770
5.9309387 -0.34997705 -1.8424442 4288085770
5.0017319 -0.31326875 -1.8280461 4288085770
-0.60974884 -0.03104198 -1.8264673 4288085770
8.485733 -0.49664071 -1.8283162 4288085770
11.300697 -0.64851439 -1.8589547 4288085770
5.4070511 -0.34748682 -1.8428514 4288085770
2.6352768 -0.20560858 -1.8319149 4288085770
10.175652 -0.62380314 -1.8503232 4288085770
4.9041214 -0.34185508 -1.8391957 4288085770
4.592041 -0.33021978 -1.8267336 4288085770
-0.71043396 -0.04553315 -1.8267758 4288085770
4.4672241 -0.33696547 -1.8412325 4288085770
2.389595 -0.22280887 -1.8338547 4288085770
9.2176285 -0.60134685 -1.84691 4288085770
7.8921738 -0.52850926 -1.8306859 4288085770
4.050293 -0.33094928 -1.8401902 4288085770
8.3786392 -0.581357 -1.8469303 4288085770
4.2183533 -0.34700689 -1.8262594 4288085770
3.6583405 -0.32381204 -1.8390455 4288085770
7.6196213 -0.55996037 -1.8446014 4288085770
2.1509247 -0.23995546 -1.8337631 4288085770
7.3326111 -0.55819416 -1.8309236 4288085770
3.3054123 -0.3175073 -1.8397152 4288085770
6.9476318 -0.5411849 -1.8458505 4288085770
13.979874 -0.97260404 -1.8444304 4288085770
3.8796844 -0.36464617 -1.8276174 4288085770
2.9814682 -0.31007186 -1.8412647 4288085770
6.3246078 -0.5221523 -1.8448789 4288085770
2.6795197 -0.30254087 -1.8437154 4288085770
1.9172287 -0.25604746 -1.8306599 4288085770
-0.73358917 -0.089769453 -1.8374264 4288085770
5.7315826 -0.5019449 -1.8407834 4288085770
2.4075699 -0.29488507 -1.848031 4288085770
-0.6214447 -0.10322985 -1.8367779 4288085770
5.2315674 -0.48334906 -1.8422484 4288085770
6.8360748 -0.58859622 -1.8328679 4288085770
2.1285858 -0.28620288 -1.8463891 4288085770
3.5579987 -0.38117293 -1.8259096 4288085770
12.841232 -0.99102163 -1.8414168 4288085770
-0.50429535 -0.11765608 -1.8350966 4288085770
4.7625656 -0.46660426 -1.8435535 4288085770
1.8565903 -0.27547643 -1.8437362 4288085770
-0.3841629 -0.13107789 -1.8344121 4288085770
1.6195984 -0.26663092 -1.8459051 4288085770
4.3105087 -0.44772598 -1.8398032 4288085770
1.7135925 -0.27404585 -1.8324003 4288085770
1.3725815 -0.25577357 -1.8421397 4288085770
-0.24600983 -0.14644307 -1.8366258 4288085770
3.9034805 -0.42967102 -1.8398402 4288085770
1.1635742 -0.24579325 -1.8441932 4288085770
-0.095870972 -0.16076034 -1.8397958 4288085770
-0.62503815 -0.12530389 -1.8415675 4288085770
3.5384445 -0.41242364 -1.8406775 4288085770
0.9695816 -0.23675045 -1.8471687 4288085770
-0.49394226 -0.13669205 -1.842854 4288085770
0.77555084 -0.22568747 -1.848165 4288085770
0.054267883 -0.17606714 -1.8419557 4288085770
3.2833862 -0.40054396 -1.8309593 4288085770
3.1854019 -0.39510813 -1.8404613 4288085770
-0.36785889 -0.14807436 -1.8411634 4288085770
6.3684998 -0.61682701 -1.8317027 4288085770
0.58150482 -0.2145938 -1.8461616 4288085770
-0.24481964 -0.15745038 -1.837507 4288085770
0.39644623 -0.20344689 -1.8431177 4288085770
-0.09172821 -0.1697422 -1.8396845 4288085770
0.2253952 -0.19225219 -1.8420107 4288085770
0.20839691 -0.19134435 -1.8430974 4288085770
0.058334351 -0.18102846 -1.839886 4288085770
11.887634 -1.0126077 -1.8435299 4288085770
2.8873978 -0.38057783 -1.8449664 4288085770
0.36450195 -0.20558199 -1.8412409 4288085770
2.5653305 -0.36309221 -1.8426111 4288085770
0.52359772 -0.21980444 -1.8393707 4288085770
1.5299606 -0.29196796 -1.8360512 4288085770
2.2822723 -0.34643868 -1.8420696 4288085770
0.71973419 -0.23691919 -1.8443031 4288085770
2.0112 -0.3297272 -1.8414743 4288085770
0.89981842 -0.25104043 -1.8423386 4288085770
1.7681351 -0.3139005 -1.8427427 4288085770
1.093895 -0.26610377 -1.841301 4288085770
1.5300674 -0.29803959 -1.8429887 4288085770
1.314003 -0.28308234 -1.8441253 4288085770
3.0307617 -0.41980913 -1.8359098 4288085770
5.9199219 -0.64294696 -1.8284731 4288085770
11.02803 -1.0337301 -1.8442206 4288085770
1.3423157 -0.30887911 -1.8367305 4288085770
13.714455 -1.2760601 -1.8585091 4288085770
2.7731171 -0.43704769 -1.8359041 4288085770
5.5383987 -0.67180467 -1.8309109 4288085770
1.1566544 -0.32474068 -1.8334117 4288085770
10.162361 -1.0477812 -1.8350115 4288085770
2.5034409 -0.45228377 -1.8299732 4288085770
12.796951 -1.3045132 -1.8643882 4288085770
1.0050507 -0.3435187 -1.837908 4288085770
5.1688461 -0.69856358 -1.8293159 4288085770
9.4457626 -1.0681844 -1.8320599 4288085770
2.2818069 -0.46936962 -1.8318055 4288085770
11.890343 -1.3208429 -1.8633428 4288085770
0.84541321 -0.35928538 -1.8374722 4288085770
4.8383102 -0.72616541 -1.8305352 4288085770
8.8372192 -1.0921367 -1.8355808 4288085770
2.0761871 -0.48737767 -1.8335557 4288085770
10.939621 -1.3242645 -1.8506303 4288085770
0.69178009 -0.37601307 -1.8359988 4288085770
4.5097733 -0.75171757 -1.8277664 4288085770
8.2826843 -1.1158192 -1.8378594 4288085770
1.8735657 -0.5043416 -1.8323028 4288085770
13.90995 -1.6993865 -1.8782611 4288085770
10.095924 -1.3282304 -1.8434262 4288085770
0.56420135 -0.39468589 -1.8413875 4288085770
1.6909637 -0.5222398 -1.8339498 4288085770
4.2132339 -0.77714503 -1.8278537 4288085770
7.7601395 -1.1393369 -1.838994 4288085770
0.42758942 -0.41134182 -1.8408382 4288085770
9.3742676 -1.3346788 -1.8426421 4288085770
13.415764 -1.7777976 -1.8817017 4288085770
1.5203552 -0.54007983 -1.8355427 4288085770
3.9186859 -0.80152285 -1.8239427 4288085770
7.2805634 -1.1606278 -1.8379564 4288085770
0.2859726 -0.42699191 -1.8373215 4288085770
8.7516327 -1.3427099 -1.8473921 4288085770
1.3467484 -0.55690408 -1.8341596 4288085770
13.058678 -1.8676487 -1.8944023 4288085770
3.6821747 -0.82869172 -1.8267395 4288085770
6.8660507 -1.1856449 -1.840585 4288085770
0.16636658 -0.44357589 -1.8376956 4288085770
8.1379623 -1.3456671 -1.8491535 4288085770
1.1881561 -0.57467628 -1.8346989 4288085770
3.4596786 -0.85578322 -1.8284738 4288085770
6.4675293 -1.2105752 -1.8421421 4288085770
0.050773621 -0.46014121 -1.8380516 4288085770
7.5342331 -1.3425167 -1.8449326 4288085770
12.681534 -1.9495357 -1.9012761 4288085770
1.0265503 -0.59143305 -1.832262 4288085770
7.025528 -1.3419877 -1.8482528 4288085770
3.2321625 -0.88087845 -1.8282514 4288085770
-0.0728302 -0.4757047 -1.8344543 4288085770
6.1040115 -1.2353363 -1.8435416 4288085770
12.286339 -2.0254595 -1.9032938 4288085770
0.90600586 -0.61108279 -1.8386095 4288085770
6.5458374 -1.3413192 -1.8514428 4288085770
-0.17340851 -0.49320796 -1.8357327 4288085770
13.219521 -2.2150073 -1.9020994 4288085770
5.7915344 -1.2628922 -1.848681 4288085770
3.050705 -0.91081285 -1.83377 4288085770
0.76742554 -0.62874866 -1.8380589 4288085770
11.875092 -2.0964005 -1.8994358 4288085770
6.1041489 -1.3404877 -1.8564615 4288085770
12.303688 -2.1805246 -1.915622 4282675967
-0.28197479 -0.50971973 -1.8340576 4288085770
5.4820404 -1.2894135 -1.8518174 4288085770
2.8762436 -0.93970323 -1.8382678 4288085770
0.63684082 -0.64537632 -1.8374829 4288085770
5.656395 -1.3336445 -1.8575699 4288085770
11.136452 -2.0998607 -1.8917613 4288085770
11.365707 -2.1476839 -1.8832262 4288085770
-0.3615036 -0.52917194 -1.8402207 4288085770
5.1875305 -1.3148322 -1.851897 4288085770
2.6697006 -0.96165705 -1.8339825 4288085770
5.2326431 -1.3256757 -1.8575807 4288085770
0.52129364 -0.66496229 -1.8398085 4288085770
10.015175 -2.0159254 -1.8627248 4288085770
-0.45207214 -0.54561698 -1.8404648 4288085770
4.7928238 -1.310714 -1.8507359 4288085770
10.884308 -2.1978123 -1.8649013 4288085770
9.3062973 -1.9803935 -1.8703167 4288085770
4.9100418 -1.3391794 -1.8529105 4288085770
2.5102463 -0.99046504 -1.8374133 4288085770
0.4017334 -0.68253696 -1.8391726 4288085770
4.3679504 -1.2926593 -1.841855 4288085770
-0.54864502 -0.56207073 -1.8387358 4288085770
8.6183777 -1.94072 -1.8738558 4288085770
0.2951889 -0.70106924 -1.8404682 4288085770
10.518005 -2.2594864 -1.8559351 4288085770
4.6495514 -1.3654345 -1.8528271 4288085770
2.3557892 -1.0182494 -1.840832 4288085770
4.0021515 -1.2794006 -1.8406568 4288085770
7.9313965 -1.8949713 -1.8704529 4288085770
13.686958 -2.7966292 -1.879997 4288085770
-0.62919617 -0.57947814 -1.8399246 4288085770
0.19464111 -0.71958268 -1.8427367 4288085770
3.6723557 -1.2689784 -1.8402655 4288085770
4.39505 -1.3896506 -1.8517377 4288085770
7.2643661 -1.845086 -1.8630013 4288085770
2.2123337 -1.045981 -1.8442013 4288085770
10.213737 -2.3249021 -1.8506491 4288085770
12.8983 -2.7903926 -1.8786519 4288085770
3.3575668 -1.2574937 -1.8408167 4288085770
6.7124329 -1.8077353 -1.8638978 4288085770
0.097106934 -0.73807204 -1.8439918 4288085770
4.1515503 -1.4128038 -1.8496091 4288085770
2.0698776 -1.0736871 -1.8455663 4288085770
3.0787811 -1.2468755 -1.845196 4288085770
6.1824799 -1.7682594 -1.8627162 4288085770
9.9605255 -2.3971109 -1.8490613 4288085770
12.291832 -2.8064384 -1.8922496 4288085770
-0.001449585 -0.75554585 -1.8432617 4288085770
2.7959671 -1.2342262 -1.8446138 4288085770
5.6925278 -1.7305893 -1.8613338 4288085770
3.9150391 -1.4359031 -1.8454494 4288085770
1.9334183 -1.1003644 -1.8469148 4288085770
9.7934189 -2.4809861 -1.8549628 4288085770
2.5351562 -1.2225012 -1.8469222 4288085770
11.470001 -2.7762516 -1.8803012 4288085770
5.2345581 -1.693765 -1.8597972 4288085770
-0.092979431 -0.77400613 -1.8444903 4288085770
3.7145691 -1.4618791 -1.8460968 4288085770
2.2893372 -1.2097031 -1.8491735 4288085770
4.8086166 -1.6587967 -1.8590958 4288085770
1.822998 -1.1309566 -1.8521051 4288085770
10.659126 -2.7369821 -1.8653965 4288085770
9.524147 -2.5452027 -1.8465309 4288085770
-0.17951202 -0.79243243 -1.8446963 4288085770
4.3896332 -1.620764 -1.8553941 4288085770
2.0795822 -1.2027923 -1.8572006 4288085770
3.5381165 -1.4907494 -1.8476052 4288085770
1.7125702 -1.1605388 -1.8563058 4288085770
4.0076599 -1.5855628 -1.852495 4288085770
1.8817902 -1.1938227 -1.8651946 4288085770
9.9973526 -2.7131033 -1.8606555 4288085770
-0.28007507 -0.80787551 -1.8399966 4288085770
9.3299484 -2.6191373 -1.8456581 4288085770
3.6607208 -1.5542228 -1.852397 4288085770
1.6699524 -1.1808609 -1.8672929 4288085770
3.3847046 -1.5225489 -1.8529794 4288085770
1.6322021 -1.1950368 -1.8663199 4288085770
3.3387909 -1.5237721 -1.8531761 4288085770
1.4901733 -1.1728151 -1.8761954 4288085770
9.3725967 -2.6890566 -1.8567486 4288085770
-0.35858154 -0.82727361 -1.8411562 4288085770
3.0498734 -1.4981921 -1.856755 4288085770
1.274292 -1.1558218 -1.8733532 4288085770
9.142746 -2.6930082 -1.8417544 4288085770
3.2052231 -1.5474036 -1.8515432 4288085770
1.543808 -1.2275333 -1.872391 4288085770
2.7579269 -1.4685862 -1.8563888 4288085770
8.806839 -2.6667655 -1.856555 4288085770
1.0834198 -1.1407379 -1.8733778 4288085770
-0.44011688 -0.84465599 -1.8393505 4288085770
2.5090332 -1.4448332 -1.8617671 4288085770
0.91361237 -1.1296139 -1.8792665 4288085770
8.9885788 -2.7717502 -1.840651 4288085770
3.0598068 -1.5781347 -1.8538921 4288085770
8.2270279 -2.6354816 -1.8505175 4288085770
2.2761307 -1.4220127 -1.868063 4288085770
1.4183273 -1.2511076 -1.868722 4288085770
0.73371124 -1.1134664 -1.878252 4288085770
-0.50862122 -0.86400568 -1.8404655 4288085770
2.0452118 -1.3981625 -1.8723602 4288085770
0.54479218 -1.0943327 -1.8743088 4288085770
1.8252869 -1.3742489 -1.8756077 4288085770
7.6731949 -2.6020625 -1.843384 4288085770
8.8784637 -2.8563199 -1.8432882 4288085770
2.9103622 -1.6058649 -1.85429 4288085770
0.36183929 -1.0741495 -1.8683493 4288085770
1.3259201 -1.2815933 -1.8718324 4288085770
-0.56311035 -0.88533807 -1.8464966 4288085770
1.608345 -1.349301 -1.8768523 4288085770
0.20094299 -1.0579109 -1.8672493 4288085770
1.3983917 -1.3243186 -1.8780653 4288085770
7.183403 -2.5743845 -1.8409002 4288085770
0.047027588 -1.0416383 -1.8661177 4288085770
2.7799683 -1.6385235 -1.8565514 4288085770
8.7322693 -2.9330029 -1.8401701 4288085770
1.2285004 -1.3062136 -1.8860259 4288085770
1.2304764 -1.3090731 -1.872987 4288085770
-0.63562012 -0.90367711 -1.8446403 4288085770
-0.13095856 -1.0183812 -1.8551669 4288085770
1.0445633 -1.283136 -1.8901014 4288085770
13.745392 -4.0994282 -1.8693841 4288085770
6.7476807 -2.5535066 -1.8441012 4288085770
-0.26485443 -1.0040416 -1.8569243 4288085770
0.85056305 -1.2560363 -1.8872633 4288085770
2.6485291 -1.6671674 -1.8568583 4288085770
-0.41182709 -0.98469436 -1.8517926 4288085770
8.6191406 -3.016547 -1.8388319 4288085770
0.6825943 -1.2338609 -1.8892562 4288085770
1.1300583 -1.3365576 -1.8721647 4288085770
12.744141 -3.9821799 -1.8661489 4288085770
-0.53372955 -0.97029722 -1.8534958 4288085770
6.3128967 -2.5265837 -1.8433595 4288085770
0.49958038 -1.2066875 -1.8843684 4288085770
0.3175354 -1.1774894 -1.8774974 4288085770
-0.64463043 -0.95786667 -1.8571293 4288085770
2.5301132 -1.698768 -1.859076 4288085770
0.14048767 -1.1492666 -1.8705931 4288085770
8.5240097 -3.1020141 -1.8383927 4288085770
1.0676804 -1.3709388 -1.8790989 4288085770
11.812912 -3.8695939 -1.8625472 4288085770
5.9021072 -2.4995546 -1.8435099 4288085770
-0.0014877319 -1.1279556 -1.8714588 4288085770
-0.15550995 -1.1026421 -1.86642 4288085770
-0.30756378 -1.0762985 -1.8593826 4288085770
2.4096909 -1.7283586 -1.8593237 4288085770
10.940666 -3.7577031 -1.8566692 4288085770
5.501297 -2.4704475 -1.840636 4288085770
-0.44359589 -1.0529177 -1.8562422 4288085770
0.99128723 -1.4013474 -1.8821375 4288085770
8.4539185 -3.1923704 -1.8387895 4288085770
-0.57363892 -1.0295078 -1.8530743 4288085770
-0.67962646 -1.0120422 -1.8557367 4288085770
10.162506 -3.6594079 -1.8552241 4288085770
5.1244888 -2.4412544 -1.8406539 4288085770
2.2992859 -1.7599012 -1.8595061 4288085770
0.92388916 -1.4327224 -1.8861256 4288085770
8.4008331 -3.2856541 -1.8400793 4288085770
9.4323578 -3.5648816 -1.8535213 4288085770
4.7496643 -2.4090216 -1.8376939 4288085770
2.2038956 -1.7933911 -1.8616002 4288085770
0.85851288 -1.4650878 -1.8900948 4288085770
8.7632446 -3.4770706 -1.8524721 4288085770
8.3567657 -3.3809047 -1.8423085 4288085770
4.4058533 -2.3796601 -1.8365633 4288085770
2.1105118 -1.8268713 -1.8636856 4288085770
8.1341324 -3.3900559 -1.8502321 4288085770
4.1040955 -2.3571553 -1.8411713 4288085770
0.8021698 -1.5004206 -1.8949924 4288085770
8.3136749 -3.47612 -1.8415339 4288085770
7.5380249 -3.3058822 -1.8478131 4288085770
3.8283539 -2.3375347 -1.8466313 4288085770
2.0211105 -1.8593322 -1.8657634 4288085770
0.74378204 -1.5327522 -1.8989301 4282675967
8.3076782 -3.582197 -1.8444798 4288085770
6.9999542 -3.2294483 -1.84705 4288085770
3.5475693 -2.3129182 -1.8501651 4288085770
1.9186935 -1.8888062 -1.862931 4288085770
6.4918976 -3.1558692 -1.8461211 4288085770
0.67236328 -1.5610968 -1.8979678 4288085770
3.2457123 -2.2793336 -1.8468869 4288085770
8.2775955 -3.6803396 -1.8426166 4288085770
6.0098267 -3.0821548 -1.8440752 4288085770
1.8302841 -1.9202424 -1.8630152 4288085770
2.980896 -2.25161 -1.8473797 4288085770
0.60796356 -1.5914174 -1.8979537 4288085770
5.5717926 -3.0152476 -1.8437588 4288085770
8.2996368 -3.7942903 -1.8463552 4288085770
2.7290955 -2.2258337 -1.8487935 4288085770
1.7749481 -1.9605795 -1.8688581 4288085770
5.1457596 -2.9482725 -1.8423884 4288085770
0.55058289 -1.6227245 -1.8998981 4282675967
2.4902725 -2.1990042 -1.8511591 4288085770
8.3046265 -3.9032838 -1.8462222 4288085770
4.7597504 -2.888114 -1.8417659 4288085770
1.6684952 -1.9860328 -1.8620856 4288085770
2.2584457 -2.1721213 -1.8514931 4288085770
13.619453 -5.5567513 -1.7220788 4293729569
0.49518585 -1.6540018 -1.8998334 4288085770
4.4037628 -2.8308403 -1.843977 4288085770
8.3186188 -4.0152335 -1.8460186 4288085770
2.0526505 -2.1501524 -1.8556583 4288085770
1.5690231 -2.010452 -1.8552921 4288085770
4.062767 -2.7754748 -1.8441002 4288085770
12.832367 -5.4515429 -1.7247491 4293729569
0.42875671 -1.6813022 -1.8968599 4288085770
1.8528519 -2.1271551 -1.8598068 4288085770
8.3707047 -4.1400394 -1.8495102 4288085770
3.746788 -2.7230077 -1.8460798 4288085770
1.5036392 -2.0457773 -1.8552322 4288085770
12.146362 -5.3648853 -1.7307689 4293729569
1.6740723 -2.1080859 -1.8668196 4288085770
3.4287872 -2.6675208 -1.8450994 4288085770
0.37635803 -1.7125653 -1.8967822 4288085770
8.3927155 -4.2559299 -1.8472307 4288085770
1.4421463 -2.0711226 -1.8592565 4288085770
3.1458282 -2.6188943 -1.846889 4288085770
1.4232178 -2.0751355 -1.8513019 4288085770
11.360115 -5.2365928 -1.7256708 4293729569
0.31192017 -1.7388459 -1.8928101 4288085770
1.2603226 -2.0470278 -1.8623343 4288085770
2.8768539 -2.5712001 -1.8486054 4288085770
8.4678345 -4.3896241 -1.8505278 4288085770
10.82328 -5.1782956 -1.7387214 4293729569
1.3828583 -2.1153893 -1.8560781 4288085770
1.1055374 -2.0288424 -1.8692284 4288085770
2.613884 -2.5234668 -1.8492947 4288085770
0.25552368 -1.7681087 -1.8907714 4288085770
0.94572449 -2.0076613 -1.8741758 4288085770
2.3488693 -2.4717033 -1.846034 4288085770
8.5319366 -4.5213413 -1.8508954 4288085770
10.357552 -5.135725 -1.7582872 4293729569
1.323494 -2.150686 -1.8559918 4288085770
2.1068649 -2.4238482 -1.8446286 4288085770
0.77585602 -1.9814783 -1.8742201 4288085770
0.20609283 -1.7973369 -1.8887012 4288085770
9.9148407 -5.0950437 -1.777729 4293729569
8.6611633 -4.6748133 -1.8577447 4288085770
1.8949432 -2.3848987 -1.8479955 4288085770
0.63004303 -1.9612297 -1.8790944 4288085770
1.2430191 -2.1760035 -1.8481035 4288085770
1.6849823 -2.3439188 -1.8493738 4288085770
0.47719574 -1.9369746 -1.8800414 4288085770
0.13462067 -1.8196014 -1.8798027 4288085770
9.5582504 -5.076036 -1.8055573 4293729569
8.7933884 -4.8312612 -1.8635502 4288085770
1.4659576 -2.2969422 -1.8468542 4288085770
0.32531738 -1.9107145 -1.8810041 4288085770
1.1876297 -2.211271 -1.8469994 4288085770
1.2840271 -2.2618477 -1.8500447 4288085770
9.2337112 -5.0648842 -1.8341591 4288085770
0.098236084 -1.8527969 -1.8806331 4288085770
0.1754303 -1.8844148 -1.8789582 4288085770
8.9005737 -4.9807892 -1.8655415 4288085770
1.1000595 -2.223732 -1.850275 4288085770
1.1402359 -2.2465093 -1.8468595 4288085770
0.0365448 -1.8590914 -1.8798523 4288085770
0.93713379 -2.1905649 -1.8553588 4288085770
8.8851013 -5.0408177 -1.8600028 4288085770
0.052818298 -1.882006 -1.8785455 4288085770
-0.10234833 -1.8327483 -1.8787568 4288085770
0.77216339 -2.1543672 -1.8564827 4288085770
8.7521667 -5.0411925 -1.8336067 4288085770
1.0938644 -2.2837329 -1.845695 4288085770
