# .PCD v0.7 - Point Cloud Data file format
VERSION 0.7
FIELDS x y z rgb
SIZE 4 4 4 4
TYPE F F F U
COUNT 1 1 1 1
WIDTH 1128
HEIGHT 1
VIEWPOINT 0 0 0 1 0 0 0
POINTS 1128
DATA ascii
14.210144 0.77609634 -1.7221285 4288085770
8.5467529 0.61722279 -1.7580491 4288085770
15.622162 0.79504395 -1.7158957 4288085770
9.2008972 0.61951542 -1.7535481 4288085770
9.9319763 0.62107468 -1.7498697 4288085770
10.730072 0.62087345 -1.7430365 4288085770
11.661163 0.62013245 -1.7408975 4288085770
12.665283 0.61765003 -1.7345901 4288085770
13.839386 0.61376286 -1.731891 4288085770
15.188507 0.60748768 -1.7277888 4288085770
6.1621704 -5.1461487 -0.20942414 4293729569
6.1621094 -5.079174 -0.25246143 4293729569
6.1951294 -5.029089 -0.29441363 4293729569
6.2531738 -4.9889107 -0.33630303 4293729569
6.3212585 -4.9536991 -0.37816679 4293729569
16.3013 -7.7234793 -1.5737818 4293729569
15.891357 -7.4159212 -1.5818908 4293729569
15.560516 -7.14009 -1.591801 4293729569
15.179596 -6.8524275 -1.5938326 4293729569
14.80069 -6.5707541 -1.594856 4293729569
14.582062 -6.3505297 -1.6034787 4293729569
14.45755 -6.1679754 -1.617865 4293729569
14.204865 -5.9428663 -1.620568 4293729569
12.391022 -5.1996689 -0.63913071 4293729569
12.402039 -5.2081032 -1.484103 4293729569
12.423798 -5.0875692 -0.65911776 4293729569
12.383728 -5.0791779 -1.4992164 4293729569
13.188507 -5.2084122 -1.586302 4293729569
13.632751 -5.213891 -1.641282 4293729569
13.586334 -5.0670605 -1.6504693 4293729569
13.500916 -4.9093647 -1.6527525 4293729569
13.472504 -4.7674732 -1.6598958 4293729569
13.341034 -4.5989332 -1.6552902 4293729569
13.319672 -4.4640141 -1.6584105 4293729569
13.327301 -4.3359928 -1.6634642 4293729569
13.366028 -4.2148638 -1.6694431 4293729569
13.631958 -4.1519489 -1.6938694 4293729569
14.223206 -4.1609135 -1.748511 4293729569
14.877472 -4.1766567 -1.8060045 4288085770
15.082306 -4.0829506 -1.8205881 4288085770
15.071869 -3.9389858 -1.8126922 4288085770
15.206573 -3.8275185 -1.817446 4288085770
15.325287 -3.7111044 -1.8172393 4288085770
15.426971 -3.5897512 -1.8150743 4288085770
15.580688 -3.4772148 -1.8147852 4288085770
15.684326 -3.3518505 -1.8076181 4288085770
15.880035 -3.2441702 -1.80823 4288085770
16.054749 -3.1285582 -1.803895 4288085770
16.262421 -3.0158319 -1.7994826 4288085770
14.978973 0.90071774 -1.7180142 4288085770
13.879974 0.93385983 -1.7245296 4288085770
12.860992 0.96428394 -1.7268617 4288085770
11.940979 0.9920578 -1.7269675 4288085770
11.200958 1.0224562 -1.7356657 4288085770
10.508972 1.0500259 -1.7412536 4288085770
9.9129944 1.0779285 -1.7486235 4288085770
9.3349915 1.103899 -1.7529514 4288085770
8.8190002 1.1290846 -1.7581381 4288085770
15.238251 1.6345959 -1.7148618 4288085770
8.3250122 1.153348 -1.7602742 4288085770
14.113312 1.6386509 -1.7134185 4288085770
7.8760681 1.1757698 -1.7623072 4288085770
13.22641 1.6505384 -1.7194396 4288085770
7.4470825 1.1972628 -1.7622939 4288085770
12.37146 1.6605368 -1.7213867 4288085770
7.0681152 1.2199316 -1.764168 4288085770
11.66153 1.6750412 -1.7290077 4288085770
6.7211304 1.2427092 -1.7679695 4288085770
11.087585 1.6980171 -1.7433244 4288085770
6.4031982 1.2655897 -1.771705 4288085770
10.468658 1.7118444 -1.7467381 4288085770
6.0481873 1.2833443 -1.7655216 4288085770
9.9126892 1.7268915 -1.7500094 4288085770
5.8032227 1.3084793 -1.7740928 4288085770
9.4317017 1.7451973 -1.7571124 4288085770
5.5282288 1.3295116 -1.7747297 4288085770
8.9637451 1.7605524 -1.760184 4288085770
5.2922363 1.3526773 -1.7792792 4288085770
8.5348206 1.7770462 -1.7631679 4288085770
5.0452576 1.37181 -1.7778513 4288085770
8.1248779 1.791605 -1.7641075 4288085770
4.8553162 1.3971367 -1.7852979 4288085770
7.7738647 1.8123674 -1.7699165 4288085770
4.6313477 1.4173489 -1.7838184 4288085770
7.4409485 1.8311949 -1.7736838 4288085770
4.4173584 1.4365959 -1.7823157 4288085770
7.1359558 1.8521223 -1.7783886 4288085770
4.2453918 1.4599867 -1.78672 4288085770
6.8070374 1.8659658 -1.7761439 4288085770
4.0544128 1.4783182 -1.7841648 4288085770
6.5170593 1.882947 -1.7768123 4288085770
3.8584595 1.494628 -1.7786193 4288085770
6.262085 1.9030476 -1.7784032 4288085770
3.7054749 1.5160875 -1.7799795 4288085770
5.9821472 1.9170666 -1.7740473 4288085770
3.5004883 1.5283728 -1.7684519 4288085770
5.7191467 1.9311438 -1.7706527 4288085770
3.3445435 1.5468254 -1.7658172 4288085770
5.4981995 1.950366 -1.7701658 4288085770
3.1755676 1.5622339 -1.7582101 4288085770
5.3192139 1.9747334 -1.7755866 4288085770
3.0935974 1.5919361 -1.7694138 4288085770
5.0992737 1.9909611 -1.7720959 4288085770
2.942627 1.6074066 -1.7617657 4288085770
4.925293 2.0123463 -1.7735033 4288085770
2.8216248 1.6279793 -1.7610526 4288085770
4.7523193 2.0337362 -1.7739089 4288085770
2.712677 1.6495953 -1.761313 4288085770
4.5913391 2.0561676 -1.7752877 4288085770
2.5837097 1.6661415 -1.7556156 4288085770
4.4193726 2.074563 -1.7716891 4288085770
2.4797363 1.6877747 -1.7548647 4288085770
4.2723694 2.097044 -1.7720362 4288085770
2.3917236 1.7104616 -1.7560776 4288085770
4.1364136 2.1195641 -1.7723582 4288085770
2.2887573 1.7301006 -1.7523232 4288085770
3.9734192 2.1349926 -1.7657373 4288085770
2.1937866 1.7507648 -1.7505512 4288085770
3.8544312 2.1595726 -1.7660222 4288085770
2.112793 1.7734785 -1.7497483 4288085770
3.7024841 2.1750412 -1.7583765 4288085770
2.0308228 1.795188 -1.7489474 4288085770
3.5335388 2.1834507 -1.744765 4288085770
1.9658203 1.8209553 -1.7511103 4288085770
3.3855286 2.1969357 -1.735109 4288085770
1.9188538 1.8517818 -1.7582355 4288085770
3.2825623 2.2205725 -1.7343569 4288085770
1.8598328 1.8785706 -1.760385 4288085770
3.1895447 2.2452421 -1.7335826 4288085770
1.8058472 1.9063768 -1.7635242 4288085770
3.1175842 2.2759838 -1.7367644 4288085770
1.743866 1.9311552 -1.7626796 4288085770
3.0725403 2.3138189 -1.7458889 4288085770
1.6988831 1.9609919 -1.7667994 4288085770
3.0165405 2.349617 -1.7510375 4288085770
1.6558838 1.9908361 -1.7699147 4288085770
2.9425354 2.3773518 -1.7512218 4288085770
1.619873 2.0227032 -1.7750154 4288085770
2.8905334 2.4121647 -1.7553606 4288085770
1.5638733 2.0475044 -1.7731571 4288085770
2.818512 2.439909 -1.7535405 4288085770
1.520874 2.0763483 -1.7742721 4288085770
2.7535095 2.4696789 -1.7527058 4288085770
1.4818726 2.1062088 -1.7753782 4288085770
2.6984863 2.5024815 -1.7528498 4288085770
1.4318848 2.1320305 -1.7725072 4288085770
2.6474609 2.5352983 -1.7529851 4288085770
1.3968506 2.1629038 -1.7736046 4288085770
2.5834961 2.5630732 -1.7491472 4288085770
1.3578491 2.1907635 -1.7717099 4288085770
2.5774536 2.6120424 -1.7601898 4288085770
1.3318787 2.2246695 -1.7747891 4288085770
2.4874573 2.6287298 -1.7474041 4288085770
1.3078308 2.2575798 -1.7768629 4288085770
2.4394226 2.6605597 -1.7445319 4288085770
2.3384399 2.6722126 -1.7267683 4288085770
2.2894287 2.7020416 -1.7218971 4288085770
2.2444153 2.7328825 -1.7170177 4288085770
2.2193604 2.7707901 -1.7170968 4288085770
2.2612915 2.8369246 -1.7340409 4288085770
2.3541565 2.926228 -1.7638829 4288085770
2.3551025 2.9762273 -1.7679105 4288085770
2.342041 3.0201764 -1.7669662 4288085770
2.3150024 3.0580812 -1.7620502 4288085770
2.3948364 3.1443434 -1.7859198 4288085770
2.449707 3.2205243 -1.8008404 4288085770
2.4635925 3.277566 -1.8038425 4288085770
2.4934692 3.3426633 -1.8108132 4288085770
2.5283813 3.4097786 -1.8167738 4288085770
2.5452881 3.4678335 -1.8177699 4288085770
2.5661621 3.5289021 -1.8187586 4288085770
2.5950317 3.5949984 -1.8207321 4282675967
2.6268921 3.6611056 -1.822699 4282675967
2.6637878 3.7302289 -1.8246564 4282675967
2.6966248 3.7983413 -1.8246222 4282675967
2.7364807 3.8694773 -1.8245739 4282675967
1.3068237 3.1964836 -1.7944221 4288085770
2.781311 3.9446297 -1.8245165 4282675967
1.3637085 3.2686739 -1.8033359 4288085770
2.8131714 4.0107412 -1.8204834 4288085770
1.3845825 3.3207459 -1.7993195 4288085770
2.8659973 4.0889235 -1.8194098 4288085770
1.4354858 3.3889179 -1.8042443 4288085770
2.915863 4.1660957 -1.8173426 4288085770
1.4902954 3.460103 -1.8081619 4288085770
2.9586792 4.239244 -1.8122888 4288085770
1.5431519 3.5302825 -1.8110837 4288085770
3.0274658 4.3264813 -1.8121845 4288085770
1.6080322 3.606504 -1.8169816 4288085770
3.1012573 4.416738 -1.8100704 4288085770
1.6688843 3.6817117 -1.8198881 4288085770
3.1740112 4.5069904 -1.8079587 4288085770
1.7307434 3.7569232 -1.8207926 4288085770
3.2647705 4.607305 -1.8078123 4288085770
1.7835693 3.8251061 -1.8187131 4288085770
3.371521 4.7176728 -1.8106357 4288085770
1.8514099 3.9033413 -1.8186055 4288085770
3.4382629 4.8039088 -1.8015352 4288085770
1.9202271 3.9825788 -1.8184965 4288085770
3.5659485 4.9273505 -1.8043185 4288085770
2.0000305 4.067853 -1.8193659 4288085770
3.6806641 5.0427499 -1.8031268 4288085770
2.0948181 4.162179 -1.8242068 4288085770
3.8122864 5.1682067 -1.8029023 4288085770
2.166626 4.2414298 -1.8190908 4288085770
3.9678955 5.3097467 -1.8056332 4288085770
2.2833557 4.3488317 -1.8258899 4282675967
4.1095581 5.4402409 -1.8033892 4288085770
2.3691101 4.43713 -1.8217477 4288085770
4.2631531 5.5807762 -1.8011241 4288085770
2.480896 4.5405173 -1.8225555 4288085770
4.4207764 5.7223277 -1.7968504 4288085770
2.574646 4.6318455 -1.8173971 4288085770
4.5942993 5.8739347 -1.7935467 4288085770
2.7332764 4.7653913 -1.8271165 4288085770
4.796814 6.0436401 -1.7941878 4288085770
2.8380737 4.8617587 -1.8209362 4288085770
4.9224548 6.1620865 -1.7749733 4288085770
2.9667664 4.9742079 -1.817711 4288085770
4.3953552 5.8443203 -1.6309828 4293729569
3.1074219 5.0936985 -1.8154629 4288085770
4.1986389 5.7406731 -1.5523689 4293729569
3.2660828 5.2242503 -1.8151808 4288085770
4.133667 5.7234721 -1.498507 4293729569
3.4367065 5.3618441 -1.8158754 4288085770
4.0926819 5.7193561 -1.4475985 4293729569
3.6123047 5.5014558 -1.8145599 4288085770
4.0296936 5.6981621 -1.3937296 4293729569
3.7988892 5.6481085 -1.812224 4288085770
4.015686 5.7081361 -1.3467683 4293729569
3.9894714 5.7957735 -1.8098798 4288085770
4.0066223 5.7201271 -1.2997967 4293729569
4.1920166 5.9494801 -1.8055116 4288085770
4.0125732 5.7381706 -1.2557949 4293729569
4.4085388 6.1102381 -1.8011163 4288085770
3.9796143 5.7280803 -1.2048647 4293729569
4.4544067 6.1504183 -1.7600369 4288085770
3.9576111 5.7230291 -1.1549125 4293729569
3.9294434 5.7876663 -1.6050152 4293729569
3.9286194 5.7109528 -1.1049721 4293729569
3.8685303 5.7484832 -1.5451313 4293729569
3.9316101 5.7189865 -1.0579712 4293729569
3.8475952 5.7334375 -1.492171 4293729569
3.9165955 5.7119589 -1.0090022 4293729569
3.8365784 5.7244253 -1.4411918 4293729569
3.9395447 5.7280612 -0.96396071 4293729569
3.8335876 5.7174401 -1.3911957 4293729569
3.9564819 5.7391443 -0.91692996 4293729569
3.8595581 5.7285519 -1.3461446 4293729569
3.9764404 5.7492371 -0.87089181 4293729569
3.8845215 5.7376623 -1.3000945 4293729569
4.0493164 5.7935123 -0.82875401 4293729569
3.8835449 5.7256846 -1.2500908 4293729569
4.3546448 5.9955916 -0.808182 4293729569
3.9215088 5.7378397 -1.2050135 4293729569
4.4494934 6.0499449 -0.76500046 4293729569
3.9165649 5.7188478 -1.1550145 4293729569
4.4604797 6.0440087 -0.71397328 4293729569
3.9415588 5.717958 -1.1079589 4293729569
4.3846741 5.9757724 -0.65810633 4293729569
3.9565735 5.7080326 -1.0609157 4293729569
4.6022644 6.1075497 -0.62168783 4293729569
4.0085449 5.7212367 -1.0168076 4293729569
4.9724731 6.33886 -0.5929867 4293729569
4.04953 5.7254019 -0.97371852 4293729569
4.529541 6.0143485 -0.51580089 4293729569
4.1034851 5.734612 -0.92960328 4293729569
4.5156555 5.9793262 -0.46381342 4293729569
4.1505127 5.7387981 -0.88550097 4293729569
4.5666199 5.9875278 -0.41670445 4293729569
4.2064819 5.7450151 -0.84237939 4293729569
4.748291 6.0801859 -0.37334907 4293729569
4.3322754 5.7964721 -0.80512625 4293729569
4.8531494 6.1165752 -0.32613459 4293729569
4.4880676 5.8640356 -0.76881492 4293729569
4.5071716 5.8391271 -0.72175872 4293729569
4.5602112 5.8343344 -0.67763758 4293729569
4.6870422 5.8747969 -0.63837588 4293729569
5.3468018 6.2571087 -0.63110882 4293729569
6.54245 6.9742804 -0.64982593 4293729569
5.6614685 6.3572502 -0.54745942 4293729569
5.1567078 5.9865203 -0.47438595 4293729569
5.2017822 5.9617009 -0.42927125 4293729569
5.2967529 5.9660521 -0.38706088 4293729569
16.077057 -0.94552612 -1.7529771 4288085770
15.062286 -0.98707962 -1.7582341 4288085770
14.149475 -1.0222778 -1.7622653 4288085770
13.293701 -1.0522747 -1.7661717 4288085770
12.450867 -1.0742245 -1.7640533 4288085770
11.735046 -1.0967331 -1.7686491 4288085770
11.097229 -1.1179714 -1.7760705 4288085770
10.455383 -1.1332178 -1.7775044 4288085770
9.8885498 -1.1482067 -1.7827699 4288085770
9.3536682 -1.1590824 -1.7869658 4288085770
15.944214 -1.8630514 -1.7727622 4288085770
8.8568115 -1.1688271 -1.7910773 4288085770
14.84024 -1.8359165 -1.7792581 4288085770
8.3799438 -1.175499 -1.794145 4288085770
13.78717 -1.8016005 -1.7796439 4288085770
7.9180603 -1.1791191 -1.795181 4288085770
12.835175 -1.7689323 -1.7788017 4288085770
7.5101929 -1.1835499 -1.8000956 4288085770
12.005188 -1.7428379 -1.7826817 4288085770
7.1193237 -1.186924 -1.8029722 4288085770
11.248199 -1.7164898 -1.7863978 4288085770
6.7584229 -1.1891899 -1.8087821 4288085770
10.57724 -1.6938438 -1.7929184 4288085770
6.3984985 -1.1884537 -1.8095912 4288085770
9.9182129 -1.666152 -1.794415 4288085770
6.0686035 -1.1876125 -1.8133336 4288085770
9.3352356 -1.6431952 -1.7977382 4288085770
5.7507019 -1.1847286 -1.8150496 4288085770
8.7812805 -1.6181364 -1.8009974 4288085770
5.4548035 -1.1827698 -1.8197159 4288085770
8.2762756 -1.5959063 -1.8051449 4288085770
5.1588745 -1.1778088 -1.8203839 4288085770
7.7983093 -1.5725813 -1.8082323 4288085770
4.9079895 -1.1756926 -1.8269491 4288085770
7.3343506 -1.5472069 -1.8082896 4288085770
4.6430664 -1.1696253 -1.8285481 4288085770
6.9383545 -1.5275993 -1.8141905 4288085770
4.4011841 -1.1644754 -1.833095 4288085770
6.5553589 -1.5059443 -1.8180636 4288085770
4.1552124 -1.1553383 -1.8326529 4288085770
6.1864014 -1.4832373 -1.8189058 4288085770
3.9263 -1.1471434 -1.8341722 4288085770
5.8444214 -1.4624376 -1.8216861 4288085770
3.6983643 -1.1369429 -1.8326904 4288085770
5.536499 -1.4435225 -1.8273891 4288085770
3.4874268 -1.1276836 -1.8331698 4288085770
5.2304993 -1.4225969 -1.8300887 4288085770
3.2894897 -1.1183796 -1.8346202 4288085770
4.944519 -1.4016018 -1.8327434 4288085770
3.0975647 -1.1090555 -1.8360571 4288085770
4.667572 -1.3805733 -1.8343781 4288085770
2.9176331 -1.0986891 -1.8374674 4288085770
4.3935852 -1.3575344 -1.833007 4288085770
2.7246704 -1.0853653 -1.8349087 4288085770
4.1466064 -1.3364019 -1.8355742 4288085770
2.5627441 -1.0759373 -1.8372784 4288085770
3.9056091 -1.3142481 -1.8351283 4288085770
2.3967896 -1.0635204 -1.8376586 4288085770
3.6786804 -1.293046 -1.8366507 4288085770
2.2418823 -1.0530653 -1.8390129 4288085770
3.4556885 -1.2718267 -1.836164 4288085770
2.0949097 -1.041585 -1.8413497 4288085770
3.2337036 -1.2476053 -1.8326769 4288085770
1.9530029 -1.0300884 -1.8426756 4288085770
3.0547485 -1.2302389 -1.838089 4288085770
1.7859802 -1.0116692 -1.8350613 4288085770
2.856781 -1.2079334 -1.8365469 4288085770
1.6540833 -1.0001345 -1.8363647 4288085770
2.6887817 -1.1895237 -1.8389351 4288085770
1.5170898 -0.98561573 -1.833681 4288085770
2.5038147 -1.1671743 -1.8363637 4288085770
1.4112244 -0.97699261 -1.8409243 4288085770
2.3458557 -1.1477308 -1.8377299 4288085770
2.1929016 -1.1292686 -1.8400843 4288085770
2.0469055 -1.1107855 -1.8414229 4288085770
1.8969116 -1.0893126 -1.8397725 4288085770
1.7439575 -1.0668478 -1.8361293 4288085770
1.6069641 -1.0463285 -1.8344489 4288085770
1.4779968 -1.0267839 -1.8347502 4288085770
1.3630371 -1.01019 -1.8370184 4288085770
1.352478 0.9253149 -1.7872396 4288085770
1.4825134 0.93976498 -1.7879578 4288085770
1.6075745 0.95419979 -1.7856876 4288085770
1.7406006 0.96866035 -1.7843994 4288085770
1.8766479 0.98213387 -1.7821039 4288085770
2.0097046 0.99559784 -1.7758151 4288085770
2.1747437 1.0111685 -1.777456 4288085770
1.308136 0.9281311 -1.796343 4288085770
2.3317871 1.0247145 -1.7751137 4288085770
1.4191895 0.93651676 -1.7901005 4288085770
2.5078735 1.0403242 -1.77573 4288085770
1.551239 0.9469738 -1.789812 4288085770
2.684906 1.0549374 -1.7743438 4288085770
1.6813049 0.95642662 -1.7875274 4288085770
2.8709412 1.0705853 -1.771938 4288085770
1.8043823 0.96385384 -1.7812574 4288085770
3.0669556 1.0852661 -1.770509 4288085770
1.9474182 0.97335243 -1.7799436 4288085770
3.28302 1.1010151 -1.7710363 4288085770
2.0945129 0.98186302 -1.7766207 4288085770
3.5090942 1.1168003 -1.7705412 4288085770
2.2715454 0.99347591 -1.7802324 4288085770
3.7621155 1.1346769 -1.7739868 4288085770
2.4606628 1.0041275 -1.7838168 4288085770
4.0391846 1.1536407 -1.7783797 4288085770
2.6316833 1.012723 -1.7814401 4288085770
4.308197 1.1705732 -1.7777891 4288085770
2.810791 1.0203447 -1.7780452 4288085770
4.5812378 1.1855249 -1.7741885 4288085770
3.0028381 1.0280132 -1.7756211 4288085770
4.873291 1.2005424 -1.7705455 4288085770
3.2129517 1.0367413 -1.7761574 4288085770
5.2073364 1.2187052 -1.7708106 4288085770
3.4459839 1.0455484 -1.7776421 4288085770
5.5943604 1.2400475 -1.7759593 4288085770
3.6940613 1.0554113 -1.7800944 4288085770
5.9463806 1.2552748 -1.7711822 4288085770
3.9191284 1.060195 -1.7745948 4288085770
6.3814392 1.2767849 -1.7762237 4288085770
4.1942444 1.06915 -1.777986 4288085770
6.7644958 1.2901249 -1.7673763 4288085770
4.4492798 1.0740376 -1.7734194 4288085770
7.2775269 1.3129072 -1.7732443 4288085770
4.7323608 1.0800209 -1.7717911 4288085770
7.7895508 1.3336897 -1.7741133 4288085770
5.0384521 1.0850868 -1.7711107 4288085770
8.331604 1.3525801 -1.7719142 4288085770
5.3625183 1.0902157 -1.7693901 4288085770
8.9076233 1.3705864 -1.7666384 4288085770
5.6956177 1.0933752 -1.7656482 4288085770
9.5436707 1.3898048 -1.7632294 4288085770
6.0857239 1.098731 -1.7687805 4288085770
10.227692 1.4081907 -1.7587128 4288085770
6.4938049 1.1031504 -1.7688718 4288085770
10.973755 1.4267941 -1.7520578 4288085770
6.8919067 1.1025391 -1.7639822 4288085770
11.752747 1.4435167 -1.7403278 4288085770
7.3320007 1.1030741 -1.7599998 4288085770
12.665741 1.4627018 -1.7323 4288085770
7.8581238 1.1049023 -1.762826 4288085770
13.773773 1.4885674 -1.7308406 4288085770
8.3832092 1.1027327 -1.7596518 4288085770
14.938812 1.5106335 -1.7222517 4288085770
8.9473267 1.0996981 -1.7563901 4288085770
9.5644226 1.0948505 -1.7530088 4288085770
10.216522 1.0871258 -1.7465477 4288085770
10.935669 1.0776358 -1.7409357 4288085770
11.739807 1.0664387 -1.7371329 4288085770
12.584961 1.0513878 -1.7292361 4288085770
13.687103 1.0392275 -1.7347666 4288085770
14.790283 1.0180759 -1.7292897 4288085770
16.01947 0.99136448 -1.7205276 4288085770
8.0715637 -7.5199385 -1.6018353 4293729569
7.7346802 -7.2411203 -1.6127648 4293729569
7.4649963 -7.006072 -1.6275159 4293729569
7.1582031 -6.7491484 -1.6313645 4293729569
6.8925476 -6.519084 -1.6401039 4293729569
6.5556641 -6.2462568 -1.6330303 4293729569
6.3180237 -6.0350924 -1.6376952 4293729569
6.0673828 -5.8189707 -1.6373925 4293729569
5.8638306 -5.6316843 -1.6409659 4293729569
5.7204285 -5.4821939 -1.6513805 4293729569
5.5750122 -5.331708 -1.6588002 4293729569
9.699707 -7.5512896 -1.5861274 4293729569
5.430603 -5.1822186 -1.6642171 4293729569
9.4139099 -7.2952948 -1.5959285 4293729569
5.2872009 -5.0347233 -1.6676308 4293729569
9.1933289 -7.077075 -1.6105593 4293729569
5.177887 -4.9081154 -1.6759546 4293729569
8.9476013 -6.8479414 -1.6172537 4293729569
5.0775452 -4.785471 -1.6822556 4293729569
8.7199707 -6.6317396 -1.6238995 4293729569
4.9842529 -4.6688042 -1.6895373 4293729569
8.4993286 -6.4205179 -1.6285263 4293729569
4.9060364 -4.5600853 -1.6967803 4293729569
8.2877197 -6.2172594 -1.632128 4293729569
4.8257751 -4.4513702 -1.7020278 4293729569
8.0620728 -6.0100489 -1.6297637 4293729569
4.727417 -4.3337183 -1.7023214 4293729569
7.8515015 -5.8127832 -1.6273596 4293729569
4.6451721 -4.225009 -1.7045736 4293729569
6.392334 -4.9887609 -1.4521599 4293729569
4.6109924 -4.14114 -1.713702 4293729569
6.2068481 -4.8174076 -1.4466835 4293729569
4.5457458 -4.0413704 -1.7159101 4293729569
6.2226868 -4.7463684 -1.4666907 4293729569
4.4785156 -3.9416094 -1.7171228 4293729569
6.2766724 -4.6941967 -1.4896005 4293729569
4.4733887 -3.8736391 -1.7281759 4293729569
6.4679565 -4.7055616 -1.5321612 4293729569
4.5484314 -3.8433971 -1.7550244 4293729569
7.228241 -4.977994 -1.6552764 4293729569
4.7156982 -3.8538465 -1.7986401 4288085770
7.1298828 -4.8453417 -1.6545795 4293729569
4.9049377 -3.87222 -1.8462012 4288085770
7.1056824 -4.7484341 -1.6636934 4293729569
5.0761719 -3.8796549 -1.8888097 4282675967
7.069397 -4.6465654 -1.6678374 4293729569
5.1070862 -3.8215599 -1.9017751 4282675967
7.0742493 -4.5625572 -1.6778777 4293729569
5.0608521 -3.7287226 -1.8979366 4282675967
7.078064 -4.4775553 -1.685921 4293729569
5.0076294 -3.6339064 -1.8921149 4282675967
7.0458374 -4.3776703 -1.687055 4293729569
5.0114746 -3.5639009 -1.896149 4282675967
7.0526428 -4.2946558 -1.69309 4293729569
4.9782715 -3.4790163 -1.8912759 4282675967
7.0364075 -4.2027159 -1.694183 4293729569
4.9450989 -3.3941307 -1.885403 4282675967
7.0232239 -4.111764 -1.6942686 4293729569
4.9859924 -3.3379984 -1.8943449 4282675967
7.0180054 -4.024786 -1.6933335 4293729569
4.9668274 -3.2600641 -1.8884361 4282675967
7.0769043 -3.9605913 -1.7022398 4293729569
4.9335938 -3.176178 -1.8795625 4288085770
7.2469788 -3.9380159 -1.7258693 4293729569
4.9584961 -3.1150942 -1.8815438 4288085770
7.4821472 -3.9372206 -1.7583385 4293729569
4.984375 -3.0530109 -1.8825234 4282675967
7.7794189 -3.9552126 -1.7976557 4288085770
5.0012512 -2.9889536 -1.8805246 4282675967
8.0876465 -3.972168 -1.8369488 4288085770
5.0020752 -2.9189501 -1.8745656 4288085770
8.2727051 -3.9425383 -1.8575487 4288085770
5.0199585 -2.8548889 -1.8705646 4288085770
8.3465881 -3.8732853 -1.8594244 4288085770
5.0758972 -2.8036985 -1.8734697 4288085770
8.411438 -3.8020639 -1.8593215 4288085770
5.1047668 -2.7425995 -1.8694421 4288085770
8.4552612 -3.7209101 -1.8532726 4288085770
5.1506653 -2.6864414 -1.868373 4288085770
8.5220642 -3.6476774 -1.8501663 4288085770
5.193573 -2.6282949 -1.865312 4288085770
8.6179199 -3.5833483 -1.8489891 4288085770
5.2454529 -2.5741167 -1.863228 4288085770
8.7088013 -3.5160313 -1.8468252 4288085770
5.319397 -2.5258627 -1.8640906 4288085770
8.8176575 -3.4526539 -1.8456181 4288085770
5.3532715 -2.4647417 -1.8560517 4288085770
8.9445496 -3.3932142 -1.8443681 4288085770
5.4402161 -2.4184427 -1.856884 4288085770
9.0824585 -3.3367376 -1.8430911 4288085770
5.5181274 -2.369173 -1.8547382 4288085770
9.2233582 -3.2782488 -1.8418088 4288085770
5.5900574 -2.3179255 -1.8516073 4288085770
9.3642273 -3.219758 -1.8375264 4288085770
5.6719666 -2.2686396 -1.8484526 4288085770
9.5161438 -3.1612291 -1.8342193 4288085770
5.7689209 -2.2223043 -1.8462622 4288085770
9.6860352 -3.106638 -1.8298689 4288085770
5.8748474 -2.1759367 -1.8450515 4288085770
9.9049683 -3.0598774 -1.830403 4288085770
5.9827881 -2.1295624 -1.8428363 4288085770
10.120911 -3.0121288 -1.8299445 4288085770
6.1077576 -2.0861301 -1.841581 4288085770
10.353851 -2.9633179 -1.8274485 4288085770
6.225647 -2.0397196 -1.8373432 4288085770
10.589752 -2.9144964 -1.8239454 4288085770
6.3636169 -1.9952412 -1.836059 4288085770
10.849701 -2.8655901 -1.8203883 4288085770
6.4905701 -1.9498005 -1.8318003 4288085770
11.150665 -2.8255444 -1.8207331 4288085770
6.6434631 -1.9062691 -1.8294816 4288085770
11.440582 -2.7775326 -1.8151076 4288085770
6.7803955 -1.8597898 -1.8232009 4288085770
11.757507 -2.7334318 -1.8114188 4288085770
6.9703674 -1.8211317 -1.8237958 4288085770
12.128479 -2.6941395 -1.8106048 4288085770
7.1403198 -1.7765398 -1.8194393 4288085770
12.480408 -2.6479101 -1.8038384 4288085770
7.3562622 -1.7367887 -1.818976 4288085770
12.892395 -2.6074753 -1.7999326 4288085770
7.557251 -1.6950932 -1.816548 4288085770
13.384369 -2.5767641 -1.8008399 4288085770
7.7721863 -1.6523418 -1.8120888 4288085770
13.90036 -2.5429668 -1.799695 4288085770
8.0281372 -1.6134539 -1.8125346 4288085770
14.411285 -2.5031834 -1.793565 4288085770
8.2770996 -1.5715866 -1.8099983 4288085770
15.029327 -2.4720325 -1.7931882 4288085770
8.5510559 -1.5296345 -1.8074052 4288085770
15.637238 -2.4329119 -1.7858386 4288085770
8.8519592 -1.4885864 -1.8047506 4288085770
9.1519165 -1.444541 -1.8011001 4288085770
9.4798889 -1.4003963 -1.7963866 4288085770
9.8548279 -1.3580933 -1.7945657 4288085770
10.259766 -1.3156815 -1.792677 4288085770
10.674713 -1.2692347 -1.7887684 4288085770
11.138672 -1.2246199 -1.7867479 4288085770
11.601562 -1.1750031 -1.7787327 4288085770
12.12149 -1.1251926 -1.7735888 4288085770
12.729431 -1.0770731 -1.771245 4288085770
13.415344 -1.0286856 -1.7717252 4288085770
14.142273 -0.97615051 -1.7691152 4288085770
14.933197 -0.91939163 -1.7643634 4288085770
15.749054 -0.85554504 -1.7545595 4288085770
16.279236 1.4885197 -1.7213777 4288085770
15.38913 1.5464039 -1.7244544 4288085770
14.571014 1.6005392 -1.7253637 4288085770
13.816925 1.6509008 -1.7261239 4288085770
13.138855 1.7005243 -1.7267097 4288085770
12.501801 1.7462959 -1.7251993 4288085770
11.959747 1.7933969 -1.7284722 4288085770
11.502655 1.8457928 -1.7355545 4288085770
11.014618 1.8880806 -1.7357006 4288085770
10.621582 1.9357023 -1.740633 4288085770
10.230499 1.9803286 -1.7435586 4288085770
9.8544312 2.0220098 -1.7434483 4288085770
9.4804077 2.0597 -1.7413303 4288085770
9.1643677 2.1025934 -1.7420833 4288085770
8.8643188 2.1445389 -1.7437991 4288085770
15.688568 3.2084394 -1.6919115 4288085770
8.5632629 2.1824846 -1.7415143 4288085770
15.020569 3.2331052 -1.6894574 4288085770
8.3002319 2.2235622 -1.7411448 4288085770
14.475555 3.2691917 -1.6937298 4288085770
8.0421753 2.2626572 -1.7407625 4288085770
13.967529 3.3044109 -1.6949168 4288085770
7.8111267 2.3028469 -1.7403193 4288085770
13.475525 3.337688 -1.6950662 4288085770
7.5881042 2.3440647 -1.7398582 4288085770
13.064484 3.3792448 -1.6990359 4288085770
7.3860474 2.385354 -1.7403493 4288085770
12.599457 3.4066191 -1.6941192 4288085770
7.1940002 2.4256792 -1.7398169 4288085770
12.212433 3.4412637 -1.693029 4288085770
7.0079346 2.4660273 -1.7382706 4288085770
11.919403 3.4932323 -1.6997358 4288085770
6.8518982 2.5114756 -1.7406595 4288085770
11.568329 3.5300021 -1.6965649 4288085770
6.6758728 2.549861 -1.737089 4288085770
11.298279 3.5790544 -1.7002172 4288085770
6.5527954 2.5984249 -1.7414047 4288085770
11.042206 3.6281543 -1.7018373 4288085770
6.4187622 2.6429529 -1.7417424 4288085770
10.795135 3.6762857 -1.7034361 4288085770
6.2877197 2.6854906 -1.7410719 4288085770
10.590057 3.7325644 -1.7069448 4288085770
6.1676331 2.7310667 -1.7413784 4288085770
10.385956 3.7858462 -1.7084488 4288085770
6.0735474 2.7817335 -1.7436289 4288085770
10.187866 3.8391509 -1.7089393 4288085770
5.9694824 2.8283658 -1.7438996 4288085770
10.01178 3.8955312 -1.7103815 4288085770
5.8804321 2.8790512 -1.7451388 4288085770
9.8596497 3.9559951 -1.7117717 4288085770
5.8083191 2.9327922 -1.748341 4288085770
9.70755 4.0164595 -1.7131619 4288085770
5.7442322 2.9875631 -1.7515256 4288085770
9.5834045 4.0810194 -1.7154907 4288085770
5.7311401 3.0575085 -1.7626044 4288085770
9.4682922 4.1486135 -1.7168013 4288085770
5.6960144 3.1203771 -1.7687284 4288085770
9.3751526 4.2202835 -1.7190644 4288085770
5.631958 3.17415 -1.7689127 4288085770
9.309967 4.2990484 -1.724268 4288085770
5.5698242 3.2279305 -1.768092 4288085770
9.2188416 4.3707261 -1.7245266 4288085770
5.5277405 3.2877789 -1.7702301 4288085770
9.1916199 4.4616241 -1.7316519 4288085770
5.5066223 3.3546977 -1.7743251 4288085770
9.1114502 4.5353413 -1.7298865 4288085770
5.4795227 3.4195991 -1.7764322 4288085770
9.0772705 4.6242185 -1.7330266 4288085770
5.4353943 3.4784422 -1.7755741 4288085770
9.065033 4.7201691 -1.7381212 4288085770
5.3912964 3.5362864 -1.7727154 4288085770
9.0298157 4.808042 -1.7382629 4288085770
5.3801575 3.6062436 -1.7737895 4288085770
9.0216064 4.9060102 -1.7403495 4288085770
5.3769836 3.6782269 -1.7768469 4288085770
9.0413208 5.0120735 -1.7443782 4288085770
5.3718567 3.7492061 -1.7779081 4288085770
9.0491028 5.1160955 -1.7464325 4288085770
5.3786621 3.8262253 -1.7799459 4288085770
9.0777893 5.2271929 -1.748444 4288085770
5.3685303 3.8961878 -1.7780179 4288085770
9.1075134 5.340292 -1.7504544 4288085770
5.3723755 3.9721975 -1.7780621 4288085770
9.1282043 5.4493628 -1.7484828 4288085770
5.3891602 4.0522542 -1.778079 4288085770
9.1618958 5.5654793 -1.7474864 4288085770
5.4020081 4.1322966 -1.7771057 4288085770
9.2105713 5.6886473 -1.7464604 4288085770
5.4238281 4.2153707 -1.7761133 4288085770
9.2662048 5.8148413 -1.7444206 4288085770
5.4665833 4.3095164 -1.7780811 4288085770
9.3748169 5.9642153 -1.7482756 4288085770
5.5403137 4.4167666 -1.7849867 4288085770
9.4454346 6.099463 -1.744208 4288085770
5.6420288 4.5381122 -1.7948382 4288085770
9.5700073 6.2598948 -1.7460343 4288085770
5.671814 4.6282167 -1.7908328 4288085770
9.7464294 6.4455051 -1.7517589 4288085770
5.7505188 4.7404866 -1.7937305 4288085770
9.9078979 6.6280675 -1.7535161 4288085770
5.8122559 4.8467026 -1.7926632 4288085770
10.112305 6.8317766 -1.7591894 4288085770
5.868988 4.9518991 -1.7886065 4288085770
10.330658 7.0465355 -1.7628384 4288085770
5.9636536 5.0752263 -1.7894756 4288085770
10.533051 7.2552414 -1.7635201 4288085770
6.0762634 5.2086158 -1.7923104 4288085770
10.758362 7.4770279 -1.763158 4288085770
6.1878967 5.3430042 -1.7931483 4288085770
10.981659 7.7018089 -1.7598026 4288085770
6.305542 5.4814129 -1.7939752 4288085770
11.266876 7.9608045 -1.7613294 4288085770
6.4201355 5.6198125 -1.7918091 4288085770
6.5467224 5.7662549 -1.7886212 4288085770
6.7142334 5.933836 -1.7913541 4288085770
6.8727417 6.1003885 -1.7901069 4288085770
7.0662231 6.2880635 -1.7907945 4288085770
6.4739075 6.0360727 -1.6669769 4293729569
5.9167175 5.6725783 -1.0040009 4293729569
5.684967 5.6634102 -1.5165262 4293729569
5.7907104 5.672163 -0.96228969 4293729569
5.5759277 5.6690588 -1.4697803 4293729569
5.7086182 5.6948981 -0.92349398 4293729569
5.4838867 5.6827636 -1.4250013 4293729569
5.5916443 5.6955156 -0.88076311 4293729569
5.3668823 5.6783838 -1.376267 4293729569
5.4926147 5.7041955 -0.83899635 4293729569
5.2718506 5.6860809 -1.3294904 4293729569
5.4325256 5.7320089 -0.80015397 4293729569
5.164856 5.681736 -1.2817332 4293729569
5.4003601 5.775919 -0.76225865 4293729569
5.0628357 5.6784096 -1.2329651 4293729569
5.3383179 5.7987261 -0.72241724 4293729569
4.9728394 5.6811223 -1.1861737 4293729569
5.2562866 5.8084664 -0.67861247 4293729569
4.8908081 5.6838641 -1.1403642 4293729569
5.2201538 5.8433628 -0.63972026 4293729569
4.8157959 5.6906309 -1.0945415 4293729569
5.1850586 5.8782682 -0.59782565 4293729569
4.7228088 5.6833358 -1.0457501 4293729569
5.1579285 5.9151969 -0.55691391 4293729569
4.6697388 5.6971774 -1.0018818 4293729569
5.1128235 5.9390669 -0.5130344 4293729569
4.6037292 5.7029753 -0.95503789 4293729569
5.0647278 5.9589243 -0.46915895 4293729569
4.5516663 5.7138224 -0.90916532 4293729569
4.9977112 5.9657197 -0.42331803 4293729569
4.5475464 5.7548337 -0.86720407 4293729569
4.9287415 5.9685068 -0.37747887 4293729569
4.4935303 5.7606735 -0.82033277 4293729569
4.8895264 6.0630627 -0.81263614 4293729569
4.5162354 5.8538046 -0.73734701 4293729569
4.4302368 5.8315353 -0.68552905 4293729569
4.4102173 5.8504939 -0.64058912 4293729569
4.3711548 5.8543882 -0.59168196 4293729569
4.3640747 5.8793907 -0.54671657 4293729569
4.3659668 5.9074259 -0.50073242 4293729569
4.396759 5.9535618 -0.45469475 4293729569
4.4166565 5.9896603 -0.40767539 4293729569
4.5632324 6.1112013 -0.36542502 4293729569
4.7447205 6.2568655 -0.32111174 4293729569
16.250702 -0.35531712 -1.7395025 4288085770
15.073944 -0.39045715 -1.7551596 4288085770
13.82309 -0.41383839 -1.7499933 4288085770
12.810303 -0.43639565 -1.7562852 4288085770
11.859436 -0.45273113 -1.7564404 4288085770
11.054596 -0.46855927 -1.7622633 4288085770
10.316772 -0.48115253 -1.7669358 4288085770
9.6218567 -0.49059105 -1.7685124 4288085770
9.0030212 -0.4987669 -1.772917 4288085770
15.007233 -0.82971382 -1.7500291 4288085770
8.4451294 -0.50572968 -1.7781836 4288085770
13.805267 -0.81493282 -1.7557764 4288085770
7.9102478 -0.51061058 -1.780399 4288085770
12.692291 -0.7978363 -1.7563227 4288085770
7.4253845 -0.51331425 -1.7835021 4288085770
11.74234 -0.7831707 -1.7604965 4288085770
6.9864807 -0.51686001 -1.7884998 4288085770
10.899414 -0.76913452 -1.766426 4288085770
6.568573 -0.51733208 -1.7924519 4288085770
10.138458 -0.75480652 -1.7691691 4288085770
6.1846924 -0.51768303 -1.7963265 4288085770
9.4565125 -0.74120045 -1.7737316 4288085770
5.8288269 -0.51793575 -1.8001374 4288085770
8.8385925 -0.72837448 -1.7781482 4288085770
5.4829102 -0.51515293 -1.8019277 4288085770
8.2646484 -0.71439266 -1.7824651 4288085770
5.2060547 -0.51613331 -1.8125584 4288085770
7.7316589 -0.70026588 -1.7846886 4288085770
4.9000854 -0.5132122 -1.8152574 4288085770
7.2487488 -0.68696213 -1.788798 4288085770
4.584198 -0.50632095 -1.8109822 4288085770
6.8217773 -0.67546749 -1.7947785 4288085770
4.3332825 -0.50420856 -1.8175555 4288085770
6.3988953 -0.66195583 -1.7977512 4288085770
4.0683594 -0.49813843 -1.8171635 4288085770
6.0209045 -0.64928818 -1.802621 4288085770
3.8224182 -0.49200535 -1.8177283 4288085770
5.6739807 -0.6365099 -1.8074204 4288085770
3.5924988 -0.48581505 -1.8192568 4288085770
5.3370667 -0.62369823 -1.8101969 4288085770
3.3695679 -0.47960091 -1.8187692 4288085770
5.0070801 -0.60885715 -1.8089588 4288085770
3.1626892 -0.47232914 -1.8202459 4288085770
4.7061462 -0.59491444 -1.8106539 4288085770
2.9687195 -0.4650135 -1.8216932 4288085770
4.4252014 -0.58090305 -1.8123038 4288085770
2.7727966 -0.45670414 -1.8211455 4288085770
4.1582336 -0.56684494 -1.8129218 4288085770
2.585907 -0.44836044 -1.8195775 4288085770
3.906311 -0.55373287 -1.8145047 4288085770
2.4359436 -0.44289589 -1.826923 4288085770
3.6763611 -0.54054451 -1.8170379 4288085770
2.269043 -0.43348503 -1.8273102 4288085770
3.4434204 -0.52536201 -1.8155792 4288085770
2.1191406 -0.42601681 -1.8286574 4288085770
3.2354431 -0.51309776 -1.8180617 4288085770
1.9501648 -0.414608 -1.8240503 4288085770
3.04953 -0.50075436 -1.8214941 4288085770
1.8142395 -0.40608978 -1.8263663 4288085770
2.8495789 -0.48645878 -1.8209597 4288085770
1.6853333 -0.39854717 -1.8296657 4288085770
2.666626 -0.47210312 -1.8213866 4288085770
1.5433655 -0.38804531 -1.8269964 4288085770
2.4896545 -0.45772743 -1.8207997 4288085770
1.4224548 -0.37847424 -1.8292789 4288085770
2.3297119 -0.44529533 -1.8231729 4288085770
1.2904968 -0.36793995 -1.826587 4288085770
2.1707764 -0.43085384 -1.8235453 4288085770
2.0168152 -0.4173975 -1.8219054 4288085770
1.8608704 -0.40194321 -1.8182716 4288085770
1.7229004 -0.3884306 -1.8185955 4288085770
1.6029663 -0.37586021 -1.8228778 4288085770
1.4790039 -0.36229706 -1.8231697 4288085770
1.3530579 -0.34873962 -1.8214663 4288085770
1.3833313 1.5699492 -1.7939138 4288085770
1.4963684 1.5883446 -1.7916745 4288085770
1.5994263 1.6037102 -1.7844557 4288085770
1.7114563 1.6201019 -1.7782171 4288085770
1.8294373 1.6365175 -1.7719651 4288085770
1.9494629 1.6529398 -1.7657089 4288085770
2.0425415 1.661273 -1.7495077 4288085770
1.3282166 1.517725 -1.8040116 4288085770
2.1985474 1.6838179 -1.7501749 4288085770
1.4322815 1.5280886 -1.7987869 4288085770
2.3625793 1.7063866 -1.7518243 4288085770
1.5563049 1.5425205 -1.7985201 4288085770
2.5675964 1.7380962 -1.7613882 4288085770
1.6403503 1.5468254 -1.784336 4288085770
2.7466125 1.7607193 -1.7620043 4288085770
1.7524109 1.5552158 -1.7770919 4288085770
2.8886414 1.7742214 -1.7516968 4288085770
1.8704834 1.5646324 -1.7708353 4288085770
3.0996704 1.8019552 -1.7552445 4288085770
1.996521 1.5750751 -1.7655612 4288085770
3.2597046 1.8155212 -1.7458968 4288085770
2.1325684 1.5855503 -1.762265 4288085770
3.5527039 1.8575325 -1.764271 4288085770
2.2936401 1.6011105 -1.7639163 4288085770
3.8237 1.8924694 -1.7746897 4288085770
2.4617004 1.6166945 -1.766552 4288085770
4.0957031 1.9244146 -1.7831038 4288085770
2.6297607 1.6292801 -1.7671857 4288085770
4.3426819 1.9492769 -1.7825694 4288085770
2.7807922 1.6378098 -1.7608542 4288085770
4.6047668 1.9741945 -1.7820014 4288085770
2.9138489 1.6402807 -1.7485595 4288085770
4.8827515 2.0011663 -1.7813991 4288085770
3.1379395 1.6610565 -1.7580733 4288085770
5.1657715 2.0241575 -1.7787826 4288085770
3.3439941 1.674778 -1.7596228 4288085770
5.4507751 2.0461569 -1.7741612 4288085770
3.5950012 1.6956453 -1.7700764 4288085770
5.7687683 2.0722694 -1.7724689 4288085770
3.8620605 1.7165689 -1.7814943 4288085770
6.100769 2.097434 -1.7687443 4288085770
4.1331482 1.7365122 -1.7909027 4288085770
6.4627686 2.123702 -1.7669538 4288085770
4.3681946 1.7463331 -1.7893846 4288085770
6.8278198 2.1479816 -1.7621552 4288085770
4.6022339 1.7531519 -1.7858666 4288085770
7.2228088 2.1733665 -1.7582901 4288085770
4.8793335 1.7651196 -1.7882562 4288085770
7.6298218 2.1967955 -1.7523968 4288085770
5.1203918 1.7689638 -1.7817208 4288085770
8.0647888 2.2203217 -1.7454411 4288085770
5.4074707 1.7759714 -1.7800843 4288085770
8.5378418 2.2459831 -1.7394021 4288085770
5.7265625 1.7860832 -1.7823786 4288085770
9.0257874 2.2696953 -1.7313279 4288085770
6.0606384 1.7962494 -1.7846395 4288085770
9.5658264 2.2955914 -1.7251389 4288085770
6.3876953 1.8003941 -1.7829117 4288085770
10.122833 2.3185482 -1.7159101 4288085770
6.7647705 1.808713 -1.7850749 4288085770
10.71283 2.3406229 -1.7056068 4288085770
7.1358948 1.8130102 -1.7842491 4288085770
11.414795 2.3720865 -1.7000595 4288085770
7.5249634 1.8143721 -1.7823807 4288085770
12.153778 2.40168 -1.6934283 4288085770
7.9140625 1.8127384 -1.7765106 4288085770
12.99176 2.4356174 -1.6885785 4288085770
8.335144 1.8092165 -1.7715673 4288085770
13.985718 2.481101 -1.6913879 4288085770
8.7692566 1.8037376 -1.7665939 4288085770
14.939697 2.5104504 -1.6802756 4288085770
9.2713623 1.8004971 -1.7654698 4288085770
16.131622 2.5576277 -1.6806437 4288085770
9.7775269 1.793273 -1.7613341 4288085770
10.334595 1.785224 -1.7590835 4288085770
10.860779 1.768074 -1.7478963 4288085770
11.420898 1.7470417 -1.7366302 4288085770
12.099091 1.732419 -1.7351048 4288085770
12.831238 1.7129869 -1.7314553 4288085770
13.613403 1.6907301 -1.7286919 4288085770
14.452606 1.662672 -1.7237973 4288085770
15.420807 1.6330643 -1.7226129 4288085770
6.2330627 -5.0103474 -0.10358518 4293729569
6.1743774 -5.0515842 -0.13968766 4293729569
6.1437378 -5.1067238 -0.17671779 4293729569
6.2283325 -5.2224607 -0.21644819 4293729569
8.0291138 -7.6462603 -1.5987415 4293729569
7.5653381 -7.3798971 -1.6099653 4293729569
7.1355286 -7.1294165 -1.6191019 4293729569
6.7518921 -6.9057703 -1.6301167 4293729569
6.3761902 -6.6810961 -1.6381145 4293729569
6.0125732 -6.4603796 -1.6440827 4293729569
5.6287842 -6.2227278 -1.6421074 4293729569
5.3292847 -6.0377874 -1.6519074 4293729569
5.02771 -5.8468504 -1.654716 4293729569
4.7341614 -5.658885 -1.6565046 4293729569
7.9183655 -7.7356844 -1.5949427 4293729569
4.4877014 -5.4997549 -1.663168 4293729569
7.4564209 -7.4293108 -1.6021909 4293729569
4.2703247 -5.3575277 -1.6737546 4293729569
7.0535583 -7.1587343 -1.6132818 4293729569
4.0679626 -5.2232485 -1.6823021 4293729569
6.6918335 -6.9130163 -1.6252638 4293729569
3.8876953 -5.100893 -1.6947919 4293729569
6.3601685 -6.6851873 -1.6361661 4293729569
3.6943359 -4.9685783 -1.7003177 4293729569
6.0154419 -6.4444036 -1.6411064 4293729569
3.4758606 -4.816349 -1.6989138 4293729569
5.6687012 -6.201623 -1.6410527 4293729569
3.3316345 -4.7118664 -1.7103107 4293729569
5.381073 -5.995635 -1.6468413 4293729569
3.1733398 -4.5964279 -1.7167467 4293729569
5.0894165 -5.7856665 -1.6476413 4293729569
3.0140381 -4.4789934 -1.7201862 4293729569
4.8569336 -5.6134882 -1.6552831 4293729569
2.824646 -4.3386545 -1.7137091 4293729569
4.6374512 -5.4492674 -1.6618899 4293729569
2.6743469 -4.2251854 -1.7141259 4293729569
4.4530945 -5.3059244 -1.6714041 4293729569
2.5520935 -4.1286211 -1.7194679 4293729569
4.2927551 -5.1774998 -1.6838541 4293729569
2.4248657 -4.0270739 -1.7218249 4293729569
4.1174011 -5.0391216 -1.6903447 4293729569
2.3045959 -3.9294996 -1.7231635 4293729569
3.946991 -4.9007273 -1.695824 4293729569
2.1973572 -3.8378811 -1.7274686 4293729569
3.7886353 -4.7702875 -1.700271 4293729569
2.1343079 -3.7761154 -1.7416549 4293729569
3.6453247 -4.6497974 -1.7056775 4293729569
2.1524658 -3.7670822 -1.7766227 4293729569
3.4920044 -4.5213394 -1.707112 4293729569
2.2026672 -3.7769451 -1.8215059 4288085770
3.3456421 -4.3968573 -1.7075279 4293729569
2.2529297 -3.7848043 -1.8653909 4288085770
3.2223816 -4.2862949 -1.7108827 4293729569
2.2961426 -3.7856874 -1.9072963 4288085770
3.0950928 -4.1727448 -1.7112485 4293729569
2.2319641 -3.7159214 -1.9154904 4282675967
2.9787903 -4.0661554 -1.7115848 4293729569
2.1297302 -3.6212826 -1.9097867 4282675967
2.8725586 -3.9655333 -1.7128947 4293729569
2.0505676 -3.5405607 -1.9100221 4282675967
2.8144226 -3.8937511 -1.7250772 4293729569
1.9733887 -3.4608355 -1.9092523 4288085770
2.7593384 -3.8239527 -1.7352514 4293729569
1.8911438 -3.3771238 -1.9044963 4288085770
2.7703552 -3.7929382 -1.7622514 4293729569
1.8169861 -3.2973852 -1.9017199 4288085770
2.8355408 -3.7927437 -1.8011091 4293729569
1.7608337 -3.2295856 -1.9038949 4288085770
2.9398499 -3.8134165 -1.8508655 4288085770
1.6886597 -3.1508398 -1.8981133 4288085770
3.0751648 -3.8509893 -1.9075409 4282675967
1.6395264 -3.0870161 -1.8982697 4288085770
3.0180359 -3.7751951 -1.9117242 4282675967
1.5843811 -3.0192108 -1.8954424 4288085770
2.9367981 -3.6834831 -1.9079721 4282675967
1.5452881 -2.9593515 -1.8965738 4288085770
2.8665771 -3.5987291 -1.9061908 4282675967
1.4900818 -2.8905439 -1.8917438 4288085770
2.7964172 -3.5139742 -1.9014057 4288085770
1.4660645 -2.8406324 -1.8958344 4288085770
2.7392273 -3.4371767 -1.900589 4288085770
1.4208984 -2.7767925 -1.8919816 4288085770
2.6749878 -3.3564034 -1.8957906 4288085770
1.3687744 -2.7099724 -1.8841465 4288085770
2.6439209 -3.2925177 -1.8989072 4288085770
1.3406677 -2.6560736 -1.8832488 4288085770
2.5957336 -3.2206888 -1.8960669 4288085770
1.3206177 -2.6061506 -1.8843305 4288085770
2.5505981 -3.1508465 -1.8922187 4288085770
2.5104675 -3.0819864 -1.8893588 4288085770
2.4732971 -3.016119 -1.8864899 4288085770
2.453186 -2.9581947 -1.8865776 4288085770
2.4290771 -2.8982801 -1.8846756 4288085770
2.4049683 -2.8383656 -1.8817736 4288085770
2.3938904 -2.7854071 -1.881838 4288085770
2.3978271 -2.7384005 -1.8848647 4288085770
2.3857422 -2.6854448 -1.8829314 4288085770
2.3695984 -2.6295004 -1.8780087 4288085770
2.3645325 -2.5795202 -1.8760575 4288085770
2.3674927 -2.5325127 -1.8750865 4288085770
2.3734131 -2.4864931 -1.8741083 4288085770
2.3923645 -2.4454308 -1.8760976 4288085770
2.4103394 -2.4053726 -1.8770885 4288085770
2.419281 -2.3593445 -1.8741035 4288085770
2.4291992 -2.3153105 -1.8701152 4288085770
2.4561768 -2.2772188 -1.8710846 4288085770
2.479126 -2.2371407 -1.8690643 4288085770
1.3116455 -1.8152323 -1.8649473 4288085770
2.512085 -2.2000303 -1.8700202 4288085770
1.3226318 -1.7781944 -1.8599513 4288085770
2.5290222 -2.1569691 -1.8650155 4288085770
1.3516541 -1.7480965 -1.8609105 4288085770
2.5559692 -2.1188755 -1.8619852 4288085770
1.3806152 -1.7169971 -1.8598704 4288085770
2.6039734 -2.0867128 -1.863904 4288085770
1.3995972 -1.6829319 -1.8558545 4288085770
2.6289368 -2.0466232 -1.8588797 4288085770
1.4406128 -1.6547928 -1.8577859 4288085770
2.6809387 -2.0154448 -1.8597893 4288085770
1.4715881 -1.6246843 -1.8557407 4288085770
2.7239075 -1.9802961 -1.8577213 4288085770
1.5075684 -1.5945625 -1.8546846 4288085770
2.7648621 -1.9451542 -1.8536581 4288085770
1.5435791 -1.5654383 -1.8526278 4288085770
2.8358765 -1.918911 -1.8575221 4288085770
1.5996094 -1.5412483 -1.8555231 4288085770
2.8798828 -1.8837557 -1.8524524 4288085770
1.6295776 -1.5091419 -1.8504816 4288085770
2.9438477 -1.8535357 -1.8513348 4288085770
1.6915894 -1.4859314 -1.8543632 4288085770
2.987793 -1.8163795 -1.8452663 4288085770
1.7335815 -1.4567842 -1.850293 4288085770
3.0698242 -1.7910986 -1.8471055 4288085770
1.7906189 -1.4315863 -1.8501871 4288085770
3.145813 -1.7628345 -1.8469601 4288085770
1.8425903 -1.4044075 -1.8490938 4288085770
3.2328491 -1.7375336 -1.8477885 4288085770
1.8916016 -1.3762369 -1.8450075 4288085770
3.3158569 -1.7102442 -1.8466269 4288085770
1.982666 -1.3579264 -1.8528217 4288085770
3.4108276 -1.683917 -1.8474385 4288085770
2.0406494 -1.3317242 -1.8497145 4288085770
3.4888306 -1.6536407 -1.8422902 4288085770
2.1096497 -1.3064852 -1.8485821 4288085770
3.6018677 -1.6312485 -1.8450592 4288085770
2.1756592 -1.2812557 -1.8464565 4288085770
3.6938477 -1.6029291 -1.8408788 4288085770
2.2466736 -1.2560072 -1.8443199 4288085770
3.8148804 -1.5805063 -1.8426303 4288085770
2.3306885 -1.233716 -1.8441525 4288085770
3.9208984 -1.5541353 -1.8394176 4288085770
2.4167175 -1.2104168 -1.8439814 4288085770
4.0419006 -1.5287142 -1.8371713 4288085770
2.4887085 -1.1831656 -1.8378443 4288085770
4.164917 -1.5032845 -1.8349206 4288085770
2.587738 -1.1618204 -1.8386432 4288085770
4.3158875 -1.4827595 -1.8366047 4288085770
2.6897583 -1.1404676 -1.8404355 4288085770
4.4439392 -1.4563084 -1.8313439 4288085770
2.7947998 -1.1181021 -1.8402221 4288085770
4.592926 -1.4337902 -1.830034 4288085770
2.8927917 -1.094759 -1.837025 4288085770
4.7669678 -1.4141827 -1.8316672 4288085770
3.0108643 -1.0743494 -1.8377815 4288085770
4.9420166 -1.3935709 -1.8312986 4288085770
3.112793 -1.0489902 -1.8325771 4288085770
5.1190186 -1.3709526 -1.8289274 4288085770
3.2528992 -1.0305042 -1.836284 4288085770
5.3140259 -1.3502722 -1.8285151 4288085770
3.3628845 -1.0051193 -1.830062 4288085770
5.4920654 -1.3256445 -1.8221433 4288085770
3.5149231 -0.98659134 -1.8327426 4288085770
5.7091064 -1.3048859 -1.8206829 4288085770
3.651947 -0.96411324 -1.8304592 4288085770
5.9221191 -1.2831392 -1.8162318 4288085770
3.7969666 -0.94160557 -1.827158 4288085770
6.1691284 -1.2632742 -1.8157049 4288085770
3.9479675 -0.92007542 -1.8248432 4288085770
6.4161377 -1.2414083 -1.8111794 4288085770
4.1270142 -0.90045261 -1.8264654 4288085770
6.6951599 -1.2234306 -1.8105807 4288085770
4.3070374 -0.87882519 -1.8250867 4288085770
6.9702148 -1.2004681 -1.8049948 4288085770
4.5060425 -0.85912991 -1.826665 4288085770
7.2722473 -1.1794052 -1.8003479 4288085770
4.6980896 -0.83645725 -1.8232613 4288085770
7.6002197 -1.1602554 -1.7966428 4288085770
4.9071045 -0.81572723 -1.8218184 4288085770
7.971283 -1.1419563 -1.7948425 4288085770
5.1011047 -0.79004383 -1.8144125 4288085770
8.3623352 -1.1235867 -1.7929983 4288085770
5.3381042 -0.76921368 -1.8129083 4288085770
8.7763367 -1.1041307 -1.7881045 4288085770
5.5711365 -0.74539661 -1.8084154 4288085770
9.234375 -1.086525 -1.7851129 4288085770
5.8561401 -0.72539997 -1.809805 4288085770
9.7283936 -1.0687914 -1.782042 4288085770
6.1151733 -0.70049 -1.802256 4288085770
10.261444 -1.049922 -1.7768865 4288085770
6.4181824 -0.6784277 -1.8006079 4288085770
10.865448 -1.0318041 -1.7735747 4288085770
6.7512207 -0.65526199 -1.7988949 4288085770
11.525513 -1.0154867 -1.7701385 4288085770
7.0812073 -0.63110256 -1.7921896 4288085770
12.23053 -0.99701214 -1.7636055 4288085770
7.472229 -0.60773087 -1.7923493 4288085770
13.061584 -0.98109722 -1.7617936 4288085770
7.8552246 -0.58238602 -1.7855284 4288085770
13.99765 -0.96681309 -1.7597502 4288085770
8.3032227 -0.55781555 -1.7835641 4288085770
15.021667 -0.9502182 -1.7555153 4288085770
8.7842102 -0.53212929 -1.7795283 4288085770
16.157684 -0.93223 -1.7480358 4288085770
9.3122559 -0.50627708 -1.7763896 4288085770
9.8832397 -0.47827435 -1.772158 4288085770
10.525269 -0.45001984 -1.7687711 4288085770
11.224243 -0.42056465 -1.7632599 4288085770
11.996216 -0.38885498 -1.7585902 4288085770
12.93924 -0.35855103 -1.7615441 4288085770
13.885193 -0.32322788 -1.7534955 4288085770
15.134186 -0.28785324 -1.7587819 4288085770
15.462219 0.013725281 -1.7386267 4288085770
14.08139 0.00085258484 -1.7416393 4288085770
12.943512 -0.010168076 -1.7501212 4288085770
11.878601 -0.016924858 -1.7514471 4288085770
10.980774 -0.023097992 -1.7564079 4288085770
10.171875 -0.026955605 -1.7621756 4288085770
9.4219971 -0.028605461 -1.7638162 4288085770
15.848358 -0.12493229 -1.7326667 4288085770
8.7831116 -0.029863358 -1.7692139 4288085770
14.465424 -0.11681652 -1.7417009 4288085770
