# .PCD v0.7 - Point Cloud Data file format
VERSION 0.7
FIELDS x y z rgb
SIZE 4 4 4 4
TYPE F F F U
COUNT 1 1 1 1
WIDTH 1112
HEIGHT 1
VIEWPOINT 0 0 0 1 0 0 0
POINTS 1112
DATA ascii
2.7155647 0.7580409 -1.7927314 4288085770
13.289806 1.5153964 -1.8287209 4288085770
2.2686958 0.72525263 -1.8024983 4288085770
2.508606 0.74165201 -1.7934833 4288085770
3.9954567 0.84747863 -1.792971 4288085770
2.3116493 0.72528148 -1.794155 4288085770
4.2984428 0.86605167 -1.7924396 4288085770
1.3058052 0.65139532 -1.7986335 4288085770
2.1247063 0.7089355 -1.7957467 4288085770
4.6394577 0.88571429 -1.794598 4288085770
1.9427414 0.69257998 -1.7942986 4288085770
15.280678 1.6261356 -1.8211545 4288085770
4.9954605 0.90539217 -1.7946366 4288085770
1.8218002 0.68237543 -1.7983263 4288085770
1.6508141 0.67004657 -1.7977662 4288085770
1.9907799 0.69368815 -1.7969085 4288085770
2.1757622 0.70603681 -1.7963569 4288085770
1.4938622 0.65776253 -1.8000938 4288085770
1.3308601 0.64542937 -1.7964699 4288085770
1.7768097 0.67627358 -1.7957225 4288085770
14.792896 1.5782967 -1.8353393 4288085770
2.3757668 0.71741939 -1.7966913 4288085770
5.3694534 0.92409039 -1.7925375 4288085770
2.5847664 0.72981882 -1.7969476 4288085770
1.1848984 0.6331532 -1.7967098 4288085770
8.4773636 1.1321378 -1.8134645 4288085770
1.6118622 0.6599493 -1.7941386 4288085770
2.8017654 0.74122667 -1.7961459 4288085770
1.0589638 0.62193942 -1.8007835 4288085770
5.763443 0.94382501 -1.7902721 4288085770
3.0437889 0.75369978 -1.7981384 4288085770
0.92702103 0.60969591 -1.8019115 4288085770
2.4318848 0.71055555 -1.8012854 4288085770
1.4739494 0.64571381 -1.7983261 4288085770
6.2424965 0.96676826 -1.7953087 4288085770
3.2998199 0.76619887 -1.8000185 4288085770
0.80908966 0.59849048 -1.8049212 4288085770
14.300045 1.5053079 -1.8277155 4288085770
1.4430161 0.63866949 -1.8006161 4288085770
1.3190079 0.62940812 -1.7966622 4288085770
6.7134933 0.98764586 -1.7924216 4288085770
3.5598373 0.77668619 -1.7988791 4288085770
0.67811203 0.58521652 -1.8010474 4288085770
3.8348579 0.78820777 -1.7986139 4288085770
0.57220078 0.57403994 -1.8049612 4288085770
1.1710587 0.61310959 -1.7939426 4288085770
7.2945938 1.01281 -1.8016303 4288085770
4.1288872 0.79875803 -1.7972025 4288085770
1.0471497 0.59888697 -1.7960184 4288085770
7.8646011 1.0348766 -1.7989454 4288085770
8.9575806 1.1040058 -1.8068005 4288085770
2.6030807 0.69487286 -1.8000145 4288085770
4.4379082 0.80832934 -1.7946773 4288085770
0.93024826 0.5846839 -1.7990385 4288085770
1.6022606 0.6260097 -1.8064229 4288085770
8.5156517 1.0591249 -1.8006006 4288085770
15.38427 1.489336 -1.8231548 4288085770
4.785965 0.81899881 -1.7958339 4288085770
0.81634903 0.57048011 -1.8010343 4288085770
9.1526184 1.0802774 -1.7913864 4288085770
5.1640244 0.83072996 -1.7977448 4288085770
0.70344925 0.55527174 -1.8020285 4288085770
2.8113136 0.68129659 -1.8044354 4288085770
9.8826256 1.1026263 -1.7854222 4288085770
9.5328255 1.0780814 -1.8043649 4288085770
5.5490685 0.83944845 -1.7956177 4288085770
1.7464561 0.61228323 -1.806356 4288085770
0.59453964 0.54106462 -1.8019848 4288085770
10.78772 1.1323826 -1.7910157 4288085770
6.0041618 0.85034084 -1.7999187 4288085770
3.0155067 0.66668773 -1.8048946 4288085770
11.803818 1.1623433 -1.7957215 4288085770
6.4412079 0.85814834 -1.796382 4288085770
1.9056511 0.59959769 -1.8081628 4288085770
10.179081 1.0523009 -1.8033613 4288085770
13.015972 1.1987309 -1.8088233 4288085770
6.9132538 0.86502171 -1.7925713 4288085770
3.2347031 0.65311909 -1.8072276 4288085770
14.340092 1.2352927 -1.8160298 4288085770
7.4503403 0.87203932 -1.7922406 4288085770
2.0658417 0.58590734 -1.8089679 4288085770
10.900349 1.0266788 -1.8047577 4288085770
8.0634537 0.87921786 -1.7943022 4288085770
3.4809227 0.63961315 -1.8113447 4288085770
2.240036 0.57224941 -1.810661 4288085770
8.7145538 0.88645911 -1.7950599 4288085770
11.729626 1.0002611 -1.8062969 4288085770
9.4376907 0.89185238 -1.7982537 4288085770
3.7281113 0.62508965 -1.8124599 4288085770
2.4392471 0.55965638 -1.815148 4288085770
10.224808 0.89534545 -1.7979479 4288085770
3.9762688 0.61054873 -1.8105674 4288085770
12.678925 0.97509742 -1.8118701 4288085770
2.6244125 0.54600585 -1.8147532 4288085770
11.073917 0.89593935 -1.7951647 4288085770
4.2674713 0.5961256 -1.8143307 4288085770
2.8466187 0.53346157 -1.8200563 4288085770
12.004017 0.89467072 -1.7897457 4288085770
13.733227 0.94812751 -1.8166158 4288085770
4.577652 0.58273101 -1.816936 4288085770
13.200245 0.8960011 -1.7991867 4288085770
3.0597763 0.52086866 -1.8204315 4288085770
14.954529 0.92047763 -1.822032 4288085770
4.9068336 0.56837118 -1.8193957 4288085770
14.446415 0.89237309 -1.8002584 4288085770
3.2949524 0.50833583 -1.8236307 4288085770
5.218956 0.55393529 -1.8149915 4288085770
3.5380974 0.49479198 -1.822772 4288085770
5.5720863 0.53858769 -1.8122654 4288085770
3.7942505 0.4812783 -1.8228096 4288085770
5.9892578 0.52539706 -1.8150152 4288085770
4.0633812 0.46778226 -1.8217432 4288085770
6.4103851 0.51018143 -1.8127453 4288085770
4.3675423 0.45537591 -1.8243905 4288085770
6.8965492 0.49611759 -1.8149494 4288085770
4.6696472 0.44192815 -1.8210604 4288085770
7.4237061 0.4821291 -1.8168255 4288085770
5.0057678 0.42956161 -1.8204522 4288085770
8.0108566 0.46825802 -1.819222 4288085770
5.3548698 0.41620028 -1.8167461 4288085770
8.66502 0.45452356 -1.8230824 4288085770
5.7419777 0.4039278 -1.8157301 4288085770
9.3711624 0.44087172 -1.8245274 4288085770
14.72216 0.51097512 -1.8163732 4288085770
13.285103 0.48820066 -1.8089861 4288085770
6.1901245 0.39080024 -1.8192319 4288085770
12.184177 0.46715498 -1.8159052 4288085770
9.1982231 0.41650105 -1.8180562 4288085770
9.9992371 0.42602456 -1.8186022 4288085770
10.931301 0.43683493 -1.8250945 4288085770
8.5102501 0.40621817 -1.8216125 4288085770
10.170315 0.42640448 -1.8272344 4288085770
11.884289 0.44460738 -1.8194373 4288085770
7.8322258 0.39389563 -1.8161012 4288085770
6.6622429 0.37970364 -1.8205299 4288085770
12.948265 0.45258427 -1.8128926 4288085770
7.2362213 0.38275063 -1.813928 4288085770
14.307362 0.46019602 -1.8179941 4288085770
11.065468 0.41212058 -1.8301736 4288085770
7.1963844 0.36774099 -1.824338 4288085770
12.047596 0.39899099 -1.8314112 4288085770
7.764492 0.35582185 -1.8248743 4288085770
13.112663 0.38396335 -1.8239976 4288085770
8.4116287 0.34508014 -1.8297727 4288085770
14.450836 0.37053537 -1.8293942 4288085770
9.1187439 0.33343005 -1.8311974 4288085770
9.9058609 0.32294071 -1.8339763 4288085770
10.792984 0.31264794 -1.8379554 4288085770
11.779083 0.30252576 -1.8391427 4288085770
12.802105 0.29341376 -1.8310288 4288085770
14.0802 0.28484285 -1.8318751 4288085770
15.125145 0.28374612 -1.819537 4288085770
13.610062 0.27180874 -1.8097075 4288085770
12.475143 0.2587074 -1.8178502 4288085770
11.468216 0.24483609 -1.8239757 4288085770
10.519245 0.23203313 -1.8236314 4288085770
9.6702766 0.21841478 -1.8224936 4288085770
8.912323 0.20397115 -1.8216342 4288085770
0.74195862 0.22943902 -1.8157226 4288085770
14.028454 0.18661118 -1.8118851 4288085770
8.223362 0.19064832 -1.819217 4288085770
12.80051 0.16828692 -1.8128023 4288085770
7.6104088 0.17747259 -1.8171922 4288085770
0.85110092 0.21564758 -1.8159359 4288085770
11.845695 0.14956927 -1.8275417 4288085770
7.0564766 0.16341817 -1.8167014 4288085770
10.872761 0.13172221 -1.82742 4288085770
0.96222305 0.20084071 -1.8131396 4288085770
6.5655708 0.14949977 -1.8187066 4288085770
9.986805 0.11401725 -1.8236026 4288085770
6.1056557 0.13562536 -1.8184643 4288085770
1.0873642 0.18708503 -1.8142247 4288085770
9.2419014 0.097616911 -1.8256512 4288085770
5.6797562 0.12082088 -1.818956 4288085770
8.5209465 0.081216097 -1.8205085 4288085770
1.2124825 0.1733166 -1.8133103 4288085770
5.2998581 0.10710704 -1.8200738 4288085770
7.8990517 0.064036489 -1.8205798 4288085770
1.362648 0.15963924 -1.8191953 4288085770
4.9489822 0.092453718 -1.8219657 4288085770
7.3451538 0.04798913 -1.8211013 4288085770
1.5057716 0.1449101 -1.8191428 4288085770
0.83879852 0.15166068 -1.8214285 4288085770
4.615097 0.078824997 -1.8227156 4288085770
1.6518936 0.13018668 -1.8190664 4288085770
6.8563042 0.031087041 -1.8251088 4288085770
15.111233 -0.13601434 -1.8652062 4288085770
0.96692657 0.13891697 -1.8234837 4288085770
14.547047 -0.14627302 -1.8357728 4288085770
4.2952042 0.064209819 -1.82136 4288085770
1.8130264 0.11550331 -1.8208699 4288085770
13.580109 -0.13703752 -1.846439 4288085770
6.3834076 0.015182853 -1.8239827 4288085770
1.0769691 0.12808204 -1.8166711 4288085770
2.0041809 0.10090768 -1.8274331 4288085770
12.497223 -0.14103544 -1.855112 4288085770
1.2170715 0.11635995 -1.8186245 4288085770
4.0053253 0.050662518 -1.8217582 4288085770
13.26712 -0.17175007 -1.8281492 4288085770
5.9234848 0.00027704239 -1.8187469 4288085770
2.1692734 0.086205959 -1.8252048 4288085770
11.560356 -0.14373171 -1.8676109 4288085770
1.3752098 0.10369062 -1.8234397 4288085770
3.7374573 0.036156178 -1.8219866 4288085770
10.630367 -0.14150476 -1.8660245 4288085770
2.3643951 0.070591927 -1.8277425 4288085770
1.5222893 0.091962099 -1.822337 4288085770
5.5256081 -0.015482187 -1.8180211 4288085770
12.334381 -0.20043278 -1.8417741 4288085770
1.6913948 0.080306292 -1.8260581 4288085770
9.7723694 -0.13815129 -1.8628561 4288085770
2.5554848 0.055951238 -1.8273062 4288085770
8.9853249 -0.13168609 -1.8561021 4288085770
1.8554764 0.068615794 -1.8258195 4288085770
3.5196648 0.020799756 -1.8308207 4288085770
2.7936401 0.040448189 -1.8344994 4288085770
5.1737633 -0.032130837 -1.8209332 4288085770
8.2692833 -0.12508309 -1.8497802 4288085770
2.0365601 0.055962563 -1.8264509 4288085770
3.0147362 0.024875283 -1.8358291 4288085770
11.446602 -0.22807097 -1.8490334 4288085770
7.6362648 -0.11830831 -1.8457942 4288085770
2.2326546 0.044356585 -1.8299562 4288085770
3.2518234 0.0093256235 -1.8360308 4288085770
14.312027 -0.33458281 -1.8587996 4288085770
7.0682449 -0.11040056 -1.8432825 4288085770
3.2617645 0.0072863102 -1.8269634 4288085770
2.4197083 0.032701492 -1.8285335 4288085770
4.850914 -0.047731996 -1.8226076 4288085770
6.547226 -0.10239959 -1.8413947 4288085770
3.4958954 -0.0062242746 -1.8341767 4288085770
2.6317787 0.021112084 -1.829911 4288085770
12.956898 -0.31021619 -1.8484731 4288085770
6.030159 -0.092429638 -1.8334632 4288085770
2.8839035 0.0086411238 -1.8379741 4288085770
3.7709885 -0.021684766 -1.8370744 4288085770
5.5881233 -0.083282948 -1.8309376 4288085770
12.00201 -0.29391944 -1.8650005 4288085770
3.132988 -0.0028611422 -1.8420553 4288085770
10.638794 -0.25258029 -1.852635 4288085770
5.21315 -0.074967861 -1.8348819 4288085770
3.3900528 -0.01436162 -1.8440727 4288085770
4.0270157 -0.037238002 -1.8311247 4288085770
4.839119 -0.064683318 -1.8338063 4288085770
3.6220284 -0.023965836 -1.8372784 4288085770
11.026981 -0.27375591 -1.8666648 4288085770
3.8860435 -0.03448534 -1.8342338 4288085770
4.5041122 -0.055307388 -1.8354248 4288085770
4.1850815 -0.044914961 -1.8349093 4288085770
3.0559425 -0.0070798397 -1.830696 4288085770
4.3581352 -0.053570032 -1.8375802 4288085770
10.06284 -0.24965525 -1.8552172 4288085770
4.5520935 -0.064276338 -1.8260961 4288085770
4.6601562 -0.069032311 -1.8322624 4288085770
9.244751 -0.22924042 -1.8496261 4288085770
5.0182304 -0.08534646 -1.8335023 4288085770
8.542717 -0.21056676 -1.8501191 4288085770
5.3822784 -0.1016624 -1.8326945 4288085770
7.8926582 -0.19181013 -1.8481963 4288085770
7.3055954 -0.17293739 -1.8457696 4288085770
5.7823296 -0.11891222 -1.8316048 4288085770
6.2414055 -0.1360209 -1.8350428 4288085770
6.7505035 -0.15502477 -1.8400933 4288085770
9.7758255 -0.27131271 -1.837641 4288085770
2.8050003 -0.01961875 -1.8207772 4288085770
4.2592468 -0.079828858 -1.8265306 4288085770
2.6031647 -0.033996582 -1.8214779 4288085770
9.0799675 -0.29365349 -1.8343353 4288085770
3.9773903 -0.095373631 -1.8248775 4288085770
2.4193306 -0.048341274 -1.822035 4288085770
14.58894 -0.58014768 -1.8470867 4288085770
8.463131 -0.31483591 -1.832392 4288085770
3.7215385 -0.1108638 -1.8240165 4288085770
2.2454948 -0.062667251 -1.8225119 4288085770
14.812462 -0.65555131 -1.8747637 4288085770
3.4937286 -0.12627029 -1.8279313 4288085770
13.32198 -0.589625 -1.8352634 4288085770
7.8892822 -0.33494496 -1.8290986 4288085770
14.968559 -0.71536738 -1.8578815 4288085770
2.0716553 -0.077006102 -1.8209891 4288085770
3.2709084 -0.1426934 -1.8278124 4288085770
13.487453 -0.65916753 -1.858368 4288085770
12.377182 -0.60738665 -1.8399187 4288085770
7.3784599 -0.3559252 -1.8273076 4288085770
1.8987999 -0.090355754 -1.8174523 4288085770
3.0530701 -0.15711308 -1.8266416 4288085770
12.496643 -0.67101377 -1.8633549 4288085770
13.89674 -0.75345957 -1.848675 4288085770
11.523396 -0.62497377 -1.8448464 4288085770
6.9086304 -0.37582946 -1.8251826 4288085770
1.7469826 -0.10464084 -1.8177537 4288085770
2.8392258 -0.17253852 -1.823445 4288085770
11.583809 -0.67872202 -1.866694 4288085770
10.70153 -0.63955927 -1.8405006 4288085770
6.4708099 -0.39567435 -1.8228018 4288085770
12.979969 -0.79222733 -1.8442352 4288085770
1.6071701 -0.11890388 -1.8179591 4288085770
10.681831 -0.69269472 -1.8624239 4288085770
2.6332817 -0.20199108 -1.8205087 4288085770
9.9636574 -0.66924584 -1.8408908 4288085770
6.0819473 -0.43108809 -1.8238615 4288085770
1.4572487 -0.14836287 -1.8163841 4288085770
9.8859215 -0.69230741 -1.8586168 4288085770
12.229256 -0.8486746 -1.850192 4288085770
2.444458 -0.21638346 -1.8180553 4288085770
9.3008347 -0.68458271 -1.8391299 4288085770
5.7121544 -0.45083517 -1.8228439 4288085770
9.169014 -0.68976045 -1.8551837 4288085770
1.3204231 -0.16164815 -1.8145206 4288085770
2.2906799 -0.23267496 -1.8213392 4288085770
11.53054 -0.88807696 -1.8498359 4288085770
8.4960785 -0.68513221 -1.8503978 4288085770
8.6889992 -0.69983017 -1.8349723 4288085770
5.3943939 -0.47145867 -1.8254263 4288085770
1.1976242 -0.17589521 -1.8145531 4288085770
15.335728 -1.2062578 -1.8918766 4288085770
2.1248665 -0.24801683 -1.8197119 4288085770
7.8771553 -0.67939293 -1.8461862 4288085770
8.1381798 -0.71494752 -1.8323393 4288085770
10.865803 -0.92342359 -1.8471946 4288085770
13.868561 -1.1552967 -1.8720305 4288085770
5.087616 -0.49207669 -1.8249234 4288085770
1.0908623 -0.19108903 -1.8184659 4288085770
7.3302383 -0.67349625 -1.8444133 4288085770
1.9630547 -0.26235628 -1.8170484 4288085770
12.70454 -1.1176507 -1.866895 4288085770
7.6493874 -0.73193294 -1.831234 4288085770
6.8263283 -0.66751033 -1.8433056 4288085770
4.8108559 -0.51161993 -1.8271816 4288085770
0.98509216 -0.20629203 -1.8203712 4288085770
10.313129 -0.96251285 -1.8507012 4288085770
1.8192558 -0.27764964 -1.8162498 4288085770
11.707561 -1.0846455 -1.8664838 4288085770
6.3513985 -0.6594727 -1.8409616 4288085770
7.1975937 -0.74884534 -1.8298403 4288085770
10.791573 -1.0524871 -1.864447 4288085770
0.86828232 -0.21954346 -1.8173523 4288085770
4.5721588 -0.53506196 -1.8341645 4288085770
5.9024544 -0.64938974 -1.8374047 4288085770
1.6904869 -0.29289746 -1.8183345 4288085770
9.741375 -0.99468803 -1.8453207 4288085770
9.9615669 -1.020166 -1.8607399 4288085770
15.074886 -1.4707881 -1.8932849 4288085770
5.5165558 -0.64215112 -1.8393724 4288085770
6.79282 -0.76665545 -1.8300859 4288085770
0.77351379 -0.23371911 -1.8201668 4288085770
9.1945572 -0.98872685 -1.8555477 4288085770
4.3304138 -0.55553651 -1.8361555 4288085770
1.5637054 -0.30814695 -1.8194035 4288085770
5.1546631 -0.63485998 -1.8421528 4288085770
8.5005455 -0.9581393 -1.8507916 4288085770
9.2026176 -1.0258039 -1.8386782 4288085770
14.023018 -1.4749402 -1.8844949 4288085770
4.8227692 -0.62650442 -1.8456943 4288085770
6.4150505 -0.78441256 -1.8301213 4288085770
7.8955688 -0.93135035 -1.8503625 4288085770
1.4339218 -0.32341862 -1.8174965 4288085770
4.0706062 -0.57308388 -1.8312718 4288085770
4.5088577 -0.61811942 -1.8480957 4288085770
7.3175621 -0.90353018 -1.845718 4288085770
4.1979103 -0.60674977 -1.8464583 4288085770
13.028126 -1.4739914 -1.8732353 4288085770
8.7859573 -1.0626166 -1.8431158 4288085770
6.0723 -0.80309021 -1.8318893 4288085770
6.8005829 -0.87756938 -1.8446083 4288085770
1.3141251 -0.33767009 -1.8155062 4288085770
3.8929482 -0.59537399 -1.8437742 4288085770
3.8638802 -0.59448487 -1.8339956 4288085770
6.3486328 -0.85545957 -1.8470128 4288085770
3.6240196 -0.58490604 -1.8448147 4288085770
5.9296761 -0.83328497 -1.8491598 4288085770
12.212341 -1.4796224 -1.8736171 4288085770
3.3680687 -0.57341784 -1.8447484 4288085770
5.7635536 -0.82270169 -1.8333976 4288085770
1.2043724 -0.3538866 -1.8164485 4288085770
8.3882904 -1.098402 -1.8454007 4288085770
3.6531296 -0.6139096 -1.8337404 4288085770
5.5116768 -0.80913544 -1.846289 4288085770
3.1351395 -0.56286889 -1.8475082 4288085770
14.739231 -1.7825043 -1.8885241 4288085770
4.8740234 -0.78579384 -1.859665 4288085770
2.6174088 -0.54884052 -1.8507558 4288085770
4.5280418 -0.76456171 -1.859731 4288085770
11.170971 -1.4796733 -1.894263 4288085770
2.3683853 -0.53342587 -1.8422422 4288085770
5.2111702 -0.84108633 -1.8487864 4288085770
0.81885529 -0.3679564 -1.8192204 4288085770
3.1926842 -0.63258934 -1.8435097 4288085770
2.169426 -0.52186227 -1.8434331 4288085770
4.1980476 -0.74329764 -1.8586978 4288085770
7.7139549 -1.1274973 -1.8563594 4288085770
13.564865 -1.7893307 -1.9006022 4288085770
3.8920479 -0.72198117 -1.8575152 4288085770
1.9724541 -0.51030242 -1.8426117 4288085770
1.7754555 -0.4967503 -1.8397826 4288085770
3.5980492 -0.70163816 -1.856262 4288085770
15.279667 -2.0103934 -1.9338142 4288085770
10.440121 -1.4753159 -1.8887844 4288085770
0.72511292 -0.38415158 -1.8218668 4288085770
4.9284172 -0.85971272 -1.8486154 4288085770
1.5974655 -0.4841485 -1.8388391 4288085770
3.3290482 -0.6812368 -1.8558533 4288085770
1.4264755 -0.47153163 -1.837852 4288085770
3.0089607 -0.65299016 -1.8447311 4288085770
3.0610275 -0.65984458 -1.8524346 4288085770
7.3782883 -1.1622357 -1.8575795 4288085770
1.2745094 -0.46086097 -1.8397546 4288085770
2.8250237 -0.64036673 -1.8528247 4288085770
1.1205063 -0.44820666 -1.8386619 4288085770
2.5859909 -0.61991107 -1.8492297 4288085770
12.820137 -1.8119955 -1.8973145 4288085770
0.95246506 -0.43260276 -1.8326448 4288085770
2.3489418 -0.59845865 -1.8436183 4288085770
9.785305 -1.472772 -1.887841 4288085770
0.6353569 -0.3993423 -1.8234845 4288085770
0.81646729 -0.42090523 -1.8324441 4288085770
2.144928 -0.57991475 -1.8428133 4288085770
4.6786919 -0.88025832 -1.850247 4288085770
0.68948364 -0.40917647 -1.8351872 4288085770
0.56246948 -0.39645922 -1.8349266 4288085770
1.9519043 -0.56134635 -1.8419397 4288085770
14.733063 -2.0796223 -1.9294771 4288085770
1.7668686 -0.5427646 -1.8400166 4288085770
2.8342171 -0.67237896 -1.8438929 4288085770
1.5808258 -0.52419239 -1.8360997 4288085770
1.4137955 -0.50656724 -1.8350685 4288085770
0.56851578 -0.40546834 -1.8289244 4288085770
0.68554688 -0.42021465 -1.8272549 4288085770
1.2627716 -0.48989922 -1.8359417 4288085770
1.1137276 -0.47223067 -1.8357985 4288085770
0.81760025 -0.43691647 -1.8284999 4288085770
0.96266937 -0.4545784 -1.8326678 4288085770
7.0706291 -1.1979086 -1.8596296 4288085770
9.1454544 -1.4652109 -1.8827854 4288085770
12.198448 -1.8403667 -1.8992859 4288085770
0.52957916 -0.41359103 -1.8191984 4288085770
4.4429626 -0.89977372 -1.851788 4288085770
2.6594696 -0.69077146 -1.8420509 4288085770
14.214451 -2.1467972 -1.9229593 4288085770
8.5786247 -1.45847 -1.8822801 4288085770
6.7529297 -1.2286232 -1.8567233 4288085770
11.58873 -1.863731 -1.8961642 4288085770
4.2072296 -0.91929626 -1.8513294 4288085770
2.4887199 -0.70916271 -1.8381845 4288085770
8.0217857 -1.4497145 -1.8797052 4288085770
13.719826 -2.2109232 -1.9152814 4288085770
15.093582 -2.4067051 -1.958513 4282675967
6.4872932 -1.2651995 -1.8595171 4288085770
3.9945145 -0.93976068 -1.8527318 4288085770
11.038033 -1.8909575 -1.8946915 4288085770
2.3339844 -0.72750765 -1.8372186 4288085770
7.539959 -1.4417788 -1.8806679 4288085770
13.77639 -2.3147264 -1.9333359 4288085770
13.330276 -2.2847872 -1.9149899 4288085770
6.2286339 -1.2997684 -1.8602599 4288085770
3.8008041 -0.96118343 -1.8540201 4288085770
10.575382 -1.9239671 -1.898695 4288085770
7.0671005 -1.4308351 -1.8785636 4288085770
2.2022858 -0.74978948 -1.8391253 4288085770
12.677311 -2.2412176 -1.9198765 4288085770
3.597065 -0.9786396 -1.8523555 4288085770
6.6192474 -1.4188362 -1.8762999 4288085770
5.9919701 -1.3332887 -1.8608624 4288085770
12.964699 -2.3556066 -1.9125382 4288085770
11.746311 -2.1813042 -1.9144268 4288085770
10.141712 -1.9549246 -1.899511 4288085770
2.0595551 -0.76811159 -1.8370852 4288085770
6.2174072 -1.4077212 -1.8777541 4288085770
10.894321 -2.1242137 -1.9094979 4288085770
3.4233589 -1.000018 -1.8535198 4288085770
5.7773285 -1.3687531 -1.8633363 4288085770
1.9448662 -0.78934866 -1.8408827 4288085770
12.657166 -2.4322824 -1.9137497 4288085770
9.7130318 -1.9838789 -1.8982891 4288085770
5.8185425 -1.3946147 -1.8751822 4288085770
10.155376 -2.0758553 -1.9089009 4288085770
3.2586632 -1.0213728 -1.8556285 4288085770
5.4446831 -1.3804456 -1.8744509 4288085770
5.5777054 -1.4051802 -1.8667209 4288085770
1.8091316 -0.80766273 -1.8367995 4288085770
9.4393883 -2.0234654 -1.9031454 4288085770
9.2903214 -2.0088315 -1.8940142 4288085770
12.3456 -2.5039787 -1.9119673 4288085770
5.0677681 -1.3613067 -1.8677192 4288085770
3.1199913 -1.0456585 -1.8605871 4288085770
8.8104401 -1.9788649 -1.9018801 4288085770
1.6914177 -0.82692581 -1.8356085 4288085770
5.3880653 -1.4405893 -1.8690401 4288085770
8.9356537 -2.0406189 -1.8933446 4288085770
4.7539139 -1.3489943 -1.8696228 4288085770
8.2004585 -1.9302347 -1.8974814 4288085770
12.058037 -2.5766263 -1.9090406 4288085770
2.9712982 -1.0669779 -1.8625969 4288085770
4.4690857 -1.3386064 -1.8743536 4288085770
1.5777016 -0.84617996 -1.8343927 4288085770
7.6485023 -1.8864691 -1.8947414 4288085770
5.1974182 -1.4750082 -1.8693618 4288085770
8.5889816 -2.0713925 -1.8916215 4288085770
11.826515 -2.6541314 -1.9107852 4288085770
4.1972389 -1.326194 -1.8779958 4288085770
2.777504 -1.0794508 -1.8508519 4288085770
7.1095085 -1.8396907 -1.8879091 4288085770
1.4810333 -0.8683809 -1.8370829 4288085770
3.954422 -1.3177018 -1.8854735 4288085770
5.0237846 -1.5103863 -1.8705821 4288085770
6.6325455 -1.7987601 -1.8847141 4288085770
8.2703171 -2.1031051 -1.8897287 4288085770
2.6548424 -1.1037049 -1.8547119 4288085770
11.587975 -2.7306633 -1.9095701 4288085770
3.6745186 -1.2993343 -1.8821424 4288085770
6.1986084 -1.7607195 -1.8852636 4288085770
1.3863449 -0.88958132 -1.838757 4288085770
4.8701706 -1.547712 -1.873686 4288085770
5.7766418 -1.7216685 -1.8817344 4288085770
3.4256477 -1.2848791 -1.8836342 4288085770
7.9886742 -2.1377242 -1.8906176 4288085770
2.5101166 -1.122035 -1.8516855 4288085770
11.438507 -2.8199682 -1.9158527 4288085770
5.3886948 -1.685535 -1.8800055 4288085770
3.2007828 -1.2713633 -1.8869804 4288085770
1.296669 -0.91077077 -1.8404001 4288085770
4.7175407 -1.5840434 -1.8747801 4288085770
5.026741 -1.6503439 -1.8781188 4288085770
7.7330284 -2.1732862 -1.891349 4288085770
2.9779091 -1.2568511 -1.8883104 4288085770
2.3884354 -1.1442989 -1.852532 4288085770
11.26899 -2.9023368 -1.917233 4288085770
1.2130089 -0.93293917 -1.84401 4288085770
4.7218437 -1.6219966 -1.8839045 4288085770
2.7349586 -1.2354141 -1.8817379 4288085770
4.5899277 -1.6223084 -1.8787268 4288085770
4.4019012 -1.5897096 -1.882768 4288085770
7.4803734 -2.2068493 -1.8900547 4288085770
2.2857742 -1.1685089 -1.8562682 4288085770
2.5100327 -1.2159262 -1.8780609 4288085770
1.1122894 -0.95117623 -1.8397105 4288085770
4.1490364 -1.5672323 -1.8922534 4288085770
11.117493 -2.9876616 -1.9195135 4288085770
2.2720375 -1.1904939 -1.8674419 4288085770
3.8931427 -1.5417732 -1.8987459 4288085770
4.4482956 -1.6576154 -1.8797492 4288085770
2.1580505 -1.1868052 -1.8521369 4288085770
7.2427292 -2.242379 -1.888675 4288085770
2.0621033 -1.1709768 -1.8626716 4288085770
3.623188 -1.5113766 -1.8973061 4288085770
1.0326195 -0.97234356 -1.841292 4288085770
1.8751755 -1.1523978 -1.8607622 4288085770
10.952957 -3.0680306 -1.9178562 4288085770
3.379261 -1.4839071 -1.8997163 4288085770
2.0623932 -1.211004 -1.8548299 4288085770
1.690239 -1.1338217 -1.8568404 4288085770
4.3296967 -1.6968641 -1.8826444 4288085770
7.0190697 -2.2758784 -1.8872007 4288085770
3.1563492 -1.4593836 -1.9040074 4288085770
1.5052681 -1.1122539 -1.8509068 4288085770
0.94391632 -0.99155009 -1.8379221 4288085770
2.9414215 -1.4338464 -1.9072447 4282675967
10.811443 -3.1523454 -1.9170719 4288085770
1.3593674 -1.0985687 -1.8527616 4288085770
1.9687271 -1.2351981 -1.8575107 4288085770
4.2281036 -1.7380677 -1.8874421 4288085770
2.6944084 -1.4004229 -1.8996502 4288085770
6.79842 -2.310375 -1.8847125 4288085770
1.1994247 -1.0799303 -1.8506842 4288085770
0.86423492 -1.0117252 -1.8375002 4288085770
2.4433632 -1.36402 -1.8890691 4288085770
1.052494 -1.0632595 -1.8495334 4288085770
10.736992 -3.2494855 -1.922922 4288085770
2.2113113 -1.3285755 -1.8783734 4288085770
1.8740616 -1.2584023 -1.858194 4288085770
0.90153885 -1.0446093 -1.8454001 4288085770
4.1014633 -1.7723496 -1.8863683 4288085770
1.9972878 -1.2970836 -1.8695812 4288085770
6.6077919 -2.3487978 -1.884053 4288085770
0.79957581 -1.0348554 -1.8399967 4288085770
0.77161026 -1.0288934 -1.8461473 4288085770
1.8193207 -1.2714771 -1.8695884 4288085770
14.651947 -4.2425141 -1.9954938 4288085770
0.64968491 -1.014156 -1.8478488 4288085770
1.6283035 -1.241927 -1.8626608 4288085770
10.64352 -3.3436828 -1.9248796 4288085770
1.7934151 -1.2835637 -1.8617983 4288085770
1.4462776 -1.2123572 -1.8556771 4288085770
4.0148888 -1.8155158 -1.892081 4288085770
0.52674484 -0.99842864 -1.8475525 4288085770
6.435173 -2.3881731 -1.885286 4288085770
1.2792664 -1.1857463 -1.8506119 4288085770
0.73392487 -1.0569878 -1.8424957 4288085770
13.776905 -4.1585159 -1.9796091 4288085770
1.1332855 -1.16207 -1.8504275 4288085770
1.7027359 -1.3057629 -1.8614533 4288085770
10.562042 -3.4388533 -1.9267668 4288085770
0.98829651 -1.1383991 -1.8482367 4288085770
3.8992615 -1.8517736 -1.8909472 4288085770
0.86032867 -1.1176794 -1.8489518 4288085770
6.2825699 -2.4315042 -1.8864106 4288085770
0.67227936 -1.0801113 -1.844974 4288085770
0.71028519 -1.0900395 -1.8417767 4288085770
12.980923 -4.0833206 -1.969268 4288085770
0.58429718 -1.0683233 -1.8404757 4288085770
1.6220741 -1.3299361 -1.8620542 4288085770
10.49057 -3.5360062 -1.9276004 4288085770
3.7936287 -1.8880092 -1.8897516 4288085770
6.1369705 -2.4748161 -1.888492 4288085770
12.219925 -4.0060554 -1.9567014 4288085770
0.60860825 -1.1012472 -1.8454571 4288085770
1.5343819 -1.3501329 -1.860683 4288085770
10.4231 -3.6341507 -1.9284135 4288085770
3.7040176 -1.927202 -1.8904684 4288085770
5.9983597 -2.5171165 -1.889526 4288085770
11.555016 -3.9455445 -1.9526037 4288085770
0.54994965 -1.1233723 -1.8459132 4288085770
1.4677315 -1.3752675 -1.8632009 4288085770
10.40266 -3.7411792 -1.9319696 4288085770
10.891041 -3.8730514 -1.9434531 4288085770
3.6133957 -1.9643968 -1.8911839 4288085770
5.8727646 -2.5623846 -1.8914917 4288085770
0.4912796 -1.1444969 -1.8463655 4288085770
1.397068 -1.3994185 -1.8637401 4288085770
10.303123 -3.8123708 -1.9388762 4288085770
10.384232 -3.8512037 -1.9355261 4288085770
3.5277824 -2.0035844 -1.8908763 4288085770
5.7581787 -2.6096282 -1.8933966 4288085770
1.3263969 -1.4225738 -1.8632755 4288085770
9.7321892 -3.7486537 -1.9341818 4288085770
10.363785 -3.9592409 -1.9370877 4288085770
5.6485863 -2.6568649 -1.8942711 4288085770
3.4501762 -2.0437508 -1.8915234 4288085770
1.2787819 -1.4516509 -1.8696914 4288085770
9.1822395 -3.6839015 -1.926353 4288085770
10.381374 -4.0781822 -1.9414566 4288085770
5.5289726 -2.7001314 -1.8931925 4288085770
3.3765678 -2.0839081 -1.8921456 4288085770
15.287163 -5.5056214 -1.8605822 4293729569
8.6973572 -3.6299756 -1.9261622 4288085770
1.2191277 -1.4767779 -1.8701665 4288085770
14.378105 -5.3586082 -1.8676639 4293729569
10.408989 -4.2020979 -1.9467834 4288085770
5.4323883 -2.7483354 -1.8949908 4288085770
3.2819138 -2.1171355 -1.8868716 4288085770
8.2204437 -3.5720437 -1.922906 4288085770
1.1484413 -1.4979409 -1.8676947 4288085770
13.618156 -5.2442355 -1.8819474 4293729569
7.7915688 -3.5219903 -1.9233825 4288085770
10.443592 -4.3280058 -1.9500754 4288085770
5.3458099 -2.7985177 -1.8967347 4288085770
3.1922531 -2.1513517 -1.8815707 4288085770
1.1208611 -1.531962 -1.8770061 4288085770
13.12051 -5.199192 -1.9188739 4288085770
7.3716774 -3.4689252 -1.9217908 4288085770
10.476189 -4.4539213 -1.9523803 4288085770
5.2562103 -2.846714 -1.8964901 4288085770
3.1306534 -2.1924827 -1.882123 4288085770
1.0652046 -1.55708 -1.877457 4288085770
12.601803 -5.1412144 -1.9508799 4288085770
6.9567604 -3.4118576 -1.9181527 4288085770
12.097069 -5.0812178 -1.9797914 4288085770
10.523792 -4.5858045 -1.9546163 4288085770
5.2086868 -2.9077907 -1.9030352 4288085770
3.0650215 -2.2316344 -1.8796929 4288085770
1.003521 -1.5792272 -1.8739337 4288085770
6.5798721 -3.3616939 -1.917305 4288085770
13.113491 -5.4659142 0.036059253 4293729569
11.386993 -4.9487867 -1.9806923 4288085770
10.66153 -4.7464466 -1.9674064 4288085770
6.2169647 -3.309504 -1.9153621 4288085770
5.1290894 -2.956965 -1.9027328 4288085770
0.94984055 -1.602349 -1.8723645 4288085770
3.0194473 -2.2777221 -1.882166 4288085770
13.029606 -5.557528 -0.86986113 4293729569
13.0303 -5.5669084 -0.012870792 4293729569
12.839268 -5.5130219 -0.34485573 4293729569
10.618763 -4.7875385 -1.9678403 4288085770
12.891876 -5.5377741 -1.3916565 4293729569
5.8590546 -3.2563066 -1.9123844 4288085770
0.89015579 -1.6244919 -1.8688291 4288085770
10.789246 -4.9081259 -1.9762639 4288085770
5.0705376 -3.014082 -1.9053317 4288085770
2.9838791 -2.3247807 -1.8865807 4288085770
9.8925438 -4.6321983 -1.9547501 4288085770
12.97945 -5.6694403 -0.92062962 4293729569
13.013161 -5.6887498 -0.063473135 4293729569
12.814487 -5.628274 -0.29547644 4293729569
12.808292 -5.6430259 -1.3746052 4293729569
5.5201416 -3.2040677 -1.9092922 4288085770
9.2714272 -4.5035992 -1.9481121 4288085770
0.8434906 -1.6495943 -1.8682247 4288085770
10.787758 -5.0261569 -1.9687524 4288085770
5.0249863 -3.0731654 -1.9088576 4288085770
2.9312668 -2.3668995 -1.8850822 4288085770
13.080467 -5.8329835 -0.97966319 4293729569
5.1942329 -3.1517968 -1.9071188 4288085770
12.84787 -5.7939763 -1.3649703 4293729569
8.6993294 -4.382885 -1.9431999 4288085770
0.79381943 -1.6737108 -1.8656353 4288085770
10.496803 -5.044982 -1.9226475 4288085770
4.9874496 -3.1342242 -1.9143419 4288085770
4.9023438 -3.1064427 -1.9067612 4288085770
2.8926811 -2.4129763 -1.8865128 4288085770
8.1582413 -4.2661028 -1.9381102 4288085770
4.6254807 -3.0640473 -1.9083219 4288085770
0.75215912 -1.6987987 -1.8659998 4288085770
10.23988 -5.0707197 -1.8793588 4293729569
7.6601715 -4.1582212 -1.9337877 4288085770
4.923851 -3.1873713 -1.9119574 4288085770
2.8681221 -2.4640102 -1.8908757 4288085770
4.3555832 -3.0186453 -1.9078269 4288085770
7.2001266 -4.0572491 -1.9312561 4288085770
0.70747757 -1.7229044 -1.8633795 4288085770
10.106136 -5.1361284 -1.8504617 4293729569
4.8862991 -3.2484417 -1.9144425 4288085770
2.810482 -2.5031519 -1.8863975 4288085770
4.1007042 -2.9762063 -1.9082503 4288085770
6.7731018 -3.9631999 -1.9295464 4288085770
0.67282486 -1.7499768 -1.8637089 4288085770
3.8528061 -2.9327559 -1.9076262 4288085770
10.118622 -5.2561445 -1.8388731 4293729569
6.373085 -3.8740914 -1.9276878 4288085770
4.8437386 -3.308531 -1.9149554 4288085770
2.7889061 -2.5531874 -1.8887385 4288085770
3.5868492 -2.879369 -1.9010744 4288085770
5.9830589 -3.7849658 -1.9247671 4288085770
0.63815689 -1.7760489 -1.8640343 4288085770
10.170158 -5.38906 -1.8310933 4293729569
4.8242073 -3.3755536 -1.9193529 4288085770
2.7633324 -2.6032312 -1.8911048 4288085770
3.3589516 -2.8368747 -1.9003294 4288085770
5.6220398 -3.700772 -1.922685 4288085770
0.6075058 -1.8041121 -1.8643429 4288085770
10.253731 -5.5358996 -1.8241704 4293729569
5.2660027 -3.614579 -1.9175636 4288085770
3.1320381 -2.7923861 -1.89757 4288085770
4.7916374 -3.4376249 -1.918812 4288085770
2.7377472 -2.6532831 -1.8914715 4288085770
4.9600258 -3.5432527 -1.91819 4288085770
0.57884979 -1.832171 -1.8646393 4288085770
2.9161148 -2.7488735 -1.8947459 4288085770
10.405411 -5.7115631 -1.8239393 4293729569
4.7640686 -3.4996774 -1.9202403 4288085770
4.6780777 -3.4778616 -1.9216901 4288085770
2.7101402 -2.7003436 -1.890839 4288085770
2.7101936 -2.7063346 -1.8928634 4288085770
0.54717636 -1.8582406 -1.8639466 4288085770
4.3900795 -3.4065075 -1.9192039 4288085770
10.463932 -5.8514824 -1.811146 4293729569
2.5122795 -2.6647792 -1.8909349 4288085770
4.7465172 -3.5667074 -1.9216263 4288085770
2.6855431 -2.7493973 -1.890196 4288085770
4.1190948 -3.3391085 -1.9186273 4288085770
0.51548386 -1.8833183 -1.8612498 4288085770
2.3183479 -2.6222224 -1.8869773 4288085770
10.610592 -6.0291686 -1.8079557 4293729569
3.8420677 -3.2657385 -1.9140643 4288085770
4.7409859 -3.6377037 -1.9249539 4288085770
2.1494522 -2.5865908 -1.8878915 4288085770
2.6880074 -2.8083639 -1.8964245 4288085770
0.48880768 -1.910377 -1.8605303 4288085770
3.5830498 -3.1973286 -1.9094088 4288085770
1.9745369 -2.5479841 -1.8858312 4288085770
10.743206 -6.2009063 -1.7998292 4293729569
4.7214165 -3.7037466 -1.9243493 4288085770
3.3410454 -3.1318738 -1.9066589 4288085770
2.6664085 -2.8584113 -1.8957675 4288085770
0.46915054 -1.9404163 -1.8607789 4288085770
1.8106308 -2.5113459 -1.8857102 4288085770
3.1140404 -3.0703902 -1.9028313 4288085770
11.067131 -6.457139 -1.8118511 4293729569
4.7208862 -3.7777357 -1.9266585 4288085770
1.6587296 -2.4776807 -1.8855262 4288085770
2.8990402 -3.0108724 -1.9009365 4288085770
0.45349503 -1.970439 -1.8630028 4288085770
2.6658478 -2.9163964 -1.8990113 4288085770
1.5027924 -2.4390328 -1.8833468 4288085770
2.7030716 -2.9573047 -1.9009469 4288085770
11.359997 -6.703464 -1.8180274 4293729569
4.7203369 -3.8507285 -1.927964 4288085770
0.4318161 -1.998487 -1.8622562 4288085770
2.5030708 -2.9007616 -1.8969704 4288085770
1.3458405 -2.3993993 -1.8781701 4288085770
2.6582603 -2.9714088 -1.8992873 4288085770
2.3210907 -2.8481636 -1.8968973 4288085770
1.2129364 -2.3676887 -1.8788751 4288085770
4.7288094 -3.9276981 -1.9302294 4288085770
0.41614151 -2.0275178 -1.8624762 4288085770
2.1410904 -2.7955728 -1.8938117 4288085770
2.6576805 -3.0283978 -1.9015278 4288085770
1.0910378 -2.3389466 -1.8815233 4288085770
1.9660759 -2.7419753 -1.8896906 4288085770
0.95710373 -2.3042502 -1.8792224 4288085770
0.39444351 -2.0545735 -1.8597262 4288085770
4.7402649 -4.0056653 -1.9314808 4288085770
1.8060837 -2.6943369 -1.8874998 4288085770
2.6641235 -3.0903616 -1.9047402 4288085770
0.82113266 -2.2665641 -1.8739184 4288085770
1.6410675 -2.6427107 -1.8833215 4288085770
0.38275909 -2.0845842 -1.8609241 4288085770
0.72225952 -2.243758 -1.8794501 4288085770
4.7437057 -4.0806456 -1.9317737 4288085770
1.4990768 -2.5990276 -1.8820373 4288085770
2.6635361 -3.1473522 -1.9059902 4288085770
1.3590813 -2.5543404 -1.8807361 4288085770
10.081657 -6.5723085 -1.8105342 4293729569
0.6063118 -2.2110217 -1.8770477 4288085770
0.38612366 -2.121551 -1.8660635 4288085770
1.2170715 -2.5076656 -1.8774391 4288085770
0.47831726 -2.1723316 -1.8696961 4288085770
4.7651749 -4.1635833 -1.9339947 4288085770
1.0930786 -2.4669399 -1.8770535 4288085770
2.6809845 -3.2132912 -1.9101642 4288085770
9.4223595 -6.3638067 -1.7998309 4293729569
0.37438965 -2.1435606 -1.8692344 4288085770
0.97308731 -2.4282088 -1.8756506 4288085770
0.37041473 -2.1495919 -1.8632858 4288085770
0.86310577 -2.3914483 -1.8761929 4288085770
0.28649902 -2.1207306 -1.8746964 4288085770
4.7956543 -4.2505016 -1.9361758 4288085770
8.8271103 -6.1751561 -1.7908061 4293729569
0.75511932 -2.3546832 -1.8767225 4288085770
2.6853943 -3.2732749 -1.910396 4288085770
0.18453979 -2.0899637 -1.8722135 4288085770
0.37175369 -2.1845713 -1.8664297 4288085770
0.64409637 -2.3149374 -1.8742583 4288085770
0.54410172 -2.2801588 -1.8737454 4288085770
4.8221283 -4.3354282 -1.9383745 4288085770
8.1516457 -5.9387507 -1.7650862 4293729569
0.45311356 -2.2473528 -1.8751838 4288085770
2.6857986 -3.3312709 -1.9096447 4288085770
0.34103394 -2.2036338 -1.8667091 4288085770
0.35603333 -2.2116125 -1.8636478 4288085770
0.24599075 -2.166857 -1.863156 4288085770
7.3098145 -5.6138229 -1.7120434 4293729569
0.17001343 -2.1390102 -1.86652 4288085770
4.8686256 -4.4303036 -1.9424888 4288085770
0.37139893 -2.2525454 -1.8707286 4288085770
2.7052307 -3.3972096 -1.9128071 4288085770
6.5039482 -5.2918367 -1.6537848 4293729569
6.576786 -5.345818 -1.1195382 4293729569
4.912117 -4.5241895 -1.9456184 4288085770
0.36569214 -2.2835605 -1.8689004 4288085770
2.7146263 -3.4591866 -1.9120165 4288085770
6.4475365 -5.3333445 -1.0593065 4293729569
6.4155083 -5.3188496 -1.698467 4293729569
6.5003395 -5.3737946 -1.1671482 4293729569
4.9946861 -4.6379652 -1.9545854 4288085770
0.37302017 -2.3205276 -1.8720152 4288085770
6.317028 -5.3378925 -1.7411791 4293729569
2.7370567 -3.527123 -1.914169 4288085770
6.3456116 -5.3617172 -1.0220785 4293729569
6.4188881 -5.3977852 -1.2137731 4293729569
0.3763237 -2.354511 -1.873143 4288085770
5.0842705 -4.7567215 -1.9645295 4288085770
6.3441887 -5.4151011 -0.42930144 4293729569
6.1774406 -5.3340616 -1.7750541 4293729569
6.3814964 -5.4426622 -1.2642081 4293729569
6.2877502 -5.4119811 -0.98766476 4293729569
2.7594833 -3.5950594 -1.9163215 4288085770
0.38061523 -2.3884969 -1.8732643 4288085770
6.3661499 -5.4974761 -1.3185457 4293729569
5.0655861 -4.819808 -1.9519229 4288085770
6.2783241 -5.4603815 -0.39591748 4293729569
5.9526634 -5.2834697 -1.7962698 4293729569
6.2429085 -5.4672136 -0.95419008 4293729569
2.792923 -3.6689672 -1.9194303 4288085770
0.38690567 -2.4234781 -1.8733774 4288085770
6.4029007 -5.5781469 -1.3796636 4293729569
5.67173 -5.2000542 -1.8047013 4293729569
4.9416313 -4.8262148 -1.9177414 4288085770
6.2685242 -5.534534 -0.36330146 4293729569
6.2591591 -5.5542951 -0.92446411 4293729569
2.8103104 -3.7339311 -1.9176025 4288085770
0.3921814 -2.4564617 -1.8734883 4288085770
5.3957863 -5.1156316 -1.812097 4293729569
6.2677307 -5.6126714 -0.32964557 4293729569
4.7916031 -4.8167033 -1.8776575 4288085770
0.40546799 -2.4934237 -1.8745656 4288085770
5.1689148 -5.0520768 -1.8252702 4293729569
2.8497543 -3.8108225 -1.9216863 4288085770
6.311985 -5.713706 -0.29680192 4293729569
8.2006111 -6.7244735 -1.7981811 4293729569
4.7107315 -4.8419881 -1.850284 4293729569
0.41473389 -2.5284028 -1.8736597 4288085770
4.8989296 -4.9616537 -1.8296021 4293729569
2.8881836 -3.8877232 -1.9237767 4288085770
7.639183 -6.4857545 -1.7877287 4293729569
0.43803787 -2.5693312 -1.8776904 4288085770
4.7000198 -4.9030619 -1.8366189 4293729569
4.6800499 -4.8970895 -1.8407207 4293729569
7.03759 -6.2161822 -1.7633985 4293729569
2.932621 -3.9676123 -1.925842 4288085770
0.45129776 -2.6053019 -1.8767637 4288085770
4.4671478 -4.8315163 -1.8507967 4293729569
4.7464256 -4.9949751 -1.8317235 4293729569
6.6003113 -6.0321665 -1.7583919 4293729569
0.47457123 -2.6452384 -1.8787904 4288085770
2.9750481 -4.0455003 -1.9289116 4288085770
4.3253975 -4.8017354 -1.8735745 4293729569
6.3083115 -5.9227524 -1.7727823 4293729569
4.7998352 -5.0898685 -1.8277966 4293729569
0.50084686 -2.6871686 -1.8808064 4288085770
4.2327499 -4.796813 -1.904147 4288085770
6.0202942 -5.8113375 -1.785139 4293729569
3.0254822 -4.1283722 -1.931952 4288085770
0.52610397 -2.7271056 -1.8818203 4288085770
4.8592567 -5.1887484 -1.823849 4293729569
5.713192 -5.6849918 -1.7905525 4293729569
4.1501274 -4.7958574 -1.9376732 4288085770
0.54834747 -2.7650528 -1.881845 4288085770
3.078907 -4.2122412 -1.9339777 4288085770
5.4331207 -5.57058 -1.7978452 4293729569
4.0133438 -4.762073 -1.9584023 4288085770
4.9016228 -5.2776823 -1.8159671 4293729569
0.58261108 -2.8089662 -1.8838187 4288085770
5.1730728 -5.4631205 -1.8060406 4293729569
3.8093529 -4.6865048 -1.9623781 4288085770
3.1423569 -4.3020802 -1.9379659 4288085770
4.9830666 -5.3875065 -1.8139268 4293729569
0.61886597 -2.8528714 -1.8867798 4288085770
4.9380455 -5.3666015 -1.8151237 4293729569
3.5662346 -4.5850725 -1.9544915 4288085770
0.65109253 -2.8937972 -1.8867534 4288085770
4.7100143 -5.2710667 -1.8241664 4293729569
3.1947517 -4.3849592 -1.937994 4288085770
5.0614929 -5.496346 -1.8099016 4293729569
3.3180695 -4.4776664 -1.9426107 4288085770
4.4508743 -5.1536374 -1.8243124 4293729569
0.68832779 -2.9377079 -1.8877082 4288085770
3.2762299 -4.4857464 -1.9449148 4288085770
4.1846733 -5.028244 -1.8194685 4293729569
3.106987 -4.3891506 -1.9375756 4288085770
0.72955704 -2.9826107 -1.8886416 4288085770
5.1619644 -5.6181202 -1.8097923 4293729569
3.9605713 -4.9257302 -1.8214556 4293729569
0.77077484 -3.0265131 -1.8895708 4288085770
2.9229355 -4.3125639 -1.9354199 4288085770
3.3797607 -4.5994692 -1.9557513 4288085770
3.798584 -4.856039 -1.8331888 4293729569
5.2393494 -5.7249732 -1.8027654 4293729569
0.81999969 -3.0743945 -1.8914661 4288085770
2.7388802 -4.2339773 -1.9332556 4288085770
3.6405983 -4.787343 -1.8439009 4293729569
0.86820602 -3.1212821 -1.8923634 4288085770
3.4782639 -4.7102118 -1.9646071 4288085770
2.5698318 -4.1613579 -1.9310211 4288085770
3.5648117 -4.765398 -1.8712918 4293729569
5.33778 -5.8447685 -1.7986606 4293729569
0.92643738 -3.1731396 -1.8952184 4288085770
3.5271072 -4.7633371 -1.9065259 4288085770
2.4077759 -4.0897236 -1.9287462 4288085770
0.98766327 -3.2259908 -1.8980587 4288085770
3.4863853 -4.7592907 -1.9397706 4288085770
-0.21500778 -2.5027263 -1.8795943 4288085770
1.0478592 -3.2758486 -1.8998921 4288085770
3.4574051 -4.7483411 -1.9429085 4288085770
5.4251747 -5.9576011 -1.7915959 4293729569
3.3844604 -4.7144432 -1.9572281 4288085770
2.2537346 -4.0220675 -1.9274374 4288085770
1.1080475 -3.3267145 -1.8997301 4288085770
3.1872597 -4.6109037 -1.9510381 4288085770
-0.19281769 -2.533679 -1.878589 4288085770
1.1712189 -3.377574 -1.8995486 4288085770
2.0956459 -3.948432 -1.9231284 4288085770
2.9950371 -4.5073614 -1.9428163 4288085770
3.3753738 -4.7476635 -1.9074315 4288085770
5.5035324 -6.0644646 -1.7815633 4293729569
1.2394028 -3.430419 -1.900344 4288085770
2.8278618 -4.4157443 -1.939486 4288085770
-0.16764069 -2.565625 -1.8775686 4288085770
1.3185959 -3.4882317 -1.9030904 4288085770
1.9475746 -3.878772 -1.9197726 4288085770
2.6616631 -4.3241367 -1.9331497 4288085770
1.4108124 -3.5540075 -1.9077885 4288085770
2.5145111 -4.2424712 -1.9307349 4288085770
1.5020065 -3.6167898 -1.9114797 4288085770
-0.13243866 -2.6025372 -1.8795059 4288085770
2.3713226 -4.1598063 -1.9262902 4288085770
1.8115158 -3.8150804 -1.917366 4288085770
1.5901833 -3.6775875 -1.9131815 4288085770
2.2491913 -4.0890737 -1.9267629 4288085770
1.6863632 -3.7413633 -1.9158449 4288085770
5.6821175 -6.2330437 -1.7871596 4293729569
3.29533 -4.7449813 -1.8719331 4293729569
2.1230278 -4.0143623 -1.9242439 4288085770
1.7855301 -3.8061371 -1.9174936 4288085770
1.8876762 -3.8699079 -1.9181187 4288085770
2.0038605 -3.9426363 -1.9216932 4288085770
-0.097263336 -2.6384535 -1.880439 4288085770
1.6864624 -3.7553613 -1.9159063 4288085770
-0.061088562 -2.6743679 -1.8813654 4288085770
1.5664139 -3.6976273 -1.9154234 4288085770
5.837616 -6.3867021 -1.7858381 4293729569
3.2503738 -4.7631893 -1.8443019 4293729569
-0.029945374 -2.7063055 -1.8793067 4288085770
1.4403267 -3.6339188 -1.9119526 4288085770
1.3252411 -3.5741866 -1.9084289 4288085770
0.018245697 -2.7481813 -1.8831824 4288085770
6.0352173 -6.5682392 -1.7913694 4293729569
3.2866211 -4.8301506 -1.8333646 4293729569
1.22118 -3.5204179 -1.9078608 4288085770
0.049350739 -2.778132 -1.8781149 4288085770
1.1311417 -3.4736104 -1.9092331 4288085770
0.099506378 -2.8180084 -1.8809689 4288085770
1.0280457 -3.4178522 -1.9056495 4288085770
0.15266418 -2.8598821 -1.8828126 4288085770
6.2217674 -6.7418175 -1.7929367 4293729569
0.92692566 -3.3600898 -1.9020447 4288085770
0.20882034 -2.9027452 -1.885641 4288085770
3.3439255 -4.9100494 -1.8263493 4293729569
0.83884048 -3.3102951 -1.8993912 4288085770
0.26796722 -2.9456029 -1.8884504 4288085770
0.75977707 -3.2654636 -1.9007018 4288085770
0.33411789 -2.9924402 -1.8922323 4288085770
0.6696434 -3.2106817 -1.8960392 4288085770
0.38721466 -3.0303311 -1.8900582 4288085770
0.59956741 -3.1678357 -1.8963007 4288085770
0.46134949 -3.0791516 -1.8937974 4288085770
0.52244568 -3.1190171 -1.8935808 4288085770
3.4453354 -5.0178142 -1.8281736 4293729569
3.5326996 -5.1166267 -1.8260489 4293729569
3.6481171 -5.2313576 -1.8288143 4293729569
3.7454681 -5.3341484 -1.8266429 4293729569
3.8618546 -5.4488888 -1.8264021 4293729569
3.9681931 -5.5556684 -1.8221904 4293729569
4.0955658 -5.6753898 -1.8209009 4293729569
4.2078857 -5.7841611 -1.8156596 4293729569
4.2921104 -5.8730226 -1.8035109 4293729569
4.3893585 -5.9688468 -1.7933095 4293729569
4.5597763 -6.1124625 -1.7948488 4293729569
4.7391891 -6.2610579 -1.7963521 4293729569
4.9316254 -6.4186249 -1.7978113 4293729569
5.1280441 -6.5761871 -1.7982451 4293729569
5.3304596 -6.7367406 -1.7976531 4293729569
1.9429932 4.6182761 -1.6899065 4288085770
2.0338402 4.6804419 -1.6858259 4288085770
1.8441391 4.5500746 -1.6910852 4288085770
2.1727028 4.773766 -1.6911843 4288085770
1.750309 4.4828901 -1.6932184 4288085770
2.2935715 4.8520246 -1.6917725 4288085770
1.6904831 4.4378171 -1.7019539 4288085770
2.4354362 4.942337 -1.6941241 4288085770
1.6046562 4.372643 -1.7030116 4288085770
2.5532951 5.0145583 -1.6897702 4288085770
1.5408325 4.3225441 -1.7088076 4288085770
2.6811638 5.0918121 -1.6873078 4288085770
1.4680138 4.263402 -1.710727 4288085770
2.8410416 5.1881614 -1.6894811 4288085770
1.4012032 4.2072787 -1.7135812 4288085770
2.9829025 5.2704372 -1.6858782 4288085770
1.3353996 4.1501508 -1.7154331 4288085770
3.1467896 5.3647823 -1.6860309 4288085770
1.2715874 4.0940218 -1.7162634 4288085770
3.3186607 5.4621372 -1.6851022 4288085770
1.2187958 4.044939 -1.7209656 4288085770
4.0437508 5.9296222 -1.6786418 4288085770
4.2234917 6.0489812 -1.6755247 4288085770
3.875 5.8152795 -1.6806425 4288085770
3.502533 5.5645161 -1.6840491 4288085770
4.4272423 6.1824131 -1.6761357 4288085770
3.7182503 5.7069669 -1.6835128 4288085770
4.6389847 6.3188543 -1.6756656 4288085770
3.5574951 5.5936279 -1.6834439 4288085770
1.1459846 3.9797606 -1.7169193 4288085770
4.8547173 6.4552937 -1.6731634 4288085770
3.4027443 5.4822965 -1.6823155 4288085770
5.0864525 6.5997696 -1.6714875 4288085770
3.6914024 5.6689124 -1.6839446 4288085770
3.2719879 5.3860359 -1.6849095 4288085770
5.3671646 6.7743759 -1.6742487 4288085770
1.0901833 3.9256415 -1.7166742 4288085770
3.1362457 5.2837539 -1.6855775 4288085770
5.6468887 6.9439678 -1.6750463 4288085770
3.8842812 5.7712975 -1.6808193 4288085770
3.021492 5.1955276 -1.6879979 4288085770
5.9585915 7.1326437 -1.6784794 4288085770
1.0464172 3.8775716 -1.7202988 4288085770
2.9157524 5.1103244 -1.691329 4288085770
4.0951576 5.8827376 -1.6804986 4288085770
6.2812691 7.324316 -1.6778077 4288085770
2.8320122 5.0381851 -1.6974099 4288085770
0.97961807 3.8133998 -1.7151988 4288085770
6.6279526 7.5280561 -1.679875 4288085770
4.2980232 5.9861312 -1.6752876 4288085770
2.720253 4.9479403 -1.6958178 4288085770
6.9136276 7.6865864 -1.6686872 4288085770
0.89078903 3.7351346 -1.7023548 4288085770
2.603508 4.8516717 -1.6922998 4288085770
4.5458832 6.1166577 -1.6765623 4288085770
7.334259 7.9314957 -1.672929 4288085770
2.5097656 4.7694759 -1.6925179 4288085770
0.85603333 3.691083 -1.7058846 4288085770
7.7908783 8.1934872 -1.6787858 4288085770
4.7997513 6.2451844 -1.6758006 4288085770
2.4070282 4.6802435 -1.6898479 4288085770
0.84629822 3.6621246 -1.7161286 4288085770
5.0676041 6.3807397 -1.6748868 4288085770
2.356308 4.6241827 -1.6975737 4288085770
0.75949097 3.5818515 -1.70128 4288085770
5.3544579 6.5233393 -1.6747808 4288085770
2.2765694 4.549015 -1.6976401 4288085770
0.73775101 3.5438323 -1.7056717 4288085770
2.2208519 4.487926 -1.7024342 4288085770
5.6523018 6.6689548 -1.67357 4288085770
2.1641312 4.4238234 -1.7052537 4288085770
0.71201324 3.5017986 -1.7091179 4288085770
5.9921341 6.8376808 -1.6758916 4288085770
7.8788261 8.0216608 -1.6790606 4288085770
2.0673866 4.3345728 -1.6975361 4288085770
6.3539658 7.0134563 -1.6789973 4288085770
0.69228363 3.4627771 -1.7124993 4288085770
7.5685081 7.7539673 -1.6730664 4288085770
2.0136757 4.2714701 -1.6993258 4288085770
6.7117844 7.1831999 -1.678169 4288085770
0.65653992 3.4126868 -1.7100713 4288085770
