# .PCD v0.7 - Point Cloud Data file format
VERSION 0.7
FIELDS x y z rgb
SIZE 4 4 4 4
TYPE F F F U
COUNT 1 1 1 1
WIDTH 1116
HEIGHT 1
VIEWPOINT 0 0 0 1 0 0 0
POINTS 1116
DATA ascii
7.3779602 0.43374443 -1.8217599 4288085770
9.981781 0.57358313 -1.8258138 4288085770
7.1310043 0.41737837 -1.8192297 4288085770
9.8828278 0.56343651 -1.8300028 4288085770
10.411789 0.59121501 -1.8239981 4288085770
6.9070587 0.40104663 -1.818656 4288085770
13.439636 0.74568009 -1.843248 4288085770
10.8908 0.60991901 -1.8250895 4288085770
6.7781067 0.39185563 -1.8199016 4288085770
6.5691299 0.38054743 -1.8202986 4288085770
7.0180893 0.40421063 -1.8244457 4288085770
6.3601456 0.36823836 -1.8166958 4288085770
19.669312 1.0678737 -1.9004164 4288085770
7.2440948 0.41454232 -1.8220168 4288085770
6.703125 0.3857446 -1.8200444 4288085770
7.48909 0.42590281 -1.8225517 4288085770
6.1551819 0.3559373 -1.8230853 4288085770
6.1781769 0.3569698 -1.8180416 4288085770
11.406815 0.62867641 -1.8231109 4288085770
5.2482681 0.30659741 -1.8138084 4288085770
7.7410965 0.43527222 -1.8200738 4288085770
6.0002289 0.34470585 -1.8173805 4288085770
6.4972 0.36943787 -1.8174367 4288085770
8.0321198 0.44670051 -1.823522 4288085770
5.8362732 0.3334634 -1.8186924 4288085770
12.032852 0.65159798 -1.8319238 4288085770
8.3541489 0.45817488 -1.8289114 4288085770
6.3192825 0.35417354 -1.818776 4288085770
5.6753311 0.32122463 -1.8189991 4288085770
12.763893 0.67667484 -1.8465378 4288085770
8.6531601 0.46761253 -1.8243448 4288085770
5.5053711 0.30897123 -1.8123226 4288085770
10.256073 0.54597485 -1.8293012 4288085770
6.1283493 0.33888909 -1.8151397 4288085770
14.131882 0.73168647 -1.8459427 4288085770
13.460938 0.69669735 -1.8452171 4288085770
8.9902039 0.47610617 -1.8237064 4288085770
5.3534393 0.29674429 -1.809612 4288085770
6.3134232 0.34116048 -1.8227898 4288085770
5.9604416 0.32363874 -1.8154601 4288085770
5.3834915 0.29478908 -1.8175558 4288085770
9.3672485 0.48665923 -1.8259921 4288085770
5.2095032 0.28452942 -1.8068866 4288085770
14.140945 0.71469319 -1.8339289 4288085770
5.8125458 0.30841815 -1.8187429 4288085770
9.7452927 0.49421218 -1.8222765 4288085770
5.0985947 0.27336478 -1.8130985 4288085770
15.004005 0.73695874 -1.8342938 4288085770
10.675323 0.52858037 -1.8305128 4288085770
10.170349 0.5028345 -1.8224719 4288085770
5.6416321 0.29316211 -1.813069 4288085770
4.9666824 0.26116717 -1.8113503 4288085770
14.890106 0.71678919 -1.8445128 4288085770
16.080078 0.76554108 -1.8482549 4288085770
6.4826431 0.32740074 -1.8224733 4288085770
5.5147247 0.28097337 -1.8173112 4288085770
4.8507767 0.24999377 -1.8125716 4288085770
10.617424 0.50948793 -1.8206258 4288085770
5.5017548 0.27795225 -1.8143363 4288085770
17.30616 0.79434234 -1.8609327 4288085770
4.7238541 0.23780298 -1.8088142 4288085770
11.1325 0.51724219 -1.8236511 4288085770
5.3428497 0.26271307 -1.8076398 4288085770
11.131554 0.51124042 -1.831654 4288085770
15.811356 0.70613325 -1.8537738 4288085770
18.712234 0.82640839 -1.8762693 4288085770
11.699585 0.52507317 -1.8285781 4288085770
6.6738892 0.31267345 -1.8261155 4288085770
5.6659393 0.26918843 -1.8220283 4288085770
5.2059631 0.24750711 -1.8059018 4288085770
12.326683 0.53199118 -1.8323919 4288085770
11.65078 0.49499452 -1.8366761 4288085770
5.0931015 0.23333706 -1.8101181 4288085770
16.925598 0.69876313 -1.8706695 4288085770
6.8700943 0.29895437 -1.8287477 4288085770
12.999786 0.5369752 -1.834119 4288085770
5.8161621 0.2564019 -1.8237475 4288085770
4.9692307 0.21914956 -1.8073552 4288085770
13.746887 0.54106861 -1.8377062 4288085770
12.215019 0.47781348 -1.8406131 4288085770
18.166832 0.69057798 -1.8843249 4288085770
4.8593674 0.20498362 -1.808566 4288085770
7.0773087 0.28425074 -1.8303593 4288085770
5.9653702 0.2426126 -1.8224688 4288085770
14.587021 0.54429835 -1.8431177 4288085770
4.7465057 0.19081214 -1.8067822 4288085770
12.833237 0.4607127 -1.8454481 4288085770
19.50705 0.68053639 -1.8927932 4288085770
15.51915 0.54566205 -1.8483555 4288085770
7.2855072 0.26954806 -1.828969 4288085770
6.1415634 0.23086496 -1.8261385 4288085770
16.600304 0.54624432 -1.8573118 4288085770
13.517456 0.4427076 -1.8491582 4288085770
7.5307083 0.25590122 -1.8335086 4288085770
6.3127594 0.21810907 -1.8268179 4288085770
17.763443 0.54294515 -1.8601137 4288085770
14.248657 0.42477146 -1.8507793 4288085770
7.7888947 0.24227408 -1.8380234 4288085770
6.4929428 0.2053667 -1.8274801 4288085770
19.026596 0.53578979 -1.8587271 4288085770
15.12188 0.40704468 -1.8581316 4288085770
8.0510864 0.22765183 -1.8395307 4288085770
6.6781158 0.19263142 -1.8271327 4288085770
8.3212509 0.21304092 -1.8380232 4288085770
16.100075 0.38847202 -1.8642858 4288085770
6.9002991 0.17995173 -1.8327155 4288085770
8.6174316 0.19846809 -1.8384662 4288085770
17.25528 0.37116006 -1.8761047 4288085770
7.1184769 0.1672658 -1.8343056 4288085770
8.9285812 0.183918 -1.8378808 4288085770
7.3416214 0.15458676 -1.8328865 4288085770
18.566475 0.35307688 -1.8896288 4288085770
7.6057816 0.1429694 -1.8383895 4288085770
9.2837524 0.16943219 -1.8402121 4288085770
9.6428909 0.15495262 -1.839536 4288085770
7.8559265 0.13033012 -1.837919 4288085770
8.1300659 0.11772639 -1.8374032 4288085770
10.02504 0.1395061 -1.8368164 4288085770
8.4231873 0.10615098 -1.8378513 4288085770
10.465179 0.12514585 -1.8399867 4288085770
8.7233047 0.09358561 -1.8362862 4288085770
10.95932 0.11086553 -1.8440551 4288085770
9.067421 0.08208552 -1.8376377 4288085770
11.465431 0.096602201 -1.8441006 4288085770
9.4305344 0.070608646 -1.8379488 4288085770
12.031555 0.08142215 -1.8450279 4288085770
9.8196335 0.059175164 -1.839214 4288085770
12.675667 0.06736204 -1.8488108 4288085770
10.25573 0.047810346 -1.8403902 4288085770
13.393784 0.052411228 -1.8554538 4288085770
10.730827 0.036503613 -1.8434926 4288085770
14.189873 0.038574696 -1.8589493 4288085770
11.219887 0.027216703 -1.8415684 4288085770
15.054977 0.022837967 -1.8613142 4288085770
11.812973 0.017084211 -1.8484474 4288085770
16.070068 0.0083230138 -1.8683951 4288085770
12.457047 0.0070258677 -1.8532299 4288085770
17.244164 -0.0069585443 -1.8771755 4288085770
13.162109 -0.0019424558 -1.8578969 4288085770
13.939163 -0.010805279 -1.8624277 4288085770
18.675262 -0.022862136 -1.8944695 4288085770
19.7033 -0.028356254 -1.8995252 4288085770
14.791214 -0.019558728 -1.8648168 4288085770
15.754265 -0.027148724 -1.8689955 4288085770
16.899292 -0.03347069 -1.8768299 4288085770
18.295349 -0.039423406 -1.8931897 4288085770
18.019318 -0.042833388 -1.869712 4288085770
16.714378 -0.057751894 -1.8571818 4288085770
15.61747 -0.072364569 -1.8522581 4288085770
14.690575 -0.087727129 -1.8510129 4288085770
13.854675 -0.10295677 -1.8485956 4288085770
13.09079 -0.11808169 -1.8440421 4288085770
18.554016 -0.18808305 -1.8787121 4288085770
12.396904 -0.13210481 -1.838356 4288085770
17.158112 -0.20313704 -1.8613541 4288085770
11.78302 -0.14700991 -1.8345189 4288085770
16.009239 -0.21982795 -1.852529 4288085770
11.238167 -0.16181386 -1.833551 4288085770
15.042374 -0.23625028 -1.8503597 4288085770
10.731308 -0.17656213 -1.8315115 4288085770
14.218529 -0.25246334 -1.8499198 4288085770
10.28846 -0.19121659 -1.8323509 4288085770
13.425667 -0.26763177 -1.8434212 4288085770
9.8626099 -0.20584637 -1.830158 4288085770
12.739822 -0.28364348 -1.8397202 4288085770
19.88031 -0.45418924 -1.9412234 4288085770
19.432251 -0.44885153 -1.9110706 4288085770
9.5017929 -0.22138083 -1.8338423 4288085770
12.124992 -0.29955095 -1.8388852 4288085770
18.205376 -0.45665371 -1.9083924 4288085770
9.1509628 -0.23590064 -1.8345076 4288085770
17.921432 -0.47408015 -1.8809309 4288085770
16.844467 -0.4586556 -1.8869675 4288085770
11.570168 -0.31537014 -1.8379363 4288085770
8.8161469 -0.2503981 -1.8321426 4288085770
15.748581 -0.46126652 -1.8780414 4288085770
16.717651 -0.50085717 -1.8642106 4288085770
4.8880234 -0.14114016 -1.8175673 4288085770
11.053352 -0.33113462 -1.8349158 4288085770
14.8237 -0.46262538 -1.8757914 4288085770
8.4983215 -0.26487046 -1.8297455 4288085770
5.0061569 -0.1549722 -1.8183453 4288085770
10.586533 -0.34582555 -1.8328005 4288085770
13.974792 -0.46187228 -1.8723979 4288085770
15.760895 -0.52826923 -1.8600233 4288085770
5.1222916 -0.16880703 -1.817127 4288085770
8.2015228 -0.28031284 -1.8273089 4288085770
13.198883 -0.45901233 -1.866866 4288085770
5.2624359 -0.18360591 -1.8218633 4288085770
10.165733 -0.36244899 -1.8325984 4288085770
12.47596 -0.4550752 -1.8582338 4288085770
14.931152 -0.5554952 -1.8585955 4288085770
7.9537277 -0.2956816 -1.8317796 4288085770
5.3945618 -0.19841743 -1.8216147 4288085770
11.860039 -0.44997966 -1.855399 4288085770
19.062614 -0.73446089 -1.9187908 4288085770
9.7719345 -0.37803328 -1.8313451 4288085770
5.5366745 -0.21221346 -1.8233474 4288085770
11.259102 -0.44286281 -1.8475358 4288085770
4.880661 -0.18817163 -1.8215872 4288085770
17.551613 -0.70267659 -1.8946476 4288085770
5.6807861 -0.22700739 -1.823076 4288085770
7.7139435 -0.31104022 -1.8332349 4288085770
5.006752 -0.19999027 -1.8233496 4288085770
10.766167 -0.43758535 -1.8494685 4288085770
14.178413 -0.58160836 -1.8570218 4288085770
16.314636 -0.67648953 -1.8809865 4288085770
5.1268387 -0.21081835 -1.8211234 4288085770
10.29023 -0.43028349 -1.8483686 4288085770
9.4241486 -0.39455009 -1.833005 4288085770
5.8499069 -0.24276316 -1.8277576 4288085770
15.301666 -0.65397304 -1.8769016 4288085770
5.266922 -0.22261608 -1.8238595 4288085770
9.8542786 -0.42292321 -1.8461933 4288085770
6.0150146 -0.25752491 -1.8304465 4288085770
7.4841614 -0.32638371 -1.8346715 4288085770
14.399704 -0.63329345 -1.872607 4288085770
5.4029999 -0.23442006 -1.8236032 4288085770
9.4613266 -0.41549957 -1.8459364 4288085770
6.1810989 -0.27228594 -1.8291335 4288085770
5.5520706 -0.24620473 -1.824322 4288085770
9.0693588 -0.40607393 -1.8426776 4288085770
13.485687 -0.60663456 -1.8513348 4288085770
13.581726 -0.61149138 -1.8671535 4288085770
9.0903702 -0.41004646 -1.8326381 4288085770
6.3631897 -0.28702301 -1.8297902 4288085770
5.7191544 -0.25796205 -1.8300068 4288085770
8.7423935 -0.39755243 -1.8452959 4288085770
12.817734 -0.59061044 -1.8585976 4288085770
5.8832092 -0.26972401 -1.8306975 4288085770
8.4104156 -0.38803828 -1.8429236 4288085770
6.5632706 -0.302733 -1.8334129 4288085770
6.0502548 -0.28048235 -1.8303822 4288085770
8.1194382 -0.37946385 -1.8444736 4288085770
12.151749 -0.57058519 -1.8538568 4288085770
7.8404465 -0.36887157 -1.8450009 4288085770
7.2483826 -0.34073716 -1.8311193 4288085770
6.7723618 -0.31843001 -1.8360186 4288085770
6.2393188 -0.29320741 -1.8340255 4288085770
6.4253464 -0.30393696 -1.8336742 4288085770
7.5564499 -0.35828733 -1.8405377 4288085770
11.555763 -0.55145723 -1.8519833 4288085770
7.3084335 -0.34764904 -1.8400064 4288085770
6.6373901 -0.31562805 -1.8372738 4288085770
6.9864197 -0.33311957 -1.8366146 4288085770
6.8444138 -0.32632649 -1.8378829 4288085770
7.0754395 -0.33798915 -1.8404466 4288085770
11.00676 -0.53225988 -1.8470207 4288085770
8.7885895 -0.42549562 -1.834211 4288085770
7.2134857 -0.34979033 -1.8381864 4288085770
12.818932 -0.62762207 -1.8425983 4288085770
10.511772 -0.51398325 -1.8459564 4288085770
7.4605484 -0.36543131 -1.8407199 4288085770
19.599586 -0.96773165 -1.902791 4288085770
10.074768 -0.49762207 -1.8457823 4288085770
7.7225952 -0.38104981 -1.8422253 4288085770
9.6647644 -0.4802199 -1.846557 4288085770
8.0026398 -0.39764231 -1.8446965 4288085770
9.2787476 -0.4627834 -1.8442862 4288085770
8.2906876 -0.41422325 -1.8451526 4288085770
8.6087112 -0.43075973 -1.846552 4288085770
8.930748 -0.44729102 -1.8459437 4288085770
7.0375977 -0.35505354 -1.8295197 4288085770
19.732849 -1.0265474 -1.9135427 4288085770
8.5048218 -0.44191909 -1.8337497 4288085770
18.837822 -0.98685139 -1.9202337 4288085770
12.264206 -0.65144581 -1.8396502 4288085770
18.284821 -0.97766858 -1.8882796 4288085770
6.829834 -0.36936605 -1.8269148 4288085770
8.2400589 -0.45731455 -1.8352524 4288085770
17.611053 -0.99565977 -1.9035559 4288085770
11.768501 -0.67518204 -1.8395904 4288085770
18.656212 -1.0721431 -1.9005833 4288085770
17.157059 -0.98933142 -1.8764144 4288085770
6.6500702 -0.38363725 -1.8272567 4288085770
8.0033112 -0.47466898 -1.8387023 4288085770
16.527283 -1.0022576 -1.8906074 4288085770
6.4563065 -0.39792997 -1.8216251 4288085770
11.325798 -0.69884068 -1.8404303 4288085770
16.187317 -1.0017619 -1.8682505 4288085770
17.721581 -1.1145294 -1.8893546 4288085770
7.7375565 -0.48906767 -1.832207 4288085770
15.625526 -1.010587 -1.8853143 4288085770
6.2845535 -0.41219008 -1.8199519 4288085770
10.901108 -0.72247404 -1.839236 4288085770
15.351601 -1.0179963 -1.8648332 4288085770
7.5158081 -0.50440127 -1.8316283 4288085770
16.897957 -1.1567528 -1.8819162 4288085770
14.793747 -1.013813 -1.879889 4288085770
6.1308136 -0.42742342 -1.821245 4288085770
10.513405 -0.74505228 -1.8389719 4288085770
14.620888 -1.0360765 -1.8632176 4288085770
7.2990646 -0.51972717 -1.8300403 4288085770
14.033966 -1.0159328 -1.8753271 4288085770
5.9810944 -0.44265157 -1.8205301 4288085770
16.166344 -1.1988409 -1.8763034 4288085770
7.0943298 -0.53503627 -1.8274295 4288085770
13.981186 -1.0540233 -1.8634297 4288085770
10.161713 -0.76757818 -1.8386396 4288085770
13.350189 -1.0169408 -1.8726215 4288085770
5.8323517 -0.4568786 -1.8178135 4288085770
6.9095993 -0.55031532 -1.8277811 4288085770
12.666382 -1.0119498 -1.8619156 4288085770
15.531746 -1.2407866 -1.8725075 4288085770
13.330475 -1.0689876 -1.8556623 4288085770
9.8250275 -0.79008216 -1.8382789 4288085770
19.861549 -1.6214936 -1.9403372 4288085770
5.7026443 -0.47207737 -1.8190608 4288085770
12.08358 -1.0078089 -1.8580188 4288085770
6.7118683 -0.56461543 -1.8211571 4288085770
12.739761 -1.0828638 -1.8477817 4288085770
9.5323563 -0.81352144 -1.839835 4288085770
18.486656 -1.5735085 -1.9249361 4288085770
14.955154 -1.2826471 -1.8706014 4288085770
5.5699234 -0.48628068 -1.8183141 4288085770
11.557785 -1.0055842 -1.8580141 4288085770
6.5481644 -0.58086425 -1.8224688 4288085770
17.234764 -1.527343 -1.9103024 4288085770
12.260078 -1.1015768 -1.8476911 4288085770
9.2486801 -0.83594781 -1.840374 4288085770
11.058968 -0.99931961 -1.8549579 4288085770
5.4472122 -0.50146967 -1.8175483 4288085770
14.51059 -1.3303132 -1.8784459 4288085770
16.120872 -1.482976 -1.8944077 4288085770
6.3824387 -0.59511644 -1.8197843 4288085770
19.900597 -1.8564909 -1.944277 4288085770
10.590149 -0.99301046 -1.8518454 4288085770
11.8134 -1.1212418 -1.8475381 4288085770
8.9730225 -0.85736328 -1.8388978 4288085770
15.238014 -1.4522691 -1.8950768 4288085770
5.3215027 -0.5156635 -1.814788 4288085770
10.18734 -0.98860437 -1.8546078 4288085770
6.2357407 -0.6113407 -1.8200638 4288085770
14.021004 -1.3700466 -1.8763754 4288085770
14.441154 -1.4214365 -1.8935833 4288085770
18.92495 -1.871932 -1.9391243 4288085770
9.7935104 -0.98118502 -1.8543531 4288085770
11.394737 -1.1408663 -1.8463322 4288085770
8.7293625 -0.87973112 -1.8403612 4288085770
5.2198257 -0.53182179 -1.8169826 4288085770
13.653267 -1.3865914 -1.8850725 4288085770
6.092041 -0.62656063 -1.8183378 4288085770
9.4236755 -0.97272962 -1.854053 4288085770
13.591415 -1.410691 -1.8761911 4288085770
12.921371 -1.3516648 -1.8744558 4288085770
18.093323 -1.8921611 -1.9436991 4288085770
11.015076 -1.1604335 -1.8460525 4288085770
5.1201324 -0.54697675 -1.8191735 4288085770
8.5057068 -0.90206951 -1.8417866 4288085770
9.0928497 -0.96621746 -1.8566792 4288085770
5.9613495 -0.64276201 -1.8185871 4288085770
12.245476 -1.3166559 -1.8637332 4288085770
8.7760086 -0.95868379 -1.858279 4288085770
13.126831 -1.4453878 -1.8690728 4288085770
11.681595 -1.2894821 -1.861799 4288085770
5.0244446 -0.56212622 -1.8203565 4288085770
10.67141 -1.1799469 -1.8477046 4288085770
17.321686 -1.9083018 -1.9471602 4288085770
8.2760544 -0.92341763 -1.8402236 4288085770
8.4811554 -0.94911796 -1.8598368 4288085770
5.8326569 -0.65796012 -1.8178327 4288085770
11.179703 -1.2642169 -1.8617477 4288085770
8.1522751 -0.9356032 -1.851459 4288085770
4.9267654 -0.57727939 -1.8205434 4288085770
10.700821 -1.2379179 -1.8606529 4288085770
10.335754 -1.1994503 -1.8463417 4288085770
16.386955 -1.8966811 -1.9279287 4288085770
12.679222 -1.4760599 -1.8569221 4288085770
8.0844193 -0.94670957 -1.8435885 4288085770
5.719986 -0.67513484 -1.8200481 4288085770
7.8794098 -0.9250049 -1.8509752 4288085770
10.247925 -1.2125821 -1.8575089 4288085770
19.621719 -2.3110075 -1.9478297 4288085770
7.6225357 -0.91338319 -1.8504611 4288085770
9.8460312 -1.1891701 -1.8582686 4288085770
10.043106 -1.2208898 -1.8478974 4288085770
15.675278 -1.8997324 -1.9262757 4288085770
7.3526459 -0.89978081 -1.8449717 4288085770
5.6013031 -0.69031841 -1.8192745 4288085770
7.8827667 -0.96801656 -1.8419722 4288085770
12.339645 -1.5145726 -1.8575674 4288085770
9.4721375 -1.1667178 -1.8579752 4288085770
7.1317596 -0.88910562 -1.8463894 4288085770
18.916145 -2.3460555 -1.9511669 4288085770
9.1302414 -1.1452184 -1.8596215 4288085770
6.8898621 -0.87546211 -1.840847 4288085770
15.094612 -1.9105906 -1.9353755 4288085770
9.7724762 -1.2432978 -1.8494116 4288085770
5.4906387 -0.70649081 -1.8194861 4288085770
8.8073349 -1.1236901 -1.8622317 4288085770
7.7211456 -0.99226433 -1.8472804 4288085770
6.6729584 -0.86178166 -1.8372571 4288085770
8.4814148 -1.1001678 -1.8588477 4288085770
12.042091 -1.5560243 -1.8601333 4288085770
6.4780502 -0.85006779 -1.8376257 4288085770
18.233566 -2.37707 -1.9494598 4288085770
8.1734772 -1.0766184 -1.8554294 4288085770
20.01696 -2.6214979 -1.9470978 4293729569
6.2791443 -0.83636039 -1.8350019 4288085770
14.526962 -1.9174302 -1.9424503 4288085770
5.3769608 -0.72166818 -1.8167032 4288085770
9.5058365 -1.2637 -1.8489182 4288085770
7.8755493 -1.0530548 -1.8499924 4288085770
7.5034943 -1.0085962 -1.8366942 4288085770
6.0782089 -0.82165664 -1.8273817 4288085770
7.6176224 -1.0324321 -1.8504798 4288085770
5.9313049 -0.81187099 -1.8346596 4288085770
11.756531 -1.5954583 -1.8606764 4288085770
7.3746796 -1.0117872 -1.8499388 4288085770
5.7613678 -0.79812044 -1.8319808 4288085770
17.593987 -2.4080217 -1.9466717 4288085770
5.2722931 -0.73683172 -1.8149034 4288085770
13.975288 -1.9202454 -1.9474947 4282675967
7.1327362 -0.99014074 -1.8473958 4288085770
5.5874176 -0.78337604 -1.8263096 4288085770
9.2662125 -1.2860625 -1.8513737 4288085770
19.616486 -2.7061086 -1.9438596 4288085770
6.8987808 -0.96848291 -1.8428376 4288085770
7.3508759 -1.0318315 -1.8399855 4288085770
5.4485016 -0.77257961 -1.8285724 4288085770
6.665802 -0.94482344 -1.8362777 4288085770
5.2965546 -0.75880283 -1.8248594 4288085770
6.4688492 -0.92611104 -1.8356497 4288085770
5.174614 -0.74798065 -1.8290899 4288085770
11.522995 -1.6398153 -1.8671215 4288085770
13.256493 -1.8903058 -1.9238539 4288085770
6.2828903 -0.90738231 -1.8350009 4288085770
5.1776428 -0.75298077 -1.8150846 4288085770
5.0426559 -0.73517352 -1.8283393 4288085770
6.0879059 -0.88566691 -1.8293689 4288085770
16.9804 -2.4359362 -1.9398341 4288085770
4.9296951 -0.72333783 -1.8315527 4288085770
9.0315933 -1.3074186 -1.8508197 4288085770
5.9169235 -0.86691588 -1.8276918 4288085770
7.1892548 -1.0530803 -1.8382934 4288085770
5.7659531 -0.85013539 -1.8299768 4288085770
19.297043 -2.7986019 -1.9444683 4288085770
5.614975 -0.83335477 -1.8302618 4288085770
5.4609604 -0.81357843 -1.8265523 4288085770
5.3129807 -0.79579407 -1.8238317 4288085770
5.1809769 -0.77898544 -1.8230808 4288085770
12.515671 -1.8503985 -1.8902539 4288085770
5.0609741 -0.76315886 -1.8253071 4288085770
4.9399643 -0.74633402 -1.8245355 4288085770
5.0879898 -0.76912266 -1.8162565 4288085770
11.290451 -1.6821716 -1.8715643 4288085770
19.497398 -2.8923256 -1.9560938 4288085770
8.8139648 -1.3287489 -1.8512334 4288085770
16.344772 -2.4518821 -1.9250379 4288085770
7.0356369 -1.0743177 -1.8375863 4288085770
19.0056 -2.8930538 -1.9460239 4288085770
12.001945 -1.8361576 -1.8842258 4288085770
18.428574 -2.8248885 -1.9521127 4288085770
5.0113602 -0.78724533 -1.8194036 4288085770
11.090919 -1.7274792 -1.8779447 4288085770
8.6343689 -1.3550239 -1.8565755 4288085770
15.876213 -2.4865839 -1.9239261 4288085770
6.8950272 -1.095536 -1.8368547 4288085770
11.599236 -1.8327529 -1.8899883 4288085770
17.401741 -2.7543905 -1.9440522 4288085770
4.9286957 -0.80237681 -1.8195621 4288085770
18.590103 -2.9646871 -1.9318135 4288085770
8.4317551 -1.3753331 -1.8549609 4288085770
10.888382 -1.7697921 -1.8813308 4288085770
11.176514 -1.8223772 -1.8907882 4288085770
6.7404099 -1.1147757 -1.8321494 4288085770
16.423889 -2.6798201 -1.9308989 4288085770
15.434654 -2.5222464 -1.9227633 4288085770
18.319649 -3.0531082 -1.9293289 4288085770
10.781792 -1.8119609 -1.891535 4288085770
8.2661438 -1.3995879 -1.8572763 4288085770
15.615074 -2.6230035 -1.9284267 4288085770
10.705856 -1.8140755 -1.8856791 4288085770
6.6057816 -1.1339853 -1.8284062 4288085770
15.100121 -2.569752 -1.9293988 4288085770
10.404045 -1.7995191 -1.8912498 4288085770
14.957298 -2.5829654 -1.9366696 4288085770
8.111557 -1.4258265 -1.8615711 4288085770
18.073181 -3.141494 -1.9267988 4288085770
10.503319 -1.8533883 -1.8860649 4288085770
6.4922104 -1.1581645 -1.8306236 4288085770
10.020271 -1.781086 -1.8869758 4288085770
14.720566 -2.6063237 -1.9281187 4288085770
14.33152 -2.5418813 -1.942852 4288085770
7.9619675 -1.4510579 -1.8648565 4288085770
9.6455002 -1.7606397 -1.8786846 4288085770
17.755692 -3.2159832 -1.9144025 4288085770
13.614662 -2.4769297 -1.9302058 4288085770
6.3736038 -1.1793509 -1.8298503 4288085770
10.299751 -1.8887026 -1.8824524 4288085770
14.384026 -2.645833 -1.9267573 4288085770
9.3197403 -1.7451208 -1.8783008 4288085770
12.830734 -2.3930767 -1.9006858 4288085770
7.8093567 -1.4732938 -1.8651472 4288085770
6.2700119 -1.2015152 -1.8310485 4288085770
17.55825 -3.3092983 -1.9117799 4288085770
10.128227 -1.9299703 -1.8827795 4288085770
9.0129776 -1.7295747 -1.8768814 4288085770
12.222878 -2.3339658 -1.8888334 4288085770
14.054474 -2.683332 -1.9253826 4288085770
7.6717834 -1.4985085 -1.8674097 4288085770
8.7392044 -1.7159786 -1.8803995 4288085770
11.72406 -2.2906959 -1.8867757 4288085770
6.170433 -1.2246735 -1.8322393 4288085770
17.413818 -3.4105361 -1.9130571 4288085770
9.9576797 -1.9682362 -1.8811047 4288085770
13.679916 -2.7108974 -1.9140928 4288085770
11.283257 -2.2533414 -1.8906087 4288085770
8.4774551 -1.703366 -1.8828948 4288085770
7.535202 -1.5227215 -1.8686702 4288085770
6.0628357 -1.2448444 -1.828445 4288085770
10.867439 -2.2169499 -1.8923943 4288085770
8.1976624 -1.6837795 -1.879424 4288085770
17.275391 -3.511765 -1.9133227 4288085770
9.7831497 -2.0055087 -1.8784373 4288085770
13.331337 -2.7374241 -1.9027536 4288085770
7.3866043 -1.5429525 -1.8639532 4288085770
10.465622 -2.1785376 -1.8941534 4288085770
7.9558868 -1.6691365 -1.8818815 4288085770
5.9682541 -1.2669961 -1.8286263 4288085770
9.6136017 -2.0407732 -1.8737602 4288085770
17.15197 -3.6139727 -1.9125597 4288085770
10.063789 -2.1371262 -1.8909125 4288085770
7.7171021 -1.6524899 -1.8813331 4288085770
13.011765 -2.7649083 -1.8923595 4288085770
7.25 -1.5641654 -1.8612138 4288085770
9.6749344 -2.0936954 -1.884647 4288085770
5.8917007 -1.2931213 -1.8327736 4288085770
7.4742966 -1.6318486 -1.8777925 4288085770
9.477066 -2.0809896 -1.873021 4288085770
17.032547 -3.7171745 -1.9107893 4288085770
9.3020782 -2.0502412 -1.878351 4288085770
12.750221 -2.8023083 -1.8878562 4288085770
7.2384872 -1.611197 -1.8732386 4288085770
7.1464386 -1.5913301 -1.8654119 4288085770
5.8071365 -1.3162584 -1.8329359 4288085770
8.9992523 -2.0186846 -1.8809234 4288085770
7.0306854 -1.593504 -1.8736317 4288085770
9.3455429 -2.1221993 -1.8722723 4288085770
16.974136 -3.8322878 -1.9129038 4288085770
8.6914215 -1.9841356 -1.8805048 4288085770
7.0218582 -1.6135263 -1.8616498 4288085770
12.516685 -2.8426671 -1.8842999 4288085770
6.8168716 -1.5738204 -1.8700362 4288085770
5.7315521 -1.3393815 -1.8350811 4288085770
8.3985596 -1.9495645 -1.878058 4288085770
6.5970306 -1.5491447 -1.8624519 4288085770
9.2270279 -2.1643896 -1.872499 4288085770
6.9162903 -1.6376946 -1.8618516 4288085770
8.1447372 -1.9209361 -1.8815378 4288085770
16.922737 -3.9473915 -1.9150047 4288085770
12.301163 -2.8850002 -1.8817095 4288085770
6.3941879 -1.5264447 -1.8558353 4288085770
5.6529922 -1.3625104 -1.835232 4288085770
7.8848724 -1.8873162 -1.8800286 4288085770
6.2023544 -1.5047281 -1.8511982 4288085770
7.643013 -1.8566699 -1.8804855 4288085770
9.1195145 -2.2075639 -1.8737048 4288085770
6.8187256 -1.6638508 -1.8630382 4288085770
16.89035 -4.0684676 -1.9170699 4288085770
12.084625 -2.9253345 -1.8771209 4288085770
6.0305252 -1.4859817 -1.8495233 4288085770
5.5814362 -1.3866282 -1.8363696 4288085770
7.3951492 -1.8230331 -1.8759538 4288085770
5.8586731 -1.4652357 -1.8448483 4288085770
7.1642532 -1.7893708 -1.8723899 4288085770
6.7081375 -1.6850264 -1.8592494 4288085770
9.0100021 -2.2497413 -1.8729144 4288085770
5.7168427 -1.4504454 -1.8471167 4288085770
11.907104 -2.970612 -1.8754587 4288085770
16.842934 -4.1835651 -1.915163 4288085770
6.9443893 -1.7576931 -1.8688053 4288085770
5.5138855 -1.411741 -1.8374997 4288085770
5.5640106 -1.4316711 -1.8454059 4288085770
6.7485123 -1.72998 -1.8681754 4288085770
6.5955658 -1.7062051 -1.8544643 4288085770
5.4281616 -1.4158719 -1.845663 4288085770
8.9024887 -2.2919159 -1.87112 4288085770
6.5546341 -1.7012634 -1.8665417 4288085770
19.67453 -5.0045505 -1.9408336 4288085770
11.755608 -3.0218518 -1.8767473 4288085770
16.851562 -4.3145828 -1.9181504 4288085770
5.450325 -1.4358475 -1.8396221 4288085770
5.2923126 -1.3980727 -1.84492 4288085770
6.3537216 -1.6685574 -1.8599212 4288085770
6.1688309 -1.638828 -1.8562703 4288085770
5.1564407 -1.3792732 -1.8421772 4288085770
6.5140152 -1.7333386 -1.8556206 4288085770
18.892807 -4.9366941 -1.938309 4288085770
8.7899628 -2.3300977 -1.867335 4288085770
5.993927 -1.6090837 -1.8526008 4288085770
11.602097 -3.0710943 -1.8760396 4288085770
5.0185699 -1.359477 -1.8374379 4288085770
16.873177 -4.4475813 -1.9211133 4288085770
5.3907776 -1.460948 -1.8417373 4288085770
5.8290253 -1.5823252 -1.8499123 4288085770
4.896698 -1.3416562 -1.8366684 4288085770
5.6821289 -1.5575397 -1.8501898 4288085770
6.4164505 -1.7554953 -1.8518071 4288085770
18.065025 -4.8439031 -1.9268711 4288085770
8.6824341 -2.3692725 -1.8635406 4288085770
5.5342178 -1.5317554 -1.8474692 4288085770
11.45459 -3.1203287 -1.8743206 4288085770
16.894798 -4.5825806 -1.9220762 4288085770
5.3232269 -1.4840608 -1.8398671 4288085770
5.3993073 -1.5079527 -1.8477241 4288085770
5.2603912 -1.483156 -1.8449866 4288085770
17.335281 -4.7669697 -1.9212482 4288085770
6.3378906 -1.7816243 -1.8519579 4288085770
5.1304626 -1.4583452 -1.843232 4288085770
8.6229401 -2.4203768 -1.8676556 4288085770
11.3451 -3.1765075 -1.8765298 4288085770
5.0105438 -1.4355202 -1.8424586 4288085770
16.91243 -4.7185869 -1.9210463 4288085770
5.2706909 -1.5111516 -1.8429689 4288085770
4.8876114 -1.4116995 -1.8396907 4288085770
16.658546 -4.6939592 -1.9175255 4288085770
6.27034 -1.809737 -1.8540877 4288085770
8.5444336 -2.4655094 -1.8668063 4288085770
11.211586 -3.2257209 -1.8737842 4288085770
5.2101364 -1.5342541 -1.8420856 4288085770
16.988075 -4.8705091 -1.9239068 4288085770
16.006798 -4.6199112 -1.9127553 4288085770
6.2017899 -1.8368514 -1.8542194 4288085770
8.4499207 -2.5056651 -1.8629872 4288085770
11.105087 -3.2818956 -1.8739876 4288085770
5.1665955 -1.5613313 -1.8461702 4288085770
17.067734 -5.0254259 -1.92576 4288085770
15.393051 -4.5488086 -1.9099135 4288085770
6.1192169 -1.8589861 -1.8503776 4288085770
8.3794098 -2.5507858 -1.8621227 4288085770
5.1100388 -1.5844283 -1.8442793 4288085770
11.005608 -3.3400607 -1.8741778 4288085770
14.823318 -4.4806409 -1.907989 4288085770
17.216415 -5.2002435 -1.9334826 4288085770
6.057663 -1.8870902 -1.851496 4288085770
14.245544 -4.401484 -1.9010792 4288085770
8.3009033 -2.5939181 -1.8582733 4288085770
5.0574875 -1.6085188 -1.8433808 4288085770
10.93013 -3.4031906 -1.8763225 4288085770
17.290062 -5.3571701 -1.9313469 4288085770
5.9981155 -1.9141917 -1.8516107 4288085770
18.532249 -5.8024807 -1.6020082 4293729569
13.707794 -4.32827 -1.8960938 4288085770
8.2554092 -2.6460028 -1.8603615 4288085770
5.0159607 -1.6355937 -1.8464617 4288085770
10.836632 -3.4593468 -1.8745011 4288085770
17.078514 -5.4245062 -1.8967476 4293729569
5.9365692 -1.9412994 -1.8507254 4288085770
18.26075 -5.8328843 -1.6615175 4293729569
13.189026 -4.2520318 -1.8900682 4288085770
8.2169189 -2.7000825 -1.8634315 4288085770
4.9634094 -1.6586897 -1.8445587 4288085770
10.763145 -3.5204799 -1.8746364 4288085770
16.704849 -5.4370823 -1.8424462 4293729569
17.910187 -5.8334017 -1.7131759 4293729569
5.8730164 -1.9674094 -1.8478459 4288085770
12.717278 -4.1857252 -1.8869559 4288085770
4.9358826 -1.6887455 -1.8496116 4288085770
8.1594162 -2.7461879 -1.8615401 4288085770
17.351486 -5.7622161 -1.7442263 4293729569
10.703667 -3.5865912 -1.876748 4288085770
16.489273 -5.4954295 -1.8038502 4293729569
12.272522 -4.120378 -1.8847928 4288085770
5.8094482 -1.9915187 -1.8449665 4288085770
18.282806 -6.1211176 -0.53846943 4293729569
18.02491 -6.0804048 -1.0689551 4293729569
16.691689 -5.6491742 -1.7614675 4293729569
4.8953476 -1.7148213 -1.8506891 4288085770
8.1099167 -2.7962816 -1.8606335 4288085770
10.652199 -3.6546907 -1.8788444 4288085770
11.877792 -4.0669594 -1.8875356 4288085770
16.353745 -5.577661 -1.7741033 4293729569
5.7639008 -2.0206017 -1.8460531 4288085770
18.146423 -6.2123389 -0.58072376 4293729569
16.179955 -5.57692 -1.7874297 4293729569
17.976456 -6.204514 -1.0440437 4293729569
11.458031 -3.9985752 -1.8833256 4288085770
4.8678055 -1.7448771 -1.8557422 4288085770
8.0634155 -2.8463714 -1.8587214 4288085770
10.596718 -3.7217965 -1.8779483 4288085770
16.39032 -5.7156458 -1.7590321 4293729569
5.7073364 -2.045701 -1.8431606 4288085770
18.136093 -6.3463802 -0.62674046 4293729569
15.598167 -5.4737639 -1.8045241 4293729569
18.020035 -6.357492 -1.0239586 4293729569
11.08728 -3.9411201 -1.8830234 4288085770
4.8162537 -1.7659693 -1.8498403 4288085770
8.0289307 -2.9004438 -1.8587862 4288085770
16.587013 -5.9124041 -1.7596589 4293729569
10.548233 -3.7888918 -1.8780389 4288085770
15.140442 -5.4064312 -1.8303849 4293729569
5.6617889 -2.0747843 -1.8422471 4288085770
10.693512 -3.8716974 -1.8767647 4288085770
14.758759 -5.3609881 -1.8631026 4293729569
4.7887192 -1.7950256 -1.8538932 4288085770
16.690636 -6.0782948 -1.7484609 4293729569
8.013443 -2.9594879 -1.8628154 4288085770
10.514755 -3.8609657 -1.879101 4288085770
5.6112213 -2.1008747 -1.8393431 4288085770
10.348763 -3.8152041 -1.8764138 4288085770
14.437096 -5.3314586 -1.8997071 4288085770
10.012001 -3.7556987 -1.8740479 4288085770
16.86731 -6.2730823 -1.7431248 4293729569
7.9989548 -3.019531 -1.8658427 4288085770
10.485291 -3.9350343 -1.8801558 4288085770
5.5786819 -2.1329386 -1.841405 4288085770
13.926262 -5.2251992 -1.9086688 4288085770
9.6972275 -3.6991606 -1.8726406 4288085770
17.159058 -6.5147071 -1.7465714 4293729569
13.342369 -5.0880432 -1.9027679 4288085770
5.5280991 -2.1570287 -1.837501 4288085770
7.9584579 -3.0706117 -1.8629187 4288085770
10.45282 -4.0081067 -1.8802158 4288085770
9.4034729 -3.6465917 -1.8721941 4288085770
12.744431 -4.9359064 -1.8908938 4288085770
17.483833 -6.7702856 -1.7499558 4293729569
5.4905396 -2.1860998 -1.8355724 4288085770
10.443352 -4.0881457 -1.8822324 4288085770
7.9399567 -3.1286607 -1.8639534 4288085770
9.129715 -3.5979943 -1.8737096 4288085770
12.226524 -4.8086538 -1.8848691 4288085770
5.4690018 -2.221148 -1.8396134 4288085770
8.8489456 -3.5434065 -1.8712385 4288085770
10.422867 -4.1642003 -1.8812697 4288085770
7.9134445 -3.1827204 -1.862003 4288085770
11.776672 -4.7013049 -1.8857162 4288085770
8.5971832 -3.4957762 -1.8727129 4288085770
11.385834 -4.6108708 -1.8904521 4288085770
5.4274216 -2.2472248 -1.8356924 4288085770
10.433418 -4.2522116 -1.8852487 4288085770
7.9099655 -3.2467482 -1.8640091 4288085770
8.3374023 -3.442157 -1.8702024 4288085770
10.965958 -4.5044775 -1.8872432 4288085770
5.4118881 -2.2842641 -1.8397222 4288085770
10.434944 -4.337235 -1.8862441 4288085770
7.8924484 -3.3037953 -1.8620416 4288085770
8.0926208 -3.3905168 -1.8676637 4288085770
10.565079 -4.4000568 -1.8829985 4288085770
5.3843307 -2.3163209 -1.8387744 4288085770
10.192207 -4.3025956 -1.879701 4288085770
7.8508301 -3.3368707 -1.8641196 4288085770
10.444481 -4.4252477 -1.8872244 4288085770
7.8949661 -3.3698142 -1.8650361 4288085770
9.8443298 -4.2100983 -1.8773565 4288085770
7.6280365 -3.2881975 -1.8625396 4288085770
5.3597641 -2.3473725 -1.8388212 4288085770
10.453011 -4.5132613 -1.8882067 4288085770
7.9044952 -3.4388227 -1.8680174 4288085770
9.5284729 -4.1275554 -1.8769519 4288085770
7.4072495 -3.2375214 -1.858956 4288085770
5.328186 -2.3764348 -1.835881 4288085770
9.2326279 -4.0489831 -1.8785095 4288085770
7.2024536 -3.1908219 -1.8573422 4288085770
10.468544 -4.6032653 -1.8881756 4288085770
7.9059753 -3.5038426 -1.8680137 4288085770
8.9387589 -3.9684081 -1.8760636 4288085770
7.0006638 -3.1431179 -1.854723 4288085770
5.3116302 -2.4114754 -1.8369126 4288085770
8.6568909 -3.8898153 -1.8745952 4288085770
10.499077 -4.7012482 -1.890116 4288085770
7.9054794 -3.5688653 -1.8670141 4288085770
6.8318787 -3.1063659 -1.8580414 4288085770
8.3930283 -3.815196 -1.8740927 4288085770
5.2930603 -2.4445186 -1.8369478 4288085770
6.6510849 -3.0626311 -1.8563826 4288085770
10.549644 -4.8092022 -1.8950183 4288085770
7.9199982 -3.6408672 -1.8689857 4288085770
8.1271515 -3.7365804 -1.8685942 4288085770
12.523323 -5.7145934 -1.0372882 4293729569
5.2744827 -2.4775617 -1.8359829 4288085770
6.4662704 -3.0149019 -1.8517315 4288085770
7.8952866 -3.6699152 -1.8690317 4288085770
12.413422 -5.7298551 -0.43449312 4293729569
10.623215 -4.9261241 -1.9028773 4288085770
7.9394913 -3.7128615 -1.8709477 4288085770
12.309334 -5.706018 -0.35768896 4293729569
12.371788 -5.7358222 -1.075572 4293729569
6.2984543 -2.9721477 -1.8500483 4288085770
7.6644058 -3.6012492 -1.8664672 4288085770
12.238655 -5.7020292 -0.9798227 4293729569
5.2719116 -2.5165811 -1.8389879 4288085770
12.321907 -5.7739978 -0.48066348 4293729569
6.1326294 -2.9273903 -1.8463615 4288085770
7.4365234 -3.5305781 -1.8618973 4288085770
10.697784 -5.0450444 -1.9087343 4288085770
12.307312 -5.794929 -1.122691 4293729569
12.181671 -5.7412248 -0.32092726 4293729569
7.9479904 -3.7828717 -1.8699306 4288085770
12.163025 -5.7581644 -0.94296271 4293729569
5.2583237 -2.5506167 -1.8380135 4288085770
7.2336578 -3.4698713 -1.8612803 4288085770
5.998848 -2.8965876 -1.8506141 4288085770
12.276421 -5.8370762 -0.5287469 4293729569
7.0367584 -3.407155 -1.858652 4288085770
12.275848 -5.8669882 -1.1717479 4293729569
10.722282 -5.1410351 -1.9046855 4288085770
12.119064 -5.8043418 -0.28504264 4293729569
5.8530273 -2.8578012 -1.8498894 4288085770
7.989502 -3.8648343 -1.8758509 4288085770
12.120407 -5.8282533 -0.90604037 4293729569
5.2537384 -2.5876384 -1.8400223 4288085770
6.8428726 -3.3454349 -1.855018 4288085770
12.281975 -5.9240828 -0.57973373 4293729569
5.71521 -2.821003 -1.8501499 4288085770
12.282425 -5.9579954 -1.2257328 4293729569
6.67099 -3.2906828 -1.8553426 4288085770
10.613663 -5.1732144 -1.8778886 4288085770
12.091461 -5.8824086 -0.24809189 4293729569
8.0059814 -3.936832 -1.8748186 4288085770
5.5763702 -2.7812059 -1.8474121 4288085770
12.120827 -5.919282 -0.87203658 4293729569
5.2421417 -2.621671 -1.8380442 4288085770
12.356575 -6.0429931 -0.63459009 4293729569
6.5000992 -3.2349291 -1.8536655 4288085770
5.4455338 -2.7433982 -1.8446594 4288085770
6.331192 -3.1781726 -1.8499846 4288085770
12.15892 -6.0063438 -0.21196125 4293729569
10.438965 -5.1724863 -1.8392164 4288085770
8.0244675 -4.0098276 -1.8737824 4288085770
5.2355423 -2.657696 -1.8380564 4288085770
5.3256989 -2.7095733 -1.8448861 4288085770
6.1692886 -3.122406 -1.8462905 4288085770
6.0314026 -3.0776048 -1.8485512 4288085770
5.2008438 -2.6717558 -1.8421222 4288085770
10.297302 -5.1857114 -1.8044817 4293729569
5.2399445 -2.6977048 -1.8410481 4288085770
8.0609665 -4.0927982 -1.8757118 4288085770
5.89048 -3.027807 -1.8468175 4288085770
5.0990219 -2.6439056 -1.8453146 4288085770
5.7625809 -2.9839916 -1.8470594 4288085770
10.29274 -5.2627425 -1.7924879 4293729569
5.2303238 -2.7307339 -1.8380662 4288085770
4.9811554 -2.6060777 -1.8415376 4288085770
5.6386719 -2.9401698 -1.8472935 4288085770
8.0944595 -4.1737723 -1.8756469 4288085770
5.5097427 -2.8923547 -1.8445373 4288085770
4.8632812 -2.5672495 -1.8367606 4288085770
5.3858109 -2.8455329 -1.8407718 4288085770
5.2357178 -2.7717409 -1.8400557 4288085770
10.349251 -5.370688 -1.7893785 4293729569
4.7734375 -2.540381 -1.8399308 4288085770
8.1489716 -4.2657175 -1.8805423 4288085770
5.279892 -2.806685 -1.8419721 4288085770
4.681572 -2.5115149 -1.8401045 4288085770
5.1779556 -2.7678306 -1.842165 4288085770
5.2411041 -2.8107479 -1.8410454 4288085770
5.072998 -2.7259803 -1.8403635 4288085770
4.5967178 -2.4856393 -1.8432652 4288085770
10.422768 -5.4886093 -1.7882366 4293729569
4.9760361 -2.6871185 -1.8395472 4288085770
8.1844406 -4.3476882 -1.8794736 4288085770
4.5058212 -2.4537711 -1.8424373 4288085770
4.888092 -2.6522446 -1.8407134 4288085770
4.8011322 -2.6163681 -1.8398782 4288085770
5.2524872 -2.8537467 -1.8430235 4288085770
4.4229355 -2.4258919 -1.842594 4288085770
4.7031479 -2.5735078 -1.8340636 4288085770
10.48027 -5.5975533 -1.7841251 4293729569
12.953926 -6.8931541 -1.7114414 4293729569
4.6241684 -2.5396194 -1.8342131 4288085770
8.2329178 -4.4356413 -1.88038 4288085770
4.5561829 -2.5097151 -1.8373419 4288085770
4.3610916 -2.4109848 -1.8417113 4288085770
4.4861984 -2.4788139 -1.8374745 4288085770
4.4162064 -2.4469123 -1.8376069 4288085770
5.2548599 -2.8917575 -1.8420188 4288085770
4.3501892 -2.4150043 -1.837732 4288085770
12.176704 -6.5662518 -1.67291 4293729569
10.627846 -5.7553711 -1.7918429 4293729569
8.2834091 -4.5265918 -1.8812828 4288085770
4.3634872 -2.4449959 -1.8427069 4288085770
5.2592163 -2.9297655 -1.8410102 4288085770
11.888931 -6.4906654 -1.695452 4293729569
10.72438 -5.8882608 -1.7906573 4293729569
4.3618469 -2.4750113 -1.84171 4288085770
8.3418961 -4.6215301 -1.8821702 4288085770
5.2815933 -2.976748 -1.8439676 4288085770
11.605148 -6.4110732 -1.7139868 4293729569
10.777855 -5.9972105 -1.780553 4293729569
4.3672256 -2.5100174 -1.8426998 4288085770
5.2889328 -3.014751 -1.8419533 4288085770
8.4244003 -4.7304358 -1.8880121 4288085770
11.26429 -6.2965584 -1.7236298 4293729569
10.758232 -6.0652614 -1.7585871 4293729569
5.3032684 -3.0557439 -1.8419259 4288085770
4.3755875 -2.5450184 -1.8446839 4288085770
11.015511 -6.2279162 -1.7440988 4293729569
8.5048981 -4.8383441 -1.8918575 4288085770
5.32061 -3.0987329 -1.8418924 4288085770
10.872749 -6.2061257 -1.7573671 4293729569
4.3819275 -2.578022 -1.8446718 4288085770
10.783737 -6.1642489 -1.7645354 4293729569
8.6024017 -4.9552279 -1.8986707 4288085770
5.3469543 -3.1467087 -1.843842 4288085770
10.566978 -6.1065602 -1.786944 4293729569
4.3872833 -2.611028 -1.8436617 4288085770
10.992264 -6.3509827 -1.7541376 4293729569
8.6768799 -5.0601439 -1.8995273 4288085770
5.3742676 -3.1926823 -1.8457899 4288085770
10.288116 -6.0089579 -1.7964705 4293729569
4.3845901 -2.6380436 -1.8396665 4288085770
11.128784 -6.5068164 -1.7518755 4293729569
8.6251907 -5.0932369 -1.8736233 4288085770
5.4075928 -3.2426474 -1.8477261 4288085770
10.027275 -5.9183302 -1.806963 4293729569
4.4089355 -2.6800213 -1.8446203 4288085770
11.270317 -6.6666431 -1.7496037 4293729569
5.4328995 -3.2876246 -1.8476777 4288085770
8.515419 -5.0894094 -1.8338294 4288085770
9.7383652 -5.8057399 -1.810509 4293729569
4.4222641 -2.7160144 -1.8455949 4288085770
5.4722137 -3.3395808 -1.8506026 4288085770
11.403816 -6.8214817 -1.7443472 4293729569
9.4064026 -5.6632094 -1.802137 4293729569
8.4366684 -5.1025391 -1.7999768 4293729569
4.4415741 -2.7539988 -1.847558 4288085770
5.5025024 -3.3865499 -1.8495446 4288085770
11.550308 -6.9833012 -1.739066 4293729569
9.072403 -5.5156822 -1.7907689 4293729569
4.456871 -2.7889881 -1.8475289 4288085770
8.4630432 -5.1765213 -1.7879245 4293729569
5.5447998 -3.439502 -1.8514638 4288085770
8.7624207 -5.37712 -1.7803556 4293729569
11.395515 -6.952527 -1.7463572 4293729569
5.5830688 -3.4884589 -1.8513907 4288085770
4.4691696 -2.8219819 -1.8455054 4288085770
8.5054321 -5.2584815 -1.7768421 4293729569
11.092537 -6.8189516 -1.7599301 4293729569
8.4744568 -5.2485271 -1.7719007 4293729569
5.6313477 -3.5434017 -1.8532984 4288085770
4.487442 -2.8569667 -1.8444704 4288085770
10.761528 -6.6644144 -1.7665567 4293729569
8.3055954 -5.1867676 -1.7842199 4293729569
8.6779633 -5.41926 -1.7925124 4293729569
5.6765976 -3.5953484 -1.8542122 4288085770
10.423477 -6.5018864 -1.7681969 4293729569
4.5107193 -2.8949442 -1.8454261 4288085770
8.1177063 -5.1110344 -1.7905751 4293729569
5.7218475 -3.6472955 -1.8531256 4288085770
10.075394 -6.3273726 -1.7638563 4293729569
8.8424683 -5.5760498 -1.8041979 4293729569
4.518959 -2.9229426 -1.8394101 4288085770
5.7740936 -3.7022319 -1.8530259 4288085770
8.0119095 -5.0831861 -1.8127749 4293729569
9.8183975 -6.204731 -1.7723432 4293729569
5.8253174 -3.7551689 -1.852928 4288085770
4.5532379 -2.9669049 -1.8423446 4288085770
8.9869385 -5.7198668 -1.8089215 4293729569
9.6324615 -6.1229901 -1.7906948 4293729569
7.9501572 -5.0792761 -1.8438911 4288085770
5.8825455 -3.8120985 -1.8518187 4288085770
9.4315033 -6.0292711 -1.8040754 4293729569
4.582489 -3.0068729 -1.8432889 4288085770
7.8633575 -5.0594015 -1.8690548 4288085770
9.122406 -5.8596969 -1.8126618 4293729569
5.9427567 -3.8680224 -1.8517039 4288085770
9.1694489 -5.8936353 -1.8035723 4293729569
4.6197281 -3.0498295 -1.8462179 4288085770
7.7765427 -5.0365257 -1.8932188 4288085770
6.0189896 -3.9349246 -1.8545586 4288085770
8.9033737 -5.7520056 -1.8000768 4293729569
6.0981979 -4.0008216 -1.8574077 4288085770
8.6272507 -5.6003885 -1.7906007 4293729569
9.2318115 -5.9835639 -1.8084517 4293729569
7.6026001 -4.9567714 -1.8945482 4288085770
4.6449432 -3.0848026 -1.8431697 4288085770
8.3671417 -5.4567499 -1.7820944 4293729569
6.180397 -4.0687151 -1.8592509 4288085770
7.4026031 -4.8570523 -1.8889275 4288085770
4.6841736 -3.1287563 -1.8450948 4288085770
8.0819778 -5.2931447 -1.7646356 4293729569
6.2655869 -4.1366034 -1.8610886 4288085770
9.3121719 -6.0874701 -1.7982967 4293729569
7.9009247 -5.1933956 -1.7669792 4293729569
6.356781 -4.2074833 -1.863915 4288085770
7.1945877 -4.7503438 -1.878322 4288085770
4.7193832 -3.1687152 -1.8440276 4288085770
7.8019638 -5.1435313 -1.7841669 4293729569
6.4429321 -4.2733698 -1.8627509 4288085770
7.6789474 -5.0757003 -1.7954005 4293729569
6.5401001 -4.3462405 -1.8635658 4288085770
6.9995575 -4.6476173 -1.868692 4288085770
7.6320267 -5.0557637 -1.8214893 4293729569
6.6422501 -4.420104 -1.8643712 4288085770
9.3614883 -6.1714191 -1.7812008 4293729569
4.7756042 -3.2206438 -1.8499206 4288085770
7.6181335 -5.0537801 -1.8555156 4288085770
6.7544098 -4.4989538 -1.8661579 4288085770
7.5852051 -5.0388231 -1.8835779 4288085770
6.8605423 -4.5728111 -1.8649558 4288085770
7.4651413 -4.9649873 -1.8898062 4288085770
6.991684 -4.6606331 -1.8697063 4288085770
7.3230209 -4.8751807 -1.8890765 4288085770
7.1518555 -4.7654152 -1.8784018 4288085770
6.8375702 -4.5648446 -1.8649993 4288085770
4.8198013 -3.2645895 -1.8508362 4288085770
6.6985855 -4.4930391 -1.866263 4288085770
9.4868927 -6.3042631 -1.77596 4293729569
4.8569641 -3.3025444 -1.8487653 4288085770
6.5695953 -4.4262195 -1.8665079 4288085770
4.9141541 -3.3534715 -1.8516563 4288085770
6.4365997 -4.3554049 -1.8657602 4288085770
9.6493149 -6.4600558 -1.7756488 4293729569
4.9623032 -3.3964097 -1.8515644 4288085770
6.3075943 -4.2845845 -1.8640053 4288085770
5.0164337 -3.4413402 -1.8504612 4288085770
6.1825638 -4.213758 -1.8612428 4288085770
5.0675735 -3.4842744 -1.8493639 4288085770
9.8497772 -6.6397948 -1.7812655 4293729569
6.067543 -4.1489182 -1.8594613 4288085770
5.1317215 -3.5351901 -1.8512416 4288085770
5.9685287 -4.0910544 -1.8616494 4288085770
5.1978378 -3.5851021 -1.8521156 4288085770
5.8564682 -4.0242095 -1.8578625 4288085770
5.2689362 -3.6370072 -1.8529803 4288085770
5.7604218 -3.9653411 -1.8570451 4288085770
5.3390503 -3.6879139 -1.8538468 4288085770
5.66436 -3.9044728 -1.8562279 4288085770
5.4191513 -3.7438059 -1.8546944 4288085770
5.4932251 -3.7937059 -1.8545533 4288085770
5.5863113 -3.8555789 -1.8573762 4288085770
10.080254 -6.8394923 -1.7898247 4293729569
11.710663 7.9208484 -1.8401489 4288085770
11.405968 7.668654 -1.8287376 4288085770
11.098274 7.4144559 -1.8163325 4288085770
10.923599 7.2483315 -1.8226504 4288085770
10.675919 7.0321703 -1.8151189 4288085770
6.4977341 4.2594581 -1.7968191 4288085770
6.6367798 4.337543 -1.8015168 4288085770
10.46524 6.84303 -1.8105124 4288085770
6.7578354 4.4016213 -1.7992501 4288085770
6.8739014 4.4596972 -1.7949914 4288085770
10.243568 6.6458845 -1.8029283 4288085770
6.9999771 4.522779 -1.7917104 4288085770
7.1510544 4.5998726 -1.7923747 4288085770
10.061905 6.473762 -1.7992597 4288085770
8.2686386 5.3066115 -1.7770153 4288085770
7.3031387 4.6759686 -1.7920355 4288085770
8.4536514 5.4117298 -1.776614 4288085770
8.6466599 5.5188546 -1.7751929 4288085770
9.8672333 6.2946343 -1.7916194 4288085770
7.449234 4.7440629 -1.7877053 4288085770
8.866684 5.6399937 -1.7767119 4288085770
7.6243439 4.8291707 -1.7893124 4288085770
9.0937119 5.7641382 -1.7772148 4288085770
9.6935806 6.1295185 -1.7869356 4288085770
9.331749 5.8912883 -1.7776909 4288085770
7.8104553 4.9182863 -1.7908933 4288085770
9.6177826 6.0464673 -1.7830633 4288085770
9.5649261 5.9924254 -1.7871562 4288085770
7.9705734 4.9883904 -1.7845269 4288085770
9.9038239 6.1966467 -1.785431 4288085770
10.220879 6.3638444 -1.790731 4288085770
8.1616898 5.0745106 -1.7830918 4288085770
4.4312897 2.7360766 -1.7899894 4288085770
4.3803101 2.7040436 -1.7890973 4288085770
9.4162598 5.8443251 -1.7844204 4288085770
4.483284 2.7671106 -1.7888781 4288085770
4.3283463 2.6700103 -1.7882061 4288085770
4.5432816 2.8031478 -1.7907495 4288085770
4.2883911 2.6429818 -1.7902888 4288085770
4.5992813 2.8351841 -1.7906283 4288085770
10.562927 6.5420575 -1.7969735 4288085770
4.2474518 2.6139531 -1.7913728 4288085770
4.658287 2.8682232 -1.7885 4288085770
4.2055206 2.582926 -1.7904571 4288085770
8.3628311 5.1636362 -1.7816321 4288085770
4.7243118 2.904264 -1.7893554 4288085770
4.1745987 2.5579016 -1.7935178 4288085770
4.7753448 2.9292994 -1.7842411 4288085770
10.920982 6.7252817 -1.8021775 4288085770
4.1336823 2.5268741 -1.7925998 4288085770
4.8353806 2.9593408 -1.7801074 4288085770
9.2766266 5.7002287 -1.7806642 4288085770
8.5659637 5.2517662 -1.7781662 4288085770
4.1007843 2.4988503 -1.7926629 4288085770
4.9194489 3.0023901 -1.7829208 4288085770
11.328033 6.9345336 -1.8112733 4288085770
4.0698929 2.4718275 -1.7927217 4288085770
4.9925079 3.037436 -1.7817564 4288085770
4.0390167 2.4438057 -1.7927797 4288085770
8.7881088 5.3479052 -1.7766564 4288085770
5.0795898 3.0794883 -1.7845609 4288085770
9.1809998 5.5831537 -1.7838143 4288085770
11.774101 7.1618094 -1.8212804 4288085770
5.1626816 3.1175394 -1.7843724 4288085770
4.0111618 2.4157844 -1.7928293 4288085770
9.0312653 5.4530563 -1.778098 4288085770
5.2557602 3.1615968 -1.7851624 4288085770
12.113159 7.3190317 -1.812511 4288085770
3.9973145 2.3967669 -1.7988497 4288085770
9.071373 5.4580746 -1.7829947 4288085770
5.3348541 3.194648 -1.7809803 4288085770
3.9734573 2.3707485 -1.7988907 4288085770
5.3858948 3.2206786 -1.7828668 4288085770
5.4798737 3.2767341 -1.7886652 4288085770
5.3039169 3.1706283 -1.7790416 4288085770
5.5638504 3.3257873 -1.7904841 4288085770
5.2449722 3.1325862 -1.7821656 4288085770
13.275024 7.968751 -1.8469777 4288085770
12.651222 7.5913615 -1.8273114 4288085770
5.6518555 3.3758438 -1.7902931 4288085770
9.2924271 5.565218 -1.7794976 4288085770
5.1780243 3.088542 -1.7823056 4288085770
5.748848 3.4309034 -1.7940824 4288085770
5.1190872 3.0495031 -1.7824286 4288085770
5.4469757 3.245713 -1.7857255 4288085770
5.8598785 3.4909704 -1.7988386 4288085770
3.9526138 2.3457294 -1.7999245 4288085770
5.0551605 3.0054615 -1.7805604 4288085770
5.9618912 3.5460346 -1.7996147 4288085770
4.9922409 2.9614205 -1.7786897 4288085770
8.9647369 5.3359985 -1.7821696 4288085770
6.0669174 3.6011004 -1.8003824 4288085770
13.179276 7.8516908 -1.8371273 4288085770
