# .PCD v0.7 - Point Cloud Data file format
VERSION 0.7
FIELDS x y z rgb
SIZE 4 4 4 4
TYPE F F F U
COUNT 1 1 1 1
WIDTH 1126
HEIGHT 1
VIEWPOINT 0 0 0 1 0 0 0
POINTS 1126
DATA ascii
3.8137398 -0.010591079 -1.8333359 4288085770
4.054039 -0.012774905 -1.8285922 4288085770
3.7020946 -0.0099697895 -1.8342189 4288085770
3.9392953 -0.012778789 -1.8354751 4288085770
4.0548048 -0.014850087 -1.8336033 4288085770
5.821228 -0.031496853 -1.8374902 4288085770
3.9451513 -0.014469387 -1.8314893 4288085770
4.1884217 -0.016948054 -1.8357502 4288085770
10.533076 -0.077844977 -1.8925334 4288085770
4.7975416 -0.023774082 -1.8424063 4288085770
4.3229232 -0.020162139 -1.8359036 4288085770
6.0599632 -0.038475715 -1.8447686 4288085770
3.8310742 -0.017600367 -1.8313885 4288085770
4.457314 -0.02437914 -1.8340616 4288085770
6.2865553 -0.046115056 -1.8460379 4288085770
4.6007586 -0.028609587 -1.8342292 4288085770
16.877176 -0.16201243 -1.9084299 4288085770
3.7210841 -0.02018982 -1.8312891 4288085770
4.7671666 -0.034424707 -1.8384281 4288085770
6.5310345 -0.055787362 -1.8473355 4288085770
14.136149 -0.14808464 -1.9445609 4288085770
4.9324722 -0.041134864 -1.8396301 4288085770
6.0047207 -0.055306487 -1.8507956 4288085770
6.793622 -0.065500848 -1.8496517 4288085770
5.10076 -0.048188739 -1.839837 4288085770
7.0861282 -0.077594519 -1.8550103 4288085770
5.2758908 -0.057026222 -1.8400598 4288085770
16.037573 -0.20838548 -1.9187995 4288085770
4.9178805 -0.054561332 -1.8406819 4288085770
7.4004974 -0.092172578 -1.8604034 4288085770
5.4690189 -0.066893637 -1.8423058 4288085770
10.914481 -0.14933617 -1.8982749 4288085770
7.7317572 -0.10867061 -1.8658231 4288085770
5.6559658 -0.078094289 -1.8395522 4288085770
14.808951 -0.23260701 -1.9436634 4288085770
6.1818008 -0.09152253 -1.8521557 4288085770
8.0800219 -0.12609984 -1.8702649 4288085770
17.45866 -0.28843123 -1.9156442 4288085770
5.8890595 -0.090468012 -1.8468513 4288085770
8.4520235 -0.14723755 -1.8737493 4288085770
6.0998535 -0.1043742 -1.8451355 4288085770
5.0413094 -0.084694028 -1.8389573 4288085770
16.801088 -0.31829849 -1.9201189 4288085770
8.8530636 -0.16965894 -1.8782692 4288085770
6.3365908 -0.12020382 -1.8474554 4288085770
11.395915 -0.22611204 -1.9141446 4288085770
6.3567848 -0.12851565 -1.8515171 4288085770
15.419465 -0.32520705 -1.9287415 4288085770
9.3229971 -0.1968586 -1.8898833 4288085770
6.5822706 -0.13705458 -1.8487895 4288085770
5.186707 -0.11629824 -1.8412625 4288085770
6.871891 -0.1568538 -1.857183 4288085770
9.7505341 -0.22533323 -1.8894601 4288085770
18.047422 -0.42174187 -1.9168996 4288085770
17.684284 -0.43777061 -1.9256074 4288085770
7.148262 -0.17820342 -1.8575708 4288085770
10.214836 -0.25799578 -1.887095 4288085770
6.5516376 -0.16776234 -1.8519101 4288085770
11.897876 -0.30824843 -1.9280614 4288085770
16.124481 -0.42751771 -1.9189638 4288085770
7.4424086 -0.2025792 -1.8579912 4288085770
10.736111 -0.29409596 -1.8888048 4288085770
5.3540721 -0.14937414 -1.8475971 4288085770
7.7494707 -0.22841808 -1.8594321 4288085770
11.411399 -0.33857027 -1.9067132 4288085770
6.7736511 -0.20705876 -1.8563309 4288085770
18.604794 -0.56553537 -1.9251741 4288085770
8.1285172 -0.25837591 -1.8689669 4288085770
12.495779 -0.39622068 -1.9501046 4288085770
17.077469 -0.5438267 -1.9305079 4288085770
12.141452 -0.38826707 -1.9237034 4288085770
5.5033321 -0.18243785 -1.8469131 4288085770
8.4762068 -0.28984299 -1.8694769 4288085770
13.076417 -0.45010084 -1.9589624 4288085770
7.0033894 -0.24925478 -1.8587736 4288085770
8.90769 -0.32777247 -1.8791041 4288085770
13.950657 -0.5151884 -1.9741749 4288085770
5.6895742 -0.21765934 -1.8532776 4288085770
13.16919 -0.49275568 -1.9762669 4288085770
17.995876 -0.67236388 -1.9290762 4288085770
9.3629084 -0.36941031 -1.887774 4288085770
7.2541046 -0.29282403 -1.8622446 4288085770
14.730054 -0.5826754 -1.9683019 4288085770
5.852632 -0.25330186 -1.8516201 4288085770
9.8047667 -0.41358691 -1.8894424 4288085770
15.449723 -0.65352941 -1.9423842 4288085770
13.817863 -0.59458441 -1.9904294 4282675967
7.5187273 -0.3379693 -1.8667375 4288085770
10.262301 -0.46157658 -1.8871454 4288085770
16.424204 -0.74016047 -1.9388043 4288085770
6.0307026 -0.28963539 -1.8519814 4288085770
10.78243 -0.51666117 -1.8889472 4288085770
7.8272905 -0.3860774 -1.8752896 4288085770
17.580963 -0.84345526 -1.941492 4288085770
14.427886 -0.700131 -1.9915705 4282675967
6.2247839 -0.32678229 -1.852363 4288085770
11.425323 -0.58060598 -1.903918 4288085770
8.1376152 -0.43641219 -1.8808544 4288085770
12.143615 -0.65411681 -1.9210124 4288085770
14.980277 -0.80824333 -1.9796649 4288085770
6.4306736 -0.36627752 -1.8527682 4288085770
8.4728937 -0.48857683 -1.8864534 4288085770
13.067363 -0.74384522 -1.9573964 4288085770
6.6505861 -0.40635556 -1.8541901 4288085770
15.595262 -0.92347449 -1.9668581 4288085770
8.8548689 -0.54603457 -1.8951261 4288085770
13.979292 -0.84034562 -1.9798013 4288085770
6.896327 -0.44935495 -1.8586531 4288085770
14.689509 -0.93218637 -1.9689765 4288085770
9.2606878 -0.60620224 -1.9038364 4288085770
16.414597 -1.0558182 -1.9703438 4288085770
7.1629333 -0.49472579 -1.8631487 4288085770
15.423129 -1.0307395 -1.9522088 4288085770
3.7407751 -0.28496903 -1.8356274 4288085770
9.7143087 -0.67078722 -1.9146169 4288085770
7.4764566 -0.54338831 -1.8737082 4288085770
17.358124 -1.2022575 -1.978025 4288085770
16.39863 -1.1526779 -1.9528025 4288085770
10.113838 -0.73331529 -1.911332 4288085770
3.8306403 -0.30927521 -1.8338397 4288085770
7.7638168 -0.5921334 -1.8762414 4288085770
17.589844 -1.2980745 -1.9647315 4288085770
10.542072 -0.80012137 -1.9060973 4288085770
18.303858 -1.3560474 -1.9737444 4288085770
3.9334202 -0.33503488 -1.8350722 4288085770
8.0361662 -0.64022154 -1.869756 4288085770
11.012146 -0.87067193 -1.9019233 4288085770
4.0360885 -0.36179256 -1.8353096 4288085770
8.4361286 -0.69868892 -1.8844519 4288085770
11.59074 -0.95151097 -1.9049106 4288085770
4.1348948 -0.38711971 -1.8325359 4288085770
8.7970104 -0.75579029 -1.8871009 4288085770
12.29176 -1.0441946 -1.9200811 4288085770
9.2137566 -0.81721431 -1.892828 4288085770
4.2476082 -0.41401321 -1.8327839 4288085770
13.146125 -1.1512454 -1.9444784 4288085770
9.6471691 -0.88255423 -1.8965913 4288085770
4.368269 -0.44180527 -1.8340443 4288085770
14.021023 -1.2636911 -1.9599228 4288085770
10.102443 -0.95038825 -1.8983887 4288085770
14.870759 -1.3763665 -1.9603424 4288085770
4.4938965 -0.47016174 -1.8353127 4288085770
10.581564 -1.020947 -1.8972239 4288085770
15.772935 -1.4970473 -1.9538546 4288085770
3.8826647 -0.428828 -1.8414875 4288085770
4.6325488 -0.49898311 -1.8385966 4288085770
11.152202 -1.1008722 -1.9021986 4288085770
16.969648 -1.6470838 -1.967811 4288085770
3.9954872 -0.45471841 -1.8437307 4288085770
4.7739611 -0.53013963 -1.8398945 4288085770
11.780354 -1.1883308 -1.9092686 4288085770
18.290565 -1.8112601 -1.9769635 4288085770
4.1014686 -0.47884923 -1.840958 4288085770
12.512941 -1.2866335 -1.9204983 4288085770
4.9115119 -0.55986571 -1.8381816 4288085770
13.471395 -1.4074932 -1.952069 4288085770
4.2262135 -0.5060994 -1.8422199 4288085770
5.0639639 -0.59127581 -1.8384919 4288085770
14.270341 -1.5154166 -1.9494132 4288085770
4.3320856 -0.53124297 -1.8354521 4288085770
15.191497 -1.6372107 -1.9509499 4288085770
5.243125 -0.62670362 -1.8438493 4288085770
17.477699 -1.8890247 -1.9485158 4288085770
16.119305 -1.7538152 -1.9334675 4288085770
15.012506 -1.6451458 -1.9278063 4288085770
16.31048 -1.780449 -1.9597934 4288085770
4.4738274 -0.55940479 -1.8397355 4288085770
14.075608 -1.5557666 -1.9264127 4288085770
12.844963 -1.430075 -1.9055412 4288085770
13.818696 -1.5315979 -1.9260321 4288085770
12.004368 -1.3436598 -1.8902603 4293729569
14.729518 -1.6290841 -1.9264389 4288085770
11.323733 -1.2753721 -1.8862313 4288085770
5.4174337 -0.66059309 -1.8451942 4288085770
15.843022 -1.7495631 -1.9361651 4288085770
13.05207 -1.4586624 -1.9018927 4293729569
10.65591 -1.2095797 -1.8752278 4288085770
17.136255 -1.8914552 -1.9501798 4288085770
10.121221 -1.1588708 -1.874434 4288085770
17.606323 -1.9437737 -1.971916 4288085770
12.25429 -1.3851278 -1.8937187 4293729569
9.6153488 -1.1114464 -1.8716859 4288085770
11.548031 -1.3209794 -1.8876841 4288085770
4.6225247 -0.58836198 -1.8430301 4288085770
9.129241 -1.0672935 -1.8649737 4288085770
5.6006823 -0.69549388 -1.847553 4288085770
8.6968966 -1.0282259 -1.8623415 4288085770
10.868494 -1.2608976 -1.8766967 4288085770
8.3061733 -0.99489439 -1.85978 4288085770
10.302334 -1.2126573 -1.873883 4288085770
4.7622828 -0.61632699 -1.8413105 4288085770
7.9381914 -0.96515369 -1.8572593 4288085770
5.7828288 -0.73129451 -1.845915 4288085770
9.7888355 -1.1704023 -1.8711525 4288085770
7.6041021 -0.93824935 -1.856787 4288085770
9.3062544 -1.1306695 -1.865466 4288085770
4.9178238 -0.64707756 -1.8426205 4288085770
5.9947767 -0.77045846 -1.8493236 4288085770
7.2907686 -0.91471469 -1.8553524 4288085770
8.883173 -1.098676 -1.8658782 4288085770
5.0804319 -0.67763007 -1.8429368 4288085770
6.9992952 -0.89366454 -1.8539525 4288085770
6.2286921 -0.81110358 -1.8547623 4288085770
8.4780941 -1.0677418 -1.8623139 4288085770
4.8727803 -3.7353988 -1.7329183 4293729569
3.3182454 -2.7839515 -1.6935095 4293729569
3.9073567 -3.1494188 -1.7265824 4293729569
5.6081061 -4.1952877 -1.7395232 4293729569
4.710855 -3.6644595 -1.7294877 4293729569
3.7870898 -3.1013746 -1.7252847 4293729569
3.2580194 -2.7831345 -1.6764697 4293729569
4.5803356 -3.6091714 -1.7341497 4293729569
5.6194024 -4.2639899 -1.7418535 4293729569
3.6406097 -3.0362735 -1.7138908 4293729569
4.4667854 -3.5638716 -1.7418689 4293729569
3.5009689 -2.972966 -1.7025093 4293729569
3.2362351 -2.8068049 -1.6725686 4293729569
4.3403544 -3.5080614 -1.7435306 4293729569
5.6419334 -4.3400173 -1.7452253 4293729569
4.1889286 -3.4333179 -1.7360884 4293729569
3.3689332 -2.9135466 -1.6921508 4293729569
3.2511339 -2.8527524 -1.6807944 4293729569
4.0740747 -3.3818541 -1.7387778 4293729569
3.1987958 -2.8266704 -1.66664 4293729569
5.6513577 -4.4075122 -1.744549 4293729569
3.9434767 -3.3185534 -1.7334018 4293729569
3.0484915 -2.7511137 -1.6451945 4293729569
3.2369533 -2.8803074 -1.678916 4293729569
3.8001113 -3.2437451 -1.7229639 4293729569
2.9527149 -2.708915 -1.6419389 4293729569
3.6810904 -3.1847949 -1.7176155 4293729569
5.6758757 -4.4837737 -1.746923 4293729569
3.5801411 -3.1349447 -1.7173206 4293729569
2.8619013 -2.6672833 -1.6396888 4293729569
3.2359924 -2.9154022 -1.6810811 4293729569
3.4502268 -3.0657134 -1.7059171 4293729569
2.7953186 -2.642489 -1.6455327 4293729569
5.6946621 -4.5573721 -1.7472811 4293729569
3.3055615 -2.9847593 -1.6864495 4293729569
2.7149754 -2.6060817 -1.6443135 4293729569
3.1246676 -2.8775694 -1.6518365 4293729569
3.2069459 -2.9322231 -1.6721431 4293729569
2.9691105 -2.7863436 -1.6243138 4293729569
2.6488452 -2.5773244 -1.6481388 4293729569
2.8988037 -2.7500713 -1.6261013 4293729569
5.7170796 -4.6344023 -1.7486576 4293729569
2.6014385 -2.5607557 -1.658033 4293729569
2.8229933 -2.7091558 -1.6248636 4293729569
3.2527952 -2.9977899 -1.6894799 4293729569
2.7324305 -2.6565127 -1.6165614 4293729569
2.6662097 -2.6197138 -1.6163489 4293729569
2.627193 -2.600086 -1.6262335 4293729569
2.5872974 -2.5793557 -1.6351123 4293729569
5.7368603 -4.7081246 -1.7470169 4293729569
3.2510681 -3.0307934 -1.6896347 4293729569
2.5401387 -2.5517752 -1.6389542 4293729569
2.494853 -2.5254126 -1.6438031 4293729569
3.2660789 -3.075762 -1.6948558 4293729569
5.7722731 -4.7946959 -1.7494459 4293729569
3.2849464 -3.1221759 -1.7010859 4293729569
3.3055744 -3.1708047 -1.7073277 4293729569
3.316186 -3.2102551 -1.7085203 4293729569
3.3444152 -3.2627726 -1.7157848 4293729569
2.349544 -2.5571113 -1.6158674 4293729569
3.3447857 -3.2950306 -1.7119372 4293729569
2.3252668 -2.5674517 -1.6039017 4293729569
3.3638792 -3.3394721 -1.7151582 4293729569
2.3085899 -2.5816674 -1.5959593 4293729569
3.3718514 -3.3756192 -1.7123334 4293729569
2.3132739 -2.6113803 -1.5971023 4293729569
3.3890729 -3.418853 -1.7125478 4293729569
2.2957182 -2.6244974 -1.5871539 4293729569
3.4241362 -3.4731684 -1.7188249 4293729569
2.2728834 -2.6309798 -1.575171 4293729569
3.4480791 -3.5191839 -1.7200562 4293729569
2.2545609 -2.6420009 -1.5642123 4293729569
3.486774 -3.5769358 -1.7263514 4293729569
3.5174389 -3.6257374 -1.7275999 4293729569
2.2373443 -2.6521487 -1.55225 4293729569
3.5423751 -3.6718762 -1.7268322 4293729569
2.2193589 -2.6601956 -1.5402775 4293729569
3.5740314 -3.7207963 -1.7270818 4293729569
2.2126069 -2.6755533 -1.5323459 4293729569
2.4741392 -2.8896782 -1.3345079 4293729569
2.194736 -2.6826112 -1.5193688 4293729569
2.3061075 -2.7760699 -1.2668724 4293729569
2.1889763 -2.6980884 -1.5104383 4293729569
2.2823014 -2.7734082 -1.2498457 4293729569
2.4011683 -2.8809874 -0.95841992 4293729569
2.2613606 -2.7720823 -1.2328269 4293729569
2.1916976 -2.7185519 -1.5045365 4293729569
2.2452688 -2.7723157 -1.2168186 4293729569
2.308969 -2.8251007 -0.95810211 4293729569
2.3285384 -2.8491535 -0.81122535 4293729569
2.187922 -2.7342525 -1.4966084 4293729569
2.2338014 -2.7760961 -1.2018296 4293729569
2.2767749 -2.8163059 -0.9710418 4293729569
2.2941532 -2.8330681 -0.82312948 4293729569
2.2242064 -2.7810972 -1.1868473 4293729569
2.1705017 -2.7373521 -1.4806129 4293729569
2.2848973 -2.8351085 -0.80413347 4293729569
2.2782645 -2.8311625 -0.84011137 4293729569
2.2558122 -2.8148267 -0.98702282 4293729569
2.2175879 -2.7864368 -1.1728685 4293729569
2.3034177 -2.8604445 -0.57026124 4293729569
2.2606163 -2.8270509 -0.8550818 4293729569
2.1550655 -2.740675 -1.4656193 4293729569
2.2129545 -2.7920043 -1.158892 4293729569
2.2320986 -2.8110235 -1.0019913 4293729569
2.2477055 -2.8254874 -0.87206709 4293729569
2.253808 -2.8346226 -0.78811288 4293729569
2.2036967 -2.7940307 -1.1428961 4293729569
2.1452451 -2.7476535 -1.4526465 4293729569
2.2330346 -2.8217139 -0.88804096 4293729569
2.2614317 -2.849654 -0.55318546 4293729569
2.2011595 -2.7988336 -1.1289171 4293729569
2.2158737 -2.8120973 -1.0189872 4293729569
2.2239799 -2.8216004 -0.90503532 4293729569
2.1967521 -2.8024242 -1.1129313 4293729569
2.2177911 -2.822823 -0.92203772 4293729569
2.1364174 -2.7547462 -1.4396747 4293729569
2.191576 -2.8039093 -1.0979351 4293729569
2.1988821 -2.811075 -1.0349725 4293729569
2.2210717 -2.830929 -0.77207607 4293729569
2.2117143 -2.8230565 -0.93803537 4293729569
2.1928964 -2.8101668 -1.0829653 4293729569
2.2057495 -2.8222926 -0.95502847 4293729569
2.1953216 -2.815541 -1.0689919 4293729569
2.2296867 -2.8460703 -0.53814995 4293729569
2.2035298 -2.823972 -0.97203541 4293729569
2.13695 -2.7679384 -1.4287372 4293729569
2.1931224 -2.8173733 -1.0529991 4293729569
2.1995502 -2.823441 -0.98803073 4293729569
2.1957836 -2.8208442 -1.0210167 4293729569
2.2012987 -2.8255768 -1.0050421 4293729569
2.1939011 -2.8195484 -1.0370096 4293729569
2.1892657 -2.8159235 -1.0529901 4293729569
2.1301069 -2.7752595 -1.4157677 4293729569
2.2068324 -2.841424 -0.75911731 4293729569
2.1780024 -2.8175683 -1.0699914 4293729569
2.2055445 -2.8463793 -0.52313709 4293729569
2.1272335 -2.7830379 -1.4028025 4293729569
2.1677318 -2.8193274 -1.0869938 4293729569
2.2313204 -2.8803205 -0.1303079 4293729569
2.1216073 -2.788491 -1.3888249 4293729569
2.1648369 -2.8269565 -1.1060286 4293729569
2.1843381 -2.8449416 -0.74412054 4293729569
2.1886649 -2.8535523 -0.51016104 4293729569
2.1520386 -2.8244047 -1.1220092 4293729569
2.1261091 -2.8021398 -1.377892 4293729569
2.1924038 -2.8687313 -0.14523062 4293729569
2.1217008 -2.8057258 -1.362906 4293729569
2.1502481 -2.8311551 -1.1410402 4293729569
2.1703243 -2.8534503 -0.73115242 4293729569
2.1155329 -2.807101 -1.3469088 4293729569
2.1431794 -2.8312697 -1.1580368 4293729569
2.1665077 -2.85409 -0.49515051 4293729569
2.1444778 -2.8373692 -1.1770667 4293729569
2.1167402 -2.8143432 -1.3339436 4293729569
2.1144285 -2.8171639 -1.3189554 4293729569
2.136529 -2.8363819 -1.1930578 4293729569
2.1718755 -2.8723421 -0.15923591 4293729569
2.1370611 -2.8403857 -1.2110771 4293729569
2.1158619 -2.8224285 -1.3039809 4293729569
2.1165276 -2.825592 -1.2889961 4293729569
2.1303291 -2.8375254 -1.2270597 4293729569
2.156311 -2.861964 -0.71718442 4293729569
2.1238008 -2.8325303 -1.275033 4293729569
2.1247029 -2.833791 -1.2420391 4293729569
2.1245794 -2.8347049 -1.2590436 4293729569
2.1553593 -2.8639393 -0.48119038 4293729569
2.1506915 -2.8728592 -0.17322621 4293729569
2.1425223 -2.8684905 -0.70320702 4293729569
2.1444345 -2.8717973 -0.46822101 4293729569
2.1387572 -2.8804734 -0.1882554 4293729569
2.1317506 -2.877445 -0.45424014 4293729569
2.1323652 -2.8784492 -0.69024807 4293729569
2.1269341 -2.8870943 -0.20327999 4293729569
2.121819 -2.8854222 -0.44027191 4293729569
2.1214414 -2.8863122 -0.67627865 4293729569
2.1270385 -2.8970256 -0.014324753 4293729569
2.1159916 -2.8948221 -0.21831031 4293729569
2.1166239 -2.8959517 -0.42731848 4293729569
2.1225181 -2.9035957 -0.66436088 4293729569
2.1200652 -2.9052107 -0.029359551 4293729569
2.1107779 -2.9052217 -0.23335662 4293729569
2.1115413 -2.9054928 -0.41336048 4293729569
2.1081872 -2.9060404 -0.64936388 4293729569
2.1039553 -2.9053056 -0.043350801 4293729569
2.1029387 -2.9106042 -0.39937946 4293729569
2.1047969 -2.9135208 -0.24839252 4293729569
2.0963264 -2.9103963 -0.058370598 4293729569
2.1103678 -2.9224451 -0.63744253 4293729569
2.1008325 -2.9204831 -0.38642475 4293729569
2.0988145 -2.9218152 -0.26442841 4293729569
2.0878172 -2.9143794 -0.07338465 4293729569
2.1035252 -2.9297712 -0.62347299 4293729569
2.0942154 -2.9258275 -0.37144598 4293729569
2.0866857 -2.924243 -0.088430777 4293729569
2.0974584 -2.9336643 -0.2794838 4293729569
2.0995474 -2.9384332 -0.60951149 4293729569
2.0959654 -2.9371569 -0.35850036 4293729569
2.0875368 -2.9343297 -0.10447913 4293729569
2.0934606 -2.9421873 -0.29552197 4293729569
2.0859413 -2.9370823 -0.34249404 4293729569
2.0956812 -2.9461019 -0.59554529 4293729569
2.0821176 -2.9376664 -0.11849191 4293729569
2.0879164 -2.9464247 -0.32953915 4293729569
2.0878158 -2.9475064 -0.31054398 4293729569
2.0785694 -2.9422166 -0.13451153 4293729569
2.0964394 -2.9573166 -0.58259857 4293729569
2.0862603 -2.9523404 -0.31456599 4293729569
2.0733738 -2.9435623 -0.14951505 4293729569
2.0860281 -2.9542706 -0.3265751 4293729569
2.0857091 -2.957376 -0.29958931 4293729569
2.093678 -2.9641066 -0.56862885 4293729569
2.0783072 -2.9531174 -0.16456327 4293729569
2.0861483 -2.9625218 -0.28561369 4293729569
2.0779605 -2.9560275 -0.17957698 4293729569
2.0851202 -2.9621472 -0.34161195 4293729569
2.0849419 -2.9644639 -0.27062196 4293729569
2.0776138 -2.9589372 -0.1945907 4293729569
2.0965333 -2.9745612 -0.55467975 4293729569
2.0837345 -2.9664061 -0.25563028 4293729569
2.0746279 -2.9585254 -0.2095872 4293729569
2.0736256 -2.9583414 -0.22458594 4293729569
2.0799999 -2.9640326 -0.24061671 4293729569
2.0834432 -2.9679184 -0.35763845 4293729569
2.0939965 -2.9793642 -0.54070085 4293729569
2.0873847 -2.9773591 -0.37268555 4293729569
2.090693 -2.9820712 -0.52571154 4293729569
2.0850534 -2.9800363 -0.38869706 4293729569
2.0966372 -2.9918752 -0.51176113 4293729569
2.0900979 -2.9885933 -0.4047406 4293729569
2.0961976 -2.9959173 -0.4967798 4293729569
2.0897512 -2.9915035 -0.4197543 4293729569
2.0922389 -2.9955308 -0.48177552 4293729569
2.0940084 -2.9978154 -0.46678719 4293729569
2.0940285 -2.9979596 -0.43578753 4293729569
2.0948982 -2.9989924 -0.45179304 4293729569
10.82375 6.4853497 -1.6631881 4288085770
10.542166 6.2986188 -1.6638614 4288085770
10.27539 6.1182761 -1.6645163 4288085770
10.097449 5.9853654 -1.6750164 4288085770
9.9545307 5.8686733 -1.6904677 4288085770
9.8297319 5.7610111 -1.7048908 4288085770
9.6972027 5.6471696 -1.7183375 4288085770
9.5284376 5.5152192 -1.7238413 4288085770
9.3052073 5.3551216 -1.7194355 4288085770
8.9753704 5.1414886 -1.6951985 4288085770
8.7353573 4.9751902 -1.6838082 4288085770
8.6028423 4.861299 -1.6872554 4288085770
3.502492 2.3572664 -1.8100699 4288085770
3.5482397 2.3792803 -1.8060021 4288085770
3.6024928 2.405386 -1.8049216 4288085770
3.6672401 2.4353549 -1.8058316 4288085770
3.4544263 2.332484 -1.8121494 4288085770
3.7318769 2.4643304 -1.8067462 4288085770
8.4691114 4.745533 -1.6907108 4288085770
3.4040418 2.3049352 -1.8122408 4288085770
3.792099 2.4897573 -1.8036747 4288085770
3.3525558 2.276494 -1.8103355 4288085770
3.8660173 2.5207109 -1.8045883 4288085770
3.3158693 2.2544706 -1.814412 4288085770
3.9398251 2.5506709 -1.8055067 4288085770
3.2693543 2.2254775 -1.8135141 4288085770
4.0230241 2.5836029 -1.8064189 4288085770
3.2218471 2.1965854 -1.8106147 4288085770
8.3536129 4.6398039 -1.696133 4288085770
4.1071076 2.6154294 -1.8073376 4288085770
3.1795316 2.1691339 -1.8097132 4288085770
4.2143879 2.6567621 -1.81523 4288085770
3.1443973 2.142899 -1.810812 4288085770
4.2918444 2.6832767 -1.8121691 4288085770
3.1156707 2.1199753 -1.8129004 4288085770
8.2475071 4.5370412 -1.700549 4288085770
4.3680868 2.7079058 -1.8071164 4288085770
12.236992 6.388442 -1.6749729 4288085770
3.07833 2.0919611 -1.8110062 4288085770
4.4559274 2.7372854 -1.8050507 4288085770
3.0473976 2.0672581 -1.8101015 4288085770
4.5508394 2.7668793 -1.8029903 4288085770
8.1425085 4.4351616 -1.7049617 4288085770
4.6646509 2.8124263 -1.7938677 4288085770
4.5997891 2.7814937 -1.7989626 4288085770
4.7590089 2.8551719 -1.794741 4288085770
4.5243225 2.7456994 -1.8010719 4288085770
4.8383422 2.889523 -1.7916424 4288085770
4.4550443 2.7112184 -1.8021805 4288085770
4.9090614 2.9187839 -1.7845614 4288085770
3.018343 2.0413437 -1.8102045 4288085770
4.6350365 2.7906125 -1.7969495 4288085770
11.9427 6.1779795 -1.6737534 4288085770
4.3855453 2.6747508 -1.8032986 4288085770
4.9976768 2.9551079 -1.7804615 4288085770
4.3265405 2.6421468 -1.8064073 4288085770
5.0786719 2.9862304 -1.7723805 4288085770
4.2685308 2.6094315 -1.8095176 4288085770
4.7413259 2.8229594 -1.795886 4288085770
5.1774507 3.0234327 -1.7692857 4288085770
2.9966884 2.0186381 -1.8132982 4288085770
4.2136154 2.5773702 -1.8116273 4288085770
8.0577278 4.3430963 -1.711344 4288085770
5.2847357 3.0647159 -1.7671783 4288085770
4.1522956 2.5419886 -1.810748 4288085770
11.723985 6.0043406 -1.6774199 4288085770
4.8443007 2.8526561 -1.7938328 4288085770
5.3969927 3.1054378 -1.7640783 4288085770
4.0907545 2.5046203 -1.809878 4288085770
2.9780188 1.9955941 -1.8153967 4288085770
5.5017381 3.1419566 -1.7579925 4288085770
4.0344076 2.4686768 -1.8080058 4288085770
4.9449577 2.8795798 -1.7887913 4288085770
5.6158738 3.1814573 -1.7539003 4288085770
7.9878635 4.2584186 -1.7187033 4288085770
2.9446607 1.9671248 -1.8115084 4288085770
3.986455 2.4358311 -1.8091261 4288085770
11.556198 5.8541965 -1.6870158 4288085770
5.7519917 3.2285688 -1.7527905 4288085770
5.0474939 2.9052777 -1.7817575 4288085770
3.9277902 2.39712 -1.8052657 4288085770
2.9290862 1.9447395 -1.8136063 4288085770
5.8752966 3.2690444 -1.7467018 4288085770
3.8754234 2.3607266 -1.8023994 4288085770
7.919878 4.1725297 -1.7270705 4288085770
5.1541162 2.9315283 -1.7757246 4288085770
6.003572 3.3089674 -1.7416207 4288085770
2.9081006 1.9189279 -1.8137165 4288085770
11.446858 5.7317276 -1.7015275 4288085770
3.8293524 2.3266542 -1.8015277 4288085770
6.1433372 3.3526337 -1.7365315 4288085770
5.2743249 2.962307 -1.7726821 4288085770
3.793776 2.2964463 -1.8026462 4288085770
2.894516 1.8963201 -1.8158175 4288085770
6.3209915 3.4111962 -1.7374027 4288085770
7.852006 4.0876193 -1.7324328 4288085770
5.3963003 2.9908714 -1.7686518 4288085770
11.323599 5.6017575 -1.7140639 4288085770
3.7601895 2.2660153 -1.8037677 4288085770
6.487709 3.4619155 -1.7353029 4288085770
2.881927 1.8735958 -1.81692 4288085770
5.5245738 3.0217433 -1.7636161 4288085770
3.7148972 2.22983 -1.799907 4288085770
6.7198219 3.5395682 -1.7451292 4288085770
7.7777281 3.9993987 -1.7368058 4288085770
11.21835 5.4798307 -1.7275769 4288085770
2.870223 1.8497719 -1.8190287 4288085770
6.8743896 3.5805461 -1.7350669 4288085770
3.6979904 2.2045915 -1.8050179 4288085770
5.6705179 3.0577006 -1.7635714 4288085770
7.7234449 3.9190114 -1.744158 4288085770
7.102747 3.6515484 -1.738923 4288085770
2.8596239 1.8268249 -1.8201343 4288085770
3.6715875 2.1753681 -1.8061403 4288085770
5.8089528 3.0894456 -1.7585405 4288085770
11.039089 5.3259001 -1.7281815 4288085770
7.3350801 3.722101 -1.7417848 4288085770
3.6419811 2.1444864 -1.8062679 4288085770
2.8499098 1.8027736 -1.8212463 4288085770
5.953352 3.1205277 -1.7545186 4288085770
7.6618757 3.8364081 -1.7485148 4288085770
7.5669727 3.7886703 -1.742666 4288085770
10.817744 5.1555214 -1.7208294 4288085770
3.6185627 2.1149235 -1.8063945 4288085770
6.1154237 3.1566811 -1.7524878 4288085770
2.8413024 1.7795991 -1.8213547 4288085770
7.792345 3.8509212 -1.7395629 4288085770
3.5950346 2.0843675 -1.8065259 4288085770
7.5874929 3.747179 -1.749893 4288085770
10.474225 4.9363818 -1.6966083 4288085770
6.2941761 3.1980164 -1.7524463 4288085770
8.0362759 3.9171326 -1.737457 4288085770
2.8293819 1.7537731 -1.8204733 4288085770
3.5810051 2.0577912 -1.8096465 4288085770
6.4547005 3.229295 -1.7464383 4288085770
8.273469 3.9770386 -1.7313765 4288085770
7.497427 3.652647 -1.7472832 4288085770
2.8216591 1.7294941 -1.8205884 4288085770
10.299728 4.7889333 -1.6921853 4288085770
3.5531731 2.0246806 -1.8057868 4288085770
8.5441303 4.0483031 -1.72927 4288085770
6.6150036 3.2585809 -1.7394401 4288085770
2.8202324 1.7075368 -1.8226975 4288085770
3.5348392 1.9955542 -1.8059161 4288085770
7.4064798 3.5592093 -1.7426671 4288085770
8.8300352 4.1208735 -1.7261714 4288085770
10.174836 4.6621151 -1.6947047 4288085770
6.8180552 3.3012185 -1.7394147 4288085770
3.5236859 1.9676412 -1.8070461 4288085770
2.8175926 1.6836994 -1.8238151 4288085770
9.1103067 4.1880198 -1.7190943 4288085770
7.3428202 3.4758158 -1.7430263 4288085770
7.0377865 3.3490334 -1.7403789 4288085770
10.056686 4.5415788 -1.6961992 4288085770
3.5020413 1.935854 -1.8041856 4288085770
9.4008493 4.2570329 -1.7120175 4288085770
2.8117514 1.6581992 -1.822938 4288085770
7.2624826 3.3962965 -1.7423502 4288085770
7.3012533 3.4010315 -1.7473626 4288085770
3.4939823 1.9086046 -1.8063152 4288085770
9.9760952 4.4329529 -1.7026688 4288085770
9.7181225 4.3311033 -1.7059401 4288085770
2.8154087 1.6366789 -1.8250496 4288085770
7.4720497 3.4341617 -1.7383548 4288085770
10.039261 4.4037266 -1.6978735 4288085770
3.4826121 1.8786942 -1.8054551 4288085770
7.2334003 3.3160818 -1.7447255 4288085770
9.9242277 4.3382239 -1.7120955 4288085770
2.8157535 1.612507 -1.8261718 4288085770
7.719058 3.482945 -1.7393392 4288085770
10.396629 4.4853821 -1.6927954 4288085770
3.471242 1.8487837 -1.8045948 4288085770
7.1876402 3.2397416 -1.746066 4288085770
7.99821 3.5402124 -1.743311 4288085770
2.8183084 1.5900946 -1.8262869 4288085770
9.8721418 4.2414985 -1.719532 4288085770
10.79553 4.5784883 -1.6896981 4288085770
3.4745631 1.8242887 -1.8077213 4288085770
8.3158007 3.6082909 -1.7532644 4288085770
11.230551 4.6796284 -1.6885941 4288085770
7.1672869 3.1746564 -1.7513738 4288085770
2.8196492 1.5658064 -1.8264107 4288085770
9.8264656 4.1480842 -1.7279581 4288085770
3.4620914 1.7934862 -1.8048645 4288085770
8.606657 3.6622219 -1.7542636 4288085770
11.766641 4.8117275 -1.6944288 4288085770
2.8271756 1.5428474 -1.8285333 4288085770
7.1415224 3.1061497 -1.7556937 4288085770
3.4643083 1.7681088 -1.8079944 4288085770
9.7871962 4.0579743 -1.7363735 4288085770
8.9107685 3.717685 -1.7552675 4288085770
12.481347 5.0023689 -1.7191355 4288085770
2.8264198 1.5177789 -1.826659 4288085770
3.4632139 1.7400705 -1.8081344 4288085770
7.1366358 3.0443721 -1.7629992 4288085770
9.7675905 3.9727092 -1.745783 4288085770
13.162467 5.1715765 -1.7339184 4288085770
9.2269154 3.7728112 -1.7572843 4288085770
2.6672268 1.4351264 -1.8469267 4288085770
2.830636 1.4921587 -1.825792 4288085770
3.4653234 1.7136849 -1.8082694 4288085770
2.6769719 1.4319217 -1.8259517 4288085770
13.714897 5.2877011 -1.726848 4288085770
7.0971794 2.9703341 -1.7623341 4288085770
9.5477018 3.8243854 -1.7563231 4288085770
9.7387104 3.8854551 -1.753194 4288085770
2.725369 1.4415647 -1.8209484 4288085770
2.7999382 1.4604 -1.8269233 4288085770
3.4684267 1.6871929 -1.8094057 4288085770
2.8339691 1.4676386 -1.8239187 4288085770
14.298032 5.4084334 -1.7197827 4288085770
2.8690972 1.4757988 -1.8289106 4288085770
9.8608646 3.8707597 -1.7513808 4288085770
7.0977068 2.9119685 -1.7686279 4288085770
2.926662 1.4864365 -1.8259107 4288085770
9.7328043 3.8057013 -1.7635887 4288085770
2.8285704 1.4461122 -1.8230222 4288085770
2.8798275 1.463515 -1.8249824 4288085770
2.7897902 1.432375 -1.8280553 4288085770
2.9309778 1.4799094 -1.8239477 4288085770
2.752007 1.4185166 -1.8310897 4288085770
2.9852209 1.4969629 -1.8229125 4288085770
3.006094 1.5037118 -1.829898 4288085770
2.6932421 1.3969065 -1.8251436 4288085770
3.0404592 1.5139056 -1.8218787 4288085770
3.469214 1.6579287 -1.8075536 4288085770
2.6939988 1.3949078 -1.8451546 4288085770
14.896848 5.525382 -1.709751 4288085770
3.1017718 1.5311836 -1.822849 4288085770
2.8422732 1.4425715 -1.8240528 4288085770
3.1577864 1.5460178 -1.8198266 4288085770
10.173361 3.9111643 -1.7444681 4288085770
3.0739312 1.5162265 -1.8288984 4288085770
3.2086105 1.5594074 -1.8138065 4288085770
3.2729087 1.5763409 -1.8127815 4288085770
7.0687447 2.8417895 -1.7689534 4288085770
3.1458545 1.5292894 -1.8278999 4288085770
3.3391962 1.593047 -1.8107592 4288085770
9.6997309 3.7168863 -1.7670037 4288085770
15.548129 5.6525545 -1.7007167 4288085770
3.4137669 1.611853 -1.810734 4288085770
3.4846888 1.634089 -1.8116884 4288085770
3.2155709 1.5405781 -1.8249081 4288085770
2.8600736 1.4214891 -1.8281759 4288085770
10.494802 3.9505661 -1.7375685 4288085770
3.489223 1.6295488 -1.8097156 4288085770
3.5656729 1.6471332 -1.8086982 4288085770
3.2789931 1.5495399 -1.8189222 4288085770
3.6493025 1.6659306 -1.8086817 4288085770
16.326988 5.8137498 -1.6986302 4288085770
7.093132 2.789829 -1.7802371 4288085770
9.6875324 3.6348059 -1.7744043 4288085770
3.354784 1.561159 -1.8169345 4288085770
3.7360249 1.6853868 -1.8086648 4288085770
3.4905567 1.6052713 -1.811839 4288085770
10.863626 3.9997635 -1.7336638 4288085770
2.862195 1.3950834 -1.824311 4288085770
3.8257298 1.7045094 -1.8086522 4288085770
3.4346623 1.5733262 -1.8149478 4288085770
3.9152155 1.7216352 -1.8066494 4288085770
7.0893574 2.7289138 -1.7835397 4288085770
3.5133262 1.5836132 -1.8119694 4288085770
3.4986343 1.578218 -1.8119829 4288085770
9.6355715 3.5390399 -1.7748368 4288085770
4.0035977 1.7378739 -1.8036503 4288085770
11.208037 4.0375838 -1.7237933 4288085770
2.882978 1.3736675 -1.8284386 4288085770
4.1086564 1.7593054 -1.8046404 4288085770
3.6002746 1.5959944 -1.8099883 4288085770
4.2176914 1.7802911 -1.8056364 4288085770
3.7016883 1.6118091 -1.8130034 4288085770
3.5087004 1.5509419 -1.8121299 4288085770
11.60193 4.0859861 -1.7199159 4288085770
7.0937548 2.6691048 -1.7888443 4288085770
9.6004057 3.4494395 -1.7752539 4288085770
4.3131442 1.7967345 -1.8006426 4288085770
2.8964748 1.3500305 -1.8285705 4288085770
3.7936058 1.6236342 -1.8110296 4288085770
4.4260459 1.8162767 -1.8006496 4288085770
12.058667 4.1474795 -1.719031 4288085770
3.5270495 1.5257704 -1.8152739 4288085770
3.8968983 1.6382229 -1.8120527 4288085770
4.5367403 1.8340399 -1.7976633 4288085770
7.1012478 2.6099508 -1.7931489 4288085770
9.5318832 3.3494699 -1.7706923 4288085770
2.9046726 1.3239555 -1.8257097 4288085770
4.6619024 1.8552264 -1.7976735 4288085770
3.9936767 1.6484929 -1.8090912 4288085770
12.528214 4.2065339 -1.7181703 4288085770
4.7889433 1.875192 -1.7966915 4288085770
3.5349097 1.4967152 -1.8124276 4288085770
4.0988493 1.6618507 -1.8071221 4288085770
7.123208 2.55422 -1.8004495 4288085770
9.4177485 3.2374659 -1.7571486 4288085770
4.9242673 1.8972526 -1.7967066 4288085770
2.9346242 1.3035343 -1.8318408 4288085770
4.2005968 1.6715645 -1.8041682 4288085770
13.001291 4.2611547 -1.7143351 4288085770
5.0770402 1.922402 -1.7997224 4288085770
3.5500569 1.4698812 -1.8135772 4288085770
4.3178072 1.6845896 -1.8042119 4288085770
5.2316918 1.9463311 -1.8017461 4288085770
2.9522076 1.2804507 -1.832974 4288085770
7.1504726 2.5009122 -1.807743 4288085770
9.3713217 3.146086 -1.7525645 4288085770
13.588795 4.3402224 -1.7204837 4288085770
4.444294 1.6995984 -1.8052545 4288085770
5.3716559 1.9648348 -1.7977834 4288085770
3.5692925 1.4435946 -1.8147277 4288085770
5.5477338 1.9914027 -1.8018138 4288085770
4.5569773 1.7080824 -1.8013167 4288085770
2.9748716 1.2578089 -1.8351094 4288085770
9.3665361 3.0671747 -1.7549566 4288085770
7.171442 2.4452829 -1.8130424 4288085770
14.294038 4.446382 -1.7356054 4288085770
5.7195058 2.0154161 -1.8018531 4288085770
3.5791416 1.4143174 -1.8118845 4288085770
4.6987042 1.7244117 -1.8043668 4288085770
19.118303 5.7396574 -1.7305896 4288085770
5.9024324 2.0401971 -1.8028986 4288085770
2.9964337 1.2342752 -1.8352484 4288085770
9.36584 2.9888077 -1.7563499 4288085770
15.11856 4.5754356 -1.7597229 4288085770
7.1891003 2.3869977 -1.816352 4288085770
4.8350205 1.7373089 -1.8044291 4288085770
3.6024647 1.3885794 -1.8130362 4288085770
6.1142936 2.0718246 -1.8099371 4288085770
18.631714 5.4652405 -1.7285155 4288085770
4.9794002 1.7503093 -1.8044982 4288085770
3.0230742 1.2111933 -1.83839 4288085770
15.925075 4.687356 -1.7759098 4288085770
6.31213 2.0949302 -1.8100051 4288085770
9.4179373 2.9236774 -1.7657259 4288085770
7.2068682 2.3297062 -1.8196568 4288085770
3.6215911 1.3612901 -1.8121917 4288085770
5.1308465 1.7635289 -1.8055729 4288085770
6.5359192 2.1252072 -1.814061 4288085770
18.342735 5.2482257 -1.7413371 4288085770
16.639023 4.763309 -1.7781912 4288085770
5.2841706 1.7755275 -1.8056554 4288085770
3.0466242 1.1874369 -1.8385321 4288085770
6.756176 2.1508365 -1.8151374 4288085770
9.4452963 2.853251 -1.7711055 4288085770
7.2141457 2.2685456 -1.8199714 4288085770
3.64889 1.3351121 -1.8143495 4288085770
5.4424644 1.7869699 -1.8057454 4288085770
18.078289 5.0435457 -1.7531193 4288085770
6.9814024 2.1759043 -1.815221 4288085770
17.236988 4.8008771 -1.7645574 4288085770
3.0691795 1.163792 -1.8386726 4288085770
3.6772923 1.3098162 -1.8165038 4288085770
9.466362 2.7804933 -1.772491 4288085770
5.6017518 1.7982908 -1.8038368 4288085770
7.2235222 2.2081511 -1.8192841 4288085770
7.244729 2.2087986 -1.8203006 4288085770
17.867752 4.8529539 -1.7668813 4288085770
18.014097 4.8747797 -1.7659076 4288085770
5.7771626 1.8098325 -1.8049423 4288085770
3.0957122 1.1397021 -1.8388193 4288085770
7.4931469 2.2342865 -1.8204036 4288085770
3.700397 1.282077 -1.8146654 4288085770
9.4780388 2.7047596 -1.7728827 4288085770
7.2349987 2.1485279 -1.8185949 4288085770
5.9575443 1.8208128 -1.805055 4288085770
7.7536039 2.2594271 -1.8195195 4288085770
17.663071 4.6697445 -1.7786118 4288085770
18.726812 4.9216495 -1.7573339 4288085770
3.117054 1.1141766 -1.8379682 4288085770
3.7348747 1.2571117 -1.8178236 4288085770
8.012845 2.2826829 -1.8166437 4288085770
6.1388073 1.8306836 -1.8041743 4288085770
9.5020895 2.6316626 -1.7732729 4288085770
7.2671289 2.0936513 -1.8219012 4288085770
17.425596 4.4811301 -1.7853391 4288085770
8.3066511 2.3091226 -1.8167841 4288085770
6.3486738 1.8444161 -1.8083009 4288085770
3.1363001 1.0878659 -1.8341191 4288085770
3.7630601 1.2298139 -1.816988 4288085770
9.5654564 2.5682733 -1.779651 4288085770
7.2929659 2.036448 -1.8222133 4288085770
8.597146 2.332906 -1.8149348 4288085770
6.5622959 1.8557069 -1.810443 4288085770
16.991859 4.2470059 -1.7711127 4288085770
3.1648211 1.0635533 -1.8342688 4288085770
3.7963247 1.2029583 -1.8171548 4288085770
8.8894081 2.3544605 -1.8090984 4288085770
6.7686272 1.8647819 -1.8095894 4288085770
9.6265068 2.5021169 -1.7840408 4288085770
7.2950573 1.973833 -1.8175306 4288085770
16.68272 4.0472498 -1.7658296 4288085770
9.1759272 2.3696029 -1.8002887 4288085770
3.2015133 1.0403471 -1.8364205 4288085770
6.9961615 1.8745147 -1.8117526 4288085770
3.835773 1.1774317 -1.8193206 4288085770
9.6958389 2.4380553 -1.7894278 4288085770
9.4868507 2.3870511 -1.7934902 4288085770
7.3157043 1.9151896 -1.8158454 4288085770
7.2306538 1.8834634 -1.8129259 4288085770
16.449352 3.8682013 -1.7655128 4288085770
3.2309189 1.0149246 -1.8355767 4288085770
3.8721285 1.1512407 -1.8204869 4288085770
9.8200827 2.406024 -1.7867049 4288085770
7.4802752 1.8927343 -1.8151119 4288085770
9.7567797 2.3708956 -1.7918228 4288085770
7.3476171 1.8583075 -1.8151618 4288085770
16.319588 3.7158091 -1.7731587 4288085770
10.176507 2.4254227 -1.7809387 4288085770
3.9227309 1.1264864 -1.8246592 4288085770
3.26441 0.99005592 -1.8357338 4288085770
7.7561779 1.9030997 -1.8203167 4288085770
9.8536119 2.3097987 -1.7992206 4288085770
10.577878 2.4508698 -1.7791841 4288085770
7.3806353 1.8023068 -1.8144748 4288085770
16.198002 3.564508 -1.7798069 4288085770
3.9567704 1.097523 -1.8228375 4288085770
3.2959132 0.96540463 -1.834888 4288085770
8.022583 1.9094801 -1.8215327 4288085770
11.003213 2.4746356 -1.7764603 4288085770
9.9688902 2.2516708 -1.8076208 4288085770
7.4258013 1.7469624 -1.814796 4288085770
8.3050032 1.9150735 -1.8227677 4288085770
16.130314 3.4273064 -1.7904344 4288085770
4.004281 1.0720994 -1.8250103 4288085770
3.3294044 0.94053084 -1.8340451 4288085770
11.466208 2.5022388 -1.7757521 4288085770
8.6086216 1.9213251 -1.827019 4288085770
2.5858316 0.77951151 -1.8571649 4288085770
10.060313 2.1871374 -1.811031 4288085770
7.4782562 1.6938242 -1.8161128 4288085770
2.6110373 0.77961415 -1.8381877 4288085770
11.954049 2.5270555 -1.774081 4288085770
16.082071 3.2929513 -1.8000658 4288085770
4.0464926 1.0442375 -1.8241906 4288085770
3.3751531 0.91731638 -1.8362054 4288085770
2.6752172 0.78649849 -1.8362128 4288085770
2.6380749 0.77875477 -1.8702178 4288085770
2.6164622 0.77394927 -1.8322213 4288085770
2.6759968 0.78438032 -1.8322242 4288085770
2.7334347 0.79403102 -1.830229 4288085770
2.8031297 0.80534559 -1.832237 4288085770
2.7392883 0.79238451 -1.833243 4288085770
2.8860745 0.81821835 -1.8392497 4288085770
8.9580698 1.9325207 -1.835288 4288085770
2.95257 0.82786548 -1.8382629 4288085770
2.8105354 0.79949313 -1.8332736 4288085770
3.020061 0.83739603 -1.836278 4288085770
3.0957227 0.84803307 -1.8362948 4288085770
12.414609 2.5418177 -1.7654352 4288085770
3.1620026 0.85567319 -1.831318 4288085770
10.180337 2.1264615 -1.8184487 4288085770
2.9082837 0.80971748 -1.8433136 4288085770
7.5418653 1.6414534 -1.8184361 4288085770
3.2385502 0.8652004 -1.8303413 4288085770
4.0969839 1.0184803 -1.8263682 4288085770
16.051504 3.1636629 -1.8106883 4288085770
2.9783201 0.81493068 -1.8393526 4288085770
3.3180799 0.87438869 -1.8283693 4288085770
3.4156022 0.89166832 -1.836373 4288085770
9.2781429 1.9328918 -1.8365843 4288085770
3.4067764 0.88457692 -1.8294004 4288085770
3.0586247 0.82203078 -1.8393918 4288085770
13.00372 2.5724111 -1.7678294 4288085770
3.490284 0.89331502 -1.8264344 4288085770
3.136723 0.82735687 -1.8374377 4288085770
3.5973105 0.90549314 -1.8314729 4288085770
10.291971 2.0626826 -1.821874 4288085770
3.2189069 0.83323115 -1.8354849 4288085770
3.6847959 0.91378117 -1.8275126 4288085770
4.1493535 0.99150211 -1.8275534 4288085770
7.6206055 1.5894097 -1.8227721 4288085770
9.5958939 1.9304956 -1.8358923 4288085770
16.016964 3.0348046 -1.8183049 4288085770
3.4489832 0.86579168 -1.8335352 4288085770
3.7977881 0.92528629 -1.83156 4288085770
3.3101459 0.83911186 -1.8365406 4288085770
13.772731 2.6282012 -1.7872641 4288085770
3.9034948 0.93457055 -1.831612 4288085770
3.3992882 0.84421182 -1.8355979 4288085770
4.0235562 0.94628525 -1.8346647 4288085770
3.4863329 0.84853119 -1.8326573 4288085770
9.9058037 1.9209024 -1.8292291 4288085770
4.1198788 0.95256811 -1.8287228 4288085770
10.410671 1.9991231 -1.8263049 4288085770
4.2037125 0.96430129 -1.8287419 4288085770
14.616729 2.688683 -1.8097452 4288085770
7.6574907 1.5319514 -1.8180963 4288085770
3.4925237 0.84080327 -1.8337023 4288085770
15.980323 2.9051712 -1.8249236 4288085770
3.5825434 0.85384554 -1.8317205 4288085770
4.2293439 0.95940059 -1.8247904 4288085770
4.3542657 0.96955532 -1.8258557 4288085770
3.6909003 0.85982591 -1.8337915 4288085770
10.236915 1.9119663 -1.8255825 4288085770
4.4850426 0.9780488 -1.8269349 4288085770
15.44493 2.7337871 -1.8222888 4288085770
3.806324 0.86602539 -1.836868 4288085770
4.2692218 0.93787795 -1.8329368 4288085770
10.535338 1.9348861 -1.8287449 4288085770
4.6096373 0.9852035 -1.8240151 4288085770
7.7311525 1.4794561 -1.8194299 4288085770
3.5400391 0.81537491 -1.8348755 4288085770
15.935407 2.7734332 -1.8285455 4288085770
3.9297009 0.87133932 -1.8409564 4288085770
4.7484765 0.99378991 -1.8231013 4288085770
10.625892 1.9076489 -1.8289664 4288085770
16.262083 2.7700367 -1.8278663 4288085770
4.0336437 0.87376177 -1.8370413 4288085770
4.8851099 1.0006025 -1.8201944 4288085770
4.3296523 0.91100794 -1.8351291 4288085770
10.693795 1.8759412 -1.8361897 4288085770
4.1518312 0.8776257 -1.8371321 4288085770
3.5743055 0.78838342 -1.8300443 4288085770
5.0338893 1.0080711 -1.8182955 4288085770
7.8068008 1.4267387 -1.8207663 4288085770
15.849849 2.6381752 -1.827147 4288085770
11.009012 1.8959159 -1.8273823 4288085770
17.134121 2.8021462 -1.832516 4288085770
4.2790737 0.88148642 -1.8382313 4288085770
5.1712966 1.0127755 -1.8133998 4288085770
4.3950534 0.88357633 -1.836329 4288085770
5.3350964 1.019568 -1.8115182 4288085770
4.394835 0.88157958 -1.834339 4288085770
10.843638 1.8119119 -1.8406521 4288085770
3.6391563 0.76505631 -1.835223 4288085770
11.43476 1.8874749 -1.8298213 4288085770
7.892499 1.3739014 -1.8221129 4288085770
15.675395 2.4906824 -1.8127277 4288085770
18.148174 2.8445368 -1.844246 4288085770
5.5221949 1.0278037 -1.8156511 4288085770
4.5370965 0.88476908 -1.8364556 4288085770
5.6918478 1.0329252 -1.8117836 4288085770
4.6700835 0.88596052 -1.8345737 4288085770
4.460453 0.85614496 -1.8375289 4288085770
11.909866 1.879566 -1.8373036 4288085770
3.6978221 0.74040043 -1.8384029 4288085770
10.998563 1.7483145 -1.8441173 4288085770
5.901144 1.0416974 -1.8169345 4288085770
4.8049483 0.88593584 -1.8326997 4288085770
7.9811773 1.3207304 -1.823464 4288085770
15.493993 2.3439634 -1.7972981 4288085770
6.1020489 1.0473621 -1.817093 4288085770
4.9681916 0.88778657 -1.8358426 4288085770
4.5359011 0.82860899 -1.8417387 4288085770
12.428261 1.8718481 -1.8468254 4288085770
6.3130035 1.0529015 -1.8162619 4288085770
3.7553868 0.71484762 -1.838586 4288085770
11.182861 1.6864665 -1.8496009 4288085770
5.0904708 0.88309753 -1.8259803 4288085770
8.0790234 1.2685444 -1.8248186 4288085770
15.438487 2.2163908 -1.7928894 4293729569
6.5348902 1.0572225 -1.8164469 4288085770
5.2443299 0.88195163 -1.8241297 4288085770
4.6143298 0.80073416 -1.8449531 4288085770
12.937596 1.8550675 -1.8523841 4288085770
6.774004 1.062641 -1.8186425 4288085770
3.816925 0.68885946 -1.8407751 4288085770
11.358656 1.6205274 -1.8520973 4288085770
5.4182854 0.88058174 -1.8252989 4288085770
8.1889048 1.2160262 -1.8281863 4288085770
7.0179787 1.0664949 -1.8178504 4288085770
15.532958 2.1072974 -1.8035275 4288085770
13.502476 1.8401278 -1.8609854 4288085770
4.6855836 0.77163178 -1.8441669 4288085770
5.5931249 0.87810177 -1.8254745 4288085770
7.2951889 1.0706745 -1.8220876 4288085770
3.8743792 0.66230845 -1.8399633 4288085770
11.576195 1.5589901 -1.8596104 4288085770
5.7554889 0.87196106 -1.8196568 4288085770
8.2926035 1.1621743 -1.828555 4288085770
7.6099472 1.0777092 -1.8303456 4288085770
15.677342 2.0036881 -1.8161844 4288085770
14.006173 1.8088526 -1.8586122 4288085770
4.7557325 0.74164253 -1.8423841 4288085770
5.9655538 0.86957937 -1.8238649 4288085770
3.9359164 0.63631564 -1.8411524 4288085770
7.9070368 1.0796527 -1.8326126 4288085770
11.784125 1.4924744 -1.8631397 4288085770
6.1713133 0.86464781 -1.8250816 4288085770
8.4072351 1.1071035 -1.8299398 4288085770
14.522235 1.7711552 -1.8542826 4288085770
8.2047901 1.0784804 -1.829896 4288085770
15.714721 1.8878652 -1.8168035 4288085770
4.8349347 0.71165991 -1.8436098 4288085770
4.0177708 0.61209035 -1.8463519 4288085770
6.3779564 0.85860676 -1.8253047 4288085770
8.5316982 1.0770751 -1.8302077 4288085770
12.045723 1.4290258 -1.8717037 4288085770
14.977557 1.7211107 -1.8419586 4288085770
8.5410795 1.0529029 -1.8323386 4288085770
4.9203219 0.68299133 -1.8438348 4288085770
6.6188307 0.85277498 -1.829559 4288085770
15.800689 1.7746617 -1.8204545 4288085770
8.8898535 1.0762084 -1.8335456 4288085770
4.08218 0.58476043 -1.8455504 4288085770
6.8716297 0.84561777 -1.8358308 4288085770
9.2598267 1.0730027 -1.8349065 4288085770
15.465892 1.6693859 -1.8306742 4288085770
12.359774 1.366763 -1.8843105 4288085770
5.0064807 0.65222484 -1.8440707 4288085770
8.6870708 0.9993636 -1.836745 4288085770
15.956782 1.6677154 -1.8301395 4288085770
7.1119528 0.8347944 -1.8351095 4288085770
9.6680069 1.0695512 -1.8383042 4288085770
4.1464777 0.55643719 -1.8447539 4288085770
16.080448 1.6216887 -1.8314868 4288085770
12.74571 1.3085581 -1.904964 4288085770
5.100811 0.62255961 -1.8453089 4288085770
7.4018526 0.82650948 -1.8434216 4288085770
10.083918 1.0632082 -1.8387235 4288085770
8.8501778 0.94591916 -1.8411672 4288085770
4.1986332 0.52742803 -1.8369495 4288085770
16.091455 1.55812 -1.8358179 4288085770
7.6801605 0.81346375 -1.8467469 4288085770
10.522578 1.0533117 -1.839182 4288085770
16.722605 1.5688895 -1.832351 4288085770
5.1888475 0.59056741 -1.8435531 4288085770
13.116961 1.2449336 -1.9206311 4288085770
9.0078745 0.8890478 -1.8436015 4288085770
10.980229 1.0422845 -1.837664 4288085770
7.9246807 0.79509604 -1.8390673 4288085770
4.2882156 0.50032574 -1.8421706 4288085770
16.265551 1.4501489 -1.842525 4288085770
17.452879 1.5122762 -1.8373164 4288085770
5.2890291 0.55923647 -1.8438052 4288085770
11.494972 1.0289018 -1.8392107 4288085770
8.2175636 0.77739102 -1.8404298 4288085770
13.49075 1.1769867 -1.9333223 4282675967
9.1808081 0.83349705 -1.8480434 4288085770
4.3626723 0.47287145 -1.8403791 4288085770
16.480949 1.3425968 -1.8522686 4288085770
12.125884 1.0196567 -1.8508452 4288085770
8.5354023 0.75789744 -1.8418245 4288085770
18.267298 1.4522996 -1.8473773 4288085770
5.3892121 0.52789557 -1.8420572 4288085770
13.835717 1.1031817 -1.9390163 4282675967
4.4602051 0.44487423 -1.8446121 4288085770
9.3635693 0.77583522 -1.8515052 4288085770
13.096794 1.0278499 -1.9027083 4288085770
8.8833857 0.73806477 -1.847249 4288085770
16.688946 1.2318358 -1.8590214 4288085770
5.5084953 0.4964515 -1.8453279 4288085770
13.934752 1.0166037 -1.9275457 4288085770
9.2491455 0.71523583 -1.8527051 4288085770
14.180129 1.0243906 -1.9407347 4282675967
4.5516639 0.41654128 -1.846841 4288085770
9.5603552 0.71760887 -1.854983 4288085770
5.6194992 0.46289301 -1.8436012 4288085770
14.61988 0.98814905 -1.9263271 4288085770
16.935263 1.1218221 -1.8678063 4288085770
9.5981245 0.68620098 -1.8501769 4288085770
4.6370511 0.38786295 -1.8450661 4288085770
14.497933 0.94151008 -1.9364492 4288085770
9.7517309 0.65595591 -1.8564728 4288085770
15.223294 0.94865644 -1.9100881 4288085770
5.7224426 0.42921689 -1.8388675 4288085770
9.9609032 0.65461987 -1.8486743 4288085770
17.193176 1.007483 -1.8746239 4288085770
4.7394414 0.3583062 -1.8473114 4288085770
14.84356 0.85551298 -1.9322052 4288085770
15.788392 0.89932072 -1.8828628 4288085770
10.345435 0.61959738 -1.8472095 4288085770
9.936038 0.59406865 -1.8539575 4288085770
5.8627043 0.39643419 -1.8431646 4288085770
4.8246078 0.32763124 -1.8435463 4288085770
16.565174 0.85351813 -1.872817 4288085770
17.497246 0.89200801 -1.8834901 4288085770
10.763866 0.58178896 -1.8467901 4288085770
15.152419 0.76454264 -1.9199523 4288085770
5.9987712 0.36209038 -1.8434652 4288085770
10.187593 0.53072506 -1.859512 4288085770
3.6301603 0.25513336 -1.8268011 4288085770
3.7362885 0.25934574 -1.8278786 4288085770
3.5198383 0.24936943 -1.8237275 4288085770
3.8493743 0.26277915 -1.8289666 4288085770
3.9645586 0.26698324 -1.8300526 4288085770
4.0897913 0.27107257 -1.8321484 4288085770
4.2037659 0.27337646 -1.8282428 4288085770
17.589527 0.80824608 -1.8819991 4288085770
4.3479919 0.27635944 -1.8333622 4288085770
4.9198227 0.29684183 -1.8407911 4288085770
4.5002799 0.27944565 -1.8384885 4288085770
3.5976954 0.24370803 -1.8318291 4288085770
11.22315 0.54042619 -1.8494267 4288085770
4.6585312 0.28186387 -1.8436238 4288085770
3.7023935 0.24404334 -1.8299248 4288085770
17.769732 0.77300525 -1.887345 4288085770
