# .PCD v0.7 - Point Cloud Data file format
VERSION 0.7
FIELDS x y z rgb
SIZE 4 4 4 4
TYPE F F F U
COUNT 1 1 1 1
WIDTH 1138
HEIGHT 1
VIEWPOINT 0 0 0 1 0 0 0
POINTS 1138
DATA ascii
5.8046875 -2.4923472 -1.898261 4288085770
3.6289291 -1.7715902 -1.8700247 4288085770
9.0973816 -3.5995712 -1.9524813 4288085770
13.778999 -5.213294 -2.026263 4288085770
13.665195 -5.2148395 -1.9610895 4293729569
8.7186584 -3.5384407 -1.9463555 4288085770
8.0457306 -3.3112283 -1.94093 4288085770
3.5922318 -1.8016069 -1.8727717 4288085770
5.756012 -2.5373356 -1.8968897 4288085770
13.282234 -5.1332865 -2.0430968 4288085770
8.3779221 -3.4843397 -1.9432362 4288085770
13.382576 -5.2364664 -1.9135412 4293729569
3.5485306 -1.8276014 -1.8725356 4288085770
7.9910431 -3.3712287 -1.9414487 4288085770
5.7043304 -2.5803163 -1.8945276 4288085770
12.671509 -5.0081229 -2.0410726 4288085770
8.0431976 -3.4292264 -1.9381323 4288085770
12.026798 -4.8628845 -2.0291348 4288085770
3.5128365 -1.8566051 -1.8732904 4288085770
13.258915 -5.3112607 -1.8848609 4293729569
7.9493446 -3.435246 -1.9439589 4288085770
5.677639 -2.6323433 -1.8981402 4288085770
7.7274551 -3.3751245 -1.9340488 4288085770
11.399086 -4.71663 -2.0142283 4288085770
14.008347 -5.6612458 -0.94154567 4293729569
3.4741325 -1.8836076 -1.8740547 4288085770
13.135258 -5.385047 -1.8551875 4293729569
7.433712 -3.3250413 -1.9319693 4288085770
7.9056549 -3.4982495 -1.944473 4288085770
5.6599541 -2.6873722 -1.9017452 4288085770
10.857361 -4.5924377 -2.0052953 4288085770
13.795315 -5.6825442 -1.1451039 4293729569
13.922623 -5.7363687 -0.20390025 4293729569
13.877567 -5.7305107 -0.98489392 4293729569
7.1509666 -3.2759609 -1.9298986 4288085770
3.4334335 -1.9095962 -1.8728228 4288085770
13.160561 -5.5129776 -1.841361 4293729569
10.337627 -4.470243 -1.9953802 4288085770
7.8819618 -3.5682778 -1.947968 4288085770
5.6342697 -2.7393861 -1.9033592 4288085770
13.736641 -5.78338 -1.1203403 4293729569
6.8832207 -3.2278843 -1.9278426 4288085770
13.847828 -5.8226805 -0.2522133 4293729569
13.855766 -5.8388572 -1.0361339 4293729569
9.8548927 -4.3550715 -1.9874706 4288085770
3.3907471 -1.9355716 -1.8695881 4288085770
13.256844 -5.6659732 -1.8344665 4293729569
7.8612595 -3.6382933 -1.9494673 4288085770
5.6175766 -2.7944088 -1.9059654 4288085770
6.613472 -3.1767931 -1.9238039 4288085770
9.4041443 -4.2459006 -1.9785657 4288085770
13.828014 -5.9290266 -0.30346942 4293729569
13.741951 -5.9092517 -1.0984988 4293729569
13.88496 -5.9672499 -1.0923111 4293729569
3.3670349 -1.9665911 -1.8723463 4288085770
6.3617134 -3.1266999 -1.9187843 4288085770
13.280148 -5.7938828 -1.8176367 4293729569
8.9484062 -4.1296959 -1.9647012 4288085770
7.8385658 -3.7083092 -1.9509639 4288085770
5.5828896 -2.8424006 -1.9045936 4288085770
6.119957 -3.0786219 -1.915765 4288085770
8.5496559 -4.0305443 -1.9568028 4288085770
3.3343315 -1.9935818 -1.8711189 4288085770
13.331444 -5.9318137 -1.8027796 4293729569
7.8138657 -3.7763171 -1.9514707 4288085770
5.5751991 -2.9004252 -1.9071925 4288085770
8.1978874 -3.9454384 -1.9538767 4288085770
5.8871918 -3.0305402 -1.9117589 4288085770
3.3106232 -2.0245945 -1.8728774 4288085770
13.401737 -6.0797486 -1.7878815 4293729569
7.8501167 -3.8563137 -1.9479834 4288085770
5.6804199 -2.9904912 -1.9117354 4288085770
7.811161 -3.8533506 -1.9549482 4288085770
5.5575066 -2.9544344 -1.9078038 4288085770
7.5233459 -3.7722001 -1.943086 4288085770
3.2789192 -2.051579 -1.8706511 4288085770
5.452652 -2.9383903 -1.9047631 4288085770
13.99789 -6.4422045 -1.8302859 4293729569
7.7944565 -3.9243608 -1.9554461 4288085770
7.2135696 -3.6920977 -1.939186 4288085770
5.5438118 -3.0094445 -1.9084144 4288085770
5.2468834 -2.8933148 -1.9007751 4288085770
3.2641983 -2.0846074 -1.8744087 4288085770
6.9467735 -3.6250391 -1.9402591 4288085770
14.801991 -6.900847 -1.8923377 4293729569
5.0631065 -2.8542647 -1.8997775 4288085770
7.7957497 -4.0023823 -1.9569223 4288085770
5.5441093 -3.070478 -1.9120039 4288085770
6.6649895 -3.5489302 -1.9343719 4288085770
3.2384872 -2.1125994 -1.8731843 4288085770
4.886322 -2.8162231 -1.8997833 4288085770
6.407196 -3.4788408 -1.9304782 4288085770
7.7930412 -4.0783963 -1.9574063 4288085770
4.7025337 -2.7721524 -1.8958194 4288085770
5.5454102 -3.1325121 -1.9155884 4288085770
3.2107773 -2.1395779 -1.8699638 4288085770
6.1514015 -3.4067383 -1.9246011 4288085770
4.5407372 -2.7351143 -1.8958398 4288085770
5.9145927 -3.3396468 -1.919717 4288085770
7.798336 -4.1594119 -1.9578679 4288085770
5.5417023 -3.1905241 -1.9161924 4288085770
3.1990585 -2.1736004 -1.8727188 4288085770
4.3829384 -2.6980636 -1.8938656 4288085770
5.6877861 -3.2745647 -1.9158336 4288085770
7.8136177 -4.243443 -1.9603231 4288085770
4.2151527 -2.654984 -1.887918 4288085770
5.4789696 -3.2154942 -1.9129353 4288085770
3.1823349 -2.2046013 -1.8724867 4288085770
5.5469971 -3.2535524 -1.9187756 4288085770
5.2691574 -3.1524096 -1.9080626 4288085770
4.0773354 -2.621958 -1.8889452 4288085770
7.8358917 -4.3304758 -1.9627682 4288085770
5.0833282 -3.0983572 -1.9071634 4288085770
3.1576157 -2.2315807 -1.8692703 4288085770
3.9315338 -2.5849037 -1.8859882 4288085770
5.5482941 -3.3155661 -1.9193598 4288085770
4.8905029 -3.0382702 -1.9012945 4288085770
3.8087044 -2.5548942 -1.8890165 4288085770
7.863163 -4.4195104 -1.9652066 4288085770
3.14888 -2.2645965 -1.8710362 4288085770
4.7216682 -2.9882221 -1.9003924 4288085770
5.5585823 -3.380589 -1.9209365 4288085770
3.6628952 -2.5138199 -1.8830864 4288085770
4.5458298 -2.9311461 -1.8955274 4288085770
3.5410767 -2.4827914 -1.883123 4288085770
3.1411552 -2.2986066 -1.8717966 4288085770
7.9034386 -4.5155616 -1.9696164 4288085770
4.382988 -2.8790798 -1.8916473 4288085770
5.56287 -3.441597 -1.9205314 4288085770
3.4302406 -2.4537783 -1.8851615 4288085770
4.231144 -2.8310289 -1.8897557 4288085770
3.1314125 -2.3306158 -1.8725675 4288085770
4.1012764 -2.7900043 -1.8908483 4288085770
3.3044128 -2.4167149 -1.8802329 4288085770
7.9287109 -4.605576 -1.9690453 4288085770
5.5711517 -3.5056119 -1.9211118 4288085770
3.9634094 -2.743957 -1.888963 4288085770
3.1885834 -2.3836741 -1.8782916 4288085770
3.8265533 -2.6978967 -1.8850793 4288085770
3.1346664 -2.3686419 -1.8753164 4288085770
3.0707397 -2.3466129 -1.8733743 4288085770
8.0109634 -4.7226772 -1.9793725 4288085770
3.7066727 -2.6568604 -1.884186 4288085770
5.594429 -3.577651 -1.9246595 4288085770
3.5837936 -2.6138172 -1.8823019 4288085770
2.9648933 -2.3145676 -1.8704402 4288085770
3.1349258 -2.4056668 -1.878068 4288085770
12.271755 -6.8551545 -1.8720422 4293729569
3.4759102 -2.5767908 -1.8823985 4288085770
2.8810387 -2.2925816 -1.8754699 4288085770
8.1301956 -4.8588285 -1.9956238 4288085770
3.3700218 -2.5397649 -1.882498 4288085770
5.6097069 -3.6456685 -1.9252229 4288085770
2.787178 -2.2635527 -1.8745326 4288085770
3.2561302 -2.4967031 -1.8776267 4288085770
3.1371689 -2.4416854 -1.8798287 4288085770
11.692059 -6.6629491 -1.8635138 4293729569
3.1632233 -2.462687 -1.8787243 4288085770
8.186451 -4.9638772 -1.9989953 4288085770
3.0593185 -2.4216278 -1.8738534 4288085770
2.9624062 -2.3835835 -1.8709726 4288085770
5.6369743 -3.7187023 -1.9277692 4288085770
3.1324158 -2.4746823 -1.8786001 4288085770
10.919441 -6.3674865 -1.8244072 4293729569
2.8704872 -2.3465405 -1.8680919 4288085770
2.7795639 -2.3094914 -1.8642126 4288085770
2.7166176 -2.2845087 -1.869292 4288085770
8.092762 -4.9946814 -1.9716535 4288085770
3.1346588 -2.5106945 -1.8793609 4288085770
5.669239 -3.7937436 -1.9313092 4288085770
10.388748 -6.1822662 -1.8119015 4293729569
7.9320984 -4.9893808 -1.9314598 4288085770
3.14888 -2.5517359 -1.884105 4288085770
10.075985 -6.1012955 -1.8280032 4293729569
5.7095032 -3.8747935 -1.93582 4288085770
7.8184166 -5.0051455 -1.8991908 4293729569
9.7722168 -6.0203209 -1.8431177 4293729569
3.1541138 -2.5887487 -1.8848633 4288085770
5.7317657 -3.9457989 -1.9343728 4288085770
9.0456047 -5.7117629 -1.7881649 4293729569
3.153347 -2.6217396 -1.8826401 4288085770
7.7687111 -5.0530071 -1.8787966 4293729569
5.7880135 -4.0348668 -1.9408519 4288085770
8.4099655 -5.4412889 -1.7420849 4293729569
3.1655617 -2.6607606 -1.8843946 4288085770
7.673008 -5.0737829 -1.8475195 4293729569
5.8192635 -4.1098809 -1.9403905 4288085770
8.1122055 -5.3442411 -1.7463164 4293729569
3.1717758 -2.6957531 -1.8821678 4288085770
7.623291 -5.1176376 -1.8261521 4293729569
7.8904152 -5.2842865 -1.7614057 4293729569
3.1879807 -2.735775 -1.8839214 4288085770
5.8784981 -4.200942 -1.9458604 4288085770
7.5785675 -5.161479 -1.8027921 4293729569
7.7006073 -5.2383733 -1.781446 4293729569
3.2051773 -2.7757969 -1.885676 4288085770
5.9237328 -4.2829733 -1.9473714 4288085770
7.8732681 -5.3656497 -1.3618227 4293729569
7.7429695 -5.2884464 -0.12812957 4293729569
7.7623367 -5.3198295 -0.63795722 4293729569
7.5108109 -5.1894403 -1.7985066 4293729569
7.521843 -5.1993108 -1.7784554 4293729569
3.2323647 -2.8208342 -1.8894113 4288085770
7.7973938 -5.3739047 -1.4026599 4293729569
5.9659729 -4.3649902 -1.946878 4288085770
7.6692543 -5.3141937 -0.091849923 4293729569
7.3289986 -5.1415153 -1.8165718 4293729569
3.2455521 -2.8568349 -1.8881875 4288085770
7.6796112 -5.3375602 -0.59971887 4293729569
7.6834908 -5.3403449 0.037309419 4293729569
7.5171051 -5.2642035 -1.7610101 4293729569
7.7425079 -5.3931851 -1.4464525 4293729569
7.1501884 -5.0925784 -1.8326483 4293729569
6.046196 -4.4690776 -1.9552897 4288085770
3.2717323 -2.9008591 -1.8899281 4288085770
7.6225243 -5.3519669 -0.058527544 4293729569
7.7076111 -5.4224839 -1.4922061 4293729569
7.6328773 -5.3733211 -0.56440997 4293729569
7.6566811 -5.3935542 0.0057061706 4293729569
7.5103569 -5.3270946 -1.7435751 4293729569
6.9683685 -5.0376263 -1.8467607 4293729569
3.2899055 -2.9388607 -1.8886977 4288085770
7.6737137 -5.4497838 -1.5379746 4293729569
6.1234055 -4.5701437 -1.9607174 4288085770
7.6017876 -5.4037342 -0.0231476 4293729569
7.6011353 -5.4170914 -0.5300684 4293729569
7.6798477 -5.471777 -0.025799284 4293729569
7.5285912 -5.402019 -1.7300948 4293729569
3.3250656 -2.9858932 -1.8914307 4288085770
6.8145447 -4.9977088 -1.8648118 4293729569
7.6348038 -5.472075 -1.5827696 4293729569
7.6160393 -5.4735179 0.011304209 4293729569
6.2206078 -4.6832414 -1.9700928 4288085770
7.6063843 -5.4808722 -0.4956443 4293729569
3.3592186 -3.0319257 -1.8941689 4288085770
7.6068954 -5.5003891 -1.6305398 4293729569
6.6657104 -4.9567924 -1.8828768 4293729569
7.7240181 -5.5640182 -0.059239969 4293729569
7.4908562 -5.4448419 -1.7037514 4293729569
7.5559845 -5.5126572 -1.6723853 4293729569
3.3903732 -3.0759375 -1.8939164 4288085770
7.6436234 -5.5616746 -0.46315077 4293729569
6.5678558 -4.9429555 -1.9108316 4288085770
6.3138084 -4.7953315 -1.9784687 4288085770
7.4840889 -5.5027199 -1.6843503 4293729569
7.5180626 -5.5299416 -1.7162157 4293729569
3.4235191 -3.1199558 -1.8946668 4288085770
6.4899826 -4.9391441 -1.9417472 4288085770
6.4020004 -4.9033999 -1.9838645 4288085770
7.4481506 -5.5271773 -1.7541356 4293729569
3.4736443 -3.1730051 -1.8993802 4288085770
7.4813232 -5.5635858 -1.6629348 4293729569
6.3951149 -4.9233012 -1.96872 4288085770
7.3242607 -5.4903326 -1.7822088 4293729569
3.511776 -3.2180119 -1.8991307 4288085770
6.3352699 -4.919168 -1.9516624 4288085770
6.246273 -4.8733368 -1.9808459 4288085770
7.137394 -5.4123645 -1.7954698 4293729569
7.4905548 -5.6294594 -1.6435027 4293729569
3.5708847 -3.2750759 -1.9058301 4288085770
2.4531097 -2.6026168 -1.88478 4288085770
6.9755096 -5.3474345 -1.8126785 4293729569
6.0454483 -4.787271 -1.9791417 4288085770
3.6090012 -3.3190746 -1.9035877 4288085770
6.2575378 -4.925931 -1.9185058 4288085770
2.4762573 -2.6376317 -1.8855772 4288085770
7.6257248 -5.7705112 -1.6447431 4293729569
6.7866364 -5.262445 -1.8219841 4293729569
5.7876549 -4.6650848 -1.9615999 4288085770
3.6611023 -3.3700962 -1.9043175 4288085770
6.5967598 -5.1744413 -1.8293086 4293729569
2.5004005 -2.672653 -1.8873756 4288085770
3.7131996 -3.4201183 -1.9050543 4288085770
6.1748047 -4.9286733 -1.8823692 4293729569
5.5808372 -4.5709777 -1.9539413 4288085770
8.6245537 -6.4437423 -1.7866216 4293729569
6.4368629 -5.1014724 -1.8405744 4293729569
3.7732849 -3.4751487 -1.9067686 4288085770
2.5285378 -2.7096691 -1.8881662 4288085770
6.2769661 -5.0254841 -1.8488604 4293729569
5.3860016 -4.4798741 -1.9462795 4288085770
3.8313675 -3.5271721 -1.9075003 4288085770
6.1870193 -4.9865794 -1.8669957 4293729569
6.1730347 -4.9825892 -1.8690027 4293729569
9.073597 -6.785183 -1.8329561 4293729569
2.5496674 -2.741663 -1.8859808 4288085770
5.2051582 -4.3947878 -1.9405969 4288085770
3.8914375 -3.5791893 -1.9072347 4288085770
6.0581131 -4.9306588 -1.8841904 4293729569
3.9684944 -3.6412377 -1.9109255 4288085770
6.0191422 -4.9238677 -1.917182 4288085770
2.5857811 -2.7816939 -1.8887624 4288085770
5.0443077 -4.3207254 -1.9378685 4288085770
6.1682396 -5.0234246 -1.8437201 4293729569
4.0515366 -3.7052941 -1.9156115 4288085770
5.9781723 -4.9140563 -1.9471908 4288085770
4.1195869 -3.759306 -1.9143438 4288085770
2.6118965 -2.8146961 -1.8875771 4288085770
5.9232025 -4.8942213 -1.9742475 4288085770
4.8784523 -4.2406421 -1.9321735 4288085770
4.2046165 -3.8223495 -1.9170392 4288085770
5.7522812 -4.7981491 -1.9706528 4288085770
4.3006363 -3.8914089 -1.9217098 4288085770
5.561367 -4.6880322 -1.9611248 4288085770
6.2374153 -5.1154256 -1.8401976 4293729569
2.6350174 -2.8456774 -1.883401 4288085770
4.7525673 -4.1826301 -1.9353865 4288085770
4.3976479 -3.959455 -1.9243883 4288085770
5.3784485 -4.5799112 -1.9505944 4288085770
4.4896622 -4.0234866 -1.925087 4288085770
5.2185135 -4.485815 -1.9430022 4288085770
4.5956573 -4.0945354 -1.9277582 4288085770
5.0755615 -4.3987436 -1.9383867 4288085770
4.715641 -4.1726012 -1.9324018 4288085770
4.9416008 -4.3166819 -1.9347504 4288085770
4.8246269 -4.2426372 -1.9330839 4288085770
4.6026955 -4.1075511 -1.9296805 4288085770
2.6800995 -2.8887239 -1.8881749 4288085770
6.3345795 -5.2244606 -1.8406 4293729569
4.4738083 -4.0435042 -1.9279299 4288085770
2.71418 -2.9237275 -1.8869874 4288085770
4.3399162 -3.9744434 -1.9242058 4288085770
2.7642555 -2.9687684 -1.8907548 4288085770
4.2230148 -3.9143996 -1.9224452 4288085770
6.4017448 -5.3144341 -1.833088 4293729569
2.8103218 -3.0097952 -1.8925436 4288085770
4.1081047 -3.8543625 -1.9216872 4288085770
2.8563843 -3.049808 -1.8923392 4288085770
3.9881935 -3.7882915 -1.9159629 4288085770
2.9074364 -3.0928361 -1.8941215 4288085770
3.8772697 -3.7262354 -1.9122242 4288085770
6.4489212 -5.3903689 -1.8206424 4293729569
2.9654694 -3.1378722 -1.8969003 4288085770
3.7813339 -3.672204 -1.9114529 4288085770
3.0364914 -3.1909385 -1.9036433 4288085770
3.6993828 -3.6261959 -1.9136472 4288085770
3.0815277 -3.2259173 -1.898471 4288085770
3.604435 -3.5691509 -1.9108973 4288085770
3.1445351 -3.2709479 -1.9002568 4288085770
3.5194702 -3.518115 -1.9091212 4288085770
3.2085457 -3.3159652 -1.9000437 4288085770
3.279541 -3.3639975 -1.9018205 4288085770
3.4375038 -3.4670801 -1.9073492 4288085770
3.3545265 -3.4130378 -1.9045961 4288085770
6.5650597 -5.5104151 -1.8219973 4293729569
6.6631927 -5.617424 -1.8184143 4293729569
6.7733269 -5.7324281 -1.8137944 4293729569
6.86446 -5.8334074 -1.8062422 4293729569
6.9166031 -5.9063172 -1.7898237 4293729569
7.1186714 -6.0794458 -1.7999424 4293729569
7.282753 -6.2265043 -1.8011827 4293729569
7.4608192 -6.3825731 -1.803382 4293729569
7.6518784 -6.5456524 -1.8065528 4293729569
7.8919144 -6.7417903 -1.8165697 4293729569
10.010036 7.9075346 -1.7359105 4288085770
9.6670685 7.6257706 -1.7230189 4288085770
9.4831543 7.4478073 -1.729823 4288085770
9.2772408 7.2548809 -1.7325268 4288085770
2.7102814 3.0259061 -1.742206 4288085770
2.6482735 2.9849558 -1.7389315 4288085770
2.7643127 3.0588913 -1.7404268 4288085770
2.6082649 2.9589434 -1.7437575 4288085770
2.8223419 3.0938687 -1.7396606 4288085770
2.5662727 2.9289455 -1.7465565 4288085770
2.8773804 3.1268539 -1.7378814 4288085770
2.5202827 2.8959613 -1.7473353 4288085770
2.9444275 3.1648202 -1.7381353 4288085770
9.0243187 7.03304 -1.7250366 4288085770
2.474308 2.8619905 -1.7461076 4288085770
3.0084877 3.1997995 -1.7363693 4288085770
2.4393349 2.8339882 -1.7489197 4288085770
3.0875473 3.2437477 -1.738663 4288085770
2.4033775 2.803998 -1.7497183 4288085770
3.1536255 3.2777381 -1.7348901 4288085770
2.3684273 2.7740083 -1.750517 4288085770
3.2447014 3.3266668 -1.739217 4288085770
8.8194199 6.8431377 -1.7237604 4288085770
2.3324814 2.7430253 -1.750309 4288085770
3.3167953 3.3606548 -1.7354438 4288085770
2.2935448 2.7090559 -1.7480808 4288085770
3.4169006 3.4115787 -1.7397838 4288085770
8.6255341 6.6592364 -1.7215244 4288085770
2.2776184 2.6880183 -1.7549393 4288085770
3.5190048 3.4625077 -1.7431238 4288085770
3.6671295 3.5403309 -1.7596442 4288085770
2.2437057 2.655046 -1.7527176 4288085770
3.782238 3.5993547 -1.7470379 4288085770
3.8732681 3.6552963 -1.7494124 4288085770
3.704216 3.5503936 -1.7467103 4288085770
8.4476547 6.4873214 -1.7203685 4288085770
3.9583015 3.7062597 -1.7487533 4288085770
3.6142044 3.4924631 -1.7423221 4288085770
3.7332497 3.5643659 -1.7488034 4288085770
4.0643539 3.768188 -1.7521677 4288085770
3.5331993 3.4395161 -1.7399673 4288085770
2.2338028 2.6360049 -1.7595894 4288085770
4.1774063 3.834106 -1.7566086 4288085770
3.4662132 3.392549 -1.7396525 4288085770
4.2784729 3.8900676 -1.7549827 4288085770
3.3872223 3.338613 -1.7352911 4288085770
3.8513794 3.6202798 -1.7531763 4288085770
4.373539 3.9410453 -1.7513232 4288085770
2.2029037 2.6040316 -1.7573744 4288085770
3.3372459 3.300611 -1.7390362 4288085770
4.4746094 3.9950128 -1.7486837 4288085770
3.2792816 3.256639 -1.7387413 4288085770
8.2907867 6.3283887 -1.7202996 4288085770
4.585701 4.0519748 -1.7460639 4288085770
3.9615173 3.6692228 -1.7535025 4288085770
3.2243195 3.2146659 -1.7384596 4288085770
2.1850166 2.5780253 -1.7591993 4288085770
4.7097969 4.1159186 -1.745491 4288085770
3.1663742 3.1687059 -1.7361513 4288085770
4.0836639 3.7231545 -1.7548618 4288085770
4.8198967 4.1689067 -1.7388443 4288085770
2.1601257 2.5480428 -1.7579975 4288085770
3.1224327 3.1307144 -1.737896 4288085770
8.1099243 6.155499 -1.7151372 4288085770
4.9550056 4.2358441 -1.738291 4288085770
4.209816 3.7780757 -1.7572275 4288085770
3.0834999 3.0947194 -1.7396542 4288085770
2.1452599 2.523035 -1.7598289 4288085770
5.0701218 4.288836 -1.730644 4288085770
3.0385818 3.05374 -1.7393789 4288085770
4.3699799 3.8519368 -1.7667202 4288085770
5.2012482 4.3488064 -1.7250435 4288085770
7.9870834 6.0175362 -1.7172085 4288085770
2.130394 2.4970269 -1.7616534 4288085770
2.998661 3.015758 -1.7391236 4288085770
5.3473778 4.4167571 -1.7214965 4288085770
4.4561424 3.8779736 -1.7538919 4288085770
2.9677582 2.9817586 -1.7408948 4288085770
5.4915199 4.4807143 -1.7169224 4288085770
2.1175346 2.4720244 -1.7624848 4288085770
7.8632431 5.8805742 -1.7192867 4288085770
4.6223183 3.9508438 -1.7613773 4288085770
2.9348602 2.9457669 -1.7416527 4288085770
5.6756744 4.5656209 -1.7174882 4288085770
2.1026802 2.4450231 -1.7633026 4288085770
4.7474937 3.99681 -1.7566823 4288085770
2.9119682 2.9157515 -1.7454505 4288085770
5.8598366 4.6485267 -1.7180405 4288085770
7.7484169 5.7486143 -1.7203982 4288085770
2.0928421 2.4200191 -1.7641337 4288085770
2.873085 2.8747873 -1.7421749 4288085770
6.0780067 4.7493896 -1.7227128 4288085770
4.8916779 4.0517478 -1.7550471 4288085770
6.2701797 4.8313165 -1.719258 4288085770
2.8612137 2.8487592 -1.7469993 4288085770
7.6465988 5.6246347 -1.723563 4288085770
2.091011 2.3989854 -1.7689915 4288085770
4.9968605 4.0817747 -1.7422447 4288085770
6.4633636 4.9112549 -1.7137893 4288085770
2.8403511 2.8167481 -1.7497834 4288085770
2.0801849 2.3719878 -1.7688092 4288085770
5.1580544 4.1426969 -1.741649 4288085770
7.5327759 5.4946861 -1.7226878 4288085770
6.6905556 5.0081449 -1.713434 4288085770
11.911011 7.9994173 -1.752436 4288085770
2.8174896 2.7837572 -1.749561 4288085770
5.3062592 4.192657 -1.7359797 4288085770
2.0753593 2.3489752 -1.7706535 4288085770
6.9587631 5.1249824 -1.7182118 4288085770
2.7976379 2.7507577 -1.7503382 4288085770
7.4479713 5.3806987 -1.7259195 4288085770
11.622139 7.741581 -1.7467028 4288085770
5.4804764 4.2555733 -1.7353966 4288085770
7.2189713 5.233849 -1.7189357 4288085770
2.0755501 2.3269525 -1.7735043 4288085770
2.7787971 2.7177577 -1.7511157 4288085770
7.4971924 5.3497133 -1.7187061 4288085770
5.6636963 4.3194842 -1.73482 4288085770
7.333168 5.2507625 -1.7230442 4288085770
11.341278 7.4887514 -1.7390027 4288085770
2.0667496 2.2989597 -1.7723148 4288085770
2.7659607 2.6877484 -1.7529129 4288085770
7.8034248 5.4755373 -1.7225425 4288085770
5.8599167 4.389389 -1.7342832 4288085770
2.7521286 2.6567464 -1.7537034 4288085770
2.0729599 2.2789216 -1.7771788 4288085770
7.2433777 5.1348019 -1.7222623 4288085770
11.184448 7.3087797 -1.7447903 4288085770
8.0986519 5.5934052 -1.7203254 4288085770
6.0741501 4.4662657 -1.7367928 4288085770
2.7433167 2.6267409 -1.7545004 4288085770
2.0721664 2.2549119 -1.778016 4288085770
8.4108925 5.7152629 -1.7181344 4288085770
7.1585884 5.0228324 -1.7225072 4288085770
10.999615 7.1148539 -1.7454845 4288085770
6.2733879 4.5311861 -1.7332218 4288085770
2.7305031 2.5947437 -1.754284 4288085770
8.7541428 5.8501005 -1.7170296 4288085770
2.0753899 2.2318873 -1.7808597 4288085770
6.4596214 4.5861397 -1.7255838 4288085770
7.0748024 4.9128695 -1.7217656 4288085770
10.77578 6.9009905 -1.7390455 4288085770
2.72369 2.5657315 -1.7560877 4288085770
9.1214027 5.9929185 -1.7169775 4288085770
2.0786095 2.2088752 -1.7817035 4288085770
6.6708641 4.6510611 -1.7210119 4288085770
2.7168884 2.5357308 -1.7558844 4288085770
9.5346718 6.1546946 -1.7200513 4288085770
10.576954 6.704102 -1.7347203 4288085770
7.0160294 4.8148742 -1.7241037 4288085770
2.0778313 2.1838727 -1.7815338 4288085770
6.9141197 4.7299409 -1.7205329 4288085770
9.9819641 6.3284473 -1.7242045 4288085770
2.7190971 2.5097003 -1.7597078 4288085770
10.401146 6.5202036 -1.7304816 4288085770
6.9652596 4.722868 -1.727482 4288085770
2.0810661 2.1598668 -1.7813708 4288085770
7.1673813 4.8108163 -1.7200668 4288085770
10.448257 6.5062013 -1.7263834 4288085770
2.720314 2.4826832 -1.7615243 4288085770
10.267345 6.3602448 -1.7324032 4288085770
6.9194984 4.6328664 -1.7298734 4288085770
7.4386444 4.8976736 -1.7206404 4288085770
10.944557 6.6939416 -1.7286284 4288085770
2.0913124 2.1378388 -1.7842207 4288085770
2.7175255 2.4536748 -1.7623277 4288085770
7.7069168 4.9775538 -1.7181664 4288085770
11.529877 6.9205914 -1.7381324 4288085770
10.113552 6.1903338 -1.728258 4288085770
6.8587418 4.5348902 -1.7292114 4288085770
2.0975533 2.1148252 -1.7850642 4288085770
2.7167511 2.4246707 -1.7621307 4288085770
1.686615 1.8911856 -1.7585697 4288085770
12.188221 7.1751862 -1.7508214 4288085770
8.0301971 5.0823617 -1.7228587 4288085770
1.7956848 1.9409474 -1.7879016 4288085770
2.1098099 2.0937953 -1.7879208 4288085770
9.9947662 6.04038 -1.7282461 4288085770
6.8139877 4.446888 -1.7316163 4288085770
1.8557587 1.9648913 -1.7920609 4288085770
2.7199821 2.3966527 -1.7639402 4288085770
1.8978386 1.9789003 -1.7871534 4288085770
12.719532 7.3589659 -1.7440368 4288085770
8.3634834 5.1861696 -1.7265432 4288085770
1.9549255 1.9998707 -1.7872924 4288085770
2.0140152 2.0208335 -1.7884312 4288085770
2.7232208 2.3686466 -1.76375 4288085770
2.1120644 2.066803 -1.7857374 4288085770
9.8919907 5.8984127 -1.7292877 4288085770
6.7842445 4.3648715 -1.7350608 4288085770
2.079113 2.0447865 -1.7905899 4288085770
13.381878 7.5986261 -1.7456237 4288085770
8.6987762 5.2869973 -1.7272073 4288085770
2.147213 2.0687385 -1.7927486 4288085770
2.0682831 2.0208044 -1.7894254 4288085770
2.2123184 2.0907125 -1.7928916 4288085770
2.1082954 2.0398026 -1.786552 4288085770
2.0182762 1.9958414 -1.7872589 4288085770
2.7374573 2.3456192 -1.7675903 4288085770
2.1613197 2.0647693 -1.7877184 4288085770
2.206337 2.0857663 -1.7848582 4288085770
1.9792862 1.9748482 -1.7891186 4288085770
2.1283264 2.0467734 -1.7895982 4288085770
1.9372902 1.952875 -1.787972 4288085770
2.2583694 2.1087389 -1.7850111 4288085770
14.226269 7.9171181 -1.7617332 4288085770
2.3094101 2.1307325 -1.7821573 4288085770
1.9133186 1.9378365 -1.7958715 4288085770
9.8002205 5.7644477 -1.7303808 4288085770
6.7555084 4.2838697 -1.73751 4288085770
1.8633308 1.910906 -1.7886915 4288085770
2.3604546 2.1517248 -1.7792966 4288085770
2.2774353 2.1106849 -1.7920233 4288085770
9.0460701 5.3878322 -1.7268686 4288085770
2.421505 2.1767006 -1.7784628 4288085770
1.8353691 1.8928939 -1.7925709 4288085770
2.4755554 2.198698 -1.7746087 4288085770
1.8644104 1.9026898 -1.8226365 4288085770
2.3385582 2.1286778 -1.788142 4288085770
2.5406227 2.2236705 -1.7737744 4288085770
2.7527008 2.3225827 -1.7714334 4288085770
2.6056938 2.2486501 -1.7719402 4288085770
2.1445961 2.0257487 -1.7914548 4288085770
2.4046745 2.1486621 -1.7852737 4288085770
2.6757698 2.2746205 -1.7711124 4288085770
9.4143753 5.49365 -1.726565 4288085770
9.7204552 5.6364694 -1.7315165 4288085770
6.7307625 4.2058525 -1.7409821 4288085770
2.7518578 2.3025813 -1.7712978 4288085770
2.4768105 2.1686368 -1.7834051 4288085770
2.8249512 2.3275623 -1.768463 4288085770
2.7689476 2.2995453 -1.7752763 4288085770
2.5499458 2.189611 -1.781543 4288085770
2.1588669 2.0037255 -1.7933047 4288085770
2.906044 2.3565207 -1.7686548 4288085770
9.8276939 5.6144242 -1.7293605 4288085770
2.9921455 2.386476 -1.7688532 4288085770
9.6657028 5.5204606 -1.7357323 4288085770
6.7080269 4.1278405 -1.7434536 4288085770
2.6310921 2.212575 -1.7806944 4288085770
3.0712547 2.4114661 -1.7640181 4288085770
2.7882042 2.2765074 -1.779119 4288085770
2.7152367 2.236537 -1.779852 4288085770
3.1663666 2.4434104 -1.7652292 4288085770
2.1781387 1.9836932 -1.7961677 4288085770
10.228004 5.7232313 -1.7280753 4288085770
3.2564812 2.4723825 -1.7624207 4288085770
2.794384 2.257514 -1.7769897 4288085770
9.5929489 5.3974857 -1.7359017 4288085770
6.6912994 4.0528183 -1.7469456 4288085770
2.7944641 2.2475071 -1.7779219 4288085770
3.362606 2.5073214 -1.7636516 4288085770
2.8865395 2.2824597 -1.7781538 4288085770
10.683327 5.8529787 -1.7319289 4288085770
2.1924133 1.9606761 -1.7970109 4288085770
3.4637375 2.5382824 -1.7618558 4288085770
2.9787025 2.3064241 -1.776311 4288085770
9.5211945 5.276516 -1.7350847 4288085770
3.5758743 2.5732236 -1.7620864 4288085770
6.6945724 3.9877744 -1.7525039 4288085770
2.8167229 2.2254663 -1.7817712 4288085770
11.127647 5.969769 -1.7296953 4288085770
3.6830139 2.6041875 -1.7592903 4288085770
3.077877 2.3313718 -1.7764747 4288085770
2.217701 1.9416338 -1.8008804 4288085770
3.8041649 2.6401243 -1.7595271 4288085770
3.1640396 2.3513579 -1.7716051 4288085770
9.4634552 5.159533 -1.7352937 4288085770
2.8379936 2.2014337 -1.7846071 4288085770
6.6698532 3.9077811 -1.7519624 4288085770
11.65799 6.1184654 -1.7356732 4288085770
3.9073105 2.6671143 -1.752704 4288085770
3.2692146 2.3773031 -1.7717752 4288085770
2.2389832 1.9206072 -1.8027366 4288085770
4.0324669 2.7020617 -1.750934 4288085770
2.8522568 2.1754222 -1.7844298 4288085770
3.3743896 2.4022541 -1.7709383 4288085770
9.4067116 5.045557 -1.7345232 4288085770
12.222336 6.2731457 -1.7416896 4288085770
6.6731415 3.841743 -1.756514 4288085770
4.1766319 2.7439742 -1.7532101 4288085770
2.2592697 1.8995806 -1.804593 4288085770
3.4955788 2.4321837 -1.7721343 4288085770
4.3077965 2.7779312 -1.7494327 4288085770
2.8725357 2.1503959 -1.7862588 4288085770
12.796684 6.4248319 -1.7456847 4288085770
9.3639755 4.9385729 -1.7337991 4288085770
3.6227646 2.4640927 -1.7763436 4288085770
6.6684227 3.771728 -1.7580389 4288085770
4.4549675 2.8178549 -1.7496948 4288085770
2.2795601 1.8775662 -1.8044426 4288085770
4.5951424 2.853807 -1.7459307 4288085770
3.7349586 2.4870577 -1.7724928 4288085770
2.895813 2.1263676 -1.7880946 4288085770
13.445045 6.5994554 -1.7538315 4288085770
9.3442459 4.841558 -1.7361416 4288085770
6.6597061 3.701715 -1.7595642 4288085770
4.7393227 2.8887639 -1.7411593 4288085770
3.8421516 2.5070457 -1.7656219 4288085770
2.2958565 1.8525602 -1.8032721 4288085770
2.9220886 2.1033373 -1.7899369 4288085770
14.090408 6.764111 -1.7569104 4288085770
4.9235115 2.9386501 -1.744487 4288085770
3.9873581 2.5409446 -1.7698437 4288085770
9.3225174 4.7445502 -1.7374842 4288085770
6.6509933 3.629714 -1.7590758 4288085770
5.0926971 2.9805746 -1.7427616 4288085770
2.3201523 1.8315374 -1.8041281 4288085770
4.1065598 2.5629129 -1.7649857 4288085770
14.79678 6.943718 -1.7630873 4288085770
2.9513702 2.0812993 -1.7927858 4288085770
5.2788925 3.0274854 -1.742069 4288085770
9.3147926 4.6535316 -1.7398684 4288085770
4.2417641 2.5898623 -1.7621614 4288085770
6.6342773 3.5557384 -1.7555761 4288085770
2.3394394 1.8085319 -1.8029718 4288085770
5.4831009 3.0783682 -1.7444043 4288085770
15.585159 7.1472702 -1.772428 4288085770
2.9756508 2.0562797 -1.7936163 4288085770
4.3869743 2.6187949 -1.7613509 4288085770
5.6983109 3.132247 -1.7467593 4288085770
9.3150711 4.5655174 -1.7412761 4288085770
6.6275673 3.4857464 -1.7541053 4288085770
2.3647423 1.7865108 -1.803823 4288085770
4.5371895 2.6477175 -1.7615404 4288085770
16.287525 7.3029404 -1.7694504 4288085770
3.0059357 2.0332503 -1.7954606 4288085770
5.9145203 3.1831369 -1.7470942 4288085770
4.6924057 2.6776514 -1.7597365 4288085770
9.2993507 4.4705253 -1.7406375 4288085770
6.1467361 3.2380118 -1.7484555 4288085770
6.6268654 3.4177518 -1.7526481 4288085770
2.3820419 1.7615188 -1.8006545 4288085770
17.188923 7.5264359 -1.7789226 4288085770
3.0392265 2.0102129 -1.7983047 4288085770
4.8526268 2.7065759 -1.7589258 4288085770
6.4119568 3.3038402 -1.7548894 4288085770
9.3096313 4.3865056 -1.742072 4288085770
2.4093437 1.7395035 -1.8005059 4288085770
5.0148544 2.7345176 -1.755108 4288085770
6.6361618 3.3537388 -1.7532173 4288085770
6.6541748 3.3577299 -1.7532434 4288085770
3.0765152 1.9891733 -1.8011622 4288085770
6.9124069 3.4136181 -1.7506107 4288085770
5.1970901 2.7664251 -1.7553165 4288085770
9.3369179 4.3084722 -1.7445463 4288085770
2.4366493 1.7174875 -1.8003571 4288085770
6.649456 3.2917304 -1.7527999 4288085770
3.1118088 1.9661411 -1.8030064 4288085770
7.2176476 3.4834318 -1.75607 4288085770
5.3723221 2.7943544 -1.7524985 4288085770
9.3572121 4.2274485 -1.7460009 4288085770
7.5118866 3.5462823 -1.756483 4288085770
2.4639626 1.6944782 -1.7992016 4288085770
3.1461029 1.9421157 -1.8038441 4288085770
6.6677589 3.2307138 -1.7533891 4288085770
5.5685577 2.8282547 -1.75272 4288085770
7.8351326 3.616106 -1.7589418 4288085770
5.7848053 2.8661318 -1.7549677 4288085770
9.3864937 4.1514192 -1.7474889 4288085770
2.4912643 1.6714689 -1.7980466 4288085770
3.1833992 1.9190887 -1.8046883 4288085770
6.707058 3.1776671 -1.7570316 4288085770
8.1833801 3.6909175 -1.7614331 4288085770
5.9910507 2.8980393 -1.7531754 4288085770
2.5175705 1.6484655 -1.7958912 4288085770
9.4337959 4.0793757 -1.7500031 4288085770
3.2277031 1.897046 -1.8075391 4288085770
8.507637 3.7517848 -1.7568318 4288085770
6.7373619 3.1216383 -1.7586542 4288085770
6.2182961 2.933917 -1.7544093 4288085770
8.8558884 3.8186278 -1.7542697 4288085770
3.2639961 1.8730253 -1.8073767 4288085770
6.4425507 2.9668093 -1.7536232 4288085770
2.5518761 1.6274461 -1.7957492 4288085770
9.4830856 4.0083313 -1.7525243 4288085770
6.7736664 3.0666113 -1.7592834 4288085770
9.2191467 3.8854685 -1.7507071 4288085770
6.6978073 3.0056682 -1.7558765 4288085770
18.092762 6.8377628 -1.8092618 4288085770
3.2952957 1.8460268 -1.8041947 4288085770
2.5881882 1.6064261 -1.7956071 4288085770
9.5463829 3.9412785 -1.755072 4288085770
9.6244164 3.9612765 -1.7492038 4288085770
6.7929688 3.0056124 -1.7568733 4288085770
6.9590645 3.0455227 -1.7581362 4288085770
10.049686 4.0400748 -1.7477198 4288085770
3.3405914 1.8239957 -1.8050455 4288085770
17.605934 6.5261064 -1.791183 4288085770
2.6194992 1.5834209 -1.7934519 4288085770
9.6166763 3.8762236 -1.757633 4288085770
7.2033272 3.0744238 -1.7543228 4288085770
1.7054329 1.2760495 -1.7644154 4288085770
6.843277 2.954567 -1.7595291 4288085770
1.7984962 1.3019012 -1.7805865 4288085770
10.512962 4.1248474 -1.7472749 4288085770
1.8585815 1.3148831 -1.7786719 4288085770
1.7655754 1.283949 -1.7754669 4288085770
1.8245888 1.3029 -1.7785926 4288085770
1.8826027 1.3208648 -1.7797115 4288085770
1.9356384 1.3358444 -1.7788104 4288085770
1.9926605 1.3528284 -1.7769227 4288085770
1.9266586 1.3308359 -1.780777 4288085770
3.3848953 1.7999717 -1.8048831 4288085770
17.207119 6.2503705 -1.7793432 4288085770
2.0597 1.3717817 -1.779048 4288085770
2.6568031 1.5624005 -1.79331 4288085770
2.1287346 1.3917283 -1.7821798 4288085770
7.4855995 3.1122808 -1.7545685 4288085770
1.9967422 1.3467945 -1.7818823 4288085770
2.1917763 1.4087085 -1.7802919 4288085770
9.7159805 3.8191285 -1.7642468 4288085770
2.2708359 1.4296435 -1.7844303 4288085770
6.8935814 2.9035273 -1.7611851 4288085770
2.0688248 1.3627511 -1.7829872 4288085770
11.030251 4.2195745 -1.7498952 4288085770
2.3438873 1.4486068 -1.7845554 4288085770
2.415947 1.4665762 -1.7836739 4288085770
2.1429176 1.3787135 -1.7830923 4288085770
2.5030098 1.4885076 -1.7878187 4288085770
7.7678604 3.1471443 -1.7537941 4288085770
3.4271889 1.7759613 -1.802721 4288085770
2.2160263 1.392682 -1.782184 4288085770
16.961338 6.0284934 -1.7778609 4288085770
2.5770836 1.5054947 -1.7839305 4288085770
2.6851196 1.5374151 -1.7881416 4288085770
11.57954 4.3202853 -1.7525548 4288085770
2.6681519 1.5284296 -1.7870817 4288085770
9.7952805 3.755075 -1.7658147 4288085770
2.2971191 1.4096283 -1.7842953 4288085770
2.7612381 1.5493697 -1.7892199 4288085770
6.9488907 2.8534851 -1.7628478 4288085770
2.3842239 1.4275714 -1.7864134 4288085770
2.8503075 1.5703312 -1.7883579 4288085770
8.077137 3.186975 -1.7560524 4288085770
2.95541 1.5932585 -1.7915088 4288085770
2.4693336 1.4435221 -1.787518 4288085770
3.4794922 1.75392 -1.8045716 4288085770
12.153835 4.420989 -1.7542138 4288085770
16.743557 5.8205957 -1.7774718 4288085770
2.7394333 1.5203542 -1.793026 4288085770
3.0655022 1.618178 -1.7956729 4288085770
2.5644455 1.4624547 -1.7906425 4288085770
9.8855858 3.6930156 -1.7673956 4288085770
3.1755981 1.6421033 -1.7988304 4288085770
8.3834114 3.2208385 -1.7532707 4288085770
7.0122032 2.8034401 -1.7645104 4288085770
2.6555595 1.4794079 -1.7907538 4288085770
3.3017006 1.6700081 -1.8040142 4288085770
12.778137 4.5296626 -1.7569249 4288085770
3.53479 1.7328845 -1.8054295 4288085770
2.7446785 1.4943751 -1.7888517 4288085770
3.4068031 1.6899675 -1.802145 4288085770
16.585789 5.6356564 -1.7792354 4288085770
2.7747307 1.4983534 -1.7898777 4288085770
2.8448067 1.5113112 -1.7909626 4288085770
8.7296906 3.2626448 -1.7565414 4288085770
3.5339165 1.7158903 -1.8043154 4288085770
9.9638863 3.6259747 -1.7669436 4288085770
13.40744 4.6313648 -1.7545888 4288085770
7.0865135 2.7583756 -1.768206 4288085770
3.6670265 1.7427977 -1.8084924 4288085770
2.9489403 1.5292522 -1.79208 4288085770
3.5890923 1.7098488 -1.8062736 4288085770
3.819149 1.7736772 -1.8156954 4288085770
3.0620766 1.5481759 -1.795204 4288085770
16.40202 5.4427547 -1.7769467 4288085770
2.8170433 1.4763359 -1.788729 4288085770
9.076973 3.3004694 -1.7567854 4288085770
3.9542732 1.7986082 -1.815859 4288085770
14.144756 4.755969 -1.7594038 4288085770
10.073181 3.5679064 -1.7685511 4288085770
3.1792107 1.5680975 -1.7983345 4288085770
7.1458244 2.7063441 -1.7678556 4288085770
4.0873947 1.822554 -1.8140159 4288085770
3.637394 1.6848413 -1.8031049 4288085770
3.3113518 1.5909864 -1.8054845 4288085770
9.4552574 3.3422656 -1.7590553 4288085770
4.2335281 1.8474795 -1.8141792 4288085770
2.8623543 1.4553176 -1.7875872 4288085770
16.308266 5.2797709 -1.7808563 4288085770
14.962082 4.8935199 -1.7663034 4288085770
3.4355011 1.6099104 -1.8076084 4288085770
4.3996696 1.8773769 -1.8173749 4288085770
10.177483 3.5078468 -1.7691457 4288085770
7.2351265 2.6642661 -1.7725714 4288085770
3.5536499 1.6258568 -1.806712 4288085770
9.8425446 3.3810639 -1.7603048 4288085770
4.5608139 1.9042886 -1.8185511 4288085770
3.7066956 1.6657799 -1.8069754 4288085770
15.850414 5.041038 -1.773268 4288085770
2.9156609 1.4362766 -1.7894584 4288085770
16.204514 5.1138024 -1.7827464 4288085770
3.675808 1.641807 -1.8048158 4288085770
4.7069473 1.9262525 -1.8126943 4288085770
10.290787 3.448782 -1.7697468 4288085770
4.8700981 1.950188 -1.8098506 4288085770
3.8219566 1.6637081 -1.8089588 4288085770
10.275845 3.426815 -1.7655998 4288085770
7.3094368 2.616221 -1.7732475 4288085770
16.756748 5.1825686 -1.7761921 4288085770
3.7649918 1.6427544 -1.8058197 4288085770
5.0452461 1.9771184 -1.8070264 4288085770
2.9659691 1.415249 -1.7893164 4288085770
3.9711189 1.6846076 -1.8130951 4288085770
16.06876 4.9418831 -1.7795978 4288085770
10.443092 3.3986793 -1.7734072 4288085770
10.701134 3.4665942 -1.7668552 4288085770
5.2304077 2.0040369 -1.8052019 4288085770
17.758091 5.3370419 -1.7812006 4288085770
4.1382866 1.7084845 -1.8192508 4288085770
7.4017487 2.5711541 -1.7759433 4288085770
3.8362885 1.6227049 -1.8076839 4288085770
5.412571 2.027976 -1.8003573 4288085770
3.0292702 1.3981963 -1.7922009 4288085770
4.2894554 1.7264017 -1.8203672 4288085770
15.966007 4.7809401 -1.7775222 4288085770
11.192429 3.5163026 -1.7741755 4288085770
5.6187325 2.0568781 -1.7995458 4288085770
10.576393 3.3416119 -1.7730215 4288085770
4.4546242 1.7473053 -1.822503 4288085770
3.9075851 1.6016611 -1.8085414 4288085770
7.5100594 2.5300732 -1.7796657 4288085770
5.8419037 2.0887656 -1.7997537 4288085770
3.0895805 1.3791515 -1.7940722 4288085770
4.6178093 1.7642225 -1.8226124 4288085770
11.675728 3.5580411 -1.7774426 4288085770
15.876263 4.6259971 -1.7744864 4288085770
6.0690804 2.1186633 -1.7979482 4288085770
10.712696 3.2835474 -1.7716292 4288085770
3.9708862 1.5776392 -1.8063793 4288085770
4.7749863 1.7791611 -1.8197085 4288085770
7.6113701 2.486002 -1.7823682 4288085770
6.3242607 2.1535158 -1.8011754 4288085770
3.1468811 1.359121 -1.7939368 4288085770
12.201035 3.6027451 -1.7827288 4288085770
4.9291649 1.7921208 -1.8137914 4288085770
15.865524 4.4919772 -1.7775897 4288085770
6.5464363 2.1784539 -1.7933366 4288085770
10.883995 3.2344484 -1.7732962 4288085770
4.0461693 1.5575939 -1.8072436 4288085770
5.1193504 1.8110183 -1.8149133 4288085770
7.7136803 2.4409432 -1.7830642 4288085770
3.202179 1.3381037 -1.7917953 4288085770
12.734333 3.6434574 -1.7859883 4288085770
6.8246231 2.2133074 -1.7945632 4288085770
15.857796 4.3589678 -1.7786996 4288085770
5.3255424 1.8328952 -1.8180548 4288085770
7.112812 2.2481623 -1.7947894 4288085770
4.1234665 1.5355533 -1.8070946 4288085770
11.083302 3.1873221 -1.7769765 4288085770
7.8279839 2.3978648 -1.7857735 4288085770
13.311646 3.6841431 -1.7902466 4288085770
5.5097351 1.8468262 -1.8141437 4288085770
3.2704811 1.3190547 -1.7936664 4288085770
7.4120064 2.2830176 -1.7940155 4288085770
15.897064 4.2359161 -1.7828754 4288085770
4.2007523 1.5145193 -1.8059522 4288085770
5.7219315 1.8647131 -1.8152584 4288085770
11.290607 3.1401987 -1.7796562 4288085770
7.7162056 2.3158827 -1.7912282 4288085770
13.841946 3.7099023 -1.7864062 4288085770
7.9422913 2.3528066 -1.7854697 4288085770
3.3337746 1.2990271 -1.7925314 4288085770
5.9461327 1.8835934 -1.8163795 4288085770
8.0334129 2.347754 -1.7864338 4288085770
15.937336 4.1128702 -1.7860514 4288085770
4.2870407 1.4934741 -1.8058096 4288085770
11.516914 3.0960593 -1.7833558 4288085770
14.436249 3.7415972 -1.7876041 4288085770
6.1773415 1.9004766 -1.8164872 4288085770
8.3706131 2.3816032 -1.7836523 4288085770
3.4110718 1.2809676 -1.7954092 4288085770
8.0655975 2.3097367 -1.7861789 4288085770
6.4155426 1.9183627 -1.8156015 4288085770
4.3623276 1.4694589 -1.8016477 4288085770
8.7208252 2.4144645 -1.7778639 4288085770
16.014618 3.9988003 -1.7902873 4288085770
15.062553 3.7722707 -1.7897948 4288085770
11.751217 3.0509276 -1.7850488 4288085770
3.4753571 1.2609457 -1.7932739 4288085770
8.1898994 2.2646728 -1.7858752 4288085770
6.6527596 1.9312617 -1.8126824 4288085770
9.1020317 2.4502978 -1.7740947 4288085770
4.4656105 1.4513868 -1.8045248 4288085770
16.098892 3.8837323 -1.7935163 4288085770
15.716866 3.7989359 -1.7909583 4288085770
6.9279747 1.950116 -1.8138022 4288085770
12.000515 3.0057898 -1.7867419 4288085770
9.5292587 2.4900956 -1.7723513 4288085770
3.5596428 1.2438833 -1.7961586 4288085770
8.3492088 2.2255669 -1.7896105 4288085770
4.5708961 1.43232 -1.8063955 4288085770
7.2071877 1.9669694 -1.814909 4288085770
9.9974823 2.5358472 -1.7746465 4288085770
16.41217 3.8255744 -1.7931207 4288085770
16.223175 3.7786326 -1.7988116 4288085770
3.6399307 1.224835 -1.79703 4288085770
12.288818 2.9656191 -1.7904673 4288085770
8.5255127 2.1884398 -1.795359 4288085770
7.4924088 1.9818314 -1.814002 4288085770
10.468712 2.5756288 -1.771902 4288085770
4.6671715 1.411276 -1.8052529 4288085770
17.166489 3.8541718 -1.7972952 4288085770
3.7172127 1.2048002 -1.7958947 4288085770
16.387459 3.6784992 -1.8061392 4288085770
11.013943 2.6263375 -1.775229 4288085770
7.8096352 1.9996532 -1.8171145 4288085770
12.58012 2.9224601 -1.7921729 4288085770
8.7128181 2.1503129 -1.8001007 4288085770
4.7724533 1.3902279 -1.8041105 4288085770
11.590179 2.6760421 -1.7765486 4288085770
8.1088562 2.0105276 -1.8131807 4288085770
17.992805 3.8837209 -1.8034751 4288085770
3.7984962 1.1847643 -1.7947596 4288085770
16.543739 3.5753956 -1.8094479 4288085770
12.892418 2.88029 -1.793885 4288085770
4.8827209 1.3701712 -1.8039746 4288085770
8.8941193 2.1112022 -1.8028362 4288085770
12.246429 2.7336817 -1.78192 4288085770
8.4270897 2.0203919 -1.80924 4288085770
3.8887787 1.1657172 -1.794631 4288085770
12.941677 2.7913084 -1.78629 4288085770
16.706028 3.4692888 -1.8127365 4288085770
13.225712 2.8401098 -1.7956101 4288085770
8.768322 2.0312328 -1.8073055 4288085770
5.0089951 1.3510932 -1.805845 4288085770
9.0844116 2.0710931 -1.8045648 4288085770
3.9890518 1.1476465 -1.7975086 4288085770
13.679932 2.8499131 -1.7906661 4288085770
9.1165543 2.0400758 -1.8043573 4288085770
5.1202621 1.329055 -1.8026961 4288085770
13.609013 2.8028927 -1.7993542 4288085770
16.932304 3.3761253 -1.8201107 4288085770
9.2917137 2.0309696 -1.8072934 4288085770
14.470184 2.908505 -1.7930412 4288085770
4.0983276 1.1305708 -1.800393 4288085770
2.8242226 0.91325152 -1.7919692 4288085770
2.9262352 0.93018854 -1.79408 4288085770
9.4967918 2.0488973 -1.8024087 4288085770
3.0292587 0.94613039 -1.7951844 4288085770
3.140274 0.96406209 -1.7973019 4288085770
3.26231 0.98197639 -1.8014189 4288085770
3.3733406 0.99793303 -1.7995232 4288085770
3.4893761 1.0148808 -1.7986338 4288085770
5.2645302 1.3119627 -1.8055794 4288085770
2.79533 0.89620912 -1.8008564 4288085770
3.6114235 1.030826 -1.7977377 4288085770
2.8933754 0.90916622 -1.7999411 4288085770
14.004299 2.7646818 -1.8010918 4288085770
3.7424622 1.0487598 -1.7978548 4288085770
17.11758 3.2720265 -1.820413 4288085770
15.410454 2.9819784 -1.8025126 4288085770
2.99543 0.921121 -1.7990187 4288085770
3.8775139 1.065699 -1.796965 4288085770
9.9040337 2.0586991 -1.8014662 4288085770
9.4940033 1.988861 -1.8080088 4288085770
3.1104813 0.93505061 -1.8011094 4288085770
4.0315704 1.0856024 -1.8000948 4288085770
4.2085915 1.1134952 -1.8032774 4288085770
3.2325478 0.94897044 -1.8041998 4288085770
4.1726303 1.1015507 -1.7971984 4288085770
3.3526115 0.96191037 -1.8042839 4288085770
4.3226967 1.1184939 -1.7943085 4288085770
5.4157944 1.2948664 -1.808463 4288085770
4.4847641 1.1374189 -1.7934315 4288085770
16.434723 3.0603981 -1.8140156 4288085770
3.4756889 0.97385395 -1.8033613 4288085770
14.448593 2.7294335 -1.8048483 4288085770
10.297268 2.0615392 -1.7954775 4288085770
4.6638336 1.1573163 -1.7955607 4288085770
3.6097603 0.98777449 -1.8054515 4288085770
17.392868 3.1808438 -1.8268 4288085770
4.3238564 1.0964171 -1.8061619 4288085770
9.7212906 1.9497331 -1.8097441 4288085770
4.8519173 1.1772155 -1.7966899 4288085770
3.7348404 0.9987303 -1.8025222 4288085770
5.0360031 1.195136 -1.7948058 4288085770
3.8679237 1.0106755 -1.8005992 4288085770
5.5610542 1.2747926 -1.8083266 4288085770
17.549 3.1397853 -1.8235234 4288085770
5.2400894 1.2150267 -1.7959346 4288085770
10.756516 2.0683088 -1.7955139 4288085770
4.0230141 1.0245787 -1.8036891 4288085770
14.952885 2.6981497 -1.8096305 4288085770
5.4711838 1.2378863 -1.8000826 4288085770
4.4391212 1.0773519 -1.8070327 4288085770
4.1801071 1.0374938 -1.8047721 4288085770
17.660152 3.0826855 -1.8301411 4288085770
9.9785843 1.9105843 -1.8124785 4288085770
5.7112808 1.2607468 -1.8032305 4288085770
4.3372002 1.0494207 -1.8038489 4288085770
5.7133102 1.255715 -1.808197 4288085770
11.261768 2.0770426 -1.797563 4288085770
5.9393768 1.2806445 -1.8013587 4288085770
4.5043068 1.0613364 -1.8039253 4288085770
6.2064857 1.3034924 -1.8045061 4288085770
15.471176 2.6628776 -1.811386 4288085770
4.5603828 1.0582832 -1.807904 4288085770
4.6804047 1.074248 -1.804008 4288085770
6.4976006 1.3283151 -1.8096662 4288085770
10.237869 1.8704413 -1.8142068 4288085770
17.916428 2.9825506 -1.8304696 4288085770
5.8885612 1.238613 -1.8100804 4288085770
4.8655167 1.0861551 -1.8040841 4288085770
11.822025 2.0867243 -1.8036171 4288085770
6.7987175 1.3521456 -1.8128196 4288085770
5.0426254 1.0960909 -1.8001469 4288085770
4.6906395 1.0402108 -1.8087816 4288085770
16.070461 2.6345344 -1.8181865 4288085770
7.1408386 1.3799242 -1.8209985 4288085770
5.2547493 1.1089717 -1.802229 4288085770
6.0488167 1.2175502 -1.8069375 4288085770
12.381279 2.0894384 -1.8046254 4288085770
10.527157 1.8312768 -1.8169409 4288085770
7.5189629 1.4106733 -1.8311967 4288085770
2.9136467 0.77511513 -1.8040496 4288085770
5.4718704 1.1208564 -1.8033043 4288085770
4.824894 1.0221289 -1.8106592 4288085770
7.8820953 1.4354786 -1.8333553 4288085770
5.6989975 1.1327425 -1.8033795 4288085770
16.717751 2.6051793 -1.8229798 4288085770
6.2340622 1.19845 -1.8078071 4288085770
13.010536 2.0950923 -1.8096519 4288085770
8.270237 1.4612716 -1.83552 4288085770
2.9818916 0.75909805 -1.8009421 4288085770
10.85244 1.7940754 -1.822688 4288085770
5.9351273 1.1436232 -1.8034478 4288085770
8.670372 1.4860717 -1.8356782 4288085770
4.959137 1.0030664 -1.8095303 4288085770
6.1822624 1.1534992 -1.8035092 4288085770
6.4163055 1.1783699 -1.8056706 4288085770
17.413036 2.5748072 -1.8267657 4288085770
13.667797 2.0967379 -1.8136513 4288085770
3.0741234 0.74601281 -1.8068539 4288085770
9.0845146 1.5098823 -1.8328292 4288085770
6.4654007 1.1663324 -1.8075898 4288085770
11.180721 1.7538921 -1.8254153 4288085770
5.1043777 0.98498642 -1.8104079 4288085770
9.5316582 1.5336777 -1.8299799 4288085770
6.7565422 1.1781675 -1.8106638 4288085770
6.6305428 1.1612495 -1.8075534 4288085770
3.1623421 0.73294866 -1.8097657 4288085770
14.34206 2.0913949 -1.8146044 4288085770
10.013817 1.5584422 -1.8291363 4288085770
7.0746918 1.1899832 -1.8147372 4288085770
5.2536201 0.96591675 -1.8092788 4288085770
11.579998 1.7186419 -1.8331745 4288085770
10.525967 1.5832108 -1.8252921 4288085770
6.8757744 1.1460947 -1.8124487 4288085770
3.2555733 0.71888185 -1.8126711 4288085770
7.4018478 1.1998066 -1.816797 4288085770
15.089321 2.0859962 -1.8185561 4288085770
11.108131 1.6109198 -1.8254665 4288085770
5.4108543 0.94683611 -1.8091496 4288085770
7.7399979 1.2086309 -1.81785 4288085770
11.979275 1.6794101 -1.8379073 4288085770
7.1070061 1.1279777 -1.8123248 4288085770
3.3467979 0.70382857 -1.8135699 4288085770
11.757301 1.6405829 -1.8276528 4288085770
15.875584 2.0765786 -1.8224804 4288085770
8.0941582 1.2164532 -1.8178962 4288085770
5.582077 0.92874372 -1.8100268 4288085770
12.467472 1.6722156 -1.8298514 4288085770
3.4390068 0.68978095 -1.8134753 4288085770
7.3602371 1.1098443 -1.8132005 4288085770
8.4753189 1.2232686 -1.8169354 4288085770
12.42054 1.6411463 -1.8446461 4288085770
13.266651 1.7077793 -1.8360746 4288085770
16.751846 2.0680909 -1.8304099 4288085770
5.785305 0.91260374 -1.8159165 4288085770
8.8404846 1.2251171 -1.8119416 4288085770
3.5372238 0.67473054 -1.813374 4288085770
7.6254539 1.0927106 -1.8130826 4288085770
14.086834 1.7373759 -1.8352578 4288085770
12.896812 1.6008762 -1.8493712 4288085770
9.2706566 1.2298955 -1.8129665 4288085770
5.983532 0.8944906 -1.8177936 4288085770
17.630112 2.0456462 -1.8312466 4288085770
3.6314316 0.65969419 -1.811273 4288085770
15.015018 1.771907 -1.8364722 4288085770
7.9376755 1.0775222 -1.817977 4288085770
9.7388306 1.2346548 -1.8139908 4288085770
13.41708 1.5605723 -1.8560958 4288085770
