# .PCD v0.7 - Point Cloud Data file format
VERSION 0.7
FIELDS x y z rgb
SIZE 4 4 4 4
TYPE F F F U
COUNT 1 1 1 1
WIDTH 1117
HEIGHT 1
VIEWPOINT 0 0 0 1 0 0 0
POINTS 1117
DATA ascii
4.6946106 0.52883756 -1.8314419 4288085770
3.9556503 0.47059095 -1.8345081 4288085770
7.5825958 0.7417618 -1.8272035 4288085770
12.640507 1.1243132 -1.8338277 4288085770
10.065598 0.92052186 -1.8305384 4288085770
13.765633 1.1815351 -1.8600498 4288085770
4.8168182 0.51387167 -1.8311461 4288085770
4.0578613 0.45660841 -1.8362539 4288085770
7.8288116 0.72284973 -1.8236606 4288085770
10.52882 0.90663135 -1.8366222 4288085770
13.234779 1.0954643 -1.8395976 4288085770
14.569839 1.1787599 -1.8645636 4288085770
4.9510231 0.49989974 -1.8328329 4288085770
4.1650581 0.44363761 -1.8359954 4288085770
8.1400337 0.70591521 -1.8290085 4288085770
11.034042 0.89275491 -1.8426296 4288085770
15.491058 1.1749982 -1.8738581 4288085770
13.874058 1.063635 -1.8442706 4288085770
5.0982208 0.48592746 -1.8354963 4288085770
4.276268 0.42966306 -1.8367246 4288085770
8.4382362 0.6880064 -1.8283753 4288085770
11.519234 0.87492549 -1.8376538 4288085770
16.586308 1.1732486 -1.891844 4288085770
5.2514305 0.47096157 -1.8371438 4288085770
4.4014664 0.41668355 -1.8394332 4288085770
14.56432 1.029832 -1.8468403 4288085770
8.7684441 0.66910255 -1.8286788 4288085770
12.135445 0.86307514 -1.8454677 4288085770
5.4166222 0.45699036 -1.8407739 4288085770
17.708542 1.1615509 -1.9007312 4288085770
4.5026474 0.40173542 -1.8341759 4288085770
9.1336403 0.65220082 -1.8309278 4288085770
15.353592 0.99604619 -1.8522288 4288085770
12.81665 0.8502413 -1.8541577 4288085770
5.585804 0.4430306 -1.8423969 4288085770
4.6418304 0.38975632 -1.8378637 4288085770
9.5318413 0.63429987 -1.8351116 4288085770
13.434826 0.83147037 -1.8459337 4288085770
16.228855 0.96228445 -1.8584603 4288085770
5.7529831 0.42807496 -1.8430185 4288085770
4.7730103 0.37579358 -1.8375564 4288085770
9.9470329 0.61542416 -1.8352594 4288085770
14.224018 0.81670117 -1.8484162 4288085770
5.9331589 0.4131285 -1.8426166 4288085770
4.9251938 0.3628186 -1.8412155 4288085770
17.216114 0.92555845 -1.8644719 4288085770
10.410213 0.59755468 -1.8373243 4288085770
15.111202 0.80395341 -1.8527292 4288085770
6.1473351 0.39916432 -1.848157 4288085770
5.0613556 0.3488729 -1.8378989 4288085770
10.913399 0.57869792 -1.839311 4288085770
18.332375 0.88487446 -1.8702277 4288085770
16.160389 0.7922343 -1.8617505 4288085770
6.3535042 0.38421679 -1.8497074 4288085770
5.238533 0.33588672 -1.8455123 4288085770
11.489578 0.5608505 -1.8441689 4288085770
17.374584 0.78155875 -1.8724747 4288085770
6.5786667 0.37027538 -1.8512279 4288085770
5.419693 0.32391703 -1.850123 4288085770
12.096748 0.5420233 -1.8469653 4288085770
18.709755 0.76993692 -1.8799725 4288085770
6.8178215 0.35533428 -1.8537178 4288085770
5.5948524 0.30995977 -1.8517351 4288085770
12.79192 0.52320957 -1.8526005 4288085770
7.0449677 0.33941841 -1.8502247 4288085770
5.7900009 0.29700458 -1.8543155 4288085770
10.70702 0.42966223 -1.8299605 4288085770
11.289013 0.44684935 -1.8289789 4288085770
11.970024 0.46504426 -1.8328208 4288085770
10.169029 0.41149855 -1.8288568 4288085770
12.68903 0.48327065 -1.8325933 4288085770
9.663044 0.39435458 -1.8256997 4288085770
7.2860985 0.32450724 -1.8467109 4288085770
13.55608 0.50442338 -1.8571094 4288085770
13.521049 0.50250924 -1.8371639 4288085770
9.2170601 0.37821078 -1.8264375 4288085770
5.9681396 0.28307271 -1.850922 4288085770
14.470081 0.52277541 -1.8435253 4288085770
8.7920837 0.36108804 -1.824132 4288085770
8.4131126 0.3459655 -1.8247521 4288085770
15.487106 0.54208803 -1.8447572 4288085770
8.2391281 0.33792377 -1.8220314 4288085770
7.9101372 0.32880306 -1.8255894 4288085770
8.6281357 0.34803426 -1.8243686 4288085770
7.6061592 0.31868589 -1.8300966 4288085770
9.0371437 0.35716069 -1.8246641 4288085770
16.706146 0.56443107 -1.8526342 4288085770
8.0771637 0.32984185 -1.8282887 4288085770
7.3391876 0.30956066 -1.838541 4288085770
9.4881592 0.36629093 -1.826883 4288085770
7.079216 0.29945719 -1.842968 4288085770
9.986187 0.37542677 -1.8310158 4288085770
7.5732422 0.30958664 -1.8481129 4288085770
7.765213 0.31472111 -1.8327863 4288085770
18.006176 0.58484423 -1.8513532 4293729569
6.8202515 0.28835845 -1.8463881 4288085770
6.1802788 0.270123 -1.853471 4288085770
10.495209 0.38259482 -1.8291188 4288085770
14.442249 0.48465252 -1.8663901 4288085770
6.560276 0.27728879 -1.8438102 4288085770
7.4502563 0.2986331 -1.8302846 4288085770
11.069241 0.39076447 -1.8311076 4288085770
6.3283234 0.26520789 -1.8451762 4288085770
11.728275 0.39795196 -1.834936 4288085770
7.1953278 0.28351581 -1.8376781 4288085770
6.0983658 0.25414276 -1.8435435 4288085770
12.42733 0.40315652 -1.8376813 4288085770
7.8563728 0.29368436 -1.8455174 4288085770
6.4134178 0.2571708 -1.8579817 4288085770
6.9593964 0.26940465 -1.8450415 4288085770
15.422409 0.46392655 -1.8724936 4288085770
5.8864136 0.24207342 -1.8438729 4288085770
13.194374 0.40839314 -1.8383023 4288085770
5.6904678 0.23100424 -1.8451781 4288085770
6.6984558 0.25332868 -1.8434412 4288085770
14.108444 0.41264272 -1.8456491 4288085770
8.143486 0.27879834 -1.8399193 4288085770
6.6605492 0.24422812 -1.8614669 4288085770
5.4935265 0.21895385 -1.8424803 4288085770
6.4615288 0.23825073 -1.843802 4288085770
15.110512 0.41493523 -1.8498251 4288085770
16.546566 0.4432379 -1.8803338 4288085770
5.3045845 0.20690572 -1.8397681 4288085770
6.2416077 0.22317338 -1.8451314 4288085770
16.262592 0.41626167 -1.8567216 4288085770
8.5136147 0.26388562 -1.8451693 4288085770
6.8916588 0.2313143 -1.8579812 4288085770
5.1346588 0.1948539 -1.8390207 4288085770
17.761707 0.42060852 -1.8819976 4288085770
17.513668 0.41464424 -1.8584222 4288085770
6.032692 0.20810401 -1.8454411 4288085770
4.9677315 0.18280804 -1.8372682 4288085770
8.8997383 0.24899292 -1.8473899 4288085770
7.1277618 0.21740699 -1.8534814 4288085770
5.827774 0.1930455 -1.8437434 4288085770
4.823822 0.1707499 -1.8394737 4288085770
9.3078499 0.23410749 -1.8495702 4288085770
7.3868675 0.20450246 -1.8499442 4288085770
5.6368675 0.17798674 -1.8430201 4288085770
4.6539001 0.15772665 -1.8327221 4288085770
5.4509506 0.163939 -1.8402928 4288085770
9.7739677 0.21922183 -1.8556446 4288085770
7.6689606 0.19160104 -1.8473653 4288085770
4.5400009 0.14665377 -1.8398775 4288085770
10.270073 0.20436001 -1.8586636 4288085770
7.9680519 0.17870486 -1.8447551 4288085770
5.272049 0.14888847 -1.8385478 4288085770
4.3991051 0.13362002 -1.8370728 4288085770
8.316143 0.16680551 -1.8460597 4288085770
10.789162 0.18951595 -1.8596407 4288085770
5.1151619 0.13383496 -1.8387626 4288085770
4.2692032 0.12158525 -1.835253 4288085770
8.6982384 0.1539073 -1.8492974 4288085770
11.379265 0.17368031 -1.8634826 4288085770
4.9602699 0.11978745 -1.8379787 4288085770
9.1183205 0.14202178 -1.8524703 4288085770
12.048355 0.15886545 -1.8681852 4288085770
4.1513138 0.10953963 -1.8364111 4288085770
9.5744019 0.1301384 -1.8575773 4288085770
12.779438 0.14307117 -1.8727691 4288085770
4.8223953 0.10473013 -1.8401589 4288085770
10.065479 0.11827147 -1.8616201 4288085770
4.0364265 0.09749949 -1.8365638 4288085770
13.592518 0.12730312 -1.8772027 4288085770
10.600548 0.10641861 -1.8655823 4288085770
14.511597 0.11155999 -1.8834423 4288085770
4.6925201 0.090670586 -1.8433294 4288085770
11.178612 0.094589472 -1.8674659 4288085770
15.559673 0.095853567 -1.8904458 4288085770
11.832161 0.084661126 -1.8710051 4288085770
16.701229 0.081788659 -1.8909287 4288085770
4.5541306 0.077483892 -1.8405075 4288085770
12.573223 0.074960113 -1.8785717 4288085770
18.057297 0.065370917 -1.8983132 4288085770
13.324257 0.064317465 -1.8761144 4288085770
14.268311 0.05469048 -1.8873038 4288085770
15.284355 0.045124054 -1.8933595 4288085770
18.395336 0.038641453 -1.8765336 4288085770
16.409386 0.03662467 -1.8962184 4288085770
17.709412 0.029191852 -1.9017575 4288085770
4.4252625 0.063426971 -1.8396688 4288085770
17.017372 0.026027441 -1.8730271 4288085770
15.876427 0.013486862 -1.8760797 4288085770
14.772476 1.1920929e-05 -1.8700583 4288085770
4.3054161 0.048373938 -1.8388076 4288085770
13.823532 -0.013390899 -1.8637489 4288085770
13.012608 -0.026766419 -1.8641829 4288085770
4.1905556 0.03431797 -1.8389428 4288085770
12.264671 -0.040096402 -1.8614999 4288085770
17.499775 -0.09777844 -1.8774343 4288085770
11.604755 -0.054390669 -1.859648 4288085770
16.285858 -0.11433744 -1.8776004 4288085770
4.075695 0.021277905 -1.8360839 4288085770
11.005836 -0.067661524 -1.8586882 4288085770
15.224945 -0.12981975 -1.8764879 4288085770
10.456932 -0.081904054 -1.85663 4288085770
14.26804 -0.1462481 -1.8741765 4288085770
9.9520302 -0.09612596 -1.8544899 4288085770
13.356121 -0.16061783 -1.8647929 4288085770
9.4631195 -0.10931885 -1.8483258 4288085770
12.634235 -0.17696273 -1.8670449 4288085770
9.0302238 -0.12250209 -1.8450577 4288085770
11.974346 -0.19227362 -1.8681874 4288085770
8.6513405 -0.13667572 -1.8446836 4288085770
18.827644 -0.37539971 -1.9194059 4288085770
11.34346 -0.20754415 -1.8642761 4288085770
4.156353 -0.042783976 -1.8525766 4288085770
18.064674 -0.38165158 -1.9007906 4288085770
8.2794609 -0.15083051 -1.8412967 4288085770
17.530762 -0.38502008 -1.9237658 4288085770
10.813591 -0.22380489 -1.8671713 4288085770
4.266468 -0.057722926 -1.8502883 4288085770
16.292854 -0.38955939 -1.9180446 4288085770
7.9395828 -0.16497004 -1.8378502 4288085770
16.938847 -0.41118097 -1.9027206 4288085770
4.3785744 -0.071661115 -1.8480017 4288085770
10.303711 -0.23902398 -1.864035 4288085770
15.217934 -0.39102244 -1.9120369 4288085770
4.4976692 -0.085595608 -1.8457022 4288085770
7.7067451 -0.18116081 -1.8531934 4288085770
15.874012 -0.43865538 -1.8995485 4288085770
9.8138466 -0.25422895 -1.8598619 4288085770
14.265011 -0.39044434 -1.908814 4288085770
4.6437798 -0.10055494 -1.8503467 4288085770
7.4138794 -0.19528401 -1.8506596 4288085770
13.410088 -0.38882548 -1.9064144 4288085770
4.7818756 -0.11549139 -1.8500062 4288085770
9.357975 -0.26840705 -1.8536313 4288085770
4.1198807 -0.095781684 -1.847349 4288085770
12.597149 -0.38416034 -1.8989537 4288085770
14.866177 -0.46306044 -1.8882878 4288085770
4.9399719 -0.1304394 -1.8536285 4288085770
4.2399597 -0.10772634 -1.8470588 4288085770
7.1940422 -0.21144259 -1.8609788 4288085770
11.88221 -0.37946028 -1.893311 4288085770
8.9581146 -0.28357542 -1.8502908 4288085770
5.0900497 -0.1453644 -1.8522658 4288085770
4.3730392 -0.11968076 -1.8497443 4288085770
11.234272 -0.37373877 -1.8895493 4288085770
18.273495 -0.63969153 -1.924956 4288085770
14.104378 -0.49044114 -1.8935527 4288085770
5.2621384 -0.16030568 -1.855862 4288085770
4.4981041 -0.13161218 -1.8474448 4288085770
10.647308 -0.36598372 -1.8846853 4288085770
6.9321938 -0.22555691 -1.8593875 4288085770
16.937542 -0.61528325 -1.9205797 4288085770
4.6421738 -0.14355564 -1.8491101 4288085770
5.4582253 -0.1762569 -1.8634077 4288085770
8.579258 -0.29773372 -1.8469169 4288085770
10.125362 -0.35921913 -1.883695 4288085770
4.8012314 -0.15550292 -1.8527471 4288085770
15.747578 -0.59079027 -1.9129319 4288085770
5.6603012 -0.19219971 -1.8699428 4288085770
9.6133957 -0.35041279 -1.8756974 4288085770
4.9652977 -0.16844755 -1.8563696 4288085770
6.6993446 -0.23966831 -1.8597424 4288085770
14.696606 -0.5672375 -1.9060203 4288085770
9.1344185 -0.34059608 -1.8686439 4288085770
5.8263512 -0.20609033 -1.8635558 4288085770
13.361565 -0.51577562 -1.8917937 4288085770
5.1263428 -0.17937225 -1.8560086 4288085770
8.7134476 -0.33076245 -1.8634827 4288085770
13.811646 -0.5466491 -1.9067831 4288085770
8.2754288 -0.31490529 -1.8523868 4288085770
6.0434227 -0.22301 -1.8670571 4288085770
5.3063965 -0.19230938 -1.859601 4288085770
8.3214722 -0.32093173 -1.8612676 4288085770
5.5064354 -0.20424747 -1.865162 4288085770
12.999676 -0.52600509 -1.9034103 4288085770
7.971489 -0.31109166 -1.8609743 4288085770
6.2484703 -0.2379086 -1.865592 4288085770
5.7084694 -0.21616858 -1.8677192 4288085770
7.6865234 -0.30325824 -1.8675489 4288085770
12.219692 -0.50331956 -1.8949895 4288085770
5.9074974 -0.22807497 -1.8672819 4288085770
7.3915405 -0.29340249 -1.8691533 4288085770
6.4985237 -0.25482333 -1.8710319 4288085770
6.486515 -0.25478113 -1.8620543 4288085770
6.1175194 -0.23897636 -1.86683 4288085770
7.1225586 -0.28454548 -1.8727039 4288085770
6.3505402 -0.25088274 -1.8693296 4288085770
6.5925484 -0.26177925 -1.8708179 4288085770
6.8345528 -0.27265453 -1.8683065 4288085770
11.527706 -0.48160338 -1.8883992 4288085770
6.7355728 -0.2707122 -1.8705016 4288085770
12.662743 -0.53806847 -1.8859699 4288085770
10.946724 -0.46387708 -1.8895802 4288085770
7.9565887 -0.33004105 -1.8498961 4288085770
6.964592 -0.28557253 -1.8639922 4288085770
10.372723 -0.44310534 -1.8827653 4288085770
7.2456284 -0.30245113 -1.8653746 4288085770
9.8487282 -0.42431504 -1.876846 4288085770
7.5506592 -0.31932861 -1.8687121 4288085770
9.3597183 -0.40450317 -1.8698672 4288085770
7.8276711 -0.33416653 -1.8621134 4288085770
8.8996964 -0.38467687 -1.8628346 4288085770
8.1296768 -0.3499921 -1.8554622 4288085770
8.5107002 -0.36785012 -1.861653 4288085770
6.2576752 -0.26885909 -1.856402 4288085770
7.7037735 -0.34719396 -1.8562713 4288085770
12.007931 -0.55932474 -1.8770701 4288085770
18.364162 -0.87158436 -1.9114883 4288085770
6.0538368 -0.28294623 -1.8547031 4288085770
7.413929 -0.36130565 -1.8517323 4288085770
18.699402 -0.95749521 -1.9233832 4288085770
11.469135 -0.58257478 -1.8769436 4288085770
17.215351 -0.88609397 -1.9075459 4288085770
5.8660164 -0.297032 -1.8539747 4288085770
7.1531105 -0.37642515 -1.8511337 4288085770
10.986347 -0.60580379 -1.877713 4288085770
16.17355 -0.90055329 -1.903405 4288085770
5.6881981 -0.31211263 -1.8532218 4288085770
17.724678 -1.0049284 -1.919933 4288085770
6.9332962 -0.39254171 -1.8534533 4288085770
15.262756 -0.91595733 -1.9000149 4288085770
10.487556 -0.62600344 -1.8715292 4288085770
5.5023727 -0.32517081 -1.8474952 4288085770
6.7184982 -0.40965611 -1.8557583 4288085770
16.900963 -1.0523171 -1.9212019 4288085770
5.329567 -0.33923358 -1.8437389 4288085770
14.442959 -0.93131816 -1.896456 4288085770
10.07077 -0.64819133 -1.8701816 4288085770
18.604183 -1.2155284 -1.9201173 4288085770
6.5156937 -0.42575914 -1.8570465 4288085770
16.103245 -1.0956624 -1.9164455 4288085770
5.182766 -0.35430568 -1.8439287 4288085770
13.715179 -0.94764149 -1.8937205 4288085770
9.6850014 -0.6703701 -1.8697766 4288085770
6.3008804 -0.43983662 -1.8523685 4288085770
17.600437 -1.2390081 -1.9228557 4288085770
5.0429649 -0.36837947 -1.845111 4288085770
13.056393 -0.96393251 -1.8908566 4288085770
15.377529 -1.1369739 -1.9115664 4288085770
9.2722092 -0.68750858 -1.85945 4288085770
6.1260872 -0.45593208 -1.8546045 4288085770
16.605667 -1.2524464 -1.9186337 4288085770
4.9011688 -0.38243335 -1.8422973 4288085770
5.9232788 -0.46899343 -1.8479098 4288085770
12.434612 -0.97919041 -1.88493 4288085770
8.923439 -0.70764911 -1.8549877 4288085770
14.752819 -1.1782593 -1.9104998 4288085770
15.646885 -1.2588416 -1.909384 4288085770
4.7793884 -0.39750457 -1.8444407 4288085770
5.7635002 -0.48508215 -1.8501184 4288085770
11.897842 -0.99643505 -1.883834 4288085770
8.6216736 -0.7287938 -1.8554323 4288085770
14.787098 -1.2622067 -1.9029673 4288085770
14.166111 -1.2175162 -1.9073739 4288085770
4.6495972 -0.41155297 -1.8416046 4288085770
5.5927086 -0.50013942 -1.8453531 4288085770
11.410084 -1.014662 -1.8836416 4288085770
8.3339233 -0.74992722 -1.854851 4288085770
14.067322 -1.2695477 -1.9042678 4288085770
4.5338249 -0.42661619 -1.8427371 4288085770
13.316837 -1.2520483 -1.9276423 4288085770
5.1416626 -0.50941867 -1.8583429 4288085770
10.667858 -1.0294831 -1.903365 4288085770
7.7528152 -0.76389909 -1.8674029 4288085770
13.049969 -1.2650862 -1.9235717 4288085770
4.1138153 -0.4346059 -1.8509324 4288085770
4.9808922 -0.52342325 -1.8522584 4288085770
12.823132 -1.290148 -1.9244152 4288085770
10.254108 -1.0485779 -1.9022634 4288085770
7.5040665 -0.78495628 -1.8662763 4288085770
12.351185 -1.2601855 -1.9136554 4288085770
4.0130501 -0.45064932 -1.8528298 4288085770
4.8531151 -0.53947228 -1.8541578 4288085770
11.801392 -1.2613356 -1.9166871 4288085770
9.838356 -1.0636334 -1.8951898 4288085770
12.377438 -1.3282442 -1.9221851 4288085770
7.3103256 -0.81106019 -1.8741111 4288085770
3.9042854 -0.46466863 -1.8507419 4288085770
4.7253532 -0.55550873 -1.8540573 4288085770
11.251595 -1.2584535 -1.9147469 4288085770
9.4756012 -1.0807033 -1.8920987 4288085770
17.790848 -1.9844073 -1.9772769 4288085770
7.086586 -0.83111238 -1.8729898 4288085770
3.8085251 -0.47969824 -1.8506463 4288085770
11.976734 -1.3663368 -1.9209518 4288085770
4.5955925 -0.57053274 -1.851964 4288085770
10.729797 -1.2525519 -1.9108255 4288085770
16.668037 -1.9356159 -1.9696938 4288085770
9.1348648 -1.0987685 -1.8889995 4288085770
6.8828468 -0.85216665 -1.8728602 4288085770
10.22699 -1.2426327 -1.9049305 4288085770
4.4818344 -0.58656645 -1.8518627 4288085770
11.593048 -1.4044194 -1.9187177 4288085770
15.609219 -1.8837841 -1.9581271 4288085770
18.148315 -2.1884723 -1.9968463 4288085770
8.8161316 -1.1168228 -1.8848988 4288085770
9.7491798 -1.2317016 -1.8980405 4288085770
6.6901169 -0.87421846 -1.8727232 4288085770
4.3710823 -0.60259312 -1.8507611 4288085770
14.681393 -1.8379481 -1.9505101 4288085770
11.270363 -1.4455208 -1.921459 4288085770
9.2903633 -1.2187595 -1.8901632 4288085770
17.400627 -2.21663 -1.9937066 4288085770
8.5703964 -1.1409258 -1.8907516 4288085770
13.846573 -1.7961111 -1.9458588 4288085770
6.495388 -0.89325809 -1.8706071 4288085770
4.2593307 -0.6176132 -1.8486668 4288085770
18.542789 -2.4044363 -2.0023313 4288085770
8.896553 -1.209842 -1.8882539 4288085770
13.086739 -1.7542436 -1.9392028 4288085770
10.939682 -1.4825916 -1.9192286 4288085770
8.3056679 -1.1609874 -1.8896334 4288085770
16.744938 -2.2487803 -1.9925336 4288085770
4.1575813 -0.63264453 -1.8485718 4288085770
8.522728 -1.1989197 -1.8863567 4288085770
6.3276596 -0.91530466 -1.8704685 4288085770
12.376907 -1.7143717 -1.9335293 4288085770
17.707088 -2.4146276 -2.0013223 4288085770
8.1928978 -1.1900067 -1.8874428 4288085770
10.653 -1.5226787 -1.9209745 4288085770
8.0639458 -1.1820507 -1.8895072 4288085770
11.741074 -1.6774888 -1.9288298 4288085770
4.0538445 -0.6476568 -1.845477 4288085770
16.092255 -2.2738976 -1.9864091 4288085770
6.1629448 -0.93635076 -1.8703369 4288085770
7.8580704 -1.1790755 -1.885543 4288085770
16.881374 -2.4127774 -1.9943959 4288085770
11.165234 -1.6436125 -1.9271055 4288085770
7.8242188 -1.2011001 -1.8873945 4288085770
3.9590988 -0.66268027 -1.8443817 4288085770
10.402325 -1.5637708 -1.924711 4288085770
7.5612335 -1.168155 -1.8866407 4288085770
6.0062256 -0.95638871 -1.8692113 4288085770
10.607395 -1.6077058 -1.9213939 4288085770
15.526566 -2.304008 -1.9822437 4288085770
16.118664 -2.4119329 -1.9904581 4288085770
7.2433968 -1.1531935 -1.8807673 4288085770
10.070541 -1.5687808 -1.9137014 4288085770
3.8673706 -0.67870343 -1.8432792 4288085770
7.5835075 -1.2191377 -1.8832891 4288085770
10.120644 -1.5978179 -1.9204986 4288085770
6.9755554 -1.1422664 -1.8818628 4288085770
5.8505211 -0.97742027 -1.8670794 4288085770
9.5776825 -1.5318396 -1.9049922 4288085770
15.024887 -2.3381305 -1.982047 4288085770
15.37394 -2.4020579 -1.9825815 4288085770
6.7027016 -1.1273072 -1.8779864 4288085770
3.7906303 -0.6947422 -1.8451756 4288085770
9.1278229 -1.4979014 -1.8982592 4288085770
7.3827934 -1.2401921 -1.8831602 4288085770
5.7038078 -0.99744976 -1.8649535 4288085770
9.861969 -1.6328663 -1.9172777 4288085770
6.4588547 -1.1153681 -1.878087 4288085770
8.7279625 -1.4679778 -1.8954951 4288085770
14.680222 -2.3911848 -1.9767083 4288085770
14.535217 -2.3702245 -1.9778632 4288085770
6.2189865 -1.1004145 -1.8762083 4288085770
8.3500977 -1.4380424 -1.8917294 4288085770
7.1840858 -1.2612334 -1.8810313 4288085770
5.5801086 -1.0205067 -1.8678054 4288085770
5.9931335 -1.0874642 -1.8753146 4288085770
8.0202293 -1.413142 -1.8949256 4288085770
9.614296 -1.667906 -1.9130564 4288085770
14.042488 -2.3803053 -1.9718312 4288085770
14.127541 -2.4073324 -1.9786392 4288085770
5.761261 -1.0704823 -1.8694491 4288085770
7.6643562 -1.3811755 -1.8871723 4288085770
6.9963799 -1.2812786 -1.8799087 4288085770
5.5623932 -1.0575325 -1.8695534 4288085770
7.359478 -1.3552364 -1.8853737 4288085770
5.4564095 -1.0425507 -1.8686644 4288085770
13.407761 -2.3624058 -1.9640023 4288085770
9.4116325 -1.7079747 -1.9147973 4288085770
5.3635178 -1.0425692 -1.8676716 4288085770
7.0665932 -1.3282881 -1.8825814 4288085770
13.72887 -2.4434257 -1.9774221 4288085770
6.8316879 -1.3053319 -1.8807569 4288085770
5.1806374 -1.0286086 -1.8667819 4288085770
6.786705 -1.3013428 -1.8807877 4288085770
5.3287086 -1.0625764 -1.8665376 4288085770
12.842033 -2.3485236 -1.961141 4288085770
5.0067482 -1.0146521 -1.8668913 4288085770
6.5348167 -1.2773981 -1.8799717 4288085770
9.2029648 -1.7440187 -1.9125664 4288085770
13.331211 -2.4764924 -1.972226 4288085770
6.292923 -1.253457 -1.880155 4288085770
4.8268661 -0.99867135 -1.8630151 4288085770
6.6659851 -1.3263724 -1.8796262 4288085770
6.0350151 -1.2244676 -1.8723737 4288085770
4.6639671 -0.98370576 -1.8621306 4288085770
12.333294 -2.3376474 -1.961255 4288085770
5.2070236 -1.083601 -1.8644037 4288085770
5.8211174 -1.2025201 -1.8725411 4288085770
4.5110703 -0.96973771 -1.8612385 4288085770
9.0103035 -1.7810658 -1.911328 4288085770
5.6032066 -1.1775407 -1.8677294 4288085770
4.3611641 -0.9547689 -1.8603531 4288085770
13.000542 -2.5155768 -1.9719836 4288085770
6.5292892 -1.351439 -1.8834656 4288085770
11.803555 -2.3157308 -1.9544464 4288085770
5.4172935 -1.1565993 -1.8698877 4288085770
4.2112656 -0.93978733 -1.8574678 4288085770
5.1083298 -1.1066462 -1.8662543 4288085770
5.2293701 -1.1336389 -1.86906 4288085770
4.0703583 -0.92480981 -1.8555815 4288085770
5.0494537 -1.1126766 -1.8682179 4288085770
8.8256416 -1.8181047 -1.9090891 4288085770
3.9514351 -0.91185957 -1.85868 4288085770
11.323807 -2.2968287 -1.9516138 4288085770
4.8685226 -1.088688 -1.8633966 4288085770
6.377594 -1.3714701 -1.881341 4288085770
12.686886 -2.5556579 -1.9717337 4288085770
18.357151 -3.622889 -2.0469775 4288085770
3.8235168 -0.89687872 -1.8567929 4288085770
4.6985931 -1.0657035 -1.8595676 4288085770
4.9926376 -1.125656 -1.8621339 4288085770
4.5366516 -1.0437235 -1.8567312 4288085770
4.3927078 -1.0237526 -1.8558795 4288085770
10.870064 -2.2769146 -1.947786 4288085770
4.2507706 -1.0037807 -1.8550277 4288085770
17.331379 -3.5280728 -2.0387075 4288085770
8.6539879 -1.8561478 -1.9078424 4288085770
6.2319031 -1.3924932 -1.878209 4288085770
4.1198158 -0.9848125 -1.8551681 4288085770
12.381226 -2.5927172 -1.9685041 4288085770
3.9818611 -0.96382004 -1.8513228 4288085770
3.8649025 -0.94585514 -1.8524555 4288085770
4.9049568 -1.1497123 -1.8659772 4288085770
10.471313 -2.2630267 -1.9499131 4288085770
16.358604 -3.4312181 -2.0264478 4288085770
6.1162224 -1.4185556 -1.8820407 4288085770
8.5113373 -1.8982096 -1.9105664 4288085770
12.089573 -2.6307673 -1.9642667 4288085770
4.8232803 -1.1747608 -1.8688132 4288085770
10.007561 -2.2310627 -1.938169 4288085770
15.488831 -3.3453732 -2.0191045 4288085770
5.9945412 -1.4425933 -1.8818868 4288085770
8.3516846 -1.9352367 -1.9073263 4288085770
14.646046 -3.2544832 -2.0057938 4288085770
9.5948029 -2.2041194 -1.9313868 4288085770
11.83992 -2.6728339 -1.9639992 4288085770
4.7316017 -1.196792 -1.8686707 4288085770
5.8778572 -1.4656364 -1.8827393 4288085770
13.894268 -3.1746106 -1.998401 4288085770
9.1970444 -2.1761665 -1.9236104 4288085770
8.2270355 -1.9772884 -1.9090494 4288085770
11.608265 -2.7158961 -1.9637238 4288085770
4.6239281 -1.214788 -1.8625572 4288085770
13.180489 -3.0947042 -1.9870054 4288085770
8.8182716 -2.1462088 -1.9158463 4288085770
5.7651787 -1.4886657 -1.8815919 4288085770
8.1003838 -2.0183342 -1.9097797 4288085770
11.422619 -2.7669806 -1.9683899 4288085770
4.5552521 -1.23984 -1.8663924 4288085770
12.536701 -3.0218136 -1.9805566 4288085770
8.4695091 -2.1202643 -1.9110527 4288085770
5.656498 -1.5116941 -1.8804443 4288085770
11.928913 -2.9509087 -1.9730912 4288085770
8.1647377 -2.0993416 -1.9112214 4288085770
7.9757385 -2.0583665 -1.908517 4288085770
4.4795837 -1.2628741 -1.8672422 4288085770
11.21397 -2.8110251 -1.9661063 4288085770
11.389118 -2.8870072 -1.968573 4288085770
5.5538292 -1.5357276 -1.8802893 4288085770
7.8669624 -2.0763979 -1.9084034 4288085770
7.8591003 -2.0994039 -1.9082471 4288085770
4.4039116 -1.2849088 -1.8680992 4288085770
11.047325 -2.8630989 -1.9697651 4288085770
10.849327 -2.8190737 -1.959082 4288085770
7.5911827 -2.0544684 -1.9085767 4288085770
5.4671555 -1.5617708 -1.8821197 4288085770
10.346531 -2.754138 -1.9505676 4288085770
7.3054047 -2.0285094 -1.9037784 4288085770
4.3062439 -1.301883 -1.8589922 4288085770
7.7514534 -2.1404388 -1.9079765 4288085770
10.864681 -2.9091439 -1.9684664 4288085770
9.8837242 -2.6921992 -1.94303 4288085770
5.3694839 -1.584797 -1.8809717 4288085770
7.0376167 -2.0025589 -1.9009787 4288085770
4.2535858 -1.328945 -1.8648132 4288085770
9.4609146 -2.6352582 -1.9364548 4288085770
7.664814 -2.1864886 -1.9106704 4288085770
10.702042 -2.9581909 -1.9681457 4288085770
6.8088341 -1.9836252 -1.902128 4288085770
18.772556 -4.9992332 -2.0955298 4288085770
5.2868195 -1.6108329 -1.881802 4288085770
9.057106 -2.5803189 -1.9308646 4288085770
6.5940399 -1.9647008 -1.9052762 4288085770
4.1859169 -1.3509647 -1.8636698 4288085770
7.5671692 -2.2285213 -1.9103928 4288085770
17.984844 -4.9273844 -2.0900869 4288085770
10.551395 -3.0072351 -1.9678246 4288085770
8.6842918 -2.5273786 -1.9262581 4288085770
5.2151527 -1.6388792 -1.8846179 4288085770
6.3492393 -1.9367256 -1.8994886 4288085770
8.3254776 -2.4754291 -1.9206438 4288085770
4.1222572 -1.3739903 -1.8635192 4288085770
17.216137 -4.8515182 -2.0826712 4288085770
6.1304398 -1.9127631 -1.8966715 4288085770
7.4795265 -2.2715516 -1.9101076 4288085770
10.408752 -3.0572777 -1.967496 4288085770
8.0046616 -2.4305034 -1.9199785 4288085770
5.1414909 -1.6659197 -1.8864409 4288085770
5.9326439 -1.8928221 -1.8978252 4288085770
4.0646019 -1.3980209 -1.8643616 4288085770
7.6988449 -2.385561 -1.9173121 4288085770
16.479424 -4.772645 -2.075273 4288085770
7.4148903 -2.3206029 -1.9137799 4288085770
10.282116 -3.1113234 -1.9681393 4288085770
5.7248344 -1.8668573 -1.8950211 4288085770
5.0718269 -1.6929593 -1.8882638 4288085770
7.3970184 -2.3385978 -1.9116591 4288085770
5.5260162 -1.8408772 -1.8902161 4288085770
15.762707 -4.689754 -2.065901 4288085770
4.0079422 -1.4220514 -1.865204 4288085770
7.1391907 -2.3006699 -1.9129407 4288085770
7.3352585 -2.3656321 -1.913481 4288085770
10.166481 -3.1673665 -1.9687682 4288085770
4.9931755 -1.7179751 -1.8861012 4288085770
5.3632126 -1.8239473 -1.8943467 4288085770
6.8783569 -2.2597232 -1.9112434 4288085770
15.065994 -4.6038461 -2.054548 4288085770
3.9542999 -1.4470816 -1.8660396 4288085770
5.1883888 -1.800981 -1.8925194 4288085770
6.60252 -2.2117348 -1.9025954 4288085770
7.2546196 -2.4086547 -1.912196 4288085770
10.06884 -3.2254181 -1.9713825 4288085770
4.9225082 -1.7429953 -1.8849382 4288085770
5.0195694 -1.7780198 -1.8916913 4288085770
6.3786812 -2.1757987 -1.9038607 4288085770
14.437271 -4.5259485 -2.0471351 4288085770
3.9056435 -1.4721168 -1.8678747 4288085770
4.8617477 -1.7570624 -1.8918489 4288085770
6.1358414 -2.1328154 -1.8971756 4288085770
7.1849785 -2.4536815 -1.9118967 4288085770
9.9692039 -3.2824512 -1.9710039 4288085770
4.8688507 -1.7730445 -1.8887398 4288085770
13.807545 -4.4400249 -2.0357773 4288085770
5.935997 -2.0998735 -1.8984185 4288085770
4.7059212 -1.7350981 -1.8910131 4288085770
3.871994 -1.5011747 -1.8736814 4288085770
5.7181435 -2.0598972 -1.893711 4288085770
4.5480843 -1.710108 -1.8861982 4288085770
7.1173439 -2.4987009 -1.9105974 4288085770
4.8011818 -1.7970574 -1.8865837 4288085770
9.8665657 -3.3374777 -1.9696394 4288085770
13.254822 -4.3691301 -2.0313106 4288085770
5.5342903 -2.0269451 -1.8939524 4288085770
4.4012489 -1.6871347 -1.8843684 4288085770
5.354435 -1.9949918 -1.8941869 4288085770
3.8243332 -1.5251966 -1.8735235 4288085770
4.2554016 -1.662148 -1.8805524 4288085770
12.720097 -4.2962174 -2.0248561 4288085770
4.754528 -1.828105 -1.8903779 4288085770
5.1835709 -1.9630303 -1.8934207 4288085770
7.1007156 -2.5597804 -1.920185 4288085770
9.803936 -3.4055343 -1.9741834 4288085770
4.123558 -1.6411777 -1.8797078 4288085770
5.0167084 -1.9310672 -1.8926539 4288085770
18.380714 -6.1433024 -1.9217665 4293729569
3.78368 -1.55123 -1.8753517 4288085770
3.9827156 -1.6161704 -1.8728914 4288085770
12.211361 -4.2232985 -2.0183997 4288085770
4.8578339 -1.9000962 -1.8908798 4288085770
4.6878777 -1.8531116 -1.8872154 4288085770
7.0450821 -2.6078038 -1.9198645 4288085770
9.7243042 -3.4665694 -1.9747766 4288085770
3.8738632 -1.5992272 -1.8770175 4288085770
4.7159576 -1.8721466 -1.8930836 4288085770
17.235924 -5.8944216 -1.8995655 4293729569
3.7520065 -1.5772409 -1.8741789 4288085770
4.558075 -1.8381552 -1.88833 4288085770
11.708633 -4.1473656 -2.0099638 4288085770
4.4181938 -1.8091788 -1.8865405 4288085770
4.6232109 -1.8761111 -1.8830662 4288085770
6.9974518 -2.6588321 -1.9205234 4288085770
9.6636734 -3.5326128 -1.9773346 4288085770
16.324158 -5.7095909 -1.8929081 4293729569
4.2823029 -1.7792017 -1.8847574 4288085770
11.246895 -4.076436 -2.00349 4288085770
4.1504097 -1.750217 -1.8819674 4288085770
4.5825539 -1.9071507 -1.8858604 4288085770
15.457386 -5.5267363 -1.8842332 4293729569
4.0145073 -1.7182199 -1.877198 4288085770
6.933815 -2.7028375 -1.9172316 4288085770
9.6000366 -3.5966372 -1.9769067 4288085770
10.818157 -4.010519 -1.9999794 4288085770
3.898613 -1.6922441 -1.8763858 4288085770
3.7787094 -1.6642563 -1.8735877 4288085770
14.793617 -5.3999381 -1.8911588 4293729569
4.5278969 -1.9331613 -1.8836904 4288085770
10.387417 -3.9385691 -1.99151 4288085770
6.9101791 -2.7598796 -1.9208479 4288085770
9.5583992 -3.6666822 -1.980436 4288085770
14.263866 -5.3131866 -1.9098002 4293729569
9.9766693 -3.8666215 -1.9840389 4288085770
4.4862404 -1.9631944 -1.8854918 4288085770
9.4967575 -3.7296991 -1.9790155 4288085770
6.8775368 -2.8129101 -1.9224923 4288085770
13.889126 -5.2735033 -1.9441077 4293729569
9.5619202 -3.789649 -1.9726027 4288085770
4.4415817 -1.9912088 -1.8843074 4288085770
13.518383 -5.2297983 -1.9754421 4293729569
6.8318939 -2.860918 -1.9201723 4288085770
9.4661293 -3.8047357 -1.9815108 4288085770
9.22118 -3.7337241 -1.9710165 4288085770
13.252644 -5.2191467 -2.0185425 4288085770
4.3969154 -2.0182166 -1.88213 4288085770
8.8614273 -3.6647582 -1.9625207 4288085770
9.4304962 -3.8767662 -1.9830269 4288085770
6.8252716 -2.9249759 -1.9267401 4288085770
12.935894 -5.1864495 -2.0527973 4288085770
4.3622589 -2.0492485 -1.8839245 4288085770
8.5326691 -3.6028109 -1.9579748 4288085770
14.127968 -5.6892343 -0.82824141 4293729569
12.390106 -5.0615659 -2.0506999 4288085770
9.4038506 -3.9507952 -1.9845291 4288085770
6.8026352 -2.9819977 -1.9273573 4288085770
13.972122 -5.6853013 -0.83228445 4293729569
8.2309151 -3.5478635 -1.9543787 4288085770
4.3265877 -2.0782669 -1.8837328 4288085770
14.077072 -5.7550793 -0.031782661 4293729569
11.802315 -4.9146199 -2.0377562 4288085770
14.051296 -5.772994 -0.78668165 4293729569
9.3892174 -4.0298209 -1.9859966 4288085770
6.7939987 -3.043036 -1.9309461 4288085770
13.901295 -5.7607317 -0.12476528 4293729569
7.935154 -3.4899087 -1.9498025 4288085770
13.898468 -5.7696199 -0.87672287 4293729569
11.243519 -4.7726617 -2.0237756 4288085770
4.2919273 -2.1082857 -1.8835344 4288085770
13.995403 -5.8378487 0.008769419 4293729569
14.043625 -5.8807449 -0.7459529 4293729569
7.6613922 -3.4359612 -1.9471971 4288085770
9.3855858 -4.1138639 -1.990429 4288085770
10.755726 -4.6507254 -2.0156527 4288085770
6.7713509 -3.0990579 -1.9315704 4288085770
13.857639 -5.8530636 -0.17214672 4293729569
13.872822 -5.8729596 -0.92602801 4293729569
14.004738 -5.9545832 0.051560611 4293729569
4.2602692 -2.139297 -1.8823292 4288085770
7.3966255 -3.3830123 -1.944584 4288085770
10.302925 -4.5347877 -2.0084851 4288085770
13.861973 -5.9623961 -0.22140847 4293729569
9.3669434 -4.190877 -1.9899112 4288085770
6.7617149 -3.1600828 -1.9331598 4288085770
13.955177 -6.0153251 -0.98305815 4293729569
7.1318512 -3.3260431 -1.9389983 4288085770
9.8531227 -4.4168229 -1.9973315 4288085770
4.2276001 -2.1683149 -1.8821377 4288085770
9.3733025 -4.2769098 -1.9933299 4288085770
9.442318 -4.3088679 -1.9891063 4288085770
6.8880806 -3.2750821 -1.93537 4288085770
6.7520752 -3.2211084 -1.9347495 4288085770
4.2089272 -2.202342 -1.8839109 4288085770
9.0335121 -4.1948938 -1.9779214 4288085770
6.6543045 -3.2241254 -1.9327404 4288085770
9.3886681 -4.368948 -1.9977072 4288085770
6.7484322 -3.2841258 -1.9353253 4288085770
4.1822472 -2.2323585 -1.8837123 4288085770
8.6786995 -4.0999389 -1.9716023 4288085770
6.4275131 -3.1721535 -1.9281173 4288085770
8.3448868 -4.0089855 -1.9662544 4288085770
9.4100266 -4.4629779 -2.0010712 4288085770
6.753788 -3.35116 -1.9388732 4288085770
6.2087326 -3.1221805 -1.9234798 4288085770
4.1505699 -2.2603564 -1.8805279 4288085770
8.0490723 -3.9300461 -1.9638244 4288085770
5.9979439 -3.0722084 -1.9188448 4288085770
9.4243851 -4.5550003 -2.0024526 4288085770
6.7611389 -3.4191976 -1.9424175 4288085770
7.7322578 -3.8390694 -1.9554743 4288085770
4.1348991 -2.2953866 -1.8822975 4288085770
5.8111496 -3.029247 -1.9171562 4288085770
7.4704323 -3.7671318 -1.9549896 4288085770
9.457737 -4.6540341 -2.0067806 4288085770
5.618351 -2.9812675 -1.9125024 4288085770
6.7564926 -3.482203 -1.9409933 4288085770
4.1202164 -2.3294134 -1.8840708 4288085770
7.1956024 -3.6871581 -1.9485608 4288085770
5.4445496 -2.9393094 -1.9118057 4288085770
6.9337769 -3.6101813 -1.9421102 4288085770
9.5070877 -4.7590709 -2.0120668 4288085770
4.1065292 -2.3634329 -1.8848436 4288085770
6.7658424 -3.5512238 -1.9425274 4288085770
5.2677498 -2.8943262 -1.9071299 4288085770
6.6919403 -3.5382123 -1.9376239 4288085770
5.1049423 -2.853359 -1.9054255 4288085770
9.5784454 -4.8771286 -2.0212631 4288085770
6.470108 -3.4722519 -1.9350946 4288085770
4.0988464 -2.4004648 -1.8875958 4288085770
6.7871857 -3.6242614 -1.9470333 4288085770
6.2522621 -3.4062839 -1.9315653 4288085770
4.940136 -2.8093729 -1.9007418 4288085770
4.0941544 -2.4374952 -1.8903477 4288085770
9.6467972 -4.994173 -2.0284667 4288085770
6.0424118 -3.3403072 -1.927035 4288085770
6.8025322 -3.696281 -1.948547 4288085770
4.8053169 -2.7764242 -1.9029803 4288085770
5.8515739 -3.2823386 -1.9244484 4288085770
4.6534882 -2.7334342 -1.8982884 4288085770
4.0814629 -2.4715018 -1.8891209 4288085770
9.622139 -5.0691237 -2.0179648 4288085770
5.6627159 -3.2213635 -1.920882 4288085770
6.8138733 -3.7662888 -1.9480747 4288085770
4.5216789 -2.6994786 -1.8995335 4288085770
5.4718513 -3.1583691 -1.9143293 4288085770
4.0727654 -2.5065198 -1.8898871 4288085770
4.3778381 -2.6564736 -1.8928407 4288085770
9.4354515 -5.0659118 -1.9770085 4288085770
5.2999878 -3.1013889 -1.9107342 4288085770
6.8512154 -3.8483286 -1.9535185 4288085770
4.2590065 -2.6245143 -1.8940709 4288085770
5.1321182 -3.0443952 -1.9051385 4288085770
4.0710678 -2.5445428 -1.8916322 4288085770
4.9822426 -2.9944229 -1.9034934 4288085770
4.1261635 -2.5835197 -1.8893634 4288085770
9.2527504 -5.060699 -1.9360653 4293729569
6.8625565 -3.9193292 -1.9520401 4288085770
4.837368 -2.9444427 -1.9008479 4288085770
4.0243301 -2.5565693 -1.892558 4288085770
4.0673523 -2.5805531 -1.8913913 4288085770
4.7084846 -2.9014845 -1.9021534 4288085770
9.1680679 -5.1015668 -1.9108008 4293729569
3.9174805 -2.5256066 -1.8937799 4288085770
4.5715942 -2.8524957 -1.8985002 4288085770
6.9048996 -4.0053611 -1.9564568 4288085770
4.0596428 -2.6145575 -1.8901643 4288085770
3.7986221 -2.4866014 -1.8880575 4288085770
4.4506989 -2.8095219 -1.8978046 4288085770
4.3248024 -2.7635303 -1.8941298 4288085770
9.0983849 -5.14745 -1.8885009 4293729569
3.6937637 -2.4536188 -1.8862928 4288085770
4.2048912 -2.7175364 -1.8904544 4288085770
6.9582253 -4.0954037 -1.9628454 4288085770
4.065937 -2.6555848 -1.8928885 4288085770
3.5969048 -2.4236472 -1.886507 4288085770
4.0989838 -2.6785655 -1.89073 4288085770
3.9970665 -2.6395867 -1.8900054 4288085770
3.5060349 -2.3946738 -1.8867137 4288085770
9.0506973 -5.2033477 -1.8691314 4293729569
3.8951416 -2.5995946 -1.8872873 4288085770
6.986557 -4.1744061 -1.9623116 4288085770
4.0662117 -2.6925936 -1.8926407 4288085770
3.4091606 -2.3616757 -1.8829483 4288085770
3.8012085 -2.5616131 -1.8865547 4288085770
3.7122726 -2.5256307 -1.8858081 4288085770
3.619339 -2.4876299 -1.8820755 4288085770
9.0380096 -5.2752681 -1.85465 4293729569
3.5303802 -2.4486337 -1.8793491 4288085770
4.074482 -2.7326198 -1.8953717 4288085770
3.4474297 -2.4126425 -1.8776016 4288085770
7.0338821 -4.263423 -1.9647084 4288085770
3.386467 -2.3866849 -1.8817842 4288085770
9.0273209 -5.3471889 -1.8401686 4293729569
4.0777512 -2.7706211 -1.8941169 4288085770
11.912697 -6.8577638 -1.8716496 4293729569
7.0742035 -4.3484359 -1.966133 4288085770
4.0880127 -2.8106332 -1.8948476 4288085770
11.394897 -6.6678309 -1.8629929 4293729569
9.0846329 -5.4541645 -1.8364434 4293729569
7.1045151 -4.4274244 -1.9635996 4288085770
10.688061 -6.3687305 -1.8220931 4293729569
4.0952721 -2.8496399 -1.8945858 4288085770
9.1649437 -5.573153 -1.8356348 4293729569
7.1568222 -4.5184336 -1.9649824 4288085770
10.221252 -6.1907797 -1.8123496 4293729569
4.1105232 -2.8916574 -1.8963026 4288085770
9.3072624 -5.7271791 -1.8425833 4293729569
7.2201309 -4.6154594 -1.9693242 4288085770
9.9714737 -6.1239696 -1.8318324 4293729569
4.1297684 -2.9356732 -1.8980058 4288085770
9.3845711 -5.8471489 -1.8387687 4293729569
9.700695 -6.043139 -1.8474121 4293729569
4.155014 -2.9827003 -1.901688 4288085770
7.3364487 -4.7435303 -1.9824506 4288085770
9.5198784 -5.9981565 -1.8427386 4293729569
9.2058563 -5.8310914 -1.8219012 4293729569
4.1702461 -3.0236979 -1.9004117 4288085770
7.4497604 -4.8695951 -1.9945911 4288085770
8.4389763 -5.4597659 -1.7444943 4293729569
4.1974792 -3.0707176 -1.9030937 4288085770
9.5901718 -6.1151018 -1.8349458 4293729569
7.5090561 -4.966589 -1.9939338 4288085770
8.1761665 -5.364862 -1.7491673 4293729569
4.2216949 -3.1147246 -1.9037963 4288085770
9.6344528 -6.2160139 -1.821264 4293729569
3.2326889 -2.5668664 -1.8916045 4288085770
7.4243202 -4.9804044 -1.9608532 4288085770
7.9693642 -5.2990026 -1.7626383 4293729569
4.2589149 -3.1667485 -1.9074435 4288085770
9.8617592 -6.4220705 -1.8358531 4293729569
3.2469177 -2.6018829 -1.8933691 4288085770
4.2931175 -3.215766 -1.9101113 4288085770
7.8145676 -5.2591829 -1.7839282 4293729569
7.3125648 -4.9761806 -1.9208974 4293729569
3.2591438 -2.6358871 -1.8931406 4288085770
10.11507 -6.6461325 -1.852318 4293729569
4.3223114 -3.2607584 -1.9088066 4288085770
7.6317482 -5.2003179 -1.7973492 4293729569
7.9497147 -5.3898449 -1.4260268 4293729569
7.2458153 -4.9960036 -1.8897742 4293729569
4.3595123 -3.3107686 -1.9104674 4288085770
3.2603569 -2.6628618 -1.8879606 4288085770
7.8468857 -5.3710823 -1.4581684 4293729569
7.4759369 -5.1544785 -1.8156794 4293729569
7.8299141 -5.3681655 -1.4701908 4293729569
4.4026909 -3.3627825 -1.9131137 4288085770
7.7306175 -5.3294744 0.030569557 4293729569
7.2260704 -5.0418868 -1.8694705 4293729569
7.8050575 -5.3863635 -1.4990737 4293729569
3.2825661 -2.7008824 -1.8907038 4288085770
7.3341141 -5.1146417 -1.8349674 4293729569
7.7551498 -5.3829837 -1.4381025 4293729569
7.7702255 -5.402648 -1.5409714 4293729569
4.4458618 -3.4137836 -1.913767 4288085770
7.1712837 -5.0587707 -1.8483658 4293729569
3.2997704 -2.7358847 -1.890468 4288085770
7.6978683 -5.3676858 0.00081889704 4293729569
7.1723175 -5.06672 -1.8403124 4293729569
7.7283821 -5.4139223 -1.5809034 4293729569
4.4840355 -3.4617796 -1.9134411 4288085770
7.7053757 -5.4098153 -1.4089305 4293729569
7.0294456 -5.0129137 -1.8646942 4293729569
3.3259697 -2.7758973 -1.8921974 4288085770
7.6945381 -5.4282069 -1.6228143 4293729569
4.5331917 -3.5147791 -1.9140801 4288085770
7.6981201 -5.4259009 -0.030793335 4293729569
7.2005653 -5.1386428 -1.8278278 4293729569
6.9116096 -4.9790773 -1.8849388 4293729569
7.6516762 -5.434473 -1.66178 4293729569
7.6636086 -5.4406514 -1.3807309 4293729569
3.3551521 -2.8159156 -1.8949263 4288085770
4.5933418 -3.5737944 -1.9176773 4288085770
7.7043648 -5.4861212 -0.063391417 4293729569
7.6208153 -5.4467435 -1.7017041 4293729569
7.207798 -5.1965308 -1.8094403 4293729569
6.8207741 -4.9602599 -1.9090794 4293729569
4.6404915 -3.6247869 -1.91733 4288085770
3.3693314 -2.8468981 -1.8917179 4288085770
7.6528282 -5.4885054 -1.3564128 4293729569
7.5579453 -5.4379888 -1.7367731 4293729569
4.7096252 -3.6878066 -1.921899 4288085770
6.7479324 -4.9484639 -1.9371703 4288085770
7.7716141 -5.5823388 -0.097739965 4293729569
3.3964996 -2.8849034 -1.8924605 4288085770
7.4870567 -5.4212103 -1.767897 4293729569
7.2670441 -5.286478 -1.8018311 4293729569
4.7767601 -3.748807 -1.9234819 4288085770
6.6940842 -4.9476881 -1.9691848 4288085770
7.6470413 -5.5373588 -1.3320874 4293729569
7.3391495 -5.3543406 -1.7823668 4293729569
4.8428764 -3.807807 -1.9250783 4288085770
3.4326668 -2.9279194 -1.8951683 4288085770
7.1982346 -5.288475 -1.7978287 4293729569
6.6022186 -4.9208508 -1.990379 4288085770
7.2882729 -5.3513761 -1.7853947 4293729569
4.9219894 -3.8738232 -1.9296259 4288085770
7.6632614 -5.5992188 -1.309672 4293729569
7.0743141 -5.2326117 -1.8142214 4293729569
3.4658241 -2.9679224 -1.8958968 4288085770
4.9930954 -3.9348149 -1.930208 4288085770
6.4093285 -4.8288698 -1.9860231 4288085770
6.9653854 -5.1827631 -1.8335717 4293729569
5.0821915 -4.0048213 -1.9337274 4288085770
7.361496 -5.4473257 -1.7787434 4293729569
3.5029678 -3.0099306 -1.8976114 4288085770
6.8474579 -5.1258917 -1.8489699 4293729569
6.2084274 -4.728858 -1.9767219 4288085770
7.719471 -5.6841078 -1.2930968 4293729569
5.1672745 -4.071816 -1.9352673 4288085770
6.7075043 -5.05198 -1.8574854 4293729569
5.2613525 -4.1418204 -1.9387859 4288085770
3.5430984 -3.0519378 -1.8993251 4288085770
6.6175537 -5.0071197 -1.8757994 4293729569
6.0085144 -4.6258268 -1.9644407 4288085770
5.3654289 -4.2188296 -1.943256 4288085770
6.5155945 -4.9532371 -1.8901752 4293729569
7.4037132 -5.524231 -1.7642241 4293729569
5.4604912 -4.2878075 -1.9427811 4288085770
6.4836388 -4.9424405 -1.9202529 4288085770
3.5892296 -3.0979564 -1.9030113 4288085770
5.5755424 -4.3678126 -1.9472295 4288085770
6.4676819 -4.9396591 -1.9532748 4288085770
5.8335991 -4.5358276 -1.9580687 4288085770
5.6915932 -4.4478111 -1.950678 4288085770
6.4327164 -4.9228501 -1.9813932 4288085770
5.8206291 -4.533812 -1.9550842 4288085770
6.3067131 -4.8459005 -1.9849266 4288085770
5.9676628 -4.6298347 -1.9634205 4288085770
6.1336937 -4.736865 -1.9736809 4288085770
3.6333504 -3.1409621 -1.904718 4288085770
5.674675 -4.4538307 -1.9526407 4288085770
7.4439201 -5.5981231 -1.747725 4293729569
3.6784554 -3.1839609 -1.9054246 4288085770
5.5277634 -4.3788443 -1.9491643 4288085770
3.7235565 -3.2259588 -1.9061378 4288085770
5.3818245 -4.3008504 -1.9447078 4288085770
7.4651222 -5.6590014 -1.7283158 4293729569
3.7646523 -3.2649326 -1.9028715 4288085770
5.250885 -4.230865 -1.9421954 4288085770
5.1179352 -4.1568613 -1.9367101 4288085770
3.8237305 -3.3139462 -1.9065356 4288085770
4.9959831 -4.0888739 -1.934183 4288085770
3.8788071 -3.3599348 -1.9062204 4288085770
7.5423203 -5.7549233 -1.7176644 4293729569
4.8900223 -4.0288954 -1.9336001 4288085770
3.9428711 -3.4089398 -1.9088838 4288085770
4.0029221 -3.4549265 -1.9085679 4288085770
4.7770462 -3.9628983 -1.930058 4288085770
4.0769768 -3.5089421 -1.9131962 4288085770
4.6630707 -3.8948889 -1.9245298 4288085770
4.5680809 -3.8368998 -1.9229316 4288085770
4.1600227 -3.5689611 -1.9187831 4288085770
4.4840851 -3.7839274 -1.9242984 4288085770
4.2300453 -3.6169448 -1.918452 4288085770
7.8365517 -5.9920502 -1.7460377 4293729569
4.3130646 -3.6729436 -1.9210656 4288085770
4.3970871 -3.7289362 -1.9226788 4288085770
8.0947762 -6.2071276 -1.7655637 4293729569
8.5870323 -6.5784116 -1.8250117 4293729569
8.8102303 -6.7714195 -1.8326902 4293729569
7.789257 6.3404593 -1.7062567 4288085770
7.6003036 6.2073894 -1.7069263 4288085770
8.0122108 6.4955192 -1.709636 4288085770
8.2391701 6.6515908 -1.7110127 4288085770
7.4133644 6.0723314 -1.7055815 4288085770
8.4891396 6.8206539 -1.7154127 4288085770
7.2544327 5.9552579 -1.7092766 4288085770
8.7361145 6.9837427 -1.7147868 4288085770
7.0845032 5.8282099 -1.7069403 4288085770
9.0080986 7.1618233 -1.7171907 4288085770
6.9365845 5.7151537 -1.7076347 4288085770
9.2950897 7.3469143 -1.7186018 4288085770
6.8136749 5.6170859 -1.712359 4288085770
9.5400772 7.4990387 -1.7109214 4288085770
6.6677704 5.5020456 -1.7100388 4288085770
9.9070778 7.7321262 -1.718428 4288085770
6.5388794 5.3959966 -1.7107327 4288085770
10.287083 7.969223 -1.7249302 4288085770
6.4239845 5.2999454 -1.7124518 4288085770
6.2891083 5.1869192 -1.7081207 4288085770
10.208248 7.8691988 -1.7235559 4288085770
6.1912346 5.0998702 -1.7108538 4288085770
9.8753738 7.6221275 -1.7149068 4288085770
9.6365128 7.4370251 -1.7184001 4288085770
6.0823708 5.0028348 -1.7095557 4288085770
9.4086494 7.2579374 -1.7199031 4288085770
6.0045204 4.9257812 -1.7143022 4288085770
9.1417961 7.0508709 -1.7143353 4288085770
8.9309425 6.8817997 -1.7138578 4288085770
5.914669 4.8397441 -1.7150249 4288085770
8.7300987 6.7167296 -1.7133816 4288085770
5.8178291 4.7477188 -1.7127298 4288085770
8.5212631 6.5446725 -1.7098843 4288085770
5.7519989 4.6756682 -1.7174792 4288085770
8.3404312 6.3916101 -1.7094322 4288085770
5.6871758 4.6036291 -1.7202268 4288085770
8.1606102 6.2365565 -1.7069676 4288085770
5.6113586 4.5226007 -1.7199484 4288085770
8.0277901 6.1134896 -1.7105794 4288085770
7.886982 5.9834342 -1.7111701 4288085770
5.5315514 4.4385753 -1.7186624 4288085770
7.7471733 5.8533835 -1.7107589 4288085770
5.4847488 4.3755364 -1.7224221 4288085770
7.6193771 5.7303338 -1.7113609 4288085770
5.4269562 4.304502 -1.7241613 4288085770
7.5075836 5.6172824 -1.7129846 4288085770
5.3771629 4.238472 -1.7259113 4288085770
7.4127998 5.5142269 -1.7166272 4288085770
5.3763962 4.2013965 -1.7397175 4288085770
3.2669106 2.8616233 -1.7468101 4288085770
3.2229309 2.8335876 -1.7507491 4288085770
3.3309135 2.9006248 -1.7508899 4288085770
3.1759529 2.8025661 -1.7516781 4288085770
3.1339798 2.7745419 -1.7536131 4288085770
3.3919258 2.9366403 -1.7519596 4288085770
7.309021 5.4051838 -1.7172563 4288085770
3.0870171 2.7415299 -1.7525319 4288085770
3.4539375 2.972661 -1.7520273 4288085770
3.5089531 3.0026941 -1.7490773 4288085770
3.0470734 2.7115054 -1.7544522 4288085770
3.0131302 2.6854773 -1.7573823 4288085770
3.5679817 3.0337334 -1.7451249 4288085770
5.2896118 4.1104045 -1.731409 4288085770
2.9731827 2.6544676 -1.7562977 4288085770
3.6400261 3.0717521 -1.7461835 4288085770
7.2032394 5.2941504 -1.7158788 4288085770
3.703064 3.1037927 -1.7422285 4288085770
2.9462624 2.6304364 -1.7602245 4288085770
3.783123 3.1438131 -1.743282 4288085770
2.918354 2.6044149 -1.7621428 4288085770
5.3028603 4.0803237 -1.7472247 4288085770
3.8551788 3.1788511 -1.740325 4288085770
2.8894348 2.5783935 -1.7640628 4288085770
7.1044807 5.1861134 -1.7155036 4288085770
3.9482536 3.2248616 -1.7443844 4288085770
2.8645401 2.5523725 -1.7659751 4288085770
4.0373344 3.2658906 -1.7444254 4288085770
2.8326416 2.5223646 -1.7648804 4288085770
5.2560997 4.0133033 -1.7469637 4288085770
7.0227165 5.089077 -1.7161528 4288085770
4.1264114 3.3069239 -1.7434667 4288085770
2.8027649 2.4913621 -1.7627765 4288085770
4.2534523 3.3749809 -1.7405753 4288085770
4.1834717 3.3319473 -1.7424864 4288085770
4.350441 3.433989 -1.7456952 4288085770
4.1124954 3.2869225 -1.7423887 4288085770
4.452446 3.493999 -1.7508106 4288085770
4.0385284 3.2389059 -1.7402816 4288085770
4.5194435 3.5310569 -1.743874 4288085770
4.216507 3.3459625 -1.7414951 4288085770
3.9725685 3.1948829 -1.7401797 4288085770
2.7908897 2.4723291 -1.7677001 4288085770
4.6344643 3.5960603 -1.75099 4288085770
5.2273483 3.9562688 -1.7507204 4288085770
3.9126205 3.1538563 -1.7410815 4288085770
4.7324829 3.6500931 -1.7510818 4288085770
6.9329567 4.9870477 -1.7147915 4288085770
3.8476715 3.1078486 -1.7379673 4288085770
4.3326073 3.3999748 -1.7465515 4288085770
4.8435097 3.7101207 -1.7531796 4288085770
3.8017464 3.0728116 -1.7418734 4288085770
