# .PCD v0.7 - Point Cloud Data file format
VERSION 0.7
FIELDS x y z rgb
SIZE 4 4 4 4
TYPE F F F U
COUNT 1 1 1 1
WIDTH 1123
HEIGHT 1
VIEWPOINT 0 0 0 1 0 0 0
POINTS 1123
DATA ascii
6.7245302 1.4777472 -1.8331541 4288085770
5.5364523 1.2190877 -1.8266789 4288085770
8.1026058 1.762352 -1.8175451 4288085770
6.6745214 1.4547615 -1.8261759 4288085770
5.6794605 1.2360469 -1.8296155 4288085770
17.902182 3.8235409 -1.7682159 4293729569
12.140842 2.6011939 -1.7997609 4288085770
5.0784197 1.1052194 -1.8228809 4288085770
14.965047 3.1903853 -1.8755133 4288085770
6.8405261 1.473714 -1.8211024 4288085770
4.465385 0.97339535 -1.8281516 4288085770
5.8234668 1.2520059 -1.8305515 4288085770
10.50174 2.2286637 -1.8064848 4288085770
7.0305347 1.4966595 -1.8210182 4288085770
6.815526 1.4517214 -1.8321131 4288085770
8.2446041 1.7373111 -1.8184817 4288085770
5.9774747 1.2679622 -1.8334833 4288085770
18.80121 3.9092805 -1.764818 4288085770
12.547853 2.6170759 -1.7975805 4288085770
7.2215419 1.5186048 -1.8179336 4288085770
5.1454191 1.0872009 -1.8228506 4288085770
4.5253854 0.95737898 -1.8291246 4288085770
6.1424842 1.2859151 -1.8374101 4288085770
15.294044 3.1512892 -1.8823671 4288085770
7.4305496 1.5425447 -1.816841 4288085770
10.666735 2.1876154 -1.8104112 4288085770
6.9025207 1.4236969 -1.8270742 4288085770
6.2984891 1.2998703 -1.836341 4288085770
7.644557 1.5654835 -1.8147463 4288085770
12.99686 2.6349463 -1.7983816 4288085770
8.4356089 1.7212566 -1.8283968 4288085770
5.2104173 1.0691829 -1.8208213 4288085770
6.4674954 1.3148221 -1.836266 4288085770
4.5773826 0.93936491 -1.827101 4288085770
7.9145718 1.597406 -1.8226266 4288085770
15.583036 3.1022041 -1.8832388 4288085770
6.6295004 1.3277756 -1.8331941 4288085770
10.854732 2.1505613 -1.8163273 4288085770
8.1635818 1.6233346 -1.8215163 4288085770
7.0105181 1.3986661 -1.8270257 4288085770
13.484871 2.6548052 -1.8001653 4288085770
8.5956078 1.6982106 -1.8303255 4288085770
5.2874174 1.0521616 -1.8227868 4288085770
6.8105063 1.3417239 -1.8331138 4288085770
4.6363816 0.92334896 -1.8260744 4288085770
8.431591 1.6502577 -1.8223976 4288085770
15.867024 3.0481203 -1.8801124 4288085770
6.9775081 1.351676 -1.8270397 4288085770
8.7536077 1.6851652 -1.831255 4288085770
14.180902 2.7066035 -1.8248572 4288085770
7.1175151 1.3736356 -1.8259779 4288085770
11.024724 2.1065118 -1.8172514 4288085770
8.782608 1.6781569 -1.835242 4288085770
5.3574138 1.0341421 -1.8197552 4288085770
7.1725144 1.3656199 -1.8259532 4288085770
4.7143836 0.90932757 -1.8310393 4288085770
9.0806227 1.7190711 -1.8371102 4288085770
16.175013 2.9950292 -1.8759756 4288085770
15.016944 2.7753625 -1.8624871 4288085770
9.3556271 1.7399915 -1.8279884 4288085770
7.3685188 1.3775637 -1.8238664 4288085770
7.2555151 1.3525964 -1.8309162 4288085770
11.206717 2.0634587 -1.8181703 4288085770
9.0026121 1.6610935 -1.8441441 4288085770
5.4354129 1.0161203 -1.8187202 4288085770
4.7773829 0.8923102 -1.8300108 4288085770
9.6786346 1.7668984 -1.8258452 4288085770
7.5855246 1.3915013 -1.82277 4288085770
15.667958 2.8001735 -1.8711989 4288085770
16.486 2.9389374 -1.8698373 4288085770
10.026646 1.7947978 -1.8236911 4288085770
7.8335352 1.4084302 -1.8276601 4288085770
7.3795128 1.327561 -1.8298606 4288085770
5.531415 1.0020934 -1.8236772 4288085770
9.1916094 1.6380389 -1.8450599 4288085770
11.39771 2.0194027 -1.8180852 4288085770
4.8473816 0.87629092 -1.8289794 4288085770
10.394656 1.8236914 -1.8225281 4288085770
8.081543 1.4233587 -1.82955 4288085770
16.218964 2.8010128 -1.8659545 4288085770
16.776979 2.8748515 -1.8577077 4288085770
7.4975071 1.301527 -1.8268077 4288085770
5.6124125 0.98307073 -1.8206408 4288085770
10.803669 1.8565735 -1.8233469 4288085770
8.3455505 1.4382825 -1.8324331 4288085770
9.3676052 1.6099877 -1.8409814 4288085770
4.9053783 0.85727501 -1.823953 4288085770
11.601703 1.9743427 -1.8189942 4288085770
11.224678 1.8864514 -1.8211606 4288085770
16.737957 2.7888608 -1.8537242 4288085770
8.6255589 1.4532018 -1.8353089 4288085770
5.7084122 0.96704376 -1.8225977 4288085770
7.6175027 1.2744926 -1.8217541 4288085770
17.06296 2.8077662 -1.8425806 4288085770
9.5786028 1.5869267 -1.8418876 4288085770
4.9913793 0.84325105 -1.8279144 4288085770
11.664689 1.9153237 -1.8169656 4288085770
8.9545717 1.4731069 -1.8441629 4288085770
11.824696 1.9332775 -1.8198948 4288085770
17.188944 2.7567279 -1.8305241 4288085770
5.8174133 0.95201278 -1.8265489 4288085770
12.126698 1.9441897 -1.8117609 4288085770
9.2135725 1.4790318 -1.8370482 4288085770
7.8095059 1.2584375 -1.8326687 4288085770
5.0643773 0.82623065 -1.8258816 4288085770
9.7845984 1.5618668 -1.8387957 4288085770
17.404942 2.7466645 -1.8294283 4288085770
12.057688 1.8892094 -1.819791 4288085770
12.642708 1.9760398 -1.8095323 4288085770
9.5305796 1.4909401 -1.8379076 4288085770
17.718933 2.7335722 -1.815289 4288085770
5.9014096 0.932989 -1.8215113 4288085770
7.9765058 1.2363894 -1.8355941 4288085770
5.1503782 0.81120658 -1.8278428 4288085770
10.029597 1.5397955 -1.8406866 4288085770
13.257727 2.0178616 -1.8152601 4288085770
17.836927 2.6955369 -1.8222363 4288085770
9.8495846 1.4998475 -1.835766 4288085770
12.319681 1.8471324 -1.8216742 4288085770
6.0114093 0.91695786 -1.823462 4288085770
18.435938 2.7283623 -1.8149711 4288085770
13.930745 2.061666 -1.819962 4288085770
5.2293758 0.79418439 -1.8258075 4288085770
8.1415033 1.2123417 -1.8355204 4288085770
10.211592 1.5107425 -1.8376056 4288085770
10.310598 1.520714 -1.8455619 4288085770
18.331917 2.6493912 -1.8170166 4288085770
14.773776 2.1254218 -1.8425888 4288085770
6.1354103 0.90192258 -1.8274065 4288085770
12.617678 1.8090453 -1.8265417 4288085770
10.578597 1.5206361 -1.8384427 4288085770
19.21994 2.7221329 -1.8166234 4288085770
5.3123736 0.77816105 -1.8237702 4288085770
8.3014984 1.1862954 -1.832449 4288085770
10.586597 1.4996336 -1.8474391 4288085770
15.657804 2.184165 -1.8581976 4288085770
18.956911 2.6152077 -1.8197392 4288085770
11.010607 1.5335106 -1.8442513 4288085770
6.2414074 0.88489228 -1.8243593 4288085770
5.4023719 0.76113558 -1.8227298 4288085770
12.959674 1.7719451 -1.8333894 4288085770
16.448816 2.222934 -1.8548472 4288085770
8.4774942 1.1622443 -1.8313704 4288085770
10.898596 1.4805429 -1.8503004 4288085770
11.40261 1.5383964 -1.8410774 4288085770
6.3714075 0.868855 -1.827301 4288085770
19.660912 2.5840006 -1.8234268 4288085770
5.4983711 0.74510843 -1.8226868 4288085770
17.162817 2.2427251 -1.8355309 4288085770
13.337673 1.7368345 -1.8432214 4288085770
11.812611 1.5392767 -1.8358955 4288085770
8.6784916 1.138186 -1.8322808 4288085770
11.233597 1.460445 -1.8541514 4288085770
6.5024071 0.85281754 -1.8282425 4288085770
17.939817 2.2644975 -1.8161865 4293729569
5.593369 0.72908139 -1.8206441 4288085770
12.287617 1.5451381 -1.8376849 4288085770
8.89149 1.115124 -1.8331859 4288085770
11.555593 1.4363506 -1.8510082 4288085770
13.764673 1.7027092 -1.8550317 4288085770
6.6194029 0.83478385 -1.8231902 4288085770
18.975836 2.3081951 -1.8147278 4288085770
5.6923661 0.71205324 -1.8185998 4288085770
12.793623 1.5489906 -1.8384604 4288085770
9.1124878 1.0920597 -1.8330874 4288085770
11.913589 1.4152461 -1.850849 4288085770
6.763402 0.81874233 -1.824126 4288085770
14.274677 1.6745601 -1.8728052 4288085770
13.445638 1.5638005 -1.8541715 4288085770
5.8043652 0.69702113 -1.8195496 4288085770
6.926403 0.80369526 -1.8280532 4288085770
9.3594847 1.0699877 -1.8359774 4288085770
12.301587 1.3941326 -1.8506768 4288085770
14.151652 1.5775945 -1.8708586 4288085770
5.9323664 0.68298453 -1.8234924 4288085770
14.848683 1.6473922 -1.8955504 4288085770
7.0553975 0.78465796 -1.8209956 4288085770
12.77259 1.3779948 -1.8574677 4288085770
9.6374836 1.0489068 -1.8408537 4288085770
14.94967 1.5933614 -1.893505 4288085770
6.0523653 0.66695011 -1.8234388 4288085770
15.424687 1.614223 -1.9112945 4288085770
7.2073941 0.76761395 -1.8179277 4288085770
13.341599 1.3688282 -1.8732151 4288085770
9.9024811 1.0248295 -1.8397359 4288085770
15.745683 1.6001285 -1.9081521 4288085770
6.1723623 0.6509155 -1.8213851 4288085770
7.4153976 0.75455368 -1.8258352 4288085770
15.946679 1.5710692 -1.9170626 4288085770
13.949604 1.3576504 -1.8869454 4288085770
6.2863574 0.6328826 -1.8153341 4288085770
10.203481 1.0017413 -1.8426019 4288085770
16.409681 1.5849333 -1.8998575 4288085770
7.5953946 0.73750138 -1.8247548 4288085770
16.420668 1.5179291 -1.9108518 4288085770
6.4273567 0.61684197 -1.8152711 4288085770
14.71462 1.3564266 -1.9126061 4288085770
17.013664 1.5567551 -1.8805894 4288085770
10.541479 0.97964263 -1.8474517 4288085770
7.7713909 0.72045004 -1.8206764 4288085770
6.569355 0.60180086 -1.8152077 4288085770
15.472628 1.3462042 -1.9282699 4282675967
10.891478 0.95653987 -1.850296 4288085770
17.736656 1.5315422 -1.8682685 4288085770
16.905647 1.4597852 -1.9006362 4288085770
7.9673877 0.70339298 -1.8185891 4288085770
6.7293544 0.5867545 -1.8161365 4288085770
16.168627 1.3269995 -1.9299612 4282675967
11.297479 0.93542099 -1.8581156 4288085770
8.2103891 0.68932217 -1.8234811 4288085770
18.689659 1.5162619 -1.8738459 4288085770
17.410631 1.3986355 -1.8874115 4288085770
6.9073544 0.57270277 -1.8210571 4288085770
8.4363871 0.67325616 -1.8223804 4288085770
16.807613 1.296811 -1.9146775 4288085770
11.670471 0.90831137 -1.8549498 4288085770
19.619652 1.4869877 -1.8684332 4288085770
7.0723524 0.55665481 -1.8189834 4288085770
18.091619 1.3464341 -1.8871089 4288085770
8.7023888 0.65817845 -1.8262621 4288085770
17.465599 1.2656167 -1.8943853 4288085770
12.096469 0.88318616 -1.8557605 4288085770
7.2653513 0.54159874 -1.8218975 4288085770
7.4553494 0.546543 -1.8128133 4288085770
7.7093563 0.56346875 -1.8167009 4288085770
7.9773641 0.58139038 -1.8205825 4288085770
7.2473459 0.53160393 -1.8159055 4288085770
7.002337 0.51367539 -1.8070136 4288085770
8.233367 0.5963155 -1.8174691 4288085770
6.8113337 0.49873137 -1.8090981 4288085770
8.5163727 0.61323267 -1.817344 4288085770
9.0103884 0.64508826 -1.8331252 4288085770
8.8403788 0.63113779 -1.8202004 4288085770
6.6253304 0.48278588 -1.8101804 4288085770
18.914614 1.2971914 -1.8937435 4288085770
9.2073898 0.65103066 -1.829038 4288085770
6.4423246 0.46783936 -1.8082613 4288085770
6.4933271 0.46782458 -1.8112386 4288085770
6.3143229 0.45587689 -1.8103178 4288085770
9.5893993 0.67091888 -1.8338689 4288085770
6.1523199 0.44492435 -1.8113896 4288085770
5.9863162 0.43397295 -1.810463 4288085770
18.396599 1.2473423 -1.8949726 4288085770
6.2713203 0.45188946 -1.8083369 4288085770
6.6763296 0.47777098 -1.8101577 4288085770
5.8433142 0.42301485 -1.8125262 4288085770
6.8753333 0.48871285 -1.8110696 4288085770
7.4763517 0.52753723 -1.8258036 4288085770
12.529462 0.85605878 -1.852568 4288085770
5.7073121 0.41205475 -1.8155863 4288085770
9.9624033 0.68780971 -1.8317038 4288085770
6.1173182 0.4379347 -1.8104049 4288085770
7.0833373 0.49965197 -1.8119775 4288085770
5.5743098 0.40109378 -1.8166451 4288085770
7.3173423 0.51158357 -1.8148738 4288085770
10.420413 0.70867568 -1.840501 4288085770
5.4403067 0.38913301 -1.8167043 4288085770
5.9593129 0.42198098 -1.8084747 4288085770
7.5563469 0.52251363 -1.8167679 4288085770
9.3283901 0.63199526 -1.8399839 4288085770
5.3233051 0.37816739 -1.8197559 4288085770
10.897422 0.72853607 -1.8452898 4288085770
5.8173099 0.40802264 -1.8095373 4288085770
7.8073516 0.53244025 -1.8186568 4288085770
5.2053037 0.36720207 -1.8218081 4288085770
11.439435 0.75137734 -1.8560498 4288085770
8.0793562 0.54236072 -1.8205365 4288085770
5.6773062 0.39306378 -1.809599 4288085770
5.0842996 0.35523763 -1.8198615 4288085770
7.6673484 0.51148134 -1.8227185 4288085770
19.455599 1.2310306 -1.896503 4288085770
8.36236 0.5522778 -1.8224111 4288085770
11.95844 0.77022523 -1.8528199 4288085770
5.5523038 0.37910053 -1.8116543 4288085770
19.722597 1.2379521 -1.8893847 4288085770
13.037459 0.83090925 -1.8543426 4288085770
8.6473627 0.5611943 -1.8192848 4288085770
12.428437 0.78308713 -1.8376117 4288085770
5.4313006 0.36513618 -1.8127077 4288085770
9.6783924 0.61789286 -1.8478285 4288085770
8.9833689 0.57109594 -1.823136 4288085770
13.070447 0.80389893 -1.8403274 4288085770
5.3112974 0.35117146 -1.8127606 4288085770
9.3413744 0.57999104 -1.8269773 4288085770
7.8953471 0.49641478 -1.824617 4288085770
5.2132974 0.33820048 -1.8188038 4288085770
13.817458 0.82667989 -1.8469965 4288085770
9.7103777 0.58888292 -1.8278139 4288085770
13.572453 0.80375165 -1.8531049 4288085770
9.9823875 0.60080343 -1.8416934 4288085770
5.0902925 0.32323667 -1.8148578 4288085770
14.834483 0.86038196 -1.8775463 4288085770
10.120384 0.59676272 -1.8316321 4288085770
8.139348 0.48134333 -1.8265086 4288085770
15.867502 0.89107901 -1.8960888 4288085770
10.564387 0.60463256 -1.8354353 4288085770
10.383389 0.58668578 -1.8485153 4288085770
14.262456 0.78054863 -1.8647987 4288085770
16.729504 0.90782547 -1.882707 4288085770
11.082397 0.61348069 -1.8452059 4288085770
8.4033461 0.46626598 -1.8303913 4288085770
5.0702915 0.2962434 -1.8228661 4288085770
17.646502 0.92155564 -1.8643007 4288085770
11.568398 0.61833793 -1.8429904 4288085770
10.774387 0.57057071 -1.8483417 4288085770
12.105401 0.6221801 -1.8427523 4288085770
19.024519 0.95215082 -1.8766903 4288085770
15.085462 0.76030648 -1.8854336 4288085770
8.6663427 0.45018882 -1.8292743 4288085770
5.1612883 0.28221714 -1.8208253 4288085770
12.680403 0.62501103 -1.8414975 4288085770
11.242388 0.55643332 -1.855134 4288085770
13.311404 0.62582546 -1.8392179 4288085770
8.9833469 0.43609583 -1.8371333 4288085770
15.874459 0.73207378 -1.8900836 4288085770
5.2662868 0.26818684 -1.8217785 4288085770
11.723387 0.54129171 -1.8569205 4288085770
14.05341 0.62860727 -1.8458891 4288085770
9.2543392 0.41901612 -1.830013 4288085770
12.209384 0.52514851 -1.8547049 4288085770
14.986421 0.63333291 -1.8644756 4288085770
5.3682847 0.2541573 -1.8197328 4288085770
16.679451 0.69983608 -1.8867263 4288085770
9.5983381 0.40391499 -1.8328602 4288085770
15.948428 0.63304991 -1.8760493 4288085770
12.74138 0.50899172 -1.8504686 4288085770
5.4852834 0.24012342 -1.8216805 4288085770
17.537441 0.66458249 -1.8793454 4288085770
9.9403353 0.38881433 -1.8307083 4288085770
16.857426 0.62478179 -1.8676463 4288085770
13.372377 0.49380577 -1.8531888 4288085770
5.5962811 0.22609115 -1.8196309 4288085770
17.889421 0.6144774 -1.8631887 4288085770
10.324332 0.37270123 -1.8305377 4288085770
18.652437 0.63225329 -1.884851 4288085770
14.085379 0.47859561 -1.8578726 4288085770
5.7272792 0.21205306 -1.8225724 4288085770
19.189425 0.60409409 -1.8696126 4288085770
10.760331 0.35757285 -1.8353442 4288085770
15.006387 0.46832436 -1.8784643 4288085770
19.913433 0.59788084 -1.8902916 4288085770
5.1032715 0.18023697 -1.8208483 4288085770
11.252333 0.34242794 -1.8411258 4288085770
5.8482766 0.19801775 -1.8195184 4288085770
15.927387 0.45405281 -1.8860561 4288085770
11.739328 0.32628429 -1.8399097 4288085770
5.2262726 0.16820124 -1.8267934 4288085770
5.9752741 0.18398064 -1.8184617 4288085770
16.797379 0.43579578 -1.87467 4288085770
12.279325 0.31012499 -1.8396702 4288085770
17.918379 0.42146489 -1.8781731 4288085770
5.3342695 0.15516981 -1.8247453 4288085770
6.1212726 0.16993797 -1.8193967 4288085770
12.891323 0.29494438 -1.8413987 4288085770
19.218378 0.4060812 -1.8815969 4288085770
5.4572678 0.14313394 -1.8256903 4288085770
6.2642689 0.15489611 -1.817333 4288085770
13.603324 0.27973431 -1.8480829 4288085770
5.573266 0.13110003 -1.8236386 4288085770
14.367324 0.26450881 -1.8537441 4288085770
6.4192667 0.14085066 -1.8172638 4288085770
15.244323 0.24824995 -1.8593553 4288085770
5.6922626 0.11806525 -1.8205855 4288085770
6.5972662 0.12679848 -1.8211846 4288085770
16.270325 0.23294708 -1.8699005 4288085770
19.377329 0.25603041 -1.8575242 4288085770
17.970322 0.23844522 -1.8511473 4288085770
5.8242593 0.10602657 -1.8195266 4288085770
16.782314 0.22179544 -1.8496735 4288085770
15.708306 0.20411199 -1.8461491 4288085770
6.7762642 0.11274589 -1.8221049 4288085770
17.349323 0.21662837 -1.873422 4288085770
14.732296 0.18739957 -1.8355812 4288085770
13.665292 0.17571422 -1.8330537 4288085770
12.929287 0.16793117 -1.8273797 4288085770
14.480295 0.18247384 -1.8366927 4288085770
15.406301 0.18920079 -1.8422827 4288085770
12.26228 0.1591278 -1.8216752 4288085770
16.458305 0.19489053 -1.8498167 4288085770
13.880289 0.1706506 -1.8299583 4288085770
11.693278 0.15029559 -1.822927 4288085770
17.644312 0.19954067 -1.8562912 4288085770
11.151275 0.14045539 -1.821167 4288085770
13.156284 0.15486404 -1.8302789 4288085770
18.595324 0.19926029 -1.8768699 4288085770
18.982317 0.20214587 -1.8606985 4288085770
5.9772592 0.09398175 -1.8224585 4288085770
10.672274 0.13059667 -1.8213789 4288085770
6.9672623 0.09768974 -1.82402 4288085770
12.460278 0.13906914 -1.8235871 4288085770
10.210267 0.11973283 -1.8175834 4288085770
9.8012648 0.10985347 -1.8167646 4288085770
11.865273 0.12324452 -1.8218505 4288085770
6.1182556 0.080940358 -1.8203957 4288085770
9.4212618 0.098965548 -1.8159326 4288085770
11.336267 0.1074005 -1.8220844 4288085770
7.1492577 0.083636127 -1.8209391 4288085770
9.1162615 0.088055663 -1.8240676 4288085770
10.861265 0.092540585 -1.8242947 4288085770
6.279254 0.068893038 -1.8213241 4288085770
8.7922611 0.077151291 -1.825211 4288085770
7.3732567 0.068570189 -1.8248392 4288085770
10.395259 0.076678 -1.8215007 4288085770
8.4732561 0.065245397 -1.820352 4288085770
6.4522529 0.056842171 -1.8232471 4288085770
9.9672546 0.061804198 -1.8176899 4288085770
7.5942535 0.054505028 -1.8247411 4288085770
8.175252 0.053333364 -1.8184837 4288085770
9.6242542 0.046905525 -1.8238417 4288085770
6.6272502 0.044790655 -1.8231694 4288085770
11.460593 -0.78572226 -1.8555666 4288085770
8.7773409 -0.57963336 -1.850127 4288085770
12.008482 -0.80575287 -1.8594606 4288085770
17.546755 -1.2255247 -1.8859072 4288085770
13.712561 -0.9537701 -1.8480692 4288085770
10.234414 -0.70978993 -1.845939 4288085770
5.9372215 -0.411293 -1.8284862 4288085770
6.9182692 -0.48972353 -1.8286816 4288085770
18.671843 -1.3738738 -1.8840141 4288085770
13.158572 -0.97109187 -1.8485548 4288085770
16.595753 -1.2340831 -1.87573 4288085770
9.8994255 -0.72998583 -1.8432376 4288085770
5.8022285 -0.42537305 -1.8246098 4288085770
6.7542801 -0.50481832 -1.8288306 4288085770
12.642585 -0.98939157 -1.8490084 4288085770
15.819763 -1.2475322 -1.8794048 4288085770
9.5864363 -0.74916846 -1.841517 4288085770
5.6962428 -0.44043139 -1.8297088 4288085770
17.907867 -1.4253225 -1.8766977 4288085770
6.5932879 -0.51991236 -1.826977 4288085770
12.161595 -1.0066712 -1.8484313 4288085770
15.070768 -1.2549678 -1.8790532 4288085770
9.3094492 -0.77032906 -1.8417664 4288085770
5.5892558 -0.45549136 -1.8328086 4288085770
6.4422975 -0.53500003 -1.8261149 4288085770
17.2789 -1.4796892 -1.8762667 4288085770
14.342765 -1.2563937 -1.8736808 4288085770
11.727607 -1.0249237 -1.8478142 4288085770
5.4822669 -0.47055236 -1.8339087 4288085770
9.0454636 -0.79048193 -1.8420039 4288085770
6.3013072 -0.55008131 -1.826244 4288085770
16.769938 -1.5379828 -1.8817345 4288085770
13.700765 -1.2577672 -1.8722342 4288085770
5.3822794 -0.48560819 -1.8370024 4288085770
11.322616 -1.0431591 -1.8471724 4288085770
8.8004761 -0.81162435 -1.8412259 4288085770
6.1753201 -0.56615293 -1.8283609 4288085770
19.857037 -1.8682535 -1.7692448 4293729569
13.095763 -1.2571198 -1.8697547 4288085770
5.2742867 -0.49967179 -1.834103 4288085770
10.987638 -1.0653503 -1.853472 4288085770
16.250971 -1.5912849 -1.8822085 4288085770
18.530001 -1.8190286 -1.7603623 4293729569
6.046329 -0.58122772 -1.8274797 4288085770
8.5564871 -0.83076668 -1.8394457 4288085770
12.529759 -1.2524502 -1.8662398 4288085770
5.178298 -0.51472622 -1.8351933 4288085770
17.458981 -1.7826494 -1.7622658 4293729569
10.634646 -1.0825567 -1.8507848 4288085770
5.9293404 -0.59629452 -1.8285884 4288085770
8.3445024 -0.85188884 -1.8406391 4288085770
15.786004 -1.6445547 -1.8836359 4288085770
11.997753 -1.2467606 -1.8626949 4288085770
18.957083 -2.0118024 -1.7240924 4293729569
16.64699 -1.7651101 -1.7819558 4293729569
5.8143516 -0.61236072 -1.8286959 4288085770
10.312659 -1.1017431 -1.851072 4288085770
11.499746 -1.2400517 -1.8581202 4288085770
8.1285124 -0.87101531 -1.8378351 4288085770
16.05702 -1.7644346 -1.8164635 4288085770
15.338035 -1.6948166 -1.8820472 4288085770
17.712036 -1.9855461 -1.685151 4293729569
11.065743 -1.2353034 -1.8584917 4288085770
5.7043619 -0.6274237 -1.8287983 4288085770
10.013671 -1.120917 -1.8503393 4288085770
7.929523 -0.89013129 -1.8360162 4288085770
15.606062 -1.7736732 -1.8608564 4288085770
10.676747 -1.2315264 -1.8628248 4288085770
14.941067 -1.7460468 -1.8834149 4288085770
5.6013732 -0.6434828 -1.8288954 4288085770
15.044084 -1.7649845 -1.8883359 4288085770
9.7366838 -1.1400772 -1.8505876 4288085770
16.721012 -1.9731337 -1.6619978 4293729569
7.7575388 -0.91222954 -1.8381758 4288085770
10.302747 -1.2257419 -1.8651439 4288085770
14.344069 -1.7343886 -1.8919232 4288085770
5.5043845 -0.65853786 -1.8299868 4288085770
9.9237394 -1.2149627 -1.8624649 4288085770
9.4686956 -1.1592335 -1.8488283 4288085770
14.389066 -1.7743793 -1.8609048 4288085770
16.297062 -2.0183659 -1.6893859 4293729569
7.5785513 -0.93133336 -1.8373398 4288085770
13.655046 -1.6977897 -1.8884978 4282675967
17.166931 -2.1619928 -1.44371 4293729569
17.282904 -2.1809509 -1.3966197 4293729569
9.5717344 -1.206167 -1.8617635 4288085770
5.4153976 -0.67558771 -1.8320723 4288085770
12.990016 -1.6591787 -1.8810509 4288085770
9.2117043 -1.1773834 -1.846059 4288085770
15.781092 -2.0476565 -1.7058452 4293729569
7.4215665 -0.9534232 -1.8384864 4288085770
13.750039 -1.7847704 -1.8224603 4288085770
9.2327251 -1.1933651 -1.858049 4288085770
17.06263 -2.2422688 -1.0388404 4293729569
12.447004 -1.6314915 -1.8845044 4288085770
16.823992 -2.2281809 -1.4660388 4293729569
5.3284106 -0.69163632 -1.8341557 4288085770
16.994287 -2.2575243 -0.63190663 4293729569
16.853928 -2.2462094 -1.3800223 4293729569
8.9217186 -1.1835454 -1.8573118 4288085770
8.9797163 -1.1965183 -1.8452686 4288085770
11.89498 -1.5968137 -1.8799621 4288085770
16.954611 -2.292362 -0.98295879 4293729569
15.261116 -2.066952 -1.7183028 4293729569
7.2665787 -0.97351307 -1.8376304 4288085770
13.109005 -1.788165 -1.7790141 4293729569
8.6367149 -1.1727093 -1.8585519 4288085770
16.953735 -2.3232982 -1.1049755 4293729569
16.951948 -2.325783 -0.19197761 4293729569
16.95731 -2.3265593 -0.60797364 4293729569
5.23842 -0.70668817 -1.833241 4288085770
11.39296 -1.5651062 -1.8763783 4288085770
16.813097 -2.3391635 -1.5141048 4293729569
16.913965 -2.3598068 -0.18902764 4293729569
16.904329 -2.363591 -0.60703808 4293729569
8.7817345 -1.219631 -1.848451 4288085770
8.3697109 -1.1628634 -1.859777 4288085770
16.858011 -2.3652 -1.3960794 4293729569
10.938944 -1.536369 -1.8757547 4288085770
14.89116 -2.1011529 -1.7446388 4293729569
7.1115909 -0.9926033 -1.8357736 4288085770
16.890705 -2.3993838 -1.0150683 4293729569
16.910852 -2.4132862 -1.1770582 4293729569
8.0957003 -1.1490235 -1.8560059 4288085770
12.577983 -1.7974911 -1.7444762 4293729569
16.919043 -2.436785 -0.22706248 4293729569
10.508924 -1.5066193 -1.8731101 4288085770
16.938391 -2.4445648 -0.62205005 4293729569
8.554739 -1.2357651 -1.8426548 4288085770
16.881218 -2.461097 -1.5681083 4293729569
7.8316884 -1.1341782 -1.8522258 4288085770
16.904036 -2.4808166 -0.18509781 4293729569
16.946383 -2.4875808 -0.58406508 4293729569
14.219145 -2.0865479 -1.7342103 4293729569
10.074899 -1.4728743 -1.8654667 4288085770
6.9916101 -1.0156697 -1.8408889 4288085770
16.925108 -2.4951527 -1.4160879 4293729569
16.961983 -2.5162156 -1.2570666 4293729569
16.960817 -2.5273223 -1.0570732 4293729569
7.6016827 -1.1223108 -1.8524181 4288085770
9.6978798 -1.4450938 -1.8627772 4288085770
12.22099 -1.8287054 -1.7307997 4293729569
17.003151 -2.5647175 -0.26505524 4293729569
8.3837595 -1.2588617 -1.846814 4288085770
7.3706741 -1.108445 -1.85061 4288085770
16.965342 -2.5880215 -1.6221006 4293729569
9.3388615 -1.416303 -1.8590719 4288085770
13.696147 -2.0878499 -1.7366613 4293729569
6.8656254 -1.0377414 -1.8420089 4288085770
7.1566672 -1.0955691 -1.8497878 4288085770
9.02285 -1.3924851 -1.8603319 4288085770
11.906001 -1.8618942 -1.7190881 4293729569
8.2027712 -1.2789667 -1.8459804 4288085770
6.9656634 -1.0846781 -1.8519468 4288085770
8.7128334 -1.3656651 -1.8585854 4288085770
13.133136 -2.0741787 -1.7311394 4293729569
6.7416406 -1.058812 -1.8431267 4288085770
16.828424 -2.6820848 -1.6542666 4293729569
6.7716556 -1.0707898 -1.8521069 4288085770
8.4218178 -1.3408343 -1.8568233 4288085770
6.5766449 -1.0559043 -1.8482674 4288085770
8.1478014 -1.3159933 -1.8550467 4288085770
8.0357857 -1.3000627 -1.8461351 4288085770
12.625127 -2.0624747 -1.7275709 4293729569
11.59501 -1.8930811 -1.7063719 4293729569
19.744827 -3.2573597 -1.7340478 4293729569
6.6206532 -1.0788819 -1.8422414 4288085770
6.396636 -1.0420086 -1.8474154 4288085770
7.8867874 -1.2911445 -1.854259 4288085770
16.639494 -2.7661834 -1.6774721 4293729569
6.2336302 -1.029102 -1.8485495 4288085770
7.6427717 -1.2672867 -1.8514571 4288085770
7.8767986 -1.3211541 -1.846283 4288085770
7.4207606 -1.2454141 -1.8526373 4288085770
6.0776234 -1.0161917 -1.8486774 4288085770
18.463749 -3.1441109 -1.7150934 4293729569
11.26701 -1.917281 -1.6876668 4293729569
6.4946628 -1.0979563 -1.8383598 4288085770
7.201746 -1.2225415 -1.8508143 4288085770
5.9196143 -1.0012838 -1.8468057 4288085770
16.299532 -2.8203776 -1.6837924 4293729569
6.9837294 -1.1986691 -1.84699 4288085770
5.7616024 -0.98637694 -1.8429344 4288085770
11.30002 -1.9682739 -1.6656644 4293729569
6.8007207 -1.1787736 -1.8491374 4288085770
7.719811 -1.3412457 -1.8444288 4288085770
17.376682 -3.0497468 -1.7019817 4293729569
5.6225958 -0.97245628 -1.8440472 4288085770
6.6157088 -1.1578802 -1.8492862 4288085770
6.3876781 -1.119017 -1.8394629 4288085770
5.4935899 -0.95953 -1.8451518 4288085770
10.875989 -1.9245238 -1.6560074 4293729569
6.4276924 -1.1349905 -1.8454366 4288085770
5.3685842 -0.94660133 -1.846253 4288085770
15.955565 -2.8705771 -1.6851145 4293729569
6.2556796 -1.1130908 -1.8435738 4288085770
10.849005 -1.9475385 -1.6580424 4293729569
16.350616 -2.9553483 -1.6868174 4293729569
5.2475781 -0.9336704 -1.8473505 4288085770
7.5848284 -1.3643221 -1.8465569 4288085770
6.0976682 -1.0941817 -1.8437004 4288085770
5.9476562 -1.0742686 -1.8428193 4288085770
6.2936945 -1.1410697 -1.8415554 4288085770
5.7986441 -1.0543549 -1.8419375 4288085770
10.641001 -1.956665 -1.6462265 4293729569
10.542014 -1.9467105 -1.6683066 4293729569
5.6606326 -1.0354347 -1.841047 4288085770
15.636596 -2.905757 -1.6954072 4293729569
5.529624 -1.0175097 -1.8421507 4288085770
15.637598 -2.9227607 -1.687415 4293729569
7.4518423 -1.3853985 -1.8466824 4288085770
5.4066143 -0.99958062 -1.8422475 4288085770
5.2886038 -0.98164845 -1.8423401 4288085770
5.1715937 -0.96371591 -1.8424317 4288085770
6.2017107 -1.163121 -1.8436462 4288085770
10.268027 -1.9488616 -1.6815438 4293729569
15.066593 -2.8760772 -1.7128831 4293729569
10.411011 -1.9878037 -1.6354406 4293729569
7.3248568 -1.4074713 -1.8468034 4288085770
15.386642 -2.9849031 -1.6946628 4293729569
10.029048 -1.9559904 -1.6987535 4293729569
14.519591 -2.8443849 -1.7293382 4293729569
6.1057243 -1.1841762 -1.8427398 4288085770
10.263038 -2.0318892 -1.6345906 4293729569
7.2058725 -1.429539 -1.8479174 4288085770
9.7870636 -1.958122 -1.7139633 4293729569
13.822547 -2.7757905 -1.7229038 4293729569
15.012654 -3.019125 -1.6850026 4293729569
6.0127363 -1.2042298 -1.8418304 4288085770
10.676927 -2.1917763 -1.3983157 4293729569
10.172077 -2.0879381 -1.6416979 4293729569
9.5340748 -1.9562615 -1.7261803 4293729569
7.0818849 -1.450611 -1.846035 4288085770
10.59578 -2.200917 -1.2213901 4293729569
5.9327545 -1.2272742 -1.8439113 4288085770
10.514973 -2.2098498 -1.4364645 4293729569
9.2740784 -1.9484074 -1.7334006 4293729569
10.521541 -2.2291167 -0.9254685 4293729569
6.983902 -1.474666 -1.848132 4288085770
10.027102 -2.130024 -1.6378444 4293729569
10.45481 -2.245997 -1.224535 4293729569
10.580913 -2.2754841 -0.1684406 4293729569
10.430034 -2.2418733 -1.4845543 4293729569
5.8507686 -1.2483207 -1.8439929 4288085770
8.9670649 -1.9275858 -1.7306546 4293729569
10.476599 -2.2641208 -0.96752524 4293729569
10.528139 -2.2773769 -0.42848724 4293729569
10.524179 -2.2823567 -0.47049323 4293729569
10.535939 -2.3075058 -0.17649581 4293729569
6.8719163 -1.4967304 -1.8472401 4288085770
10.439569 -2.2891695 -0.91557002 4293729569
10.336092 -2.2709033 -1.5306501 4293729569
9.9571438 -2.1880603 -1.6459345 4293729569
8.7450724 -1.9217075 -1.741843 4293729569
10.502922 -2.3295441 -0.14053553 4293729569
5.7727833 -1.2703649 -1.8440719 4288085770
10.414863 -2.3130128 -1.2386038 4293729569
10.420661 -2.3211367 -0.99860269 4293729569
10.463241 -2.3373744 -0.50357401 4293729569
10.457171 -2.339421 -0.42258024 4293729569
10.217141 -2.2919488 -1.5737636 4293729569
8.5220776 -1.913831 -1.7510313 4293729569
6.783936 -1.5217792 -1.850329 4288085770
10.483989 -2.3735301 -0.18757446 4293729569
10.423611 -2.3621814 -0.91162121 4293729569
9.8571749 -2.238117 -1.6480465 4293729569
10.491939 -2.3985658 -0.11258039 4293729569
5.6847925 -1.289417 -1.8401575 4288085770
10.079187 -2.3080075 -1.6128908 4293729569
10.40373 -2.3861277 -1.0346508 4293729569
10.392919 -2.3850181 -1.2526597 4293729569
8.2610655 -1.8929822 -1.7492458 4293729569
10.434308 -2.3993731 -0.53863084 4293729569
10.450212 -2.4154282 -0.41762522 4293729569
6.6879501 -1.5448343 -1.8494236 4288085770
9.8832111 -2.3071055 -1.6410594 4293729569
10.472044 -2.4475315 -0.19962274 4293729569
10.437654 -2.4411752 -0.90864962 4293729569
9.7672091 -2.2891681 -1.6491503 4293729569
8.0270586 -1.8771155 -1.7514395 4293729569
10.502958 -2.4725749 -0.083608843 4293729569
5.6148081 -1.3114558 -1.8412294 4288085770
10.42081 -2.4600964 -1.0756741 4293729569
10.463386 -2.4733365 -0.57664365 4293729569
10.413983 -2.4659963 -1.2716831 4293729569
9.6882343 -2.3042035 -1.6682261 4293729569
10.508265 -2.5053971 -0.41362137 4293729569
6.6019678 -1.5698822 -1.8515109 4288085770
7.7990489 -1.8592465 -1.7516268 4293729569
10.536112 -2.5404868 -0.2146152 4293729569
9.6892414 -2.3412118 -1.6512442 4293729569
9.4432411 -2.2873356 -1.6854287 4293729569
5.5468235 -1.3334943 -1.8412995 4288085770
10.515907 -2.5510156 -1.1246386 4293729569
7.5880437 -1.8433659 -1.7548008 4293729569
10.464056 -2.5539563 -1.2926849 4293729569
6.5249882 -1.5969243 -1.8545913 4288085770
9.1842375 -2.264478 -1.6976404 4293729569
7.3810368 -1.8254836 -1.7569703 4293729569
15.832253 -3.9576344 -1.736776 4288085770
9.6762962 -2.4112127 -1.6642914 4293729569
5.4848413 -1.3575281 -1.8433656 4288085770
8.9432383 -2.2416101 -1.7098365 4293729569
13.851968 -3.4927835 -1.7172453 4293729569
7.1980343 -1.8115858 -1.7621211 4293729569
6.4500065 -1.6219658 -1.8566689 4288085770
8.7182388 -2.2207317 -1.72402 4293729569
15.236222 -3.9079797 -1.7342645 4288085770
5.4218559 -1.3795636 -1.8434314 4288085770
9.6303377 -2.471236 -1.6703619 4293729569
7.0550437 -1.8056608 -1.7752415 4288085770
13.705008 -3.5588691 -1.7174058 4293729569
8.4592257 -2.1898782 -1.7282276 4293729569
6.3720222 -1.64601 -1.8567487 4288085770
6.9390616 -1.8057171 -1.7943416 4288085770
14.65519 -3.8533165 -1.7307374 4288085770
8.240221 -2.1649985 -1.7384037 4293729569
5.3688736 -1.403592 -1.8454896 4288085770
9.5933809 -2.5342541 -1.6764262 4293729569
6.8400822 -1.8087624 -1.8154287 4288085770
13.574047 -3.625946 -1.7165532 4293729569
6.3100443 -1.6740428 -1.8608167 4288085770
8.0042067 -2.1341324 -1.7415915 4293729569
14.125161 -3.8036232 -1.729169 4288085770
6.7381015 -1.8088096 -1.8365167 4288085770
5.3148918 -1.4276211 -1.8475486 4288085770
7.7741919 -2.1022625 -1.7447737 4293729569
9.5504217 -2.5942767 -1.6804942 4293729569
6.6421213 -1.8098532 -1.8576002 4288085770
6.2390609 -1.699083 -1.860891 4288085770
13.470093 -3.7000053 -1.7186809 4293729569
7.5141621 -2.0594156 -1.7379761 4293729569
13.580122 -3.7439399 -1.7226083 4293729569
6.5201297 -1.8019161 -1.8707016 4288085770
5.2609072 -1.4506513 -1.8476073 4288085770
7.2951436 -2.0265417 -1.7371483 4293729569
9.5334682 -2.6622822 -1.6885438 4293729569
6.1700759 -1.7231226 -1.8599629 4288085770
13.037077 -3.6772575 -1.7140424 4293729569
13.372137 -3.7750626 -1.7188039 4293729569
6.3671217 -1.7840023 -1.8728243 4288085770
7.0811229 -1.9916655 -1.735315 4293729569
5.2119246 -1.4746773 -1.8496622 4288085770
6.2121119 -1.764091 -1.8729479 4288085770
6.8781023 -1.9577827 -1.7334728 4293729569
9.5125141 -2.7302914 -1.6945968 4293729569
12.520033 -3.6105595 -1.7054543 4293729569
6.100091 -1.7471625 -1.859036 4288085770
13.287184 -3.8511119 -1.7199159 4293729569
6.0580997 -1.7421796 -1.8720697 4288085770
6.735105 -1.940858 -1.7455876 4293729569
5.1549373 -1.4957103 -1.8477223 4288085770
6.5760951 -1.9159465 -1.7507119 4293729569
5.9070864 -1.7202668 -1.8701888 4288085770
12.057995 -3.5528278 -1.6998233 4293729569
9.4755545 -2.7913113 -1.69666 4293729569
6.0481114 -1.7751899 -1.8620955 4288085770
6.4110832 -1.8890396 -1.7528406 4293729569
5.7650733 -1.6993488 -1.8683006 4288085770
13.224236 -3.9331474 -1.7220124 4288085770
6.2340612 -1.8561431 -1.7489766 4293729569
5.1109557 -1.5207338 -1.8497734 4288085770
5.6130538 -1.6734395 -1.8614187 4288085770
11.613958 -3.4930859 -1.6941756 4293729569
9.4185858 -2.8463449 -1.6947376 4293729569
6.0840487 -1.8302277 -1.7510929 4293729569
5.9751234 -1.7972333 -1.8581699 4288085770
5.4780402 -1.6515175 -1.8595239 4288085770
5.9800534 -1.8162801 -1.7641754 4293729569
11.220929 -3.444313 -1.6924897 4293729569
5.3590317 -1.6335849 -1.8606175 4288085770
5.8970637 -1.8073182 -1.7812425 4293729569
5.8581119 -1.8033097 -1.8392742 4288085770
9.3296061 -2.8924007 -1.6858381 4293729569
5.2410207 -1.6136526 -1.8597094 4288085770
5.8420873 -1.8073356 -1.8072901 4288085770
10.866909 -3.4035151 -1.6947743 4293729569
5.1270103 -1.5947174 -1.8597981 4288085770
5.7951136 -1.8093475 -1.8353317 4288085770
5.7291288 -1.8033739 -1.8563857 4288085770
5.7270937 -1.8043969 -1.815388 4288085770
9.2756376 -2.9474332 -1.6829131 4293729569
10.53989 -3.364701 -1.6980366 4293729569
5.6251249 -1.7844296 -1.8634658 4288085770
5.4891047 -1.7545093 -1.859568 4288085770
5.3720918 -1.7295755 -1.860656 4288085770
5.5950727 -1.8034853 -1.7895017 4288085770
10.240879 -3.3308687 -1.7042773 4293729569
9.311698 -3.0314066 -1.6939251 4293729569
5.2530746 -1.7026448 -1.8577452 4288085770
5.1400599 -1.6767111 -1.856831 4288085770
9.9358597 -3.2920437 -1.7065225 4293729569
5.4710526 -1.8025706 -1.7646102 4293729569
9.307744 -3.1024084 -1.6979673 4293729569
9.6238327 -3.2462232 -1.7057688 4293729569
5.3700433 -1.8096378 -1.7467015 4293729569
9.3217936 -3.1803985 -1.7029958 4293729569
9.3238077 -3.2003965 -1.7050045 4293729569
5.315052 -1.829672 -1.7417598 4293729569
9.3168383 -3.2514009 -1.705037 4293729569
9.0467854 -3.1575553 -1.705222 4293729569
5.2710652 -1.8536984 -1.7398105 4293729569
8.783762 -3.1167057 -1.7064282 4293729569
9.3318872 -3.3303909 -1.7090652 4293729569
8.5207367 -3.0718577 -1.7046324 4293729569
5.2330809 -1.8787206 -1.7388566 4293729569
9.3389339 -3.4053864 -1.7110978 4293729569
8.2817154 -3.032994 -1.7058189 4293729569
5.151073 -1.8867759 -1.7229316 4293729569
8.0707045 -3.0021122 -1.7109853 4293729569
9.3619871 -3.4873717 -1.7151204 4293729569
10.495238 -3.9267242 -1.7143681 4293729569
5.1050835 -1.9078044 -1.7189823 4293729569
7.851685 -2.9642365 -1.7131552 4293729569
10.147197 -3.8489227 -1.7166288 4293729569
9.3720322 -3.5643668 -1.7151513 4293729569
7.6536694 -2.9303489 -1.7163086 4293729569
5.0520878 -1.9248388 -1.7110372 4293729569
9.815156 -3.7741117 -1.7188768 4293729569
9.38908 -3.6453571 -1.7161784 4293729569
7.4596539 -2.8974581 -1.7194593 4293729569
9.5321283 -3.7132704 -1.72509 4293729569
4.9870849 -1.9368827 -1.6980996 4293729569
9.1920729 -3.6264689 -1.7183387 4293729569
7.3186579 -2.8825321 -1.7325734 4293729569
9.4261379 -3.7353344 -1.7201926 4293729569
4.9380898 -1.9539145 -1.6911508 4293729569
8.9070358 -3.5586309 -1.7205497 4293729569
7.1656537 -2.8596151 -1.7416937 4293729569
9.4371815 -3.8133297 -1.718223 4293729569
8.6299973 -3.4897907 -1.7187535 4293729569
6.9586239 -2.813736 -1.7368488 4293729569
4.8770871 -1.965956 -1.6782097 4293729569
8.3719606 -3.4259377 -1.7199433 4293729569
6.7736006 -2.7738428 -1.7349879 4293729569
9.4922438 -3.9112964 -1.7232256 4293729569
4.8521028 -1.9919707 -1.6772449 4293729569
8.1389313 -3.3680699 -1.7221147 4293729569
6.6035805 -2.7379401 -1.7351162 4293729569
7.8988938 -3.3052082 -1.7202895 4293729569
4.8081074 -2.0079999 -1.6692911 4293729569
6.4325576 -2.6990397 -1.7322439 4293729569
7.6858659 -3.2503281 -1.7234449 4293729569
6.264533 -2.6591368 -1.7293683 4293729569
4.7571068 -2.0220344 -1.6583424 4293729569
7.4698329 -3.1924527 -1.7226017 4293729569
6.0764956 -2.6082499 -1.7185043 4293729569
7.2648001 -3.1365707 -1.7207497 4293729569
4.7401228 -2.0490448 -1.6573708 4293729569
5.9164686 -2.5673437 -1.7136215 4293729569
7.0697703 -3.0826819 -1.7208903 4293729569
5.7694464 -2.5314295 -1.7107298 4293729569
6.8697338 -3.0237982 -1.7170326 4293729569
4.6671081 -2.0510967 -1.6374347 4293729569
5.5934048 -2.4785368 -1.6968546 4293729569
6.6917043 -2.9719009 -1.7161596 4293729569
6.4886608 -2.9080212 -1.7073019 4293729569
4.5980945 -2.0531456 -1.6184953 4293729569
5.3443241 -2.3916984 -1.6600249 4293729569
6.3636508 -2.8760877 -1.7163932 4293729569
5.0832314 -2.2968707 -1.6152014 4293729569
4.5510907 -2.0641789 -1.6055416 4293729569
6.2416396 -2.8451536 -1.7234825 4293729569
4.8711624 -2.222008 -1.5833459 4293729569
6.0756059 -2.7912509 -1.7185981 4293729569
4.6971092 -2.1621194 -1.5604655 4293729569
4.5341048 -2.0881896 -1.6035684 4293729569
5.8995619 -2.7303569 -1.7077187 4293729569
4.6181054 -2.1441612 -1.5665244 4293729569
5.7305202 -2.6724591 -1.6968348 4293729569
4.5041089 -2.1062107 -1.5956033 4293729569
5.6185045 -2.637521 -1.7009134 4293729569
4.5561104 -2.1341903 -1.5785728 4293729569
5.4654665 -2.5836132 -1.6910179 4293729569
4.498116 -2.125217 -1.5896181 4293729569
5.1843524 -2.4648008 -1.6381996 4293729569
4.4761138 -2.1242306 -1.5876366 4293729569
4.4651356 -2.1272252 -1.6096475 4293729569
4.8862271 -2.3360023 -1.5773908 4293729569
4.4051366 -2.1142542 -1.6196926 4293729569
4.6331224 -2.2271724 -1.5275536 4293729569
4.4681296 -2.1512358 -1.586657 4293729569
4.5461059 -2.1962211 -1.5286127 4293729569
4.3631487 -2.1102707 -1.6347268 4293729569
4.5051146 -2.1882367 -1.543644 4293729569
4.3091531 -2.0992954 -1.6457676 4293729569
4.4801321 -2.1872406 -1.5636649 4293729569
4.4251242 -2.1602671 -1.5726986 4293729569
4.4201274 -2.1672711 -1.5707064 4293729569
4.2421465 -2.0803313 -1.6498157 4293729569
4.3821349 -2.1582856 -1.5847346 4293729569
4.184144 -2.0653608 -1.656858 4293729569
4.354147 -2.1532922 -1.6017561 4293729569
4.3981276 -2.1772871 -1.5637305 4293729569
4.322156 -2.1453028 -1.6167796 4293729569
4.2831593 -2.1333187 -1.6288071 4293729569
4.2281513 -2.1113474 -1.6338433 4293729569
4.1801472 -2.0933712 -1.6408755 4293729569
4.3771329 -2.1953025 -1.5567575 4293729569
4.3611417 -2.2163143 -1.5507817 4293729569
4.3461475 -2.2363267 -1.5438048 4293729569
4.32515 -2.2523427 -1.5348307 4293729569
4.5685644 -2.4056048 -0.75669795 4293729569
4.3101559 -2.2713549 -1.5278531 4293729569
4.4825373 -2.3806615 -0.74075937 4293729569
4.5093808 -2.3987448 -0.54874521 4293729569
4.4943352 -2.3917787 -0.49975455 4293729569
4.4755602 -2.382652 -0.76576626 4293729569
4.2981629 -2.2913651 -1.5208733 4293729569
4.4523921 -2.3927689 -0.56379104 4293729569
4.4285254 -2.3837006 -0.72280711 4293729569
4.4335775 -2.3866677 -0.78180426 4293729569
4.4393249 -2.3948174 -0.48380318 4293729569
4.2691584 -2.3013878 -1.5079032 4293729569
4.4174113 -2.3967791 -0.58182299 4293729569
4.4076009 -2.3976724 -0.79983199 4293729569
4.4085269 -2.4027176 -0.71083367 4293729569
4.2651668 -2.3233931 -1.5019176 4293729569
4.3993192 -2.4038465 -0.46984196 4293729569
4.3924346 -2.4067831 -0.60084939 4293729569
4.3866267 -2.411674 -0.81985694 4293729569
4.2571731 -2.343401 -1.4949343 4293729569
4.3835258 -2.4197385 -0.69686347 4293729569
4.376461 -2.419781 -0.6218695 4293729569
4.380321 -2.4238625 -0.45786816 4293729569
4.3656521 -2.4236748 -0.83988082 4293729569
4.2501783 -2.3624091 -1.4869498 4293729569
4.3604865 -2.4327791 -0.64188957 4293729569
4.3665285 -2.4407539 -0.68488848 4293729569
4.3513184 -2.4378858 -0.4438999 4293729569
4.3576832 -2.4436679 -0.86189759 4293729569
4.2481871 -2.3844128 -1.4809624 4293729569
4.3475127 -2.4467759 -0.66190767 4293729569
4.3535314 -2.4637673 -0.67191094 4293729569
4.3467131 -2.4606631 -0.88291538 4293729569
4.2471938 -2.4054172 -1.4739735 4293729569
4.3433228 -2.4618959 -0.43191859 4293729569
4.3465447 -2.4667645 -0.6849184 4293729569
4.3407445 -2.4796541 -0.90592986 4293729569
4.2532048 -2.4304154 -1.4699807 4293729569
4.3345704 -2.4797604 -0.70493507 4293729569
4.3445363 -2.4877779 -0.65993047 4293729569
4.3293247 -2.4829097 -0.41894093 4293729569
4.3377771 -2.5006437 -0.92894274 4293729569
4.2692213 -2.4604075 -1.4679819 4293729569
3.955271 -2.2774949 -1.6451601 4293729569
4.3316016 -2.4987504 -0.72694695 4293729569
4.3365407 -2.5117879 -0.64794916 4293729569
4.3233309 -2.5089183 -0.40695885 4293729569
4.3276296 -2.513741 -0.74895769 4293729569
4.2852354 -2.4893994 -1.4649825 4293729569
4.3398132 -2.5236297 -0.95395237 4293729569
3.9632862 -2.304491 -1.6431665 4293729569
4.3316631 -2.5347261 -0.77296466 4293729569
4.3385487 -2.5407913 -0.6369617 4293729569
4.2942462 -2.5143974 -1.4589871 4293729569
4.3568544 -2.5546055 -0.98095304 4293729569
4.3253384 -2.5379224 -0.3949714 4293729569
3.9662955 -2.3264914 -1.6391749 4293729569
4.3376956 -2.5557103 -0.7959699 4293729569
4.3332739 -2.5563729 -1.4629744 4293729569
4.3718967 -2.5845823 -1.008955 4293729569
4.34656 -2.5737922 -0.62597108 4293729569
3.9783108 -2.3534851 -1.6381778 4293729569
4.3273439 -2.5659273 -0.38198343 4293729569
4.3597369 -2.5856841 -0.82296574 4293729569
5.0567288 -3.0088458 -1.6905792 4293729569
4.4139533 -2.6305408 -1.0429416 4293729569
4.4147944 -2.6346359 -0.85594279 4293729569
3.9623063 -2.3635004 -1.6251963 4293729569
5.1467867 -3.0827861 -1.7075386 4293729569
4.3685756 -2.6137836 -0.61697191 4293729569
4.3533602 -2.608918 -0.37098229 4293729569
5.190814 -3.1287608 -1.7085235 4293729569
3.9663136 -2.3845012 -1.6192034 4293729569
5.2408442 -3.1777313 -1.7105048 4293729569
3.9753249 -2.408498 -1.6152074 4293729569
5.2908726 -3.2247024 -1.711485 4293729569
3.9873359 -2.432493 -1.611209 4293729569
5.334897 -3.2686777 -1.710469 4293729569
5.3889246 -3.3166471 -1.7104464 4293729569
4.0013475 -2.4574869 -1.6082093 4293729569
5.4409504 -3.3626182 -1.7094245 4293729569
5.5089846 -3.4175785 -1.7123932 4293729569
4.0313697 -2.4914687 -1.6102002 4293729569
5.5770164 -3.471539 -1.7133616 4293729569
4.0593891 -2.5234523 -1.6111919 4293729569
5.661057 -3.5354891 -1.7183211 4293729569
6.3403106 -3.9660988 -1.7279526 4293729569
5.7400923 -3.5934427 -1.7202821 4293729569
5.8241301 -3.6553941 -1.7232406 4293729569
4.0814028 -2.5514407 -1.6081868 4293729569
6.2142763 -3.9051702 -1.7280302 4293729569
5.899159 -3.7093525 -1.721203 4293729569
5.97719 -3.7643087 -1.7201635 4293729569
6.0732284 -3.8282533 -1.7221128 4293729569
6.181272 -3.9001904 -1.7260557 4293729569
6.2813096 -3.9651322 -1.7270023 4293729569
4.0944095 -2.572437 -1.601186 4293729569
6.0852394 -3.8422446 -1.7261093 4293729569
4.1604528 -2.6263924 -1.6151559 4293729569
5.972209 -3.7863078 -1.7271782 4293729569
4.2455058 -2.691335 -1.6331152 4293729569
5.8601761 -3.7293723 -1.7262458 4293729569
5.7471404 -3.6704378 -1.7233133 4293729569
4.2985377 -2.7363014 -1.6400919 4293729569
5.6391053 -3.6115 -1.7213765 4293729569
4.3905935 -2.8052392 -1.6590471 4293729569
5.5330706 -3.5535614 -1.7184386 4293729569
4.4486246 -2.8512032 -1.6650201 4293729569
5.4400411 -3.5026147 -1.7174929 4293729569
4.5246668 -2.908155 -1.675983 4293729569
5.3450069 -3.4476702 -1.7145473 4293729569
4.6157165 -2.9730959 -1.6909372 4293729569
5.271987 -3.4067101 -1.7175894 4293729569
4.6947579 -3.0300455 -1.7008975 4293729569
5.1849542 -3.3537607 -1.7146378 4293729569
4.7497811 -3.0700145 -1.7008702 4293729569
5.1089272 -3.3078043 -1.71368 4293729569
4.812808 -3.1139777 -1.7028378 4293729569
5.0278959 -3.2568519 -1.7107242 4293729569
4.8778353 -3.1589401 -1.7048043 4293729569
4.9568691 -3.2108927 -1.7097623 4293729569
9.2012882 6.459949 -1.6755583 4288085770
9.534193 6.693119 -1.6951905 4288085770
9.770113 6.8572326 -1.6949304 4288085770
8.9063768 6.2497997 -1.6588855 4288085770
9.9840393 7.0023336 -1.6896963 4288085770
8.7374401 6.126719 -1.6620742 4288085770
10.164972 7.1214156 -1.6764998 4288085770
8.5785007 6.0076442 -1.6672531 4288085770
10.348903 7.2384973 -1.6603018 4288085770
8.4305601 5.8945732 -1.6714208 4288085770
10.545833 7.362586 -1.6460904 4288085770
8.276619 5.7755003 -1.6735957 4288085770
10.783752 7.5116959 -1.6348352 4288085770
8.1646709 5.6844497 -1.6827248 4288085770
11.107652 7.7168512 -1.633487 4288085770
8.0377254 5.58039 -1.6868716 4288085770
11.437552 7.922009 -1.6301346 4288085770
7.9227762 5.483336 -1.6920067 4288085770
7.8278241 5.3982935 -1.7001199 4288085770
11.376603 7.8179798 -1.6292291 4288085770
7.7438698 5.3192568 -1.7082214 4288085770
11.1307 7.6278639 -1.6355085 4288085770
7.658915 5.2392201 -1.7163243 4288085770
10.877799 7.4317441 -1.6407962 4288085770
7.5859594 5.1641889 -1.7254156 4288085770
10.69988 7.2856627 -1.6520022 4288085770
10.563951 7.1656046 -1.6681633 4288085770
7.5080032 5.0851545 -1.7315123 4288085770
10.425023 7.0415444 -1.6833285 4288085770
7.4260473 5.0021162 -1.7356143 4288085770
10.279097 6.9114795 -1.695502 4288085770
7.3470912 4.9210811 -1.7407129 4288085770
10.077179 6.7413821 -1.6957378 4288085770
7.2671342 4.8370442 -1.7428136 4288085770
9.7852764 6.5112343 -1.6790717 4288085770
9.4853745 6.2760811 -1.6584139 4288085770
7.1781783 4.7460012 -1.7429246 4288085770
9.3364449 6.1390109 -1.6615928 4288085770
7.0922217 4.6569605 -1.7420323 4288085770
9.1965094 6.0089445 -1.6647617 4288085770
7.0012646 4.5639153 -1.7381458 4288085770
9.0675745 5.883884 -1.6679194 4288085770
6.9413037 4.4898877 -1.7412262 4288085770
8.957633 5.770834 -1.6730568 4288085770
6.8533449 4.3978443 -1.7363369 4288085770
8.8656883 5.6687932 -1.6811751 4288085770
6.7863846 4.317812 -1.7354255 4288085770
4.7090855 2.9878411 -1.8116652 4288085770
4.6651034 2.9598222 -1.8167125 4288085770
4.6091213 2.923795 -1.8167729 4288085770
4.5551367 2.8887687 -1.8158313 4288085770
4.7660685 3.0218682 -1.8106048 4288085770
8.7577467 5.5557427 -1.6833109 4288085770
4.8290515 3.0588987 -1.8105384 4288085770
4.5141544 2.8587501 -1.8188771 4288085770
4.8980327 3.0989325 -1.8114657 4288085770
4.4701705 2.8277299 -1.820926 4288085770
4.4221864 2.7927058 -1.8189796 4288085770
4.9570141 3.1309593 -1.8074048 4288085770
6.7254219 4.2417831 -1.7355075 4288085770
5.0309963 3.1709957 -1.8083282 4288085770
4.3822026 2.7606871 -1.8200256 4288085770
8.6787996 5.4607086 -1.6904154 4288085770
5.099977 3.206028 -1.805258 4288085770
4.3252182 2.7176569 -1.8130898 4288085770
5.1879578 3.2520723 -1.8081677 4288085770
4.2882338 2.6866391 -1.8131331 4288085770
5.2679372 3.2921104 -1.8060864 4288085770
6.6904559 4.1817694 -1.7405618 4288085770
4.2522492 2.6546221 -1.8131759 4288085770
8.6098499 5.3706789 -1.6985102 4288085770
5.3519163 3.3331506 -1.8050015 4288085770
4.225265 2.6276104 -1.8152093 4288085770
5.4418964 3.376194 -1.8049109 4288085770
4.1852789 2.5925896 -1.8112568 4288085770
6.6514902 4.1177526 -1.7436212 4288085770
8.5478992 5.2836533 -1.705598 4288085770
5.5488744 3.4282477 -1.808803 4288085770
4.1602945 2.564579 -1.8132888 4288085770
5.6508532 3.4752977 -1.808701 4288085770
5.7578139 3.5393453 -1.7985877 4288085770
5.6898375 3.4973137 -1.8026603 4288085770
5.614861 3.4502788 -1.8047408 4288085770
5.8377886 3.5873823 -1.7955029 4288085770
5.5488849 3.407248 -1.8078122 4288085770
5.9087644 3.6274142 -1.7894287 4288085770
4.1293087 2.5335634 -1.8113273 4288085770
5.466907 3.3542068 -1.8039008 4288085770
5.9827394 3.6694474 -1.7833513 4288085770
6.6195245 4.0577402 -1.7486733 4288085770
