# .PCD v0.7 - Point Cloud Data file format
VERSION 0.7
FIELDS x y z rgb
SIZE 4 4 4 4
TYPE F F F U
COUNT 1 1 1 1
WIDTH 1117
HEIGHT 1
VIEWPOINT 0 0 0 1 0 0 0
POINTS 1117
DATA ascii
7.1381078 0.32387599 -1.8192081 4288085770
10.987173 0.47742411 -1.8382916 4288085770
9.2571402 0.40706384 -1.8221556 4288085770
11.516184 0.49522629 -1.8420343 4288085770
8.971139 0.39318779 -1.8303025 4288085770
12.07219 0.51301473 -1.8437654 4288085770
8.6231298 0.37631032 -1.8234814 4288085770
12.648196 0.52978683 -1.8404899 4288085770
8.3191223 0.36042425 -1.8216395 4288085770
13.309202 0.54753119 -1.8401763 4288085770
8.032115 0.34452826 -1.8177906 4288085770
7.8811111 0.33758149 -1.8148674 4288085770
8.1971197 0.34947795 -1.8257115 4288085770
8.4771223 0.35936636 -1.8235743 4288085770
7.6411085 0.32767928 -1.8179876 4288085770
8.83813 0.37224033 -1.8313973 4288085770
8.7881269 0.36924946 -1.825424 4288085770
7.4061041 0.31677169 -1.8191074 4288085770
14.03722 0.56529194 -1.8648341 4288085770
14.092213 0.56724197 -1.8478072 4288085770
7.7621074 0.32862732 -1.8149345 4288085770
7.1600981 0.30585656 -1.8132319 4288085770
9.0981293 0.37812278 -1.8212759 4288085770
7.355104 0.31079799 -1.82314 4288085770
6.9570951 0.29493821 -1.8153384 4288085770
9.4771347 0.38698459 -1.8260987 4288085770
15.095232 0.592893 -1.8703336 4288085770
7.5241017 0.31271899 -1.8150647 4288085770
6.75209 0.28401396 -1.8134454 4288085770
9.8161354 0.39484331 -1.8199401 4288085770
16.072243 0.61452687 -1.8768783 4288085770
6.5700865 0.27308744 -1.8155428 4288085770
10.227139 0.40268424 -1.8197509 4288085770
7.2800937 0.29680622 -1.8111976 4288085770
9.1501274 0.35812226 -1.8332903 4288085770
6.3780804 0.26115635 -1.8126464 4288085770
10.702144 0.41151229 -1.8265327 4288085770
17.013245 0.63014597 -1.8664492 4288085770
7.0740891 0.28288725 -1.8123106 4288085770
14.884219 0.54699224 -1.8815064 4288085770
7.5831003 0.29671577 -1.8270689 4288085770
6.2160769 0.25022042 -1.8137354 4288085770
11.257153 0.42031777 -1.8382804 4288085770
18.175251 0.64969468 -1.8649188 4288085770
6.8800836 0.26796359 -1.8134207 4288085770
6.0560732 0.23928365 -1.8148235 4288085770
11.795156 0.42711464 -1.8410391 4288085770
19.617266 0.6741538 -1.8742599 4288085770
9.4681196 0.34299681 -1.8321826 4288085770
6.6910782 0.25303623 -1.8135283 4288085770
5.9100699 0.22734314 -1.8169076 4288085770
12.341155 0.43189481 -1.8357978 4288085770
7.8020945 0.28362697 -1.8249998 4288085770
15.768216 0.52466798 -1.89217 4288085770
5.7660656 0.21639848 -1.8169891 4288085770
12.981159 0.43665203 -1.8385166 4288085770
6.500071 0.23810458 -1.810637 4288085770
5.6310611 0.20445362 -1.8190686 4288085770
9.810113 0.32686374 -1.8320663 4288085770
13.68716 0.44038215 -1.840209 4288085770
6.3250642 0.2231684 -1.8087389 4288085770
8.0470905 0.26953313 -1.8259214 4288085770
5.5150599 0.19350654 -1.824138 4288085770
14.557169 0.44506738 -1.8528298 4288085770
16.584202 0.49733791 -1.8838714 4288085770
6.1680593 0.20923033 -1.8098314 4288085770
10.18611 0.31271929 -1.832932 4288085770
5.3800535 0.18155324 -1.8212177 4288085770
15.60918 0.45070085 -1.8763713 4288085770
8.3300858 0.2564314 -1.830825 4288085770
6.0270557 0.1952894 -1.8129171 4288085770
5.2560487 0.16960067 -1.8212924 4288085770
16.488173 0.44634184 -1.8650043 4288085770
17.59119 0.47194925 -1.8844879 4288085770
10.608105 0.29756051 -1.8357798 4288085770
5.8860507 0.18134511 -1.8140028 4288085770
8.5980806 0.24232537 -1.8297366 4288085770
5.1410451 0.15764463 -1.8213636 4288085770
17.583174 0.44292131 -1.8665435 4288085770
5.7450452 0.16739738 -1.8130887 4288085770
11.055099 0.28239036 -1.8376169 4288085770
18.783182 0.44549754 -1.890027 4288085770
8.9120779 0.2302101 -1.8336251 4288085770
18.903173 0.43742558 -1.8749905 4288085770
5.6080384 0.15344641 -1.8111727 4288085770
11.533093 0.26720485 -1.8374406 4288085770
9.2100706 0.21608576 -1.8285238 4288085770
5.4920344 0.1394957 -1.814248 4288085770
12.076089 0.25199929 -1.8402367 4288085770
9.5550632 0.20195341 -1.8294024 4288085770
5.3780298 0.12554252 -1.8163224 4288085770
12.661082 0.23677415 -1.8410147 4288085770
9.9420595 0.18880823 -1.8322613 4288085770
13.350079 0.22151896 -1.8477484 4288085770
5.2700257 0.11158701 -1.8183943 4288085770
10.342056 0.17565471 -1.8331147 4288085770
14.086074 0.20624056 -1.851462 4288085770
10.793052 0.16248482 -1.8359463 4288085770
5.1630206 0.097629391 -1.8194659 4288085770
14.91007 0.19092816 -1.8551381 4288085770
11.262047 0.15030131 -1.8347683 4288085770
15.875069 0.17657143 -1.8647522 4288085770
11.812043 0.13709828 -1.8405575 4288085770
16.934067 0.16017157 -1.8703297 4288085770
12.360037 0.12388083 -1.8373477 4288085770
18.128061 0.14471787 -1.8748479 4288085770
13.043036 0.11162984 -1.8450783 4288085770
19.566057 0.12817994 -1.8852638 4288085770
13.778034 0.099355407 -1.8507867 4288085770
14.612032 0.088044398 -1.857451 4288085770
15.570031 0.075692229 -1.8680643 4288085770
16.598028 0.064302854 -1.872646 4288085770
19.547022 0.056160547 -1.8704014 4288085770
17.764025 0.052858464 -1.8761686 4288085770
18.12402 0.04869885 -1.8640225 4288085770
19.171026 0.042334437 -1.8875868 4288085770
16.820009 0.040180951 -1.8515946 4288085770
15.769007 0.031583808 -1.8500589 4288085770
14.802999 0.020946965 -1.8444906 4288085770
19.930002 1.1347234e-05 -1.8703389 4288085770
13.945992 0.010266244 -1.837876 4288085770
18.432993 -0.015428707 -1.8600059 4288085770
13.213988 -0.00045436621 -1.836208 4288085770
17.160984 -0.029949017 -1.8535753 4288085770
12.529983 -0.011198647 -1.8315197 4288085770
11.924978 -0.022968441 -1.8297993 4288085770
16.056976 -0.045530956 -1.849075 4288085770
11.380971 -0.034763552 -1.8270531 4288085770
15.089969 -0.061167613 -1.8435162 4288085770
10.879967 -0.046571922 -1.8262887 4288085770
14.220961 -0.075840473 -1.838914 4288085770
10.437963 -0.058399752 -1.827499 4288085770
13.461955 -0.090552524 -1.836265 4288085770
10.014956 -0.07124006 -1.8257033 4288085770
12.791947 -0.10529732 -1.8345779 4288085770
9.6259508 -0.084093533 -1.823893 4288085770
12.157941 -0.12006116 -1.8298757 4288085770
9.3089504 -0.096959651 -1.8310519 4288085770
11.611934 -0.13485228 -1.8291359 4288085770
8.9729433 -0.10983368 -1.8292192 4288085770
11.120928 -0.14966467 -1.8283727 4288085770
8.6559381 -0.12271677 -1.8263783 4288085770
10.694923 -0.16549382 -1.8325837 4288085770
8.3799343 -0.13560897 -1.82752 4288085770
10.293919 -0.1803343 -1.8357823 4288085770
8.1109285 -0.14850561 -1.8276587 4288085770
9.8969135 -0.19518316 -1.8349791 4288085770
7.8469214 -0.16141097 -1.8237954 4288085770
9.5379066 -0.21004844 -1.8331599 4288085770
7.6239176 -0.17532039 -1.8269165 4288085770
19.712812 -0.52686071 -1.9033787 4288085770
9.2109013 -0.22492099 -1.8343271 4288085770
19.237803 -0.52172619 -1.8745724 4288085770
7.4019127 -0.18823695 -1.8260354 4288085770
18.302805 -0.53533816 -1.8909969 4288085770
8.8718939 -0.23880249 -1.8274975 4288085770
18.042788 -0.55327529 -1.8691404 4288085770
7.1809058 -0.20115903 -1.8221538 4288085770
17.091799 -0.54088748 -1.881525 4288085770
8.5778875 -0.25369132 -1.8266509 4288085770
16.038792 -0.54449272 -1.8749821 4288085770
16.943773 -0.58087176 -1.8576602 4288085770
6.9959016 -0.21508321 -1.8252589 4288085770
8.3088818 -0.26858979 -1.8257933 4288085770
15.12079 -0.54614508 -1.8713779 4288085770
6.8088965 -0.2280134 -1.8243626 4288085770
8.0628757 -0.28249547 -1.8259243 4288085770
16.063761 -0.61153102 -1.8590922 4288085770
14.273789 -0.54482985 -1.8647383 4288085770
6.6328912 -0.24094787 -1.8234622 4288085770
13.508789 -0.54254311 -1.8600618 4288085770
7.8258705 -0.29740471 -1.8260533 4288085770
15.248748 -0.63922375 -1.855491 4288085770
12.85379 -0.54029191 -1.8593383 4288085770
6.466886 -0.25488457 -1.8235592 4288085770
7.6078644 -0.31232294 -1.8251742 4288085770
19.367678 -0.87273747 -1.9021479 4288085770
12.215789 -0.53505576 -1.8536023 4288085770
14.523737 -0.66694963 -1.8528517 4288085770
11.65179 -0.52984148 -1.8518347 4288085770
17.985685 -0.84222192 -1.8916847 4288085770
6.3178816 -0.26882449 -1.825649 4288085770
7.4098597 -0.3272422 -1.8282866 4288085770
11.137793 -0.52364647 -1.8500438 4288085770
16.755692 -0.81276852 -1.8791584 4288085770
10.685796 -0.51846868 -1.8522285 4288085770
6.164876 -0.28176787 -1.8247387 4288085770
15.746699 -0.78838545 -1.8755466 4288085770
13.858727 -0.69170207 -1.8481811 4288085770
7.1968517 -0.34116921 -1.8234036 4288085770
10.251799 -0.51030284 -1.8513999 4288085770
5.2488933 -0.24240705 -1.8290606 4288085770
14.828707 -0.76403916 -1.8708961 4288085770
9.8648024 -0.50315183 -1.852553 4288085770
5.3658886 -0.25645107 -1.8300363 4288085770
14.006714 -0.7407316 -1.8652064 4288085770
6.0268712 -0.29571378 -1.8258239 4288085770
9.4798031 -0.49500659 -1.8507035 4288085770
7.0068464 -0.35609844 -1.8225129 4288085770
13.276715 -0.71747988 -1.8474773 4288085770
5.4918828 -0.27149856 -1.8310099 4288085770
13.269721 -0.71845359 -1.8614821 4288085770
9.1278086 -0.48587239 -1.8498381 4288085770
19.317596 -1.0867105 -1.9095539 4288085770
5.6098762 -0.285548 -1.8289849 4288085770
12.613728 -0.6972034 -1.859725 4288085770
8.791811 -0.47574607 -1.8479642 4288085770
5.7458711 -0.30060098 -1.828954 4288085770
11.989736 -0.67497075 -1.8549526 4288085770
5.8918657 -0.30966258 -1.8259078 4288085770
8.4858122 -0.46563128 -1.8460771 4288085770
6.8478417 -0.37103283 -1.8256088 4288085770
5.2458839 -0.27439746 -1.8351214 4288085770
5.8848648 -0.31465507 -1.8289199 4288085770
8.1908159 -0.45552239 -1.8431854 4288085770
11.456744 -0.65576476 -1.8551464 4288085770
5.3678789 -0.28544492 -1.8350892 4288085770
7.9208198 -0.44541979 -1.8422832 4288085770
12.738704 -0.74327654 -1.8457547 4288085770
6.024858 -0.32971293 -1.8268874 4288085770
5.4988747 -0.29749411 -1.836055 4288085770
11.010752 -0.63958222 -1.8613087 4288085770
18.837572 -1.1295666 -1.8858364 4288085770
7.6568227 -0.43432286 -1.8393764 4288085770
5.6278696 -0.30954763 -1.8340214 4288085770
6.1858535 -0.34477043 -1.8298458 4288085770
10.533758 -0.61940473 -1.8574769 4288085770
7.4148264 -0.42323273 -1.8374604 4288085770
18.135588 -1.0982764 -1.897081 4288085770
19.255558 -1.1727153 -1.8937351 4288085770
5.7578635 -0.32060319 -1.8309858 4288085770
7.1928306 -0.4121469 -1.8375356 4288085770
5.9088602 -0.33165836 -1.8329412 4288085770
5.7588601 -0.3226155 -1.8239892 4288085770
6.3408461 -0.35983577 -1.8268067 4288085770
10.092765 -0.59924096 -1.8536296 4288085770
6.9768343 -0.40106511 -1.8366084 4288085770
6.0688558 -0.34371868 -1.8338943 4288085770
6.786839 -0.39098823 -1.8386717 4288085770
6.393846 -0.36584798 -1.8317949 4288085770
6.579843 -0.37791488 -1.8347369 4288085770
6.2318511 -0.35578185 -1.8338461 4288085770
6.5228415 -0.37589964 -1.8307579 4288085770
6.6788354 -0.38597187 -1.823709 4288085770
9.6947708 -0.58009046 -1.8517659 4288085770
6.721838 -0.39196837 -1.8357017 4288085770
9.3087769 -0.56095135 -1.845897 4288085770
6.9098315 -0.4080413 -1.8356501 4288085770
8.9787846 -0.54382199 -1.8470076 4288085770
7.1018243 -0.42312083 -1.8325951 4288085770
8.635788 -0.52469951 -1.8411202 4288085770
8.3527956 -0.50758666 -1.8432107 4288085770
7.3268194 -0.44020125 -1.8365293 4288085770
8.0567999 -0.48948219 -1.8373053 4288085770
7.5518126 -0.4562901 -1.835462 4288085770
12.252696 -0.76808983 -1.8460082 4288085770
7.8038073 -0.47338259 -1.8383846 4288085770
17.716562 -1.1381563 -1.8733323 4288085770
17.11558 -1.1088985 -1.8885373 4288085770
5.6438556 -0.33656868 -1.8260647 4288085770
6.5128288 -0.39991206 -1.8218063 4288085770
18.357534 -1.2203867 -1.8842053 4288085770
11.798686 -0.79192066 -1.8432462 4288085770
16.780556 -1.1518058 -1.867758 4288085770
5.5338507 -0.35152385 -1.8281399 4288085770
16.202574 -1.1175566 -1.8829442 4288085770
6.3648229 -0.41485596 -1.8218977 4288085770
17.552513 -1.2660905 -1.8766327 4288085770
5.4248457 -0.36548111 -1.8292128 4288085770
11.398677 -0.81676555 -1.8444631 4288085770
15.401571 -1.1252497 -1.8823016 4288085770
15.976548 -1.1694977 -1.8671347 4288085770
6.2238178 -0.42980245 -1.8219861 4288085770
5.3178401 -0.37944081 -1.829285 4288085770
14.648569 -1.1279663 -1.8786297 4288085770
6.0968122 -0.44475105 -1.8240685 4288085770
11.030668 -0.84262121 -1.8466681 4288085770
16.819494 -1.308826 -1.8670239 4288085770
15.264541 -1.1872271 -1.8654721 4288085770
5.2188358 -0.39340028 -1.8313539 4288085770
13.940567 -1.1287037 -1.8729349 4288085770
5.9758077 -0.45970199 -1.8261485 4288085770
10.697659 -0.86749035 -1.8488564 4288085770
14.610534 -1.2049772 -1.8647848 4288085770
16.255478 -1.3596027 -1.8713574 4288085770
13.298567 -1.1274631 -1.8692086 4288085770
5.850801 -0.47465825 -1.8242302 4288085770
10.367649 -0.89136583 -1.8480419 4288085770
14.013526 -1.2237509 -1.8630751 4288085770
12.742567 -1.1272473 -1.8704473 4288085770
15.748458 -1.4094033 -1.8746647 4288085770
5.7317948 -0.48861504 -1.8233076 4288085770
19.220335 -1.7576928 -1.906801 4288085770
10.057639 -0.91425067 -1.8462168 4288085770
13.472519 -1.2415448 -1.8623399 4288085770
12.168566 -1.1210381 -1.8636827 4288085770
18.09235 -1.7192607 -1.9052159 4288085770
5.6277895 -0.50457263 -1.8253824 4288085770
15.230441 -1.4532098 -1.871966 4288085770
19.199244 -1.8509164 -1.7709771 4293729569
11.672566 -1.1158504 -1.8618869 4288085770
9.801631 -0.94014472 -1.8513743 4288085770
12.97351 -1.2593583 -1.8595865 4288085770
17.090363 -1.6848702 -1.9075841 4288085770
5.5157833 -0.51853395 -1.8234566 4288085770
11.23257 -1.1136745 -1.8660723 4288085770
14.800423 -1.5010402 -1.875237 4288085770
17.986235 -1.8375064 -1.7374737 4293729569
16.130377 -1.6455081 -1.9029256 4288085770
9.524621 -0.962044 -1.8485335 4288085770
12.511503 -1.2781842 -1.8578193 4288085770
10.830572 -1.1105131 -1.8702399 4288085770
5.4267793 -0.53449398 -1.8275249 4288085770
15.23539 -1.6051779 -1.8942375 4288085770
10.414575 -1.1023564 -1.8684045 4288085770
17.158228 -1.8491976 -1.7318503 4293729569
14.406405 -1.5488846 -1.8784926 4288085770
12.082494 -1.2970248 -1.855038 4288085770
9.2696114 -0.98495024 -1.8466853 4288085770
14.479402 -1.5718877 -1.8935026 4282675967
5.3377748 -0.55045569 -1.8305932 4288085770
10.016578 -1.0922098 -1.8645577 4288085770
13.730414 -1.533614 -1.8847558 4282675967
16.441219 -1.8639183 -1.7341849 4293729569
11.676486 -1.3138777 -1.8502434 4288085770
5.2397685 -0.56442243 -1.8286619 4288085770
9.0336027 -1.007862 -1.845829 4288085770
9.6645813 -1.0830747 -1.864693 4288085770
13.994389 -1.5907322 -1.8757453 4288085770
13.089426 -1.50237 -1.8829755 4282675967
17.257082 -2.0085704 -1.5360938 4293729569
17.227064 -2.0126419 -1.4871142 4293729569
9.3035841 -1.0709459 -1.8588271 4288085770
12.464436 -1.4671423 -1.875181 4288085770
15.813219 -1.8816669 -1.7404866 4293729569
11.324476 -1.334743 -1.8504331 4288085770
8.8275948 -1.0317806 -1.8479615 4288085770
9.0055876 -1.0628263 -1.861941 4288085770
13.654371 -1.6365991 -1.8779744 4288085770
11.940448 -1.4399369 -1.8773576 4282675967
16.947071 -2.0784001 -1.5673528 4293729569
8.6935911 -1.0507129 -1.8580539 4288085770
17.164026 -2.123584 -1.5083406 4293729569
11.388458 -1.4047407 -1.867532 4288085770
10.980468 -1.3536183 -1.8466154 4288085770
15.250216 -1.8984337 -1.7507591 4293729569
8.6155844 -1.0547035 -1.846095 4288085770
8.4045944 -1.0386052 -1.8561572 4288085770
13.332355 -1.6814729 -1.8801939 4282675967
10.901465 -1.3735647 -1.8606858 4288085770
16.632055 -2.1442378 -1.5926065 4293729569
8.1325989 -1.026504 -1.8542529 4288085770
10.451476 -1.3443981 -1.8568271 4288085770
14.725214 -1.9142134 -1.7620133 4293729569
10.65846 -1.3725003 -1.8437887 4288085770
16.803997 -2.1954591 -1.5016246 4293729569
8.4275761 -1.0786307 -1.8472199 4288085770
17.009867 -2.2430022 -1.2276212 4293729569
7.871603 -1.0134087 -1.8513421 4288085770
10.070485 -1.3202494 -1.8579482 4288085770
16.971663 -2.2597945 -0.7506671 4293729569
13.006338 -1.7243521 -1.8784118 4282675967
17.013645 -2.2888265 -0.74170119 4293729569
7.6216073 -0.99931926 -1.847425 4288085770
16.9438 -2.2821755 -1.1107196 4293729569
16.495039 -2.2331173 -1.6338252 4293729569
9.7074966 -1.2961079 -1.8590614 4288085770
14.102215 -1.9089839 -1.7562723 4293729569
10.404452 -1.3983949 -1.8489455 4288085770
8.2315664 -1.0995613 -1.8443431 4288085770
16.969461 -2.3205206 -0.32177657 4293729569
7.4026122 -0.98823178 -1.8494999 4288085770
16.917864 -2.3238454 -1.300806 4293729569
16.772961 -2.3094172 -1.5208428 4293729569
9.3545055 -1.2699752 -1.8571666 4288085770
7.1866159 -0.97615051 -1.8485717 4288085770
12.68232 -1.7622387 -1.8726199 4282675967
16.930609 -2.3738115 -0.73288953 4293729569
9.0425158 -1.2478515 -1.8592616 4288085770
13.544216 -1.9047713 -1.7555052 4293729569
16.904778 -2.3910952 -1.1509323 4293729569
16.943611 -2.3987713 -0.75992888 4293729569
6.990622 -0.96407175 -1.8506348 4288085770
16.33502 -2.3169987 -1.669045 4293729569
10.172444 -1.4252969 -1.8550946 4288085770
8.0685587 -1.1244966 -1.8464594 4288085770
16.923864 -2.4157107 -1.3829687 4293729569
8.7395239 -1.2247347 -1.8593509 4288085770
16.937433 -2.4284427 -0.36198431 4293729569
6.7926264 -0.95099902 -1.8486971 4288085770
16.867922 -2.4424076 -1.5500408 4293729569
8.436532 -1.1986246 -1.8554348 4288085770
6.5896297 -0.93592942 -1.8437579 4288085770
12.126302 -1.763098 -1.8298614 4288085770
12.921218 -1.8855551 -1.741739 4293729569
8.1715412 -1.1765226 -1.8555096 4288085770
16.968555 -2.4988573 -0.71609789 4293729569
9.939435 -1.4502048 -1.8572406 4288085770
16.967861 -2.5125825 -1.4701239 4293729569
16.966747 -2.5160406 -1.1991302 4293729569
7.906548 -1.1484355 -1.8465735 4288085770
16.087002 -2.3868637 -1.6932774 4293729569
17.01857 -2.5297658 -0.78213203 4293729569
6.4226351 -0.92486191 -1.8458104 4288085770
7.9015493 -1.1524237 -1.8525828 4288085770
17.016405 -2.5533993 -0.40717483 4293729569
6.2586408 -0.91179717 -1.846858 4288085770
7.6595573 -1.1303337 -1.8506478 4288085770
17.764862 -2.6995866 -1.6511168 4293729569
12.478221 -1.8863766 -1.7469319 4293729569
6.0836439 -0.89673829 -1.8419068 4288085770
7.4315653 -1.1092458 -1.8507084 4288085770
11.553285 -1.7539623 -1.7800924 4288085770
18.216835 -2.7947373 -1.6660933 4293729569
9.7094259 -1.474116 -1.8583835 4288085770
5.9366498 -0.8846783 -1.843949 4288085770
7.7495399 -1.1713763 -1.8466835 4288085770
7.2095733 -1.0871637 -1.8487648 4288085770
15.850986 -2.4567358 -1.7165046 4293729569
5.7896547 -0.87162364 -1.8429891 4288085770
6.997581 -1.0650853 -1.8468167 4288085770
11.915222 -1.8621854 -1.7321312 4293729569
5.6376595 -0.85657012 -1.8400279 4288085770
6.8085895 -1.0450107 -1.8478624 4288085770
17.182858 -2.722348 -1.6604083 4293729569
17.79882 -2.8315668 -1.6723392 4293729569
5.5116649 -0.84451669 -1.8430611 4288085770
6.612596 -1.0239402 -1.8449093 4288085770
11.119269 -1.7618521 -1.7472942 4293729569
9.4934177 -1.4970341 -1.8585188 4288085770
6.4336033 -1.0028745 -1.8429488 4288085770
7.6065302 -1.1953228 -1.8467895 4288085770
5.3856702 -0.83246654 -1.8440942 4288085770
6.2626109 -0.98281032 -1.8419868 4288085770
15.538969 -2.5115983 -1.7277377 4293729569
5.2526751 -0.8174203 -1.8411247 4288085770
11.497227 -1.8550215 -1.7342992 4293729569
6.105618 -0.96474981 -1.8420223 4288085770
16.584877 -2.7100708 -1.6886437 4293729569
5.949625 -0.94569123 -1.8410555 4288085770
5.8026319 -0.92663622 -1.8400848 4288085770
9.2934084 -1.5209565 -1.8596491 4288085770
17.855776 -2.9685559 -1.6935606 4293729569
5.658639 -0.90758395 -1.838113 4288085770
10.879253 -1.7957712 -1.7414594 4293729569
7.4665213 -1.2182717 -1.8458923 4288085770
5.5286455 -0.8895337 -1.8381367 4288085770
5.4086533 -0.87248403 -1.8401579 4288085770
11.064231 -1.839862 -1.730459 4293729569
5.2816596 -0.8544383 -1.8381803 4288085770
16.05789 -2.7038138 -1.7208595 4293729569
15.231951 -2.5644684 -1.7359653 4293729569
9.1033993 -1.5458847 -1.8597767 4288085770
10.657234 -1.8257124 -1.7266097 4293729569
7.3345118 -1.2422223 -1.8459936 4288085770
17.871733 -3.100538 -1.7097903 4293729569
10.576236 -1.8166878 -1.7226284 4293729569
15.404909 -2.6695404 -1.7340795 4293729569
14.883937 -2.6063337 -1.7371905 4293729569
10.376239 -1.8275812 -1.7407347 4293729569
14.814929 -2.6382878 -1.7492778 4293729569
8.9273891 -1.5708165 -1.8608984 4288085770
7.2045026 -1.2651753 -1.8450923 4288085770
10.325221 -1.844613 -1.7107878 4293729569
17.770691 -3.2104957 -1.7130312 4293729569
14.558918 -2.64821 -1.7374059 4293729569
10.076245 -1.8234527 -1.7488575 4293729569
14.067951 -2.5700164 -1.7394773 4293729569
8.7743807 -1.5987506 -1.8660158 4282675967
7.0924926 -1.2911303 -1.8471889 4288085770
10.126205 -1.877548 -1.7049336 4293729569
17.702646 -3.3264651 -1.7172685 4293729569
9.767251 -1.8143276 -1.7529752 4293729569
13.341972 -2.4987597 -1.7256627 4293729569
19.830502 -3.7462251 -1.7561046 4293729569
14.232903 -2.6870909 -1.7346166 4293729569
8.6203718 -1.6256891 -1.8681316 4282675967
6.9854832 -1.316089 -1.8482813 4288085770
9.4652557 -1.8022084 -1.7550844 4293729569
9.9731903 -1.9184906 -1.7050742 4293729569
17.650602 -3.4434409 -1.7215006 4293729569
18.926512 -3.697902 -1.7414072 4293729569
13.848889 -2.7099659 -1.7218237 4293729569
11.463026 -2.2482145 -1.6190239 4293729569
9.1842613 -1.7910939 -1.7591865 4293729569
8.4713621 -1.6516333 -1.8682438 4282675967
6.8714743 -1.3390499 -1.8463731 4288085770
9.8071728 -1.9554368 -1.7002132 4293729569
18.142523 -3.6616135 -1.7336798 4293729569
10.493053 -2.1029632 -1.546182 4293729569
8.9462681 -1.7859862 -1.7692808 4288085770
17.627556 -3.5684278 -1.7257345 4293729569
13.540874 -2.7428606 -1.715016 4293729569
8.3533525 -1.6825793 -1.8743515 4282675967
6.7894654 -1.3680099 -1.8524622 4288085770
10.350063 -2.1198397 -1.5872749 4293729569
8.7432756 -1.7848834 -1.7843672 4288085770
17.440533 -3.6323469 -1.7319299 4293729569
9.6861572 -1.9983883 -1.7023438 4293729569
10.588814 -2.2028375 -1.0523204 4293729569
10.514943 -2.1932871 -1.3613355 4293729569
10.182075 -2.1287167 -1.6223639 4293729569
8.209343 -1.7065269 -1.8734581 4282675967
8.5572815 -1.7847854 -1.8004482 4288085770
6.6774554 -1.3889751 -1.8485495 4288085770
10.563596 -2.2416687 -0.55540079 4293729569
10.485818 -2.2337317 -1.0924211 4293729569
10.541607 -2.252593 -0.5954302 4293729569
9.9700861 -2.1275899 -1.649454 4293729569
9.5381422 -2.0343411 -1.6974732 4293729569
8.3902893 -1.7866899 -1.8195246 4288085770
10.552473 -2.2731221 -0.28546211 4293729569
10.466789 -2.2538092 -1.0424654 4293729569
10.443925 -2.2522392 -1.374473 4293729569
8.0883322 -1.7354786 -1.8755635 4282675967
6.5864453 -1.4139416 -1.8486352 4288085770
9.7860985 -2.1284688 -1.6795359 4293729569
8.2262964 -1.786597 -1.8375962 4288085770
10.44081 -2.2906549 -1.1285435 4293729569
10.477571 -2.3006446 -0.55154467 4293729569
10.475602 -2.304512 -0.62955266 4293729569
9.4341249 -2.0802999 -1.6996017 4293729569
10.505439 -2.3351481 -0.26059455 4293729569
9.5291119 -2.1123435 -1.6956183 4293729569
10.421762 -2.3207989 -1.039606 4293729569
7.9713211 -1.7644317 -1.8776674 4282675967
10.401906 -2.3191984 -1.3906122 4293729569
8.0713034 -1.7875078 -1.8556654 4288085770
6.4964356 -1.4389086 -1.8487204 4288085770
10.421802 -2.3535836 -1.1676654 4293729569
10.448595 -2.3644373 -0.6686728 4293729569
9.2811241 -2.0942233 -1.7106937 4293729569
10.458544 -2.3746409 -0.55068672 4293729569
7.9143105 -1.785419 -1.8727304 4282675967
9.3081083 -2.1202581 -1.6967291 4293729569
10.484405 -2.4031825 -0.23672657 4293729569
7.7833099 -1.7743894 -1.8607676 4282675967
10.429731 -2.4008045 -1.039747 4293729569
10.387886 -2.3911645 -1.4087485 4293729569
9.0481377 -2.0761101 -1.7247626 4293729569
7.7153177 -1.7723345 -1.8777937 4282675967
6.4234262 -1.4668769 -1.8518039 4288085770
10.415794 -2.4195137 -1.2087871 4293729569
10.439588 -2.4273684 -0.70879042 4293729569
10.476511 -2.4566517 -0.54982698 4293729569
8.7971497 -2.0529969 -1.7348301 4293729569
7.5073256 -1.7532533 -1.8788503 4282675967
9.225091 -2.1682224 -1.6998522 4293729569
10.520363 -2.4842403 -0.21185729 4293729569
7.5992999 -1.7833483 -1.8438646 4288085770
10.408863 -2.4711392 -1.4298837 4293729569
10.484699 -2.4908209 -1.0438858 4293729569
8.4921646 -2.0128863 -1.7308906 4293729569
6.3324165 -1.4898469 -1.8498859 4288085770
10.531574 -2.5153246 -0.75690937 4293729569
10.444785 -2.4934475 -1.2559083 4293729569
7.2963328 -1.7321775 -1.8759044 4282675967
8.2651777 -1.9887841 -1.7399462 4293729569
9.1350737 -2.2131879 -1.7009728 4293729569
7.3822889 -1.7823135 -1.8159578 4288085770
7.0903397 -1.7111038 -1.8729565 4282675967
13.921609 -3.4280088 -1.7240827 4293729569
6.266407 -1.5178179 -1.8529664 4288085770
7.9961901 -1.9526876 -1.7359985 4293729569
6.9073477 -1.692032 -1.8740022 4282675967
7.7602029 -1.9215935 -1.7380455 4293729569
9.0670557 -2.2641568 -1.7050948 4293729569
7.1902785 -1.7852796 -1.7930475 4288085770
13.351628 -3.368808 -1.7132233 4293729569
6.7203541 -1.6709656 -1.8710462 4282675967
11.982748 -3.0293288 -1.6822064 4293729569
6.1993971 -1.5447904 -1.8550453 4288085770
7.5752149 -1.902506 -1.7480918 4293729569
6.5423617 -1.6499007 -1.869086 4282675967
7.3722262 -1.875421 -1.7521317 4293729569
12.844646 -3.3206227 -1.7073563 4293729569
6.9872684 -1.7822499 -1.7651314 4288085770
8.9850378 -2.3101273 -1.7052139 4293729569
6.3723683 -1.6288391 -1.8671227 4282675967
11.884727 -3.0922844 -1.6873623 4293729569
6.1343865 -1.5727654 -1.8561254 4288085770
7.1462388 -1.8413393 -1.7491691 4293729569
6.213376 -1.60978 -1.8661581 4282675967
6.9532504 -1.8132634 -1.7502029 4293729569
12.325664 -3.2624421 -1.6964768 4293729569
6.8432579 -1.7932211 -1.7502148 4293729569
8.8990202 -2.3530993 -1.7033292 4293729569
6.0563831 -1.5887232 -1.8641889 4288085770
6.8012614 -1.7941885 -1.7602351 4288085770
11.770703 -3.1502407 -1.688516 4293729569
6.0803771 -1.6017396 -1.8602023 4288085770
5.9103913 -1.5696676 -1.8642188 4288085770
6.7122726 -1.7911142 -1.7842687 4288085770
11.87368 -3.2142763 -1.6915866 4293729569
6.7472472 -1.8161925 -1.7462991 4293729569
8.8730001 -2.4130778 -1.7114491 4293729569
6.6312833 -1.7900413 -1.8093026 4288085770
5.7523975 -1.545617 -1.8582449 4288085770
11.67468 -3.2112041 -1.6896675 4293729569
6.0153661 -1.6287163 -1.8602805 4288085770
6.5572939 -1.7889678 -1.8363333 4288085770
11.477695 -3.1761243 -1.69169 4293729569
5.6124043 -1.5255685 -1.8552704 4288085770
6.4823055 -1.7868955 -1.8623629 4282675967
6.677237 -1.8441657 -1.747381 4293729569
5.474412 -1.5045209 -1.8522931 4288085770
8.8049812 -2.4620535 -1.7115676 4293729569
6.3523164 -1.767832 -1.8703856 4282675967
11.584657 -3.2731678 -1.6918181 4293729569
5.9573555 -1.6566939 -1.8613575 4288085770
11.08871 -3.1339784 -1.6897835 4293729569
5.3614187 -1.4894727 -1.855316 4288085770
6.1873264 -1.7377738 -1.8674037 4282675967
5.2444263 -1.4714262 -1.856335 4288085770
6.6002264 -1.8701392 -1.7464626 4293729569
6.0333376 -1.7087181 -1.865419 4282675967
8.7629623 -2.515034 -1.7146819 4293729569
10.733725 -3.0978422 -1.689873 4293729569
5.125433 -1.451386 -1.8533514 4288085770
5.9003463 -1.6836721 -1.8624322 4288085770
11.503633 -3.3361368 -1.6929667 4293729569
5.8873482 -1.6806654 -1.8634324 4288085770
5.7433577 -1.6526152 -1.8604451 4288085770
6.5352159 -1.8991141 -1.7475439 4293729569
10.424739 -3.0687153 -1.6949551 4293729569
5.6013665 -1.623569 -1.8554552 4288085770
8.6949434 -2.5620131 -1.7127967 4293729569
5.4623756 -1.5945239 -1.8504639 4288085770
5.852335 -1.712652 -1.8645066 4288085770
11.421608 -3.3991053 -1.6941155 4293729569
5.3513846 -1.5734779 -1.8524748 4288085770
10.088753 -3.0295882 -1.6940311 4293729569
6.4002061 -1.9050956 -1.7286148 4293729569
5.241394 -1.5504341 -1.8534817 4288085770
5.1274033 -1.526392 -1.8524884 4288085770
8.6559219 -2.6159968 -1.7149113 4293729569
5.7983246 -1.7396328 -1.86458 4288085770
11.357583 -3.4680808 -1.6952674 4293729569
9.7667685 -2.9884682 -1.6920978 4293729569
6.3281946 -1.9300746 -1.7256923 4293729569
8.608902 -2.6679819 -1.7140261 4293729569
5.741313 -1.7656158 -1.862653 4288085770
9.4687824 -2.9513538 -1.692161 4293729569
11.304556 -3.538059 -1.6974162 4293729569
6.2551832 -1.9530566 -1.7207665 4293729569
9.1387997 -2.9002407 -1.6842132 4293729569
8.5658817 -2.7209673 -1.7141407 4293729569
5.6703033 -1.785602 -1.8557212 4288085770
11.266527 -3.6130414 -1.7005676 4293729569
6.2161722 -1.9880346 -1.7258476 4293729569
8.9058113 -2.8761396 -1.6912719 4293729569
8.5258608 -2.7749538 -1.7142559 4293729569
11.976411 -3.9233024 -1.7108157 4293729569
5.5302911 -1.7826018 -1.8247782 4288085770
11.2185 -3.684025 -1.700716 4293729569
8.684824 -2.8530419 -1.699327 4293729569
6.1631603 -2.0160174 -1.7249223 4293729569
11.493447 -3.8251245 -1.7058496 4293729569
8.4668398 -2.8209429 -1.7083648 4293729569
5.3852816 -1.7756031 -1.7918303 4288085770
8.4818363 -2.8339472 -1.7093817 4293729569
11.19847 -3.7640123 -1.7048684 4293729569
11.06048 -3.738961 -1.7038835 4293729569
6.1041498 -2.0420015 -1.7219959 4293729569
8.3168459 -2.8238592 -1.724436 4293729569
8.3918209 -2.8609309 -1.6994699 4293729569
5.2862711 -1.7826002 -1.7718875 4288085770
10.686509 -3.6668119 -1.7069169 4293729569
11.185439 -3.8470063 -1.7070231 4293729569
6.0371385 -2.0639875 -1.7160659 4293729569
8.1488552 -2.8107719 -1.7384864 4293729569
10.337537 -3.6006711 -1.7109505 4293729569
5.1932611 -1.7895963 -1.753942 4293729569
8.3478003 -2.9119229 -1.6955816 4293729569
11.183407 -3.9340007 -1.71118 4293729569
7.9808664 -2.7966862 -1.7515348 4288085770
6.0001268 -2.0959733 -1.7171408 4293729569
10.017564 -3.5395393 -1.7159803 4293729569
7.7868791 -2.7696016 -1.7575715 4288085770
5.1372514 -1.8085881 -1.7470021 4293729569
8.3547745 -2.979919 -1.7007011 4293729569
9.67659 -3.4674096 -1.7149998 4293729569
5.9741144 -2.1319582 -1.721218 4293729569
7.5898929 -2.7385213 -1.7606022 4288085770
9.3446188 -3.3932872 -1.7120117 4293729569
5.1012392 -1.8355776 -1.7460679 4293729569
8.3787498 -3.0539172 -1.7088243 4293729569
7.3729067 -2.6984451 -1.7566254 4288085770
5.9301019 -2.1609461 -1.7192905 4293729569
9.0516424 -3.3301725 -1.7130264 4293729569
5.0622287 -1.8605695 -1.743131 4293729569
7.1549215 -2.6543715 -1.7506422 4288085770
8.7736654 -3.2700641 -1.7140403 4293729569
8.3767252 -3.1199145 -1.7109441 4293729569
5.8650908 -2.1809363 -1.711356 4293729569
8.50669 -3.2099612 -1.7140493 4293729569
6.9299369 -2.6053021 -1.7406529 4293729569
5.0152187 -1.8815613 -1.7381909 4293729569
8.389698 -3.1899149 -1.7150648 4293729569
8.2507124 -3.1508629 -1.7140554 4293729569
5.8150797 -2.2049267 -1.7064221 4293729569
6.7479501 -2.5702362 -1.7386701 4293729569
8.0117359 -3.0957696 -1.7150614 4293729569
6.5679631 -2.5331721 -1.735683 4293729569
4.9172087 -1.8815672 -1.713235 4293729569
8.3986721 -3.2599156 -1.718187 4293729569
5.7820678 -2.2359176 -1.7054933 4293729569
7.7957559 -3.0466819 -1.7180679 4293729569
6.3739777 -2.4891114 -1.7276894 4293729569
4.8651986 -1.898564 -1.7042898 4293729569
7.5897751 -2.9985991 -1.7200723 4293729569
8.4036465 -3.327919 -1.7183071 4293729569
5.7370553 -2.2619102 -1.7005608 4293729569
6.1639924 -2.4350562 -1.7126848 4293729569
7.3717957 -2.9435189 -1.7180691 4293729569
6.0150042 -2.404001 -1.7116948 4293729569
4.8151884 -1.9155613 -1.6953436 4293729569
8.4156179 -3.3999226 -1.7204316 4293729569
7.1608152 -2.8894427 -1.7150649 4293729569
5.6840434 -2.283905 -1.6926246 4293729569
5.8700166 -2.3719475 -1.7107016 4293729569
7.0008326 -2.8533697 -1.7220706 4293729569
4.7891779 -1.9425547 -1.6944047 4293729569
8.4365892 -3.4749274 -1.7235572 4293729569
5.6810298 -2.3209019 -1.6946933 4293729569
5.651031 -2.3129005 -1.6886923 4293729569
6.8308506 -2.8102994 -1.7250682 4293729569
5.4650455 -2.2548625 -1.6686701 4293729569
6.6758671 -2.772233 -1.729068 4293729569
4.7511673 -1.963552 -1.6884606 4293729569
8.4475622 -3.5459335 -1.7236803 4288085770
5.620019 -2.3418939 -1.686759 4293729569
5.2650604 -2.1938267 -1.6446489 4293729569
6.493885 -2.7221699 -1.7250584 4293729569
6.3439012 -2.6821094 -1.7270528 4293729569
5.1170716 -2.1537864 -1.6346426 4293729569
4.7261562 -1.9895473 -1.6865196 4293729569
8.4785328 -3.6259429 -1.7268106 4288085770
5.6090045 -2.3798876 -1.6888331 4293729569
6.1669192 -2.6290512 -1.7210356 4293729569
5.0020823 -2.1257448 -1.6336433 4293729569
5.9929371 -2.5759995 -1.7120171 4293729569
4.8750935 -2.090708 -1.6266369 4293729569
4.6601467 -1.9975518 -1.6695641 4293729569
8.4935036 -3.698952 -1.7259352 4288085770
5.5899916 -2.413882 -1.6889035 4293729569
5.8409538 -2.529948 -1.7080016 4293729569
4.7791028 -2.0686684 -1.6286402 4293729569
5.6819696 -2.4798999 -1.699982 4293729569
4.557138 -1.9875658 -1.6385927 4293729569
4.6731129 -2.0406311 -1.6266371 4293729569
5.5779772 -2.4508777 -1.689976 4293729569
8.5294724 -3.7809644 -1.7280667 4288085770
5.5029883 -2.4178584 -1.6839497 4293729569
4.5781231 -2.015595 -1.6266346 4293729569
5.1980124 -2.297838 -1.6258688 4293729569
5.0530281 -2.2478008 -1.614843 4293729569
4.5141282 -2.0035677 -1.6286417 4293729569
4.5021315 -1.9995564 -1.6326399 4293729569
5.569963 -2.488874 -1.6910486 4293729569
8.5694399 -3.8659787 -1.7302018 4288085770
4.8510456 -2.1707754 -1.583794 4293729569
4.4821382 -2.0075085 -1.6566637 4293729569
4.7310591 -2.1287429 -1.5757718 4293729569
4.5071173 -2.0345631 -1.6307018 4293729569
4.4351463 -2.0014656 -1.671674 4293729569
5.5789471 -2.5348692 -1.6971283 4293729569
4.6710687 -2.1137013 -1.5867717 4293729569
8.6114063 -3.9529936 -1.7323395 4288085770
4.6020789 -2.0946629 -1.5937684 4293729569
4.3701549 -1.9874279 -1.679678 4293729569
4.5330906 -2.0736251 -1.6007613 4293729569
5.5809321 -2.5768666 -1.7002035 4293729569
4.4901056 -2.0615616 -1.6287589 4293729569
4.4920993 -2.0645859 -1.6147636 4293729569
4.4641075 -2.0615435 -1.6337707 4293729569
4.4151182 -2.0475063 -1.6447675 4293729569
4.3541284 -2.0274727 -1.6507589 4293729569
5.5759177 -2.6148643 -1.7012748 4293729569
4.4670954 -2.0835624 -1.6238097 4293729569
4.3111367 -2.0144396 -1.6607546 4293729569
5.5479045 -2.6418672 -1.6943365 4293729569
4.4270854 -2.0985672 -1.6128554 4293729569
5.5488896 -2.6818671 -1.6954085 4293729569
4.3990746 -2.1185696 -1.6059048 4293729569
5.0769114 -2.4849243 -1.553264 4293729569
4.3740644 -2.1375749 -1.5979511 4293729569
4.9629064 -2.4629407 -1.5182756 4293729569
4.3560538 -2.161576 -1.5940032 4293729569
4.5289297 -2.2739954 -1.3861291 4293729569
4.3470421 -2.1885793 -1.5910567 4293729569
4.4549236 -2.2660069 -1.3631483 4293729569
4.3290315 -2.2105837 -1.5851052 4293729569
4.4249139 -2.2810152 -1.3521894 4293729569
4.2970219 -2.2245913 -1.5741454 4293729569
4.5107021 -2.3488615 -0.8712731 4293729569
4.4019041 -2.298023 -1.343231 4293729569
4.2810111 -2.2455964 -1.5681912 4293729569
4.5215507 -2.3824761 -0.51032889 4293729569
4.4855981 -2.3682816 -0.6173197 4293729569
4.4556947 -2.3518703 -0.85430378 4293729569
4.3668942 -2.3080339 -1.3292654 4293729569
4.2659998 -2.2676036 -1.5612382 4293729569
4.4575582 -2.3764303 -0.5233472 4293729569
4.4355912 -2.3722904 -0.60134983 4293729569
4.4604726 -2.387795 -0.30836633 4293729569
4.4256835 -2.3678834 -0.84034669 4293729569
4.3548841 -2.3300409 -1.3233109 4293729569
4.4245615 -2.3863902 -0.54038048 4293729569
4.2439899 -2.2846117 -1.5522794 4293729569
4.4234767 -2.3937531 -0.32539412 4293729569
4.3428741 -2.3500507 -1.3153528 4293729569
4.4045801 -2.3873019 -0.58839142 4293729569
4.4016724 -2.3858955 -0.82839054 4293729569
4.4443521 -2.4172728 -0.022426924 4293729569
4.4005632 -2.4003532 -0.55741698 4293729569
4.2139802 -2.2956233 -1.5393133 4293729569
4.3924809 -2.4017115 -0.34342289 4293729569
4.323863 -2.3670614 -1.3053925 4293729569
4.3845692 -2.4063156 -0.57643515 4293729569
4.3896589 -2.4109108 -0.81744152 4293729569
4.3855639 -2.4193151 -0.57745832 4293729569
4.3744831 -2.4166753 -0.36145839 4293729569
4.2219672 -2.3286281 -1.5393698 4293729569
4.3238511 -2.3930707 -1.3004398 4293729569
4.3625579 -2.4243286 -0.5644781 4293729569
4.3666477 -2.4279251 -0.80448306 4293729569
4.368566 -2.4352789 -0.59549528 4293729569
4.3654833 -2.4356406 -0.38049704 4293729569
4.2279549 -2.359633 -1.5384234 4293729569
4.319839 -2.4170825 -1.2934854 4293729569
4.349545 -2.4463451 -0.55252409 4293729569
4.3616343 -2.4549415 -0.7945345 4293729569
4.3615646 -2.4572434 -0.61553848 4293729569
4.348485 -2.450603 -0.39953214 4293729569
4.2359433 -2.3906372 -1.5384763 4293729569
4.3158283 -2.4400938 -1.2865292 4293729569
4.3424854 -2.469568 -0.4195694 4293729569
4.3465304 -2.4733639 -0.5415746 4293729569
4.3525653 -2.4772074 -0.63557899 4293729569
4.3526206 -2.4789579 -0.78358233 4293729569
4.3188157 -2.4661043 -1.2815753 4293729569
4.2319317 -2.4146471 -1.5325218 4293729569
4.3374853 -2.4895329 -0.43960804 4293729569
4.3515639 -2.5011725 -0.65662301 4293729569
4.341517 -2.4993815 -0.53062421 4293729569
4.350606 -2.5069749 -0.7736342 4293729569
4.3398013 -2.5021152 -1.2806309 4293729569
4.249918 -2.4516521 -1.5345809 4293729569
4.3394847 -2.5125008 -0.45964894 4293729569
4.351563 -2.5261366 -0.67866838 4293729569
4.3435016 -2.5284019 -0.51967597 4293729569
4.3747854 -2.5461252 -1.283695 4293729569
4.3635898 -2.5429947 -0.76569366 4293729569
4.2879024 -2.4986541 -1.5426488 4293729569
4.3404851 -2.5354669 -0.48069021 4293729569
4.3585606 -2.5541034 -0.70071602 4293729569
5.9445734 -3.5139966 -1.7247328 4293729569
4.3614841 -2.5664253 -0.51073682 4293729569
4.3634796 -2.5704381 -0.50374317 4293729569
4.3758817 -2.5766478 -1.5677503 4293729569
4.3985686 -2.5920184 -0.76076663 4293729569
4.4155507 -2.6110737 -0.7317934 4293729569
5.9855528 -3.5690134 -1.7248132 4293729569
4.4084716 -2.6174126 -0.52980781 4293729569
4.5898471 -2.7316155 -1.6369336 4293729569
6.03053 -3.6260319 -1.7248956 4288085770
4.7058229 -2.8276062 -1.6700544 4293729569
6.0855069 -3.6870503 -1.7269806 4288085770
4.7548041 -2.8836112 -1.6791333 4293729569
6.1304851 -3.7430706 -1.7260609 4288085770
6.1904607 -3.8060932 -1.7271472 4288085770
4.7907863 -2.929621 -1.6822001 4293729569
6.2464366 -3.867116 -1.7272316 4288085770
4.8607659 -2.996624 -1.6972893 4293729569
6.3184099 -3.9361415 -1.729323 4288085770
4.911747 -3.0516326 -1.7043654 4293729569
4.9477305 -3.0966458 -1.7054304 4293729569
4.9917121 -3.145659 -1.7084988 4293729569
5.0396934 -3.1966732 -1.711569 4293729569
5.0856752 -3.2456887 -1.7136365 4293729569
5.1296563 -3.2917066 -1.7136995 4293729569
5.1806369 -3.3427236 -1.7157681 4293729569
5.2286191 -3.3907428 -1.7158327 4293729569
5.2816 -3.4397621 -1.716897 4293729569
5.3425789 -3.4947851 -1.7179683 4293729569
5.4085579 -3.550806 -1.7210393 4293729569
5.4735374 -3.6048298 -1.7221071 4293729569
5.5295172 -3.6528573 -1.7191681 4293729569
5.6064944 -3.7128828 -1.722241 4293729569
5.7054682 -3.7869096 -1.7293293 4288085770
5.781446 -3.8439395 -1.7293975 4288085770
5.8644223 -3.9039702 -1.7304679 4288085770
5.9533982 -3.9670041 -1.7315409 4288085770
7.208344 5.089448 -1.0451664 4293729569
7.0833044 5.0005207 -1.0563055 4293729569
7.1383238 5.0384135 -1.0062464 4293729569
6.9592648 4.9095912 -1.066448 4293729569
6.9072556 4.8724146 -0.94550598 4293729569
6.9212599 4.8783655 -0.91949737 4293729569
6.9482574 4.8966379 -1.0924692 4293729569
6.9542556 4.8956819 -1.1204716 4293729569
6.9282603 4.8763165 -0.89150178 4293729569
6.9542661 4.8862605 -0.86448771 4293729569
6.9722557 4.8987226 -1.1504686 4293729569
6.9842725 4.8972068 -0.83947241 4293729569
7.022265 4.9237571 -1.1844314 4293729569
7.0092769 4.9021502 -0.81146693 4293729569
7.0622692 4.9387951 -1.2184103 4293729569
7.1663313 5.0057917 -0.63430613 4293729569
7.2113457 5.0367303 -0.60925794 4293729569
7.295373 5.0946584 -0.58716768 4293729569
7.3803992 5.1515822 -0.56307936 4293729569
7.1513243 4.9918442 -0.6623286 4293729569
7.1313148 4.973896 -0.68835735 4293729569
7.4134083 5.1695223 -0.53505224 4293729569
7.0592871 4.923089 -0.78743678 4293729569
7.0492578 4.9158411 -1.2424487 4293729569
7.108304 4.9519477 -0.71439266 4293729569
7.4564195 5.1914592 -0.50801933 4293729569
7.1132998 4.9469919 -0.7424019 4293729569
7.4764237 5.1964016 -0.47801334 4293729569
7.0442491 4.8968816 -1.2664809 4293729569
7.1032953 4.937027 -0.76141798 4293729569
7.1112938 4.9350371 -0.76942253 4293729569
7.5444407 5.232327 -0.4509593 4293729569
7.1382999 4.9439678 -0.73441029 4293729569
7.144268 4.9479103 -1.3104048 4293729569
7.0922823 4.9100857 -0.79446352 4293729569
7.599453 5.257256 -0.42192277 4293729569
7.0952754 4.8981285 -0.82148474 4293729569
7.6564665 5.2821836 -0.39288646 4293729569
7.1823063 4.954906 -0.70839667 4293729569
7.1432581 4.9269505 -1.3344412 4293729569
7.0982685 4.8851719 -0.84850764 4293729569
7.7004743 5.295115 -0.36286941 4293729569
7.2313137 4.9668403 -0.68138206 4293729569
7.177258 4.9299865 -1.3654402 4293729569
7.1172647 4.880209 -0.87651873 4293729569
7.7504821 5.3100438 -0.33284965 4293729569
7.2803202 4.9777765 -0.65536916 4293729569
7.1862493 4.9120245 -1.3914726 4293729569
7.1222577 4.8652501 -0.90254539 4293729569
7.7894864 5.3149757 -0.30184582 4293729569
7.3273253 4.9847112 -0.62836289 4293729569
7.1532564 4.865284 -0.93154937 4293729569
7.1892381 4.8890629 -1.4155129 4293729569
7.8514977 5.3348999 -0.27181882 4293729569
7.1802526 4.8603182 -0.95956141 4293729569
7.3773303 4.9916453 -0.60135698 4293729569
7.9185085 5.3558202 -0.24079068 4293729569
7.2332377 4.8920941 -1.4465133 4293729569
7.2212524 4.8643479 -0.98855954 4293729569
7.9785166 5.3687434 -0.2097756 4293729569
7.4183321 4.9905796 -0.57236397 4293729569
7.2642322 4.8841281 -1.4755311 4293729569
7.2622519 4.8653793 -1.0185628 4293729569
8.0265198 5.3716698 -0.17777635 4293729569
7.4913421 5.0085044 -0.54634184 4293729569
7.7133431 5.154119 -1.5881174 4293729569
7.3042502 4.8654065 -1.046568 4293729569
8.140543 5.4175692 -0.14671059 4293729569
7.5393434 5.0084376 -0.51834798 4293729569
7.5482817 5.0101724 -1.5773473 4293729569
7.3652539 4.8764343 -1.0795566 4293729569
8.2855721 5.479455 -0.11562084 4293729569
7.6013494 5.0153651 -0.4903436 4293729569
7.7043076 5.0771933 -1.6312501 4293729569
7.4212546 4.8814607 -1.1105548 4293729569
8.4866171 5.5773158 -0.083475426 4293729569
7.6683555 5.0242901 -0.46233636 4293729569
8.0153751 5.2432022 -1.7190001 4288085770
7.4622498 4.8744888 -1.1385722 4293729569
8.623641 5.6282001 -0.049403727 4293729569
8.7356653 5.6831322 -0.03732197 4293729569
5.0565267 3.2926211 -1.8060268 4288085770
7.7293587 5.0262175 -0.43434057 4293729569
5.0065117 3.2596493 -1.8100779 4288085770
5.1195436 3.332592 -1.8049649 4288085770
5.1935639 3.3795636 -1.8068924 4288085770
4.9494948 3.2196755 -1.8111404 4288085770
5.2635822 3.4215314 -1.8058281 4288085770
7.942337 5.1562443 -1.7251424 4288085770
4.8884759 3.1766982 -1.8092077 4288085770
5.3366008 3.464498 -1.8047625 4288085770
7.5262513 4.8805132 -1.1705695 4293729569
4.8334594 3.1377225 -1.8092688 4288085770
5.4036179 3.5024621 -1.800705 4288085770
4.7924452 3.1047449 -1.8123213 4288085770
8.6246176 5.5742383 -0.073497571 4293729569
5.4916391 3.5524278 -1.802629 4288085770
4.7334261 3.0597639 -1.8083923 4288085770
7.8023639 5.0341396 -0.4063358 4293729569
5.5716577 3.5953879 -1.7995642 4288085770
4.7014141 3.0317876 -1.8144372 4288085770
7.8722992 5.0692825 -1.7302848 4288085770
7.5812497 4.8795381 -1.2005782 4293729569
5.6616788 3.6433489 -1.7994921 4288085770
4.660399 2.9968054 -1.8144932 4288085770
8.4665556 5.4343619 -0.10672127 4293729569
5.7366943 3.6793048 -1.792439 4288085770
8.2564735 5.2839251 -0.39495736 4293729569
4.6253843 2.9638236 -1.8165466 4288085770
5.8187127 3.7192595 -1.7863798 4288085770
7.6472497 4.8825603 -1.2315813 4293729569
7.8052626 4.9833198 -1.7354261 4288085770
8.3054924 5.2924848 -0.13994817 4293729569
4.5803671 2.9238398 -1.8146107 4288085770
5.8977294 3.7552135 -1.7793272 4288085770
8.3584852 5.3038325 -0.36593524 4293729569
4.5543547 2.8948576 -1.8186584 4288085770
5.9917483 3.7991645 -1.7742625 4288085770
7.704246 4.8775845 -1.261597 4293729569
7.7392259 4.8983545 -1.7395658 4288085770
8.178441 5.1725907 -0.17114109 4293729569
6.1427855 3.883081 -1.7631352 4288085770
6.2288089 3.9370389 -1.760052 4288085770
4.5193386 2.858871 -1.817717 4288085770
6.0667639 3.8341205 -1.7672111 4288085770
6.3148317 3.989995 -1.7559706 4288085770
6.0057459 3.7931602 -1.7752749 4288085770
6.3998547 4.0409493 -1.7498925 4288085770
6.0787654 3.8371153 -1.7672074 4288085770
5.9367247 3.7451963 -1.7793499 4288085770
6.503881 4.1009011 -1.748801 4288085770
5.8747048 3.7012315 -1.7844187 4288085770
6.5959034 4.1528506 -1.7417219 4288085770
8.3884745 5.2757668 -0.33398765 4293729569
4.4803228 2.8198826 -1.8147805 4288085770
5.8206878 3.6602645 -1.7904835 4288085770
6.6999288 4.2097974 -1.7366358 4288085770
8.1574154 5.1186519 -0.20323236 4293729569
7.7702446 4.8776064 -1.2926053 4293729569
6.182785 3.8830633 -1.7631404 4288085770
7.6581845 4.8033886 -1.7397211 4288085770
5.7676692 3.6192975 -1.7965485 4288085770
6.8099542 4.2697392 -1.730545 4288085770
5.7086487 3.5723279 -1.7996229 4288085770
6.9579902 4.3516817 -1.7344208 4288085770
4.4563093 2.7898965 -1.81683 4288085770
6.2928071 3.9320092 -1.7590691 4288085770
8.4584751 5.2716851 -0.30300331 4293729569
5.6556311 3.5293558 -1.8026913 4288085770
7.0990219 4.4256177 -1.7323096 4288085770
8.1794024 5.0916948 -0.235282 4293729569
7.8452439 4.8806262 -1.3246095 4293729569
4.4222941 2.7529073 -1.8148906 4288085770
7.2530575 4.5075526 -1.733186 4288085770
5.5956087 3.479383 -1.8037711 4288085770
7.5871458 4.7134209 -1.7408689 4288085770
6.4108291 3.9829531 -1.7559952 4288085770
7.4140935 4.5904827 -1.7330617 4288085770
5.5585928 3.4434085 -1.8098294 4288085770
8.4104443 5.1916504 -0.26913658 4293729569
4.3952794 2.7189171 -1.8139471 4288085770
8.3454266 5.1506815 -0.27119985 4293729569
6.5328526 4.0348916 -1.7509202 4288085770
7.6041365 4.6894083 -1.7379131 4288085770
5.4885688 3.386431 -1.80492 4288085770
7.9162416 4.8786459 -1.3556217 4293729569
7.4740977 4.5984526 -1.7310553 4288085770
7.7681708 4.768332 -1.7347959 4288085770
5.4305472 3.3354526 -1.803002 4288085770
6.669878 4.0938311 -1.7498345 4288085770
4.3672647 2.6839261 -1.812005 4288085770
8.5894699 5.2546415 -0.31104898 4293729569
8.3574123 5.1096191 -0.23627274 4293729569
7.9442081 4.8542504 -1.7316681 4288085770
5.3825274 3.2894716 -1.8020765 4288085770
8.0092449 4.8876615 -1.3896176 4293729569
6.7948999 4.142766 -1.7437651 4288085770
4.3482518 2.6539357 -1.8130555 4288085770
7.4300661 4.5254812 -1.737177 4288085770
8.1422501 4.9501672 -1.7325256 4288085770
5.3395085 3.245492 -1.8031479 4288085770
8.6184568 5.2236834 -0.34410644 4293729569
8.3853989 5.0745559 -0.20533715 4293729569
6.9259224 4.1937017 -1.7386928 4288085770
8.3172855 5.0290775 -1.7244097 4288085770
4.3252368 2.6199439 -1.8121125 4288085770
8.1122484 4.9016757 -1.4256058 4293729569
5.2924886 3.1985099 -1.8022244 4288085770
7.3840332 4.4505062 -1.7403022 4288085770
8.5093231 5.1159844 -1.718282 4288085770
7.0839505 4.2586298 -1.7365993 4288085770
10.262856 6.1611328 -0.44167668 4293729569
5.2704735 3.1665275 -1.8072777 4288085770
4.3082242 2.589951 -1.8121632 4288085770
8.5094118 5.0964556 -0.17731424 4293729569
8.2332554 4.923687 -1.4645826 4293729569
8.7083616 5.2038865 -1.7111535 4288085770
7.2429786 4.3215561 -1.7345095 4288085770
5.2304544 3.1215434 -1.8063515 4288085770
7.3029923 4.3535323 -1.7354612 4288085770
4.2942114 2.5599587 -1.8132144 4288085770
8.4472866 5.0168433 -1.6164469 4293729569
8.6334229 5.116354 -0.14829476 4293729569
5.1994381 3.0825582 -1.8074161 4288085770
7.4170089 4.3904815 -1.734411 4288085770
8.2802448 4.8987069 -1.4896319 4293729569
8.2772341 4.8827906 -1.5396593 4293729569
4.2791986 2.5289645 -1.8132674 4288085770
7.2449565 4.2705555 -1.7345988 4288085770
8.5803785 5.0508504 -0.43740264 4293729569
5.1634192 3.0385702 -1.8054887 4288085770
7.6100426 4.4693995 -1.7352976 4288085770
8.7684364 5.1382475 -0.11927313 4293729569
8.3122301 4.8697143 -1.5026865 4293729569
8.3162308 4.8667274 -1.511692 4293729569
4.2601848 2.4959679 -1.8103231 4288085770
5.1444049 3.0045834 -1.8085462 4288085770
8.5293407 4.9689169 -0.46453908 4293729569
7.2099276 4.2015753 -1.737715 4288085770
7.772068 4.5253172 -1.7282202 4288085770
8.4282465 4.9016247 -1.478645 4293729569
8.8834429 5.1471477 -0.089271642 4293729569
4.2551727 2.4689744 -1.8133705 4288085770
