# .PCD v0.7 - Point Cloud Data file format
VERSION 0.7
FIELDS x y z rgb
SIZE 4 4 4 4
TYPE F F F U
COUNT 1 1 1 1
WIDTH 1121
HEIGHT 1
VIEWPOINT 0 0 0 1 0 0 0
POINTS 1121
DATA ascii
9.9961929 1.2412388 -1.8703072 4288085770
7.21978 0.95226884 -1.8474751 4288085770
10.511314 1.2629701 -1.8717208 4288085770
15.727386 1.7504792 -1.9468861 4288085770
17.955215 1.9576081 -1.930208 4288085770
17.997284 1.9586467 -1.9174058 4288085770
6.8799286 0.90180659 -1.85992 4288085770
4.3653336 0.66221154 -1.8392751 4288085770
7.5638885 0.96376562 -1.8540905 4288085770
9.2475586 1.118205 -1.8878939 4288085770
3.6025009 0.58612311 -1.8347461 4288085770
11.101425 1.2888108 -1.8754847 4288085770
11.617302 1.3355649 -1.8898766 4288085770
7.8810654 0.97021008 -1.8515837 4288085770
11.755508 1.3177494 -1.8835483 4288085770
4.4906387 0.64739013 -1.840883 4288085770
16.299889 1.7122502 -1.9236326 4288085770
7.1212463 0.8831501 -1.8620806 4288085770
3.6997986 0.57226086 -1.8352206 4288085770
8.2401962 0.9787221 -1.8542736 4288085770
9.6498489 1.1037859 -1.8958113 4288085770
12.529564 1.3508699 -1.8991747 4288085770
12.116646 1.3072882 -1.9012671 4288085770
8.6313324 0.98728168 -1.8581142 4288085770
4.6209335 0.63257432 -1.8415143 4288085770
13.411613 1.388147 -1.9173076 4288085770
7.3845444 0.86552978 -1.8673437 4288085770
3.8010941 0.55840355 -1.8357139 4288085770
16.998352 1.6762134 -1.908972 4293729569
10.005203 1.0822787 -1.8905137 4288085770
9.0654831 0.9949038 -1.8631594 4288085770
14.374672 1.4265382 -1.9348221 4288085770
12.647026 1.2740495 -1.9088089 4288085770
4.7532196 0.61776137 -1.842155 4288085770
9.5126495 1.0015408 -1.8662667 4288085770
3.9153671 0.54556841 -1.8382673 4288085770
7.6498566 0.84690595 -1.8686173 4288085770
10.450493 1.0669142 -1.8946347 4288085770
15.390747 1.4619963 -1.9475904 4288085770
17.93074 1.6505343 -1.9104066 4293729569
9.9748383 1.0051947 -1.8664484 4288085770
4.9034805 0.60397708 -1.8448796 4288085770
16.22403 1.4751433 -1.9275162 4288085770
13.242378 1.2429062 -1.9186554 4288085770
4.0216599 0.53071523 -1.8367851 4288085770
7.9511414 0.82834017 -1.8740606 4288085770
10.918785 1.0495796 -1.8968663 4288085770
10.481033 1.0079129 -1.8678386 4288085770
17.211281 1.4925188 -1.9141655 4293729569
5.0717392 0.59022361 -1.8506892 4288085770
4.1459351 0.5168941 -1.8393867 4288085770
11.055199 1.0117356 -1.8745494 4288085770
8.2444458 0.8087548 -1.8744671 4288085770
13.857742 1.2077862 -1.9256003 4288085770
11.441078 1.0333232 -1.900352 4288085770
5.2290039 0.57544631 -1.8514476 4288085770
4.2761917 0.50408125 -1.8420153 4288085770
11.656395 1.0125903 -1.8773906 4288085770
8.5917206 0.79125381 -1.8801265 4288085770
12.011345 1.0181384 -1.9060631 4288085770
14.611053 1.1768764 -1.9411926 4288085770
5.398262 0.56068599 -1.8522625 4288085770
12.340591 1.0135679 -1.8836238 4293729569
4.4094315 0.49127167 -1.8436582 4288085770
8.9190369 0.76971215 -1.8776953 4288085770
12.672592 1.0050862 -1.914202 4288085770
5.5615463 0.54491246 -1.8500502 4288085770
13.135742 1.0157144 -1.8973804 4293729569
4.555687 0.47748363 -1.8473632 4288085770
15.317429 1.13688 -1.9445717 4288085770
9.3033142 0.75025946 -1.8805313 4288085770
13.45681 0.99421883 -1.9289198 4288085770
14.008919 1.0149723 -1.9115083 4293729569
5.7677689 0.53121299 -1.8560388 4288085770
4.7009354 0.46369076 -1.8490636 4288085770
16.046837 1.0929061 -1.9420633 4288085770
9.717598 0.72984791 -1.8825097 4288085770
14.276031 0.98239315 -1.9388037 4288085770
5.9680023 0.51649863 -1.858 4288085770
14.920128 1.0092745 -1.919821 4293729569
4.851181 0.44990206 -1.8487875 4288085770
10.173851 0.71049875 -1.8866854 4288085770
15.180267 0.96868658 -1.948091 4288085770
6.184227 0.50280666 -1.8600357 4288085770
15.890366 0.9976542 -1.9244182 4293729569
16.795288 1.0429469 -1.9316499 4288085770
5.0233994 0.43715262 -1.8536143 4288085770
6.4164581 0.48813921 -1.8631477 4288085770
10.68409 0.69223058 -1.893115 4288085770
16.126534 0.95302701 -1.9495788 4288085770
5.1966171 0.42340106 -1.8564465 4288085770
16.869682 0.97803056 -1.9190657 4293729569
17.808632 1.0003939 -1.9404812 4288085770
6.6606598 0.47448933 -1.8663151 4288085770
17.208763 0.93856514 -1.9537077 4288085770
11.20636 0.67097068 -1.8946042 4288085770
5.3688431 0.40964365 -1.8562741 4288085770
18.046951 0.95770323 -1.9236495 4288085770
6.9068909 0.45883554 -1.8654945 4288085770
5.549057 0.39689776 -1.8561385 4288085770
11.820587 0.65085042 -1.9015267 4288085770
8.9320145 0.51570153 -1.8650086 4288085770
9.3939896 0.5333606 -1.8681743 4288085770
8.5040588 0.49809062 -1.8620033 4288085770
9.8809738 0.5500493 -1.8674595 4288085770
7.2050705 0.44527012 -1.8739169 4288085770
8.1081009 0.48052526 -1.8591495 4288085770
7.7521286 0.46501863 -1.8574827 4288085770
10.439957 0.56884766 -1.8720825 4288085770
7.4311676 0.44856817 -1.859982 4288085770
11.03595 0.58669758 -1.8758814 4288085770
5.7462616 0.38317776 -1.8570838 4288085770
11.71093 0.60666138 -1.8810518 4293729569
7.1162338 0.43211645 -1.8565099 4288085770
12.517799 0.63085121 -1.9108412 4288085770
6.8352966 0.41671932 -1.8571973 4288085770
12.46492 0.62673926 -1.8875952 4293729569
6.9772873 0.42092305 -1.8588641 4288085770
6.4053421 0.39910439 -1.8531828 4288085770
6.6673431 0.40847388 -1.8524117 4288085770
7.2573166 0.42931229 -1.8541791 4288085770
6.139389 0.38772091 -1.848937 4288085770
7.5893097 0.43978435 -1.8557379 4288085770
6.5673523 0.40133944 -1.8569462 4288085770
13.34388 0.64900422 -1.900727 4293729569
5.9084167 0.37639517 -1.8498566 4288085770
7.935318 0.44927555 -1.8563635 4288085770
5.6754761 0.36506033 -1.8467669 4288085770
7.500267 0.43069118 -1.8763261 4288085770
8.3263168 0.45883512 -1.8602021 4288085770
6.2844467 0.38492882 -1.8506253 4288085770
14.357841 0.67246616 -1.9174957 4293729569
5.4675217 0.35376418 -1.8457954 4288085770
5.9774399 0.37051222 -1.8621886 4288085770
8.7383499 0.46742135 -1.8621409 4288085770
5.2585983 0.34146336 -1.8428199 4288085770
6.035553 0.36856943 -1.8464649 4288085770
15.407852 0.69396365 -1.9244368 4293729569
9.1883621 0.47606468 -1.8662589 4288085770
5.0686569 0.3301928 -1.8419335 4288085770
13.308975 0.61199242 -1.9245987 4288085770
9.6773911 0.48476201 -1.8695612 4288085770
5.8256226 0.35327658 -1.849488 4288085770
16.539894 0.7145685 -1.925766 4293729569
4.8867416 0.31893027 -1.8390849 4288085770
7.8154602 0.41614026 -1.87883 4288085770
10.19944 0.49150333 -1.8710217 4288085770
5.601738 0.33795276 -1.8454449 4288085770
6.1946335 0.35682043 -1.8632283 4288085770
17.786964 0.73533034 -1.9236386 4293729569
4.7108307 0.30667824 -1.8372655 4288085770
10.782478 0.4983362 -1.8757701 4288085770
5.3838577 0.32263586 -1.8404303 4288085770
4.5539093 0.29545593 -1.8375349 4288085770
14.168152 0.59222615 -1.9366779 4288085770
11.413536 0.50423348 -1.8787465 4293729569
8.1556396 0.40162385 -1.8804514 4288085770
5.211937 0.30839863 -1.8446319 4288085770
4.3960114 0.28322935 -1.8358006 4288085770
6.4577942 0.34420213 -1.8694844 4288085770
12.12159 0.50924599 -1.8850875 4293729569
4.2471237 0.27101535 -1.8341091 4288085770
5.0120926 0.29210418 -1.8377032 4288085770
12.962624 0.51445508 -1.8970568 4293729569
8.5078278 0.38712087 -1.8801298 4288085770
15.181328 0.57168478 -1.9524858 4288085770
4.0962448 0.25879395 -1.8294079 4288085770
6.7079849 0.33055586 -1.8696799 4288085770
4.8422089 0.27786195 -1.8369143 4288085770
13.895668 0.51779515 -1.9094625 4293729569
3.9773254 0.24763234 -1.8338568 4288085770
8.9189911 0.37271014 -1.8850868 4288085770
4.6883316 0.26264736 -1.8392019 4288085770
14.960709 0.52032632 -1.9244928 4293729569
6.9961395 0.31797141 -1.8750539 4288085770
16.277496 0.54925787 -1.9666874 4288085770
3.8564453 0.23546275 -1.8352976 4288085770
4.5304718 0.24841881 -1.8364699 4288085770
16.142746 0.52102453 -1.9400778 4288085770
9.3501663 0.35732481 -1.8881392 4288085770
3.7335663 0.2242859 -1.8337278 4288085770
7.2763138 0.30436492 -1.8733909 4288085770
17.493675 0.52499539 -1.9774578 4288085770
4.3766098 0.23419474 -1.8327565 4288085770
17.391861 0.51679969 -1.944984 4288085770
9.8423004 0.34403041 -1.8944774 4288085770
3.6127014 0.21211192 -1.8321683 4288085770
7.5944748 0.2908183 -1.8759074 4288085770
4.2407684 0.21900225 -1.8331294 4288085770
10.361443 0.32877207 -1.8989453 4288085770
7.9366074 0.27830794 -1.8795359 4288085770
4.0979385 0.20479351 -1.8294683 4288085770
10.920593 0.31456545 -1.9006011 4288085770
8.2927551 0.26581252 -1.8802309 4288085770
3.970108 0.1906096 -1.8278778 4288085770
11.55172 0.30046737 -1.9065967 4288085770
8.6908875 0.25237989 -1.8831251 4288085770
3.8632507 0.17646453 -1.8323867 4288085770
12.259819 0.28648114 -1.9139562 4288085770
9.1179962 0.24099067 -1.8871543 4288085770
13.077904 0.27265725 -1.9258349 4288085770
9.6110916 0.22870119 -1.8954959 4288085770
3.7394333 0.16228315 -1.828815 4288085770
14.012962 0.25900647 -1.9422662 4288085770
10.106201 0.21640515 -1.8978469 4288085770
15.165947 0.24668169 -1.9697263 4288085770
3.6286316 0.14812303 -1.8273051 4288085770
10.666283 0.20520502 -1.9025042 4288085770
16.424973 0.23249975 -1.9926889 4288085770
11.284386 0.19308731 -1.9074364 4288085770
17.775017 0.21843335 -2.0070813 4288085770
11.977432 0.18307953 -1.9147205 4288085770
12.780479 0.17223299 -1.9255252 4288085770
13.726471 0.16260262 -1.9450042 4288085770
14.781471 0.15212424 -1.9629996 4288085770
16.092384 0.14403225 -1.9962015 4288085770
17.462364 0.13500197 -2.0156834 4288085770
16.681511 0.13184798 -1.9849966 4288085770
7.1593781 -0.58211207 -1.9352024 4288085770
14.516922 -1.2047862 -2.0129743 4288085770
9.1999893 -0.78819168 -1.9268026 4288085770
5.6328888 -0.49977949 -1.8868639 4288085770
12.4543 -1.0739523 -1.9497631 4288085770
13.590141 -1.1717392 -1.9970767 4288085770
9.8822861 -0.86555398 -1.9142225 4288085770
18.175049 -1.5560399 -2.0915818 4288085770
7.0320892 -0.63337719 -1.9038918 4288085770
8.7492065 -0.77966416 -1.916945 4288085770
7.3082657 -0.6591469 -1.8846724 4288085770
5.4621811 -0.51596344 -1.8858101 4288085770
12.707382 -1.1356583 -1.9764524 4288085770
8.3463974 -0.77108228 -1.9103899 4288085770
9.4896088 -0.88396239 -1.9107716 4288085770
6.7984009 -0.65062463 -1.902442 4288085770
11.954582 -1.1064333 -1.9636581 4288085770
11.983696 -1.1104397 -1.9468474 4288085770
17.082512 -1.5621834 -2.0666966 4288085770
7.0486069 -0.67742908 -1.8790603 4288085770
7.9695663 -0.76147163 -1.9049971 4288085770
5.2835083 -0.53116429 -1.8807039 4288085770
11.295761 -1.0791078 -1.9544594 4288085770
7.6367111 -0.75381076 -1.902885 4288085770
9.0979614 -0.8993783 -1.903322 4288085770
6.5756989 -0.66686273 -1.9000599 4288085770
10.703903 -1.0537109 -1.9476864 4288085770
6.835907 -0.69764984 -1.8807471 4288085770
7.3478317 -0.74709749 -1.9050515 4288085770
16.239868 -1.5820345 -2.0644085 4288085770
11.547096 -1.1448953 -1.9431427 4288085770
5.1467896 -0.54930687 -1.883867 4288085770
10.167046 -1.0302573 -1.9422631 4288085770
18.079353 -1.7842832 -2.0403166 4288085770
7.0190048 -0.73544466 -1.8969584 4288085770
6.3710022 -0.68308115 -1.8987911 4288085770
8.7532959 -0.91574335 -1.8981702 4288085770
9.670166 -1.0067608 -1.938092 4288085770
6.7521057 -0.72671282 -1.8972607 4288085770
6.6142578 -0.71689093 -1.8773756 4288085770
15.423233 -1.5918715 -2.0562687 4288085770
4.9871368 -0.56548977 -1.8788822 4288085770
9.1773376 -0.98127508 -1.9269435 4288085770
6.4812393 -0.71599078 -1.8945346 4288085770
11.166489 -1.1822876 -1.943795 4288085770
17.270737 -1.8150997 -2.0392585 4288085770
8.7394714 -0.95772564 -1.9201446 4288085770
6.228363 -0.70525289 -1.8909221 4288085770
6.1713409 -0.70029974 -1.895555 4288085770
8.4246597 -0.93309534 -1.8921204 4288085770
6.4075851 -0.73511434 -1.8750966 4288085770
8.311615 -0.93217218 -1.9104059 4288085770
5.9874725 -0.69449878 -1.8893855 4288085770
18.079895 -1.9502585 -2.0665653 4288085770
14.638611 -1.596681 -2.0463231 4288085770
4.8474503 -0.5816443 -1.8780229 4288085770
7.9507141 -0.91153717 -1.908097 4288085770
5.7546005 -0.68274236 -1.8848977 4288085770
10.809883 -1.2176578 -1.9435954 4288085770
5.9946518 -0.71748877 -1.8954637 4288085770
7.6297836 -0.89285576 -1.9090433 4288085770
5.5386887 -0.67096424 -1.8825171 4288085770
16.564102 -1.847811 -2.0408461 4288085770
8.1429901 -0.95238996 -1.8913701 4288085770
7.2988815 -0.87119627 -1.9039223 4288085770
6.2219315 -0.75531578 -1.8739533 4288085770
5.3367767 -0.66017032 -1.8812261 4288085770
4.7157822 -0.5977931 -1.8762143 4288085770
13.97892 -1.6053464 -2.0461712 4288085770
5.1428757 -0.64836991 -1.8789842 4288085770
6.9809875 -0.84952593 -1.8978832 4288085770
17.593384 -2.0267618 -2.0656066 4288085770
4.9529419 -0.63556719 -1.8757663 4288085770
6.7100449 -0.83079755 -1.8971453 4288085770
5.8149719 -0.73368561 -1.893352 4288085770
10.51326 -1.2579584 -1.9487813 4288085770
7.8903198 -0.97265375 -1.8918035 4288085770
4.7720337 -0.62375546 -1.8726065 4288085770
6.4461136 -0.81206501 -1.8954511 4288085770
15.907494 -1.8794763 -2.0407472 4288085770
4.6120758 -0.61191559 -1.8725789 4288085770
6.1781998 -0.79034507 -1.8887277 4288085770
6.0532684 -0.7764945 -1.8759184 4288085770
4.5990906 -0.61491871 -1.8785012 4288085770
13.318253 -1.6070251 -2.0400021 4288085770
4.4571304 -0.60007298 -1.871583 4288085770
5.9522552 -0.7725718 -1.8882747 4288085770
4.2872162 -0.58625734 -1.8644898 4288085770
5.7263107 -0.75380373 -1.8848205 4288085770
4.1372757 -0.5734154 -1.8605239 4288085770
5.6463165 -0.7498734 -1.8903098 4288085770
5.499382 -0.73404264 -1.8783586 4288085770
3.9943161 -0.56056416 -1.8576026 4288085770
5.3143997 -0.71722496 -1.8791661 4288085770
3.8733292 -0.54967999 -1.8598225 4288085770
17.099907 -2.0952845 -2.0585909 4288085770
7.6446533 -0.99191093 -1.8922796 4288085770
10.226646 -1.2952534 -1.9520254 4288085770
3.7363815 -0.53682458 -1.8559389 4288085770
5.1194382 -0.69942367 -1.8769088 4288085770
4.9324799 -0.68061721 -1.8727007 4288085770
5.873642 -0.79469633 -1.8718092 4288085770
15.23893 -1.9031703 -2.0325601 4288085770
4.7535095 -0.66280341 -1.8685446 4288085770
12.599655 -1.5937897 -2.0194445 4288085770
4.4744415 -0.63106346 -1.8757365 4288085770
4.5985031 -0.64595461 -1.8695412 4288085770
3.7484818 -0.54582107 -1.854028 4288085770
3.8665237 -0.56070828 -1.8527949 4288085770
4.4405289 -0.62911689 -1.866519 4288085770
4.2865295 -0.61127651 -1.8625207 4288085770
3.986557 -0.57559335 -1.8515744 4288085770
4.1335449 -0.59343708 -1.8575287 4288085770
5.4776764 -0.76606607 -1.8852673 4288085770
7.4189987 -1.0131487 -1.8928845 4288085770
9.9610291 -1.3335254 -1.9564028 4288085770
11.988014 -1.5854311 -2.0075696 4288085770
16.736366 -2.1756556 -2.063412 4288085770
5.7189941 -0.81486547 -1.8718607 4288085770
4.3448257 -0.64621937 -1.8699384 4288085770
14.695335 -1.9367263 -2.0321758 4288085770
5.3390045 -0.7842164 -1.8864164 4288085770
7.1873703 -1.0304008 -1.8894455 4288085770
11.451332 -1.5799872 -2.0011716 4288085770
5.5573654 -0.83304822 -1.8688648 4288085770
4.2401581 -0.66333818 -1.8703005 4288085770
9.6834564 -1.3678218 -1.9546986 4288085770
18.051918 -2.4533443 -2.0831223 4288085770
16.350876 -2.251061 -2.0620861 4288085770
14.166763 -1.9662733 -2.0288799 4288085770
5.2063446 -0.80236113 -1.8876033 4288085770
10.972618 -1.5764749 -2.0001423 4288085770
6.976738 -1.0486314 -1.8861401 4288085770
17.016182 -2.4023929 -2.0755067 4288085770
4.1325226 -0.67946446 -1.8686426 4288085770
5.404747 -0.85122383 -1.8649256 4288085770
9.3899078 -1.3971468 -1.9468853 4288085770
5.076683 -0.819507 -1.8868079 4288085770
13.69117 -1.9967654 -2.0269189 4288085770
10.574852 -1.5788659 -2.0076325 4288085770
15.970398 -2.3204691 -2.0567822 4288085770
16.102409 -2.3593073 -2.0746725 4288085770
6.7781143 -1.0688477 -1.8849132 4288085770
4.0368652 -0.69657516 -1.8690615 4288085770
5.2881012 -0.87434781 -1.8692207 4288085770
9.1013794 -1.4244694 -1.9381003 4288085770
10.164116 -1.5752796 -2.0100319 4282675967
4.9380722 -0.83567083 -1.8819537 4288085770
13.241608 -2.0282338 -2.0241232 4288085770
15.235641 -2.3131828 -2.0701299 4288085770
6.5944901 -1.0890484 -1.8837807 4288085770
15.646904 -2.3948123 -2.0558445 4288085770
3.9432373 -0.71368599 -1.8684926 4288085770
5.159462 -0.89349186 -1.8694339 4288085770
9.7703629 -1.5696799 -2.0105355 4282675967
14.444885 -2.2689865 -2.0640702 4282675967
4.8194199 -0.85280395 -1.8822272 4288085770
8.8268738 -1.4517815 -1.9274037 4288085770
12.766083 -2.0497463 -2.0121486 4288085770
6.4218674 -1.1082382 -1.8827159 4288085770
9.2877274 -1.5462073 -1.991451 4282675967
3.8555984 -0.73078895 -1.8689618 4288085770
15.331421 -2.4671528 -2.0529537 4288085770
13.696129 -2.2227476 -2.0582724 4282675967
5.03685 -0.91363227 -1.8686862 4288085770
4.7018051 -0.87094128 -1.8805082 4288085770
8.5713501 -1.4780732 -1.9178247 4288085770
8.7331772 -1.5058419 -1.9538877 4288085770
12.341537 -2.0732019 -2.0034978 4288085770
6.2582397 -1.1284196 -1.8817093 4288085770
12.984383 -2.1754799 -2.0487065 4282675967
18.32309 -3.0071659 -2.0856271 4288085770
3.7639771 -0.74690008 -1.8674037 4288085770
4.9142456 -0.93277538 -1.8669369 4288085770
15.000961 -2.5325172 -2.0449572 4288085770
4.5981598 -0.88805985 -1.8808758 4288085770
8.3394928 -1.4862696 -1.9403706 4288085770
12.240707 -2.1162684 -2.0269213 4288085770
8.3777771 -1.5112845 -1.9176471 4288085770
6.0986328 -1.1485971 -1.8807275 4288085770
11.948013 -2.0976291 -1.9940441 4288085770
17.608475 -3.0158885 -2.0861225 4288085770
7.9807663 -1.4676536 -1.9310758 4288085770
4.7946548 -0.95191753 -1.8642063 4288085770
11.640945 -2.0738842 -2.0200696 4288085770
4.494545 -0.90618157 -1.880245 4288085770
14.736488 -2.6048088 -2.0413866 4288085770
7.6600494 -1.4529943 -1.9250267 4288085770
5.9430389 -1.1677771 -1.8767693 4288085770
8.1792297 -1.5425091 -1.9134345 4288085770
11.115143 -2.036418 -2.0176923 4288085770
16.847893 -3.0066745 -2.0773008 4288085770
11.642456 -2.1349511 -1.994164 4288085770
4.6800613 -0.97005665 -1.8605056 4288085770
4.3969116 -0.92429698 -1.8796515 4288085770
7.378273 -1.4412832 -1.9252276 4288085770
10.672325 -2.0098538 -2.0238547 4282675967
14.491013 -2.6780791 -2.0389369 4288085770
5.822403 -1.1909059 -1.8810375 4288085770
8.0126724 -1.5776925 -1.9144294 4288085770
16.168282 -3.000371 -2.0729942 4288085770
11.334892 -2.1662805 -1.991262 4288085770
7.1134949 -1.4285549 -1.9255347 4288085770
10.212517 -1.9753194 -2.0228982 4282675967
4.5834579 -0.99116826 -1.8619227 4288085770
4.2973175 -0.94141889 -1.877044 4288085770
6.8447266 -1.4138386 -1.9218137 4288085770
9.7637253 -1.9377818 -2.0180068 4282675967
5.6788254 -1.2100744 -1.8771548 4288085770
14.239563 -2.7463634 -2.0324414 4288085770
15.445702 -2.9771266 -2.0603917 4288085770
7.8930817 -1.6198148 -1.9227304 4288085770
11.072334 -2.2045577 -1.9926538 4288085770
4.2106857 -0.95952153 -1.8775198 4288085770
4.4928436 -1.0122737 -1.8633776 4288085770
6.629921 -1.4060504 -1.9274435 4288085770
9.2859955 -1.8912933 -2.0029197 4282675967
5.556221 -1.2312139 -1.8774071 4288085770
8.7553253 -1.8308864 -1.9724777 4288085770
6.3991165 -1.3922873 -1.9279635 4288085770
14.781097 -2.9568181 -2.0511589 4288085770
14.002113 -2.8156338 -2.0260348 4288085770
7.7455139 -1.6559775 -1.9248459 4288085770
4.1190796 -0.97663367 -1.8759623 4288085770
10.818787 -2.2408299 -1.9920993 4288085770
4.4072495 -1.0343752 -1.8648651 4288085770
8.3325882 -1.7863464 -1.9557407 4288085770
6.1763306 -1.3785187 -1.9275341 4288085770
5.4386292 -1.2523508 -1.8766909 4288085770
14.176476 -2.9394438 -2.0453091 4288085770
7.9598236 -1.7477422 -1.9463279 4288085770
5.9225845 -1.3568002 -1.9168975 4288085770
13.767662 -2.8809047 -2.0176406 4288085770
4.0294952 -0.99374783 -1.8724174 4288085770
7.6009674 -1.6911434 -1.9239786 4288085770
4.3076706 -1.0514996 -1.8612568 4288085770
10.575241 -2.2770927 -1.9916074 4288085770
7.6300049 -1.7140865 -1.9411938 4288085770
5.6858292 -1.3350625 -1.9073687 4288085770
5.3270264 -1.2734792 -1.8770123 4288085770
13.601845 -2.9180391 -2.0396426 4288085770
7.3591537 -1.6893561 -1.9444451 4288085770
5.4770432 -1.3172884 -1.9020216 4288085770
3.9518967 -1.0128429 -1.8729508 4288085770
4.2230835 -1.0716039 -1.8607473 4288085770
13.574211 -2.9531295 -2.0125151 4288085770
7.4674149 -1.7262938 -1.9251802 4288085770
10.350693 -2.3143384 -1.9902363 4288085770
7.0913086 -1.6626282 -1.9447126 4288085770
5.2802429 -1.3004988 -1.8987522 4288085770
5.2234344 -1.2956003 -1.8773854 4288085770
12.994247 -2.884681 -2.0267503 4288085770
6.8494415 -1.6388664 -1.9491484 4288085770
3.8712921 -1.0299445 -1.8714623 4288085770
5.1054306 -1.2856827 -1.8976247 4288085770
4.14151 -1.0927057 -1.8602581 4288085770
7.3388824 -1.7614441 -1.9244132 4288085770
13.39975 -3.0263352 -2.0075099 4288085770
6.5806198 -1.6071531 -1.9424026 4288085770
10.142159 -2.3525662 -1.9899676 4288085770
4.9346008 -1.2698616 -1.8965209 4288085770
12.447632 -2.8562562 -2.0172503 4288085770
5.1308365 -1.3197067 -1.8798306 4288085770
6.3517685 -1.5823839 -1.9439194 4288085770
4.7567825 -1.2510557 -1.8913686 4288085770
3.8096924 -1.0510198 -1.8740995 4288085770
4.0599365 -1.1118091 -1.8587661 4288085770
6.0869751 -1.5476761 -1.9321947 4288085770
7.21035 -1.7955961 -1.9226444 4288085770
4.6019592 -1.2362171 -1.8913672 4288085770
13.2453 -3.1025193 -2.0036349 4288085770
9.9196396 -2.3858182 -1.9846027 4288085770
11.943993 -2.8287821 -2.0110233 4288085770
5.8451385 -1.5149385 -1.9236183 4288085770
5.042244 -1.3438097 -1.8823009 4288085770
4.442131 -1.2183925 -1.8863301 4288085770
3.7420883 -1.0691043 -1.8746941 4288085770
5.6303024 -1.4871662 -1.9192193 4288085770
3.9843597 -1.1319065 -1.8573127 4288085770
4.3022766 -1.203536 -1.8874235 4288085770
5.40448 -1.4544164 -1.9087439 4288085770
11.467339 -2.8012807 -2.0049665 4288085770
7.104805 -1.834718 -1.9250276 4288085770
9.6771469 -2.4110997 -1.9740999 4288085770
13.114838 -3.1826751 -2.0019164 4288085770
4.1594391 -1.1876886 -1.8854969 4288085770
4.9566574 -1.3679112 -1.8837895 4288085770
5.2176132 -1.429612 -1.9065261 4288085770
4.0166016 -1.1698467 -1.8805671 4288085770
5.0417328 -1.4047958 -1.9043779 4288085770
3.9187851 -1.1539892 -1.8589256 4288085770
17.630646 -4.2760568 -2.1059978 4288085770
11.034691 -2.77773 -2.0021935 4288085770
3.8817596 -1.1529945 -1.8766894 4288085770
4.8668671 -1.3799807 -1.9012361 4288085770
6.9992676 -1.8718414 -1.9264076 4288085770
9.4686661 -2.4433422 -1.9668212 4288085770
4.8740616 -1.3910099 -1.8852959 4288085770
13.006386 -3.2668095 -2.0003421 4288085770
4.7119675 -1.3571372 -1.9022236 4288085770
3.7598724 -1.1371206 -1.8768954 4288085770
16.621956 -4.1471052 -2.0854335 4288085770
4.5351181 -1.3293355 -1.893065 4288085770
10.643997 -2.7581306 -2.0026908 4288085770
3.8492279 -1.1750797 -1.8585112 4288085770
4.3922043 -1.3074815 -1.8931296 4288085770
6.8847504 -1.9059823 -1.9237261 4288085770
9.2941437 -2.4795418 -1.9637628 4288085770
4.2483215 -1.2846346 -1.8901868 4288085770
4.7904968 -1.4141121 -1.8857956 4288085770
12.940903 -3.3598912 -2.0040512 4288085770
15.747246 -4.0380068 -2.0727439 4288085770
4.1124115 -1.262777 -1.8882957 4288085770
10.257309 -2.7345293 -2.002208 4288085770
3.9824982 -1.239913 -1.8864415 4288085770
3.8036194 -1.200132 -1.8652539 4288085770
3.8535995 -1.2180523 -1.8825946 4288085770
3.7266922 -1.1951907 -1.8777592 4288085770
6.7832336 -1.942106 -1.9231293 4288085770
4.7069244 -1.436218 -1.8842938 4288085770
9.1106339 -2.5117574 -1.9576414 4288085770
14.922539 -3.9318597 -2.0593746 4288085770
9.9126053 -2.7158799 -2.0049975 4288085770
12.831467 -3.4410324 -1.999465 4288085770
3.7400665 -1.2222151 -1.8658783 4288085770
14.180824 -3.8356264 -2.0485439 4288085770
9.5139618 -2.6793075 -1.9954205 4288085770
4.6253662 -1.4583204 -1.8838043 4288085770
6.6976929 -1.9812098 -1.9246373 4288085770
8.9381561 -2.5469637 -1.9505932 4288085770
12.774986 -3.5331085 -2.0012281 4288085770
13.455116 -3.7343824 -2.0348077 4288085770
3.6884995 -1.2452838 -1.8675802 4288085770
9.0903397 -2.6317737 -1.9786704 4288085770
4.5448227 -1.4804263 -1.881321 4288085770
6.6061859 -2.0173259 -1.9231031 4288085770
8.7736511 -2.57916 -1.9445913 4288085770
12.813393 -3.6470468 -2.0256219 4288085770
12.724541 -3.6281815 -2.002033 4288085770
8.7586517 -2.6031225 -1.9755278 4288085770
3.619957 -1.2643797 -1.8641689 4288085770
4.4752579 -1.5035166 -1.8809085 4288085770
12.191658 -3.5556951 -2.0145574 4288085770
6.53965 -2.0604076 -1.9267366 4288085770
8.6281586 -2.6163359 -1.9397159 4288085770
8.4209671 -2.5684831 -1.9693391 4288085770
12.691071 -3.7262352 -2.0039489 4288085770
11.603951 -3.468313 -2.0017133 4288085770
4.4116821 -1.5275971 -1.8825347 4288085770
8.0823135 -2.5298536 -1.9581385 4288085770
6.4401474 -2.0925367 -1.9221454 4288085770
8.49366 -2.6544983 -1.9359109 4288085770
11.085213 -3.3918521 -1.9943206 4288085770
12.655624 -3.8252952 -2.0038526 4288085770
7.8165894 -2.5061264 -1.9604204 4288085770
4.3531189 -1.5526744 -1.8831942 4288085770
10.607475 -3.3213484 -1.9881957 4288085770
8.3791504 -2.6966372 -1.934238 4288085770
6.3666306 -2.1316333 -1.9217281 4288085770
7.518898 -2.4704499 -1.9524832 4288085770
12.645164 -3.9293277 -2.0049207 4288085770
10.197693 -3.2627647 -1.9885175 4288085770
4.2885742 -1.5757623 -1.8818126 4288085770
7.2561874 -2.4417291 -1.9497771 4288085770
8.2956238 -2.7457373 -1.93677 4288085770
6.27314 -2.163759 -1.9161744 4288085770
9.8238983 -3.2111416 -1.9910767 4288085770
12.632713 -4.0333629 -2.0059757 4288085770
7.0094681 -2.412991 -1.9471719 4288085770
4.2340088 -1.600834 -1.8834968 4288085770
9.3502045 -3.1256559 -1.9729571 4288085770
8.1541519 -2.7779191 -1.9269116 4288085770
6.213623 -2.2048395 -1.9168479 4288085770
6.7717438 -2.3842442 -1.9446239 4288085770
12.629265 -4.1413913 -2.0060923 4288085770
8.9554596 -3.0580726 -1.9653616 4288085770
4.1814575 -1.6269064 -1.8841946 4288085770
6.5480194 -2.3584819 -1.9431684 4288085770
8.0686493 -2.8250253 -1.9274275 4288085770
6.1201401 -2.2349691 -1.909291 4288085770
8.5997009 -2.9994459 -1.9600253 4288085770
12.64682 -4.255394 -2.0083494 4288085770
4.1189041 -1.6479955 -1.8808222 4288085770
6.3242874 -2.3287208 -1.9407082 4288085770
8.2649231 -2.9417961 -1.9558237 4288085770
7.9721451 -2.8661518 -1.9228654 4288085770
6.0286789 -2.2660995 -1.9007478 4288085770
6.0925674 -2.2939773 -1.9331899 4288085770
7.9531555 -2.8881218 -1.9527726 4288085770
12.672379 -4.3723917 -2.0096605 4288085770
4.0633698 -1.6710746 -1.8794971 4288085770
5.874855 -2.2612176 -1.9267631 4288085770
7.6693649 -2.840415 -1.9519074 4288085770
7.9146194 -2.9202247 -1.9265673 4288085770
5.9831467 -2.3081634 -1.9025102 4288085770
12.699944 -4.4903889 -2.009985 4288085770
4.0118027 -1.6941489 -1.8781967 4288085770
5.6811066 -2.2334259 -1.924495 4288085770
7.3725891 -2.7847307 -1.9459488 4288085770
7.8331223 -2.9663324 -1.9241061 4288085770
5.4823761 -2.2016447 -1.9191899 4288085770
5.915657 -2.3442614 -1.8981252 4288085770
7.0938187 -2.7320261 -1.9411087 4288085770
3.9652634 -1.7192187 -1.8769307 4288085770
12.7565 -4.6193523 -2.012507 4288085770
5.2936401 -2.1718535 -1.9139507 4288085770
6.850029 -2.6882792 -1.9405019 4288085770
7.762619 -3.0144279 -1.9227171 4288085770
5.8521729 -2.3813558 -1.8937662 4288085770
6.5782623 -2.6315765 -1.9307008 4288085770
5.1258698 -2.1460319 -1.9138501 4288085770
3.9197083 -1.7432857 -1.8766692 4288085770
12.797073 -4.7433381 -2.0119205 4288085770
6.3514633 -2.5878141 -1.9292021 4288085770
4.9651031 -2.1202044 -1.9127936 4288085770
7.7001114 -3.0635147 -1.9213796 4288085770
5.7996826 -2.4204352 -1.8914797 4288085770
3.8801575 -1.7693465 -1.8764486 4288085770
6.1346664 -2.5450432 -1.9267678 4288085770
4.8123245 -2.0963674 -1.9127905 4288085770
12.924606 -4.8972182 -2.0219245 4288085770
5.9008713 -2.4933 -1.9182143 4288085770
4.668541 -2.07252 -1.9128447 4288085770
7.6556015 -3.1195767 -1.9241648 4288085770
5.7551651 -2.461504 -1.8902459 4288085770
3.8405838 -1.7934065 -1.876225 4288085770
5.6940765 -2.4495227 -1.9138424 4288085770
13.059143 -5.0560923 -2.0319786 4288085770
4.5177765 -2.0456865 -1.9098504 4288085770
5.4852905 -2.4017522 -1.9064527 4288085770
7.6150742 -3.1756361 -1.9259753 4288085770
4.3740005 -2.0188446 -1.9069006 4288085770
5.7116623 -2.5025723 -1.8890183 4288085770
3.7970428 -1.8174751 -1.8739758 4288085770
5.2984848 -2.3609543 -1.9022114 4288085770
13.045769 -5.1631541 -2.0190256 4288085770
4.2501831 -1.997972 -1.9100852 4288085770
5.135643 -2.3261244 -1.9021306 4288085770
7.560585 -3.226717 -1.9236901 4288085770
4.1143951 -1.9711237 -1.9061861 4288085770
3.7594833 -1.8425357 -1.8727658 4288085770
5.6771469 -2.5466297 -1.8888516 4288085770
4.9867859 -2.2942741 -1.9051423 4288085770
12.788513 -5.1815209 -1.9714081 4288085770
3.9836197 -1.9442706 -1.9023187 4288085770
4.8509064 -2.2654088 -1.9092405 4288085770
7.5280762 -3.2857702 -1.9245546 4288085770
4.6851044 -2.2255931 -1.9031341 4288085770
3.733902 -1.8715765 -1.8756371 4288085770
3.8608322 -1.9204075 -1.8995063 4288085770
5.6755981 -2.602639 -1.8969092 4288085770
12.543259 -5.2008753 -1.9238677 4293729569
4.537262 -2.1897528 -1.9001472 4288085770
3.7490005 -1.897527 -1.8997645 4288085770
4.3974304 -2.1559045 -1.8972137 4288085770
13.916626 -5.7746491 -1.3413124 4293729569
13.999763 -5.8085971 -1.3258839 4293729569
3.6953735 -1.895642 -1.8724191 4288085770
3.6362 -1.8736513 -1.8980155 4288085770
7.4945679 -3.3428249 -1.9254098 4288085770
5.6201172 -2.6387303 -1.8895981 4288085770
4.2785416 -2.1280231 -1.9004209 4288085770
12.424934 -5.2640705 -1.8941898 4293729569
4.1436996 -2.0931714 -1.896518 4288085770
14.020561 -5.9119401 -0.6151281 4293729569
13.917938 -5.8886008 -1.3764608 4293729569
13.801292 -5.8478365 -1.3126659 4293729569
3.6568222 -1.9187071 -1.8691998 4288085770
4.0278168 -2.0642924 -1.8967433 4288085770
7.4750443 -3.4058616 -1.9283612 4288085770
5.5976028 -2.6857736 -1.8905106 4288085770
3.9109421 -2.0334179 -1.8949597 4288085770
12.35659 -5.3442078 -1.8688509 4293729569
13.943672 -5.9879303 -0.66873127 4293729569
3.7930756 -2.0005476 -1.8911674 4288085770
13.945068 -6.0094762 -1.4387822 4293729569
3.6242676 -1.9437637 -1.8670208 4288085770
13.769974 -5.9549317 -1.2895961 4293729569
3.6851959 -1.9716637 -1.8894436 4288085770
7.4545364 -3.4679029 -1.9293048 4288085770
5.576088 -2.7338159 -1.8914301 4288085770
3.5843048 -1.9437687 -1.8897655 4288085770
12.311249 -5.4333191 -1.845669 4293729569
13.952805 -6.0988259 -0.72792536 4293729569
3.5917053 -1.9678209 -1.8648405 4288085770
13.834641 -6.098918 -1.2741826 4293729569
7.4240417 -3.5259595 -1.9271791 4288085770
5.5565796 -2.7828584 -1.8913634 4288085770
12.422844 -5.5862384 -1.8425655 4293729569
3.5691376 -1.9958632 -1.8647287 4288085770
7.4105225 -3.589992 -1.9291689 4288085770
5.5350494 -2.828902 -1.8912799 4288085770
12.603416 -5.7680764 -1.8469369 4293729569
3.5435638 -2.0219114 -1.863595 4288085770
7.3960114 -3.6540289 -1.9291523 4288085770
5.5145416 -2.8759484 -1.8892043 4288085770
12.680046 -5.9080448 -1.8355937 4293729569
3.5219879 -2.0489545 -1.862488 4288085770
7.3994827 -3.7240436 -1.9312572 4288085770
5.5090179 -2.9299731 -1.891232 4288085770
12.814659 -6.0739465 -1.8296514 4293729569
3.4934311 -2.0730102 -1.8583326 4288085770
7.3979721 -3.7940662 -1.9323299 4288085770
13.812668 -6.5980277 -1.8086514 4293729569
13.006264 -6.2667823 -1.8291051 4293729569
5.4974899 -2.9800065 -1.8912165 4288085770
3.4828415 -2.1040373 -1.8603003 4288085770
13.297867 -6.4735417 -1.8132136 4293729569
7.3994598 -3.8640845 -1.9334214 4288085770
13.325851 -6.5214648 -1.8434501 4293729569
5.5019531 -3.0380185 -1.8943126 4288085770
3.4582596 -2.1280861 -1.8571701 4288085770
12.776077 -6.3400688 -1.8147199 4293729569
7.3979416 -3.9331081 -1.9334924 4288085770
13.658447 -6.7841382 -1.8558872 4293729569
3.4456711 -2.1581185 -1.8571236 4288085770
5.4824524 -3.0840671 -1.8902409 4288085770
12.382248 -6.2554455 -1.829102 4293729569
7.4074173 -4.0061202 -1.9336379 4288085770
3.4370728 -2.1891446 -1.8581035 4288085770
5.4879227 -3.1430783 -1.8933442 4288085770
11.91346 -6.1309204 -1.8299568 4293729569
7.422905 -4.0831256 -1.9348266 4288085770
3.416481 -2.2131908 -1.8539984 4288085770
5.4863815 -3.1961029 -1.892395 4288085770
11.514656 -6.0323143 -1.8382897 4293729569
3.4198685 -2.2491989 -1.8580611 4288085770
7.4233932 -4.1521511 -1.9319093 4288085770
10.945923 -5.8459239 -1.8184311 4293729569
5.5018234 -3.2581015 -1.8965652 4288085770
3.4052582 -2.2752371 -1.8549964 4288085770
7.4478607 -4.2321444 -1.9341583 4288085770
10.567123 -5.7453022 -1.8238885 4293729569
5.5212784 -3.322098 -1.8997629 4288085770
3.3976364 -2.3042643 -1.8539798 4288085770
10.030396 -5.5588875 -1.8002343 4293729569
7.4703293 -4.3111434 -1.9343932 4288085770
5.5147552 -3.3741314 -1.8967803 4288085770
3.3920212 -2.3342893 -1.8529773 4288085770
9.4617157 -5.3515191 -1.7683504 4293729569
7.4898148 -4.3891487 -1.9326077 4288085770
5.535202 -3.4391263 -1.8999853 4288085770
3.3873901 -2.3633127 -1.85198 4288085770
9.146904 -5.2618346 -1.7732294 4293729569
7.5312576 -4.4771237 -1.934974 4288085770
3.3827591 -2.3923378 -1.8499825 4288085770
5.5556335 -3.5021241 -1.9011879 4288085770
8.8411179 -5.1731448 -1.7761669 4293729569
7.5647354 -4.5621114 -1.9352853 4288085770
3.3881149 -2.4263473 -1.8510547 4288085770
8.6272659 -5.1253386 -1.7927411 4293729569
5.5700989 -3.5641305 -1.9013507 4288085770
3.3924484 -2.458359 -1.8511181 4288085770
7.618187 -4.6570749 -1.9377365 4288085770
8.4294281 -5.0845165 -1.8104255 4293729569
5.5995178 -3.633116 -1.9046173 4288085770
3.4037933 -2.4943619 -1.8522308 4288085770
8.2215881 -5.034708 -1.8250353 4293729569
7.7255936 -4.7799654 -1.9505656 4288085770
11.326469 -6.7256713 -1.833883 4293729569
5.6209564 -3.6971142 -1.9048269 4288085770
3.4101257 -2.5273709 -1.8523078 4288085770
8.0746918 -5.0128193 -1.8510683 4293729569
7.7890549 -4.881917 -1.954088 4288085770
10.829575 -6.5261827 -1.8274674 4293729569
3.4194489 -2.5603762 -1.8524041 4288085770
7.9607925 -5.0068922 -1.8803306 4293729569
5.6533813 -3.7670977 -1.9071136 4288085770
10.224731 -6.2638383 -1.7992871 4293729569
7.8085175 -4.9589291 -1.9473 4288085770
3.4347534 -2.596374 -1.8535423 4288085770
7.85289 -5.0009575 -1.9106314 4288085770
5.6808167 -3.8350899 -1.9073658 4288085770
9.3260269 -5.8318739 -1.7190263 4293729569
7.7720413 -5.0050201 -1.9271171 4288085770
3.458046 -2.6363597 -1.8567362 4288085770
7.7249756 -4.9830518 -1.9357901 4288085770
8.6582642 -5.517632 -1.6673818 4293729569
5.7092438 -3.9030797 -1.9076245 4288085770
3.4753418 -2.6723545 -1.857887 4288085770
7.5191422 -4.9192533 -1.9433959 4288085770
7.648613 -5.0012293 -1.8883188 4293729569
8.3273621 -5.381969 -1.6661034 4293729569
3.4876404 -2.705359 -1.8560023 4288085770
7.287323 -4.8374939 -1.9428144 4288085770
5.754631 -3.9790485 -1.911001 4288085770
8.1254196 -5.3161464 -1.6837318 4293729569
7.5491486 -5.0074043 -1.8546858 4293729569
3.5169144 -2.7473371 -1.8592367 4288085770
7.0275192 -4.7367754 -1.9350312 4288085770
7.9444656 -5.2572989 -1.7035031 4293729569
5.796051 -4.0540237 -1.9123507 4288085770
7.4616852 -5.0185652 -1.822135 4293729569
3.5381927 -2.7843289 -1.8594143 4288085770
7.8254776 -5.2313747 -1.73171 4293729569
6.7957001 -4.6480255 -1.9294415 4288085770
3.5604477 -2.8193192 -1.8585958 4288085770
5.8204727 -4.1180243 -1.9085784 4288085770
7.6805038 -5.1884861 -1.7547302 4293729569
6.5578995 -4.5512872 -1.9198041 4288085770
7.423172 -5.0566597 -1.7999294 4293729569
7.5235291 -5.1356153 -1.7736621 4293729569
3.5986938 -2.8652861 -1.8628924 4288085770
8.1409378 -5.5006895 -0.28600895 4293729569
8.1173401 -5.4919372 -0.71785635 4293729569
6.3550797 -4.4735022 -1.9174125 4288085770
5.8778534 -4.2019777 -1.9130409 4288085770
7.3985443 -5.0987039 -1.7978175 4293729569
7.4336548 -5.1216936 -1.7850688 4293729569
3.6209412 -2.8992796 -1.8600729 4288085770
8.0608139 -5.501966 -0.18049282 4293729569
6.1582336 -4.3957119 -1.9140596 4288085770
8.0580597 -5.5147238 -0.31849211 4293729569
8.0118637 -5.4891233 -0.67817396 4293729569
7.239563 -5.0398417 -1.8127298 4293729569
3.6631546 -2.945241 -1.8643949 4288085770
5.9322433 -4.2829366 -1.9154801 4288085770
7.4391174 -5.1827321 -1.7691712 4293729569
5.9674072 -4.3179188 -1.9087451 4288085770
7.1045837 -4.9919496 -1.8308084 4293729569
7.9773407 -5.513124 -0.14396745 4293729569
3.6913986 -2.9822261 -1.8626173 4288085770
7.9554062 -5.5142555 -0.64183778 4293729569
8.0001831 -5.5417314 -0.35215044 4293729569
7.0415421 -4.984962 -1.8633955 4293729569
5.788559 -4.2441101 -1.9055121 4288085770
5.9906235 -4.3668919 -1.9179487 4288085770
3.7256241 -3.0222034 -1.8618813 4288085770
7.4485626 -5.2447648 -1.7543004 4293729569
6.995491 -4.9859519 -1.8991008 4288085770
7.9188538 -5.5362525 -0.10961592 4293729569
7.9189224 -5.548367 -0.60564011 4293729569
5.6277008 -4.1792798 -1.9044046 4288085770
3.770813 -3.0671637 -1.8642216 4288085770
7.9703064 -5.5827093 -0.38700432 4293729569
6.9504166 -4.9849391 -1.9348104 4288085770
6.0599899 -4.4568319 -1.9224944 4288085770
3.8100052 -3.1071343 -1.8635175 4288085770
7.4860077 -5.3227649 -1.7426274 4293729569
5.4678345 -4.1114497 -1.9023004 4288085770
6.7664642 -4.9001236 -1.9365325 4288085770
7.8953781 -5.5783467 -0.07551074 4293729569
7.8954544 -5.5894637 -0.57053369 4293729569
3.8512039 -3.1491034 -1.8628287 4288085770
7.9554214 -5.6316705 -0.42296332 4293729569
6.5765076 -4.8073182 -1.9352069 4288085770
5.3159637 -4.0466113 -1.9002507 4288085770
6.1303635 -4.5477729 -1.9260478 4288085770
3.9103622 -3.2000461 -1.8662655 4288085770
7.4984589 -5.384799 -1.7247756 4293729569
6.3705673 -4.7025399 -1.926765 4288085770
7.884964 -5.6365457 -0.53651744 4293729569
3.9735031 -3.2519825 -1.8707292 4288085770
5.1571045 -3.974786 -1.8941481 4288085770
6.1626358 -4.5947676 -1.916307 4288085770
7.9705429 -5.6976023 -0.45913422 4293729569
4.0236664 -3.2959406 -1.8701005 4288085770
5.9856796 -4.5029564 -1.9100659 4288085770
2.848053 -2.578115 -1.8557386 4288085770
6.2057343 -4.6417089 -1.9296362 4288085770
5.0252151 -3.9179246 -1.8932359 4288085770
7.538887 -5.4627962 -1.7121215 4293729569
4.0808182 -3.3428912 -1.8695199 4288085770
5.8197021 -4.4151311 -1.9059002 4288085770
7.8864822 -5.6896152 -0.50258499 4293729569
4.159935 -3.402807 -1.8760953 4288085770
5.6737289 -4.3382812 -1.9038754 4288085770
8.0256653 -5.7884855 -0.50059015 4293729569
2.8652802 -2.6051121 -1.8528783 4288085770
4.8933182 -3.8580654 -1.89132 4288085770
4.2230453 -3.4507482 -1.8765543 4288085770
5.5337372 -4.2634254 -1.901891 4288085770
6.3100586 -4.752604 -1.93943 4288085770
7.6223068 -5.5667396 -1.7057731 4293729569
4.2981644 -3.5056744 -1.8790984 4288085770
5.3987274 -4.1885638 -1.8999391 4288085770
4.7744064 -3.8041885 -1.8914948 4288085770
2.8994522 -2.6410828 -1.8551376 4288085770
4.3772507 -3.5605948 -1.8816683 4288085770
5.2757187 -4.119688 -1.8990707 4288085770
7.9340134 -5.7696385 -0.46897852 4293729569
4.4453506 -3.6085348 -1.8791597 4288085770
5.1487045 -4.0468216 -1.8951724 4288085770
4.5254364 -3.6634579 -1.8797357 4288085770
5.0257034 -3.9759514 -1.8903019 4288085770
4.9256516 -3.9160478 -1.8915918 4288085770
4.6195145 -3.7253625 -1.8824098 4288085770
4.8136139 -3.8471658 -1.8867941 4288085770
4.7215652 -3.7902553 -1.8871386 4288085770
4.6435165 -3.7423308 -1.8875833 4288085770
2.9266357 -2.6720653 -1.8543463 4288085770
7.6946945 -5.6616974 -1.6973436 4293729569
6.3894119 -4.8485365 -1.9420466 4288085770
4.5306015 -3.6884511 -1.8857961 4288085770
2.9578094 -2.7050414 -1.854583 4288085770
4.4196701 -3.6345685 -1.8840222 4288085770
2.9969482 -2.7410054 -1.8568745 4288085770
7.7980881 -5.7766156 -1.6931357 4293729569
4.3127518 -3.5806835 -1.881274 4288085770
6.4667664 -4.9434724 -1.9436488 4288085770
3.0221252 -2.7679956 -1.8520656 4288085770
4.2167892 -3.5317831 -1.8806016 4288085770
3.066246 -2.8059533 -1.8543913 4288085770
4.1148453 -3.4788921 -1.8778863 4288085770
7.9664536 -5.9324551 -1.6983917 4293729569
3.1093674 -2.8429141 -1.8557096 4288085770
6.4152069 -4.9535913 -1.9123268 4288085770
4.0119019 -3.423007 -1.8721614 4288085770
3.1554794 -2.8798707 -1.8570471 4288085770
3.9259262 -3.3760972 -1.8705559 4288085770
3.1965866 -2.9128366 -1.8553479 4288085770
3.8439484 -3.3301811 -1.869977 4288085770
3.2396851 -2.9458008 -1.8536613 4288085770
3.7679596 -3.2872586 -1.8694401 4288085770
8.0698318 -6.0463786 -1.6911826 4293729569
3.2977524 -2.9877417 -1.8560817 4288085770
3.6849594 -3.238348 -1.8658516 4288085770
3.3528214 -3.0266874 -1.8574789 4288085770
3.6159515 -3.1964171 -1.8653607 4288085770
6.3506699 -4.95473 -1.8769112 4293729569
3.4068756 -3.0636368 -1.8568678 4288085770
3.5539246 -3.1584775 -1.8659196 4288085770
3.480896 -3.1115553 -1.8623974 4288085770
8.1902084 -6.1702833 -1.6850939 4293729569
6.2911148 -4.9568605 -1.8425286 4293729569
8.5055237 -6.4209418 -1.7104008 4293729569
6.2924957 -4.9969068 -1.8225806 4293729569
9.067749 -6.8332891 -1.7754774 4293729569
6.3418503 -5.0668883 -1.8119748 4293729569
6.4311523 -5.1608143 -1.8106527 4293729569
6.5414352 -5.2677135 -1.8124802 4293729569
6.6457291 -5.3716235 -1.8112659 4293729569
6.7260284 -5.4575667 -1.8038771 4293729569
6.8073273 -5.5425105 -1.7954934 4293729569
6.8836212 -5.6224623 -1.7850721 4293729569
6.9788971 -5.7143912 -1.7767863 4293729569
7.1001663 -5.8232865 -1.7726867 4293729569
7.2234268 -5.9311833 -1.7665992 4293729569
7.3047028 -6.0091362 -1.7512076 4293729569
7.4189529 -6.1080461 -1.7420518 4293729569
7.5761795 -6.2339034 -1.7382028 4293729569
7.7224121 -6.3507767 -1.7312729 4293729569
7.8616409 -6.4606609 -1.7212903 4293729569
8.0838318 -6.6274395 -1.7259052 4293729569
5.6087341 4.6877375 -1.8254955 4288085770
5.7276535 4.7688417 -1.8280199 4288085770
5.4968033 4.6106377 -1.8240008 4288085770
5.3948898 4.5395446 -1.823549 4288085770
5.8226395 4.8309355 -1.8224347 4288085770
5.2690277 4.4484406 -1.8149862 4288085770
5.9485931 4.9120479 -1.8229833 4288085770
5.1921005 4.3903632 -1.8186386 4288085770
6.0585938 4.9801521 -1.8184581 4288085770
5.1182022 4.3322873 -1.8223014 4288085770
6.2125397 5.076282 -1.8231239 4288085770
5.0512924 4.2782178 -1.8259938 4288085770
6.3565216 5.1634116 -1.8227427 4288085770
4.9624405 4.2071362 -1.8235867 4288085770
6.4975433 5.2455382 -1.820344 4288085770
4.9225388 4.1680827 -1.8323932 4288085770
6.6645279 5.3436837 -1.822057 4288085770
4.8287201 4.0910006 -1.8259602 4288085770
6.840538 5.4448347 -1.8238051 4288085770
4.7748642 4.0399404 -1.8297014 4288085770
7.0215454 5.5469918 -1.825572 4288085770
7.821106 6.0707002 -1.836066 4288085770
7.618248 5.9345226 -1.8311746 4288085770
8.035965 6.2138896 -1.8400087 4288085770
7.4353943 5.8083591 -1.828366 4288085770
8.2438583 6.3490758 -1.8419158 4288085770
4.7150421 3.9838777 -1.830415 4288085770
7.2715225 5.6932092 -1.8276384 4288085770
8.5047073 6.5173001 -1.8500519 4288085770
7.2165604 5.655159 -1.8273952 4288085770
7.1016693 5.5730581 -1.8238828 4288085770
8.7835617 6.6945381 -1.8592622 4288085770
6.9608154 5.4699264 -1.8242514 4288085770
9.0624313 6.8697805 -1.8654702 4288085770
4.650238 3.9228146 -1.828104 4288085770
7.4175873 5.7653332 -1.8292418 4288085770
6.818985 5.3637962 -1.8226118 4288085770
9.3772888 7.0650516 -1.8748295 4288085770
6.7061234 5.2756839 -1.8260975 4288085770
9.7021637 7.2633328 -1.8812277 4288085770
4.6273727 3.8887718 -1.837976 4288085770
7.6396103 5.8845224 -1.8321729 4288085770
6.571312 5.1715603 -1.8234849 4288085770
10.044037 7.4686279 -1.8886938 4288085770
6.4684753 5.0874591 -1.8250105 4288085770
10.40892 7.685945 -1.8962562 4288085770
7.8716431 6.0087209 -1.8351455 4288085770
4.5316467 3.8056951 -1.8245273 4288085770
6.3666458 5.0023556 -1.827538 4288085770
10.823761 7.932302 -1.9070311 4288085770
8.1356583 6.1489415 -1.8422503 4288085770
4.4718857 3.7446349 -1.8212333 4288085770
6.2868271 4.9292707 -1.8321581 4288085770
8.3976898 6.2851653 -1.8463423 4288085770
6.1960144 4.8491788 -1.8337305 4288085770
4.4231186 3.6905825 -1.8199868 4288085770
6.0812607 4.7520757 -1.8271959 4288085770
8.6827087 6.4324069 -1.8515284 4288085770
4.371376 3.6335294 -1.816726 4288085770
6.0134506 4.6839972 -1.832864 4288085770
9.0077209 6.6006784 -1.8608816 4288085770
4.3356171 3.5854828 -1.8185327 4288085770
5.9347 4.6069145 -1.8334816 4288085770
9.3377533 6.7669587 -1.8672485 4288085770
4.2898788 3.5314326 -1.8162966 4288085770
5.8649292 4.53584 -1.8341382 4288085770
9.665802 6.9282389 -1.8716011 4288085770
5.7432404 4.4307375 -1.821568 4288085770
4.240181 3.4723823 -1.8110392 4288085770
10.071793 7.1335778 -1.8842831 4288085770
5.6855011 4.3646708 -1.8232729 4288085770
4.2024612 3.4223382 -1.808836 4288085770
10.452835 7.3159022 -1.8898458 4288085770
5.648735 4.3106155 -1.8300664 4288085770
4.1677551 3.3722947 -1.8076427 4288085770
11.743256 8.0640097 -1.9283371 4288085770
5.5880051 4.241549 -1.8297563 4288085770
10.912819 7.5432858 -1.9047432 4288085770
4.1390457 3.3252542 -1.8074741 4288085770
5.5283127 4.1714835 -1.8284481 4288085770
11.361839 7.7576694 -1.9125836 4288085770
11.444801 7.8027358 -1.917932 4288085770
4.1073761 3.2752135 -1.8052907 4288085770
5.484581 4.1124287 -1.8302102 4288085770
11.841866 7.9830785 -1.9215446 4288085770
11.140381 7.5384603 -1.9045014 4288085770
4.0866776 3.2321784 -1.806155 4288085770
5.4458694 4.0533748 -1.8329892 4288085770
10.909889 7.3212404 -1.9003916 4288085770
5.387207 3.9823134 -1.8286822 4288085770
4.0530167 3.1811395 -1.8009632 4288085770
10.675415 7.1040168 -1.8942678 4288085770
5.3644943 3.9322686 -1.8345287 4288085770
4.0383453 3.1401067 -1.80285 4288085770
2.7562256 2.3609185 -1.8093398 4288085770
2.7942276 2.3829572 -1.8065014 4288085770
2.7112732 2.3338792 -1.808147 4288085770
2.6732941 2.3108432 -1.8089838 4288085770
2.835228 2.4059963 -1.8046746 4288085770
10.424973 6.8777885 -1.882076 4288085770
5.3248367 3.8712192 -1.8333006 4288085770
2.885231 2.4330399 -1.8048844 4288085770
2.6373444 2.2868085 -1.808826 4288085770
2.6034012 2.2637742 -1.8096764 4288085770
4.0196915 3.0960741 -1.8017192 4288085770
2.9412308 2.4620841 -1.8081174 4288085770
2.9872742 2.4851272 -1.8053074 4288085770
2.5724716 2.2417405 -1.8115382 4288085770
2.5455322 2.2217102 -1.8134167 4288085770
3.0403137 2.5111749 -1.8035257 4288085770
3.0923691 2.5352206 -1.8017378 4288085770
2.5026627 2.190676 -1.8072248 4288085770
5.2731857 3.8031628 -1.8290212 4288085770
10.202507 6.6705785 -1.874007 4288085770
3.1554184 2.5652721 -1.8029957 4288085770
2.4817352 2.1726475 -1.8111265 4288085770
4.0080261 3.0560439 -1.8036175 4288085770
3.2244644 2.5973268 -1.8052771 4288085770
2.4538727 2.1486173 -1.8099957 4288085770
3.2895432 2.6263814 -1.8045402 4288085770
2.4229965 2.1235883 -1.8068531 4288085770
5.2345505 3.7411139 -1.8267946 4288085770
3.3536377 2.6524363 -1.8027956 4288085770
2.4021301 2.1025615 -1.8077505 4288085770
10.011032 6.4823966 -1.8670712 4288085770
3.9953918 3.0140142 -1.8035092 4288085770
3.4267273 2.6834936 -1.8040886 4288085770
2.4122162 2.0985401 -1.8237779 4288085770
3.505806 2.717557 -1.8054066 4288085770
5.204895 3.6850705 -1.8266072 4288085770
9.8235474 6.2992139 -1.861156 4288085770
3.5779343 2.7446172 -1.8036902 4288085770
3.9757614 2.9689829 -1.8003726 4288085770
3.5220032 2.7095687 -1.8004479 4288085770
3.5789948 2.7416217 -1.7996888 4288085770
3.4630432 2.6755159 -1.8001971 4288085770
3.6399612 2.7756782 -1.7989461 4288085770
3.7039566 2.8097363 -1.7982137 4288085770
3.4081116 2.6414657 -1.7989602 4288085770
3.7749405 2.8477976 -1.7995107 4288085770
3.3651505 2.6144195 -1.802774 4288085770
3.8509521 2.8858635 -1.7998247 4288085770
3.6640396 2.7796853 -1.805033 4288085770
3.3172226 2.5833738 -1.8025651 4288085770
3.9249725 2.9229279 -1.8001304 4288085770
5.1762619 3.6280284 -1.8254216 4288085770
3.2713089 2.5523291 -1.8023627 4288085770
4.0009995 2.9589965 -1.7984409 4288085770
3.2253952 2.5212841 -1.8021603 4288085770
3.745163 2.8107519 -1.8043528 4288085770
4.0890198 3.0020711 -1.7998028 4288085770
9.6870346 6.145071 -1.8604562 4288085770
3.1864929 2.4922433 -1.8029845 4288085770
3.9771194 2.9339595 -1.8043215 4288085770
4.1760635 3.0421448 -1.8001566 4288085770
3.1475983 2.4632037 -1.8028088 4288085770
3.8273087 2.8398218 -1.8016727 4288085770
4.2651291 3.0822229 -1.7985172 4288085770
5.1456375 3.5699854 -1.8232272 4288085770
