# .PCD v0.7 - Point Cloud Data file format
VERSION 0.7
FIELDS x y z rgb
SIZE 4 4 4 4
TYPE F F F U
COUNT 1 1 1 1
WIDTH 1134
HEIGHT 1
VIEWPOINT 0 0 0 1 0 0 0
POINTS 1134
DATA ascii
19.190754 -0.13496675 -1.8949605 4288085770
17.200777 -0.12089229 -1.8638786 4288085770
16.096794 -0.1364103 -1.8557127 4288085770
15.145803 -0.15085787 -1.8517076 4288085770
14.25482 -0.16627543 -1.843765 4288085770
13.494829 -0.18063293 -1.8399603 4288085770
19.039841 -0.2790336 -1.8767345 4288085770
12.796842 -0.19596036 -1.8342199 4288085770
17.691858 -0.29366535 -1.8653126 4288085770
12.188851 -0.21024618 -1.8305746 4288085770
16.559872 -0.30819744 -1.8591173 4288085770
11.631861 -0.2245084 -1.8279828 4288085770
15.559882 -0.3226673 -1.8530605 4288085770
11.145866 -0.24073893 -1.8294643 4288085770
14.677895 -0.33808148 -1.847127 4288085770
10.688872 -0.25495446 -1.8279773 4288085770
19.72893 -0.4957177 -1.8863566 4288085770
13.881906 -0.35245514 -1.841284 4288085770
10.27988 -0.27114823 -1.8285395 4288085770
18.993927 -0.51707101 -1.8995749 4288085770
13.194915 -0.36777875 -1.838555 4288085770
18.424955 -0.52732956 -1.8759725 4288085770
9.9138823 -0.28632307 -1.8321474 4288085770
17.679939 -0.52568656 -1.8881909 4288085770
12.573924 -0.3830716 -1.8368951 4288085770
9.5628872 -0.30148947 -1.8327707 4288085770
16.575947 -0.5312053 -1.8820287 4288085770
17.285976 -0.55686414 -1.8667624 4288085770
12.010932 -0.39833677 -1.8342962 4288085770
15.573957 -0.5336746 -1.872975 4288085770
9.2268963 -0.31664801 -1.8314099 4288085770
16.313995 -0.58632147 -1.8617275 4288085770
11.49894 -0.41357824 -1.8327506 4288085770
14.68496 -0.53509307 -1.8700403 4288085770
8.8959064 -0.33080238 -1.8260546 4288085770
13.870968 -0.53347349 -1.8611857 4288085770
11.049947 -0.42979133 -1.8342706 4288085770
15.456012 -0.61472487 -1.8558127 4288085770
13.14597 -0.53081381 -1.856425 4288085770
8.6089153 -0.34593776 -1.8247449 4288085770
10.65195 -0.44598126 -1.8378441 4288085770
12.501973 -0.52711576 -1.8517499 4288085770
8.3349218 -0.36006695 -1.8234496 4288085770
14.689028 -0.64108598 -1.851994 4288085770
11.906973 -0.52239549 -1.8491266 4288085770
18.599066 -0.82226467 -1.8990175 4288085770
5.1718621 -0.22555542 -1.8191887 4288085770
10.245958 -0.4611719 -1.8344097 4288085770
11.364974 -0.51764977 -1.8455589 4288085770
17.316065 -0.79586446 -1.8866817 4288085770
5.2818704 -0.23950306 -1.8172972 4288085770
8.0789318 -0.37518737 -1.8211724 4288085770
10.886971 -0.51187557 -1.846059 4288085770
16.206062 -0.77138436 -1.8785267 4288085770
13.985044 -0.66641653 -1.846242 4288085770
5.3958774 -0.25344926 -1.8164097 4288085770
9.8659687 -0.47535032 -1.8310027 4288085770
10.443966 -0.50608528 -1.8475958 4288085770
15.219057 -0.74684632 -1.8705009 4288085770
5.513886 -0.26739308 -1.8145264 4288085770
10.028963 -0.4982805 -1.8461628 4288085770
7.8419375 -0.39029962 -1.820915 4288085770
5.6458907 -0.28133166 -1.8156582 4288085770
14.354052 -0.72525215 -1.8656018 4288085770
9.6479588 -0.49146053 -1.8467654 4288085770
5.1658735 -0.26356119 -1.8231612 4288085770
13.375056 -0.69270468 -1.8445879 4288085770
9.5399742 -0.49250543 -1.832651 4288085770
13.574046 -0.70361793 -1.860792 4288085770
5.7798986 -0.2962684 -1.8147913 4288085770
9.2699585 -0.48163691 -1.8423724 4288085770
5.2848792 -0.27550536 -1.8232802 4288085770
12.887038 -0.68294024 -1.8570794 4288085770
19.627151 -1.0447916 -1.914994 4288085770
5.9269042 -0.31119993 -1.8159384 4288085770
8.9249563 -0.47279862 -1.8400135 4288085770
7.6159453 -0.40540633 -1.8196692 4288085770
5.4108849 -0.28644627 -1.8234073 4288085770
8.600955 -0.46294993 -1.8366773 4288085770
19.983181 -1.0846194 -1.9033496 4288085770
12.251034 -0.66323853 -1.8534199 4288085770
6.0829091 -0.32612759 -1.8180947 4288085770
5.5378909 -0.29838622 -1.8225348 4288085770
8.3029528 -0.45308948 -1.8343685 4288085770
11.682025 -0.64350569 -1.8508309 4288085770
6.2359166 -0.34105539 -1.8172482 4288085770
9.2059832 -0.50666213 -1.8292924 4288085770
5.6648989 -0.30932528 -1.8196628 4288085770
8.0269499 -0.44321901 -1.8330828 4288085770
5.8129034 -0.32125622 -1.8208126 4288085770
12.823069 -0.71796525 -1.8429953 4288085770
11.176017 -0.62574399 -1.8503072 4288085770
7.7559471 -0.4323453 -1.8298029 4288085770
6.4029226 -0.35597694 -1.8174164 4288085770
19.045191 -1.0770563 -1.8903674 4288085770
5.9699063 -0.33318332 -1.8229717 4288085770
7.5199404 -0.42245728 -1.8315592 4288085770
6.1289115 -0.34410858 -1.8231336 4288085770
6.5879264 -0.37089139 -1.8206037 4288085770
10.71501 -0.60796142 -1.8508308 4288085770
7.2819386 -0.41156802 -1.8283141 4288085770
6.2919168 -0.35603198 -1.8232993 4288085770
7.0659337 -0.40066966 -1.8280919 4288085770
7.4089508 -0.42050484 -1.8204432 4288085770
6.4609232 -0.36595166 -1.8214723 4288085770
6.6579251 -0.37786072 -1.8256738 4288085770
6.8559303 -0.38976762 -1.8258764 4288085770
18.432171 -1.0603508 -1.9027309 4288085770
6.7809319 -0.38680163 -1.8227987 4288085770
10.268001 -0.58917093 -1.8483696 4288085770
9.8569975 -0.57136321 -1.8449457 4288085770
6.9789395 -0.40270859 -1.8229991 4288085770
7.1809473 -0.41761327 -1.8222044 4288085770
9.4759884 -0.55354214 -1.8435533 4288085770
8.9169893 -0.52279902 -1.8289801 4288085770
7.4189501 -0.43450356 -1.8274466 4288085770
9.127984 -0.53670537 -1.8421953 4288085770
7.6579556 -0.45039162 -1.8286903 4288085770
8.7759819 -0.51786804 -1.834834 4288085770
8.4529791 -0.50001776 -1.8295027 4288085770
7.9039636 -0.46727601 -1.8289407 4288085770
8.1829681 -0.48414612 -1.8322264 4288085770
18.997215 -1.1350827 -1.89529 4288085770
12.306082 -0.74220896 -1.8404396 4288085770
17.915205 -1.0895865 -1.8811738 4288085770
7.2139587 -0.43559688 -1.8192298 4288085770
17.357185 -1.0728539 -1.891595 4288085770
8.6260014 -0.53693461 -1.8236665 4288085770
7.0299635 -0.45068461 -1.8200278 4288085770
11.858092 -0.76742148 -1.8409561 4288085770
16.903223 -1.1020598 -1.8701041 4288085770
18.076248 -1.1795131 -1.8823012 4288085770
16.400198 -1.0823026 -1.8835844 4288085770
8.3650103 -0.55205727 -1.8213836 4288085770
6.8529711 -0.46576822 -1.8188334 4288085770
11.430104 -0.79062355 -1.8394941 4288085770
16.076229 -1.1194499 -1.8682262 4288085770
15.543204 -1.0907054 -1.8786792 4288085770
8.1410131 -0.56816477 -1.8241392 4288085770
17.301273 -1.2258775 -1.8764646 4288085770
6.6959758 -0.48184368 -1.820659 4288085770
11.049113 -0.81580484 -1.8410808 4288085770
14.767211 -1.0950701 -1.8738606 4288085770
7.9090223 -0.58327389 -1.8218868 4288085770
15.30824 -1.1368115 -1.86441 4288085770
6.5199866 -0.49492499 -1.8154663 4288085770
16.591299 -1.2712115 -1.8706967 4288085770
14.055217 -1.0974042 -1.8691102 4288085770
7.7060285 -0.5993706 -1.8226644 4288085770
10.690124 -0.839975 -1.8406907 4288085770
14.631248 -1.1551315 -1.8636891 4288085770
6.3769922 -0.51099342 -1.8163067 4288085770
13.411219 -1.0987074 -1.8664317 4288085770
15.995317 -1.3174939 -1.8700479 4288085770
7.5030365 -0.61546648 -1.8214419 4288085770
10.396127 -0.867118 -1.8483677 4288085770
14.00526 -1.1724256 -1.8590221 4288085770
6.2419968 -0.52605844 -1.818156 4288085770
12.81222 -1.0969892 -1.8638018 4288085770
7.3210416 -0.63155329 -1.8222413 4288085770
19.676441 -1.7257932 -1.9347304 4288085770
15.480337 -1.3667397 -1.8734829 4288085770
10.063141 -0.88827348 -1.8430063 4288085770
13.44527 -1.1906899 -1.8574237 4288085770
12.258222 -1.0942492 -1.8602197 4288085770
6.1080022 -0.54212278 -1.8190056 4288085770
4.3419604 -2.4265594 -1.0872276 4293729569
4.364253 -2.4395008 -0.23023435 4293729569
4.1017323 -2.2997022 -1.5891538 4293729569
4.3440266 -2.439549 -0.90722668 4293729569
4.3139133 -2.4235814 -1.2222173 4293729569
4.3491797 -2.4445214 -0.455228 4293729569
4.3390045 -2.4415557 -0.97322452 4293729569
4.3532715 -2.4505048 -0.18722877 4293729569
4.3289585 -2.4405682 -1.1102208 4293729569
4.0967412 -2.3147051 -1.5791497 4293729569
4.338263 -2.4545143 -0.21522257 4293729569
4.3410249 -2.4565535 -0.93122327 4293729569
4.3239565 -2.4575732 -1.1342165 4293729569
4.3049245 -2.447587 -1.2152108 4293729569
4.3361921 -2.4665289 -0.44122013 4293729569
4.0977511 -2.3327053 -1.5721476 4293729569
4.3300161 -2.4655614 -0.96521789 4293729569
4.338273 -2.470515 -0.20322043 4293729569
4.329021 -2.4655609 -0.95221758 4293729569
4.324275 -2.475522 -0.20121446 4293729569
4.3159542 -2.4735801 -1.1572114 4293729569
4.3250175 -2.4795654 -0.97621423 4293729569
4.1057611 -2.3537023 -1.5661479 4293729569
4.3252048 -2.4885349 -0.42721307 4293729569
4.308939 -2.4795866 -1.2102081 4293729569
4.3230281 -2.4895656 -0.95621204 4293729569
4.3192735 -2.4875262 -0.218211 4293729569
4.3200154 -2.4925694 -0.99821055 4293729569
4.1207728 -2.3786957 -1.5621501 4293729569
4.3139529 -2.4915831 -1.1832082 4293729569
4.3112879 -2.4965291 -0.18620676 4293729569
4.3140116 -2.5035748 -1.0212069 4293729569
4.1347842 -2.4016895 -1.5571523 4293729569
4.3043475 -2.5005231 -0.01020362 4293729569
4.3039494 -2.5035903 -1.2052029 4293729569
4.3222189 -2.5145373 -0.41320851 4293729569
4.3169527 -2.5125842 -1.2072066 4293729569
4.3200412 -2.5155685 -0.94820756 4293729569
4.3152781 -2.513531 -0.23520604 4293729569
4.3120084 -2.5165782 -1.0442044 4293729569
4.1497955 -2.4246833 -1.5521549 4293729569
4.2992997 -2.516536 -0.17219958 4293729569
4.3109488 -2.5255897 -1.2332027 4293729569
4.3120055 -2.5295801 -1.0682024 4293729569
4.2863479 -2.5165341 -0.026194677 4293729569
4.1618061 -2.4446781 -1.5461568 4293729569
4.3142328 -2.5375421 -0.39820248 4293729569
4.3270559 -2.5475664 -0.94220591 4293729569
4.3249679 -2.5465825 -1.2032052 4293729569
4.3072815 -2.5365376 -0.25219995 4293729569
4.3220048 -2.5475776 -1.0942038 4293729569
4.3179488 -2.5475888 -1.2612025 4293729569
4.1738162 -2.4646728 -1.5381587 4293729569
4.2913136 -2.5395408 -0.15719351 4293729569
4.3200006 -2.5585806 -1.1172018 4293729569
4.2823515 -2.5395389 -0.041190121 4293729569
4.188828 -2.4856658 -1.5311615 4293729569
4.3339496 -2.5735841 -1.291205 4293729569
4.3172483 -2.5655417 -0.38519993 4293729569
4.3480725 -2.5865581 -0.93920887 4293729569
4.3390012 -2.581574 -1.145206 4293729569
4.3012838 -2.5595429 -0.26919469 4293729569
4.3669891 -2.5995641 -1.2072142 4293729569
4.231843 -2.5216463 -1.5331731 4293729569
4.367003 -2.6075623 -1.1752132 4293729569
4.3679533 -2.6095705 -1.3262131 4293729569
4.2943296 -2.5675399 -0.14219099 4293729569
4.2978621 -2.5706162 -1.5431917 4293729569
4.2853565 -2.56654 -0.058187708 4293729569
4.3930044 -2.6335528 -1.2062197 4293729569
4.3648815 -2.6205852 -1.5522107 4293729569
4.330267 -2.6005366 -0.37220031 4293729569
4.4141002 -2.6525285 -0.94422537 4293729569
5.5471673 -3.3370352 -1.710566 4293729569
4.3132915 -2.5925403 -0.28719491 4293729569
6.1743445 -3.7167389 -1.7167546 4293729569
6.3183846 -3.8076715 -1.7247976 4293729569
4.6669421 -2.8124483 -1.6413003 4293729569
6.0663176 -3.6627903 -1.7187209 4293729569
4.7999735 -2.900387 -1.6693395 4293729569
5.4451456 -3.2930846 -1.7115334 4293729569
4.2913437 -2.5925429 -0.1271866 4293729569
5.9502883 -3.601846 -1.7166851 4293729569
4.2853599 -2.5905423 -0.075184569 4293729569
4.871995 -2.9503539 -1.6753603 4293729569
5.8432612 -3.5438964 -1.7156522 4293729569
4.9800224 -3.0223041 -1.6923922 4293729569
4.3702922 -2.6505189 -0.36020902 4293729569
5.7362342 -3.4849472 -1.7126194 4293729569
4.3523068 -2.6425242 -0.30720323 4293729569
5.0660467 -3.0792639 -1.7004176 4293729569
5.3441229 -3.2491331 -1.711501 4293729569
5.6452103 -3.4349909 -1.7135913 4293729569
6.3664141 -3.8766508 -1.726808 4288085770
5.1340671 -3.125232 -1.7014375 4293729569
5.5371814 -3.3720419 -1.7085586 4293729569
5.2120895 -3.1751955 -1.7044607 4293729569
5.4461575 -3.3190849 -1.7065309 4293729569
5.3621335 -3.2681246 -1.7045056 4293729569
5.2891126 -3.224159 -1.7064835 4293729569
4.3113651 -2.6305337 -0.11218926 4293729569
4.3013687 -2.6245377 -0.092186227 4293729569
5.2381001 -3.2001839 -1.7084674 4293729569
5.1380768 -3.1522317 -1.705436 4293729569
6.4174433 -3.9456284 -1.7288198 4288085770
5.0570579 -3.1152709 -1.7084099 4293729569
4.9530349 -3.0623205 -1.7013774 4293729569
6.4634728 -4.0126081 -1.7278298 4288085770
4.8520107 -3.0103681 -1.6933458 4293729569
3.8687348 -2.3998306 -1.6590503 4293729569
4.715982 -2.9344318 -1.672304 4293729569
3.8867452 -2.4188225 -1.6530546 4293729569
4.6019564 -2.8714855 -1.6572686 4293729569
3.9057548 -2.4368136 -1.6470596 4293729569
4.4569249 -2.7865527 -1.6302245 4293729569
3.9257653 -2.4548044 -1.6400648 4293729569
4.3539014 -2.7276008 -1.6161927 4293729569
3.9447753 -2.4717951 -1.6320698 4293729569
4.295886 -2.6956284 -1.6161747 4293729569
3.9567845 -2.4837892 -1.6200728 4293729569
4.2038636 -2.6406713 -1.6031469 4293729569
3.9707935 -2.494782 -1.6090766 4293729569
4.1328454 -2.5977046 -1.5971253 4293729569
4.0058055 -2.5187652 -1.605087 4293729569
4.0858321 -2.5697272 -1.5991108 4293729569
4.0468192 -2.5457461 -1.6030992 4293729569
7.1773448 4.9464688 -1.738915 4288085770
7.0743752 4.8744226 -1.7438728 4288085770
7.2903113 5.02352 -1.733961 4288085770
7.4112763 5.1045752 -1.7300102 4288085770
6.9724059 4.8013759 -1.7478305 4288085770
6.8594427 4.7193251 -1.7477839 4288085770
7.5222468 5.1756248 -1.7220548 4288085770
6.7504802 4.6382756 -1.7477386 4288085770
7.6412158 5.2496791 -1.7151024 4288085770
6.6325216 4.5482221 -1.7426891 4288085770
7.7601857 5.322732 -1.70715 4288085770
6.5335565 4.4701772 -1.7426473 4288085770
7.8861551 5.3977895 -1.6982001 4288085770
6.4175992 4.380125 -1.7355984 4288085770
8.0311193 5.4838543 -1.6922576 4288085770
6.3266325 4.3060837 -1.7345595 4288085770
8.193078 5.5779266 -1.6863217 4288085770
6.239666 4.2320442 -1.7325221 4288085770
8.3700323 5.680006 -1.6833917 4288085770
6.1826892 4.1780171 -1.7374967 4288085770
9.425724 6.3754802 -1.6728197 4288085770
8.5519876 5.7830873 -1.6784633 4288085770
9.1578083 6.1933608 -1.6647104 4288085770
9.7856073 6.61764 -1.6949664 4288085770
8.9588699 6.0552711 -1.6656289 4288085770
10.065522 6.8037658 -1.6990802 4288085770
8.7899227 5.935195 -1.6695592 4288085770
10.301455 6.9568715 -1.6941758 4288085770
8.6439676 5.8291287 -1.6764989 4288085770
10.491406 7.0759578 -1.6802521 4288085770
8.740943 5.8871713 -1.6735375 4288085770
6.1167154 4.1159859 -1.7394673 4288085770
8.4940166 5.7170591 -1.6814364 4288085770
10.706351 7.208055 -1.6663383 4288085770
8.3550606 5.6119962 -1.6863784 4288085770
10.919299 7.337152 -1.6514235 4288085770
8.9438953 5.9982615 -1.6676171 4288085770
6.0807309 4.0739679 -1.74845 4288085770
8.2241068 5.5099363 -1.6903231 4288085770
11.199224 7.507277 -1.6425356 4288085770
8.1201401 5.4248881 -1.699279 4288085770
11.550131 7.7204342 -1.640676 4288085770
9.1738386 6.123364 -1.6667072 4288085770
6.023756 4.0149417 -1.750424 4288085770
11.884044 7.9185834 -1.6328093 4288085770
8.0111799 5.333837 -1.7052321 4288085770
9.4217787 6.2574744 -1.6648045 4288085770
5.9727788 3.9609168 -1.7544004 4288085770
7.9092164 5.2467904 -1.710188 4288085770
7.8162513 5.1647472 -1.7161478 4288085770
9.7826805 6.4626331 -1.6809471 4288085770
5.9258008 3.906894 -1.7573776 4288085770
7.726285 5.082705 -1.7221078 4288085770
10.205564 6.7038202 -1.7021137 4288085770
5.8948174 3.862879 -1.7643613 4288085770
7.6463156 5.0056682 -1.7300714 4288085770
10.522488 6.8699617 -1.7042367 4288085770
5.844842 3.8048556 -1.7643367 4288085770
7.5663486 4.9276319 -1.7350352 4288085770
10.781436 6.9940777 -1.692336 4288085770
7.4843826 4.8475938 -1.7379979 4288085770
5.8228564 3.7658446 -1.7723237 4288085770
7.4044166 4.7675562 -1.7409612 4288085770
11.048383 7.1191983 -1.6794376 4288085770
5.7988725 3.7228324 -1.7793094 4288085770
7.3104563 4.6775146 -1.7399186 4288085770
11.317332 7.2413192 -1.6655397 4288085770
5.7708893 3.677819 -1.7842934 4288085770
7.2184968 4.587472 -1.7368767 4288085770
11.592282 7.3624425 -1.6496439 4288085770
5.751904 3.6358087 -1.7912807 4288085770
7.1485295 4.5114403 -1.7388436 4288085770
11.980198 7.5506167 -1.646793 4288085770
5.7289214 3.5917971 -1.7952666 4288085770
7.0525727 4.4183969 -1.7327999 4288085770
12.389112 7.7447987 -1.6429497 4288085770
5.701941 3.542784 -1.7982501 4288085770
6.9926028 4.3463683 -1.7347702 4288085770
12.863007 7.9750094 -1.6441323 4288085770
6.9146404 4.2633338 -1.7307335 4288085770
5.6809583 3.4987736 -1.8022367 4288085770
6.8666677 4.1973109 -1.7337084 4288085770
5.6629748 3.4547641 -1.8062236 4288085770
12.788095 7.7699738 -1.6450818 4288085770
6.8216939 4.1332889 -1.7366847 4288085770
5.6379957 3.4057519 -1.8062079 4288085770
12.544194 7.5428629 -1.6509737 4288085770
6.7977133 4.0812769 -1.7436692 4288085770
5.6100168 3.3547385 -1.8051909 4288085770
6.7687359 4.0242624 -1.7486513 4288085770
12.399261 7.3767943 -1.6669054 4288085770
5.5850377 3.3047261 -1.8051748 4288085770
6.7267637 3.9592421 -1.748628 4288085770
12.274323 7.2217355 -1.6828449 4288085770
5.5680566 3.2587175 -1.8061619 4288085770
6.6997857 3.9032288 -1.7526109 4288085770
12.127393 7.054667 -1.6957756 4288085770
5.5440774 3.2087057 -1.8051462 4288085770
6.6718097 3.8452153 -1.7545931 4288085770
11.954471 6.8735881 -1.7026961 4288085770
5.5330949 3.1646998 -1.8071353 4288085770
6.6638265 3.7982097 -1.7625831 4288085770
11.713569 6.6544781 -1.6975895 4288085770
5.5101171 3.1146884 -1.8041197 4288085770
6.6378503 3.7411971 -1.7635661 4288085770
11.317713 6.3503017 -1.6684215 4288085770
5.5031333 3.0726843 -1.8061105 4288085770
6.6138735 3.6841848 -1.7645496 4288085770
11.118798 6.1602116 -1.665332 4288085770
5.4931512 3.0286784 -1.8060997 4288085770
6.6068912 3.6361804 -1.7695397 4288085770
10.978865 6.0041471 -1.6692661 4288085770
5.485168 2.9856737 -1.8070899 4288085770
6.6139059 3.5941815 -1.7775353 4288085770
10.84393 5.8520846 -1.6722022 4288085770
3.6236255 1.948837 -1.8243489 4288085770
3.6426253 1.9568465 -1.8133559 4288085770
3.6926138 1.9808688 -1.8153751 4288085770
5.4791865 2.9416697 -1.8070805 4288085770
3.7476006 2.0068929 -1.819396 4288085770
6.6109242 3.5471785 -1.7815268 4288085770
3.7835956 2.021909 -1.8134093 4288085770
3.8355846 2.0449326 -1.8144288 4288085770
3.8855748 2.0659547 -1.8134474 4288085770
10.75998 5.7280445 -1.6821584 4288085770
3.9415643 2.0889795 -1.813468 4288085770
5.4622073 2.8926613 -1.8030666 4288085770
6.6179385 3.5051799 -1.7885221 4288085770
3.998554 2.1110044 -1.813489 4288085770
4.0625405 2.1370327 -1.8145125 4288085770
4.129528 2.1630623 -1.8165369 4288085770
10.68203 5.6080074 -1.691117 4288085770
5.4602242 2.8516591 -1.803059 4288085770
6.60496 3.4511724 -1.7895095 4288085770
4.1895175 2.1850891 -1.8145586 4288085770
4.2485089 2.2051156 -1.8105797 4288085770
4.1835284 2.162086 -1.8095524 4288085770
4.228519 2.1851065 -1.8075699 4288085770
4.1305418 2.1340623 -1.8085314 4288085770
4.2805076 2.2111297 -1.8065902 4288085770
4.0885515 2.1110427 -1.8105146 4288085770
4.3414931 2.2421567 -1.8086139 4288085770
10.604079 5.4889698 -1.6980757 4288085770
4.3154988 2.2281449 -1.8096038 4288085770
4.0485606 2.0880251 -1.8124985 4288085770
4.405479 2.2721851 -1.8106385 4288085770
4.465466 2.3002121 -1.8096616 4288085770
4.0065722 2.0620065 -1.811481 4288085770
6.6189737 3.4111767 -1.7955076 4288085770
5.4612393 2.8106582 -1.804052 4288085770
4.5314517 2.3302414 -1.8106866 4288085770
3.9715817 2.0409901 -1.8134667 4288085770
4.3974838 2.2581809 -1.8126334 4288085770
3.9375904 2.0189745 -1.8154525 4288085770
4.5924416 2.3562684 -1.8077095 4288085770
4.6574287 2.3842971 -1.8067342 4288085770
3.9035995 1.995959 -1.8164378 4288085770
15.365026 7.8681035 -1.6559362 4288085770
4.4684734 2.2812123 -1.8106588 4288085770
4.7274156 2.4133289 -1.8047603 4288085770
3.8656113 1.9699421 -1.8144217 4288085770
10.547121 5.3809419 -1.7080426 4288085770
4.802402 2.4443622 -1.8037884 4288085770
3.8326213 1.9469271 -1.8144075 4288085770
6.6089954 3.3581712 -1.7954957 4288085770
4.54846 2.3082476 -1.8116876 4288085770
4.8713908 2.4713933 -1.799814 4288085770
5.461256 2.7696567 -1.8040448 4288085770
3.792635 1.9189091 -1.8093901 4288085770
4.9513774 2.5014286 -1.7978432 4288085770
3.7786391 1.9039021 -1.8163829 4288085770
4.6304469 2.3342838 -1.8117167 4288085770
15.125131 7.6309938 -1.6598281 4288085770
5.0263658 2.5294623 -1.7938709 4288085770
3.7356551 1.8728832 -1.807364 4288085770
10.491164 5.2739143 -1.71701 4288085770
5.1273465 2.5695069 -1.7969085 4288085770
4.7114358 2.3593197 -1.8097454 4288085770
6.5990176 3.3051658 -1.794484 4288085770
3.723659 1.8578769 -1.8133574 4288085770
5.4632721 2.7296562 -1.8040384 4288085770
5.2233295 2.6045492 -1.7969438 4288085770
4.7934246 2.384356 -1.8067744 4288085770
3.7436512 1.8568836 -1.8343629 4288085770
5.3323097 2.6455972 -1.799984 4288085770
14.941218 7.4259081 -1.6677423 4288085770
10.455202 5.1748958 -1.728985 4288085770
4.8754153 2.4063921 -1.8028028 4288085770
5.4272952 2.6786397 -1.7970186 4288085770
6.6100335 3.261169 -1.7984804 4288085770
5.4642882 2.6886559 -1.8030314 4288085770
5.5452747 2.7206919 -1.8000618 4288085770
4.9564061 2.4284284 -1.7978312 4288085770
14.855279 7.268867 -1.6846946 4288085770
5.659256 2.7607424 -1.8001035 4288085770
10.382251 5.0598612 -1.7329457 4288085770
5.0583906 2.4584732 -1.7988675 4288085770
6.6020565 3.2081642 -1.7964694 4288085770
5.7682405 2.7957907 -1.797143 4288085770
5.4653058 2.6466546 -1.8010244 4288085770
5.1633754 2.4895194 -1.7999047 4288085770
5.8772264 2.8298395 -1.7921823 4288085770
14.797336 7.1278372 -1.7026581 4288085770
10.332292 4.9558368 -1.7399154 4288085770
5.2663622 2.517565 -1.798941 4288085770
6.6080742 3.161165 -1.7984637 4288085770
5.9972081 2.8678925 -1.7892257 4288085770
5.4783192 2.6106591 -1.803022 4288085770
6.1241913 2.906949 -1.7872715 4288085770
5.3833461 2.5506165 -1.7999824 4288085770
14.709398 6.9727945 -1.71561 4288085770
10.267339 4.8458047 -1.7428794 4288085770
6.2791648 2.9590173 -1.7913283 4288085770
6.6180925 3.1161685 -1.7994595 4288085770
5.5043283 2.5846694 -1.8020254 4288085770
5.484334 2.5706606 -1.802017 4288085770
6.4401398 3.0110881 -1.7953869 4288085770
14.489493 6.7566948 -1.7115107 4288085770
5.6213136 2.6157212 -1.8010668 4288085770
10.169394 4.7217598 -1.7388306 4288085770
6.5911183 3.0571549 -1.7944416 4288085770
6.6161132 3.065166 -1.7974507 4288085770
5.5063457 2.5376685 -1.8050179 4288085770
5.7303033 2.6397696 -1.7971045 4288085770
6.7341008 3.0962186 -1.7894926 4288085770
14.124625 6.477531 -1.6883556 4288085770
5.8392935 2.6638176 -1.7901422 4288085770
10.045456 4.5857029 -1.7297717 4288085770
6.9180727 3.1543 -1.7935596 4288085770
6.6201329 3.0171666 -1.7964441 4288085770
5.511363 2.4966695 -1.803012 4288085770
7.0900497 3.2033761 -1.7926217 4288085770
5.9822741 2.7008803 -1.7931927 4288085770
13.873727 6.2544179 -1.6772448 4288085770
9.9445105 4.4616575 -1.7237217 4288085770
6.6321511 2.9721701 -1.7964406 4288085770
7.3060164 3.2704713 -1.7997005 4288085770
6.1132607 2.7309384 -1.7902385 4288085770
5.5113811 2.4536688 -1.7980044 4288085770
7.4849954 3.3185506 -1.7957649 4288085770
13.757796 6.0943642 -1.6791865 4288085770
6.2512455 2.7629993 -1.789287 4288085770
9.8885546 4.3596301 -1.7236894 4288085770
6.6561666 2.9311795 -1.7984414 4288085770
7.7009649 3.380646 -1.7988429 4288085770
5.5413904 2.4246805 -1.8020087 4288085770
6.3962302 2.7960634 -1.7873379 4288085770
13.677855 5.950325 -1.685142 4288085770
7.9029412 3.4337356 -1.7959156 4288085770
6.6561875 2.8811779 -1.7944335 4288085770
9.8216019 4.2525988 -1.7206529 4288085770
6.5552125 2.8321333 -1.7873937 4288085770
5.557405 2.387686 -1.8010072 4288085770
8.1349106 3.497838 -1.7979996 4288085770
6.7361903 2.8762131 -1.7914579 4288085770
13.62091 5.8202972 -1.692107 4288085770
6.6792045 2.8391867 -1.795434 4288085770
8.3168964 3.5369191 -1.7860638 4288085770
9.8416262 4.1846051 -1.73165 4288085770
5.5754194 2.3516927 -1.8010063 4288085770
6.9291654 2.9222977 -1.7975264 4288085770
8.5108795 3.579006 -1.7741325 4288085770
13.584959 5.698278 -1.7000798 4288085770
6.693223 2.7941921 -1.793431 4288085770
9.8366566 4.1056004 -1.7376376 4288085770
7.0891514 2.9533687 -1.7925822 4288085770
8.7378569 3.6321065 -1.7682136 4288085770
5.6014318 2.3177025 -1.8020085 4288085770
7.2611361 2.9864445 -1.7896421 4288085770
13.555008 5.5802622 -1.7070552 4288085770
8.9558392 3.6782033 -1.757291 4288085770
6.7122416 2.7491987 -1.7914299 4288085770
9.8056936 4.0165849 -1.7386152 4288085770
5.6234446 2.282711 -1.8010092 4288085770
7.4561172 3.0265305 -1.7897106 4288085770
9.1988153 3.7323117 -1.7493775 4288085770
13.561048 5.4762621 -1.7170442 4288085770
6.7412567 2.7092102 -1.7914326 4288085770
9.7927275 3.9345763 -1.7405995 4288085770
9.4767876 3.7964349 -1.7454772 4288085770
7.6610966 3.0676208 -1.7907827 4288085770
5.6614542 2.2537262 -1.8050159 4288085770
13.551092 5.3662548 -1.7250272 4288085770
9.7767553 3.867568 -1.7425851 4288085770
7.8740759 3.1097145 -1.7908576 4288085770
6.7772703 2.6722248 -1.7934381 4288085770
9.8077545 3.8635809 -1.7475947 4288085770
5.689467 2.2197373 -1.8050188 4288085770
10.095722 3.9407089 -1.7406995 4288085770
8.1050529 3.1558166 -1.793939 4288085770
13.565131 5.2662582 -1.7330196 4288085770
6.8082862 2.631237 -1.7934414 4288085770
9.83078 3.7945886 -1.7555928 4288085770
10.427688 4.0148568 -1.7368188 4288085770
8.350029 3.2039242 -1.7970256 4288085770
5.7094822 2.1817448 -1.8020185 4288085770
13.575173 5.1642594 -1.7410103 4288085770
10.802648 4.1010222 -1.7379539 4288085770
6.8443017 2.5922511 -1.7924466 4288085770
8.5900068 3.2480297 -1.7971101 4288085770
9.8658028 3.7306018 -1.7635952 4288085770
5.7314982 2.1447532 -1.7980188 4288085770
11.137619 4.1681714 -1.7280736 4288085770
8.8329887 3.288137 -1.795195 4288085770
13.622207 5.0742779 -1.7510148 4288085770
6.8883147 2.5562692 -1.7944549 4288085770
9.9198217 3.6746233 -1.7746054 4288085770
11.53958 4.2543497 -1.7252179 4288085770
5.7775064 2.1167719 -1.8020284 4288085770
9.0969658 3.3332536 -1.7952878 4288085770
3.6808407 1.3418337 -1.8352317 4288085770
13.652245 4.9792881 -1.7580132 4288085770
6.9353275 2.5202885 -1.7954644 4288085770
11.984535 4.3515463 -1.7263782 4288085770
9.9618464 3.6106396 -1.7816105 4288085770
3.6658554 1.3178276 -1.8192221 4288085770
9.3569479 3.3733683 -1.7923787 4288085770
3.7028446 1.3258423 -1.8382348 4288085770
5.8185177 2.085789 -1.8030361 4288085770
3.725848 1.3328539 -1.8192433 4288085770
12.474484 4.4597631 -1.7285552 4288085770
3.6408691 1.2968169 -1.8042098 4288085770
3.701858 1.3178437 -1.8092328 4288085770
3.7918396 1.3498831 -1.8202667 4288085770
3.765846 1.3398718 -1.8142568 4288085770
13.687283 4.8853006 -1.7640133 4288085770
3.8178389 1.3568951 -1.812276 4288085770
6.9773431 2.4813054 -1.7944717 4288085770
3.87783 1.3759216 -1.8132983 4288085770
3.9548161 1.4009553 -1.821327 4288085770
3.8518338 1.3639098 -1.8172878 4288085770
9.6389246 3.4184928 -1.7924777 4288085770
9.9948721 3.5436513 -1.7876122 4288085770
4.0298028 1.4239882 -1.8273547 4288085770
4.1067901 1.448022 -1.832383 4288085770
3.9318223 1.3839446 -1.8223164 4288085770
3.6548717 1.2858223 -1.8062115 4288085770
4.1757803 1.4680526 -1.8324082 4288085770
13.062419 4.5960226 -1.7397684 4288085770
5.8455319 2.0507996 -1.8000386 4288085770
4.2497702 1.4890851 -1.8344351 4288085770
4.0138102 1.4049805 -1.8273457 4288085770
4.3217611 1.5091171 -1.8334613 4288085770
13.690328 4.7782998 -1.7650011 4288085770
9.9309044 3.4636211 -1.7925802 4288085770
4.386755 1.5261462 -1.8284847 4288085770
4.0957994 1.4240162 -1.8313746 4288085770
7.0163593 2.4413216 -1.792478 4288085770
4.4627457 1.5461799 -1.8275121 4288085770
10.032896 3.4786661 -1.7926159 4288085770
3.6738768 1.2688295 -1.8072133 4288085770
4.1877861 1.4470563 -1.8384075 4288085770
13.753335 4.7603278 -1.7590202 4288085770
4.543736 1.5672158 -1.8265413 4288085770
4.6327248 1.5902551 -1.8275734 4288085770
4.2727761 1.4660935 -1.8404374 4288085770
5.8995395 2.0238216 -1.8040512 4288085770
10.200891 3.4967408 -1.7846739 4288085770
4.7077184 1.6072885 -1.8226001 4288085770
4.3547678 1.4831297 -1.8404661 4288085770
13.619387 4.6462665 -1.7549611 4288085770
7.0863686 2.4123509 -1.796496 4288085770
3.6998799 1.2548397 -1.810218 4288085770
4.7987084 1.6293288 -1.8216326 4288085770
14.376274 4.8936038 -1.7642454 4288085770
10.07292 3.4136817 -1.7976203 4288085770
4.4387593 1.5001667 -1.8394955 4288085770
4.8836999 1.6493667 -1.817663 4288085770
10.526866 3.5448844 -1.7857884 4288085770
4.9766908 1.6704079 -1.815696 4288085770
4.5277505 1.5182058 -1.8395265 4288085770
5.9365535 1.9898365 -1.8020571 4288085770
14.98422 5.0128722 -1.7624643 4288085770
5.0736818 1.691451 -1.8127303 4288085770
3.729883 1.2398516 -1.8142238 4288085770
13.585439 4.5302501 -1.7489356 4288085770
4.6047459 1.5312401 -1.8335531 4288085770
7.137383 2.3753722 -1.7955068 4288085770
5.1766715 1.7144965 -1.8107671 4288085770
10.091949 3.3416886 -1.7966168 4288085770
10.824853 3.5780163 -1.7788919 4288085770
4.6857405 1.5442762 -1.827581 4288085770
5.2846608 1.7375443 -1.8088055 4288085770
15.601168 5.1281471 -1.7566859 4288085770
5.9885626 1.961858 -1.804069 4288085770
4.7737341 1.5603151 -1.8236114 4288085770
3.7518883 1.2238605 -1.814227 4288085770
5.3996496 1.7615951 -1.8078461 4288085770
13.528496 4.4052234 -1.7379012 4288085770
7.1973958 2.3403974 -1.7965208 4288085770
11.137837 3.6141548 -1.7730008 4288085770
4.8717256 1.5773582 -1.8226457 4288085770
5.5226374 1.7876494 -1.8078898 4288085770
10.136975 3.2777061 -1.8006232 4288085770
16.312107 5.264461 -1.755942 4288085770
5.6546245 1.8147076 -1.8089367 4288085770
4.9747176 1.5954037 -1.8216814 4288085770
3.7768934 1.2068702 -1.8142308 4288085770
6.035573 1.9308774 -1.8040788 4288085770
5.763618 1.8337562 -1.8009748 4288085770
11.46682 3.6493001 -1.7661152 4288085770
5.0677123 1.6084448 -1.8167131 4288085770
7.2654076 2.3074257 -1.7975378 4288085770
13.507546 4.2942123 -1.7298805 4288085770
17.032049 5.3937812 -1.7502009 4288085770
5.9026036 1.8618175 -1.8010242 4288085770
10.185 3.2147255 -1.8036306 4288085770
5.1807027 1.6274947 -1.8157523 4288085770
3.7998989 1.1898794 -1.8142341 4288085770
6.0415916 1.887879 -1.8000735 4288085770
6.086585 1.8998988 -1.8030899 4288085770
11.821803 3.6884568 -1.7612391 4288085770
5.2866964 1.6425414 -1.8127887 4288085770
17.79299 5.5261183 -1.7434739 4288085770
7.3324199 2.273454 -1.7975544 4288085770
13.598576 4.2182493 -1.735902 4288085770
6.1915789 1.9159452 -1.7991265 4288085770
10.242024 3.153749 -1.8066415 4288085770
5.4126854 1.6635969 -1.8138328 4288085770
3.8309028 1.1738918 -1.8162398 4288085770
6.3495646 1.945015 -1.7991824 4288085770
12.197785 3.727623 -1.75737 4288085770
6.1385965 1.8699203 -1.8031014 4288085770
5.527678 1.6796474 -1.8108723 4288085770
18.620928 5.6704855 -1.7377716 4288085770
6.5045524 1.9720836 -1.797237 4288085770
7.401433 2.2394826 -1.7965716 4288085770
13.732598 4.1543074 -1.7449393 4288085770
3.8549089 1.1569016 -1.8142436 4288085770
5.666667 1.7007084 -1.8129205 4288085770
10.295048 3.0907698 -1.8086505 4288085770
6.6565428 1.9961507 -1.7912903 4288085770
12.614762 3.7748067 -1.7565161 4288085770
19.611843 5.8499246 -1.7381289 4288085770
6.2116027 1.8459508 -1.8081211 4288085770
5.7946582 1.7187648 -1.8109648 4288085770
6.8615222 2.034241 -1.7983631 4288085770
7.4734454 2.2065132 -1.7965902 4288085770
13.849626 4.0843558 -1.7499703 4288085770
3.8849139 1.1399136 -1.8152492 4288085770
7.0375094 2.0623186 -1.7944251 4288085770
5.9266505 1.7348231 -1.8080102 4288085770
13.03974 3.8199942 -1.7546649 4288085770
10.327078 3.0207827 -1.8056519 4288085770
6.2696142 1.8159751 -1.807135 4288085770
7.245492 2.0974107 -1.7964987 4288085770
6.0896368 1.7588943 -1.812067 4288085770
7.5684533 2.179554 -1.8006175 4288085770
3.916919 1.1239266 -1.8152556 4288085770
13.946657 4.0063963 -1.7519938 4288085770
13.486721 3.8641915 -1.751821 4288085770
7.4474778 2.1284997 -1.7945697 4288085770
6.2326288 1.7769575 -1.8091164 4288085770
10.408099 2.9648161 -1.8096714 4288085770
6.3426218 1.7900057 -1.8111544 4288085770
7.6644616 2.1625955 -1.7946464 4288085770
6.3786216 1.793022 -1.8051666 4288085770
3.9489233 1.1079396 -1.8152621 4288085770
7.6614637 2.1495931 -1.8026435 4288085770
13.979694 3.916409 -1.7539942 4288085770
14.10268 3.9434631 -1.7590389 4293729569
7.8904452 2.1966953 -1.7937262 4288085770
6.543612 1.8120944 -1.8052236 4288085770
10.451129 2.8968337 -1.806677 4288085770
6.4066324 1.7600327 -1.8101704 4288085770
3.9849279 1.0919542 -1.8172698 4288085770
8.1274281 2.2317998 -1.7938097 4288085770
14.519665 3.9746473 -1.758184 4293729569
7.7504754 2.1176312 -1.802668 4288085770
6.7146015 1.8321698 -1.8052827 4288085770
14.298697 3.8905487 -1.769099 4288085770
8.4064054 2.274924 -1.7979085 4288085770
10.514153 2.8358617 -1.8056901 4288085770
6.8885922 1.8502482 -1.8033428 4288085770
4.024931 1.0769722 -1.8192792 4288085770
6.4916387 1.7360706 -1.8141943 4288085770
15.11963 4.0399151 -1.766396 4293729569
8.6683884 2.3120413 -1.7970012 4288085770
7.8384881 2.0856714 -1.8006928 4288085770
7.0575852 1.8663238 -1.7994013 4288085770
14.51871 3.8416471 -1.7811689 4288085770
8.9303732 2.3451583 -1.7930938 4288085770
10.588177 2.7758958 -1.8047078 4288085770
4.0599365 1.059988 -1.8182868 4288085770
15.664608 4.0831594 -1.7645875 4293729569
6.5566502 1.7061001 -1.8122113 4288085770
7.2585735 1.8874135 -1.8004712 4288085770
7.9304996 2.0537133 -1.799719 4288085770
9.2353525 2.3862941 -1.7942017 4288085770
14.766724 3.795758 -1.7942491 4288085770
7.4555635 1.9065017 -1.7985395 4288085770
4.1099377 1.0470097 -1.8233001 4288085770
10.6742 2.7179348 -1.80573 4288085770
9.5483332 2.4264343 -1.7933127 4288085770
16.218592 4.121408 -1.7607818 4293729569
6.6376586 1.6791363 -1.814234 4288085770
8.0415087 2.0247629 -1.8007522 4288085770
7.674552 1.9285994 -1.8006159 4288085770
9.8803129 2.4685824 -1.7944301 4288085770
15.031735 3.7518771 -1.8063352 4288085770
4.1559405 1.0320299 -1.8263118 4288085770
16.804573 4.1586709 -1.7579875 4293729569
10.741224 2.653966 -1.8017452 4288085770
7.8895421 1.9456954 -1.7996904 4288085770
6.7316661 1.6541783 -1.8172615 4288085770
10.244289 2.5157452 -1.7965596 4288085770
8.156517 1.9958141 -1.8027869 4288085770
4.1899476 1.0140451 -1.8233191 4288085770
8.1315298 1.9688034 -1.8017749 4288085770
15.325746 3.7100084 -1.8204319 4288085770
10.634264 2.5639193 -1.7986979 4288085770
17.412554 4.1939435 -1.7552006 4293729569
10.869244 2.6050236 -1.806783 4288085770
6.805676 1.6252115 -1.8152819 4288085770
8.2835255 1.9688714 -1.804826 4288085770
8.3745193 1.9879122 -1.8008592 4288085770
11.070236 2.6191137 -1.8048531 4288085770
4.2269535 0.9960618 -1.8203275 4288085770
15.612758 3.6651366 -1.8325261 4288085770
18.066536 4.2312374 -1.7534304 4293729569
8.6305094 2.0070264 -1.8009483 4288085770
10.971265 2.5490696 -1.8058112 4288085770
11.471216 2.6612933 -1.8009949 4288085770
6.9006848 1.5982541 -1.8163096 4288085770
8.4215336 1.943933 -1.8078693 4288085770
4.277957 0.98108435 -1.8223411 4288085770
8.9074965 2.0291502 -1.803045 4288085770
15.888775 3.6142609 -1.8386163 4288085770
18.712521 4.2565269 -1.7486564 4293729569
11.924192 2.7104957 -1.8001555 4288085770
11.091285 2.4951241 -1.8068459 4288085770
6.9896941 1.5702941 -1.8153354 4288085770
8.5805387 1.9210038 -1.81392 4288085770
4.3179626 0.96410203 -1.8203506 4288085770
9.2014818 2.0512817 -1.8071476 4288085770
12.39217 2.7587051 -1.7993215 4288085770
19.530493 4.3108926 -1.7559452 4288085770
16.154797 3.556381 -1.8427022 4288085770
9.4734745 2.0654037 -1.8022419 4288085770
7.0887027 1.5443387 -1.8163649 4288085770
12.917142 2.81394 -1.8005079 4288085770
4.3749652 0.95012748 -1.8233666 4288085770
11.206307 2.4391763 -1.8048786 4288085770
8.7355461 1.8960733 -1.8169694 4288085770
9.789463 2.0855448 -1.8043522 4288085770
13.619094 2.9002528 -1.819759 4288085770
16.433821 3.499507 -1.845793 4288085770
4.4249706 0.9331497 -1.8223797 4288085770
7.1997108 1.5183883 -1.8173985 4288085770
11.353326 2.3892429 -1.8069234 4288085770
8.9185505 1.875155 -1.823029 4288085770
10.115454 2.1036906 -1.8044658 4288085770
14.571017 3.0316753 -1.8651013 4288085770
16.705845 3.43663 -1.8448811 4288085770
4.4709764 0.91617024 -1.8203914 4288085770
7.3277154 1.4964453 -1.8234388 4288085770
9.0965548 1.8522347 -1.8280869 4288085770
11.510344 2.339314 -1.8089716 4288085770
10.460442 2.1228449 -1.8065863 4288085770
15.339972 3.1150186 -1.877376 4288085770
4.5229826 0.89919353 -1.8184055 4288085770
4.509984 0.89418781 -1.8174003 4288085770
4.6079745 0.91223145 -1.8204358 4288085770
16.955875 3.3667438 -1.8389611 4288085770
4.6959682 0.9282707 -1.818468 4288085770
16.008947 3.1703188 -1.8736134 4288085770
10.839429 2.1430147 -1.8107187 4288085770
4.8039579 0.94731879 -1.8225071 4288085770
7.4377265 1.4684948 -1.821472 4288085770
9.2705631 1.8263129 -1.829143 4288085770
4.9009519 0.96336222 -1.8205421 4288085770
4.9969454 0.97940528 -1.8175768 4288085770
11.681361 2.2913909 -1.8120253 4288085770
5.1079373 0.99645483 -1.8176166 4288085770
4.5509844 0.88620567 -1.8234123 4288085770
5.2179303 1.0135041 -1.8156561 4288085770
4.6629739 0.9022553 -1.8294523 4288085770
5.3339219 1.0315559 -1.8146979 4288085770
4.5839858 0.8842206 -1.8204228 4288085770
16.631935 3.2075992 -1.8568332 4288085770
5.4569135 1.049611 -1.8137418 4288085770
4.7569695 0.91429734 -1.8274856 4288085770
11.223417 2.160187 -1.8118527 4288085770
5.6119003 1.0726796 -1.8217976 4288085770
17.224903 3.2978663 -1.8320479 4288085770
4.8539639 0.92634094 -1.82452 4288085770
7.5747318 1.445556 -1.8255155 4288085770
9.4565716 1.8003963 -1.8312036 4288085770
5.762888 1.0947467 -1.8268517 4288085770
4.9469614 0.93738294 -1.8185526 4288085770
11.837383 2.2364619 -1.8100728 4288085770
5.9118776 1.1148132 -1.8289047 4288085770
5.0599542 0.95043337 -1.8195927 4288085770
17.163939 3.2218401 -1.8270196 4288085770
6.0568695 1.1338781 -1.8269566 4288085770
4.64499 0.86824787 -1.8204401 4288085770
11.601413 2.1713567 -1.8089843 4288085770
5.1819463 0.96548748 -1.821636 4288085770
6.2278571 1.1559542 -1.8320178 4288085770
5.2919416 0.97653699 -1.8176745 4288085770
7.7267361 1.423624 -1.8325642 4288085770
6.385848 1.175025 -1.830074 4288085770
17.519932 3.2300005 -1.8261443 4288085770
9.6555805 1.7754858 -1.8322688 4288085770
5.4329319 0.99259984 -1.8217244 4288085770
6.5658369 1.1971053 -1.8311379 4288085770
17.88792 3.2631664 -1.8112756 4288085770
12.029402 2.1875486 -1.8111339 4288085770
12.023402 2.1855459 -1.8091316 4288085770
4.7049956 0.85227478 -1.8194572 4288085770
5.552928 1.0036536 -1.8177664 4288085770
6.7338295 1.2151806 -1.8281977 4288085770
5.6939206 1.0177169 -1.8188162 4288085770
6.9128203 1.2342609 -1.8252611 4288085770
7.8657451 1.3976864 -1.8326081 4288085770
9.855588 1.7495757 -1.8323345 4288085770
17.903954 3.1761739 -1.8252729 4288085770
18.836885 3.3365917 -1.810613 4288085770
5.8569102 1.0347891 -1.8248738 4288085770
7.1028123 1.2543463 -1.8223286 4288085770
12.460395 2.1967418 -1.809284 4288085770
4.7679996 0.83630288 -1.8184752 4288085770
12.235419 2.1396413 -1.8132 4288085770
7.3108015 1.2764393 -1.8224025 4288085770
6.0179005 1.0498608 -1.8279306 4288085770
7.5257926 1.2975355 -1.8204788 4288085770
6.1808929 1.0649335 -1.8299881 4288085770
19.893847 3.4160659 -1.8119893 4288085770
8.0177507 1.3737546 -1.8346571 4288085770
10.086595 1.7266797 -1.8354114 4288085770
12.91039 2.2049444 -1.8074408 4288085770
18.36797 3.1303828 -1.8284307 4288085770
7.7937756 1.3256549 -1.8285742 4288085770
6.3498855 1.0790093 -1.8310473 4288085770
4.8410034 0.82133532 -1.820497 4288085770
12.453436 2.0917394 -1.8152704 4288085770
8.0457649 1.3497677 -1.8286636 4288085770
6.5088806 1.0900807 -1.827103 4288085770
8.3267498 1.3758934 -1.8327632 4288085770
13.408383 2.215168 -1.8086147 4288085770
8.1887579 1.3508312 -1.8397126 4288085770
6.6918731 1.1031626 -1.8271672 4288085770
10.3336 1.7037904 -1.8384941 4288085770
4.9100094 0.80436623 -1.8195174 4288085770
18.862986 3.0846057 -1.8305994 4288085770
8.638732 1.4060324 -1.8408743 4288085770
6.8638692 1.1132398 -1.8232273 4288085770
12.702454 2.0448518 -1.818352 4288085770
8.9507189 1.433172 -1.8429849 4288085770
7.039866 1.1233193 -1.8172889 4288085770
13.998367 2.2354317 -1.818822 4288085770
8.3557653 1.3259062 -1.8417667 4288085770
10.602606 1.6819111 -1.8425845 4288085770
4.9880133 0.78940105 -1.8205409 4288085770
9.2367096 1.4533007 -1.8370861 4288085770
7.2518578 1.1364139 -1.8183631 4288085770
19.411001 3.0398531 -1.8337871 4288085770
9.575696 1.4794525 -1.8382062 4288085770
12.969469 1.9989722 -1.8214401 4288085770
14.764338 2.2737737 -1.8450927 4288085770
7.4638524 1.1475089 -1.8174374 4288085770
5.0560193 0.77343166 -1.8185611 4288085770
8.5387716 1.3019882 -1.8448268 4288085770
10.89661 1.6620432 -1.8476843 4288085770
9.9166851 1.5036055 -1.834327 4288085770
7.7158413 1.1636215 -1.822526 4288085770
10.321669 1.5337869 -1.8384706 4288085770
15.488318 2.2980978 -1.8623477 4288085770
7.9908304 1.1797445 -1.8296225 4288085770
5.1530213 0.75947475 -1.8235915 4288085770
13.270485 1.9551079 -1.8265405 4288085770
11.17362 1.6371679 -1.8467776 4288085770
8.7377796 1.2790775 -1.8488927 4288085770
10.739655 1.5629741 -1.8396189 4288085770
8.2718191 1.1958699 -1.8357216 4288085770
16.136314 2.301389 -1.8655745 4288085770
5.225028 0.74250722 -1.8196131 4288085770
11.17864 1.5911711 -1.8407743 4288085770
8.5198164 1.2039815 -1.8318081 4288085770
13.601499 1.9112567 -1.8326514 4288085770
11.472629 1.6113026 -1.8468788 4288085770
8.9277878 1.2521631 -1.8489552 4288085770
11.613628 1.6163667 -1.8349284 4288085770
8.8648014 1.2231354 -1.8439299 4288085770
5.3060336 0.72654378 -1.8176379 4288085770
16.675325 2.2826324 -1.8517615 4288085770
12.095618 1.6425833 -1.831099 4288085770
9.1737957 1.2342738 -1.8460381 4288085770
11.789638 1.5864455 -1.8449866 4288085770
9.1257973 1.2262522 -1.8490205 4288085770
13.98251 1.8714278 -1.8427806 4288085770
12.650601 1.6738323 -1.8332957 4288085770
5.3940382 0.71058309 -1.8176653 4288085770
9.4797897 1.2424115 -1.8431453 4288085770
17.246338 2.2588906 -1.8389595 4288085770
13.288579 1.712118 -1.8395225 4288085770
12.143644 1.5636047 -1.8461076 4288085770
9.3188086 1.1983396 -1.8450842 4288085770
9.7997875 1.2495555 -1.8392574 4288085770
14.447515 1.8406363 -1.8609403 4288085770
5.4820442 0.69462276 -1.814693 4288085770
4.8050828 0.60531926 -1.8194472 4288085770
14.027555 1.756449 -1.8527851 4288085770
17.875349 2.2351744 -1.828178 4293729569
10.172779 1.2597228 -1.8423882 4288085770
12.543649 1.5437846 -1.8502454 4288085770
9.5478172 1.1714425 -1.8451606 4288085770
5.5860486 0.67966926 -1.8167261 4288085770
14.838525 1.803812 -1.8670737 4288085770
4.8840871 0.59035456 -1.8184716 4288085770
14.993516 1.8118805 -1.8831288 4288085770
10.566772 1.2688996 -1.8445265 4288085770
18.666349 2.2225306 -1.8304547 4288085770
15.736496 1.8532145 -1.8813932 4288085770
13.02265 1.5299995 -1.8594115 4288085770
5.6890531 0.66471553 -1.8157592 4288085770
9.7908258 1.1455519 -1.8452423 4288085770
11.004766 1.2790959 -1.8496803 4288085770
4.9680924 0.57539237 -1.8184978 4288085770
15.513526 1.7741141 -1.8983077 4288085770
16.517487 1.8815658 -1.8726701 4288085770
19.515354 2.2079127 -1.8327522 4288085770
11.428761 1.2842866 -1.848829 4288085770
5.8050566 0.64976752 -1.8187968 4288085770
13.573647 1.5192466 -1.8746033 4288085770
10.058835 1.1206726 -1.8473332 4288085770
5.0660949 0.56243598 -1.821529 4288085770
17.239489 1.895892 -1.849925 4288085770
11.883759 1.2864913 -1.8469884 4288085770
15.989542 1.7263285 -1.9044706 4288085770
5.9180622 0.63381839 -1.8178333 4288085770
14.21664 1.5135344 -1.8948283 4288085770
5.1680975 0.54848158 -1.8245617 4288085770
10.348842 1.0968031 -1.8504316 4288085770
18.162476 1.9233079 -1.8392521 4288085770
12.375755 1.2897124 -1.846161 4288085770
6.0300679 0.61786878 -1.8158696 4288085770
19.303455 1.9658203 -1.8406574 4288085770
5.2671008 0.53452587 -1.8255935 4288085770
16.450565 1.671537 -1.9026278 4288085770
14.94563 1.5098609 -1.918084 4288085770
10.66585 1.0719455 -1.8535398 4288085770
13.003744 1.3009939 -1.8613825 4288085770
6.1480737 0.60192192 -1.8139082 4288085770
5.3661065 0.51957047 -1.8246253 4288085770
13.684732 1.3112992 -1.8756226 4288085770
15.645629 1.4981755 -1.9303293 4288085770
16.906591 1.6137434 -1.8977833 4288085770
11.024856 1.0491068 -1.8606632 4288085770
6.2710805 0.58597744 -1.8109484 4288085770
5.4611135 0.50361335 -1.8206556 4288085770
14.508714 1.3276681 -1.9019139 4288085770
16.26564 1.4734551 -1.9265453 4288085770
11.365866 1.0212607 -1.85978 4288085770
6.4120851 0.57104075 -1.8109952 4288085770
17.341619 1.5469409 -1.8839309 4288085770
5.5611186 0.48865846 -1.8186878 4288085770
15.336701 1.3360393 -1.9222062 4288085770
16.883656 1.4427346 -1.9127606 4288085770
6.5570898 0.55610609 -1.8110436 4288085770
11.728877 0.99342453 -1.8579047 4288085770
5.6661253 0.47370586 -1.8147221 4288085770
17.950642 1.492216 -1.8851413 4288085770
6.820086 0.56522429 -1.8091366 4288085770
7.0240779 0.58131576 -1.8102098 4288085770
6.6270933 0.54813766 -1.809067 4288085770
6.4381008 0.53205287 -1.806999 4288085770
7.2580681 0.59942043 -1.8162938 4288085770
6.2551098 0.51597106 -1.802933 4288085770
16.068701 1.328369 -1.9204634 4288085770
7.502058 0.61752963 -1.8203813 4288085770
6.1131139 0.50190687 -1.8088814 4288085770
7.7090535 0.63262308 -1.8134555 4288085770
5.9551215 0.48583606 -1.8078243 4288085770
7.9470472 0.64773011 -1.8105407 4288085770
5.821126 0.47177568 -1.8117757 4288085770
5.6911306 0.46071729 -1.8127288 4288085770
5.5571346 0.44965693 -1.8146806 4288085770
5.8321261 0.47178069 -1.8107795 4288085770
8.2410374 0.66686177 -1.8156458 4288085770
5.4371381 0.43860283 -1.8196372 4288085770
5.9901204 0.48285154 -1.8128359 4288085770
6.7260928 0.54218173 -1.8161006 4288085770
6.1371164 0.49391773 -1.8088888 4288085770
5.6691337 0.45570758 -1.8087204 4288085770
5.309144 0.42654535 -1.8185909 4288085770
17.552673 1.411037 -1.8989938 4288085770
8.5110302 0.6829834 -1.8117422 4288085770
5.1891479 0.41549149 -1.8195477 4288085770
6.2991128 0.50399065 -1.8069465 4288085770
5.0761523 0.40444064 -1.8215065 4288085770
5.5381403 0.44064882 -1.8096727 4288085770
6.471108 0.51506793 -1.8060081 4288085770
12.114888 0.96459854 -1.8560374 4288085770
8.8610182 0.70413995 -1.8198671 4288085770
5.7831302 0.4587585 -1.8137604 4288085770
4.9471602 0.39138308 -1.8154596 4288085770
6.6631017 0.52615392 -1.8080764 4288085770
5.4151459 0.42659351 -1.8106277 4288085770
9.1910095 0.72228825 -1.8199849 4288085770
6.8860936 0.53925371 -1.8141561 4288085770
16.749712 1.3086766 -1.9087019 4288085770
5.30515 0.41254389 -1.8145872 4288085770
9.6259918 0.74748266 -1.8361405 4288085770
7.1060872 0.55035233 -1.8172343 4288085770
5.190155 0.39849219 -1.8155451 4288085770
18.717659 1.4415615 -1.8944077 4288085770
7.322082 0.56144953 -1.8163112 4288085770
6.8900976 0.52725542 -1.8161559 4288085770
10.032982 0.76766527 -1.8392855 4288085770
5.0711627 0.38343897 -1.8125014 4288085770
7.5740752 0.57256234 -1.8214008 4288085770
5.9261322 0.44582251 -1.8188083 4288085770
18.464678 1.3934479 -1.9013146 4288085770
10.424974 0.78484166 -1.835425 4288085770
12.542898 0.93679154 -1.8551855 4288085770
7.8260694 0.5836755 -1.8214904 4288085770
4.9621696 0.36838999 -1.812461 4288085770
10.92396 0.8080653 -1.8446029 4288085770
17.44973 1.2819933 -1.8899468 4288085770
8.0750666 0.59178758 -1.8185786 4288085770
7.0711012 0.51233673 -1.818217 4288085770
11.442948 0.8302983 -1.8497878 4288085770
8.3530607 0.6019125 -1.8186771 4288085770
6.0401402 0.43087414 -1.8128458 4288085770
11.94794 0.84952557 -1.8459674 4288085770
19.441687 1.3818883 -1.8936589 4288085770
8.6430578 0.61004305 -1.8167799 4288085770
19.426687 1.3718816 -1.8976527 4288085770
13.034908 0.9100132 -1.8583562 4288085770
12.497932 0.86777329 -1.840163 4288085770
8.9990482 0.62120259 -1.8249062 4288085770
7.2631054 0.49842301 -1.8212825 4288085770
18.397736 1.2644203 -1.8912803 4288085770
13.179917 0.89207947 -1.8474058 4288085770
6.1711459 0.41593322 -1.8108895 4288085770
9.3580418 0.63136363 -1.8290336 4288085770
14.015896 0.92345405 -1.8667035 4288085770
9.7830324 0.64355409 -1.8401843 4288085770
13.622913 0.88527751 -1.8685614 4288085770
7.4601097 0.4835116 -1.8223498 4288085770
10.14603 0.64871776 -1.8343127 4288085770
