# .PCD v0.7 - Point Cloud Data file format
VERSION 0.7
FIELDS x y z rgb
SIZE 4 4 4 4
TYPE F F F U
COUNT 1 1 1 1
WIDTH 1126
HEIGHT 1
VIEWPOINT 0 0 0 1 0 0 0
POINTS 1126
DATA ascii
15.669304 -0.86107266 -1.8329449 4288085770
8.9920273 -0.52988225 -1.8043714 4288085770
3.8435669 -0.27606842 -1.8100541 4288085770
11.922966 -0.69558817 -1.7921703 4288085770
5.0359955 -0.34324425 -1.8075798 4288085770
8.5001373 -0.52627933 -1.8091993 4288085770
14.424202 -0.8341949 -1.8290958 4288085770
8.0152054 -0.5206632 -1.8089507 4288085770
13.308052 -0.80669409 -1.8229744 4288085770
3.689888 -0.29182565 -1.8126283 4288085770
4.8152771 -0.35934752 -1.8058152 4288085770
7.5642319 -0.51388073 -1.8083627 4288085770
12.320915 -0.78056133 -1.8165882 4288085770
11.263351 -0.72584558 -1.7907822 4288085770
7.1292343 -0.50603294 -1.8046136 4288085770
11.452812 -0.75683826 -1.8120399 4288085770
3.5171051 -0.30471116 -1.8063786 4288085770
6.7402649 -0.49794877 -1.8034103 4288085770
4.6145859 -0.37534142 -1.8068528 4288085770
10.657684 -0.73276401 -1.8057718 4288085770
6.3883057 -0.49067211 -1.804846 4288085770
9.9686203 -0.71114933 -1.8044696 4288085770
10.641693 -0.75292641 -1.7870073 4288085770
6.0773773 -0.48318315 -1.8088772 4288085770
2.4970932 -0.26471159 -1.8082614 4288085770
3.3864594 -0.32034895 -1.8107257 4288085770
9.3545761 -0.69116217 -1.8044353 4288085770
5.7633743 -0.4737249 -1.8089309 4288085770
4.4339142 -0.39122975 -1.8096933 4288085770
2.622261 -0.27910054 -1.8090856 4288085770
8.8135757 -0.67280316 -1.8076885 4288085770
5.4934464 -0.46603185 -1.8135579 4288085770
2.7363892 -0.29355982 -1.8060184 4288085770
8.3175354 -0.65422887 -1.8094983 4288085770
5.2053909 -0.45445842 -1.8103473 4288085770
16.026749 -1.15136 -1.8425686 4288085770
2.8715515 -0.3078953 -1.8077443 4288085770
10.113098 -0.78153479 -1.7873228 4288085770
4.9534225 -0.44568616 -1.8127933 4288085770
7.8565063 -0.63548017 -1.8119628 4288085770
3.2527847 -0.33601385 -1.8121021 4288085770
16.522865 -1.2120644 -1.8119221 4288085770
3.0147171 -0.32319206 -1.8093948 4288085770
4.7144241 -0.43585402 -1.8141072 4288085770
2.4915695 -0.28974116 -1.8124132 4288085770
7.3944016 -0.61576509 -1.8074336 4288085770
4.2502365 -0.40814602 -1.809567 4288085770
4.4753494 -0.42403722 -1.8114138 4288085770
3.1628723 -0.33846417 -1.8109965 4288085770
2.6166763 -0.30213255 -1.8122301 4288085770
4.2643509 -0.41406408 -1.8134515 4288085770
6.9833298 -0.59678501 -1.8064053 4288085770
2.7568054 -0.31343329 -1.8158953 4288085770
4.0593033 -0.40306959 -1.8134265 4288085770
3.3119812 -0.35274315 -1.8095846 4288085770
2.8748169 -0.32388631 -1.8087742 4288085770
3.8602448 -0.39205411 -1.8113425 4288085770
6.6072617 -0.57863069 -1.8060353 4288085770
3.0208969 -0.33517003 -1.8093808 4288085770
3.6751938 -0.38096163 -1.8111203 4288085770
3.1840363 -0.34835476 -1.8138268 4288085770
3.5111771 -0.37075046 -1.8146949 4288085770
3.4681015 -0.36798814 -1.8081076 4288085770
3.3430939 -0.35957864 -1.8133054 4288085770
6.2852554 -0.56218851 -1.8111408 4288085770
3.6492691 -0.38408655 -1.8123877 4288085770
14.990044 -1.165457 -1.8428292 4288085770
5.9692001 -0.54573339 -1.812187 4288085770
3.1261063 -0.35064453 -1.813406 4288085770
3.8083267 -0.39832821 -1.8078775 4288085770
5.6490784 -0.52731824 -1.8082654 4288085770
4.0125046 -0.41531014 -1.8129349 4288085770
5.3720169 -0.51067317 -1.8089273 4288085770
4.1975555 -0.42942059 -1.8091686 4288085770
9.6415482 -0.81085449 -1.7900794 4288085770
5.1149521 -0.49492639 -1.8103957 4288085770
4.8538284 -0.47721493 -1.8078964 4288085770
4.4247055 -0.44729435 -1.8130031 4288085770
4.629776 -0.46230304 -1.8100433 4288085770
4.0835495 -0.42397976 -1.8092694 4288085770
15.462151 -1.228291 -1.809427 4288085770
16.550125 -1.3378623 -1.8371503 4288085770
14.073364 -1.1769537 -1.8458979 4288085770
2.9934235 -0.36531758 -1.8117688 4288085770
3.9288864 -0.43974257 -1.8118529 4288085770
9.2019806 -0.83802229 -1.7915127 4288085770
14.594597 -1.2515311 -1.8170588 4288085770
2.8687134 -0.3789511 -1.8100488 4288085770
13.176537 -1.1803854 -1.8407388 4288085770
15.739647 -1.3888838 -1.8313286 4288085770
3.7681961 -0.45455563 -1.8094921 4288085770
8.812439 -0.86693567 -1.7954605 4288085770
13.782982 -1.2725196 -1.8191304 4288085770
2.7670898 -0.39444903 -1.8141093 4288085770
12.360725 -1.1814148 -1.8367727 4288085770
3.6345596 -0.47121316 -1.8128722 4288085770
15.043236 -1.4413224 -1.8313899 4288085770
8.4659348 -0.89563191 -1.8009839 4288085770
13.007278 -1.2883575 -1.8148277 4288085770
11.616905 -1.18109 -1.8330927 4288085770
2.6614532 -0.40997934 -1.8152094 4288085770
3.4918976 -0.48693585 -1.8113375 4288085770
8.1223831 -0.92333019 -1.802474 4288085770
10.918045 -1.1765497 -1.8279533 4288085770
14.461906 -1.4981784 -1.8363361 4288085770
12.323647 -1.3077286 -1.8146329 4288085770
2.5558014 -0.42451373 -1.8153055 4288085770
3.3632431 -0.5025816 -1.8116643 4288085770
10.3022 -1.1725931 -1.8249991 4288085770
7.8018417 -0.94991678 -1.8037331 4288085770
11.750107 -1.3315408 -1.8193722 4288085770
3.245636 -0.5191626 -1.8148866 4288085770
13.947601 -1.5557047 -1.841625 4288085770
9.729393 -1.1684197 -1.8236206 4288085770
16.081284 -1.823264 -1.8466761 4288085770
7.4912796 -0.97546357 -1.8028901 4288085770
3.1219864 -0.53479344 -1.813164 4288085770
11.142395 -1.3465714 -1.8114123 4288085770
9.2376328 -1.1658232 -1.8284507 4288085770
13.437233 -1.6072235 -1.8438513 4288085770
15.05938 -1.789246 -1.8556013 4288085770
3.009346 -0.55036283 -1.813333 4288085770
8.775856 -1.1620845 -1.8319809 4288085770
7.1916733 -0.99896508 -1.7999303 4288085770
10.648827 -1.3690032 -1.8133583 4288085770
14.13147 -1.7547662 -1.8645997 4288085770
13.011917 -1.662313 -1.8492546 4288085770
8.3500977 -1.1581625 -1.8371563 4288085770
2.9037323 -0.56689417 -1.8144364 4288085770
13.20343 -1.7133316 -1.862571 4288085770
6.9231339 -1.0243042 -1.7996726 4288085770
10.20829 -1.3931696 -1.8167894 4288085770
7.9232407 -1.1492697 -1.8363223 4288085770
12.473572 -1.685873 -1.8736475 4288085770
2.7991028 -0.58242941 -1.8135264 4288085770
12.681732 -1.7249043 -1.8627515 4288085770
7.4993439 -1.1383742 -1.8324511 4288085770
6.6836014 -1.0494937 -1.8011289 4288085770
9.8348236 -1.420994 -1.823575 4288085770
11.724594 -1.6505431 -1.8758805 4288085770
16.660538 -2.2364957 -1.8546011 4288085770
7.0853806 -1.1234457 -1.824466 4288085770
2.7034836 -0.59791243 -1.8145275 4288085770
10.926392 -1.6025208 -1.861547 4288085770
12.31144 -1.7797228 -1.8686121 4288085770
6.4510574 -1.0746582 -1.8005159 4288085770
9.4953766 -1.4496458 -1.8320289 4288085770
6.7265015 -1.1122217 -1.8229537 4288085770
15.827942 -2.2455759 -1.8598328 4288085770
10.251289 -1.5628632 -1.8550353 4288085770
2.6189117 -0.61533457 -1.8174274 4288085770
6.3886032 -1.0998946 -1.8212304 4288085770
9.6923523 -1.5336015 -1.8574214 4288085770
11.945068 -1.829542 -1.8694141 4288085770
9.205986 -1.4820379 -1.8440049 4288085770
6.2565994 -1.1026134 -1.8055394 4288085770
15.070366 -2.2542827 -1.8663242 4288085770
6.0977859 -1.0913149 -1.8250589 4288085770
2.5353394 -0.63175189 -1.8203137 4288085770
9.1924438 -1.5070361 -1.8632374 4288085770
5.8069077 -1.0797466 -1.825876 4288085770
8.7555847 -1.4841434 -1.8734474 4282675967
8.9326248 -1.5163534 -1.8558304 4288085770
6.0651169 -1.130563 -1.8085332 4288085770
11.614746 -1.8821748 -1.8728724 4288085770
14.407837 -2.2655075 -1.8768902 4288085770
5.5450668 -1.0700247 -1.8294146 4288085770
8.3186493 -1.4572753 -1.8776422 4282675967
5.2922058 -1.0592674 -1.8308609 4288085770
7.8495789 -1.4236075 -1.8711259 4288085770
8.6722031 -1.5476171 -1.864517 4288085770
5.891655 -1.1584165 -1.8133495 4288085770
13.753258 -2.2707009 -1.8853538 4288085770
11.259308 -1.9269614 -1.8685467 4288085770
5.0443039 -1.0464892 -1.83125 4288085770
7.2981949 -1.3734232 -1.8443537 4288085770
4.8043823 -1.0326759 -1.8305566 4288085770
6.8570251 -1.3366477 -1.83055 4288085770
8.4197998 -1.5788428 -1.8731241 4288085770
13.059494 -2.260124 -1.8841405 4288085770
5.7051392 -1.1833586 -1.8122826 4288085770
4.5814667 -1.0197756 -1.8306994 4288085770
6.4909897 -1.307462 -1.8270373 4288085770
10.916855 -1.969689 -1.8630848 4288085770
4.3635406 -1.0058548 -1.8297892 4288085770
6.1720123 -1.2830275 -1.8280802 4288085770
12.455811 -2.2550852 -1.8880627 4288085770
4.1656342 -0.99382895 -1.8306892 4288085770
5.8850555 -1.2594281 -1.8308115 4288085770
8.1543045 -1.6061605 -1.8748441 4288085770
5.5476608 -1.2101388 -1.8159373 4288085770
3.9536438 -0.97789532 -1.8257122 4288085770
5.6050644 -1.2358031 -1.8314738 4288085770
10.638489 -2.0180814 -1.8630149 4288085770
3.7877579 -0.96669573 -1.8303006 4288085770
5.3360825 -1.2121249 -1.8320279 4288085770
16.996796 -3.0511177 -1.8405001 4288085770
11.844055 -2.2431014 -1.8880365 4288085770
7.85569 -1.6246709 -1.868855 4288085770
3.5997696 -0.95063597 -1.8270869 4288085770
5.3982086 -1.2378808 -1.8195167 4288085770
5.085083 -1.1893628 -1.8314083 4288085770
3.4468842 -0.93937355 -1.8315473 4288085770
4.8380508 -1.1645845 -1.8297417 4288085770
10.356102 -2.0645018 -1.8609765 4288085770
11.305344 -2.2337458 -1.8913019 4282675967
4.6190796 -1.1436539 -1.8318143 4288085770
3.2809143 -0.92520255 -1.8291245 4288085770
16.466438 -3.0987351 -1.8429081 4288085770
7.5590439 -1.6411842 -1.8598387 4288085770
4.407074 -1.1216931 -1.832814 4288085770
3.1269455 -0.91096443 -1.8285835 4288085770
5.2647629 -1.2665406 -1.8239422 4288085770
4.1850128 -1.0978054 -1.8279052 4288085770
2.9839935 -0.89766455 -1.8299377 4288085770
10.697388 -2.2057819 -1.8811746 4288085770
3.9960022 -1.0767318 -1.8286822 4288085770
2.8400116 -0.88338161 -1.8282983 4288085770
10.126762 -2.115648 -1.8624346 4288085770
3.8150024 -1.0566198 -1.8293843 4288085770
2.7110672 -0.87100905 -1.8305182 4288085770
15.954018 -3.1422813 -1.8411233 4288085770
7.2513351 -1.6537719 -1.8459153 4288085770
3.641983 -1.0364683 -1.8300073 4288085770
5.1323318 -1.2952008 -1.8273578 4288085770
2.5830917 -0.85764396 -1.829725 4288085770
3.4739532 -1.0163002 -1.8285816 4288085770
10.148506 -2.1815155 -1.8744807 4288085770
3.315918 -0.99607533 -1.829057 4288085770
16.672379 -3.3266964 -1.863781 4288085770
3.160881 -0.97684401 -1.8275068 4288085770
9.9104462 -2.1667316 -1.8637645 4288085770
3.0228653 -0.9585126 -1.829793 4288085770
2.8747787 -0.93725413 -1.8261664 4288085770
6.9997101 -1.6720628 -1.8374627 4288085770
15.529716 -3.1953754 -1.8445094 4288085770
5.0068665 -1.3228304 -1.8297007 4288085770
2.7367096 -0.91794348 -1.8234489 4288085770
9.7188034 -2.1716125 -1.8806708 4288085770
2.6166687 -0.90052795 -1.8245616 4288085770
15.633202 -3.2408032 -1.8626707 4288085770
9.7121277 -2.2197275 -1.8649249 4288085770
6.8142471 -1.6989838 -1.8403935 4288085770
9.3121033 -2.1605978 -1.8866303 4288085770
14.74514 -3.1681516 -1.8661256 4288085770
4.9124985 -1.3552809 -1.8387566 4288085770
15.118362 -3.2474189 -1.844763 4288085770
8.9304123 -2.1504581 -1.893347 4288085770
13.820915 -3.0817115 -1.8608811 4288085770
9.5328064 -2.2716267 -1.866894 4288085770
6.6027145 -1.7220609 -1.8365655 4288085770
4.7980728 -1.383854 -1.8419945 4288085770
14.748047 -3.301255 -1.8466203 4288085770
8.5677261 -2.139221 -1.9008725 4282675967
13.044815 -3.0115273 -1.8602431 4288085770
9.3424683 -2.3215923 -1.8659637 4288085770
6.4131851 -1.7460266 -1.8335242 4288085770
4.6996613 -1.4143411 -1.8470826 4288085770
14.398712 -3.3549972 -1.8462706 4288085770
12.358826 -2.9508815 -1.8647561 4288085770
8.191925 -2.1200709 -1.9024954 4282675967
6.258728 -1.7748021 -1.8351572 4288085770
11.685753 -2.8851886 -1.8651214 4288085770
9.1831512 -2.3743947 -1.8677394 4288085770
7.8050308 -2.0949986 -1.8982036 4282675967
4.5791855 -1.4399598 -1.8463683 4288085770
14.106476 -3.417443 -1.8503933 4288085770
11.054695 -2.8222959 -1.8640845 4288085770
7.3759537 -2.0551791 -1.8822684 4288085770
6.1042709 -1.8025818 -1.8357861 4288085770
9.0228348 -2.4262106 -1.8675213 4288085770
4.4847641 -1.4694358 -1.8494129 4288085770
13.804131 -3.4719567 -1.8495841 4288085770
10.47364 -2.7621553 -1.8635659 4288085770
6.9618683 -2.0162868 -1.8661892 4288085770
5.9648514 -1.832281 -1.8382747 4288085770
9.9326172 -2.7048168 -1.8636646 4288085770
8.8945541 -2.4828587 -1.8700066 4288085770
4.4064026 -1.5018178 -1.8563111 4288085770
6.6359787 -1.9909133 -1.8622959 4288085770
13.553902 -3.5372026 -1.8523045 4288085770
9.4616699 -2.6571171 -1.8681116 4288085770
6.3160324 -1.9625183 -1.8563321 4288085770
5.8414307 -1.8628976 -1.8416095 4288085770
4.2627792 -1.5185935 -1.844789 4288085770
8.7562408 -2.5365679 -1.8695791 4288085770
9.0137024 -2.6083055 -1.872328 4288085770
6.0311584 -1.9389328 -1.855042 4288085770
13.318649 -3.6013789 -1.8538733 4288085770
5.7310333 -1.8964477 -1.8458276 4288085770
8.6499176 -2.5760493 -1.8847818 4288085770
4.1733246 -1.5460538 -1.8457768 4288085770
5.7723312 -1.9192133 -1.8555112 4288085770
8.6329498 -2.5922 -1.8700113 4288085770
13.109436 -3.6704261 -1.856205 4288085770
8.2950974 -2.5417531 -1.8961389 4288085770
5.5475769 -1.9033028 -1.8616602 4288085770
5.6085892 -1.9260725 -1.8461485 4288085770
4.1250153 -1.582278 -1.8553944 4288085770
7.8880386 -2.4897699 -1.8929398 4288085770
8.5276871 -2.6497364 -1.8722742 4288085770
5.3307953 -1.8873576 -1.8667307 4288085770
12.928238 -3.7423284 -1.8602722 4288085770
7.4668808 -2.4308796 -1.8838515 4288085770
5.5041809 -1.9585973 -1.8493037 4288085770
5.1410675 -1.8752649 -1.8755503 4288085770
4.0094452 -1.6029018 -1.8476119 4288085770
8.4294434 -2.7102399 -1.8744793 4288085770
7.0466614 -2.3680041 -1.8697383 4288085770
4.9282303 -1.8553119 -1.8775659 4288085770
12.744026 -3.8132582 -1.8613653 4288085770
5.4148331 -1.995042 -1.8543262 4288085770
6.6685257 -2.3129003 -1.8612418 4288085770
3.9240036 -1.6303518 -1.8465598 4288085770
4.7304306 -1.8372736 -1.882441 4288085770
8.2980576 -2.7599354 -1.8689675 4288085770
6.363533 -2.2704041 -1.8610754 4288085770
12.575821 -3.8851097 -1.8623044 4288085770
4.5145035 -1.8123596 -1.8784673 4288085770
5.3244476 -2.0284948 -1.8583472 4288085770
6.0845871 -2.2337747 -1.8626761 4288085770
3.8495712 -1.6587397 -1.847403 4288085770
4.3186111 -1.7893311 -1.8783038 4288085770
8.1857376 -2.8135264 -1.8662839 4288085770
5.8125916 -2.1941133 -1.8631959 4288085770
12.431633 -3.9608417 -1.8640227 4288085770
4.1086273 -1.7613993 -1.8712592 4288085770
5.206955 -2.0551121 -1.8546076 4288085770
5.5686874 -2.1613011 -1.8674669 4288085770
3.7701111 -1.68516 -1.8462884 4288085770
3.9287491 -1.7402936 -1.8709457 4288085770
8.0422668 -2.8563008 -1.8558638 4288085770
5.3327408 -2.1264567 -1.8696516 4288085770
12.305458 -4.039484 -1.8655751 4288085770
5.1075287 -2.0856259 -1.8547056 4288085770
3.7397614 -1.713255 -1.8646982 4288085770
5.1098022 -2.0935457 -1.8727155 4288085770
3.6986847 -1.7135379 -1.8461022 4288085770
3.5778732 -1.6920564 -1.8652072 4288085770
7.947937 -2.9108043 -1.8530066 4288085770
4.8968582 -2.0615895 -1.8746848 4288085770
12.190315 -4.1210713 -1.8680308 4288085770
5.0060577 -2.1141617 -1.8518159 4288085770
4.6688232 -2.0227263 -1.8717752 4288085770
3.4039078 -1.6669409 -1.8598194 4288085770
3.633255 -1.7428868 -1.845861 4288085770
4.4608231 -1.9877573 -1.8706837 4288085770
3.2489853 -1.6447164 -1.8582556 4288085770
7.8626175 -2.9672642 -1.8500686 4288085770
12.072121 -4.1996846 -1.8675048 4288085770
4.2849197 -1.9606086 -1.8753076 4288085770
4.9527588 -2.1554196 -1.859503 4288085770
3.1030655 -1.6234475 -1.8566074 4288085770
3.5658035 -1.7702491 -1.8446317 4288085770
4.0828552 -1.9236268 -1.8701496 4288085770
2.9721909 -1.6050894 -1.8588226 4288085770
17.262733 -5.7941113 -1.695704 4293729569
7.7983627 -3.0286057 -1.8509429 4288085770
3.9138947 -1.8944556 -1.8716969 4288085770
11.976982 -4.2841778 -1.8687751 4288085770
2.8453064 -1.5867114 -1.8609984 4288085770
4.8442307 -2.1800053 -1.8526669 4288085770
3.7368774 -1.8613394 -1.869308 4288085770
3.5104065 -1.8015413 -1.8462992 4288085770
2.7143631 -1.565369 -1.8592024 4288085770
16.408524 -5.6753044 -1.6966434 4293729569
3.561821 -1.8272215 -1.8648956 4288085770
7.726059 -3.0880032 -1.8478885 4288085770
2.5914459 -1.5459839 -1.858335 4288085770
3.4017944 -1.7960221 -1.8623466 4288085770
11.89386 -4.3716135 -1.8699389 4288085770
4.7527618 -2.2084968 -1.8486786 4288085770
3.2427368 -1.7638259 -1.8577845 4288085770
3.4529953 -1.830847 -1.8469791 4288085770
15.657425 -5.5749774 -1.7016404 4293729569
3.105751 -1.7364975 -1.8590245 4288085770
7.6878662 -3.1572151 -1.8495374 4288085770
2.9807892 -1.7121071 -1.8611579 4288085770
11.824722 -4.4609799 -1.8709724 4288085770
4.6693192 -2.238941 -1.8466191 4288085770
2.8467712 -1.6837765 -1.8593645 4288085770
14.870163 -5.4538574 -1.6989112 4293729569
3.3935547 -1.8591708 -1.845675 4288085770
2.7107162 -1.6544678 -1.8545873 4288085770
7.639595 -3.2204831 -1.849262 4288085770
2.5987549 -1.6310092 -1.8575964 4288085770
11.760605 -4.5523276 -1.8709648 4288085770
4.5788116 -2.2654355 -1.8406134 4288085770
2.4837036 -1.6045847 -1.8556237 4288085770
14.340446 -5.4023919 -1.7179232 4293729569
3.347168 -1.8914198 -1.8472579 4288085770
7.6104126 -3.2926512 -1.8508341 4288085770
4.5374908 -2.306643 -1.8461823 4288085770
11.713516 -4.6485882 -1.871809 4288085770
13.801674 -5.3419824 -1.7339888 4293729569
3.2987366 -1.9216859 -1.846853 4288085770
7.5691376 -3.3578889 -1.8494978 4288085770
4.448967 -2.3311319 -1.8391492 4288085770
13.258789 -5.2716131 -1.7450554 4293729569
11.699516 -4.7566767 -1.8753746 4288085770
3.2573471 -1.9539095 -1.848387 4288085770
7.5539551 -3.4329886 -1.8509436 4288085770
12.82917 -5.2326455 -1.7671316 4293729569
4.3935471 -2.3664317 -1.8388333 4288085770
11.700539 -4.8686881 -1.8798077 4288085770
3.2149429 -1.9851426 -1.8489268 4288085770
12.421562 -5.1945672 -1.7899947 4293729569
7.5518265 -3.5130138 -1.8552811 4288085770
4.3301086 -2.3977787 -1.8365808 4288085770
11.734665 -4.9935274 -1.8869667 4288085770
3.1785355 -2.0173376 -1.8514113 4288085770
12.090103 -5.1770954 -1.8181901 4293729569
7.5416412 -3.5890892 -1.8566818 4288085770
4.2656479 -2.4291389 -1.8323383 4288085770
11.716576 -5.0976553 -1.8855565 4288085770
3.1331024 -2.0475981 -1.8489771 4288085770
11.762634 -5.1566043 -1.8463345 4288085770
7.5404892 -3.669121 -1.8580096 4288085770
4.223259 -2.4663672 -1.8339019 4288085770
11.524948 -5.1397238 -1.8606081 4288085770
11.362885 -5.1035099 -1.8630605 4288085770
3.0936737 -2.0778201 -1.8484836 4288085770
7.5413208 -3.7491431 -1.8593178 4288085770
4.1929016 -2.5075331 -1.8363628 4288085770
11.215958 -5.1384296 -1.8196425 4293729569
10.883812 -5.01686 -1.8654335 4288085770
3.0502243 -2.10707 -1.8460259 4288085770
12.521553 -5.6878824 -1.3809412 4293729569
4.1535187 -2.5457516 -1.8369009 4288085770
7.5481873 -3.8341367 -1.8605864 4288085770
10.386658 -4.9163089 -1.8649294 4288085770
10.99118 -5.1626863 -1.7879498 4293729569
12.393715 -5.7332811 -1.4423831 4293729569
3.0198288 -2.1412451 -1.8464594 4288085770
9.9064407 -4.8146915 -1.8602543 4288085770
4.1251526 -2.5869074 -1.8393424 4288085770
7.5620499 -3.9200959 -1.8617899 4288085770
10.860672 -5.2194386 -1.767458 4293729569
12.33905 -5.803297 -1.5102026 4293729569
12.341713 -5.8428922 -0.13725618 4293729569
2.9793549 -2.1694837 -1.8429685 4288085770
9.4652939 -4.721868 -1.8592291 4288085770
12.198509 -5.8341436 -0.0046239495 4293729569
4.0897598 -2.6261106 -1.8388453 4288085770
7.5939789 -4.0139556 -1.8658473 4288085770
12.222221 -5.8486381 -1.5725362 4293729569
12.124756 -5.8215404 -0.73234111 4293729569
10.765259 -5.2890091 -1.7496724 4293729569
12.257881 -5.9221773 -0.17539814 4293729569
9.0431595 -4.6309576 -1.8570244 4288085770
2.9539566 -2.2036297 -1.8443527 4288085770
11.974937 -5.8376775 -1.6189301 4293729569
12.105881 -5.9077849 0.034174204 4293729569
4.0473099 -2.6603544 -1.8363976 4288085770
12.086182 -5.9129238 -0.69208103 4293729569
7.6198578 -4.1058564 -1.8669562 4288085770
10.661797 -5.3536258 -1.7299459 4293729569
8.6470261 -4.5439191 -1.8545792 4288085770
12.250214 -6.0320821 -0.21591172 4293729569
2.9225159 -2.2348168 -1.8427846 4288085770
11.649376 -5.7911358 -1.6559532 4293729569
12.076324 -6.0051289 0.075499475 4293729569
4.023941 -2.7024949 -1.8367939 4288085770
12.091728 -6.0240903 -0.65246511 4293729569
7.6366882 -4.1938124 -1.8651388 4288085770
8.2608795 -4.4548316 -1.8520274 4288085770
10.73288 -5.4873052 -1.7317762 4293729569
11.267601 -5.7179017 -1.6844232 4293729569
2.8950882 -2.2679801 -1.842185 4288085770
7.8957443 -4.3696475 -1.8482842 4288085770
4.001564 -2.7446253 -1.8381805 4288085770
7.6756134 -4.2916465 -1.8671432 4288085770
10.90683 -5.6475649 -1.712698 4293729569
10.807961 -5.6229739 -1.731575 4293729569
2.8716888 -2.3021202 -1.8425498 4288085770
7.5947952 -4.3061109 -1.8539953 4288085770
10.367393 -5.4961996 -1.715409 4293729569
3.9851913 -2.7887266 -1.8395157 4288085770
7.7094803 -4.3865123 -1.8671856 4288085770
10.876015 -5.7576795 -1.7304392 4293729569
7.2706985 -4.2287183 -1.8518789 4288085770
9.9713669 -5.4000812 -1.7319281 4293729569
2.84021 -2.3323152 -1.8389781 4288085770
3.9658279 -2.8318431 -1.8408766 4288085770
7.7534027 -4.4873247 -1.8681529 4288085770
6.9786911 -4.1611547 -1.8534858 4288085770
10.991211 -5.9141464 -1.731926 4293729569
9.5411682 -5.2841597 -1.7407043 4293729569
2.8298416 -2.3713837 -1.8412342 4288085770
3.955452 -2.876915 -1.8421566 4288085770
6.6796112 -4.0866361 -1.8521345 4288085770
9.1681137 -5.1869416 -1.7539926 4293729569
7.791275 -4.5851746 -1.8671677 4288085770
10.979958 -6.0152922 -1.7174373 4293729569
2.8023605 -2.4015546 -1.8386235 4288085770
8.827095 -5.0995593 -1.7690043 4293729569
6.4236526 -4.0268888 -1.8554177 4288085770
3.9300079 -2.9160757 -1.8395617 4288085770
7.8913956 -4.7126837 -1.8756881 4288085770
11.07206 -6.1638899 -1.7141204 4293729569
8.6325836 -5.0733876 -1.8028176 4293729569
6.1646347 -3.9631681 -1.8557148 4288085770
2.7959976 -2.4415994 -1.8418443 4288085770
3.9196243 -2.9611514 -1.8398421 4288085770
8.4771729 -5.0620027 -1.8423047 4288085770
8.0045471 -4.8471251 -1.885108 4288085770
5.9417191 -3.910248 -1.8616996 4288085770
11.258453 -6.354991 -1.7200441 4293729569
2.7785492 -2.4757168 -1.8401504 4288085770
8.2333908 -5.0071168 -1.8644884 4288085770
3.9243164 -3.0131383 -1.8440018 4288085770
5.708725 -3.8513968 -1.8627598 4288085770
8.0835495 -4.9647593 -1.8877971 4288085770
11.416748 -6.5372491 -1.7212095 4293729569
7.8991928 -4.906744 -1.868381 4288085770
2.7611008 -2.509835 -1.8384566 4288085770
5.4837112 -3.79251 -1.8627415 4288085770
3.9128952 -3.0562222 -1.8432846 4288085770
7.5227585 -4.7806153 -1.8625865 4288085770
8.0450745 -5.031055 -1.868438 4288085770
11.554955 -6.7096195 -1.7185333 4293729569
5.2606659 -3.7306173 -1.8616915 4288085770
2.7597122 -2.5508585 -1.8406322 4288085770
3.9245834 -3.1111746 -1.8473871 4288085770
7.1603165 -4.6584268 -1.8546696 4288085770
5.0315781 -3.6637661 -1.8576815 4288085770
7.859993 -5.0251637 -1.8242347 4293729569
6.8470306 -4.5539718 -1.8533397 4288085770
2.7613449 -2.5938637 -1.8437862 4288085770
3.924202 -3.1602013 -1.847585 4288085770
4.8305359 -3.6057656 -1.8564303 4288085770
6.5668259 -4.4633489 -1.8537388 4288085770
7.7019806 -5.0291243 -1.7838039 4293729569
4.6455536 -3.5546801 -1.8570485 4288085770
6.3106613 -4.3795967 -1.8569286 4288085770
3.9308243 -3.2101846 -1.8497179 4288085770
2.7518997 -2.6299379 -1.8430219 4288085770
7.6313095 -5.0726023 -1.7576711 4293729569
4.4545059 -3.4976351 -1.8547029 4288085770
6.0745544 -4.302743 -1.8609486 4288085770
3.9404602 -3.2631578 -1.8508329 4288085770
2.7454529 -2.6679974 -1.8422356 4288085770
5.8484573 -4.2288365 -1.8658814 4288085770
4.2624054 -3.4366028 -1.8503513 4288085770
7.5646439 -5.1170602 -1.7315028 4293729569
5.6072311 -4.1440315 -1.8639197 4288085770
4.1034393 -3.3903818 -1.8527331 4288085770
3.9460754 -3.3141549 -1.8509798 4288085770
2.7500534 -2.7099862 -1.8453565 4288085770
5.3900452 -4.0671005 -1.8637526 4288085770
7.5260391 -5.1733708 -1.7081053 4293729569
3.9414139 -3.3401914 -1.8511288 4288085770
5.173851 -3.9891691 -1.8625715 4288085770
3.9546738 -3.3651364 -1.8510971 4288085770
2.7395782 -2.7460735 -1.8426023 4288085770
3.7813644 -3.2879903 -1.8494968 4288085770
4.9676514 -3.9131892 -1.8613 4288085770
7.5778427 -5.2771797 -1.7000072 4293729569
3.616272 -3.2328303 -1.8439028 4288085770
3.9723129 -3.4210658 -1.8531454 4288085770
4.7654343 -3.8371975 -1.8579888 4288085770
2.7481613 -2.7890463 -1.8446879 4288085770
3.4893188 -3.1934485 -1.8469963 4288085770
4.5852737 -3.7700863 -1.8574963 4288085770
7.6155472 -5.3730721 -1.6880167 4293729569
3.9929428 -3.4769802 -1.8551641 4288085770
4.4131088 -3.7039359 -1.8569286 4288085770
3.3573303 -3.1500986 -1.8481238 4288085770
2.7557449 -2.833029 -1.8457873 4288085770
4.243927 -3.6377745 -1.8553314 4288085770
7.8410339 -5.5689368 -1.7045758 4293729569
3.2283173 -3.1077428 -1.8472254 4288085770
4.0205994 -3.5378566 -1.8581333 4288085770
4.0807419 -3.5725884 -1.8526788 4288085770
2.7623062 -2.875015 -1.8468893 4288085770
3.098259 -3.0613945 -1.8453214 4288085770
3.9265594 -3.5103538 -1.8509495 4288085770
8.0785522 -5.7727432 -1.7210484 4293729569
3.778389 -3.4500899 -1.849169 4288085770
4.0432053 -3.594769 -1.8581369 4288085770
2.9782486 -3.0199943 -1.8443384 4288085770
2.7668457 -2.9160197 -1.8460069 4288085770
3.6412201 -3.392772 -1.8472915 4288085770
2.8662338 -2.9795456 -1.8452804 4288085770
3.505043 -3.3354535 -1.8444045 4288085770
8.0790482 -5.8498549 -1.6993492 4293729569
4.0648041 -3.6516857 -1.85815 4288085770
3.3838959 -3.2830448 -1.8453889 4288085770
2.7652664 -2.94504 -1.8471375 4288085770
2.7793961 -2.959976 -1.8470576 4288085770
3.2798386 -3.2405415 -1.8492448 4288085770
2.6441422 -2.8976636 -1.8411412 4288085770
3.1586227 -3.1851525 -1.8452179 4288085770
4.0934143 -3.7105644 -1.8591022 4288085770
8.467186 -6.1418495 -1.7356904 4293729569
3.0574951 -3.1396456 -1.8460331 4288085770
2.5652313 -2.8710296 -1.8478124 4288085770
2.9523392 -3.0921669 -1.8448794 4288085770
2.8010178 -3.009877 -1.8510427 4288085770
2.8471298 -3.0416946 -1.8417149 4288085770
1.8924713 -2.509346 -1.8369987 4288085770
2.4490738 -2.8226318 -1.8407633 4288085770
2.7489319 -2.9941843 -1.8394926 4288085770
1.9336624 -2.5391598 -1.8347113 4288085770
4.1340561 -3.776376 -1.8619635 4288085770
2.668808 -2.9545696 -1.8411241 4288085770
1.9889069 -2.5748889 -1.8363094 4288085770
8.7900162 -6.4002109 -1.7595406 4293729569
2.5896759 -2.9159501 -1.8427498 4288085770
2.0360718 -2.6056721 -1.8339672 4288085770
2.355011 -2.7851024 -1.83954 4288085770
2.5084991 -2.8733475 -1.8423796 4288085770
2.0892639 -2.6384177 -1.8335736 4288085770
2.4323273 -2.8337207 -1.8419721 4288085770
2.1545181 -2.6780887 -1.8370891 4288085770
2.2056274 -2.7078593 -1.8327036 4288085770
2.3480682 -2.788152 -1.8366206 4288085770
2.290947 -2.7564156 -1.8400569 4288085770
2.8085175 -3.0508697 -1.8491313 4288085770
2.2720184 -2.7535076 -1.8412318 4288085770
4.176712 -3.843178 -1.864809 4288085770
2.1799164 -2.7139754 -1.8379812 4288085770
9.0013657 -6.598187 -1.7652473 4293729569
2.1069412 -2.6853232 -1.8415859 4288085770
2.8280792 -3.0987871 -1.8511291 4288085770
2.033905 -2.6546822 -1.8421831 4288085770
4.2133179 -3.9070213 -1.8647025 4288085770
1.9598465 -2.622045 -1.8427825 4288085770
9.2317734 -6.810071 -1.770822 4293729569
1.8927994 -2.5923743 -1.8433247 4288085770
2.835556 -3.1387835 -1.8482139 4288085770
1.8186874 -2.5577488 -1.8409164 4288085770
4.2468948 -3.9668775 -1.86461 4288085770
2.8641434 -3.1906526 -1.8511386 4288085770
4.3115845 -4.044559 -1.8702819 4288085770
2.9017487 -3.246469 -1.8559904 4288085770
4.3591843 -4.1123476 -1.8700829 4288085770
6.6596222 -5.4811907 -1.1358321 4293729569
6.5524063 -5.4520049 -1.3117824 4293729569
2.9202194 -3.2904019 -1.8549829 4288085770
6.5645294 -5.4764271 -0.70472586 4293729569
4.4107819 -4.1811118 -1.8708484 4288085770
6.5521393 -5.4695992 -1.1678469 4293729569
6.5001678 -5.4836025 -0.74239069 4293729569
6.4623642 -5.4566102 -1.2756857 4293729569
4.4653702 -4.2518649 -1.8705921 4288085770
6.4642868 -5.4667077 -0.75967789 4293729569
2.9477463 -3.3402829 -1.8559101 4288085770
6.4918137 -5.48276 -1.2044957 4293729569
6.4558563 -5.4996719 -0.78189367 4293729569
4.5360184 -4.3315277 -1.8732135 4288085770
6.4485397 -5.5048304 -1.2430122 4293729569
6.3873291 -5.4681425 -1.2394688 4293729569
2.9792633 -3.3921483 -1.8558059 4288085770
6.3842621 -5.4742513 -0.72649455 4293729569
6.4265823 -5.5246687 -0.82128394 4293729569
4.5976105 -4.405242 -1.8739004 4288085770
6.4102859 -5.528872 -1.2824873 4293729569
3.0137863 -3.44399 -1.857672 4288085770
6.3564758 -5.5034323 -1.2099118 4293729569
6.3564224 -5.5115271 -0.69691581 4293729569
6.4053345 -5.5526175 -0.86260712 4293729569
4.6742477 -4.4868755 -1.8764708 4288085770
6.3971024 -5.565784 -1.3237667 4293729569
3.0533142 -3.498807 -1.8595011 4288085770
6.3296204 -5.5397015 -1.1803194 4293729569
6.3940964 -5.5845184 -0.90384746 4293729569
6.3175049 -5.5398631 -0.66541058 4293729569
4.7619171 -4.5744505 -1.8799565 4288085770
6.3879471 -5.6036639 -1.3680105 4293729569
3.0998764 -3.5575817 -1.8632765 4288085770
6.3888779 -5.6193857 -0.94604027 4293729569
6.3057632 -5.5769572 -1.1507015 4293729569
6.2966537 -5.5780997 -0.63676685 4293729569
4.8726959 -4.6758933 -1.8882699 4288085770
6.3787766 -5.6405478 -1.4112505 4293729569
6.3856354 -5.6532426 -0.98820961 4293729569
3.1333237 -3.6074433 -1.8611453 4288085770
4.9794235 -4.7743626 -1.8946111 4288085770
6.3019485 -5.6251111 -1.1219295 4293729569
6.295845 -5.6272426 -0.60696936 4293729569
6.3984756 -5.6970086 -1.0332603 4293729569
6.3776093 -5.6803875 -1.4554235 4293729569
3.178833 -3.6642301 -1.8629234 4288085770
5.0881348 -4.8738313 -1.898937 4288085770
6.4444046 -5.7576032 -1.0810523 4293729569
6.3162155 -5.6821651 -1.0960152 4293729569
6.3050537 -5.6813288 -0.57909274 4293729569
6.3804398 -5.7202039 -1.5005569 4293729569
5.1666489 -4.9524765 -1.8954768 4288085770
3.2243118 -3.7200243 -1.8626974 4288085770
6.4371185 -5.7844734 -1.1242337 4293729569
6.4104233 -5.7778645 -1.5514946 4293729569
5.111412 -4.9449 -1.8599889 4288085770
6.3897095 -5.7759047 -1.0766641 4293729569
6.3533859 -5.7582264 -0.55092186 4293729569
3.2647171 -3.770854 -1.8595018 4288085770
5.074234 -4.9462237 -1.8273587 4293729569
6.4303207 -5.82658 -1.6004958 4293729569
3.3252258 -3.8335576 -1.8631556 4288085770
5.0370483 -4.9465466 -1.7947247 4293729569
6.3356323 -5.7999377 -1.628324 4293729569
5.0581207 -4.9815383 -1.7736554 4293729569
3.3917694 -3.9012327 -1.86677 4288085770
6.1414108 -5.7048516 -1.6378593 4293729569
5.1445541 -5.0581546 -1.7671089 4293729569
3.4522324 -3.9619474 -1.8674164 4288085770
5.2067947 -5.1159139 -1.7537253 4293729569
5.9853516 -5.632556 -1.6531093 4293729569
5.287117 -5.1855745 -1.7432113 4293729569
3.5187225 -4.0266294 -1.8690193 4288085770
5.8352737 -5.5612388 -1.6663043 4293729569
5.3754501 -5.2581954 -1.73263 4293729569
6.4412537 -5.9661345 -1.4629376 4293729569
5.4567032 -5.3238621 -1.7190907 4293729569
7.5179825 -6.6870494 -1.6772165 4293729569
3.5861816 -4.0913095 -1.8696125 4288085770
5.526886 -5.3815928 -1.7026286 4293729569
5.6821365 -5.4849439 -1.6775098 4293729569
7.0784073 -6.4092917 -1.6504383 4293729569
5.6241455 -5.4541769 -1.689959 4293729569
6.6749268 -6.151351 -1.6253834 4293729569
5.7254181 -5.5277405 -1.677254 4293729569
6.4603424 -6.0163779 -1.6289594 4293729569
3.6606369 -4.1579509 -1.8711448 4288085770
5.8557892 -5.6191516 -1.6673336 4293729569
6.2949371 -5.9111438 -1.63817 4293729569
6.0052338 -5.7204576 -1.660265 4293729569
6.1305161 -5.8039036 -1.6473627 4293729569
5.5912857 -5.4462991 -1.7002521 4293729569
3.7391052 -4.2275772 -1.8716495 4288085770
5.4803085 -5.3927722 -1.7181332 4293729569
3.825592 -4.3001556 -1.8740869 4288085770
5.3703003 -5.3382468 -1.7340004 4293729569
3.9050217 -4.3677745 -1.8745742 4288085770
5.2330933 -5.2618847 -1.7420483 4293729569
3.993454 -4.4393506 -1.8749883 4288085770
5.1039047 -5.1894794 -1.7510328 4293729569
4.0898972 -4.5148859 -1.8753395 4288085770
5.0028305 -5.1329169 -1.7648041 4293729569
4.2164993 -4.6092443 -1.8834691 4288085770
4.8796005 -5.0594859 -1.7727256 4293729569
4.7492828 -4.9791069 -1.7756891 4293729569
4.3601685 -4.7145071 -1.894474 4288085770
4.4796524 -4.8009181 -1.8976417 4288085770
4.6863251 -4.9423389 -1.7941639 4293729569
4.6021194 -4.8873167 -1.8997798 4288085770
4.675621 -4.9382701 -1.8242548 4293729569
4.6759644 -4.9401379 -1.8562608 4288085770
4.6732635 -4.9380245 -1.8872807 4288085770
8.4587021 7.7215233 -1.7136853 4288085770
8.7737503 7.9449444 -1.715337 4288085770
8.152626 7.5001292 -1.7089269 4288085770
7.8894806 7.3079448 -1.7085819 4288085770
7.6123581 7.1026764 -1.7034421 4288085770
7.4001236 6.9417286 -1.7054145 4288085770
7.1669235 6.7636657 -1.7026849 4288085770
6.9556885 6.5987039 -1.7006624 4288085770
6.7554398 6.4397893 -1.6984956 4288085770
6.5571899 6.2808771 -1.6953068 4288085770
6.3968811 6.1471558 -1.6966019 4288085770
6.2325897 6.0094066 -1.6959567 4288085770
6.0852814 5.8817358 -1.6960855 4288085770
5.9479523 5.760108 -1.6960804 4288085770
5.8246155 5.6465502 -1.69789 4288085770
5.7082901 5.536027 -1.7006111 4288085770
5.5859451 5.4214592 -1.6994143 4288085770
9.474762 8.0529699 -1.7162573 4288085770
9.1849213 7.8146443 -1.713392 4288085770
5.4925995 5.3250432 -1.7038271 4288085770
8.9210205 7.5934324 -1.7101741 4288085770
5.4022369 5.2296362 -1.7072036 4288085770
8.6620865 7.3762393 -1.7058852 4288085770
5.3248825 5.1422935 -1.7124052 4288085770
8.4301453 7.1751804 -1.7052369 4288085770
5.2465439 5.0529423 -1.7166257 4288085770
8.2151413 6.9851861 -1.702358 4288085770
5.18116 4.9716477 -1.7206721 4288085770
8.0151367 6.8042669 -1.7012792 4288085770
5.1198044 4.8923798 -1.7266667 4288085770
7.8280869 6.6324039 -1.7000217 4288085770
2.2920532 3.0427344 -1.7370625 4288085770
2.3498917 3.0799944 -1.7372794 4288085770
2.4107285 3.1182628 -1.7364597 4288085770
2.2472534 3.0115507 -1.741679 4288085770
2.4625549 3.1494744 -1.7317669 4288085770
2.1944427 2.9743111 -1.7414072 4288085770
2.5424271 3.1978462 -1.7356987 4288085770
2.1496506 2.941113 -1.7430315 4288085770
2.6202774 3.2442005 -1.7376604 4288085770
5.0494385 4.8070488 -1.7277842 4288085770
2.6801376 3.2774458 -1.7328718 4288085770
2.104866 2.9069154 -1.7446599 4288085770
7.6460114 6.4635553 -1.696698 4288085770
2.0710907 2.8797789 -1.74914 4288085770
2.7720184 3.3288682 -1.7366602 4288085770
2.8518906 3.3722174 -1.7356126 4288085770
2.0233154 2.8415534 -1.7478173 4288085770
1.986557 2.8103886 -1.7493463 4288085770
4.9660873 4.7116485 -1.726084 4288085770
2.9357681 3.4155774 -1.733521 4288085770
7.4819183 6.3067927 -1.6951284 4288085770
3.038681 3.4700506 -1.7381771 4288085770
1.9437866 2.7731791 -1.7469649 4288085770
3.1455612 3.5265338 -1.7407813 4288085770
1.9090424 2.7410178 -1.7474759 4288085770
4.8897324 4.6212773 -1.7242868 4288085770
7.3437958 6.1651573 -1.6962144 4288085770
3.2424698 3.5739582 -1.7405312 4288085770
1.879303 2.7108812 -1.748924 4288085770
3.3563614 3.6304655 -1.742059 4288085770
1.8485718 2.6797359 -1.7493873 4288085770
4.8403702 4.5470505 -1.7281299 4288085770
3.523056 3.7211952 -1.7398708 4288085770
3.6088181 3.7745745 -1.7387176 4288085770
3.435318 3.6648014 -1.7400582 4288085770
3.7235794 3.8451061 -1.7431781 4288085770
7.1956558 6.0184608 -1.6934302 4288085770
3.4702835 3.6849718 -1.7435949 4288085770
3.3525772 3.6104295 -1.7401829 4288085770
3.8223343 3.9025366 -1.7408664 4288085770
3.2728348 3.5570703 -1.7402706 4288085770
1.8238602 2.65062 -1.7507768 4288085770
3.9450912 3.9750986 -1.7442315 4288085770
3.1891022 3.4996848 -1.7384181 4288085770
4.0438461 4.03052 -1.739928 4288085770
3.1133575 3.4463332 -1.7364624 4288085770
3.5731812 3.7314088 -1.740283 4288085770
4.1616135 4.0960407 -1.7393761 4288085770
3.041626 3.3950028 -1.7354546 4288085770
1.8001633 2.6215074 -1.7521551 4288085770
4.2863846 4.1635919 -1.73874 4288085770
4.7830048 4.4667745 -1.7290847 4288085770
2.975914 3.3446972 -1.7343771 4288085770
7.0695267 5.8838758 -1.6943564 4288085770
3.6981049 3.7889621 -1.7416866 4288085770
4.4201355 4.2361817 -1.7379849 4288085770
2.9142151 3.2964141 -1.7342477 4288085770
1.773468 2.5893724 -1.7515783 4288085770
4.5809174 4.3219161 -1.742882 4288085770
2.8454971 3.2430818 -1.7302153 4288085770
3.8300171 3.8495467 -1.7430012 4288085770
4.7036743 4.383431 -1.7362916 4288085770
6.955368 5.7573452 -1.6951194 4288085770
1.7517853 2.5602677 -1.7529349 4288085770
4.7316666 4.3895288 -1.7309616 4288085770
2.8048019 3.2059057 -1.7338119 4288085770
4.847435 4.4560556 -1.7334275 4288085770
3.9959564 3.9273131 -1.7518752 4288085770
2.7551117 3.1626775 -1.7345309 4288085770
5.0031891 4.5327311 -1.7304161 4288085770
1.7270966 2.5281363 -1.7513363 4288085770
4.1168518 3.9778187 -1.7463508 4288085770
2.7074203 3.1194527 -1.7342281 4288085770
5.1759415 4.6184945 -1.7301819 4288085770
6.8431854 5.6318183 -1.6948566 4288085770
4.6912918 4.3193355 -1.73369 4288085770
1.7154236 2.5040829 -1.7545631 4288085770
2.6707458 3.082289 -1.7367809 4288085770
5.3506851 4.7032623 -1.7289302 4288085770
4.25177 4.0323925 -1.7426572 4288085770
2.6290894 3.0400884 -1.7364085 4288085770
5.5404282 4.7940941 -1.7274902 4288085770
6.7450104 5.5143557 -1.6954083 4288085770
1.7037811 2.4780238 -1.756798 4288085770
4.6599426 4.25419 -1.7382998 4288085770
4.4316864 4.1132112 -1.749366 4288085770
5.7241745 4.8788872 -1.7231402 4288085770
2.5823898 2.9958541 -1.733099 4288085770
1.6941452 2.4529774 -1.7600067 4288085770
4.5796204 4.1708407 -1.7455177 4288085770
5.9049149 4.9586539 -1.7158432 4288085770
2.5507431 2.9587054 -1.734597 4288085770
6.6587982 5.4049506 -1.6967967 4288085770
4.6185989 4.1819863 -1.7400472 4288085770
6.1086273 5.0495296 -1.7102501 4288085770
1.6805115 2.4248998 -1.7602718 4288085770
4.7135315 4.2193885 -1.7368593 4288085770
2.5261154 2.9245951 -1.7380061 4288085770
6.5765991 5.2975669 -1.6991327 4288085770
6.323349 5.1434526 -1.704525 4288085770
4.5872498 4.1158352 -1.7436609 4288085770
2.4904709 2.8834097 -1.735564 4288085770
4.8824463 4.2861228 -1.7357452 4288085770
1.6638565 2.3948007 -1.7585773 4288085770
6.5760422 5.2575693 -1.7043035 4288085770
2.4648438 2.8472855 -1.7369924 4288085770
5.0383759 4.3417783 -1.7298176 4288085770
6.5233765 5.2063227 -1.7040875 4288085770
1.6582336 2.3707664 -1.7607384 4288085770
4.5668716 4.0557323 -1.7471304 4288085770
6.8107529 5.3575783 -1.6983352 4288085770
2.442215 2.813174 -1.7383795 4288085770
5.221283 4.4115691 -1.7275383 4288085770
7.0884171 5.4787984 -1.6968119 4288085770
1.6546402 2.3457386 -1.7628815 4288085770
6.4551544 5.1069994 -1.7062385 4288085770
2.4166031 2.7760396 -1.7378118 4288085770
4.5445404 3.993624 -1.7516294 4288085770
5.4291763 4.4924831 -1.727941 4288085770
7.3750687 5.6020546 -1.6941824 4288085770
1.6460342 2.3176806 -1.7630916 4288085770
2.4049911 2.7459838 -1.7410626 4288085770
6.4049301 5.0177684 -1.7111521 4288085770
7.6926956 5.7384548 -1.693161 4288085770
5.6281052 4.5643425 -1.7254786 4288085770
4.51017 3.9254425 -1.7512841 4288085770
1.6454315 2.2946661 -1.7651937 4288085770
2.3903961 2.7139056 -1.7423539 4288085770
8.0343094 5.8829665 -1.6938453 4288085770
5.8560028 4.6513476 -1.7266386 4288085770
6.3546906 4.9285264 -1.714066 4288085770
4.4728165 3.8542368 -1.7489836 4288085770
2.3758011 2.6808264 -1.74365 4288085770
1.6408463 2.2676246 -1.7653558 4288085770
8.3958817 6.0355639 -1.6932786 4288085770
6.0728989 4.7272825 -1.7229629 4288085770
6.3144302 4.8443308 -1.7168503 4288085770
2.3652039 2.649765 -1.7448936 4288085770
8.7884293 6.199297 -1.6923285 4288085770
1.6342545 2.2395689 -1.7645438 4288085770
4.4434509 3.7880757 -1.7485754 4288085770
6.3018036 4.8072729 -1.72014 4288085770
2.356636 2.6187153 -1.7471156 4288085770
9.2119446 6.3751779 -1.6939909 4288085770
6.2791977 4.7621627 -1.7215717 4288085770
1.6436996 2.219609 -1.7695243 4288085770
6.5337067 4.8832636 -1.7143006 4288085770
4.414093 3.7219095 -1.7471676 4288085770
9.6833878 6.5722795 -1.6970439 4288085770
2.3620987 2.594743 -1.7531555 4288085770
6.2359543 4.6759477 -1.7233965 4288085770
1.6441193 2.1945879 -1.7696235 4288085770
6.7855911 4.9683499 -1.710206 4288085770
10.198776 6.7865815 -1.7015469 4288085770
4.3927307 3.6597877 -1.7476556 4288085770
2.3455124 2.5586364 -1.7504852 4288085770
7.0474548 5.0544763 -1.704998 4288085770
1.6465836 2.1685786 -1.770705 4288085770
6.1937027 4.5907326 -1.7242067 4288085770
10.762123 7.0181031 -1.7074568 4288085770
2.3399506 2.5275939 -1.7516742 4288085770
4.3713684 3.5966556 -1.7461479 4288085770
7.3333206 5.1497207 -1.7024913 4288085770
11.345428 7.2526956 -1.709136 4288085770
1.6540222 2.1465964 -1.7727156 4288085770
6.1554413 4.5065298 -1.7239692 4288085770
2.3403931 2.4995821 -1.7537854 4288085770
4.358017 3.5385716 -1.7475324 4288085770
7.6481781 5.255105 -1.7026267 4288085770
11.888756 7.4600725 -1.7023613 4288085770
1.6574783 2.1205862 -1.7727859 4288085770
2.3408508 2.4695642 -1.7549047 4288085770
6.1221695 4.4263535 -1.7246609 4288085770
7.9260406 5.3372836 -1.69326 4288085770
12.682808 7.7876606 -1.7173622 4288085770
4.3336563 3.474422 -1.7450614 4288085770
1.665947 2.0976064 -1.7747893 4288085770
2.3332901 2.4364998 -1.7531238 4288085770
6.0869064 4.3441629 -1.7243822 4288085770
13.454865 8.0941095 -1.722688 4282675967
8.2968597 5.4629297 -1.6967022 4288085770
4.2992935 3.4042101 -1.7387242 4288085770
1.6673889 2.0705798 -1.7728856 4288085770
2.3437729 2.410533 -1.7561171 4288085770
8.6616592 5.579525 -1.6942465 4288085770
6.0626297 4.2680254 -1.7249589 4288085770
2.3432236 2.3805025 -1.7552474 4288085770
1.6808701 2.0486209 -1.7748303 4288085770
4.3039551 3.3542123 -1.7418792 4288085770
9.0494461 5.7032275 -1.693511 4288085770
6.0613632 4.2030101 -1.7302396 4288085770
2.3527145 2.3535314 -1.7582557 4288085770
1.6923447 2.0256534 -1.7768009 4288085770
4.2605743 3.2799442 -1.7316568 4288085770
9.4532471 5.828001 -1.6925964 4288085770
6.0550995 4.1339593 -1.7325912 4288085770
2.3641968 2.3275647 -1.7602384 4288085770
1.7128601 2.0057325 -1.7806606 4288085770
9.9169998 5.9750552 -1.6949368 4288085770
4.2472 3.2218421 -1.7290411 4288085770
14.272545 8.0496349 -1.7229464 4282675967
6.0568085 4.0699477 -1.7358353 4288085770
2.3596725 2.2925014 -1.7564325 4288085770
1.7133026 1.9766867 -1.7757759 4288085770
10.370735 6.1120467 -1.6934268 4288085770
4.2538452 3.172848 -1.7311702 4288085770
13.875206 7.7357917 -1.7155619 4282675967
2.3811646 2.2705915 -1.7612896 4288085770
6.0655365 4.0079708 -1.7399945 4288085770
10.885437 6.2703252 -1.6951649 4288085770
1.7388382 1.9587958 -1.7815728 4288085770
4.2564774 3.1208239 -1.7303553 4288085770
13.464859 7.4198723 -1.7043273 4288085770
2.3896484 2.2415977 -1.7603168 4288085770
11.454102 6.4458528 -1.6992433 4288085770
6.0762482 3.9480031 -1.7441237 4288085770
1.7443008 1.930775 -1.7776294 4288085770
13.211311 7.1837144 -1.7070577 4288085770
4.2591476 3.0688026 -1.7305403 4288085770
2.4101715 2.2166727 -1.7631967 4288085770
12.034737 6.6194234 -1.7011991 4288085770
6.1139832 3.8981698 -1.7519174 4288085770
1.7568054 1.9047964 -1.7766011 4288085770
12.927773 6.9364014 -1.7051604 4288085770
2.4196472 2.1876826 -1.7622132 4288085770
4.2697754 3.020817 -1.7306218 4288085770
12.692337 6.819355 -1.7072074 4288085770
6.0996857 3.8240564 -1.7483764 4288085770
1.7722931 1.880831 -1.7755315 4288085770
2.4361496 2.160727 -1.762145 4288085770
13.376907 7.0204 -1.7119162 4288085770
12.645172 6.6940813 -1.7002325 4288085770
4.2754135 2.9698055 -1.7297699 4288085770
6.1103821 3.7630751 -1.7495098 4288085770
1.7928009 1.8588966 -1.7763996 4288085770
14.08844 7.2245502 -1.7133179 4288085770
2.4576645 2.1358018 -1.7640142 4288085770
12.35656 6.4507208 -1.692374 4288085770
4.2880478 2.9228282 -1.7298255 4288085770
1.809288 1.8349355 -1.7753193 4288085770
6.120079 3.7000847 -1.7496622 4288085770
14.839951 7.4348807 -1.7152574 4282675967
2.4811783 2.1108847 -1.765861 4288085770
1.2677536 1.5885904 -1.7962372 4288085770
12.137856 6.2436996 -1.6906052 4288085770
1.2846146 1.5895752 -1.7760482 4288085770
4.3097 2.8778987 -1.7317741 4288085770
1.3356247 1.60378 -1.7724338 4288085770
1.8298035 1.811996 -1.7751911 4288085770
6.1287918 3.6360846 -1.7488294 4288085770
1.3846207 1.6169667 -1.7668455 4288085770
15.685371 7.673636 -1.7190559 4282675967
2.5036774 2.0859551 -1.7657192 4288085770
1.4526596 1.6382722 -1.7690167 4288085770
1.3198929 1.5806637 -1.7657008 4288085770
1.2719727 1.5604482 -1.765306 4288085770
1.365799 1.5998616 -1.7641213 4288085770
11.962082 6.0588794 -1.6912773 4288085770
1.2260895 1.5392349 -1.7638936 4288085770
1.4207611 1.621115 -1.7664351 4288085770
1.2303314 1.5403486 -1.7868443 4288085770
1.4726868 1.6413425 -1.7657857 4288085770
1.530632 1.6636044 -1.7670627 4288085770
1.5207138 1.6585716 -1.7701919 4288085770
1.5875931 1.6848569 -1.7673547 4288085770
4.3473587 2.8400519 -1.7365196 4288085770
1.6495285 1.7081317 -1.7675841 4288085770
1.7134857 1.7314192 -1.7687912 4288085770
1.854332 1.7900819 -1.7770152 4288085770
1.5947723 1.6799012 -1.7722974 4288085770
6.1404724 3.5750988 -1.7479517 4288085770
16.509827 7.8922782 -1.7181644 4282675967
1.7724457 1.7506659 -1.7660694 4288085770
2.5302048 2.0610514 -1.7675333 4288085770
1.8404083 1.7739609 -1.7652328 4288085770
1.6568069 1.6951482 -1.7675586 4288085770
1.9083786 1.7962551 -1.7644005 4288085770
11.777283 5.8710027 -1.6880598 4288085770
1.9743423 1.8175323 -1.7615941 4288085770
1.7318726 1.7154772 -1.7686572 4288085770
4.378006 2.7991667 -1.7393537 4288085770
2.0513229 1.8418698 -1.7616549 4288085770
1.8788452 1.7681596 -1.7768395 4288085770
1.8119278 1.7378284 -1.7696931 4288085770
2.1373138 1.870255 -1.7636011 4288085770
6.1681519 3.519191 -1.7488787 4288085770
2.5597382 2.0371594 -1.7693105 4288085770
2.2253189 1.8976483 -1.7655294 4288085770
1.8889923 1.7571571 -1.7687738 4288085770
11.624458 5.6992836 -1.6884282 4288085770
2.313324 1.9240324 -1.7654619 4288085770
1.9780884 1.7805547 -1.7717068 4288085770
2.4023209 1.9494163 -1.7643874 4288085770
4.3946228 2.752198 -1.7373652 4288085770
1.9023743 1.7442317 -1.7766824 4288085770
6.1868439 3.4592352 -1.7479205 4288085770
2.4953232 1.9768218 -1.7642612 4288085770
2.5872421 2.0122554 -1.7701137 4288085770
2.0591583 1.7998956 -1.7697439 4288085770
2.5903168 2.0032277 -1.7621171 4288085770
11.488602 5.5366392 -1.6885743 4288085770
2.1472244 1.8212717 -1.7686963 4288085770
2.6843185 2.0286279 -1.7599878 4288085770
4.4292755 2.7123294 -1.7401516 4288085770
1.9279022 1.7213126 -1.7764993 4288085770
2.2302933 1.8396168 -1.7657154 4288085770
2.7793045 2.0530198 -1.7548518 4288085770
6.2065048 3.4002755 -1.7449474 4288085770
2.6117706 1.9853288 -1.7689579 4288085770
2.8923264 2.0835156 -1.7554946 4288085770
2.3293915 1.8630484 -1.7665391 4288085770
11.376717 5.3841085 -1.6904175 4288085770
2.9943237 2.1089377 -1.750278 4288085770
2.4425125 1.8905587 -1.7711933 4288085770
4.46492 2.6714609 -1.741931 4288085770
1.9564133 1.6994073 -1.7762794 4288085770
2.6472855 1.9624637 -1.7706652 4288085770
6.2221832 3.3382969 -1.7420299 4288085770
3.1273804 2.1445379 -1.7546811 4288085770
2.53759 1.9109553 -1.7680731 4288085770
3.2403946 2.1710103 -1.75034 4288085770
11.25782 5.2295332 -1.6893454 4288085770
2.6497192 1.935451 -1.7707503 4288085770
1.9859314 1.6785109 -1.777045 4288085770
3.3624039 2.2005272 -1.7468884 4288085770
4.5005646 2.6295877 -1.7427142 4288085770
2.6798248 1.9375805 -1.7714136 4288085770
6.2628479 3.286442 -1.7417986 4288085770
2.7567978 1.9579045 -1.7684908 4288085770
3.4964218 2.2331057 -1.7452931 4288085770
11.170876 5.091114 -1.6908588 4288085770
2.8619003 1.9773436 -1.765265 4288085770
3.6444855 2.2687607 -1.7475324 4288085770
2.0084305 1.6535659 -1.7739029 4288085770
2.7163467 1.9137152 -1.7721143 4288085770
4.5391846 2.5897279 -1.7434568 4288085770
6.3015137 3.2325735 -1.7405972 4288085770
3.8005295 2.3064473 -1.7486761 4288085770
2.9659805 1.9957699 -1.7600541 4288085770
3.9485474 2.3400817 -1.7459238 4288085770
11.134903 4.9719381 -1.6967378 4288085770
3.0810776 2.0172527 -1.756711 4288085770
2.0429611 1.6326907 -1.7746134 4288085770
2.7458572 1.8868049 -1.7699034 4288085770
4.5708237 2.5458283 -1.7422919 4288085770
