# .PCD v0.7 - Point Cloud Data file format
VERSION 0.7
FIELDS x y z rgb
SIZE 4 4 4 4
TYPE F F F U
COUNT 1 1 1 1
WIDTH 1121
HEIGHT 1
VIEWPOINT 0 0 0 1 0 0 0
POINTS 1121
DATA ascii
6.7601318 1.3757825 -1.7615423 4288085770
11.326935 1.8286462 -1.7596817 4288085770
7.142334 1.3738508 -1.7591548 4288085770
12.178925 1.8552828 -1.7624366 4288085770
7.5684509 1.3721628 -1.7590678 4288085770
13.125916 1.8844423 -1.766834 4288085770
8.0306396 1.3696723 -1.7592278 4288085770
14.11795 1.9088297 -1.7645495 4288085770
8.5167847 1.3653116 -1.7595565 4288085770
15.290924 1.940218 -1.7694845 4288085770
9.0339661 1.358119 -1.7591033 4288085770
9.6031494 1.3512144 -1.7610042 4288085770
10.204346 1.3404784 -1.7611327 4288085770
10.888519 1.3292007 -1.7638292 4288085770
11.599762 1.3140669 -1.764719 4288085770
12.367004 1.2962346 -1.764997 4288085770
13.250275 1.2760406 -1.7690709 4288085770
14.190521 1.250154 -1.771544 4288085770
15.289795 1.2251487 -1.7810993 4288085770
16.442169 1.1884136 -1.7830431 4288085770
7.6632385 -7.5218935 -0.7258445 4293729569
7.6139526 -7.5260167 -0.78951693 4293729569
7.574646 -7.5320835 -0.85426188 4293729569
3.8073425 -4.9799886 -0.62476444 4293729569
3.7962341 -4.9899516 -0.66871023 4293729569
7.4456787 -7.5253468 -1.0463624 4293729569
3.8190918 -5.0366178 -0.76296997 4293729569
3.8089294 -5.0415745 -0.80691051 4293729569
4.5431519 -5.5245056 -0.43200004 4293729569
3.816803 -5.056427 -0.85399652 4293729569
4.5400085 -5.5274134 -0.48098266 4293729569
3.830719 -5.0732441 -0.9021275 4293729569
4.5467834 -5.5352645 -0.5310452 4293729569
3.6109009 -4.9253898 -0.92229033 4293729569
4.5626221 -5.5460663 -0.58117497 4293729569
3.6097107 -4.9272981 -0.96628499 4293729569
4.6145935 -5.579668 -0.63360274 4293729569
3.9284668 -5.1503754 -1.0539634 4293729569
3.8339844 -5.0838127 -1.0871654 4293729569
3.7814331 -4.9931107 -0.66258442 4293729569
3.9049683 -5.1293039 -1.1427503 4293729569
3.7571411 -4.9681492 -0.70435929 4293729569
4.1685181 -5.3066831 -1.2289474 4293729569
7.5206299 -7.5438762 -1.1078601 4293729569
3.730072 -4.9931102 -1.2062423 4293729569
7.5322876 -7.5326633 -1.1739085 4293729569
3.3387756 -4.7112751 -1.1869314 4293729569
7.5679626 -7.5343151 -1.2421501 4293729569
3.7967834 -5.0165262 -1.3057439 4293729569
7.6036072 -7.53297 -1.3093846 4293729569
3.8165588 -5.015316 -1.3518729 4293729569
3.6636658 -4.8302078 -0.90539098 4293729569
3.89151 -5.0497832 -1.4084582 4293729569
3.662384 -4.8081255 -0.94532847 4293729569
3.7418823 -4.9275622 -1.4231563 4293729569
3.83255 -4.9000669 -1.0066929 4293729569
3.6904907 -4.8717709 -1.4546754 4293729569
3.8222656 -4.8670368 -1.0455434 4293729569
4.052063 -5.0935612 -1.5656393 4293729569
3.7548218 -4.7953367 -1.0749161 4293729569
4.1990967 -5.166604 -1.6368029 4293729569
5.3146362 -5.7992959 -1.3388166 4293729569
4.1827393 -5.1266088 -1.6745958 4293729569
5.3583984 -5.7909436 -1.3900895 4293729569
4.175415 -5.0905614 -1.7134588 4293729569
3.8143311 -4.8186121 -1.6733761 4293729569
6.0944519 -6.1874986 -1.5939901 4293729569
3.8751221 -4.8241706 -1.723798 4293729569
6.0368958 -6.1047335 -1.6284029 4293729569
3.739563 -4.7008991 -1.7275891 4293729569
5.4871216 -5.7038221 -1.5797427 4293729569
3.5999756 -4.5736542 -1.7293441 4293729569
5.8946533 -5.9143672 -1.6899881 4293729569
3.4914551 -4.465229 -1.7363534 4293729569
5.0152588 -5.3093934 -1.574621 4293729569
3.3970032 -4.3667278 -1.7434812 4293729569
5.2413635 -5.401999 -1.6503632 4293729569
3.2965393 -4.2642641 -1.7485588 4293729569
5.1327515 -5.2825561 -1.6653454 4293729569
3.1840515 -4.1528769 -1.7485342 4293729569
4.9429932 -5.1145921 -1.6626654 4293729569
3.2268372 -4.1385655 -1.7847877 4288085770
5.0457764 -5.122921 -1.7143769 4293729569
3.2966919 -4.1380901 -1.8282559 4288085770
4.8951416 -4.976738 -1.7150118 4293729569
3.3735352 -4.1405754 -1.8727779 4282675967
4.7734985 -4.8503914 -1.7188907 4293729569
3.3602295 -4.0866065 -1.8925586 4282675967
4.6409302 -4.7171097 -1.7196782 4293729569
3.2547913 -3.9771929 -1.8875866 4282675967
4.5423889 -4.6036377 -1.723743 4293729569
3.1654053 -3.8776901 -1.8837461 4282675967
4.4589233 -4.5000792 -1.7299325 4293729569
3.0629883 -3.770267 -1.8757994 4282675967
4.3634033 -4.3885961 -1.7320228 4293729569
2.9866028 -3.6776936 -1.8720636 4282675967
4.2949829 -4.2939577 -1.737335 4293729569
2.9212952 -3.593056 -1.8704205 4282675967
4.2375793 -4.2052579 -1.7437356 4293729569
2.8539734 -3.5064309 -1.8677597 4288085770
4.2983704 -4.1808615 -1.7750857 4288085770
2.8067017 -3.4316924 -1.8672621 4288085770
4.4092102 -4.1821718 -1.8158336 4288085770
2.7554321 -3.3539786 -1.8657305 4288085770
4.5280762 -4.1844378 -1.8576381 4288085770
2.7011108 -3.2762861 -1.8621788 4288085770
4.5778198 -4.1491146 -1.8828876 4282675967
2.6578674 -3.2035282 -1.8607128 4288085770
4.516449 -4.0544529 -1.882247 4282675967
2.6206055 -3.134738 -1.8592973 4288085770
4.4490662 -3.9588308 -1.8785641 4282675967
2.6013794 -3.075841 -1.8620262 4288085770
4.3887329 -3.8651686 -1.8759327 4282675967
2.5811768 -3.0149503 -1.863744 4288085770
4.3053589 -3.7626498 -1.8651257 4288085770
2.5429993 -2.9461756 -1.8583214 4288085770
4.256012 -3.6759279 -1.8625858 4288085770
2.527771 -2.8892615 -1.8590825 4288085770
4.2297363 -3.6010737 -1.8632288 4288085770
2.4985962 -2.8244352 -1.8547301 4288085770
4.1934509 -3.522284 -1.8597953 4288085770
2.4764099 -2.7625678 -1.8514321 4288085770
4.183197 -3.4553401 -1.8615649 4288085770
2.46521 -2.7076371 -1.850225 4288085770
4.1639404 -3.3844533 -1.8602653 4288085770
2.4550476 -2.6527002 -1.8490243 4288085770
4.1296692 -3.3066568 -1.8548474 4288085770
2.4509277 -2.6007302 -1.8478713 4288085770
4.1204834 -3.2417152 -1.8536289 4288085770
2.4507751 -2.5507369 -1.8477497 4288085770
4.1102295 -3.1747811 -1.8513989 4288085770
2.4596252 -2.5036929 -1.8486962 4288085770
4.1260376 -3.1196966 -1.8533721 4288085770
2.4664917 -2.4566607 -1.8486288 4288085770
4.1348572 -3.0616558 -1.8532915 4288085770
2.471344 -2.4076459 -1.8465438 4288085770
4.1426697 -3.0036242 -1.8512039 4288085770
2.4882812 -2.3645573 -1.847553 4288085770
4.1515198 -2.9455869 -1.849123 4288085770
2.5081482 -2.3214533 -1.848583 4288085770
4.1563416 -2.8855767 -1.8450108 4288085770
2.507019 -2.2714829 -1.841455 4288085770
4.1841736 -2.8354321 -1.8450768 4288085770
2.5469055 -2.2362583 -1.8476381 4288085770
4.2220459 -2.7872283 -1.8472145 4288085770
2.5638123 -2.1921794 -1.844645 4288085770
4.2558899 -2.7380533 -1.8463233 4288085770
2.5947266 -2.1530178 -1.8447583 4288085770
4.2797546 -2.6849408 -1.842355 4288085770
2.620636 -2.1118863 -1.8438332 4288085770
4.3256226 -2.6396985 -1.8425539 4288085770
2.6495667 -2.0717406 -1.8419304 4288085770
4.3815613 -2.5973995 -1.843827 4288085770
2.6975098 -2.0374823 -1.8441694 4288085770
4.4174194 -2.5482221 -1.8399489 4288085770
2.7344055 -1.9992917 -1.8433249 4288085770
4.4873352 -2.508847 -1.8413231 4288085770
2.7823792 -1.9650342 -1.844564 4288085770
4.5412292 -2.4645667 -1.8395779 4288085770
2.8352966 -1.9307525 -1.8458369 4288085770
4.6151123 -2.4251733 -1.8399789 4288085770
2.8722229 -1.8915682 -1.8419902 4288085770
4.69104 -2.3857679 -1.8403931 4288085770
2.9191589 -1.8543274 -1.8392153 4288085770
4.7779541 -2.3493025 -1.8418884 4288085770
2.9751282 -1.8220305 -1.8395128 4288085770
4.8468628 -2.3069456 -1.8382485 4288085770
3.0420532 -1.7896724 -1.840884 4288085770
4.9348145 -2.2694812 -1.8367479 4288085770
3.1090088 -1.7583165 -1.8412573 4288085770
5.0367432 -2.2349327 -1.8383484 4288085770
3.1809692 -1.7279305 -1.8426669 4288085770
5.1447144 -2.2013559 -1.8389912 4288085770
3.2479248 -1.6945791 -1.8410356 4288085770
5.2616577 -2.1687272 -1.8406971 4288085770
3.3248596 -1.6631689 -1.841476 4288085770
5.3575745 -2.1302271 -1.8362474 4288085770
3.4118347 -1.6347027 -1.8429909 4288085770
5.4895325 -2.0995197 -1.8370585 4288085770
3.4878235 -1.6023049 -1.8404219 4288085770
5.6184692 -2.0658317 -1.8368421 4288085770
3.5777588 -1.5718265 -1.8409503 4288085770
5.7804565 -2.0389564 -1.8408606 4288085770
3.6557617 -1.5384231 -1.8363903 4288085770
5.9444275 -2.011075 -1.8428905 4288085770
3.7467346 -1.5069451 -1.8339221 4288085770
6.0943909 -1.9782779 -1.8408139 4288085770
3.8457031 -1.4764214 -1.8325098 4288085770
6.2183838 -1.9376349 -1.8325436 4288085770
3.9536743 -1.4468455 -1.8321602 4288085770
6.4013367 -1.9086535 -1.8336976 4288085770
4.0706482 -1.418222 -1.8318737 4288085770
6.5923157 -1.8806303 -1.8339078 4288085770
4.1836243 -1.3886261 -1.8295569 4288085770
6.7852783 -1.850601 -1.8321261 4288085770
4.3016052 -1.3580003 -1.8272715 4288085770
7.0082703 -1.8234043 -1.8325522 4288085770
4.4595642 -1.3331456 -1.8312683 4288085770
7.2252502 -1.7932477 -1.8299308 4288085770
4.5695801 -1.2995768 -1.8239219 4288085770
7.4412231 -1.7611022 -1.8252976 4288085770
4.7095642 -1.268837 -1.8207834 4288085770
7.696228 -1.732738 -1.823935 4288085770
4.8715515 -1.2419696 -1.8208015 4288085770
7.966217 -1.7042904 -1.8236725 4288085770
5.0664978 -1.2179132 -1.8260479 4288085770
8.2512207 -1.6767669 -1.8215127 4288085770
5.2145081 -1.1861367 -1.8199601 4288085770
8.5521851 -1.649157 -1.8194597 4288085770
5.4154968 -1.1600552 -1.8222411 4288085770
8.8692017 -1.6204658 -1.8155107 4288085770
5.6004639 -1.1300702 -1.8194053 4288085770
9.2552185 -1.5983863 -1.8180406 4288085770
5.8064575 -1.1009731 -1.8177125 4288085770
9.6352234 -1.5713501 -1.8165176 4288085770
6.0294495 -1.0727773 -1.8171353 4288085770
10.07724 -1.5479736 -1.8174188 4288085770
6.2634277 -1.0445256 -1.8166318 4288085770
10.526215 -1.5225663 -1.815362 4288085770
6.5074158 -1.0142241 -1.8141901 4288085770
11.062256 -1.5026755 -1.819901 4288085770
6.7733765 -0.98380041 -1.8128953 4288085770
11.595245 -1.4758143 -1.8184028 4288085770
7.0503845 -0.95432043 -1.8106761 4288085770
12.251282 -1.4582763 -1.8237505 4288085770
7.3573608 -0.92367554 -1.8096547 4288085770
12.938263 -1.4365778 -1.8262961 4288085770
7.6783447 -0.89295864 -1.8077269 4288085770
13.687317 -1.4145427 -1.8292551 4288085770
8.0353088 -0.86104345 -1.8070371 4288085770
14.560303 -1.394835 -1.8350503 4288085770
8.4322815 -0.83090925 -1.8086195 4288085770
15.485352 -1.3738523 -1.8381896 4288085770
8.8262634 -0.79680157 -1.805171 4288085770
9.2622375 -0.76246691 -1.8030033 4288085770
9.7721863 -0.72872114 -1.8053327 4288085770
10.280121 -0.69200134 -1.8016405 4288085770
10.864105 -0.6548624 -1.8024557 4288085770
11.479065 -0.61556578 -1.7994728 4288085770
12.217957 -0.57658482 -1.8033206 4288085770
13.020844 -0.53326368 -1.8055859 4288085770
13.923767 -0.48840284 -1.808516 4288085770
14.967621 -0.44077539 -1.8143821 4288085770
16.130463 -0.38751078 -1.8190308 4288085770
15.976715 1.995008 -1.7781496 4288085770
15.349457 2.064652 -1.7739036 4288085770
14.767242 2.132534 -1.7689545 4288085770
14.237061 2.196691 -1.7633529 4288085770
13.82077 2.2694774 -1.7664692 4288085770
13.369568 2.3310571 -1.7613866 4288085770
12.965332 2.3948913 -1.7586043 4288085770
12.529266 2.4475389 -1.7486417 4288085770
12.202026 2.5127902 -1.7483554 4288085770
11.925751 2.5813212 -1.7513921 4288085770
11.603577 2.639585 -1.7451565 4288085770
11.355347 2.7062602 -1.7463796 4288085770
11.050232 2.7596078 -1.737267 4288085770
10.84201 2.8264956 -1.7387497 4288085770
10.622772 2.8893161 -1.7361712 4288085770
10.450531 2.9593968 -1.7378802 4288085770
10.273285 3.0264468 -1.7375641 4288085770
10.100067 3.0915132 -1.7352791 4288085770
9.9747925 3.1648431 -1.7372851 4288085770
9.84552 3.2371488 -1.7372687 4288085770
9.7072754 3.3054023 -1.7352033 4288085770
9.6219788 3.3849473 -1.7374532 4288085770
9.4927673 3.4532437 -1.7334466 4288085770
9.3994751 3.5277352 -1.7316577 4288085770
9.3012085 3.6011996 -1.7288392 4288085770
9.2459106 3.6839023 -1.7302763 4288085770
9.1706543 3.7604899 -1.7275994 4288085770
9.2041321 3.8676839 -1.7375531 4288085770
9.1697693 3.9574952 -1.7381094 4288085770
9.1254883 4.0422444 -1.7346134 4288085770
9.1310425 4.1432729 -1.737401 4288085770
9.0867615 4.2270179 -1.7319076 4288085770
9.0744019 4.321939 -1.7295942 4288085770
9.1488342 4.4453464 -1.7367737 4288085770
9.1454468 4.5433135 -1.7335114 4288085770
9.1231384 4.6351676 -1.7251406 4288085770
9.160675 4.7473578 -1.7241082 4288085770
9.2670288 4.8869309 -1.7304559 4288085770
9.3165283 5.0061812 -1.727484 4288085770
9.4059448 5.1416507 -1.7287316 4288085770
9.5003357 5.2801442 -1.7280037 4288085770
9.587738 5.4185939 -1.7242312 4288085770
9.742981 5.5834222 -1.7288334 4288085770
9.8443604 5.7289443 -1.7241337 4288085770
10.016571 5.9058547 -1.7258165 4288085770
10.197693 6.0898147 -1.7275398 4288085770
10.348938 6.263597 -1.7220948 4288085770
10.591888 6.4798923 -1.72614 4288085770
10.807953 6.686029 -1.7240355 4288085770
11.05188 6.9083123 -1.7220724 4288085770
11.320801 7.1457305 -1.7202334 4288085770
11.605591 7.3942313 -1.7184713 4288085770
11.96524 7.6811376 -1.7200994 4288085770
12.355713 7.9882112 -1.7218785 4288085770
15.584045 -0.10833454 -1.8052013 4288085770
14.250244 -0.13437796 -1.7989018 4288085770
13.100464 -0.15544033 -1.7977421 4288085770
12.070679 -0.17187738 -1.7933247 4288085770
11.121857 -0.18589354 -1.7874103 4288085770
10.353027 -0.19793749 -1.7916176 4288085770
9.5991821 -0.20692158 -1.7879133 4288085770
16.406372 -0.40606403 -1.8109038 4288085770
8.9623413 -0.21427584 -1.7889376 4288085770
14.900452 -0.39801502 -1.8024559 4288085770
8.3434753 -0.21954775 -1.7860708 4288085770
13.62854 -0.38972521 -1.7984726 4288085770
7.8126221 -0.22434425 -1.7877538 4288085770
12.504639 -0.3816576 -1.7934167 4288085770
7.3087463 -0.22600555 -1.7865996 4288085770
11.525665 -0.37282228 -1.7902668 4288085770
6.8688354 -0.22831917 -1.7898471 4288085770
10.646759 -0.36346054 -1.7877419 4288085770
6.4449463 -0.22955561 -1.7901931 4288085770
9.8868103 -0.35546494 -1.7879651 4288085770
6.0610352 -0.22957611 -1.7927868 4288085770
9.2138672 -0.34700775 -1.7897313 4288085770
5.7051392 -0.22845078 -1.794553 4288085770
8.5809326 -0.33834696 -1.7887483 4288085770
5.3662415 -0.22723532 -1.7964258 4288085770
8.0039368 -0.3283906 -1.7881134 4288085770
5.0553284 -0.22487307 -1.7984717 4288085770
7.4910278 -0.3190937 -1.7888801 4288085770
4.7634277 -0.22241402 -1.7996364 4288085770
7.019104 -0.30958033 -1.7899029 4288085770
4.5004883 -0.21879196 -1.8039796 4288085770
6.5871277 -0.30085325 -1.7921782 4288085770
4.2346191 -0.21519613 -1.8043048 4288085770
6.1811829 -0.29099464 -1.7926137 4288085770
3.9547119 -0.20868874 -1.7985368 4288085770
5.8102417 -0.28094816 -1.7942679 4288085770
3.7268066 -0.20388937 -1.800097 4288085770
5.4812622 -0.27167606 -1.7981865 4288085770
3.5128784 -0.19901466 -1.8027451 4288085770
5.1672974 -0.26232719 -1.8011992 4288085770
3.3099365 -0.19308615 -1.8044598 4288085770
4.832428 -0.25010633 -1.7960746 4288085770
3.1090088 -0.18714619 -1.8051867 4288085770
4.5514526 -0.23958683 -1.7972915 4288085770
2.9151001 -0.18017435 -1.803956 4288085770
4.2905273 -0.22896338 -1.7986331 4288085770
2.7301941 -0.17315626 -1.8027813 4288085770
4.0335999 -0.21832132 -1.7980001 4288085770
2.5692749 -0.16700172 -1.8057585 4288085770
3.8156128 -0.20846319 -1.8026123 4288085770
2.3993835 -0.15890694 -1.8036754 4288085770
3.5856628 -0.19768381 -1.8001482 4288085770
2.2434387 -0.15173244 -1.8036821 4288085770
3.3667297 -0.18584251 -1.7997508 4288085770
2.1054688 -0.14445448 -1.807801 4288085770
3.1678162 -0.17489576 -1.79948 4288085770
1.9625549 -0.1362133 -1.8068864 4288085770
2.9828491 -0.16486931 -1.8012989 4288085770
1.838623 -0.12886143 -1.8110926 4288085770
2.80896 -0.15378714 -1.8021841 4288085770
1.7037048 -0.11958122 -1.8092263 4288085770
2.6369934 -0.14269686 -1.8020825 4288085770
1.5618286 -0.11034679 -1.8033166 4288085770
2.4760437 -0.13054895 -1.802047 4288085770
2.3061218 -0.1194582 -1.7979586 4288085770
2.1701355 -0.10817242 -1.8010809 4288085770
2.0292358 -0.09692049 -1.8001728 4288085770
1.8923035 -0.085649014 -1.7992902 4288085770
1.7853088 -0.075202942 -1.8055956 4288085770
1.6494141 -0.062931538 -1.801717 4288085770
1.5254822 -0.05059576 -1.7989128 4288085770
1.5201721 1.9135599 -1.761754 4288085770
1.6271973 1.9361053 -1.7583494 4288085770
1.7312622 1.9556293 -1.7529335 4288085770
1.8582458 1.981286 -1.7526429 4288085770
1.992218 2.0089836 -1.75439 4288085770
2.1262207 2.0346742 -1.7531419 4288085770
2.2672119 2.0614066 -1.753933 4288085770
2.4191895 2.0891962 -1.7547889 4288085770
1.5434265 1.8466425 -1.7660136 4288085770
2.5711975 2.1159801 -1.7536464 4288085770
1.6594849 1.8642406 -1.7656744 4288085770
2.7381592 2.1448474 -1.7545903 4288085770
1.7685242 1.8777938 -1.761302 4288085770
2.9041443 2.1727076 -1.7545297 4288085770
1.884613 1.8923883 -1.7589693 4288085770
3.0651855 2.1965356 -1.7514484 4288085770
2.0256348 1.9131255 -1.7617741 4288085770
3.2561035 2.2285295 -1.75353 4288085770
2.1616821 1.9298272 -1.7615578 4288085770
3.4500732 2.2575364 -1.7536366 4288085770
2.2937317 1.9445024 -1.7583215 4288085770
3.6520386 2.2885871 -1.754786 4288085770
2.435791 1.9612379 -1.7581413 4288085770
3.8710327 2.3207288 -1.7570362 4288085770
2.5818176 1.9769912 -1.7569871 4288085770
4.0710449 2.3457541 -1.7521875 4288085770
2.7707825 2.0029893 -1.7650697 4288085770
4.2850342 2.3728585 -1.7494185 4288085770
2.9458008 2.021904 -1.7680836 4288085770
4.5250244 2.4041028 -1.7487972 4288085770
3.085907 2.0306115 -1.7609088 4288085770
4.7730103 2.4343858 -1.7472262 4288085770
3.2460327 2.0424304 -1.7568479 4288085770
5.026001 2.4626956 -1.7456899 4288085770
3.4669495 2.0685978 -1.7661233 4288085770
5.30896 2.4971671 -1.7463207 4288085770
3.6470032 2.0815263 -1.7641804 4288085770
5.5959167 2.5296559 -1.7459803 4288085770
3.8431091 2.0965428 -1.764329 4288085770
5.9098511 2.5652919 -1.7477951 4288085770
4.0032654 2.100348 -1.7542853 4288085770
6.2208252 2.595902 -1.7456038 4288085770
4.2073059 2.1134038 -1.7534869 4288085770
6.5567932 2.6296449 -1.7445557 4288085770
4.4294128 2.1265559 -1.7537966 4288085770
6.8998413 2.6604209 -1.7415562 4288085770
4.6454773 2.1366701 -1.7510769 4288085770
7.2707825 2.6953435 -1.739717 4288085770
4.8875122 2.1509285 -1.7525048 4288085770
7.6707458 2.7304235 -1.740052 4288085770
5.140625 2.1632438 -1.7530031 4288085770
8.0877075 2.7655835 -1.7374892 4288085770
5.4026489 2.1756039 -1.7535563 4288085770
8.5366516 2.8029189 -1.7371147 4288085770
5.6567688 2.1819167 -1.7510738 4288085770
9.0235901 2.8424516 -1.7379646 4288085770
5.9298706 2.1903281 -1.7487013 4288085770
9.5365295 2.8811164 -1.7369733 4288085770
6.2259827 2.1988654 -1.7494674 4288085770
10.099457 2.924047 -1.7382739 4288085770
6.526062 2.205421 -1.7482617 4288085770
10.716309 2.9712634 -1.7418907 4288085770
6.8501892 2.2131047 -1.7491982 4288085770
11.326294 3.0104318 -1.7394826 4288085770
7.1932678 2.2198882 -1.7502513 4288085770
12.088043 3.0684142 -1.7479503 4288085770
7.5393982 2.2226825 -1.7493312 4288085770
12.884888 3.1245761 -1.7546329 4288085770
7.9255066 2.2286944 -1.7516453 4288085770
13.616882 3.1613698 -1.7489655 4288085770
8.2956543 2.227612 -1.7498779 4288085770
14.470764 3.2098155 -1.7500081 4288085770
8.7097778 2.228765 -1.7513716 4288085770
15.470581 3.2700343 -1.7569056 4288085770
9.1219788 2.2249026 -1.7498634 4288085770
9.5881042 2.2233281 -1.7516763 4288085770
10.071228 2.2188411 -1.7535982 4288085770
10.559418 2.2083745 -1.752563 4288085770
11.12558 2.2033267 -1.7569859 4288085770
11.68277 2.1892247 -1.7583747 4288085770
12.320953 2.1795554 -1.7642419 4288085770
12.916229 2.1556444 -1.7628808 4288085770
13.59848 2.1331949 -1.7650409 4288085770
14.316711 2.1069355 -1.7684274 4288085770
15.08905 2.0759559 -1.7711487 4288085770
15.90036 2.0401788 -1.7741158 4288085770
12.49939 -5.2574382 -0.39727247 4293729569
12.412781 -5.3468304 -0.42694402 4293729569
10.004059 -5.0191622 -0.51972258 4293729569
9.9132996 -5.0845671 -0.55231714 4293729569
9.8876953 -5.1746287 -0.58735728 4293729569
8.5457153 -5.0718174 -0.07704246 4293729569
8.5981445 -5.1080561 -0.72044659 4293729569
8.5169983 -5.1458883 -0.1150316 4293729569
8.5303345 -5.1673307 -0.75816858 4293729569
8.5574036 -5.2505927 -0.1565038 4293729569
8.5106201 -5.2453461 -0.80022073 4293729569
7.0505371 -4.8198757 -0.82850885 4293729569
7.3857422 -5.1298914 -0.94320226 4293729569
7.4861755 -5.2552509 -0.99908018 4293729569
12.137054 -7.6410723 -1.4722676 4293729569
11.946899 -7.6499476 -1.5241425 4293729569
11.716644 -7.6370416 -1.5717292 4293729569
11.652466 -7.6631699 -0.80038404 4293729569
11.522461 -7.6369362 -1.6245604 4293729569
11.447144 -7.6531067 -0.86012673 4293729569
5.8457947 -4.7676215 -1.0731463 4293729569
5.7246704 -4.764183 -1.1054103 4293729569
5.8840637 -4.8764296 -0.64560342 4293729569
5.6426392 -4.7795277 -1.14395 4293729569
5.8501282 -4.9145126 -0.68948162 4293729569
5.5766296 -4.8017859 -1.1836011 4293729569
5.7690735 -4.9268436 -0.73101985 4293729569
5.7872009 -4.9735265 -1.260242 4293729569
5.7521362 -4.9718299 -0.77901554 4293729569
5.6800842 -4.9710083 -1.2955918 4293729569
5.7672729 -5.0326433 -0.82923865 4293729569
5.6611938 -5.0160007 -1.3445752 4293729569
5.7022095 -5.0478845 -0.87387896 4293729569
5.7033386 -5.0936561 -1.4029977 4293729569
5.6531677 -5.0710387 -0.92063355 4293729569
5.7685852 -5.1841793 -1.4665866 4293729569
6.0602112 -5.352725 -1.013695 4293729569
5.9179382 -5.3222332 -1.5447855 4293729569
6.057251 -5.3986235 -1.0677755 4293729569
6.2346802 -5.5573525 -1.6532025 4293729569
6.1214294 -5.4831576 -1.1293442 4293729569
6.0172729 -5.4814363 -1.6747274 4293729569
6.1304932 -5.5349874 -1.1865098 4293729569
5.8078308 -5.4064779 -1.6963031 4293729569
6.1565552 -5.5947189 -1.2477949 4293729569
5.5463562 -5.2968135 -1.7074888 4293729569
6.1475525 -5.6326423 -1.3048208 4293729569
5.2928162 -5.1871128 -1.7167232 4293729569
6.2257385 -5.7200866 -1.3734791 4293729569
4.9952393 -5.0466652 -1.7146246 4293729569
6.3299561 -5.8233829 -1.4483285 4293729569
4.7577515 -4.9398851 -1.7219617 4293729569
4.7081604 -4.8751965 -1.2685063 4293729569
4.5092163 -4.8221726 -1.7242084 4293729569
4.7001343 -4.9001298 -1.3185096 4293729569
4.2877808 -4.7173109 -1.7306452 4293729569
4.6760254 -4.9131517 -1.3663902 4293729569
4.0532837 -4.6005335 -1.7299783 4293729569
4.6689758 -4.9350801 -1.4163926 4293729569
3.8318481 -4.4896851 -1.7304025 4293729569
5.0237122 -5.1799884 -1.5310562 4293729569
3.6534424 -4.4025946 -1.7391379 4293729569
5.3883972 -5.4308305 -1.6517923 4293729569
3.4770508 -4.3124986 -1.7458777 4293729569
5.1537781 -5.3070207 -1.6651084 4293729569
3.2876587 -4.2134838 -1.7465205 4293729569
4.9321899 -5.1871452 -1.6775112 4293729569
3.1473083 -4.1421914 -1.757519 4293729569
4.771759 -5.1029296 -1.7003593 4293729569
3.1052246 -4.1323352 -1.7922411 4288085770
4.5862732 -5.0008602 -1.7160172 4293729569
3.0810852 -4.1313748 -1.8320911 4288085770
4.3596802 -4.8700271 -1.7213664 4293729569
3.0519409 -4.1254463 -1.8699 4282675967
4.1401062 -4.7401619 -1.7247593 4293729569
2.9627075 -4.078867 -1.8902586 4282675967
3.9205322 -4.6083021 -1.725148 4293729569
2.7893372 -3.9757814 -1.8849883 4282675967
3.7260132 -4.4903088 -1.7277176 4293729569
2.6439514 -3.8885388 -1.8859212 4282675967
3.5595398 -4.3881612 -1.7344906 4293729569
2.4776001 -3.7854238 -1.8776927 4282675967
3.4141235 -4.2958965 -1.744411 4293729569
2.3282776 -3.6912146 -1.8725863 4282675967
3.2346802 -4.1818342 -1.7430799 4293729569
2.2049866 -3.6128581 -1.8726709 4282675967
3.1704102 -4.138114 -1.7685935 4288085770
2.080658 -3.5315096 -1.871743 4282675967
3.1742554 -4.1360016 -1.8116069 4288085770
1.9553833 -3.4481721 -1.8678045 4282675967
3.1791687 -4.1338882 -1.8526261 4288085770
1.8461304 -3.3737454 -1.8669822 4282675967
3.1489563 -4.1059756 -1.8853784 4282675967
1.7368774 -3.2983234 -1.8641572 4282675967
3.0055237 -4.0057259 -1.8842936 4282675967
1.6366577 -3.2268496 -1.8633952 4282675967
2.8531494 -3.897532 -1.879137 4282675967
1.549408 -3.1633029 -1.8647292 4282675967
2.7147217 -3.7982628 -1.8750846 4282675967
2.5843811 -3.7019522 -1.8710868 4282675967
2.4660645 -3.6125762 -1.8681762 4288085770
2.3517456 -3.5241802 -1.8652918 4288085770
2.2514343 -3.4447074 -1.8645115 4288085770
2.150177 -3.3632452 -1.8607204 4288085770
2.0649109 -3.2906885 -1.8620448 4288085770
1.9676819 -3.2102098 -1.8562801 4288085770
1.8804321 -3.1346753 -1.8525863 4288085770
1.8251953 -3.0789547 -1.8581281 4288085770
1.7630005 -3.0162802 -1.8586121 4288085770
1.7037964 -2.956589 -1.860121 4288085770
1.6446228 -2.8949003 -1.8606253 4282675967
1.5884399 -2.8361967 -1.8601546 4288085770
1.5282288 -2.7735217 -1.8566513 4288085770
1.5068359 -1.3729229 -1.8311675 4288085770
1.5478516 -1.3487215 -1.829349 4288085770
1.5918884 -1.3255029 -1.8285508 4288085770
1.6488647 -1.3042102 -1.8308334 4288085770
1.6908875 -1.2790112 -1.8260188 4288085770
1.7329407 -1.252809 -1.8222013 4288085770
1.7949219 -1.2324948 -1.8225155 4288085770
1.8719482 -1.2160921 -1.8279264 4288085770
1.9069519 -1.1869397 -1.8180614 4288085770
1.9910278 -1.1715012 -1.8235154 4288085770
2.0639954 -1.1511307 -1.8238938 4288085770
2.1360168 -1.1307664 -1.8232658 4288085770
2.2260742 -1.1133022 -1.8267503 4288085770
2.3041077 -1.0929093 -1.8251572 4288085770
2.3721313 -1.0705786 -1.8195012 4288085770
2.4671326 -1.0520921 -1.821012 4288085770
2.5602112 -1.0336227 -1.8195109 4288085770
1.5221252 -0.82297325 -1.8189342 4288085770
2.6612244 -1.0151048 -1.8210573 4288085770
1.6071777 -0.80653334 -1.8223917 4288085770
2.7622681 -0.99659395 -1.8196027 4288085770
1.683197 -0.78814983 -1.8217919 4288085770
2.8782959 -0.97999907 -1.8212409 4288085770
1.7672119 -0.77172279 -1.8222435 4288085770
2.9942932 -0.96240759 -1.8218765 4288085770
1.8512878 -0.75329924 -1.8206899 4288085770
3.1063843 -0.94384241 -1.8194859 4288085770
1.9233398 -0.73394728 -1.8150647 4288085770
3.2134399 -0.92331028 -1.8140616 4288085770
2.0283813 -0.71940231 -1.8196425 4288085770
3.3964233 -0.91434097 -1.828109 4288085770
2.1124268 -0.69998646 -1.8150871 4288085770
3.5214844 -0.89571476 -1.8237944 4288085770
2.2264099 -0.68439722 -1.8187156 4288085770
3.6535339 -0.87605095 -1.8195181 4288085770
2.3114929 -0.6649828 -1.8111656 4288085770
3.8095703 -0.85925436 -1.8193891 4288085770
2.4415283 -0.65030622 -1.8168895 4288085770
3.9595947 -0.84049606 -1.81622 4288085770
2.6035156 -0.6394515 -1.82881 4288085770
4.1236572 -0.82266331 -1.8141348 4288085770
2.6856384 -0.61806202 -1.8172369 4288085770
4.3217163 -0.80864382 -1.8172572 4288085770
2.7966614 -0.59850931 -1.8118379 4288085770
4.5057678 -0.79170656 -1.8152905 4288085770
2.9287109 -0.58183861 -1.8105688 4288085770
4.6828308 -0.77281666 -1.8092782 4288085770
3.073761 -0.56609726 -1.811377 4288085770
4.8928833 -0.75574923 -1.8064632 4288085770
3.2268066 -0.55031443 -1.8122325 4288085770
5.125946 -0.7405529 -1.8077867 4288085770
3.3748779 -0.53256655 -1.8090532 4288085770
5.3609924 -0.7233572 -1.8051171 4288085770
3.5479126 -0.51667833 -1.8110251 4288085770
5.61203 -0.7070756 -1.8035426 4288085770
3.7289429 -0.50075054 -1.812043 4288085770
5.8921204 -0.69164228 -1.8031394 4288085770
3.9039917 -0.48386097 -1.8100233 4288085770
6.1791992 -0.67517614 -1.8017745 4288085770
4.1060486 -0.46782827 -1.8101635 4288085770
6.4822693 -0.65763378 -1.7975004 4288085770
4.3240662 -0.45170784 -1.8123968 4288085770
6.8283081 -0.64285803 -1.7984838 4288085770
4.5211487 -0.43271208 -1.8075001 4288085770
7.1983643 -0.62696648 -1.7966044 4288085770
4.7501831 -0.41554642 -1.8047945 4288085770
7.5884399 -0.61097097 -1.7948415 4288085770
4.9942627 -0.39830208 -1.8031766 4288085770
8.0484619 -0.59660435 -1.7984912 4288085770
5.2473145 -0.38001585 -1.7996082 4288085770
8.5055237 -0.58026838 -1.7951181 4288085770
5.5303345 -0.36256838 -1.7992167 4288085770
9.0145874 -0.56366205 -1.7930479 4288085770
5.8274231 -0.34405231 -1.7969043 4288085770
9.5776672 -0.54777575 -1.7922933 4288085770
6.1434631 -0.32643938 -1.7947047 4288085770
10.210754 -0.53252888 -1.7919493 4288085770
6.5044861 -0.30758762 -1.7957644 4288085770
10.901794 -0.51598501 -1.7909403 4288085770
6.8695374 -0.28872395 -1.7928472 4288085770
11.675873 -0.49901247 -1.791414 4288085770
7.2726135 -0.26966524 -1.7901506 4288085770
12.590912 -0.48430729 -1.7947159 4288085770
7.7186279 -0.24938011 -1.7897022 4288085770
13.649933 -0.47084856 -1.8038604 4288085770
8.2196655 -0.22980881 -1.7905762 4288085770
14.757019 -0.45316458 -1.8042736 4288085770
8.7626953 -0.21002007 -1.7926939 4288085770
16.080078 -0.43736124 -1.8079519 4288085770
9.3457336 -0.18803549 -1.7910395 4288085770
10.007782 -0.16663647 -1.7918468 4288085770
10.713806 -0.14302063 -1.7899048 4288085770
11.534821 -0.11780405 -1.7916296 4288085770
12.479828 -0.092944622 -1.7960773 4288085770
13.564819 -0.065363884 -1.8013349 4288085770
14.791779 -0.036054134 -1.8064156 4288085770
16.202759 -0.002799511 -1.8115585 4288085770
16.15213 0.2072587 -1.801321 4288085770
14.656281 0.19872379 -1.7959528 4288085770
13.371429 0.19324541 -1.7897613 4288085770
12.251587 0.18960238 -1.7854898 4288085770
11.269714 0.1886549 -1.7819865 4288085770
10.436798 0.1874671 -1.783319 4288085770
9.6618958 0.18855953 -1.7799716 4288085770
16.464966 0.21474743 -1.7930071 4288085770
8.9750061 0.19010019 -1.7791166 4288085770
14.982056 0.21729183 -1.7926896 4288085770
8.3780823 0.192101 -1.7817652 4288085770
13.60614 0.2223506 -1.7829669 4288085770
7.8091736 0.19623184 -1.7795656 4288085770
12.477234 0.22666597 -1.7796297 4288085770
7.2972717 0.19965458 -1.7796876 4288085770
11.477325 0.23263168 -1.7770116 4288085770
6.8603516 0.20446205 -1.7832267 4288085770
10.62439 0.23933935 -1.7762158 4288085770
6.4164429 0.20922136 -1.7807269 4288085770
9.8604431 0.24649715 -1.7769179 4288085770
6.0315552 0.21528578 -1.7825546 4288085770
9.1625366 0.25298119 -1.7749915 4288085770
5.7065735 0.22066641 -1.79072 4288085770
8.555603 0.25993299 -1.7775738 4288085770
5.3396606 0.227808 -1.7866471 4288085770
7.9836731 0.26805496 -1.7773499 4288085770
5.0427246 0.23432159 -1.7909675 4288085770
7.4737244 0.27649355 -1.7794728 4288085770
4.7537842 0.23987007 -1.7933345 4288085770
6.9937744 0.2850728 -1.7777636 4288085770
4.4699097 0.24743414 -1.7917254 4288085770
6.5678406 0.29392958 -1.7783561 4288085770
4.2149658 0.25514936 -1.7922788 4288085770
6.177887 0.30296707 -1.7791498 4288085770
3.9620667 0.26287127 -1.7908432 4288085770
5.8119812 0.31112432 -1.7790802 4288085770
3.749115 0.2708025 -1.7936313 4288085770
5.4710693 0.32040882 -1.7801483 4288085770
3.5311584 0.27870131 -1.7933915 4288085770
5.1611023 0.33084726 -1.7803872 4288085770
3.3292847 0.28768444 -1.7942386 4288085770
4.8951416 0.34052134 -1.7868743 4288085770
3.1403503 0.29573011 -1.7941608 4288085770
4.6132507 0.35009623 -1.7852726 4288085770
2.9573975 0.30480814 -1.795115 4288085770
4.3652649 0.35984993 -1.7868605 4288085770
2.7894897 0.3139596 -1.7951522 4288085770
4.1123657 0.36956882 -1.784421 4288085770
2.6265259 0.32213831 -1.7962201 4288085770
3.8784485 0.37938499 -1.7830875 4288085770
2.4716492 0.33135271 -1.7953305 4288085770
3.6774902 0.38938093 -1.7869382 4288085770
2.3067322 0.34051037 -1.7913857 4288085770
3.4645691 0.40029812 -1.7837205 4288085770
2.1827698 0.35089445 -1.7966666 4288085770
3.2796326 0.41036844 -1.785661 4288085770
2.0558167 0.36025715 -1.7989337 4288085770
3.1076965 0.42150402 -1.7876716 4288085770
1.9328918 0.37063789 -1.8002207 4288085770
2.9417419 0.43266821 -1.7887163 4288085770
1.7989807 0.37995386 -1.7974489 4288085770
2.7698059 0.44279528 -1.7867296 4288085770
1.6830139 0.39036608 -1.7977753 4288085770
2.6138916 0.45300627 -1.7858322 4288085770
1.5531921 0.39969492 -1.7910256 4288085770
2.4589539 0.46421576 -1.7829385 4288085770
2.3310242 0.47557545 -1.7861953 4288085770
2.1940918 0.48687792 -1.7844024 4288085770
2.0721436 0.49826431 -1.7856927 4288085770
1.9522095 0.50965738 -1.7859945 4288085770
1.8412476 0.52109814 -1.7873466 4288085770
1.7362976 0.53256893 -1.7887321 4288085770
1.6203918 0.54397392 -1.7850566 4288085770
1.5214539 0.55547285 -1.7854757 4288085770
1.5271912 2.6968379 -1.7403986 4288085770
1.6430664 2.742414 -1.7419345 4288085770
1.7539978 2.783958 -1.7404518 4288085770
1.8887939 2.8356366 -1.745079 4288085770
2.0027771 2.8751922 -1.741617 4288085770
2.1236877 2.91678 -1.7381899 4288085770
2.258606 2.9634471 -1.737828 4288085770
2.3925476 3.0081058 -1.7354648 4288085770
1.4824524 2.6205792 -1.7453132 4288085770
2.536438 3.0558143 -1.7341504 4288085770
1.5964355 2.6551442 -1.7458634 4288085770
2.6932983 3.1065927 -1.7349005 4288085770
1.7023926 2.6846595 -1.7423811 4288085770
2.8581543 3.1604104 -1.7356873 4288085770
1.8303223 2.7222962 -1.7450011 4288085770
3.0230408 3.2112241 -1.7344818 4288085770
1.9642639 2.760962 -1.7466524 4288085770
3.2019043 3.2671123 -1.7353413 4288085770
2.0862427 2.792562 -1.7452533 4288085770
3.3747864 3.3179641 -1.7331793 4288085770
2.222168 2.8292346 -1.7449198 4288085770
3.5726013 3.376946 -1.7341371 4288085770
2.361145 2.8649201 -1.7446053 4288085770
3.7883911 3.4410262 -1.7381821 4288085770
2.5050964 2.9006343 -1.7453182 4288085770
3.9892578 3.4970136 -1.7351627 4288085770
2.6510315 2.9363513 -1.7440419 4288085770
4.1921387 3.5500121 -1.7321608 4288085770
2.8238831 2.9812188 -1.7488933 4288085770
4.4259644 3.6141734 -1.733304 4288085770
2.9459839 3.0007968 -1.7385209 4288085770
4.6697388 3.6793857 -1.7344999 4288085770
3.1149292 3.0396342 -1.7393637 4288085770
4.9275513 3.7466655 -1.7347684 4288085770
3.2858582 3.0764794 -1.7392225 4288085770
5.1853638 3.8119416 -1.734041 4288085770
3.467804 3.1163821 -1.7401342 4288085770
5.4710999 3.8853641 -1.73545 4288085770
3.6617126 3.1573501 -1.7431099 4288085770
5.7638855 3.9568181 -1.7359014 4288085770
3.8496704 3.1942782 -1.7420619 4288085770
6.0706177 4.0303426 -1.7364252 4288085770
4.0436096 3.2302356 -1.7410491 4288085770
6.3934021 4.1069465 -1.7370303 4288085770
4.2176514 3.2560821 -1.7349489 4288085770
6.7540894 4.1927428 -1.7398236 4288085770
4.437561 3.297174 -1.7360675 4288085770
7.092865 4.2654204 -1.7375257 4288085770
4.6475525 3.3322101 -1.7341447 4288085770
7.4536133 4.3432059 -1.7353373 4288085770
4.8655396 3.3662848 -1.7322681 4288085770
7.8583374 4.4312196 -1.7373676 4288085770
5.1214294 3.4115605 -1.7355752 4288085770
8.2341309 4.505074 -1.7322707 4288085770
5.3623962 3.4477534 -1.7348204 4288085770
8.7087097 4.606442 -1.7366564 4288085770
5.6213074 3.48704 -1.7361574 4288085770
9.1335144 4.6865382 -1.7308145 4288085770
5.8692932 3.5202622 -1.733448 4288085770
9.6740112 4.8002429 -1.7385356 4288085770
6.1412048 3.5576119 -1.733861 4288085770
10.18869 4.8977962 -1.73715 4288085770
6.4381409 3.5980868 -1.7354047 4288085770
10.734314 4.9995065 -1.7369254 4288085770
6.723114 3.6314931 -1.7328985 4288085770
11.327942 5.1094565 -1.7369463 4288085770
7.0270996 3.6670012 -1.7334917 4288085770
11.966461 5.2256341 -1.7392011 4288085770
7.3390503 3.7015471 -1.7331314 4288085770
12.642975 5.3470025 -1.7416532 4288085770
7.6809692 3.7412477 -1.7349246 4288085770
13.342529 5.4644771 -1.7402406 4288085770
8.053833 3.7861094 -1.7398765 4288085770
14.068146 5.581079 -1.7389727 4288085770
8.3928223 3.8147845 -1.7376781 4288085770
14.991394 5.746696 -1.7506838 4288085770
8.7967529 3.857801 -1.7428045 4288085770
15.863831 5.8870358 -1.7511714 4288085770
9.166748 3.8866324 -1.7417762 4288085770
9.5687256 3.9186292 -1.7429166 4288085770
10.022644 3.9588914 -1.7473245 4288085770
10.42868 3.9798999 -1.7445118 4288085770
10.877686 4.0061269 -1.7449238 4288085770
11.360626 4.0375314 -1.7485113 4288085770
11.856659 4.0639987 -1.7511814 4288085770
12.351685 4.0834565 -1.751862 4288085770
12.868713 4.1010213 -1.751668 4288085770
13.432739 4.1218286 -1.7557247 4288085770
13.920929 4.1192346 -1.7494164 4288085770
14.54892 4.1393666 -1.7558265 4288085770
15.185974 4.1525378 -1.7603023 4288085770
15.89798 4.1700921 -1.769181 4288085770
10.918365 -2.544955 -1.0437026 4293729569
10.967865 -2.6536365 -1.0792162 4293729569
10.339905 -2.625792 -1.0657003 4293729569
10.421844 -2.7048712 -0.42931628 4293729569
9.9350281 -2.6358054 -1.0674953 4293729569
10.336182 -2.782234 -0.46001697 4293729569
9.8944092 -2.7199445 -1.098459 4293729569
10.304535 -2.8703241 -0.49303877 4293729569
9.9098206 -2.8157952 -1.1337566 4293729569
10.021271 -2.9331453 -1.1796305 4293729569
16.331757 -4.6603732 -1.827183 4288085770
15.650726 -4.6247697 -1.8233573 4288085770
15.082733 -4.6085901 -1.8261964 4288085770
14.490662 -4.5775342 -1.8268704 4288085770
13.972656 -4.5591011 -1.8319798 4288085770
13.461609 -4.5346355 -1.8361142 4288085770
12.973541 -4.5090528 -1.8413725 4288085770
12.532562 -4.4922256 -1.850909 4288085770
12.084473 -4.4654417 -1.8573844 4288085770
11.633392 -4.430676 -1.8618257 4288085770
11.220337 -4.4037151 -1.8694937 4288085770
10.787231 -4.3618646 -1.8720181 4288085770
10.351135 -4.314033 -1.8725123 4288085770
16.057678 -6.2281241 -1.7201385 4293729569
9.8999634 -4.2552862 -1.8688998 4288085770
15.178925 -6.0594873 -1.7209301 4293729569
9.4967957 -4.2072892 -1.8705757 4288085770
12.587097 -5.2967186 -1.5559802 4293729569
9.1166992 -4.1611772 -1.8723822 4288085770
12.52124 -5.373909 -1.6187892 4293729569
8.72052 -4.1031532 -1.8700738 4288085770
12.52948 -5.4777102 -1.6910646 4293729569
8.3003235 -4.0312629 -1.8616025 4288085770
12.224335 -5.4671407 -1.7303619 4293729569
7.9451904 -3.977035 -1.8595283 4288085770
11.480621 -5.2918596 -1.7188821 4293729569
7.5930176 -3.918793 -1.8574615 4288085770
10.904083 -5.169714 -1.7234395 4293729569
7.2558594 -3.8624754 -1.8554819 4288085770
10.27951 -5.0208321 -1.7166731 4293729569
6.9567261 -3.8159578 -1.8587327 4288085770
9.7109985 -4.885664 -1.7132452 4293729569
6.6355591 -3.7555649 -1.8548319 4288085770
9.3226318 -4.8135619 -1.7279489 4293729569
6.3484192 -3.7039943 -1.8551376 4288085770
8.90625 -4.7236123 -1.7364583 4293729569
6.0732727 -3.654361 -1.8565137 4288085770
8.480835 -4.6257148 -1.7419007 4293729569
5.7901306 -3.5967767 -1.8538282 4288085770
8.0083618 -4.5010748 -1.7360249 4293729569
5.5510254 -3.5539601 -1.8574173 4288085770
7.59198 -4.3941474 -1.7344968 4293729569
5.3048706 -3.503185 -1.8579507 4288085770
7.2737122 -4.3227081 -1.7445869 4293729569
5.0527039 -3.4474463 -1.8554397 4288085770
7.0604858 -4.2907124 -1.7703428 4293729569
4.8405762 -3.4054935 -1.8601794 4288085770
6.9223938 -4.2893171 -1.8075795 4288085770
4.6154785 -3.3546147 -1.8598275 4288085770
6.7792969 -4.2819514 -1.8427756 4288085770
4.4023438 -3.305676 -1.8605464 4288085770
6.6161499 -4.2636948 -1.8738368 4288085770
4.2032166 -3.2606647 -1.8623509 4288085770
6.3678894 -4.2048998 -1.8873403 4282675967
3.9890747 -3.2047372 -1.8600485 4288085770
6.0826111 -4.1263075 -1.8925958 4282675967
3.79599 -3.1567025 -1.8588791 4288085770
5.7723083 -4.0318589 -1.8886788 4282675967
3.6138611 -3.1106074 -1.8597746 4288085770
5.4439087 -3.9255128 -1.879636 4282675967
3.4397583 -3.0654714 -1.8617163 4288085770
5.1335449 -3.8230762 -1.8707013 4288085770
3.2766418 -3.0222781 -1.8647227 4288085770
4.8612671 -3.7354417 -1.8660085 4288085770
3.0884705 -2.9662311 -1.8585634 4288085770
4.631012 -3.6625843 -1.8675795 4288085770
2.9203796 -2.9170742 -1.8565292 4288085770
4.4067688 -3.5906997 -1.8681862 4288085770
2.7752991 -2.8747931 -1.8586364 4288085770
4.1645203 -3.5069175 -1.8626668 4288085770
2.6231689 -2.8285549 -1.8576968 4288085770
3.9602661 -3.4379332 -1.8633897 4288085770
2.4740601 -2.7813039 -1.8557713 4288085770
3.7680359 -3.3728888 -1.8641875 4288085770
2.335968 -2.7379935 -1.8559148 4288085770
3.5618286 -3.2979224 -1.8608861 4288085770
2.2019043 -2.6946647 -1.8550808 4288085770
3.3645935 -3.2249146 -1.8566384 4288085770
2.0758057 -2.6532922 -1.8562949 4288085770
3.1994324 -3.1657343 -1.858598 4288085770
1.9377136 -2.6039925 -1.8514254 4288085770
3.0292358 -3.1015851 -1.8575187 4288085770
1.8366089 -2.5714812 -1.8587964 4288085770
2.8550415 -3.0344625 -1.853411 4288085770
1.7115479 -2.5241177 -1.8540022 4288085770
2.7108765 -2.9791765 -1.8554945 4288085770
1.6014709 -2.4846649 -1.855309 4288085770
2.5847168 -2.9317925 -1.8616946 4288085770
1.5033569 -2.4491491 -1.8586903 4282675967
2.4355774 -2.8705442 -1.858737 4288085770
2.2833557 -2.8053143 -1.8537548 4288085770
2.149231 -2.7479906 -1.8508887 4288085770
2.0401001 -2.7025285 -1.8541865 4288085770
1.9209595 -2.6501248 -1.8534138 4288085770
1.8068237 -2.5986953 -1.8536713 4288085770
1.7017212 -2.5502219 -1.8529842 4288085770
1.594574 -2.499763 -1.8512821 4288085770
1.4954834 -2.4522593 -1.8506303 4288085770
6.5029297 -4.8568869 -4.7693663 4282675967
1.5438232 -0.3146534 -1.8067241 4288085770
1.6348877 -0.30121279 -1.8061807 4288085770
1.7289429 -0.28775787 -1.8056533 4288085770
1.8349915 -0.27423716 -1.8071899 4288085770
1.9360657 -0.26074791 -1.8067 4288085770
2.0401611 -0.24824667 -1.8052282 4288085770
2.1542053 -0.23469162 -1.8048072 4288085770
2.2572937 -0.22020388 -1.7993252 4288085770
2.3913574 -0.2075448 -1.8020141 4288085770
2.5274048 -0.19487858 -1.8037136 4288085770
1.5880127 -0.11250162 -1.8044674 4288085770
2.6714783 -0.18217373 -1.8044555 4288085770
1.7110596 -0.10189056 -1.8101022 4288085770
2.8065491 -0.16952229 -1.8021493 4288085770
1.8311157 -0.090299606 -1.8127179 4288085770
2.9576111 -0.15678596 -1.8019285 4288085770
1.9282532 -0.077840805 -1.8072083 4288085770
3.1186829 -0.14400244 -1.8007615 4288085770
2.0473022 -0.065265179 -1.8058162 4288085770
3.291748 -0.13115597 -1.8016582 4288085770
2.1763306 -0.053636551 -1.8064802 4288085770
3.4687805 -0.11729431 -1.8005741 4288085770
2.2924805 -0.041083813 -1.8010716 4288085770
3.6409302 -0.10446453 -1.7964652 4288085770
2.4255676 -0.029440403 -1.7987568 4288085770
3.8519592 -0.092428207 -1.7985678 4288085770
2.581604 -0.018673897 -1.8015673 4288085770
4.0600586 -0.079414845 -1.7976515 4288085770
2.7406616 -0.006893158 -1.803391 4288085770
4.289093 -0.067295074 -1.7978494 4288085770
2.9127197 0.0039510727 -1.8062871 4288085770
4.5191956 -0.054173946 -1.7960508 4288085770
3.073822 0.015729427 -1.8031213 4288085770
4.7782593 -0.041906834 -1.7964094 4288085770
3.2418823 0.027542591 -1.799993 4288085770
5.0592957 -0.028528214 -1.797883 4288085770
3.4389954 0.038509369 -1.802022 4288085770
5.3413696 -0.01615572 -1.7953639 4288085770
3.6490173 0.050540447 -1.8041179 4288085770
5.6574402 -0.0036096573 -1.795027 4288085770
3.8321533 0.062414646 -1.7960694 4288085770
5.9825439 0.0099744797 -1.7917352 4288085770
4.097168 0.072732449 -1.8054643 4288085770
6.3296509 0.022668362 -1.7895634 4288085770
4.3232727 0.083827972 -1.8016477 4288085770
6.7207031 0.036577702 -1.7876241 4288085770
4.5823669 0.095094681 -1.802007 4288085770
7.139801 0.049625874 -1.7858369 4288085770
4.8344421 0.10631514 -1.7973292 4288085770
7.6198425 0.061983585 -1.788378 4288085770
5.1145325 0.11767673 -1.7938006 4288085770
8.1259155 0.075459957 -1.7870553 4288085770
5.4365845 0.12925625 -1.7954965 4288085770
8.6760254 0.089152336 -1.7859674 4288085770
5.7767029 0.13992262 -1.7962904 4288085770
9.2871094 0.10314608 -1.7852054 4288085770
6.112793 0.15155458 -1.7910604 4288085770
9.9761658 0.1175251 -1.7858598 4288085770
6.4949036 0.1624198 -1.7890785 4288085770
10.738251 0.13226128 -1.7859039 4288085770
6.9119873 0.17345905 -1.7882831 4288085770
11.608307 0.14653063 -1.7875276 4288085770
7.3640442 0.18466568 -1.7856746 4288085770
12.629333 0.16155577 -1.7949579 4288085770
7.9031372 0.19532013 -1.791533 4288085770
13.764374 0.17713165 -1.7989964 4288085770
8.4492188 0.20599413 -1.7914283 4288085770
15.047455 0.19443226 -1.8018227 4288085770
9.0372925 0.21786499 -1.7875452 4288085770
9.7313843 0.22927332 -1.7902298 4288085770
10.510437 0.24009895 -1.793371 4288085770
11.34256 0.2511754 -1.7927942 4288085770
12.318604 0.26296759 -1.7959859 4288085770
13.458679 0.27457047 -1.8020549 4288085770
14.719788 0.2857604 -1.8047717 4288085770
16.316803 0.29762602 -1.819284 4288085770
10.434662 -2.784359 -0.45756233 4293729569
10.534241 -2.7068212 -0.4848963 4293729569
16.139526 0.48861837 -1.7953126 4288085770
14.672607 0.50036907 -1.7867422 4288085770
13.434662 0.51224661 -1.7821996 4288085770
12.388702 0.52507067 -1.7805204 4288085770
11.410797 0.53623724 -1.7731452 4288085770
10.612823 0.54828405 -1.7745783 4288085770
9.8858643 0.56068087 -1.775331 4288085770
16.936859 0.81153011 -1.7762094 4288085770
9.236908 0.5724659 -1.7754328 4288085770
15.441956 0.81314039 -1.7705078 4288085770
8.6489563 0.58555269 -1.7758105 4288085770
14.18103 0.81689978 -1.7708576 4288085770
8.1010132 0.5968399 -1.7743657 4288085770
13.076111 0.8214345 -1.7679086 4288085770
7.6140747 0.60942507 -1.7751961 4288085770
12.085205 0.82653379 -1.764472 4288085770
7.150116 0.62112808 -1.773129 4288085770
11.20929 0.83220053 -1.762552 4288085770
6.7441711 0.63311338 -1.7743227 4288085770
10.457397 0.83947706 -1.7621894 4288085770
6.37323 0.64627075 -1.7766745 4288085770
9.7744446 0.84709454 -1.7621369 4288085770
6.0262756 0.65854836 -1.7781334 4288085770
9.1744995 0.85612059 -1.7644584 4288085770
5.7093506 0.6709733 -1.7797267 4288085770
8.6165466 0.86535549 -1.7649691 4288085770
5.4033508 0.68345356 -1.7803705 4288085770
8.1136475 0.87486458 -1.7647259 4288085770
5.12146 0.6960535 -1.7811213 4288085770
7.6376953 0.88350725 -1.7636037 4288085770
4.8724976 0.70881319 -1.7840204 4288085770
7.2227783 0.89344692 -1.7657561 4288085770
4.6175232 0.7215476 -1.7838933 4288085770
6.8318176 0.90450907 -1.7660174 4288085770
4.3925781 0.73442698 -1.7859004 4288085770
6.4708862 0.91471815 -1.7664127 4288085770
4.1766663 0.74735212 -1.786948 4288085770
6.1539307 0.92714071 -1.7700076 4288085770
3.9587097 0.7592721 -1.7849863 4288085770
5.8410034 0.93758774 -1.7706182 4288085770
3.770752 0.77233648 -1.78616 4288085770
5.558075 0.94918299 -1.7713647 4288085770
3.5778198 0.78437948 -1.7843101 4288085770
5.3051147 0.96292067 -1.7762482 4288085770
3.4108582 0.79754543 -1.7865784 4288085770
5.0521545 0.97466278 -1.7771299 4288085770
3.2369385 0.80968332 -1.7848141 4288085770
4.7683105 0.98226738 -1.7678676 4288085770
3.0770264 0.82188797 -1.7841127 4288085770
4.5553284 0.9952054 -1.7699299 4288085770
2.9350586 0.83617735 -1.7864945 4288085770
4.3503723 1.008184 -1.7720237 4288085770
2.7781372 0.84740114 -1.7818019 4288085770
4.1504517 1.0201902 -1.7721446 4288085770
2.643219 0.86072874 -1.7822154 4288085770
3.9684753 1.0332828 -1.7733476 4288085770
2.525238 0.87513638 -1.7847059 4288085770
3.8025208 1.047452 -1.7766235 4288085770
2.4022827 0.88852215 -1.7851734 4288085770
3.641571 1.0616484 -1.7779219 4288085770
2.2753296 0.90089321 -1.7816217 4288085770
3.4676514 1.0727873 -1.7751584 4288085770
2.1833496 0.9174242 -1.7882314 4288085770
3.3236694 1.0870671 -1.7765331 4288085770
2.0704346 0.92986345 -1.7857423 4288085770
3.1747437 1.0993271 -1.7748828 4288085770
3.040802 1.1136599 -1.7753022 4288085770
2.915863 1.1270366 -1.7757607 4288085770
2.7729492 1.1383305 -1.7711365 4288085770
2.6749878 1.1558332 -1.776721 4288085770
2.5620117 1.1702685 -1.7762349 4288085770
2.4480896 1.1837034 -1.7737429 4288085770
2.3491211 1.1982083 -1.7743194 4288085770
2.2391968 1.2116632 -1.7708457 4288085770
2.1552429 1.2282405 -1.7734914 4288085770
2.0652771 1.2437897 -1.7731097 4288085770
1.9803162 1.2593646 -1.7727501 4288085770
2.0408936 3.5952744 -1.7409708 4288085770
2.1566467 3.6718335 -1.7425804 4288085770
2.2634277 3.7433572 -1.740144 4288085770
2.4060669 3.834043 -1.7468905 4288085770
2.5397949 3.9186931 -1.7475896 4288085770
2.6675415 3.9973197 -1.7452545 4288085770
2.8171997 4.0880446 -1.7480314 4288085770
2.967926 4.1777797 -1.7478113 4288085770
3.1305542 4.2735724 -1.7486522 4288085770
3.3021851 4.3724103 -1.7485363 4288085770
2.03479 3.6521764 -1.7449989 4288085770
3.4997559 4.4853683 -1.7535529 4288085770
2.1725159 3.7268434 -1.7487025 4288085770
3.6724548 4.5802159 -1.7504358 4288085770
2.3202515 3.8075585 -1.7524574 4288085770
3.8540955 4.6791072 -1.7463634 4288085770
2.4500732 3.8741937 -1.7501144 4288085770
4.0606995 4.7901196 -1.7444162 4288085770
2.5948181 3.9478984 -1.7498469 4288085770
4.2902222 4.91324 -1.7455862 4288085770
2.746582 4.0236402 -1.7486122 4288085770
4.5087891 5.0263124 -1.7426939 4288085770
2.9122925 4.1064439 -1.7514486 4288085770
4.7672424 5.1605716 -1.7440052 4288085770
3.0860291 4.1902909 -1.7523208 4288085770
5.0157776 5.28579 -1.7422605 4288085770
