# .PCD v0.7 - Point Cloud Data file format
VERSION 0.7
FIELDS x y z rgb
SIZE 4 4 4 4
TYPE F F F U
COUNT 1 1 1 1
WIDTH 1121
HEIGHT 1
VIEWPOINT 0 0 0 1 0 0 0
POINTS 1121
DATA ascii
15.971609 0.75297809 -1.7961769 4288085770
17.200712 0.72735023 -1.7916069 4288085770
4.7896538 -4.8022904 -0.34536165 4293729569
4.7547493 -4.7551446 -0.38415891 4293729569
4.7388344 -4.7180066 -0.42300963 4293729569
4.6823082 -4.6393247 -0.034676488 4293729569
4.7409134 -4.691875 -0.46291623 4293729569
4.7163811 -4.6302152 -0.072673574 4293729569
4.7499924 -4.6687493 -0.50184011 4293729569
4.7404633 -4.6140952 -0.1116365 4293729569
4.763073 -4.6456265 -0.54076791 4293729569
4.7855301 -4.6089921 -0.14965816 4293729569
4.7781525 -4.6235042 -0.5797013 4293729569
4.8226051 -4.5968833 -0.18764785 4293729569
4.8012276 -4.6043849 -0.61865282 4293729569
4.8806763 -4.5967841 -0.22569948 4293729569
4.8483009 -4.5982747 -0.65867281 4293729569
10.35766 -7.722198 -1.467838 4293729569
10.01689 -7.4369807 -1.4835087 4293729569
9.7071133 -7.1717935 -1.4952793 4293729569
9.4363213 -6.9336133 -1.5101819 4293729569
9.1485424 -6.685451 -1.518034 4293729569
8.87076 -6.4463 -1.5239275 4293729569
8.6249676 -6.2271609 -1.5309216 4293729569
8.4051685 -6.0250325 -1.5380006 4293729569
8.2333374 -5.8519139 -1.5492272 4293729569
8.040535 -5.6678061 -1.5543952 4293729569
6.5257301 -4.72753 -0.84266573 4293729569
6.5632439 -4.7887311 -1.3689137 4293729569
6.5248451 -4.6614451 -0.86842972 4293729569
6.5343704 -4.7066512 -1.3895952 4293729569
6.548954 -4.6073689 -0.89525962 4293729569
6.5424843 -4.6435695 -1.4153783 4293729569
6.630043 -4.5813022 -0.92724144 4293729569
6.5855865 -4.5974965 -1.4442542 4293729569
12.032328 -7.2660117 -1.4847448 4293729569
6.8166161 -4.6484151 -1.5016471 4293729569
11.809532 -7.044868 -1.4957535 4293729569
7.2365723 -4.7893214 -1.5895336 4293729569
11.599731 -6.8327365 -1.5058066 4293729569
7.0597649 -4.6272655 -1.5817955 4293729569
11.388933 -6.621613 -1.5128624 4293729569
6.8589706 -4.4552245 -1.5669998 4293729569
11.250114 -6.4505067 -1.5251265 4293729569
6.8750916 -4.3911681 -1.5867871 4293729569
11.090302 -6.2704091 -1.5323392 4293729569
6.9441948 -4.3501124 -1.6137048 4293729569
10.96748 -6.1073203 -1.541647 4293729569
6.9023438 -4.2560716 -1.6213326 4293729569
10.84466 -5.946239 -1.5489616 4293729569
6.8394966 -4.154036 -1.6239126 4293729569
8.6105251 -4.8409734 -1.312983 4293729569
6.8366318 -4.078999 -1.6356437 4293729569
8.5996647 -4.7509284 -1.3256531 4293729569
6.8567581 -4.0139613 -1.6504314 4293729569
8.6018009 -4.664886 -1.3393494 4293729569
7.0358276 -4.0179143 -1.6906101 4293729569
8.6089344 -4.5808511 -1.3520577 4293729569
7.2208939 -4.0218701 -1.7307943 4288085770
8.6080742 -4.4938207 -1.3617477 4293729569
7.4469528 -4.0388207 -1.7780623 4288085770
8.6052208 -4.4047942 -1.370429 4293729569
7.5200615 -3.9887919 -1.7979522 4288085770
8.8392906 -4.4117866 -1.4066689 4293729569
7.4612236 -3.885787 -1.7925324 4288085770
9.0533714 -4.407783 -1.4388511 4293729569
7.3933945 -3.7787876 -1.7840905 4288085770
9.3304348 -4.4247909 -1.4771658 4293729569
7.3785439 -3.6947865 -1.7837788 4288085770
10.328287 -4.7098441 -1.6030943 4293729569
7.3646889 -3.6107855 -1.783468 4288085770
10.361431 -4.621841 -1.609812 4293729569
7.3628426 -3.5317898 -1.783186 4288085770
10.347591 -4.5168395 -1.6094264 4293729569
7.3559914 -3.450799 -1.7808925 4288085770
10.402733 -4.4368501 -1.6151927 4293729569
7.3881264 -3.3848057 -1.7846878 4288085770
10.455873 -4.3568597 -1.620957 4293729569
7.4142685 -3.3168168 -1.7864704 4288085770
10.485025 -4.26788 -1.6206675 4293729569
7.4244118 -3.2428341 -1.7842171 4288085770
10.679132 -4.2329097 -1.6407211 4293729569
7.4515533 -3.1748528 -1.7840008 4288085770
10.966219 -4.2249513 -1.6699558 4293729569
7.5076866 -3.1158714 -1.7878429 4288085770
11.333286 -4.2390075 -1.7063421 4288085770
7.5448265 -3.0498977 -1.7866427 4288085770
11.710356 -4.2510686 -1.7427304 4288085770
7.6029663 -2.9899235 -1.7884831 4288085770
12.069435 -4.2511382 -1.7740595 4288085770
7.6810951 -2.9359531 -1.7923632 4288085770
12.289551 -4.208199 -1.7881081 4288085770
7.7272377 -2.8729911 -1.7891819 4288085770
12.406696 -4.1312613 -1.7879416 4288085770
7.8313675 -2.8240252 -1.7951035 4288085770
11.832014 -3.8592715 -1.7054482 4293729569
7.9055023 -2.7660694 -1.7939656 4288085770
10.835424 -3.4822469 -1.5741951 4293729569
7.9906387 -2.711112 -1.7948486 4288085770
10.819601 -3.3803072 -1.555818 4293729569
8.0897713 -2.6591611 -1.7957544 4288085770
11.027725 -3.3373909 -1.5618554 4293729569
8.1909065 -2.6052151 -1.7956556 4288085770
11.51779 -3.3605132 -1.5963861 4293729569
8.2800446 -2.5482697 -1.7935349 4288085770
12.035852 -3.3846407 -1.6329457 4293729569
8.4241714 -2.5033307 -1.7975072 4288085770
13.717674 -3.6749167 -1.7895161 4288085770
8.5553017 -2.4543915 -1.799453 4288085770
13.947823 -3.611042 -1.786499 4288085770
8.6814365 -2.4024606 -1.7983838 4288085770
14.264948 -3.5631847 -1.7906183 4288085770
8.8325691 -2.3545346 -1.7993516 4288085770
14.559086 -3.5083337 -1.7896912 4288085770
8.9717026 -2.3026133 -1.7972943 4288085770
14.873224 -3.4534955 -1.7877827 4288085770
9.1258373 -2.2526989 -1.7952573 4288085770
15.249348 -3.4086733 -1.7899661 4288085770
9.3129654 -2.207787 -1.7972686 4288085770
15.712471 -3.3738756 -1.7972647 4288085770
9.5070915 -2.160881 -1.7982794 4288085770
16.217583 -3.3421001 -1.8036129 4288085770
9.6952267 -2.1109834 -1.7962739 4288085770
16.70771 -3.3003321 -1.8059112 4288085770
9.9193535 -2.0670886 -1.7983221 4288085770
17.236837 -3.2605863 -1.8072519 4288085770
10.159483 -2.0212045 -1.7993779 4288085770
17.736977 -3.2098475 -1.802527 4288085770
10.418613 -1.9763298 -1.8004547 4288085770
10.699741 -1.9314628 -1.8025516 4288085770
11.001869 -1.8876052 -1.8046709 4288085770
11.359993 -1.8477607 -1.8108555 4288085770
11.703119 -1.8029184 -1.8140085 4288085770
12.087248 -1.7590966 -1.8172022 4288085770
12.534369 -1.7182879 -1.8254642 4288085770
12.970497 -1.671494 -1.8276945 4288085770
13.461626 -1.6257195 -1.8319787 4288085770
13.902765 -1.5699482 -1.8281813 4288085770
14.394905 -1.5132055 -1.8234268 4288085770
14.894053 -1.4524755 -1.8156642 4288085770
15.483185 -1.3947721 -1.8129945 4288085770
16.123327 -1.334096 -1.80936 4288085770
16.796474 -1.2694459 -1.8027413 4288085770
17.582621 -1.2028427 -1.7982186 4288085770
17.149281 1.161531 -1.7879421 4288085770
16.156414 1.2119579 -1.7840475 4288085770
15.328543 1.2653353 -1.7872622 4288085770
14.567671 1.3136761 -1.788543 4288085770
13.858799 1.3569829 -1.7868791 4288085770
13.200926 1.3982606 -1.7832593 4288085770
12.596056 1.4375145 -1.7796855 4288085770
12.020184 1.4727454 -1.7731466 4288085770
11.541309 1.5109565 -1.7736671 4288085770
11.073435 1.5461495 -1.7702066 4288085770
10.667561 1.5833285 -1.7707837 4288085770
10.256685 1.6164892 -1.7653716 4288085770
17.452126 2.4963427 -1.782428 4288085770
9.925808 1.6546445 -1.7689997 4288085770
16.605244 2.5126972 -1.7767619 4288085770
9.588932 1.6887856 -1.7676375 4288085770
15.914362 2.5410097 -1.7791661 4288085770
9.273056 1.7219174 -1.7662944 4288085770
15.26848 2.5672984 -1.7806098 4288085770
8.9981785 1.7580378 -1.7669702 4288085770
14.710598 2.5995584 -1.7850959 4288085770
8.7233028 1.7911515 -1.7656567 4288085770
14.177721 2.629797 -1.7866074 4288085770
8.4814243 1.8272605 -1.7673565 4288085770
13.603842 2.6480236 -1.779132 4288085770
8.2485466 1.8613586 -1.7670699 4288085770
13.160959 2.6782217 -1.7807082 4288085770
8.0206718 1.8944478 -1.7647908 4288085770
12.715078 2.7044082 -1.7782966 4288085770
7.8208008 1.928535 -1.7655278 4288085770
12.260202 2.7235811 -1.7709036 4288085770
7.6289253 1.9626148 -1.7652711 4288085770
11.897326 2.7537339 -1.7695378 4288085770
7.4560394 1.9986932 -1.7670209 4288085770
11.524446 2.7788806 -1.7651826 4288085770
7.2891693 2.0337658 -1.7677786 4288085770
11.18157 2.8070173 -1.7618388 4288085770
7.1312904 2.0708337 -1.7685362 4288085770
10.901693 2.8431435 -1.763512 4288085770
6.9824181 2.1058943 -1.7683071 4288085770
10.637817 2.8782554 -1.7632002 4288085770
6.8465347 2.1429563 -1.7700802 4288085770
10.37394 2.9113641 -1.7618955 4288085770
6.6996613 2.1750093 -1.7678634 4288085770
10.182064 2.9574642 -1.7675971 4288085770
6.5927849 2.2160652 -1.7716435 4288085770
9.9981899 3.0035577 -1.7723043 4288085770
6.4729118 2.253113 -1.7714286 4288085770
9.7753143 3.0386412 -1.7690225 4288085770
6.3600349 2.2901578 -1.7712187 4288085770
9.5984402 3.0817215 -1.7707454 4288085770
6.2481575 2.3261988 -1.7700132 4288085770
9.4445648 3.1297984 -1.7744676 4288085770
6.15028 2.3642406 -1.7708107 4288085770
9.2966919 3.1768689 -1.7771976 4288085770
6.0694046 2.4072778 -1.7726029 4288085770
9.1498203 3.2229323 -1.7779319 4288085770
5.9675331 2.4423075 -1.7694081 4288085770
9.0349483 3.274992 -1.7816678 4288085770
5.8876572 2.4833407 -1.7702082 4288085770
8.9150772 3.3260465 -1.7834041 4288085770
5.814785 2.5253713 -1.7710099 4288085770
8.7982082 3.3761001 -1.7851461 4288085770
5.741909 2.5663948 -1.769815 4288085770
8.7153378 3.4351487 -1.7898808 4288085770
5.6710358 2.6074209 -1.7696216 4288085770
8.6074715 3.4861877 -1.7886257 4288085770
5.6231689 2.6554468 -1.7724202 4288085770
8.5206013 3.5402243 -1.7893751 4288085770
5.5582924 2.6964636 -1.7702312 4288085770
8.471735 3.6082647 -1.7961028 4288085770
5.5144196 2.7434843 -1.7720362 4288085770
8.380867 3.661293 -1.793853 4288085770
5.4665489 2.7905002 -1.7718385 4288085770
8.345005 3.7323244 -1.7995795 4288085770
5.4396782 2.8445206 -1.7756312 4288085770
8.282135 3.7943504 -1.8003186 4288085770
5.3918114 2.8895292 -1.7734406 4288085770
8.2362709 3.8603721 -1.8020555 4288085770
5.3949394 2.9525533 -1.7822232 4288085770
8.2114143 3.9333882 -1.8047831 4288085770
5.3670692 3.0035603 -1.7820258 4288085770
8.1935501 4.009408 -1.8095051 4288085770
5.346199 3.058568 -1.7828196 4288085770
8.1716881 4.083416 -1.8102316 4288085770
5.3243332 3.112572 -1.7826161 4288085770
8.1648293 4.1644244 -1.8129442 4288085770
5.315464 3.1715808 -1.7854044 4288085770
8.1739693 4.2504354 -1.8186504 4288085770
5.3055954 3.2295799 -1.7851956 4288085770
8.1861153 4.3394384 -1.8223486 4288085770
5.3177299 3.2975862 -1.7899675 4288085770
8.1682625 4.4144311 -1.8190745 4288085770
5.3178673 3.360584 -1.7907484 4288085770
8.1904068 4.5074263 -1.8217658 4288085770
5.3200073 3.4235778 -1.7905307 4288085770
8.2645607 4.6214256 -1.8324205 4288085770
5.3471413 3.497581 -1.7962921 4288085770
8.3007126 4.7204113 -1.8341008 4288085770
5.3572807 3.5645711 -1.7960662 4288085770
8.3698654 4.8353996 -1.8407485 4288085770
5.3934212 3.6435668 -1.8008165 4288085770
8.4420204 4.952383 -1.8463914 4288085770
5.4075584 3.713552 -1.7995832 4288085770
8.5041752 5.065361 -1.8490413 4288085770
5.4566994 3.7985454 -1.8053217 4288085770
8.6053371 5.1973381 -1.8566524 4288085770
5.4998436 3.8825312 -1.8080598 4288085770
8.6834965 5.3203053 -1.8582788 4288085770
5.5469894 3.9685185 -1.8117938 4288085770
8.800663 5.4622722 -1.8648663 4288085770
5.6131363 4.0635047 -1.8175097 4288085770
8.9158325 5.6052337 -1.8694489 4288085770
5.6532784 4.1474781 -1.8162457 4288085770
9.0410023 5.7541866 -1.8730175 4288085770
5.7344284 4.2514582 -1.8219408 4288085770
9.2001743 5.9221392 -1.8805443 4288085770
5.7945747 4.3464293 -1.8226527 4288085770
9.457365 6.1410913 -1.9009618 4288085770
5.8827248 4.4574022 -1.8273282 4288085770
9.7745686 6.3950424 -1.9282995 4288085770
5.9478836 4.5563645 -1.8260295 4288085770
10.043766 6.6279802 -1.9456766 4288085770
6.0700417 4.6853361 -1.8346661 4288085770
10.244959 6.8278999 -1.9491208 4288085770
6.1892014 4.8143024 -1.8413006 4288085770
10.441154 7.0268154 -1.9505647 4288085770
6.3173637 4.9492645 -1.8479207 4288085770
10.621351 7.219717 -1.9460186 4288085770
6.4315262 5.077219 -1.8505549 4288085770
10.881559 7.4586143 -1.9503682 4288085770
6.6126976 5.2451782 -1.8630971 4288085770
11.265791 7.7685056 -1.9685571 4288085770
6.7548676 5.3921242 -1.8666848 4288085770
11.629025 8.072382 -1.9797523 4288085770
6.9060402 5.5450659 -1.870258 4288085770
7.0792198 5.7120018 -1.8747978 4288085770
7.2914085 5.9029403 -1.8852811 4288085770
7.5766068 6.1398811 -1.9056553 4288085770
7.9198151 6.4138203 -1.9329408 4288085770
8.2830315 6.7037501 -1.9601846 4288085770
8.5712376 6.9506559 -1.970526 4288085770
8.8024406 7.1625357 -1.9659486 4288085770
9.0436459 7.3814116 -1.9613535 4288085770
9.3338661 7.633275 -1.9596779 4288085770
9.7561111 7.9701385 -1.9747982 4288085770
17.293556 -0.6374464 -1.7817084 4288085770
16.066652 -0.66593361 -1.7811459 4288085770
14.951752 -0.68747807 -1.7776206 4288085770
14.037849 -0.7090807 -1.7822026 4288085770
13.143951 -0.72471142 -1.7807761 4288085770
12.346054 -0.7363801 -1.780388 4288085770
11.638159 -0.74708319 -1.7810446 4288085770
10.964262 -0.754807 -1.7797101 4288085770
10.327368 -0.75855732 -1.7753826 4288085770
16.494236 -1.1971393 -1.7850609 4288085770
9.8174667 -0.76632357 -1.7821355 4288085770
15.35635 -1.1766505 -1.788388 4288085770
9.2935753 -0.76910782 -1.7818649 4288085770
14.379459 -1.1622066 -1.7988207 4288085770
8.8176842 -0.77091265 -1.7816166 4288085770
13.481569 -1.1448069 -1.8062855 4288085770
8.3397903 -0.76872635 -1.7783545 4288085770
12.549694 -1.1174464 -1.7977009 4288085770
7.9258995 -0.76855755 -1.7781332 4288085770
11.747812 -1.0951238 -1.7942015 4288085770
7.541008 -0.76739359 -1.7799239 4288085770
11.020933 -1.0738292 -1.7917454 4288085770
7.2051125 -0.76724052 -1.7847439 4288085770
10.338051 -1.0505676 -1.7853065 4288085770
6.8432274 -0.7621069 -1.7805343 4288085770
9.8051643 -1.0363212 -1.7929761 4288085770
6.5453339 -0.76097012 -1.7853715 4288085770
9.3162727 -1.023097 -1.7996725 4288085770
6.2604408 -0.75784206 -1.7892091 4288085770
8.825386 -1.0058861 -1.8023553 4288085770
5.9725571 -0.75272942 -1.7880391 4288085770
8.3565063 -0.98670006 -1.8000432 4288085770
5.7346573 -0.75061131 -1.7949049 4288085770
7.8986244 -0.96652699 -1.7957343 4288085770
5.4917679 -0.74550104 -1.7987587 4288085770
7.5007401 -0.94936371 -1.7954668 4288085770
5.2648773 -0.74039793 -1.8026209 4288085770
7.1018562 -0.92921877 -1.7901891 4288085770
5.026989 -0.73330641 -1.801471 4288085770
6.7719727 -0.91407537 -1.7929643 4288085770
4.7951012 -0.72422695 -1.7973182 4288085770
6.4650803 -0.8989377 -1.7967519 4288085770
4.6082077 -0.71813393 -1.8031986 4288085770
6.152195 -0.88181877 -1.7945299 4288085770
4.4183121 -0.71204948 -1.8060774 4288085770
5.8903046 -0.86769724 -1.7993443 4288085770
4.2204285 -0.70197868 -1.8039392 4288085770
5.6394196 -0.85457993 -1.8041681 4288085770
4.0185432 -0.69092274 -1.7967961 4288085770
5.382534 -0.83848047 -1.802979 4288085770
3.8456535 -0.68185568 -1.7966746 4288085770
5.1296539 -0.82038641 -1.8007858 4288085770
3.678772 -0.67179155 -1.7965529 4288085770
4.92976 -0.8082881 -1.8066397 4288085770
3.5278816 -0.66372633 -1.7984462 4288085770
4.6838837 -0.78821421 -1.7994441 4288085770
3.371994 -0.65267324 -1.7963274 4288085770
4.496994 -0.77512741 -1.803302 4288085770
3.2471046 -0.64560604 -1.8022376 4288085770
4.3041115 -0.76004887 -1.8041502 4288085770
3.114212 -0.63655233 -1.8031372 4288085770
4.1102257 -0.74298286 -1.8009918 4288085770
2.9963264 -0.62849188 -1.808048 4288085770
3.9073448 -0.72392654 -1.7938224 4288085770
2.8644371 -0.61744547 -1.8069421 4288085770
3.7314644 -0.70787191 -1.7896769 4288085770
3.5965729 -0.69579363 -1.7975655 4288085770
3.4486885 -0.68173456 -1.7984411 4288085770
3.302803 -0.66668177 -1.7973146 4288085770
3.1629181 -0.65163183 -1.7961913 4288085770
3.0450287 -0.63857126 -1.8010859 4288085770
2.9231415 -0.62452269 -1.8019753 4288085770
2.9244804 1.2907705 -1.7922103 4288085770
3.0345955 1.3057046 -1.7871983 4288085770
3.1727142 1.325649 -1.789184 4288085770
3.3108253 1.3445904 -1.7901728 4288085770
3.4359436 1.3595171 -1.7851696 4288085770
3.5840607 1.3774512 -1.7851652 4288085770
3.737175 1.3963797 -1.7841593 4288085770
2.8551636 1.2447736 -1.7943146 4288085770
3.8962936 1.4143059 -1.7831588 4288085770
2.9652786 1.2547131 -1.7913221 4288085770
4.0624123 1.4332325 -1.7831577 4288085770
3.1063919 1.2686598 -1.7943283 4288085770
4.2375259 1.4521518 -1.7821598 4288085770
3.2185059 1.2765851 -1.7873429 4288085770
4.404644 1.4680617 -1.7771684 4288085770
3.3716202 1.2915337 -1.7923502 4288085770
4.603756 1.4879782 -1.778176 4288085770
3.5187302 1.3034682 -1.7923648 4288085770
4.8068771 1.5078897 -1.778185 4288085770
3.6708412 1.3154042 -1.7933811 4288085770
5.0209923 1.5267971 -1.7782011 4288085770
3.7909584 1.3193164 -1.7834114 4288085770
5.239109 1.5456955 -1.7762187 4288085770
3.961071 1.3322446 -1.784431 4288085770
5.5042267 1.5716021 -1.7822307 4288085770
4.1411858 1.3441758 -1.7874576 4288085770
5.733345 1.5884864 -1.7772586 4288085770
4.3042946 1.3520908 -1.7834907 4288085770
5.9924507 1.6073756 -1.7772912 4288085770
4.4894066 1.363013 -1.7845219 4288085770
6.2705765 1.6292536 -1.7763205 4288085770
4.6925163 1.3739316 -1.7865599 4288085770
6.5556946 1.6481252 -1.774362 4288085770
4.8956299 1.3838434 -1.7866008 4288085770
6.8558083 1.6669874 -1.771409 4288085770
5.1197433 1.3947568 -1.7896464 4288085770
7.1699219 1.6868441 -1.7684575 4288085770
5.3048553 1.3976495 -1.781703 4288085770
7.5360451 1.7106962 -1.7705122 4288085770
5.5489693 1.4075513 -1.7837588 4288085770
7.893158 1.7305353 -1.7675765 4288085770
5.7530823 1.4094362 -1.7758255 4288085770
8.2912827 1.7523644 -1.7666489 4288085770
6.0031929 1.4153259 -1.7748964 4288085770
8.7273979 1.7761846 -1.7677286 4288085770
6.2683029 1.4212127 -1.7749723 4288085770
9.1745167 1.7969873 -1.7648219 4288085770
6.5434151 1.4260883 -1.7730551 4288085770
9.679636 1.8237832 -1.7669164 4288085770
6.8325233 1.4309623 -1.7721428 4288085770
10.236753 1.8505576 -1.7690301 4288085770
7.132637 1.4328249 -1.7692441 4288085770
10.800873 1.8743196 -1.7681555 4288085770
7.4567451 1.4356811 -1.7673508 4288085770
11.432991 1.9010568 -1.7682958 4288085770
7.7958527 1.4365313 -1.7654692 4288085770
12.162111 1.9337716 -1.7734517 4288085770
8.1739655 1.4393759 -1.7665952 4288085770
12.954231 1.9664607 -1.77863 4288085770
8.5680714 1.4392076 -1.7657369 4288085770
13.805349 1.9981194 -1.7818332 4288085770
8.9771786 1.4370327 -1.76489 4288085770
14.699472 2.0267439 -1.7800608 4288085770
9.4182873 1.4338415 -1.7630577 4288085770
15.69659 2.05633 -1.7793223 4288085770
9.9353905 1.4346461 -1.7692399 4288085770
16.834715 2.0898685 -1.7816215 4288085770
10.4655 1.4304323 -1.7714428 4288085770
11.027605 1.4242024 -1.7726632 4288085770
11.63171 1.4159584 -1.7749053 4288085770
12.308811 1.4076917 -1.7791734 4288085770
13.031916 1.395407 -1.7834706 4288085770
13.842016 1.382093 -1.7898024 4288085770
14.630117 1.359762 -1.7881547 4288085770
15.542215 1.3353934 -1.7905579 4288085770
16.48831 1.3039985 -1.7889955 4288085770
17.519407 1.2665658 -1.7864827 4288085770
4.8289986 -4.5836396 -0.028768972 4293729569
4.8259277 -4.5872369 -0.45277974 4293729569
4.8020859 -4.5965075 -0.066799045 4293729569
4.8110161 -4.6121068 -0.49185294 4293729569
4.7771797 -4.610373 -0.10583299 4293729569
4.7821083 -4.6249709 -0.53088248 4293729569
4.7662697 -4.6312423 -0.14589411 4293729569
4.7621994 -4.6418395 -0.56992781 4293729569
4.739357 -4.6401067 -0.18491103 4293729569
4.7512894 -4.6637025 -0.61099219 4293729569
4.7504463 -4.6729798 -0.22601807 4293729569
4.7363777 -4.6805692 -0.65103906 4293729569
4.7505341 -4.6958442 -0.26808888 4293729569
4.7224693 -4.697433 -0.69208604 4293729569
4.7526207 -4.7177148 -0.30915695 4293729569
4.7215538 -4.7212939 -0.73515999 4293729569
4.744709 -4.7325778 -0.35119906 4293729569
4.7176437 -4.7401586 -0.77721643 4293729569
4.7517967 -4.7544417 -0.39426851 4293729569
4.7197266 -4.7620187 -0.82128477 4293729569
4.7498817 -4.7693067 -0.43631253 4293729569
4.7358093 -4.7908769 -0.86737984 4293729569
4.7509727 -4.7841706 -0.47935706 4293729569
4.753891 -4.8207374 -0.91347867 4293729569
8.7507515 -7.6095052 -1.4667971 4293729569
8.3219681 -7.3313003 -1.4787512 4293729569
7.9201775 -7.0671077 -1.4897596 4293729569
7.5543785 -6.8239293 -1.5008479 4293729569
7.2055779 -6.5887666 -1.509968 4293729569
4.7444534 -4.8708844 -1.1786125 4293729569
4.7445488 -4.8727441 -1.2226138 4293729569
4.725647 -4.8596063 -1.2635604 4293729569
4.7308311 -4.8029342 -0.86336958 4293729569
4.7137527 -4.8504701 -1.304522 4293729569
4.7339325 -4.7978024 -0.90534854 4293729569
4.6988564 -4.8353353 -1.345463 4293729569
4.7260361 -4.783668 -0.94629472 4293729569
4.6939621 -4.8251948 -1.3884233 4293729569
4.7151413 -4.7655358 -0.98622692 4293729569
4.6950607 -4.8180642 -1.4293952 4293729569
4.7092476 -4.7484097 -1.0251638 4293729569
4.6941566 -4.8059316 -1.4713498 4293729569
4.7113495 -4.7352815 -1.0661159 4293729569
4.697258 -4.7957988 -1.5133125 4293729569
4.7154465 -4.7211556 -1.1060658 4293729569
4.6933632 -4.7776656 -1.5542467 4293729569
4.7185555 -4.7040324 -1.1450049 4293729569
4.6314888 -4.7185578 -1.58103 4293729569
4.7196617 -4.6839108 -1.1829337 4293729569
4.5306282 -4.6314702 -1.5967107 4293729569
4.7377625 -4.6737876 -1.2239 4293729569
4.355793 -4.4904151 -1.5941939 4293729569
4.755867 -4.6616664 -1.2638599 4293729569
4.2079468 -4.3683553 -1.5957471 4293729569
4.7799683 -4.6505504 -1.3038243 4293729569
4.0990906 -4.2712913 -1.6033936 4293729569
4.8150673 -4.6464324 -1.3448149 4293729569
3.9922409 -4.1752324 -1.6100439 4293729569
4.8831596 -4.6613088 -1.3918766 4293729569
3.8873825 -4.078177 -1.6156917 4293729569
5.6410446 -5.1240268 -1.5695963 4293729569
3.7855301 -3.9841256 -1.6203502 4293729569
5.4802055 -4.9819493 -1.5750797 4293729569
3.6866722 -3.8900824 -1.62301 4293729569
5.3273659 -4.8448796 -1.5795817 4293729569
3.6607971 -3.8450084 -1.6438501 4293729569
5.1945229 -4.7208123 -1.5851324 4293729569
3.7028923 -3.8409047 -1.6818435 4293729569
5.0576782 -4.5937533 -1.5876724 4293729569
3.7589912 -3.8457994 -1.7218698 4288085770
4.9368324 -4.4776998 -1.5912528 4293729569
3.826088 -3.8556852 -1.7659155 4288085770
4.818985 -4.3626485 -1.5938377 4293729569
3.841198 -3.8296041 -1.7938288 4288085770
4.7271309 -4.2635951 -1.6004821 4293729569
3.7653351 -3.745573 -1.7955281 4288085770
4.6472702 -4.1715426 -1.6081532 4293729569
3.7014771 -3.6675406 -1.79925 4288085770
4.5554161 -4.0725026 -1.610798 4293729569
3.6296158 -3.5855179 -1.7989568 4288085770
4.4815598 -3.9854627 -1.6154872 4293729569
3.563755 -3.5064974 -1.7986752 4288085770
4.4256935 -3.9074197 -1.6232107 4293729569
3.4918938 -3.4244852 -1.7953824 4288085770
4.4738045 -3.8903408 -1.6541617 4293729569
3.4550285 -3.3614559 -1.8011612 4288085770
4.5549049 -3.8902521 -1.6921766 4293729569
3.3911705 -3.2834463 -1.7978837 4288085770
4.6539993 -3.8991604 -1.7332257 4288085770
3.3463058 -3.2174315 -1.798651 4288085770
4.7391014 -3.8980765 -1.7702382 4288085770
3.2954407 -3.1464267 -1.7954 4288085770
4.729229 -3.8420353 -1.7830456 4288085770
3.2685699 -3.0904055 -1.8002046 4288085770
4.6663742 -3.7560186 -1.7817404 4288085770
3.2307053 -3.0263987 -1.7989796 4288085770
4.6055145 -3.6720033 -1.7804432 4288085770
3.1968384 -2.9653902 -1.7987661 4288085770
4.5596542 -3.5949864 -1.7811728 4288085770
3.1749649 -2.9113798 -1.8005788 4288085770
4.5377846 -3.5319662 -1.7859544 4288085770
3.1471024 -2.8533769 -1.7993767 4288085770
4.5149231 -3.4679456 -1.7907326 4288085770
3.1282272 -2.8003678 -1.8011935 4288085770
4.4790573 -3.3979392 -1.7894881 4288085770
3.1253548 -2.7553558 -1.8060404 4288085770
4.4581871 -3.3339295 -1.7912668 4288085770
3.1224747 -2.7113457 -1.809891 4288085770
4.428318 -3.2669258 -1.7900338 4288085770
3.0986061 -2.6543512 -1.8066936 4288085770
4.4064522 -3.2029219 -1.7898124 4288085770
3.0937309 -2.6073475 -1.8085334 4288085770
4.3905869 -3.1419206 -1.7896025 4288085770
3.1008568 -2.5663385 -1.8133961 4288085770
4.3787193 -3.0839205 -1.7894034 4288085770
3.0989799 -2.5213389 -1.8142436 4288085770
4.3608513 -3.0229254 -1.7871932 4288085770
3.0981102 -2.4773436 -1.8140944 4288085770
4.3689766 -2.9739232 -1.7900286 4288085770
3.0992393 -2.4323492 -1.8139424 4288085770
4.3751106 -2.923923 -1.7918602 4288085770
3.1063652 -2.3913536 -1.8148052 4288085770
4.3782387 -2.8719287 -1.7916844 4288085770
3.1004906 -2.3443656 -1.811645 4288085770
4.398365 -2.8279276 -1.7955393 4288085770
3.1216125 -2.3083658 -1.8155274 4288085770
4.4244843 -2.7859297 -1.7994018 4288085770
3.1117401 -2.2593894 -1.8083599 4288085770
4.4386139 -2.7379394 -1.7992418 4288085770
3.123867 -2.2194028 -1.8072269 4288085770
4.4547386 -2.6909537 -1.7980857 4288085770
3.1419868 -2.1824107 -1.8081052 4288085770
4.4828682 -2.6499629 -1.7999519 4288085770
3.1651115 -2.1474185 -1.8099915 4288085770
4.5069962 -2.6059799 -1.7988074 4288085770
3.1962357 -2.1144247 -1.8128858 4288085770
4.549118 -2.5679874 -1.8026867 4288085770
3.2293549 -2.0824361 -1.814784 4288085770
4.5632439 -2.5190139 -1.7975234 4288085770
3.2554741 -2.0464506 -1.8146676 4288085770
4.6143608 -2.4850249 -1.8014179 4288085770
3.2745972 -2.0084729 -1.8115427 4288085770
4.6444893 -2.4420509 -1.7982779 4288085770
3.3157196 -1.9784837 -1.8144493 4288085770
4.6906128 -2.4040704 -1.799158 4288085770
3.3528404 -1.9464993 -1.8153481 4288085770
4.7347374 -2.3660946 -1.7980373 4288085770
3.4009628 -1.9185123 -1.8182627 4288085770
4.8068542 -2.3361111 -1.8029493 4288085770
3.4300804 -1.8825383 -1.8151466 4288085770
4.869976 -2.3031363 -1.8038493 4288085770
3.4732018 -1.8515601 -1.8150499 4288085770
4.9181023 -2.2651658 -1.8017294 4288085770
3.5223236 -1.8225803 -1.815961 4288085770
4.9892235 -2.2341948 -1.8026377 4288085770
3.5634422 -1.7916074 -1.8138639 4288085770
5.0653419 -2.2032213 -1.8045468 4288085770
3.6175613 -1.7626295 -1.8147761 4288085770
5.1394615 -2.1712542 -1.8044521 4288085770
3.682682 -1.7366495 -1.8177005 4288085770
5.2195854 -2.1402893 -1.8043618 4288085770
3.7128067 -1.7006917 -1.8095841 4288085770
5.2927094 -2.1063285 -1.8022602 4288085770
3.785923 -1.6757145 -1.8125134 4288085770
5.4028282 -2.0823584 -1.8071992 4288085770
3.861042 -1.6517377 -1.8154461 4288085770
5.4789505 -2.048409 -1.8020978 4288085770
3.920166 -1.6227722 -1.8133589 4288085770
5.5770721 -2.0194502 -1.8020176 4288085770
4.0032806 -1.5987949 -1.8172932 4288085770
5.6861877 -1.9914937 -1.8029429 4288085770
4.085392 -1.5738273 -1.8182242 4288085770
5.8013 -1.9645414 -1.8028728 4288085770
4.1565132 -1.545866 -1.8161426 4288085770
5.9144211 -1.9365921 -1.8017985 4288085770
4.2526283 -1.5228972 -1.8190825 4288085770
6.0445366 -1.9106431 -1.8027341 4288085770
4.3517456 -1.4999294 -1.8220229 4288085770
6.1906586 -1.8876967 -1.8046827 4288085770
4.4438591 -1.4749699 -1.821955 4288085770
6.3427734 -1.8647518 -1.8066324 4288085770
4.5349846 -1.4480157 -1.8198802 4288085770
6.4788971 -1.8378153 -1.8045654 4288085770
4.6491013 -1.4270539 -1.82283 4288085770
6.6350136 -1.8128824 -1.8035089 4288085770
4.7592163 -1.4020967 -1.8237653 4288085770
6.8181267 -1.7919459 -1.8064706 4288085770
4.8833351 -1.3801422 -1.8257134 4288085770
7.0142479 -1.7720156 -1.8094383 4288085770
4.998455 -1.355197 -1.8236495 4288085770
7.1943626 -1.7470946 -1.8073859 4288085770
5.1115723 -1.3292508 -1.8215818 4288085770
7.40448 -1.7261753 -1.8083524 4288085770
5.261692 -1.3092995 -1.825541 4288085770
7.6265984 -1.7062569 -1.8103243 4288085770
5.3978043 -1.2853594 -1.824484 4288085770
7.8547173 -1.6843514 -1.8092905 4288085770
5.5589218 -1.2644143 -1.8274417 4288085770
8.1088333 -1.665442 -1.8122712 4288085770
5.6460495 -1.2295022 -1.8123385 4288085770
8.3489494 -1.6405506 -1.8082292 4288085770
5.7941704 -1.2035718 -1.8092766 4288085770
8.6300659 -1.6216612 -1.8082148 4288085770
5.9682808 -1.1816425 -1.8092332 4288085770
8.9421749 -1.6037731 -1.8112096 4288085770
6.1244011 -1.1547232 -1.8041692 4288085770
9.2552929 -1.5838995 -1.8101972 4288085770
6.3125191 -1.1318016 -1.8031244 4288085770
9.5834103 -1.5630341 -1.8081837 4288085770
6.5136375 -1.1088853 -1.8020819 4288085770
9.9255276 -1.5411811 -1.8041694 4288085770
6.7317543 -1.0859728 -1.8020425 4288085770
10.306644 -1.5213351 -1.8021685 4288085770
6.9498749 -1.0620656 -1.7999992 4288085770
10.768757 -1.5075011 -1.8062027 4288085770
7.1759872 -1.0361691 -1.7959507 4288085770
11.203878 -1.4866853 -1.8012075 4288085770
7.4591064 -1.0162635 -1.8009325 4288085770
11.734991 -1.4738774 -1.8052568 4288085770
7.7492256 -0.99437428 -1.8019086 4288085770
12.329105 -1.461092 -1.8093171 4288085770
8.0493393 -0.971488 -1.8028829 4288085770
12.938219 -1.4463253 -1.8093728 4288085770
8.3494606 -0.94561863 -1.7988467 4288085770
13.631332 -1.4335804 -1.8124501 4288085770
8.7145786 -0.92375088 -1.8018355 4288085770
14.369448 -1.4178658 -1.8115246 4288085770
9.0626984 -0.89689589 -1.798804 4288085770
15.146564 -1.4011788 -1.806602 4288085770
9.4338188 -0.87005663 -1.7937764 4288085770
16.009684 -1.3825274 -1.8006879 4288085770
9.8219395 -0.84122992 -1.7867448 4288085770
16.937803 -1.3639069 -1.7927845 4288085770
10.252062 -0.81141567 -1.7807168 4288085770
10.785175 -0.78760672 -1.7847277 4288085770
11.343296 -0.75982046 -1.7847285 4288085770
11.960413 -0.73205709 -1.7847393 4288085770
12.657534 -0.70331287 -1.7877604 4288085770
13.401655 -0.67259932 -1.7867824 4288085770
14.228779 -0.63891983 -1.7848083 4288085770
15.140902 -0.60426998 -1.7838448 4288085770
16.163025 -0.56666994 -1.7798898 4288085770
17.413145 -0.52912235 -1.7859737 4288085770
17.465591 2.7831922 -1.8021594 4288085770
17.168732 2.8803084 -1.8078395 4288085770
16.858873 2.9734192 -1.8105338 4288085770
16.585011 3.0675178 -1.8132241 4288085770
16.357153 3.1646068 -1.8179029 4288085770
16.196297 3.2726865 -1.8265433 4288085770
16.013441 3.3747635 -1.8322047 4288085770
15.821581 3.4718308 -1.8338832 4288085770
15.653725 3.5728929 -1.8365477 4288085770
15.499868 3.6729474 -1.8382151 4288085770
15.34301 3.7719958 -1.8378865 4288085770
15.287155 3.8900397 -1.8464911 4288085770
15.255306 4.0120754 -1.8550817 4288085770
15.27746 4.1471057 -1.8676275 4288085770
15.242611 4.2691288 -1.8722183 4288085770
15.247765 4.4011521 -1.8807746 4288085770
15.276922 4.540164 -1.8883069 4288085770
15.248072 4.6631756 -1.8898945 4288085770
15.316229 4.8131771 -1.8983889 4288085770
15.353384 4.9571767 -1.9029049 4288085770
15.434546 5.115171 -1.9103723 4288085770
15.476704 5.2621546 -1.9108777 4288085770
15.569866 5.4251351 -1.915328 4288085770
15.654028 5.586112 -1.9177854 4288085770
15.702187 5.7380815 -1.9142741 4288085770
15.913368 5.9440446 -1.925577 4288085770
16.177551 6.1689959 -1.9388144 4288085770
16.434738 6.3959475 -1.9510455 4288085770
16.708925 6.6328864 -1.9612424 4288085770
16.940109 6.8588161 -1.9644777 4288085770
17.2083 7.1037378 -1.9686482 4288085770
17.490494 7.3566513 -1.9717915 4288085770
16.997427 -0.23278427 -1.7768226 4288085770
15.675529 -0.24535084 -1.7791381 4288085770
14.496632 -0.25496721 -1.7804148 4288085770
13.440741 -0.2616272 -1.7806569 4288085770
12.491846 -0.26533222 -1.7778676 4288085770
11.59395 -0.26607275 -1.7690587 4288085770
10.82806 -0.26684093 -1.765222 4288085770
17.526058 -0.45501566 -1.7693235 4288085770
10.148169 -0.26662683 -1.764364 4288085770
16.05517 -0.43853951 -1.7695858 4288085770
9.555275 -0.26642895 -1.7674879 4288085770
14.808285 -0.42313099 -1.7718035 4288085770
8.9763851 -0.26326132 -1.7625998 4288085770
13.738398 -0.40977764 -1.7749897 4288085770
8.4894943 -0.26109791 -1.7656951 4288085770
12.75951 -0.39546251 -1.7751539 4288085770
8.0596046 -0.2589469 -1.7707783 4288085770
11.862621 -0.37919092 -1.7702948 4288085770
7.6057167 -0.25381756 -1.766858 4288085770
11.052734 -0.3649478 -1.7654238 4288085770
7.2328224 -0.25069141 -1.7699264 4288085770
10.363846 -0.35072517 -1.7665263 4288085770
6.8739357 -0.24557304 -1.7719859 4288085770
9.7319603 -0.33752441 -1.7666202 4288085770
6.5530472 -0.2414608 -1.7760404 4288085770
9.1420708 -0.32434702 -1.7637055 4288085770
6.2291565 -0.23536062 -1.7760898 4288085770
8.6321831 -0.31118298 -1.7647732 4288085770
5.9542656 -0.23026085 -1.7811315 4288085770
8.1582985 -0.29903364 -1.7648367 4288085770
5.6753769 -0.22317219 -1.7821681 4288085770
7.7204094 -0.28589296 -1.7658895 4288085770
5.4074898 -0.21609354 -1.7812027 4288085770
7.3215179 -0.27376556 -1.766937 4288085770
5.158596 -0.20901775 -1.7812334 4288085770
6.9566345 -0.26164532 -1.7689773 4288085770
4.9347115 -0.20194054 -1.7842586 4288085770
6.631752 -0.25053167 -1.7730118 4288085770
4.7178192 -0.19487238 -1.7852823 4288085770
6.3118629 -0.23842955 -1.7740426 4288085770
4.503933 -0.18681097 -1.7843027 4288085770
6.017971 -0.226336 -1.7750678 4288085770
4.3060379 -0.17875576 -1.7833195 4288085770
5.7480812 -0.21424437 -1.7780879 4288085770
4.1321526 -0.17069149 -1.7873311 4288085770
5.4861946 -0.20316124 -1.7791096 4288085770
3.9832649 -0.16362286 -1.7953399 4288085770
5.2353058 -0.19008827 -1.7781227 4288085770
3.8133774 -0.15457296 -1.7953478 4288085770
5.003418 -0.17801476 -1.7791349 4288085770
3.6664886 -0.14651775 -1.7993536 4288085770
4.7805367 -0.16595459 -1.777145 4288085770
3.5116005 -0.13747311 -1.7993585 4288085770
4.5926476 -0.15487957 -1.7831506 4288085770
3.372715 -0.12842751 -1.8013597 4288085770
4.4087601 -0.14381552 -1.7861555 4288085770
3.2358246 -0.11938524 -1.8023607 4288085770
4.220871 -0.13076019 -1.7861552 4288085770
3.0879326 -0.10935879 -1.7973614 4288085770
4.0469856 -0.11970901 -1.7861582 4288085770
2.9370461 -0.098337173 -1.7903597 4288085770
3.8961029 -0.10764933 -1.7911527 4288085770
3.7402115 -0.095601082 -1.7921487 4288085770
3.5963249 -0.084553719 -1.7941451 4288085770
3.4514351 -0.07251215 -1.7941389 4288085770
3.3195496 -0.06046772 -1.7961296 4288085770
3.1996651 -0.04842186 -1.8001176 4288085770
3.0507698 -0.035404682 -1.79211 4288085770
2.9058838 -0.022388458 -1.7841015 4288085770
2.8528824 1.9989741 -1.7794359 4288085770
2.9780006 2.0299377 -1.7822944 4288085770
3.0951157 2.0578911 -1.7811648 4288085770
3.225235 2.0888467 -1.7820213 4288085770
3.3403511 2.1137881 -1.7769018 4288085770
3.4874725 2.147748 -1.7807426 4288085770
3.6245918 2.1766951 -1.7796026 4288085770
3.7767067 2.2096438 -1.7804447 4288085770
2.8716736 1.9349513 -1.7876182 4288085770
3.9298286 2.2405891 -1.7802926 4288085770
2.9837875 1.9539034 -1.7855183 4288085770
4.0819397 2.2705281 -1.7781439 4288085770
3.1129074 1.9768627 -1.7874 4288085770
4.2490616 2.3024688 -1.7779835 4288085770
3.2200203 1.9918036 -1.7813141 4288085770
4.4181824 2.3344021 -1.7758223 4288085770
3.3601341 2.0157628 -1.7841886 4288085770
4.6072998 2.3693423 -1.7776444 4288085770
3.4962463 2.0367131 -1.7840738 4288085770
4.8144226 2.4092827 -1.7814443 4288085770
3.6333656 2.0566604 -1.7829614 4288085770
5.0115433 2.4432139 -1.7812665 4288085770
3.7834778 2.0796127 -1.7848352 4288085770
5.2196617 2.4791412 -1.7810782 4288085770
3.931591 2.0995598 -1.7847188 4288085770
5.4257812 2.5110602 -1.7779032 4288085770
4.0917091 2.1205027 -1.7845948 4288085770
5.6548958 2.5469811 -1.7777072 4288085770
4.2428246 2.1374393 -1.7814865 4288085770
5.8690186 2.5768909 -1.772535 4288085770
4.4009361 2.1553764 -1.7793723 4288085770
6.1311378 2.6188076 -1.7743081 4288085770
4.6090584 2.1863325 -1.7881994 4288085770
6.3812561 2.6537156 -1.7721071 4288085770
4.7761726 2.2022607 -1.7840883 4288085770
6.6603737 2.6936202 -1.7718799 4288085770
4.9732857 2.2242014 -1.7869471 4288085770
6.9474983 2.7325225 -1.7716526 4288085770
5.1303902 2.2331171 -1.7778609 4288085770
7.2576218 2.7754207 -1.7724046 4288085770
5.3285065 2.2510478 -1.7777318 4288085770
7.5677414 2.8143096 -1.7701687 4288085770
5.5416222 2.2709773 -1.7785907 4288085770
7.9248695 2.8622022 -1.7738873 4288085770
5.7587357 2.2888989 -1.7774543 4288085770
8.2749863 2.9030781 -1.7716302 4288085770
5.9768524 2.3048174 -1.7753235 4288085770
8.65411 2.9479511 -1.7713497 4288085770
6.2119637 2.3227396 -1.7761803 4288085770
9.0892372 3.002825 -1.7770175 4288085770
6.4390755 2.3346486 -1.7720585 4288085770
9.5163612 3.0506859 -1.7777096 4288085770
6.6851883 2.3505611 -1.7709169 4288085770
10.019493 3.1115444 -1.7853333 4288085770
6.9382973 2.3634682 -1.7687819 4288085770
10.551624 3.1733904 -1.791943 4288085770
7.2234116 2.3803747 -1.7696229 4288085770
11.116753 3.2362261 -1.798537 4288085770
7.5105286 2.3952773 -1.7694689 4288085770
11.698885 3.2970469 -1.8021305 4288085770
7.8126373 2.4091749 -1.7693123 4288085770
12.346018 3.3648593 -1.8096782 4288085770
8.124752 2.4220698 -1.769155 4288085770
13.059153 3.4406569 -1.8191761 4288085770
8.4278622 2.4289579 -1.7660193 4288085770
13.792286 3.5094359 -1.8246878 4288085770
8.7799778 2.4408431 -1.76685 4288085770
14.643429 3.5941961 -1.8361061 4288085770
9.1250839 2.4487209 -1.7646952 4288085770
15.492563 3.667938 -1.8415585 4288085770
9.5031986 2.4575944 -1.7645249 4288085770
16.385695 3.7416592 -1.8449938 4288085770
9.8923073 2.4644647 -1.7643565 4288085770
17.462839 3.8383567 -1.8592894 4288085770
10.316422 2.4733334 -1.7671686 4288085770
10.738529 2.4761896 -1.7659998 4288085770
11.208641 2.4810405 -1.7678068 4288085770
11.70575 2.4848855 -1.7706063 4288085770
12.233858 2.486721 -1.7734004 4288085770
12.813972 2.4905496 -1.7791684 4288085770
13.418083 2.4913702 -1.7849363 4288085770
13.999189 2.4801764 -1.7837495 4288085770
14.623293 2.4689779 -1.7855461 4288085770
15.311399 2.4577656 -1.7893184 4288085770
15.953499 2.4305429 -1.785157 4288085770
16.706602 2.4083037 -1.786938 4288085770
17.442701 2.3760607 -1.7857558 4288085770
12.003918 -3.2981653 -0.30212852 4293729569
11.887007 -3.3740954 -0.31440508 4293729569
16.816948 -5.1490998 -0.49991542 4293729569
16.705032 -5.25699 -0.52528679 4293729569
10.783424 -4.9014649 -0.11548112 4293729569
10.792751 -4.9223609 -0.7895416 4293729569
10.742521 -4.9803386 -0.15373668 4293729569
9.1700077 -4.3800273 -0.73351651 4293729569
8.9511261 -4.3748918 -0.75658518 4293729569
9.3388824 -4.5957141 -0.21410674 4293729569
8.7512455 -4.3747573 -0.78066164 4293729569
8.7710514 -4.4444499 -0.24286526 4293729569
8.6363564 -4.4056325 -0.81079978 4293729569
8.6371651 -4.4663072 -0.27698311 4293729569
8.6014595 -4.4695144 -0.84700751 4293729569
8.6002693 -4.5281844 -0.31418538 4293729569
8.5925617 -4.5433946 -0.88623542 4293729569
8.5863724 -4.5970616 -0.35339981 4293729569
8.6106586 -4.6282725 -0.92848641 4293729569
8.6054726 -4.6809449 -0.39464721 4293729569
8.6187592 -4.709146 -0.97172904 4293729569
8.6125717 -4.7588181 -0.43688083 4293729569
8.6098633 -4.7800126 -1.0149475 4293729569
8.6096725 -4.8326879 -0.48010612 4293729569
8.5839672 -4.8448749 -1.0581545 4293729569
12.770638 -6.8597941 -1.5106652 4293729569
12.1968 -6.6925931 -1.5183771 4293729569
11.650961 -6.5304036 -1.5250934 4293729569
11.143124 -6.3782248 -1.5328255 4293729569
10.616285 -6.2090545 -1.5355135 4293729569
10.194437 -6.0848899 -1.547298 4293729569
9.7475929 -5.9417357 -1.5530343 4293729569
9.2937508 -5.7875896 -1.5557399 4293729569
8.8879032 -5.6514506 -1.5604818 4293729569
6.7072411 -4.5825381 -1.3130755 4293729569
6.6641045 -4.5749488 -0.85806543 4293729569
6.6233635 -4.5934043 -1.3491402 4293729569
6.594223 -4.5908074 -0.89813954 4293729569
6.5714798 -4.6192641 -1.3902378 4293729569
6.5483398 -4.6166625 -0.94123471 4293729569
6.5335999 -4.6521211 -1.4343513 4293729569
6.538456 -4.6595178 -0.98836732 4293729569
6.5277138 -4.6999707 -1.4834977 4293729569
6.5415726 -4.7093711 -1.0375161 4293729569
6.5298233 -4.7518144 -1.5356534 4293729569
6.5356865 -4.753222 -1.0866501 4293729569
6.5249443 -4.7986579 -1.5867963 4293729569
6.5307999 -4.7960706 -1.1357806 4293729569
6.3030853 -4.7215543 -1.5996466 4293729569
9.212595 -6.3466849 -1.5334466 4293729569
6.0742188 -4.6374583 -1.6084785 4293729569
8.7457714 -6.1385283 -1.537993 4293729569
5.8013649 -4.5243783 -1.6082395 4293729569
8.306942 -5.939383 -1.5415561 4293729569
5.5625038 -4.4273 -1.6110362 4293729569
7.9111099 -5.7592454 -1.5471603 4293729569
5.3006477 -4.3132291 -1.6087902 4293729569
7.5472794 -5.5931163 -1.5537949 4293729569
5.0937843 -4.2271543 -1.6136078 4293729569
7.2204323 -5.4429898 -1.5624639 4293729569
4.8799171 -4.1350865 -1.61541 4293729569
6.8905907 -5.2868733 -1.5681157 4293729569
4.6990547 -4.0580134 -1.6222448 4293729569
6.597744 -5.1487632 -1.575808 4293729569
4.5001907 -3.9689531 -1.6230503 4293729569
6.3358955 -5.0256572 -1.5845337 4293729569
4.3403244 -3.8988833 -1.6308982 4293729569
6.0800476 -4.9015536 -1.5932541 4293729569
4.2534523 -3.8717866 -1.6548482 4293729569
5.8012009 -4.760468 -1.593932 4293729569
4.2205772 -3.8746696 -1.6908678 4293729569
5.5773506 -4.6493793 -1.6016797 4293729569
4.1827011 -3.8745537 -1.7258806 4288085770
5.3284988 -4.5193076 -1.6013795 4293729569
4.1418228 -3.8694401 -1.759879 4288085770
5.0606499 -4.3752475 -1.5950445 4293729569
4.0869522 -3.8553348 -1.7898556 4288085770
4.8657913 -4.2731729 -1.6008084 4293729569
3.9530869 -3.7892771 -1.7967055 4288085770
4.6959305 -4.1830974 -1.609599 4293729569
3.8042183 -3.7112322 -1.7975249 4288085770
4.5060768 -4.079041 -1.6103549 4293729569
3.6703491 -3.6411839 -1.8013626 4288085770
4.3542099 -3.9959683 -1.6201597 4293729569
3.5264816 -3.5621476 -1.8001772 4288085770
4.1833534 -3.8989134 -1.6219298 4293729569
3.3976135 -3.4911094 -1.8010101 4288085770
4.1294823 -3.8728147 -1.6498687 4293729569
3.2717476 -3.4200759 -1.8008418 4288085770
4.1116066 -3.8676991 -1.6868571 4293729569
3.1488762 -3.3480463 -1.7996694 4288085770
4.1047325 -3.8675785 -1.7268559 4288085770
3.0300026 -3.2780175 -1.7985015 4288085770
4.1128616 -3.874455 -1.7688701 4288085770
2.9271355 -3.2169814 -1.8013548 4288085770
4.0579872 -3.8413625 -1.7947878 4288085770
3.9161224 -3.7523236 -1.7945707 4288085770
3.7902603 -3.6712828 -1.7963716 4288085770
3.6733932 -3.5942397 -1.8001808 4288085770
3.5525284 -3.5132108 -1.7989796 4288085770
3.4176636 -3.4221902 -1.793754 4288085770
3.3347931 -3.3621478 -1.8006014 4288085770
3.2269287 -3.2851257 -1.7984074 4288085770
3.1160583 -3.2061095 -1.7942086 4288085770
3.0401878 -3.1470766 -1.7990564 4288085770
2.9553146 -3.0820556 -1.7988898 4288085770
2.8634415 -3.011045 -1.794708 4288085770
2.8281059 -1.1352711 -1.8147471 4288085770
2.893219 -1.1182966 -1.8146596 4288085770
2.9513321 -1.0983272 -1.8125664 4288085770
3.0204506 -1.0803537 -1.8124738 4288085770
3.0845642 -1.0603857 -1.8103772 4288085770
3.1516762 -1.0414214 -1.8072823 4288085770
3.237793 -1.0254474 -1.8091872 4288085770
3.3059006 -1.0054903 -1.8040886 4288085770
3.386013 -0.98752403 -1.80299 4288085770
3.4661293 -0.96956635 -1.7988912 4288085770
3.5512428 -0.95060778 -1.795787 4288085770
3.6663589 -0.93763447 -1.8006858 4288085770
3.7484703 -0.91868353 -1.7945828 4288085770
3.8635826 -0.90471983 -1.7964784 4288085770
2.8716965 -0.72737312 -1.809429 4288085770
3.991703 -0.89175272 -1.8003705 4288085770
2.94981 -0.71141577 -1.8053378 4288085770
4.1098137 -0.87579823 -1.7992581 4288085770
3.0399208 -0.6964469 -1.8062433 4288085770
4.2569275 -0.86383057 -1.8051432 4288085770
3.1290398 -0.67948866 -1.8031433 4288085770
4.3880386 -0.84888029 -1.8040271 4288085770
3.2351494 -0.66551828 -1.8060435 4288085770
4.5231552 -0.83393049 -1.8029088 4288085770
3.3092575 -0.64757776 -1.7959476 4288085770
4.6652641 -0.81798744 -1.8007835 4288085770
3.4183731 -0.63261795 -1.795843 4288085770
4.8163795 -0.80304289 -1.7996567 4288085770
3.5364876 -0.6186533 -1.797737 4288085770
4.9794922 -0.78909874 -1.7995267 4288085770
3.6355972 -0.60270834 -1.7916342 4288085770
5.1416016 -0.7741642 -1.7963938 4288085770
3.7657089 -0.58874846 -1.7935216 4288085770
5.3237152 -0.75922585 -1.7962506 4288085770
3.9118233 -0.57578468 -1.7984039 4288085770
5.5088272 -0.745296 -1.7941087 4288085770
4.0519409 -0.56283379 -1.7982891 4288085770
5.7149391 -0.73136568 -1.7939557 4288085770
4.2030525 -0.54887962 -1.8001651 4288085770
5.9200478 -0.71744347 -1.790803 4288085770
4.3541641 -0.53493547 -1.7990413 4288085770
6.1481628 -0.70452023 -1.7906413 4288085770
4.515274 -0.52098846 -1.7999117 4288085770
6.3772736 -0.68960905 -1.7864727 4288085770
4.6703911 -0.5060544 -1.7957823 4288085770
6.6133881 -0.6747036 -1.7813001 4288085770
4.8335037 -0.49111986 -1.7926484 4288085770
6.8824959 -0.6607995 -1.7791133 4288085770
5.0276184 -0.47718239 -1.7935015 4288085770
7.1736069 -0.64790106 -1.7769179 4288085770
5.2327271 -0.46424866 -1.7943516 4288085770
7.4817238 -0.63401461 -1.7727103 4288085770
5.4228363 -0.4483285 -1.7892001 4288085770
7.829834 -0.62212515 -1.7734877 4288085770
5.6609535 -0.43640232 -1.7910358 4288085770
8.207943 -0.61124849 -1.7732522 4288085770
5.8880653 -0.42148447 -1.7888676 4288085770
8.6070557 -0.59838057 -1.7719994 4288085770
6.1291771 -0.40757132 -1.7866949 4288085770
9.0421696 -0.58752203 -1.7717334 4288085770
6.3562851 -0.39067459 -1.7775201 4288085770
9.5582809 -0.57767534 -1.7754275 4288085770
6.6203957 -0.37578106 -1.7713317 4288085770
10.073395 -0.56584311 -1.7741156 4288085770
6.9455109 -0.36287785 -1.7741174 4288085770
10.644506 -0.55502844 -1.7727767 4288085770
7.2656212 -0.34799242 -1.7708991 4288085770
11.299618 -0.54423428 -1.7733933 4288085770
7.6337318 -0.33410883 -1.7716585 4288085770
12.062735 -0.53645802 -1.778962 4288085770
8.0208435 -0.32023478 -1.7714075 4288085770
12.870846 -0.52671194 -1.7794998 4288085770
8.4319611 -0.30537367 -1.76914 4288085770
13.799957 -0.5179925 -1.7829763 4288085770
8.8950729 -0.29052305 -1.768845 4288085770
14.798069 -0.50831366 -1.7804123 4288085770
9.4191856 -0.27668476 -1.7705204 4288085770
15.934181 -0.49768114 -1.7767712 4288085770
9.9843006 -0.26285934 -1.7721736 4288085770
17.336292 -0.49109793 -1.7830012 4288085770
10.601412 -0.2470541 -1.7717927 4288085770
11.314528 -0.23226833 -1.7753633 4288085770
12.138645 -0.21850109 -1.7838777 4288085770
13.029762 -0.20176983 -1.7873464 4288085770
14.033878 -0.18607378 -1.7907574 4288085770
15.106993 -0.16741467 -1.7891209 4288085770
16.393108 -0.14880848 -1.7913706 4288085770
17.400127 0.10052657 -1.7920438 4288085770
15.969234 0.1049509 -1.7941935 4288085770
14.746344 0.11131001 -1.7951682 4288085770
13.729462 0.11763239 -1.8039753 4288085770
12.673563 0.12390804 -1.7938157 4288085770
11.770668 0.13115358 -1.7885284 4288085770
10.89776 0.13835955 -1.7732178 4288085770
17.801846 0.18036318 -1.7884096 4288085770
10.190868 0.1465559 -1.7707685 4288085770
16.230951 0.19180465 -1.7826577 4288085770
9.5439758 0.15472531 -1.7652707 4288085770
15.045071 0.20318031 -1.7925907 4288085770
9.0190887 0.16288519 -1.7686731 4288085770
14.02519 0.21550632 -1.8023854 4288085770
8.5202007 0.17203164 -1.7700516 4288085770
12.994297 0.22579002 -1.7971964 4288085770
8.0573044 0.18016148 -1.7694041 4288085770
12.038397 0.23603606 -1.7869469 4288085770
7.6444206 0.18928218 -1.7707126 4288085770
11.170498 0.24624944 -1.7746257 4288085770
7.2475319 0.19839215 -1.7700087 4288085770
10.434603 0.25744224 -1.7681934 4288085770
6.911644 0.20749903 -1.7742546 4288085770
9.8117123 0.26761627 -1.7666717 4288085770
6.5847549 0.21759415 -1.7754903 4288085770
9.2378235 0.27877307 -1.7641071 4288085770
6.2718658 0.22668242 -1.7757181 4288085770
8.7449341 0.28992057 -1.7664762 4288085770
5.9999847 0.23677039 -1.7799091 4288085770
8.3010483 0.30105686 -1.7698052 4288085770
5.7420959 0.24685097 -1.7830888 4288085770
7.8851624 0.31218171 -1.7721115 4288085770
5.4902077 0.25692391 -1.7842641 4288085770
7.4802742 0.32329082 -1.7704091 4288085770
5.2533188 0.26699209 -1.785427 4288085770
7.1153831 0.33439112 -1.7696743 4288085770
5.0254326 0.27604866 -1.7835857 4288085770
6.7894974 0.34548926 -1.7719071 4288085770
4.824543 0.28711247 -1.7867163 4288085770
6.497612 0.35758305 -1.7761092 4288085770
4.6176529 0.29716587 -1.7858551 4288085770
6.2047195 0.36866522 -1.7763156 4288085770
4.4327621 0.30721855 -1.7869757 4288085770
5.9398346 0.37974501 -1.778499 4288085770
4.2658806 0.31827211 -1.7900786 4288085770
5.6859474 0.39181519 -1.7786704 4288085770
4.1009865 0.32932186 -1.7921799 4288085770
5.4530602 0.40388536 -1.7808245 4288085770
3.9531021 0.34036994 -1.7952675 4288085770
5.2291718 0.41494679 -1.7809745 4288085770
3.7922173 0.35040665 -1.7933689 4288085770
5.0272827 0.42700791 -1.7831033 4288085770
3.6623306 0.36245513 -1.7984385 4288085770
4.8253937 0.43806267 -1.7832354 4288085770
3.5374451 0.37349939 -1.8025072 4288085770
4.6345062 0.45011115 -1.7823557 4288085770
3.4265633 0.38554859 -1.8095613 4288085770
