# .PCD v0.7 - Point Cloud Data file format
VERSION 0.7
FIELDS x y z rgb
SIZE 4 4 4 4
TYPE F F F U
COUNT 1 1 1 1
WIDTH 1126
HEIGHT 1
VIEWPOINT 0 0 0 1 0 0 0
POINTS 1126
DATA ascii
4.1883373 -0.6802907 -1.7941447 4288085770
4.2844524 -0.66533613 -1.7917974 4288085770
4.3905735 -0.65138531 -1.7914152 4288085770
4.5036926 -0.63743639 -1.7910085 4288085770
4.6168098 -0.62248898 -1.789601 4288085770
4.7389297 -0.60854435 -1.7891618 4288085770
3.7640686 -0.47912407 -1.7975509 4288085770
4.856039 -0.5946002 -1.7847406 4288085770
3.864193 -0.46617079 -1.7981904 4288085770
5.000164 -0.58166409 -1.7862239 4288085770
3.9653111 -0.45321751 -1.7968262 4288085770
5.1452942 -0.56972885 -1.7877041 4288085770
4.0584145 -0.43826294 -1.7914894 4288085770
5.2904053 -0.55579519 -1.7851834 4288085770
4.1815491 -0.42631769 -1.7950476 4288085770
5.4505272 -0.54286766 -1.7846098 4288085770
4.2916584 -0.41236925 -1.791651 4288085770
5.6096401 -0.52893972 -1.7820393 4288085770
4.4137745 -0.40042496 -1.7902125 4288085770
5.7927628 -0.51702118 -1.7823845 4288085770
4.5398922 -0.38748312 -1.7887595 4288085770
5.9788837 -0.50410414 -1.7817186 4288085770
4.6760159 -0.37454414 -1.7892709 4288085770
6.158989 -0.49018621 -1.7770734 4288085770
4.820137 -0.36260891 -1.7887541 4288085770
6.3641071 -0.47827768 -1.7753402 4288085770
4.9562435 -0.34967232 -1.7842653 4288085770
6.5952339 -0.46637917 -1.776515 4288085770
5.1173649 -0.33774471 -1.7846884 4288085770
6.8463669 -0.4554882 -1.7796191 4288085770
5.2924957 -0.32582188 -1.7870615 4288085770
7.098484 -0.44360018 -1.7787189 4288085770
5.4716148 -0.31390095 -1.7874205 4288085770
7.3956165 -0.43372869 -1.7826605 4288085770
5.637722 -0.30097675 -1.782825 4288085770
7.6927471 -0.42185783 -1.7846005 4288085770
5.83284 -0.28906441 -1.7811269 4288085770
8.0018616 -0.40999413 -1.782498 4288085770
6.060976 -0.27816343 -1.7853123 4288085770
8.3329811 -0.39913893 -1.7813177 4288085770
6.272089 -0.26625776 -1.782557 4288085770
8.6480732 -0.38528061 -1.7721925 4288085770
6.505209 -0.25436068 -1.781724 4288085770
9.0171795 -0.37344265 -1.7678764 4288085770
6.7473221 -0.24246836 -1.7798585 4288085770
9.4112835 -0.36061668 -1.7624711 4288085770
7.0174465 -0.23058701 -1.7798939 4288085770
9.892416 -0.35082388 -1.7647585 4288085770
7.3175716 -0.2197175 -1.780823 4288085770
10.375528 -0.33903551 -1.7610375 4288085770
7.6567135 -0.20886326 -1.7866136 4288085770
10.925642 -0.3282733 -1.7590791 4288085770
7.9838295 -0.1970067 -1.784446 4288085770
11.50075 -0.31652451 -1.7540311 4288085770
8.3429546 -0.18516254 -1.785165 4288085770
12.150862 -0.30580616 -1.750717 4288085770
8.6850471 -0.17231607 -1.7759429 4288085770
12.912989 -0.296134 -1.7510059 4288085770
9.0711498 -0.16048622 -1.7705654 4288085770
13.788132 -0.28750896 -1.7558937 4288085770
9.5242729 -0.14868307 -1.7699497 4288085770
14.759262 -0.27892542 -1.7574403 4288085770
10.002382 -0.13689137 -1.766245 4288085770
15.859385 -0.26939821 -1.7565281 4288085770
10.5445 -0.12612534 -1.7653134 4288085770
17.148525 -0.26094961 -1.759945 4288085770
11.124619 -0.1143775 -1.7632458 4288085770
11.769732 -0.10265636 -1.7599472 4288085770
12.512861 -0.090976238 -1.7613002 4288085770
13.378004 -0.080344677 -1.7662195 4288085770
14.364145 -0.069764614 -1.7707096 4288085770
15.417272 -0.058215618 -1.7699609 4288085770
16.649406 -0.045741558 -1.771575 4288085770
18.108549 -0.03436327 -1.7753826 4288085770
16.968048 1.8743088 -0.52163243 4293729569
16.24803 1.9275727 -0.48124424 4293729569
15.780044 1.9967403 -0.44692454 4293729569
15.552089 2.0898159 -0.41871372 4293729569
15.733184 2.2307343 -0.39798024 4293729569
15.859268 2.3656735 -0.37445119 4293729569
15.991342 2.5046089 -0.34789827 4293729569
16.111412 2.642549 -0.32138976 4293729569
18.841522 0.20512342 -1.7617922 4288085770
17.35865 0.21802664 -1.7657794 4288085770
16.070766 0.23180676 -1.766975 4288085770
14.921873 0.24349833 -1.7656109 4288085770
13.864964 0.2561264 -1.7598732 4288085770
13.013086 0.26864147 -1.7613039 4288085770
12.246214 0.28110743 -1.7643902 4288085770
11.574341 0.29251575 -1.7670932 4288085770
17.889473 0.43165255 -1.7512013 4288085770
10.946461 0.3048954 -1.7686167 4288085770
16.588606 0.44344854 -1.7574575 4288085770
10.393589 0.31722975 -1.770836 4288085770
15.396708 0.45316434 -1.7552752 4288085770
9.9197426 0.33052731 -1.7797329 4288085770
14.384829 0.46377778 -1.7573611 4288085770
9.4368591 0.34181595 -1.7796706 4288085770
13.465933 0.47432733 -1.7550701 4288085770
8.976963 0.35308313 -1.7755151 4288085770
12.68306 0.4848032 -1.7582271 4288085770
8.5921001 0.36531925 -1.7800536 4288085770
12.037214 0.49720454 -1.7668248 4288085770
8.2152119 0.37754107 -1.7785603 4288085770
11.370317 0.50760102 -1.7645122 4288085770
7.9013634 0.38973856 -1.7858108 4288085770
10.804453 0.51994538 -1.7677858 4288085770
7.5654716 0.40093327 -1.7831529 4288085770
10.289585 0.53125954 -1.7718545 4288085770
7.2575836 0.41311264 -1.7813799 4288085770
9.8397312 0.54453897 -1.778656 4288085770
6.9897156 0.42527533 -1.7844446 4288085770
9.3838463 0.55580902 -1.7774856 4288085770
6.715826 0.43643165 -1.7815355 4288085770
8.9579525 0.56605887 -1.7751955 4288085770
6.4799557 0.44857478 -1.7844704 4288085770
8.5830727 0.57828236 -1.7756951 4288085770
6.2751007 0.46170354 -1.7902778 4288085770
8.243206 0.59048939 -1.7790524 4288085770
6.045208 0.47283316 -1.7871904 4288085770
7.9363403 0.60267568 -1.7822757 4288085770
5.831316 0.48495269 -1.7840366 4288085770
7.6394691 0.61485481 -1.7844589 4288085770
5.6684666 0.49806118 -1.7926741 4288085770
7.3505802 0.62702394 -1.7836101 4288085770
5.4875908 0.51116681 -1.7933846 4288085770
7.0646839 0.63718629 -1.7797523 4288085770
5.3197174 0.52326655 -1.7950439 4288085770
6.816803 0.64933181 -1.7797368 4288085770
5.1438255 0.53536296 -1.7917362 4288085770
6.6119518 0.66346192 -1.7865429 4288085770
4.9879456 0.5474515 -1.7913473 4288085770
6.3830624 0.67559242 -1.7844507 4288085770
4.8480816 0.56053758 -1.7948915 4288085770
6.2002144 0.68970966 -1.7911675 4288085770
4.7041969 0.57261753 -1.7934539 4288085770
5.984314 0.70082712 -1.7860243 4288085770
4.5803375 0.58669472 -1.7979317 4288085770
5.8064404 0.71393275 -1.7877232 4288085770
4.4644737 0.60076571 -1.8013769 4288085770
5.6385746 0.72803402 -1.7903799 4288085770
4.3446026 0.61383557 -1.8028404 4288085770
5.4776974 0.74112749 -1.7910098 4288085770
4.2427425 0.62789965 -1.8072288 4288085770
5.3178177 0.75321865 -1.7906373 4288085770
4.1318645 0.6409626 -1.8076558 4288085770
5.166935 0.76630306 -1.7892269 4288085770
5.0360718 0.78138304 -1.7927316 4288085770
4.8881779 0.79246187 -1.7893125 4288085770
4.761301 0.80653477 -1.7898028 4288085770
4.663456 0.82260132 -1.7971717 4288085770
4.5385647 0.83566785 -1.794656 4288085770
4.4326878 0.84972763 -1.7950612 4288085770
4.3258133 0.86378789 -1.7954706 4288085770
4.2159252 0.87784529 -1.7928922 4288085770
4.1400738 0.89389634 -1.7991718 4288085770
4.1737499 3.2834945 -1.8098177 4288085770
4.3009281 3.3564205 -1.8141696 4288085770
4.4601498 3.4453399 -1.8263631 4288085770
4.5712814 3.5042608 -1.821804 4288085770
4.724472 3.5871742 -1.8280318 4288085770
4.8686409 3.6620851 -1.8293099 4288085770
5.0248203 3.7429914 -1.8325285 4288085770
5.1839867 3.8228934 -1.8337359 4288085770
5.3501568 3.904789 -1.8339113 4288085770
4.1527863 3.2884874 -1.8238652 4288085770
5.5072994 3.9806838 -1.8301334 4288085770
4.2508907 3.3294096 -1.8153892 4288085770
5.7345352 4.0925622 -1.842007 4288085770
4.4090862 3.4033234 -1.8236109 4288085770
5.959753 4.2014375 -1.8508935 4288085770
4.5682716 3.4772351 -1.8308284 4288085770
6.1739368 4.3003092 -1.8538419 4288085770
4.6984043 3.5311465 -1.8271984 4288085770
6.3901176 4.3991761 -1.8547817 4288085770
4.8565712 3.59905 -1.8294294 4288085770
6.5792465 4.4790435 -1.8458641 4288085770
5.0197411 3.6669528 -1.8326395 4288085770
6.9375858 4.6508703 -1.8740964 4288085770
5.1828938 3.7328491 -1.8318528 4288085770
7.2348213 4.7837033 -1.8836447 4288085770
5.35005 3.7987428 -1.8310494 4288085770
7.4759789 4.8825464 -1.8784798 4288085770
5.5161934 3.8616354 -1.8292547 4288085770
7.7701759 5.0073686 -1.8800532 4288085770
5.7333984 3.9495137 -1.837208 4288085770
8.0883923 5.14118 -1.8845121 4288085770
5.9746246 4.0473838 -1.8490455 4288085770
8.4196072 5.2769833 -1.8879136 4288085770
6.1907997 4.1282549 -1.8520138 4288085770
8.7347813 5.4007826 -1.8834006 4288085770
6.4049683 4.2061238 -1.8529953 4288085770
9.131031 5.5625544 -1.8914897 4288085770
6.609108 4.2739902 -1.8490343 4288085770
9.5302658 5.7213192 -1.8965708 4288085770
6.8653069 4.3678412 -1.8548151 4288085770
9.9605064 5.8900657 -1.9015069 4288085770
7.2035942 4.4986696 -1.8761954 4288085770
10.459799 6.0887833 -1.9141076 4288085770
7.4928017 4.6015048 -1.8838243 4288085770
10.977077 6.2894855 -1.92363 4288085770
7.7429543 4.6793451 -1.8806553 4288085770
11.534374 6.5041666 -1.934963 4288085770
7.9780712 4.7461853 -1.8715664 4288085770
12.074627 6.7028456 -1.9383924 4288085770
8.2682476 4.837008 -1.8722098 4288085770
12.705929 6.93748 -1.9483852 4288085770
8.5784302 4.9318209 -1.8737637 4288085770
13.396257 7.1940842 -1.9610963 4288085770
8.8795834 5.0186305 -1.8703675 4288085770
14.084551 7.4396782 -1.9668338 4288085770
9.266819 5.1424112 -1.880554 4288085770
14.857882 7.7152295 -1.9771683 4288085770
9.631012 5.2501936 -1.8828616 4288085770
15.679219 8.0047503 -1.9862807 4288085770
10.011208 5.3589668 -1.8861009 4288085770
10.422415 5.4777236 -1.8901947 4288085770
10.868639 5.605464 -1.8971282 4288085770
11.310844 5.7252007 -1.9000909 4288085770
11.789066 5.8549204 -1.9058875 4288085770
12.261257 5.9736357 -1.9067265 4288085770
12.808502 6.1183186 -1.9152112 4288085770
13.386745 6.2689834 -1.9235568 4288085770
14.010003 6.4286242 -1.9337003 4288085770
14.543173 6.5422945 -1.929292 4288085770
15.229439 6.7118993 -1.9401562 4288085770
15.873648 6.8525133 -1.9412415 4288085770
16.592896 7.0150914 -1.9479785 4288085770
17.352139 7.1796446 -1.9535456 4288085770
18.057339 7.3162179 -1.9523821 4288085770
18.837563 7.4697533 -1.9548781 4288085770
15.270205 3.2375674 -0.60334146 4293729569
15.405206 3.1454601 -0.58891809 4293729569
15.476162 2.9193578 -0.55696976 4293729569
15.408129 2.7893672 -0.5404548 4293729569
15.442122 2.6753235 -0.52848816 4293729569
15.404107 2.5513201 -0.51483828 4293729569
15.448113 2.4372749 -0.50582981 4293729569
15.461126 2.3212507 -0.49795386 4293729569
15.468136 2.2042296 -0.49010459 4293729569
15.454155 2.0852244 -0.48434618 4293729569
15.608207 1.9831283 -0.4838585 4293729569
16.201347 1.9257948 -0.49746373 4293729569
16.972519 1.878365 -0.51630849 4293729569
18.621059 -3.0937538 -1.7460324 4288085770
17.931171 -3.1093459 -1.7489429 4288085770
17.293293 -3.120966 -1.7536291 4288085770
16.642405 -3.1225858 -1.7543547 4288085770
16.008514 -3.1212163 -1.7540046 4288085770
15.400625 -3.1158638 -1.7535394 4288085770
14.836745 -3.1095333 -1.7548885 4288085770
14.283858 -3.0992136 -1.7541858 4288085770
13.741974 -3.0828996 -1.7534274 4288085770
13.278107 -3.075624 -1.7573564 4288085770
12.795233 -3.0603423 -1.7583529 4288085770
12.30534 -3.0350652 -1.7543632 4288085770
11.855457 -3.0118084 -1.7522091 4288085770
18.526533 -4.6327667 -1.7337619 4288085770
11.465597 -2.9975762 -1.7568176 4288085770
17.668728 -4.543252 -1.7422138 4288085770
11.089735 -2.9823532 -1.760366 4288085770
16.878922 -4.457777 -1.7503868 4288085770
10.713865 -2.9631329 -1.7629086 4288085770
15.976065 -4.3342648 -1.7419752 4288085770
10.364002 -2.9449258 -1.7663436 4288085770
15.173227 -4.2268 -1.7391694 4288085770
10.021143 -2.9237237 -1.7697448 4288085770
14.463386 -4.1333885 -1.7379959 4288085770
9.7052841 -2.9045353 -1.7740358 4288085770
13.832561 -4.0530148 -1.7425115 4288085770
9.3754139 -2.8783455 -1.774375 4288085770
13.262739 -3.9796753 -1.7477825 4288085770
9.0585423 -2.8521633 -1.7746599 4288085770
12.643885 -3.8863239 -1.7432281 4288085770
8.7856903 -2.8329992 -1.779771 4288085770
12.10605 -3.8090076 -1.7453593 4288085770
8.5248394 -2.8138404 -1.7858319 4288085770
11.62322 -3.7407227 -1.7492739 4288085770
8.2389698 -2.7846766 -1.7859824 4288085770
11.149382 -3.6684456 -1.7511449 4288085770
7.9891129 -2.7625284 -1.7899929 4288085770
10.723547 -3.6051941 -1.7548286 4288085770
7.7232456 -2.7313766 -1.7900562 4288085770
10.323719 -3.5459533 -1.7614098 4288085770
7.4813805 -2.705236 -1.7920272 4288085770
9.9438839 -3.4867287 -1.7649072 4288085770
7.2655334 -2.6841054 -1.7978969 4288085770
9.549036 -3.4195004 -1.7654555 4288085770
7.044672 -2.6579752 -1.8007796 4288085770
9.202198 -3.3612962 -1.7688162 4288085770
6.8218021 -2.628849 -1.8006662 4288085770
8.8733597 -3.3061008 -1.7731065 4288085770
6.6239529 -2.6047306 -1.8054559 4288085770
8.5745239 -3.2559218 -1.7782787 4288085770
6.431097 -2.5796161 -1.8092232 4288085770
8.2786884 -3.2037463 -1.7824352 4288085770
6.2212238 -2.5464993 -1.8080492 4288085770
8.0018501 -3.1535802 -1.7875154 4288085770
6.0173492 -2.5123882 -1.8058487 4288085770
7.7260017 -3.100419 -1.7895867 4288085770
5.8364849 -2.4852848 -1.8075629 4288085770
7.4461498 -3.0442605 -1.7896706 4288085770
5.6596241 -2.456183 -1.8092571 4288085770
7.20331 -2.9961162 -1.7936114 4288085770
5.4737396 -2.4210854 -1.8049797 4288085770
6.9684639 -2.9489784 -1.7965205 4288085770
5.329895 -2.3999953 -1.8115479 4288085770
6.7276039 -2.895843 -1.7954456 4288085770
5.171032 -2.3709044 -1.8131666 4288085770
6.5267696 -2.8557196 -1.8022228 4288085770
5.0031509 -2.3368173 -1.8098155 4288085770
6.325922 -2.8126006 -1.8059957 4288085770
4.8412724 -2.302732 -1.8064394 4288085770
6.1010551 -2.7574787 -1.8028507 4288085770
4.6894035 -2.2706494 -1.8060243 4288085770
5.8951931 -2.7083645 -1.8016354 4288085770
4.5655518 -2.2475743 -1.8105057 4288085770
5.7023335 -2.6612573 -1.801369 4288085770
4.4456978 -2.2245016 -1.8149704 4288085770
5.519474 -2.6151557 -1.8010617 4288085770
4.3138313 -2.1944284 -1.8154746 4288085770
5.3426132 -2.5690575 -1.8007298 4288085770
4.1769505 -2.1613593 -1.8119954 4288085770
5.1997795 -2.5359659 -1.8082751 4288085770
5.0419216 -2.4948783 -1.808871 4288085770
4.8850536 -2.4507914 -1.8084584 4288085770
4.7191753 -2.4027066 -1.8040774 4288085770
4.5763111 -2.3616285 -1.8036106 4288085770
4.454464 -2.3285546 -1.808068 4288085770
4.3266106 -2.2904811 -1.8105429 4288085770
4.2027512 -2.2524128 -1.8110012 4288085770
4.0798855 -2.2143474 -1.8104553 4288085770
4.0793648 -0.0049080849 -1.7854849 4288085770
4.1934814 0.0070195198 -1.7839721 4288085770
4.3045845 0.018943787 -1.7794724 4288085770
4.4367142 0.030865669 -1.7808822 4288085770
4.5788403 0.042781353 -1.7822489 4288085770
4.7129478 0.054693699 -1.7786498 4288085770
4.8750916 0.066603184 -1.7829304 4288085770
5.0111847 0.078509808 -1.7763226 4288085770
5.1843128 0.089407921 -1.777557 4288085770
4.169405 0.11699677 -1.7838709 4288085770
5.3664436 0.10130119 -1.7787511 4288085770
4.3195515 0.12691498 -1.7892061 4288085770
5.5515652 0.11318922 -1.7779322 4288085770
4.4436531 0.13683128 -1.7846531 4288085770
5.7496891 0.12407303 -1.7790587 4288085770
4.5927753 0.14674187 -1.7849922 4288085770
5.9618168 0.13594675 -1.7791233 4288085770
4.7378845 0.15564966 -1.7823503 4288085770
6.1849442 0.14781618 -1.7801404 4288085770
4.9120274 0.16555214 -1.7865819 4288085770
6.4000416 0.15967894 -1.7741917 4288085770
5.0641251 0.17445278 -1.7819095 4288085770
6.6741867 0.17152739 -1.7799892 4288085770
5.248251 0.18434525 -1.7830976 4288085770
6.9493179 0.18336821 -1.7817819 4288085770
5.4383793 0.19323349 -1.7842615 4288085770
7.2184296 0.19420481 -1.7786019 4288085770
5.6445084 0.20211458 -1.7863563 4288085770
7.5425701 0.20602131 -1.7821833 4288085770
5.8566341 0.21099043 -1.7874249 4288085770
7.8877087 0.21782541 -1.785674 4288085770
6.0997772 0.22085285 -1.7913584 4288085770
8.2228184 0.22962379 -1.7822075 4288085770
6.3018627 0.22872019 -1.7834713 4288085770
8.5829239 0.24140644 -1.777633 4288085770
6.5549908 0.23657322 -1.7843645 4288085770
9.0090542 0.25316048 -1.778774 4288085770
6.8191013 0.24441433 -1.7822101 4288085770
9.4721889 0.26489544 -1.7807554 4288085770
7.1012192 0.25224638 -1.7809781 4288085770
9.9553108 0.27761364 -1.7796487 4288085770
7.4163513 0.2600646 -1.7826035 4288085770
10.457415 0.28831482 -1.7744628 4288085770
7.7624855 0.26786804 -1.7860953 4288085770
11.023525 0.29998159 -1.7709994 4288085770
8.1246128 0.27566004 -1.7875177 4288085770
11.661648 0.3126111 -1.7692236 4288085770
8.4647083 0.28145123 -1.7810378 4288085770
12.345762 0.32421255 -1.7662506 4288085770
8.8678188 0.2882123 -1.7782844 4288085770
13.145891 0.33675146 -1.7657758 4288085770
9.3409634 0.29494619 -1.7832292 4288085770
14.05002 0.3492322 -1.765852 4288085770
9.8320847 0.30066395 -1.7840979 4288085770
15.079149 0.36264324 -1.7663878 4288085770
10.335184 0.30536461 -1.7789158 4288085770
16.244287 0.37597704 -1.7673359 4288085770
10.883287 0.30904102 -1.7745405 4288085770
17.54841 0.38922644 -1.7646841 4288085770
11.4974 0.31268263 -1.7718805 4288085770
19.049522 0.40335941 -1.7591801 4288085770
12.210524 0.31627274 -1.7717931 4288085770
12.992638 0.31782103 -1.7704105 4288085770
13.861761 0.31932116 -1.7696522 4288085770
14.907907 0.31973076 -1.7751315 4288085770
16.047039 0.31808043 -1.7762117 4288085770
17.334162 0.31534338 -1.7756541 4288085770
18.764259 0.30851698 -1.7694848 4288085770
11.824821 -5.2986794 -0.37197697 4293729569
11.83016 -5.2056255 -0.41079861 4293729569
11.909487 -5.1416121 -0.4503403 4293729569
17.891186 -5.9640121 -1.0971788 4293729569
17.8335 -5.8039446 -1.1221687 4293729569
17.907501 -5.6964788 -0.18865564 4293729569
18.038834 -5.7240038 -1.1611257 4293729569
18.651501 0.59518027 -1.7568228 4288085770
17.338623 0.62691402 -1.7577138 4288085770
16.25878 0.65752792 -1.7655512 4288085770
15.20187 0.68210673 -1.7592951 4288085770
14.353016 0.70958781 -1.7650923 4288085770
13.538132 0.73304009 -1.7647424 4288085770
12.820255 0.75643826 -1.7649534 4288085770
12.197395 0.77978897 -1.7687342 4288085770
11.593504 0.8001194 -1.7664343 4288085770
18.073788 1.209461 -1.7503872 4288085770
11.068632 0.82141113 -1.7677748 4288085770
16.98592 1.2210746 -1.7552946 4288085770
10.598768 0.84267497 -1.7708666 4288085770
15.991047 1.2316332 -1.7587825 4288085770
10.13788 0.86192536 -1.768921 4288085770
15.055139 1.2391474 -1.7550086 4288085770
9.7500229 0.88314581 -1.7736415 4288085770
14.248255 1.2495961 -1.7556454 4288085770
9.3831577 0.90435076 -1.7762672 4288085770
13.536379 1.2629938 -1.7578471 4288085770
8.9982662 0.92155671 -1.772981 4288085770
12.876499 1.2753608 -1.7588151 4288085770
8.6433659 0.93874383 -1.7685593 4288085770
12.271608 1.2866929 -1.7575357 4288085770
8.3715191 0.95990133 -1.7747546 4288085770
11.731728 1.2999916 -1.7579587 4288085770
8.0776367 0.97805977 -1.774055 4288085770
11.224838 1.3122697 -1.7572337 4288085770
7.8117657 0.99720597 -1.7752267 4288085770
10.788979 1.3275156 -1.7611823 4288085770
7.578907 1.0173383 -1.7792474 4288085770
10.36109 1.3407488 -1.7600981 4288085770
7.3240108 1.0334702 -1.7753747 4288085770
9.9642029 1.3539643 -1.7588736 4288085770
7.1381721 1.055582 -1.783179 4288085770
9.6433468 1.372148 -1.7642964 4288085770
6.9222908 1.0736961 -1.7821263 4288085770
9.3384933 1.3913226 -1.7696451 4288085770
6.7274113 1.0918005 -1.7819785 4288085770
9.0206108 1.4044952 -1.7690628 4288085770
6.5725689 1.1138926 -1.7886428 4288085770
8.7207203 1.418654 -1.7663975 4288085770
6.3706608 1.1279912 -1.7825333 4288085770
8.4528465 1.4348009 -1.7675837 4288085770
6.2137966 1.1480782 -1.78521 4288085770
8.2099762 1.4519355 -1.7696551 4288085770
6.0539188 1.1661627 -1.7849039 4288085770
7.9660931 1.4680657 -1.7687328 4288085770
5.9020405 1.1842422 -1.7845614 4288085770
7.7522259 1.4861836 -1.7706712 4288085770
5.7731819 1.2053151 -1.7881097 4288085770
7.5533581 1.5052931 -1.77254 4288085770
5.634306 1.2233872 -1.7877084 4288085770
7.3644943 1.5243986 -1.7753636 4288085770
5.5094357 1.2424548 -1.7892419 4288085770
7.1756172 1.5424991 -1.7751889 4288085770
5.3815536 1.2605193 -1.7877909 4288085770
7.0137577 1.5635908 -1.778887 4288085770
5.2676811 1.2805786 -1.7882732 4288085770
6.862896 1.5836749 -1.7815367 4288085770
5.1417866 1.2976384 -1.7848148 4288085770
6.6990242 1.6027625 -1.7822472 4288085770
5.0619507 1.32269 -1.7921348 4288085770
6.5441399 1.6208422 -1.7809187 4288085770
4.9520607 1.3397427 -1.7896038 4288085770
6.4353008 1.6469102 -1.7883681 4288085770
4.8611908 1.3607907 -1.7909803 4288085770
6.2924137 1.6649816 -1.7859854 4288085770
4.7653141 1.3798387 -1.7903829 4288085770
6.1395111 1.6800537 -1.7806528 4288085770
4.6654205 1.3968837 -1.7868068 4288085770
6.0456676 1.7061114 -1.7870345 4288085770
4.5885525 1.4189236 -1.7881181 4288085770
5.9428082 1.7291682 -1.789462 4288085770
4.5096855 1.4399652 -1.7894404 4288085770
5.8249245 1.7492268 -1.7879626 4288085770
4.4288025 1.4600029 -1.7877734 4288085770
5.6910114 1.7632847 -1.7805458 4288085770
4.3609352 1.4820378 -1.7890439 4288085770
5.5951405 1.7853341 -1.7809433 4288085770
4.2910557 1.5030708 -1.7883254 4288085770
5.5112782 1.81038 -1.7832816 4288085770
4.2352047 1.5271039 -1.7925383 4288085770
5.4083824 1.8284254 -1.7787175 4288085770
4.1873531 1.5521321 -1.7967134 4288085770
5.3345242 1.8544667 -1.7820088 4288085770
4.128479 1.5751607 -1.7969418 4288085770
5.2616596 1.8805048 -1.7832956 4288085770
4.0686092 1.5971894 -1.7971762 4288085770
5.1797771 1.9015431 -1.7816316 4288085770
5.112915 1.9285772 -1.7828894 4288085770
5.0340271 1.9506125 -1.7802101 4288085770
4.9671516 1.9746435 -1.7794732 4288085770
4.9022732 1.9996719 -1.7777253 4288085770
4.8493996 2.027699 -1.7789186 4288085770
4.7865162 2.0517251 -1.7761635 4288085770
4.7466602 2.0827472 -1.7792925 4288085770
4.6857719 2.1067708 -1.7755284 4288085770
4.6499138 2.1387892 -1.7776377 4288085770
4.6020355 2.1658075 -1.7758098 4288085770
4.5611629 2.1958241 -1.7749449 4288085770
4.5252953 2.2258396 -1.7750577 4288085770
4.5074501 2.2638512 -1.7790753 4288085770
4.4845924 2.2988622 -1.7811208 4288085770
4.4547215 2.3308725 -1.7802029 4288085770
4.4308548 2.3658812 -1.7802528 4288085770
4.3959694 2.3948896 -1.7763627 4288085770
4.3971367 2.4398935 -1.7822827 4288085770
4.3662453 2.4708982 -1.7773712 4288085770
4.3523808 2.507901 -1.7773725 4288085770
4.3485279 2.5489011 -1.7793217 4288085770
4.3376579 2.5869009 -1.7783078 4288085770
4.3217754 2.6238985 -1.7743183 4288085770
4.331934 2.6708944 -1.7781942 4288085770
4.3290691 2.7128892 -1.7771374 4288085770
4.3362122 2.7578821 -1.7780303 4288085770
4.3473606 2.8048737 -1.7799015 4288085770
4.3524971 2.8508644 -1.7788018 4288085770
4.3796616 2.9058504 -1.7825874 4288085770
4.3968048 2.9568357 -1.7824249 4288085770
4.4379864 3.0198193 -1.7891337 4288085770
4.4641342 3.0748007 -1.7899239 4288085770
4.4942894 3.1317821 -1.7916924 4288085770
4.5524864 3.2047586 -1.8003075 4288085770
4.6026592 3.2717335 -1.8049687 4288085770
4.6498241 3.3377066 -1.8076452 4288085770
4.7310467 3.423677 -1.8201344 4288085770
4.786211 3.4936457 -1.822768 4288085770
4.8513889 3.5706105 -1.8263445 4288085770
4.9035378 3.639576 -1.8259933 4288085770
4.9576874 3.7095389 -1.8246312 4288085770
5.05089 3.8024948 -1.8320541 4288085770
5.1240559 3.88345 -1.8325876 4288085770
5.2282639 3.981401 -1.8409523 4288085770
5.2954006 4.0583515 -1.8365194 4288085770
5.3815632 4.1462989 -1.8359821 4288085770
5.4556999 4.2272434 -1.8305109 4288085770
4.1303005 3.5169597 -1.8206997 4288085770
5.5548668 4.3211832 -1.8299046 4288085770
4.2184868 3.5989151 -1.8261634 4288085770
5.6790581 4.4321156 -1.8331567 4288085770
4.30867 3.6818674 -1.830616 4288085770
5.8212757 4.5530434 -1.8403105 4288085770
4.4038525 3.7678168 -1.8350409 4288085770
6.0215626 4.7109556 -1.8581395 4288085770
4.4900112 3.8467631 -1.8345182 4288085770
6.4862442 5.038825 -1.9404895 4282675967
4.5871754 3.9317055 -1.8349355 4288085770
6.6885052 5.1987276 -1.952306 4282675967
4.6953583 4.0236459 -1.8382914 4288085770
6.8356724 5.3216352 -1.9484334 4282675967
4.8185558 4.1235819 -1.8435656 4288085770
6.9657993 5.4325418 -1.9376574 4288085770
4.9527626 4.230514 -1.8507783 4288085770
7.0999279 5.545444 -1.9258597 4288085770
5.0829487 4.3334408 -1.8530154 4288085770
7.2440548 5.6633406 -1.9140081 4288085770
5.2081165 4.4323659 -1.8522819 4288085770
7.4302292 5.8072252 -1.9089229 4288085770
5.3442917 4.5362859 -1.8524899 4288085770
7.6444263 5.9690981 -1.9066807 4288085770
5.5075035 4.6582003 -1.8585457 4288085770
7.9206905 6.1689529 -1.9140937 4288085770
5.6897335 4.7921071 -1.8664949 4288085770
8.2510052 6.404788 -1.9282022 4288085770
6.1594048 5.1189713 -1.9468219 4282675967
8.5823021 6.6386166 -1.938309 4288085770
6.4106998 5.2948561 -1.9643881 4282675967
8.913578 6.8704381 -1.9444184 4288085770
6.6038971 5.4307456 -1.9652834 4282675967
9.2778721 7.1222458 -1.9523449 4288085770
6.7600231 5.5386372 -1.9543927 4288085770
9.6481476 7.3760409 -1.9552402 4288085770
6.9201374 5.646522 -1.9404838 4288085770
10.111506 7.6898022 -1.9686136 4288085770
7.0922585 5.7604012 -1.9275098 4288085770
7.2904053 5.8892727 -1.9183931 4288085770
7.5255833 6.0411315 -1.9140701 4288085770
7.8398533 6.2429667 -1.9223049 4288085770
8.2081795 6.4787855 -1.9392378 4288085770
8.5604534 6.6985974 -1.9462695 4288085770
8.9437504 6.9363976 -1.95613 4288085770
9.3140049 7.161191 -1.9580708 4288085770
9.7252827 7.408967 -1.9627862 4288085770
10.240658 7.7197061 -1.9799244 4288085770
18.652676 -1.5468273 -1.7701026 4288085770
17.757786 -1.5773358 -1.7742866 4288085770
16.911896 -1.6038699 -1.7782378 4288085770
16.111996 -1.624434 -1.7799672 4288085770
15.382104 -1.6420345 -1.7823683 4288085770
14.687215 -1.6556544 -1.7846014 4288085770
14.029318 -1.6652989 -1.7846576 4288085770
13.395411 -1.6699595 -1.7825953 4288085770
12.84753 -1.6776581 -1.7861395 4288085770
12.269623 -1.6753531 -1.7818074 4288085770
18.790119 -2.5579858 -1.7519889 4288085770
11.78174 -1.6780872 -1.7840667 4288085770
17.743279 -2.5154061 -1.7587643 4288085770
11.343872 -1.6828437 -1.7890977 4288085770
16.76442 -2.4688702 -1.7612188 4288085770
10.90399 -1.6816049 -1.7911289 4288085770
15.878562 -2.426384 -1.7642498 4288085770
10.526136 -1.6853895 -1.7988809 4288085770
15.072711 -2.3879395 -1.7689167 4288085770
10.139261 -1.6831789 -1.8016655 4288085770
14.290841 -2.3435154 -1.7684639 4288085770
9.758379 -1.6779733 -1.8024179 4288085770
13.548962 -2.2981176 -1.7658244 4288085770
9.3464603 -1.662766 -1.7942983 4288085770
12.886084 -2.2557621 -1.7638242 4288085770
9.028595 -1.6585894 -1.7987609 4288085770
12.302229 -2.2214413 -1.7674707 4288085770
8.7217255 -1.6534209 -1.8021709 4288085770
11.745359 -2.1851401 -1.7679896 4288085770
8.4428673 -1.6492629 -1.808453 4288085770
11.245504 -2.1538639 -1.7722523 4288085770
8.115963 -1.6340981 -1.8029406 4288085770
10.795666 -2.1266112 -1.77929 4288085770
7.8180714 -1.620944 -1.8002968 4288085770
10.354809 -2.0953679 -1.7832801 4288085770
7.5612011 -1.6118026 -1.8034698 4288085770
9.9039268 -2.0581303 -1.7803074 4288085770
7.3403473 -1.6076736 -1.8114839 4288085770
9.5050583 -2.0269136 -1.7821034 4288085770
7.0884647 -1.5935426 -1.8106259 4288085770
9.1281948 -1.9967089 -1.7837991 4288085770
6.8686028 -1.5844202 -1.8146275 4288085770
8.8113537 -1.9735284 -1.7912277 4288085770
6.6557312 -1.5743046 -1.8175956 4288085770
8.5115128 -1.9513578 -1.7985795 4288085770
6.4108238 -1.5541854 -1.8106964 4288085770
8.1946468 -1.9211864 -1.7999976 4288085770
6.2279739 -1.5460796 -1.8175284 4288085770
7.8807735 -1.8900199 -1.7994004 4288085770
6.0180817 -1.528975 -1.8144717 4288085770
7.6069088 -1.8638721 -1.8016258 4288085770
5.8422203 -1.5178781 -1.8182669 4288085770
7.332037 -1.8347259 -1.8018514 4288085770
5.6593399 -1.5027828 -1.8180884 4288085770
7.081171 -1.8085918 -1.8029705 4288085770
5.4834595 -1.4876914 -1.8178778 4288085770
6.8463116 -1.783463 -1.8060172 4288085770
5.3085709 -1.4716043 -1.8156607 4288085770
6.6314602 -1.7613425 -1.8109757 4288085770
5.1517029 -1.456521 -1.8173618 4288085770
6.4025822 -1.7332234 -1.8099902 4288085770
5.0008297 -1.442441 -1.8190371 4288085770
6.2007236 -1.7091131 -1.8128856 4288085770
4.842947 -1.4253612 -1.8177401 4288085770
5.9928513 -1.6820045 -1.8128045 4288085770
4.7180958 -1.4152884 -1.8243008 4288085770
5.8019867 -1.6569018 -1.8146477 4288085770
4.5732098 -1.3972168 -1.8219422 4288085770
5.6000919 -1.6278048 -1.8095359 4288085770
4.4223042 -1.3771477 -1.8166084 4288085770
5.4342289 -1.6057124 -1.8132682 4288085770
4.2964325 -1.3620815 -1.8181664 4288085770
5.2673607 -1.5816255 -1.8140019 4288085770
4.1875744 -1.3500199 -1.8226501 4288085770
5.0984783 -1.5545411 -1.8117403 4288085770
4.07271 -1.3349576 -1.825157 4288085770
4.9375992 -1.52946 -1.810445 4288085770
4.808754 -1.5103841 -1.8170103 4288085770
4.6738911 -1.4893112 -1.8196005 4288085770
4.5380192 -1.4662409 -1.8201925 4288085770
4.3981342 -1.4411726 -1.8178 4288085770
4.2762699 -1.4191089 -1.8193285 4288085770
4.1614113 -1.398046 -1.8228263 4288085770
4.0920582 0.57732248 -1.8017132 4288085770
4.2081738 0.59025073 -1.8001465 4288085770
4.3152657 0.60217619 -1.7936237 4288085770
4.4383736 0.61509681 -1.790024 4288085770
4.5835056 0.62901545 -1.7923195 4288085770
4.7126064 0.64193177 -1.7876916 4288085770
4.8577194 0.65484214 -1.7849888 4288085770
5.0268593 0.66974854 -1.78817 4288085770
4.1319389 0.61626005 -1.8014535 4288085770
5.1909714 0.68265009 -1.7863777 4288085770
4.2580528 0.62618256 -1.7998444 4288085770
5.3701038 0.69754791 -1.7875118 4288085770
4.3811569 0.63410378 -1.7962527 4288085770
5.565239 0.71243834 -1.7895709 4288085770
4.5172749 0.64402246 -1.7955966 4288085770
5.7713718 0.72732258 -1.7915782 4288085770
4.6623936 0.65393639 -1.7948983 4288085770
5.9484596 0.73920703 -1.7837263 4288085770
4.8125076 0.66284537 -1.793178 4288085770
6.1795979 0.7540791 -1.7866163 4288085770
4.9696236 0.67175221 -1.7924248 4288085770
6.39571 0.76694965 -1.7835797 4288085770
5.1657867 0.68365145 -1.8004836 4288085770
6.6208134 0.77981377 -1.7795007 4288085770
5.3128681 0.69055295 -1.7927806 4288085770
6.8849411 0.79466414 -1.7802355 4288085770
5.5340328 0.70243979 -1.801722 4288085770
7.1540565 0.80850697 -1.7779484 4288085770
5.6991177 0.70833111 -1.7939359 4288085770
7.4441814 0.82334113 -1.7775608 4288085770
5.9022331 0.71621275 -1.7929682 4288085770
7.7713146 0.83915806 -1.7789981 4288085770
6.0933189 0.72209096 -1.7860599 4288085770
8.0884228 0.85297179 -1.7754854 4288085770
6.3134308 0.72896099 -1.7840137 4288085770
8.4375362 0.86677027 -1.7728223 4288085770
6.5605621 0.73682237 -1.7858392 4288085770
8.8026466 0.88155794 -1.7690825 4288085770
6.7956581 0.74267936 -1.7807242 4288085770
9.2337818 0.89831781 -1.7710295 4288085770
7.0697842 0.74952435 -1.7814243 4288085770
9.6708965 0.91306663 -1.7679513 4288085770
7.3689175 0.75635791 -1.7840068 4288085770
10.147013 0.92779565 -1.7656898 4288085770
7.6780357 0.76318169 -1.7835425 4288085770
10.661133 0.9435029 -1.7632482 4288085770
8.0011539 0.76799726 -1.7830155 4288085770
11.230255 0.96018124 -1.7615465 4288085770
8.3162441 0.77080774 -1.7765291 4288085770
11.85338 0.97683096 -1.7605914 4288085770
8.6683464 0.77360296 -1.7728689 4288085770
12.554512 0.99443841 -1.7602679 4288085770
9.0484581 0.77638507 -1.7710769 4288085770
13.302631 1.0120168 -1.7577236 4288085770
9.5156097 0.78213143 -1.7768716 4288085770
14.184781 1.0325296 -1.760545 4288085770
9.9677181 0.78287363 -1.7747444 4288085770
15.095889 1.0500138 -1.755235 4288085770
10.446817 0.7825973 -1.770492 4288085770
16.212042 1.0723977 -1.7579538 4288085770
10.958918 0.78230309 -1.7660844 4288085770
17.435181 1.0937171 -1.757171 4288085770
11.547041 0.78097367 -1.7663212 4288085770
18.727276 1.1119852 -1.7480688 4288085770
12.179152 0.77861691 -1.7643529 4288085770
12.859255 0.77323151 -1.7611636 4288085770
13.625364 0.7668016 -1.7595716 4288085770
14.53051 0.76130486 -1.7643248 4288085770
15.430593 0.74779201 -1.7571139 4288085770
16.539728 0.73617983 -1.7599177 4288085770
17.687809 0.71753001 -1.7525491 4288085770
6.3321667 -4.8430691 -0.43332037 4293729569
6.3253479 -4.7877007 -0.029260263 4293729569
6.2984867 -4.7869978 -0.47039095 4293729569
6.3186703 -4.7456408 -0.068225212 4293729569
6.3207989 -4.765954 -0.50925183 4293729569
6.318985 -4.7075863 -0.10616339 4293729569
6.3391037 -4.7399063 -0.5481239 4293729569
6.3402805 -4.6805458 -0.14301977 4293729569
6.3614159 -4.7148638 -0.58697855 4293729569
6.3685894 -4.6555071 -0.18084607 4293729569
6.4057217 -4.7028322 -0.62574971 4293729569
6.4068871 -4.6364756 -0.21763465 4293729569
12.047499 -7.7897291 -1.4209338 4293729569
11.725842 -7.5145321 -1.4370211 4293729569
11.405165 -7.2413387 -1.450107 4293729569
11.104469 -6.9831619 -1.460122 4293729569
10.86977 -6.7660151 -1.4748895 4293729569
10.662066 -6.5648813 -1.4895548 4293729569
10.434336 -6.3557463 -1.4983017 4293729569
10.249603 -6.1726313 -1.5098867 4293729569
10.038853 -5.9755116 -1.5155727 4293729569
9.8370876 -5.7864008 -1.5192286 4293729569
9.6733246 -5.6183043 -1.525738 4293729569
9.539566 -5.4672203 -1.5351323 4293729569
9.4187984 -5.3241453 -1.5434778 4293729569
14.532973 -7.7531595 -1.4201158 4293729569
9.2850151 -5.1760712 -1.5478768 4293729569
14.23527 -7.4879894 -1.428106 4293729569
9.1892395 -5.0480099 -1.5561279 4293729569
14.014569 -7.2618513 -1.4407935 4293729569
9.1114616 -4.9299574 -1.5653095 4293729569
13.857855 -7.0717468 -1.4552352 4293729569
9.0286732 -4.8119059 -1.571515 4293729569
13.675131 -6.8716354 -1.465784 4293729569
8.9468765 -4.6938581 -1.5767154 4293729569
13.507397 -6.6785336 -1.4752731 4293729569
8.8910828 -4.587821 -1.5838121 4293729569
13.385656 -6.5104532 -1.4865842 4293729569
8.8032684 -4.4687757 -1.5850396 4293729569
13.28891 -6.3543863 -1.4977957 4293729569
8.7724724 -4.3767529 -1.5930401 4293729569
13.167145 -6.1893148 -1.5041115 4293729569
8.7426739 -4.2847271 -1.6010361 4293729569
13.064381 -6.0322514 -1.51135 4293729569
8.7188702 -4.1957083 -1.6080081 4293729569
12.991611 -5.8922033 -1.5194736 4293729569
8.8431396 -4.1707363 -1.6373812 4293729569
11.880537 -5.3207588 -1.4148265 4293729569
9.0584545 -4.1807919 -1.680379 4293729569
11.893766 -5.2257519 -1.4276146 4293729569
9.2787685 -4.1898508 -1.723352 4288085770
12.776247 -5.4750776 -1.5328351 4293729569
9.4540539 -4.1778984 -1.7575042 4288085770
12.733448 -5.3500519 -1.5368404 4293729569
9.5012646 -4.1129093 -1.7701787 4288085770
12.657631 -5.2150192 -1.5349863 4293729569
9.4193954 -3.9968863 -1.760383 4288085770
12.756865 -5.1440535 -1.5514055 4293729569
9.3975582 -3.9048805 -1.759341 4288085770
12.754059 -5.0360479 -1.5552486 4293729569
9.4067287 -3.8258858 -1.7621733 4288085770
12.829266 -4.95508 -1.5657657 4293729569
9.3958836 -3.7378874 -1.7600858 4288085770
12.872461 -4.8610992 -1.5714134 4293729569
9.388031 -3.6518936 -1.7569873 4288085770
12.925648 -4.7701263 -1.5760188 4293729569
9.4101982 -3.5749073 -1.7587612 4288085770
12.980831 -4.6801548 -1.5796163 4293729569
9.4253445 -3.4979239 -1.7565681 4288085770
13.034008 -4.5901852 -1.5822233 4293729569
9.4715118 -3.4299502 -1.7592428 4288085770
13.162201 -4.5232477 -1.590512 4293729569
9.5186691 -3.3629789 -1.7609143 4288085770
13.295395 -4.4563122 -1.5987769 4293729569
9.5578232 -3.2920051 -1.7606174 4288085770
13.590631 -4.4374428 -1.6223518 4293729569
9.622982 -3.2290435 -1.7622101 4288085770
13.968893 -4.4376078 -1.6525639 4293729569
9.6891403 -3.1660819 -1.7637981 4288085770
14.435182 -4.4588108 -1.6903932 4293729569
9.7712994 -3.1061287 -1.7663155 4288085770
14.89846 -4.4740143 -1.7262275 4288085770
9.8524513 -3.0461774 -1.7668371 4288085770
15.170663 -4.4301491 -1.7388718 4288085770
9.9446068 -2.9872308 -1.7683088 4288085770
15.355825 -4.3582535 -1.7398834 4288085770
10.032753 -2.9272847 -1.7677975 4288085770
15.47996 -4.2693377 -1.7331567 4288085770
10.124895 -2.8673429 -1.7662675 4288085770
15.685117 -4.1984558 -1.7330754 4288085770
10.224035 -2.807405 -1.7647045 4288085770
15.888257 -4.1265764 -1.730002 4288085770
10.354191 -2.7564774 -1.7670089 4288085770
16.150417 -4.064724 -1.7316657 4288085770
10.484337 -2.7015538 -1.7673073 4288085770
16.430571 -4.0058804 -1.7322489 4288085770
10.62649 -2.6486349 -1.7685518 4288085770
16.794739 -3.9600773 -1.7374556 4288085770
10.779638 -2.5957236 -1.7687447 4288085770
17.162903 -3.9122782 -1.7416404 4288085770
10.91777 -2.5398088 -1.7660036 4288085770
17.439022 -3.839448 -1.7332207 4288085770
11.087917 -2.487906 -1.7661178 4288085770
17.825167 -3.7876654 -1.7323141 4288085770
11.260056 -2.4340096 -1.7642192 4288085770
18.216301 -3.7308903 -1.7293762 4288085770
11.461199 -2.3851247 -1.7641915 4288085770
18.656441 -3.6791401 -1.7272147 4288085770
11.650335 -2.3322368 -1.7622142 4288085770
11.909494 -2.2893777 -1.7659218 4288085770
12.162643 -2.2425194 -1.7676517 4288085770
12.420788 -2.1926665 -1.7673532 4288085770
12.73295 -2.1488361 -1.7718087 4288085770
13.042103 -2.1020088 -1.7732739 4288085770
13.391258 -2.056201 -1.7755519 4288085770
13.816441 -2.0184259 -1.7844828 4288085770
14.234606 -1.9746528 -1.7894379 4288085770
14.650757 -1.9258847 -1.7903945 4288085770
15.093908 -1.8761315 -1.7912219 4288085770
15.559048 -1.8223958 -1.7889391 4288085770
16.006168 -1.7616572 -1.7817307 4288085770
16.538303 -1.703959 -1.7781253 4288085770
17.181465 -1.6533127 -1.7810063 4288085770
17.792599 -1.590661 -1.7760198 4288085770
18.522747 -1.5320692 -1.7744771 4288085770
18.878517 1.1673717 -1.7501632 4288085770
17.95669 1.2218847 -1.758446 4288085770
17.006796 1.2663929 -1.753877 4288085770
16.233944 1.3128166 -1.7574663 4288085770
18.872002 1.5493379 -1.0905899 4293729569
15.517082 1.3562062 -1.7587953 4288085770
17.75721 1.5739734 -1.1098335 4293729569
14.857216 1.3985639 -1.7598556 4288085770
16.850437 1.6044991 -1.1320825 4293729569
14.27035 1.4378812 -1.7605747 4288085770
16.134687 1.6439269 -1.1584125 4293729569
13.730488 1.478174 -1.7620696 4288085770
15.472927 1.6813197 -1.1814899 4293729569
13.192604 1.5124598 -1.7595645 4288085770
15.15727 1.7465515 -1.2228841 4293729569
12.709719 1.5467148 -1.7567989 4288085770
14.946651 1.8207357 -1.2707669 4293729569
12.274847 1.5819478 -1.7568042 4288085770
14.903086 1.9118423 -1.327832 4293729569
11.878977 1.6171591 -1.7566247 4288085770
14.857516 2.0039487 -1.3839051 4293729569
11.493092 1.6493621 -1.7544025 4288085770
14.945001 2.1109967 -1.4493244 4293729569
11.190252 1.6885312 -1.7597762 4288085770
15.124542 2.234009 -1.5242831 4293729569
10.889397 1.7246945 -1.7621452 4288085770
15.678284 2.4108703 -1.6343852 4293729569
10.59753 1.7588513 -1.7634747 4288085770
16.191021 2.591753 -1.7436756 4288085770
10.309652 1.7910011 -1.7617881 4288085770
15.728207 2.6320186 -1.7548057 4288085770
10.050779 1.826138 -1.7619599 4288085770
15.21934 2.6592958 -1.7571744 4288085770
9.8159218 1.8612647 -1.7640177 4288085770
14.741465 2.6865525 -1.757396 4288085770
9.576046 1.8933878 -1.7621039 4288085770
14.3116 2.7167864 -1.7593855 4288085770
9.3801899 1.9284942 -1.7649771 4288085770
13.91173 2.7460012 -1.7602345 4288085770
9.1973419 1.9665954 -1.7687838 4288085770
13.542864 2.7772009 -1.7619333 4288085770
9.0014668 1.9996958 -1.7676601 4288085770
13.200006 2.8103874 -1.764506 4288085770
8.823595 2.0337875 -1.7674495 4288085770
12.867128 2.8395624 -1.7630377 4288085770
8.6537266 2.0678754 -1.7672009 4288085770
12.563253 2.8717227 -1.7624271 4288085770
8.5048695 2.1039541 -1.76885 4288085770
12.318413 2.9138596 -1.7675215 4288085770
8.342989 2.1360343 -1.7665665 4288085770
12.066555 2.9519956 -1.7696553 4288085770
8.213131 2.1741025 -1.7681224 4288085770
11.838705 2.99212 -1.7726723 4288085770
8.0762653 2.209173 -1.768716 4288085770
11.618843 3.0322366 -1.7736515 4288085770
7.9493904 2.2452354 -1.7672608 4288085770
11.417994 3.0743461 -1.7765375 4288085770
7.8395348 2.2842925 -1.7687204 4288085770
11.228132 3.116446 -1.7773714 4288085770
7.7226658 2.3203506 -1.7682177 4288085770
11.06329 3.1625371 -1.7810805 4288085770
7.639822 2.3633976 -1.7725431 4288085770
10.90744 3.2086215 -1.7837472 4288085770
7.5379429 2.399446 -1.7709695 4288085770
10.783604 3.2626929 -1.7892499 4288085770
7.4460793 2.4394917 -1.771342 4288085770
10.63274 3.3077698 -1.7888944 4288085770
7.3672256 2.4815316 -1.7726501 4288085770
10.507895 3.3588367 -1.7914063 4288085770
7.2793503 2.5205722 -1.7710055 4288085770
10.399054 3.4128966 -1.7948377 4288085770
7.2064896 2.5626073 -1.7712851 4288085770
10.293207 3.466953 -1.7972552 4288085770
7.1456394 2.6076386 -1.7735032 4288085770
10.20437 3.5250015 -1.8005856 4288085770
7.0897884 2.6526675 -1.7756975 4288085770
10.12553 3.5840449 -1.8038673 4288085770
7.0389385 2.7006931 -1.7778635 4288085770
10.035683 3.6410906 -1.8052043 4288085770
6.9860783 2.7467175 -1.7780421 4288085770
9.9698467 3.7041266 -1.808418 4288085770
6.9362183 2.7927399 -1.7782066 4288085770
9.9030018 3.7651601 -1.8096397 4288085770
6.9043789 2.8447568 -1.7812763 4288085770
9.8591728 3.8351851 -1.8137385 4288085770
6.8655205 2.894773 -1.7813826 4288085770
9.7963219 3.8972147 -1.8139397 4288085770
6.820652 2.9417896 -1.7795218 4288085770
9.7594872 3.9682326 -1.8160039 4288085770
6.8018131 2.9977994 -1.7825239 4288085770
9.7346554 4.0422459 -1.8190062 4288085770
6.7969875 3.0588059 -1.7884517 4288085770
9.7058182 4.1162581 -1.8200278 4288085770
6.7651215 3.1098154 -1.7865231 4288085770
9.6869831 4.1942658 -1.8219957 4288085770
6.7632809 3.1718159 -1.7894354 4288085770
9.6911659 4.2792659 -1.826844 4288085770
6.7544384 3.2328184 -1.7913823 4288085770
9.7023487 4.3682609 -1.8306527 4288085770
6.7746258 3.3038127 -1.7981764 4288085770
9.7055187 4.4542565 -1.8325039 4288085770
6.7797928 3.3698092 -1.8010491 4288085770
9.7457237 4.5562401 -1.8391551 4288085770
6.7869511 3.4368029 -1.802911 4288085770
9.7668991 4.6512256 -1.8409071 4288085770
6.8101292 3.5107923 -1.8076862 4288085770
9.8201008 4.7591996 -1.8464873 4288085770
6.8212872 3.5797825 -1.8085258 4288085770
9.8542805 4.8601785 -1.8481685 4288085770
6.8594704 3.6607633 -1.8132191 4288085770
9.9284878 4.9791408 -1.8536321 4288085770
6.8866348 3.7377446 -1.8159696 4288085770
10.00769 5.1020975 -1.8590645 4288085770
6.9348259 3.8247213 -1.8216054 4288085770
10.064878 5.216063 -1.8606153 4288085770
6.9689941 3.9046996 -1.8233182 4288085770
10.160095 5.3490138 -1.8659565 4288085770
7.0281868 3.9986706 -1.828891 4288085770
10.258299 5.4819593 -1.8692837 4288085770
7.0863781 4.0916405 -1.8334699 4288085770
10.37652 5.6278968 -1.874496 4288085770
7.1645813 4.1956019 -1.8399371 4288085770
10.514761 5.7838268 -1.8815975 4288085770
7.2548046 4.3055615 -1.8493379 4288085770
10.667002 5.9497485 -1.8886176 4288085770
7.3269882 4.4085207 -1.8518351 4288085770
10.85627 6.1356544 -1.8984311 4288085770
7.4552441 4.5414667 -1.8660202 4288085770
11.059546 6.3315535 -1.9091628 4288085770
7.5484447 4.6574168 -1.8703976 4288085770
11.28483 6.5424414 -1.9197669 4288085770
7.6176071 4.7603693 -1.8679091 4288085770
11.476072 6.7363362 -1.9235585 4288085770
7.6907711 4.8663197 -1.8653969 4288085770
11.699341 6.9492188 -1.9301686 4288085770
7.8029747 4.9942579 -1.8686655 4288085770
11.965633 7.1900797 -1.9385319 4288085770
7.9331932 5.1331892 -1.8738317 4288085770
12.26895 7.4529252 -1.9496853 4288085770
8.0834255 5.2851119 -1.8808831 4288085770
12.593271 7.7307572 -1.9597163 4288085770
8.216629 5.4270358 -1.8820304 4288085770
8.3708534 5.5839534 -1.8870549 4288085770
8.5370789 5.7478614 -1.8900119 4288085770
8.7323303 5.929759 -1.8968031 4288085770
8.945591 6.1246481 -1.9044889 4288085770
9.2058926 6.3485193 -1.9169071 4288085770
9.4621868 6.5713892 -1.9273455 4288085770
9.7404804 6.810245 -1.9366548 4288085770
10.008745 7.0450974 -1.9400177 4288085770
10.337061 7.3189273 -1.9500356 4288085770
10.729433 7.6357327 -1.9666831 4288085770
11.122795 7.9555302 -1.9793212 4288085770
18.156967 -0.79059505 -1.7477579 4288085770
17.034077 -0.81497002 -1.7521527 4288085770
15.935146 -0.82937241 -1.7474183 4288085770
15.020251 -0.84286737 -1.748804 4288085770
14.217381 -0.85741663 -1.7556567 4288085770
13.413464 -0.86298132 -1.7515008 4288085770
12.704565 -0.86859417 -1.7508914 4288085770
12.051666 -0.87323856 -1.7500137 4288085770
18.671551 -1.3599143 -1.7561405 4288085770
11.485788 -0.87692404 -1.7537191 4288085770
17.449699 -1.3352299 -1.7629343 4288085770
10.965908 -0.88063526 -1.7572049 4288085770
16.284813 -1.3055882 -1.7624489 4288085770
10.482037 -0.88336468 -1.7615175 4288085770
15.255925 -1.2780242 -1.7613175 4288085770
10.047176 -0.88511944 -1.7675947 4288085770
14.376068 -1.2555323 -1.7664822 4288085770
9.6102905 -0.88288021 -1.7686754 4288085770
13.546185 -1.2310767 -1.7664057 4288085770
9.1913967 -0.87965441 -1.7676688 4288085770
12.77129 -1.2046561 -1.7630635 4288085770
8.8265228 -0.87645245 -1.7704046 4288085770
12.100412 -1.1812887 -1.7632295 4288085770
8.5006676 -0.87626696 -1.7769586 4288085770
11.525566 -1.1649628 -1.7709478 4288085770
8.1837997 -0.87308884 -1.7814652 4288085770
10.95068 -1.1426506 -1.7696573 4288085770
7.8799267 -0.86892223 -1.7839082 4288085770
10.464828 -1.1263757 -1.7759509 4288085770
7.5650291 -0.86075592 -1.7813981 4288085770
10.005968 -1.10812 -1.7801125 4288085770
7.3101711 -0.85761023 -1.7876087 4288085770
9.5600929 -1.0888758 -1.7812108 4288085770
7.0342827 -0.84846449 -1.7859108 4288085770
9.1071892 -1.0656381 -1.7753369 4288085770
6.7813988 -0.8413291 -1.7861062 4288085770
8.7503357 -1.0504355 -1.7810162 4288085770
6.5535278 -0.83520365 -1.7891836 4288085770
8.3994713 -1.0332403 -1.7846642 4288085770
6.3046284 -0.8240757 -1.7853539 4288085770
8.0876198 -1.0180645 -1.7901291 4288085770
6.123785 -0.81996727 -1.79421 4288085770
7.7527237 -0.99689245 -1.7866974 4288085770
5.9158993 -0.81086111 -1.79419 4288085770
7.4598484 -0.98073292 -1.7880692 4288085770
5.7340298 -0.8027606 -1.7970442 4288085770
7.1789742 -0.96258116 -1.7883809 4288085770
5.5341377 -0.79165745 -1.7949798 4288085770
6.901083 -0.94343615 -1.7856768 4288085770
5.3432388 -0.78056288 -1.7908728 4288085770
6.6592178 -0.92730236 -1.7888054 4288085770
5.1843739 -0.77247477 -1.7946174 4288085770
6.4173317 -0.9091754 -1.786931 4288085770
5.0234947 -0.76238871 -1.7953687 4288085770
6.2144756 -0.89506054 -1.7918764 4288085770
4.8636093 -0.75130749 -1.7941138 4288085770
6.0076065 -0.87894773 -1.7938383 4288085770
4.7087231 -0.74022818 -1.7928351 4288085770
5.8077278 -0.86284208 -1.7937666 4288085770
4.5648403 -0.72915411 -1.7925035 4288085770
5.619854 -0.8467412 -1.7946376 4288085770
4.4309635 -0.71908426 -1.7931261 4288085770
5.432972 -0.82964468 -1.7935026 4288085770
4.303091 -0.70801592 -1.7947185 4288085770
5.2620964 -0.81355381 -1.7942926 4288085770
4.1792145 -0.69795084 -1.7952933 4288085770
5.0992222 -0.79846716 -1.795046 4288085770
4.9193172 -0.77838182 -1.7888732 4288085770
4.7764511 -0.76430368 -1.7915326 4288085770
4.6245575 -0.7472291 -1.7882307 4288085770
4.4826736 -0.73015785 -1.786881 4288085770
4.3427868 -0.71408892 -1.7845234 4288085770
4.2349281 -0.70102739 -1.7890171 4288085770
4.1250648 -0.68696594 -1.7925191 4288085770
4.1529942 1.2073562 -1.7842513 4288085770
4.2590981 1.2222846 -1.7797154 4288085770
4.387228 1.2412076 -1.7800676 4288085770
4.5283699 1.2631285 -1.7833523 4288085770
4.6624966 1.2810469 -1.7826768 4288085770
4.8096275 1.3009608 -1.7839355 4288085770
4.9627609 1.3208716 -1.7851653 4288085770
4.1127872 1.178364 -1.7974763 4288085770
5.1178875 1.3397779 -1.784387 4288085770
4.2088661 1.1862915 -1.7889991 4288085770
5.2780075 1.3596814 -1.7835827 4288085770
4.3400021 1.2012165 -1.7913424 4288085770
5.4441261 1.3775804 -1.7817527 4288085770
4.4661179 1.2131379 -1.7897145 4288085770
5.6302681 1.3994734 -1.78382 4288085770
4.5932274 1.224057 -1.7870831 4288085770
5.8093872 1.4183648 -1.7819258 4288085770
4.7213345 1.2339747 -1.7834485 4288085770
5.9995041 1.4372501 -1.7799783 4288085770
4.8824844 1.2498865 -1.7886455 4288085770
6.2226562 1.4611254 -1.7838638 4288085770
5.037611 1.2627945 -1.7888758 4288085770
6.4628086 1.4859922 -1.788666 4288085770
5.1877174 1.2727008 -1.7861348 4288085770
6.666914 1.5028648 -1.7836536 4288085770
5.3528423 1.2846031 -1.7863185 4288085770
6.8980236 1.5217247 -1.780508 4288085770
5.5309734 1.2974994 -1.7874378 4288085770
