# .PCD v0.7 - Point Cloud Data file format
VERSION 0.7
FIELDS x y z rgb
SIZE 4 4 4 4
TYPE F F F U
COUNT 1 1 1 1
WIDTH 1130
HEIGHT 1
VIEWPOINT 0 0 0 1 0 0 0
POINTS 1130
DATA ascii
14.039991 0.020438671 -1.7031099 4288085770
15.272112 0.033845425 -1.6987073 4288085770
16.731247 0.046332359 -1.6953964 4288085770
15.583202 1.9517448 -0.44357017 4293729569
14.862956 2.0043876 -0.40658298 4293729569
14.394754 2.0731363 -0.37440798 4293729569
14.166595 2.1659858 -0.34712872 4293729569
14.347479 2.3070014 -0.32524601 4293729569
14.473344 2.4419901 -0.30084673 4293729569
14.60518 2.5809739 -0.27338681 4293729569
14.725017 2.7189538 -0.24603161 4293729569
17.463963 0.28634596 -1.6777844 4288085770
15.981116 0.29813766 -1.6889594 4288085770
14.693243 0.31094742 -1.6963927 4288085770
13.544348 0.32176971 -1.7005941 4288085770
12.487415 0.3335886 -1.6999729 4288085770
11.635542 0.34546375 -1.7055229 4288085770
10.868685 0.35735703 -1.7123153 4288085770
10.196825 0.36826324 -1.7182643 4288085770
16.5117 0.51213551 -1.6713922 4288085770
9.5689487 0.38017178 -1.722818 4288085770
15.210869 0.52296138 -1.6839529 4288085770
9.0160866 0.39209318 -1.7277027 4288085770
14.018967 0.53177357 -1.6875492 4288085770
8.5422783 0.40505028 -1.738879 4288085770
13.007101 0.54162741 -1.6945363 4288085770
8.0593929 0.41597366 -1.7411436 4288085770
12.088198 0.55147934 -1.6966944 4288085770
7.5994701 0.42688656 -1.7392035 4288085770
11.305342 0.56137013 -1.7036391 4288085770
7.2146263 0.43884087 -1.7455906 4288085770
10.659534 0.57330036 -1.7153543 4288085770
6.8377247 0.45077515 -1.7459069 4288085770
9.9926262 0.58318925 -1.7162654 4288085770
6.5239048 0.46274948 -1.7546606 4288085770
9.426775 0.59511232 -1.7222677 4288085770
6.1879959 0.47368574 -1.7536151 4288085770
8.9119244 0.60604596 -1.7288189 4288085770
5.8800964 0.48562908 -1.7533164 4288085770
8.4620991 0.618999 -1.7377831 4288085770
5.612236 0.49759555 -1.7576606 4288085770
8.0062027 0.62992263 -1.7388084 4288085770
5.3383236 0.50853968 -1.7560625 4288085770
7.5802975 0.63984656 -1.7385702 4288085770
5.1024628 0.52051044 -1.7601213 4288085770
7.2054157 0.651788 -1.7408698 4288085770
4.8976288 0.53349566 -1.7669001 4288085770
6.8655586 0.66374469 -1.7458568 4288085770
4.6677151 0.54444599 -1.7649096 4288085770
6.5587044 0.67570615 -1.7505493 4288085770
4.4538021 0.55639791 -1.762773 4288085770
6.261837 0.68766499 -1.7541531 4288085770
4.2909851 0.5693996 -1.7721775 4288085770
5.9729366 0.69961429 -1.7546862 4288085770
4.1101055 0.58237052 -1.7737427 4288085770
5.6870174 0.70955348 -1.7521995 4288085770
3.942234 0.59434652 -1.7761953 4288085770
5.4391289 0.72151184 -1.7533665 4288085770
3.7663174 0.60630369 -1.7737203 4288085770
5.2343044 0.73550057 -1.761142 4288085770
3.6104279 0.61827445 -1.7740662 4288085770
5.0053978 0.7474544 -1.7601398 4288085770
3.4705734 0.63126087 -1.7782657 4288085770
4.8225746 0.76144624 -1.767719 4288085770
3.3266735 0.64322948 -1.7775049 4288085770
4.6066418 0.77239084 -1.7636049 4288085770
3.2028255 0.65722227 -1.7825582 4288085770
4.4287701 0.78536558 -1.7661438 4288085770
3.0869713 0.6712122 -1.7865403 4288085770
4.2609081 0.79934525 -1.7695899 4288085770
2.9670982 0.68419433 -1.7885616 4288085770
4.1000252 0.81231833 -1.7709775 4288085770
2.8652515 0.69818974 -1.7934186 4288085770
3.940136 0.82428813 -1.7713594 4288085770
2.7543659 0.71116972 -1.7943599 4288085770
3.7892361 0.83725572 -1.770658 4288085770
3.6583824 0.85224366 -1.7747705 4288085770
3.5104656 0.86320448 -1.7720494 4288085770
3.3835831 0.87718225 -1.7731302 4288085770
3.2857609 0.89318919 -1.7809441 4288085770
3.1608486 0.9061563 -1.779011 4288085770
3.0549641 0.92013717 -1.7799044 4288085770
2.948082 0.93411756 -1.7808068 4288085770
2.838171 0.94808698 -1.7787361 4288085770
2.7623405 0.96409297 -1.7853539 4288085770
2.794241 3.3537297 -1.7912786 4288085770
2.9213829 3.42676 -1.794873 4288085770
3.0805931 3.5158229 -1.8061223 4288085770
3.1916561 3.5748186 -1.8009105 4288085770
3.3448124 3.6578593 -1.8062348 4288085770
3.4889278 3.7328811 -1.806669 4288085770
3.6450596 3.8139114 -1.8089736 4288085770
3.8041687 3.8939357 -1.8092544 4288085770
3.970274 3.9759567 -1.8084655 4288085770
2.7733421 3.3587341 -1.8054185 4288085770
4.1273403 4.0519629 -1.8037786 4288085770
2.8713722 3.399714 -1.7963874 4288085770
4.3545456 4.1640353 -1.8143334 4288085770
3.0295506 3.4737625 -1.8036985 4288085770
4.5797234 4.2730966 -1.8219168 4288085770
3.1887131 3.5478082 -1.8100009 4288085770
4.7938404 4.3721356 -1.8236349 4288085770
3.3187847 3.6018105 -1.805635 4288085770
5.0099487 4.4711676 -1.8233347 4288085770
3.4769077 3.6698375 -1.8069673 4288085770
5.1989689 4.5511603 -1.813345 4288085770
3.6400414 3.7378695 -1.8092542 4288085770
5.557312 4.7233109 -1.8395064 4288085770
3.8031387 3.8038871 -1.8075483 4288085770
5.8544884 4.8563862 -1.8473556 4288085770
3.9702358 3.8699052 -1.8058064 4288085770
6.095541 4.9554009 -1.8408294 4288085770
4.136322 3.9329197 -1.8030837 4288085770
6.3896503 5.0804477 -1.8407338 4288085770
4.3534946 4.020977 -1.809813 4288085770
6.7077827 5.2145076 -1.8433897 4288085770
4.5946999 4.1190515 -1.8202903 4288085770
7.0389042 5.3505669 -1.8449211 4288085770
4.8108273 4.2000909 -1.822053 4288085770
7.35396 5.4745951 -1.8386393 4288085770
5.0249367 4.2781229 -1.8218441 4288085770
7.7501183 5.6366811 -1.8444924 4288085770
5.2290058 4.3461356 -1.816761 4288085770
8.1492519 5.7957563 -1.8473289 4288085770
5.485157 4.4401913 -1.8211167 4288085770
8.5793819 5.9648366 -1.8498507 4288085770
5.8234425 4.5713153 -1.8406019 4288085770
9.0785789 6.1639547 -1.8596437 4288085770
6.112608 4.6743827 -1.846628 4288085770
9.5957451 6.3650646 -1.8662674 4288085770
6.3626804 4.7524056 -1.8420937 4288085770
10.152927 6.5801878 -1.8744802 4288085770
6.5977001 4.819406 -1.8317339 4288085770
10.693037 6.7792797 -1.8749032 4288085770
6.8878059 4.9104486 -1.8307929 4288085770
11.3242 7.0144091 -1.8813779 4288085770
7.1979198 5.0054979 -1.8306572 4288085770
12.014387 7.2715578 -1.8902419 4288085770
7.4989872 5.0925283 -1.8256309 4288085770
12.702513 7.5176821 -1.8921633 4288085770
7.8861752 5.2166209 -1.8336978 4288085770
13.475675 7.7938356 -1.898211 4288085770
8.2502918 5.3246818 -1.8340285 4288085770
14.296824 8.083993 -1.9027762 4288085770
8.630415 5.4337478 -1.835211 4288085770
9.0415459 5.5528221 -1.8370783 4288085770
9.4877014 5.680913 -1.8415978 4288085770
9.9298248 5.8009882 -1.8421814 4288085770
10.407969 5.9310799 -1.8454046 4288085770
10.88007 6.0501528 -1.8437207 4288085770
11.427237 6.1952648 -1.8492675 4288085770
12.005402 6.3463812 -1.8545134 4288085770
12.628578 6.5065112 -1.861321 4288085770
13.161633 6.6205754 -1.8541026 4288085770
13.847813 6.7907181 -1.8613055 4288085770
14.491913 6.9318199 -1.8589895 4288085770
15.211061 7.0949535 -1.861918 4288085770
15.970197 7.2600899 -1.8634787 4288085770
16.675278 7.397193 -1.8586245 4288085770
17.455387 7.5513215 -1.857033 4288085770
13.884734 3.3138742 -0.53093612 4293729569
14.019734 3.2218411 -0.51603198 4293729569
14.090707 2.9957321 -0.48417017 4293729569
14.022694 2.865659 -0.46823427 4293729569
14.056716 2.7516184 -0.4563199 4293729569
14.01873 2.6275606 -0.4430916 4293729569
14.062778 2.5135317 -0.43408671 4293729569
14.075842 2.3975027 -0.42636892 4293729569
14.082903 2.2804723 -0.41870877 4293729569
14.068986 2.1614456 -0.41324541 4293729569
14.22311 2.0594649 -0.41220316 4293729569
14.816356 2.0026059 -0.42303267 4293729569
15.587645 1.9557939 -0.43821684 4293729569
17.245945 -3.0127187 -1.6693883 4288085770
16.556091 -3.0288258 -1.6756839 4288085770
15.918255 -3.0409184 -1.6834947 4288085770
15.267378 -3.0430284 -1.6873891 4288085770
14.633492 -3.0421381 -1.6901195 4288085770
14.025603 -3.0372448 -1.6926007 4288085770
13.461732 -3.0313377 -1.6966802 4288085770
12.90884 -3.0214362 -1.698647 4288085770
12.366947 -3.0055327 -1.700493 4288085770
11.903099 -2.9986 -1.7066642 4288085770
11.420223 -2.9836812 -1.7099801 4288085770
10.930298 -2.9587812 -1.7083249 4288085770
10.480391 -2.9358678 -1.7083147 4288085770
17.152538 -4.5518217 -1.6605127 4288085770
10.090548 -2.9219213 -1.714792 4288085770
16.294716 -4.4629393 -1.672966 4288085770
9.7146931 -2.9069753 -1.7201395 4288085770
15.504894 -4.378046 -1.6848173 4288085770
9.3388271 -2.8880334 -1.7244736 4288085770
14.601912 -4.2552299 -1.6805614 4288085770
8.9889717 -2.8700843 -1.7295755 4288085770
13.798988 -4.1483774 -1.6814555 4288085770
8.6461143 -2.849134 -1.7346038 4288085770
13.089078 -4.0555038 -1.6835563 4288085770
8.330265 -2.8301764 -1.7403944 4288085770
12.45822 -3.9755983 -1.6909868 4288085770
8.0003834 -2.8042345 -1.742288 4288085770
11.888374 -3.9026785 -1.6988893 4288085770
7.6834965 -2.7782912 -1.744064 4288085770
11.269434 -3.809803 -1.6971668 4288085770
7.4106579 -2.7593231 -1.7504656 4288085770
10.731558 -3.7328901 -1.7017665 4288085770
7.1498241 -2.7403502 -1.7577586 4288085770
10.248699 -3.6649609 -1.7078991 4288085770
6.8639355 -2.7114015 -1.759244 4288085770
9.7748184 -3.5930376 -1.7119368 4288085770
6.6140842 -2.689435 -1.7644274 4288085770
9.348959 -3.5301008 -1.717571 4288085770
6.348196 -2.658483 -1.7657244 4288085770
8.9491253 -3.4711494 -1.7259837 4288085770
6.1063251 -2.6325221 -1.768822 4288085770
8.5692635 -3.4122052 -1.7312157 4288085770
5.8904915 -2.6115422 -1.7757008 4288085770
8.1743736 -3.345274 -1.7335562 4288085770
5.6696281 -2.5855742 -1.779608 4288085770
7.8275108 -3.2873254 -1.7384927 4288085770
5.4467373 -2.5566163 -1.7805231 4288085770
7.4986553 -3.2323704 -1.744277 4288085770
5.2488956 -2.5326376 -1.7862291 4288085770
7.1998119 -3.1824074 -1.7508069 4288085770
5.0560417 -2.5076618 -1.7908864 4288085770
6.9039574 -3.1304469 -1.7563028 4288085770
4.8461399 -2.4747057 -1.7906699 4288085770
6.6271095 -3.0804806 -1.7626337 4288085770
4.642231 -2.440753 -1.789396 4288085770
6.3512344 -3.027524 -1.7659452 4288085770
4.4613571 -2.4137821 -1.7919383 4288085770
6.0713444 -2.9715757 -1.7672832 4288085770
4.284483 -2.3848104 -1.7944372 4288085770
5.8284855 -2.9236073 -1.7723134 4288085770
4.0985546 -2.3498631 -1.7909968 4288085770
5.5936222 -2.8766413 -1.7762747 4288085770
3.9547253 -2.3288684 -1.7982244 4288085770
5.3527184 -2.8236909 -1.7762699 4288085770
3.7958527 -2.2998943 -1.8005602 4288085770
5.1518879 -2.7837052 -1.7839472 4288085770
3.6279297 -2.2659397 -1.7979608 4288085770
4.9510326 -2.7407312 -1.7886147 4288085770
3.4660091 -2.2319837 -1.7953069 4288085770
4.7261086 -2.6857848 -1.7864585 4288085770
3.3141174 -2.2000165 -1.7955694 4288085770
4.5202065 -2.6368294 -1.7861507 4288085770
3.1902695 -2.1770267 -1.8006091 4288085770
4.3273106 -2.5898676 -1.7867324 4288085770
3.0704193 -2.1540356 -1.8056126 4288085770
4.1444168 -2.5439048 -1.7872267 4288085770
2.9385357 -2.1240616 -1.8067009 4288085770
3.9675198 -2.497941 -1.787667 4288085770
2.8016148 -2.0911016 -1.8038244 4288085770
3.8246975 -2.4649429 -1.7958438 4288085770
3.6668148 -2.4239731 -1.7971292 4288085770
3.5099125 -2.3800058 -1.7973955 4288085770
3.3439789 -2.3320546 -1.7937295 4288085770
3.2010841 -2.2910852 -1.7938793 4288085770
3.0792351 -2.2580957 -1.7988663 4288085770
2.9513645 -2.2201133 -1.8018904 4288085770
2.8274784 -2.182138 -1.8028784 4288085770
2.7045841 -2.144166 -1.8028574 4288085770
2.7022514 0.065218925 -1.7736764 4288085770
2.8163509 0.077229977 -1.7715859 4288085770
2.9274216 0.089229107 -1.7665231 4288085770
3.0595474 0.10125256 -1.7672675 4288085770
3.2016697 0.11327839 -1.7679203 4288085770
3.3357506 0.1252861 -1.7636462 4288085770
3.4979019 0.13732529 -1.7671154 4288085770
3.6339531 0.14932251 -1.7598231 4288085770
3.8070793 0.16035366 -1.7601947 4288085770
2.7921906 0.18718815 -1.7713921 4288085770
3.9892025 0.17238617 -1.7604802 4288085770
2.9423523 0.19722986 -1.7759781 4288085770
4.1743088 0.18441248 -1.7587383 4288085770
3.0664253 0.20723104 -1.7708025 4288085770
4.372427 0.1954484 -1.7588804 4288085770
3.2155399 0.21725464 -1.7703974 4288085770
4.5845432 0.20748186 -1.7578906 4288085770
3.3606281 0.22626734 -1.7670329 4288085770
4.807663 0.219522 -1.7577997 4288085770
3.5347805 0.23630905 -1.7703984 4288085770
5.0227222 0.23153543 -1.7507824 4288085770
3.6868458 0.24531651 -1.7649693 4288085770
5.2968826 0.2436018 -1.7552239 4288085770
3.8709698 0.25534916 -1.7652432 4288085770
5.57201 0.25565434 -1.7556558 4288085770
4.0610905 0.26438332 -1.7654654 4288085770
5.8410931 0.26668739 -1.7511462 4288085770
4.2672253 0.27342367 -1.7665405 4288085770
6.1652374 0.27875471 -1.7531285 4288085770
4.4793472 0.28246117 -1.7665606 4288085770
6.5103836 0.29082584 -1.754918 4288085770
4.722496 0.29251528 -1.7692926 4288085770
6.8454609 0.30287075 -1.7497991 4288085770
4.9245358 0.30052042 -1.7604078 4288085770
7.2055321 0.31491661 -1.7434509 4288085770
5.17766 0.30856562 -1.7600548 4288085770
7.6316528 0.3269949 -1.7424968 4288085770
5.4417515 0.31660175 -1.756601 4288085770
8.0947838 0.33908224 -1.7422032 4288085770
5.7238522 0.32464504 -1.7539818 4288085770
8.5778866 0.35216284 -1.7387226 4288085770
6.0389824 0.33270359 -1.7540597 4288085770
9.0799503 0.36323357 -1.7310742 4288085770
6.3851261 0.34077501 -1.7558529 4288085770
9.6460285 0.37532091 -1.7248353 4288085770
6.7472496 0.34884262 -1.7554992 4288085770
10.284124 0.38842869 -1.7199317 4288085770
7.0873032 0.35487843 -1.7473541 4288085770
10.968208 0.40054035 -1.7136093 4288085770
7.4903908 0.36193848 -1.7426274 4288085770
11.768316 0.41368246 -1.709219 4288085770
7.9635506 0.36903906 -1.745258 4288085770
12.672425 0.42684555 -1.7048739 4288085770
8.4546642 0.37512922 -1.7437271 4288085770
13.701535 0.44103432 -1.7003788 4288085770
8.9577293 0.38019896 -1.7360891 4288085770
14.866654 0.45524931 -1.6956346 4288085770
9.5058022 0.38428116 -1.7290412 4288085770
16.170738 0.46947813 -1.6866145 4288085770
10.119892 0.388381 -1.7233874 4288085770
17.671797 0.4847331 -1.6737827 4288085770
10.833002 0.39250898 -1.7198247 4288085770
11.615101 0.39464521 -1.7146351 4288085770
12.484209 0.39679956 -1.7096469 4288085770
13.530371 0.3980093 -1.7100371 4288085770
14.669494 0.39722109 -1.7055801 4288085770
15.956602 0.39545441 -1.6987674 4288085770
17.386656 0.38969517 -1.6856556 4288085770
10.44479 -5.2253904 -0.33261123 4293729569
10.450249 -5.1322594 -0.3712289 4293729569
10.529718 -5.0681114 -0.41026214 4293729569
16.515121 -5.8847589 -1.029567 4293729569
16.457436 -5.7246885 -1.0545319 4293729569
16.526814 -5.6189489 -0.12046653 4293729569
16.662895 -5.6445179 -1.0923373 4293729569
17.273619 0.67624855 -1.6729956 4288085770
15.960738 0.7069931 -1.6802114 4288085770
14.880921 0.73680711 -1.6932424 4288085770
13.823976 0.76057601 -1.69208 4288085770
12.975139 0.78742766 -1.7019533 4288085770
12.160244 0.81026387 -1.7055221 4288085770
11.442358 0.83312082 -1.70918 4288085770
10.819506 0.85600877 -1.7159457 4288085770
10.215595 0.87587881 -1.7165443 4288085770
16.695414 1.2900794 -1.6681983 4288085770
9.6907196 0.89677691 -1.720397 4288085770
15.607574 1.3008811 -1.6783746 4288085770
9.2208595 0.91769218 -1.7257334 4288085770
14.61272 1.3106956 -1.6866813 4288085770
8.7599525 0.93659115 -1.7259928 4288085770
13.676798 1.3174965 -1.687445 4288085770
8.3721085 0.9575274 -1.7325592 4288085770
12.869919 1.327337 -1.6919863 4288085770
8.0052452 0.97846055 -1.7369287 4288085770
12.158052 1.3402019 -1.6976247 4288085770
7.620327 0.99536991 -1.7354819 4288085770
11.498175 1.3520727 -1.7017785 4288085770
7.2653961 1.0122805 -1.7327535 4288085770
10.893276 1.3629458 -1.7034197 4288085770
6.9935684 1.0332446 -1.7402306 4288085770
10.353394 1.3758378 -1.7064432 4288085770
6.6996708 1.0511796 -1.7409257 4288085770
9.8464985 1.3877318 -1.7081602 4288085770
6.433794 1.0701277 -1.743354 4288085770
9.4106503 1.4026561 -1.7141995 4288085770
6.2009411 1.0900915 -1.7484688 4288085770
8.9827518 1.4155643 -1.7151711 4288085770
5.9460182 1.1060236 -1.745805 4288085770
8.5858517 1.428478 -1.7158519 4288085770
5.7602005 1.12801 -1.7544711 4288085770
8.2650146 1.44643 -1.7228005 4288085770
5.5443039 1.1459594 -1.7544338 4288085770
7.9601765 1.4653847 -1.7295953 4288085770
5.349411 1.1639161 -1.7551992 4288085770
7.6422844 1.4783161 -1.730534 4288085770
5.1945858 1.1859043 -1.7625743 4288085770
7.342371 1.4922435 -1.7293001 4288085770
4.9926414 1.1998386 -1.7574202 4288085770
7.0744953 1.5081906 -1.7317586 4288085770
4.8357773 1.2198126 -1.7608215 4288085770
6.831625 1.5251455 -1.7349784 4288085770
4.6758862 1.2377753 -1.7612584 4288085770
6.5877285 1.54109 -1.7352115 4288085770
4.5239925 1.2557399 -1.7616202 4288085770
6.3738594 1.5590503 -1.7381556 4288085770
4.3951397 1.2767222 -1.7657549 4288085770
6.1749878 1.5780132 -1.7409551 4288085770
4.2562466 1.2946887 -1.7659947 4288085770
5.9861259 1.5969813 -1.7446609 4288085770
4.1313725 1.3136647 -1.7680991 4288085770
5.7972374 1.614939 -1.7453704 4288085770
4.0034714 1.33163 -1.7672358 4288085770
5.6353798 1.6359153 -1.7498153 4288085770
3.8895855 1.3516042 -1.7682335 4288085770
5.4845161 1.6558905 -1.7531605 4288085770
3.7636642 1.3685625 -1.7653551 4288085770
5.3206367 1.6748562 -1.7546315 4288085770
3.6838436 1.3935676 -1.7730155 4288085770
5.1657333 1.6928163 -1.7540219 4288085770
3.5739307 1.4105325 -1.7709863 4288085770
5.0569134 1.7188163 -1.761951 4288085770
3.4830513 1.4315145 -1.7727647 4288085770
4.9139996 1.7367752 -1.7602286 4288085770
3.3871574 1.4504888 -1.7725973 4288085770
4.7610626 1.7517216 -1.7556112 4288085770
3.2872372 1.4674516 -1.7694747 4288085770
4.6672306 1.7777207 -1.7623996 4288085770
3.2103577 1.4894361 -1.7711179 4288085770
4.5643654 1.8007045 -1.7652832 4288085770
3.1314831 1.5104206 -1.7727835 4288085770
4.4464626 1.8206708 -1.7643189 4288085770
3.0505791 1.5303938 -1.7714715 4288085770
4.3125057 1.8346138 -1.7575268 4288085770
2.9827003 1.5523798 -1.7730303 4288085770
4.2166195 1.8565915 -1.7583485 4288085770
2.9128036 1.5733588 -1.7726116 4288085770
4.1327496 1.8815784 -1.7610469 4288085770
2.8569546 1.5973575 -1.7770503 4288085770
4.0298214 1.8995371 -1.7569489 4288085770
2.809103 1.6223578 -1.7814102 4288085770
3.9559593 1.9255295 -1.7605498 4288085770
2.7502155 1.6453421 -1.7818811 4288085770
3.8830814 1.9515147 -1.7621412 4288085770
2.6903286 1.6673262 -1.7823646 4288085770
3.801178 1.9724879 -1.7608354 4288085770
3.7342987 1.9994743 -1.7623669 4288085770
3.6553841 2.0214443 -1.7600292 4288085770
3.5884857 2.0454235 -1.7595717 4288085770
3.5235806 2.0703998 -1.7580917 4288085770
3.4706917 2.0983889 -1.7594887 4288085770
3.4077778 2.1223624 -1.7569937 4288085770
3.3679142 2.1533604 -1.7602572 4288085770
3.3069878 2.1773303 -1.7567437 4288085770
3.2711182 2.2093258 -1.7589662 4288085770
3.2232094 2.2363048 -1.7573197 4288085770
3.182312 2.2662888 -1.7565964 4288085770
3.1464214 2.2962768 -1.7568263 4288085770
3.1285667 2.3342829 -1.7608582 4288085770
3.1056938 2.3692801 -1.762948 4288085770
3.0757923 2.4012663 -1.7621144 4288085770
3.0519009 2.4362569 -1.7622137 4288085770
3.0169735 2.4652314 -1.758438 4288085770
3.0181351 2.5102475 -1.7642664 4288085770
2.987196 2.5412192 -1.759446 4288085770
2.9733067 2.5782115 -1.7594441 4288085770
2.969429 2.6192122 -1.7613339 4288085770
2.9585266 2.6572018 -1.7603005 4288085770
2.9425945 2.6941798 -1.7563177 4288085770
2.9527378 2.7411904 -1.7600546 4288085770
2.9498348 2.7831812 -1.7589316 4288085770
2.9569473 2.8281808 -1.759704 4288085770
2.968071 2.8751845 -1.7614313 4288085770
2.9731655 2.9211769 -1.7602189 4288085770
3.0003052 2.9761906 -1.7637675 4288085770
3.0174103 3.0271883 -1.7634244 4288085770
3.0585747 3.0902152 -1.7698128 4288085770
3.0846863 3.1452181 -1.770371 4288085770
3.1148052 3.2022254 -1.771884 4288085770
3.172987 3.2752624 -1.7800767 4288085770
3.2231293 3.3422837 -1.7843661 4288085770
3.2702579 3.4082973 -1.7866874 4288085770
3.3514729 3.4943523 -1.7986174 4288085770
3.4065971 3.5643678 -1.8008492 4288085770
3.4717312 3.6413882 -1.803962 4288085770
3.5238285 3.7103925 -1.8032255 4288085770
3.5779171 3.7803934 -1.8014667 4288085770
3.6710835 3.8734334 -1.808259 4288085770
3.7441883 3.9544446 -1.8082821 4288085770
3.8483601 4.0524898 -1.815953 4288085770
3.9154186 4.1294827 -1.8110471 4288085770
4.0015068 4.2174935 -1.8099229 4288085770
4.0755539 4.2984834 -1.8039367 4288085770
2.7506657 3.5871828 -1.8019266 4288085770
4.1746464 4.3924966 -1.802669 4288085770
2.8388157 3.6692147 -1.8068051 4288085770
4.298769 4.5035286 -1.8051054 4288085770
2.9289551 3.7522433 -1.8106608 4288085770
4.4409256 4.624577 -1.8113368 4288085770
3.0240936 3.8382728 -1.8144588 4288085770
4.6411762 4.7826743 -1.8278904 4288085770
3.1101875 3.9172831 -1.8133664 4288085770
5.1060009 5.1110506 -1.9073539 4282675967
3.2072868 4.0022993 -1.8131492 4288085770
5.3081951 5.2711277 -1.9178817 4282675967
3.3154163 4.0943274 -1.8158035 4288085770
5.455246 5.3941388 -1.9130588 4282675967
3.4385605 4.194366 -1.8202879 4288085770
5.5852356 5.5051222 -1.9014385 4282675967
3.5727215 4.3014131 -1.8266439 4288085770
5.7192211 5.6181035 -1.8887734 4288085770
3.7028351 4.4044423 -1.8280516 4288085770
5.8631992 5.7360859 -1.8759961 4288085770
3.8279228 4.5034599 -1.8265207 4288085770
6.0492344 5.8801003 -1.8697312 4288085770
3.9640179 4.6074829 -1.8258681 4288085770
6.2632942 6.0421305 -1.8661385 4288085770
4.1271648 4.7295318 -1.8308973 4288085770
6.5394382 6.2422075 -1.8718266 4288085770
4.3093262 4.8635907 -1.8377049 4288085770
6.8696384 6.4783182 -1.8838785 4288085770
4.7791367 5.1909618 -1.9151232 4282675967
7.2007999 6.7124157 -1.891928 4288085770
5.0303783 5.3670692 -1.9311314 4282675967
7.5319233 6.9444981 -1.8959839 4288085770
5.2234745 5.5031061 -1.9308279 4282675967
7.8960609 7.1965947 -1.9016583 4288085770
5.3794632 5.6110945 -1.9189723 4282675967
8.2661533 7.4506745 -1.9022686 4288085770
5.5394249 5.7190733 -1.904079 4282675967
8.7293301 7.7648096 -1.9127901 4288085770
5.7113934 5.8330574 -1.8900509 4288085770
5.9093952 5.9620609 -1.8797247 4288085770
6.144434 6.1140881 -1.8739684 4288085770
6.4585838 6.3161755 -1.8802896 4288085770
6.8268089 6.5523043 -1.8949814 4288085770
7.1789455 6.7723951 -1.8998804 4288085770
7.5621033 7.0105023 -1.9074228 4288085770
7.9321918 7.2355785 -1.9071341 4288085770
8.343298 7.4836731 -1.9093766 4288085770
8.8585129 7.7948332 -1.9234152 4288085770
17.276497 -1.4657273 -1.6903545 4288085770
16.38166 -1.496902 -1.698949 4288085770
15.53582 -1.5240674 -1.7070649 4288085770
14.735955 -1.5452309 -1.712724 4288085770
14.006096 -1.5633788 -1.7187085 4288085770
13.311236 -1.5775185 -1.7243475 4288085770
12.653354 -1.5876594 -1.7276218 4288085770
12.019447 -1.592802 -1.7286515 4288085770
11.4716 -1.6009078 -1.7348752 4288085770
10.893673 -1.5990472 -1.7333494 4288085770
17.414625 -2.4768138 -1.6735008 4288085770
10.405809 -1.6021452 -1.7379869 4288085770
16.367794 -2.4350109 -1.6852863 4288085770
9.9679756 -1.607223 -1.7451565 4288085770
15.388925 -2.3892093 -1.692413 4288085770
9.5281086 -1.6063118 -1.7493248 4288085770
14.50306 -2.3473859 -1.6996715 4288085770
9.1502991 -1.6103673 -1.7589217 4288085770
13.697212 -2.3095403 -1.7081845 4288085770
8.7634392 -1.6084428 -1.7635838 4288085770
12.915315 -2.2657084 -1.7114496 4288085770
8.3825607 -1.6035237 -1.7661787 4288085770
12.173395 -2.2208757 -1.712332 4288085770
7.9705963 -1.5886421 -1.7600337 4288085770
11.510483 -2.1790233 -1.7134751 4288085770
7.6527538 -1.5846972 -1.7660342 4288085770
10.926626 -2.1451364 -1.7198958 4288085770
7.3459015 -1.5797544 -1.770927 4288085770
10.36974 -2.1092548 -1.7230539 4288085770
7.0670757 -1.5757947 -1.7785573 4288085770
9.8698864 -2.0783482 -1.7296882 4288085770
6.7401333 -1.5608869 -1.774606 4288085770
9.4200649 -2.0514216 -1.7388616 4288085770
6.4422226 -1.5479622 -1.773386 4288085770
8.9792118 -2.020503 -1.7449362 4288085770
6.1853657 -1.5390096 -1.7777908 4288085770
8.5282917 -1.9836111 -1.7440856 4288085770
5.96455 -1.5350318 -1.786871 4288085770
8.1294117 -1.9526925 -1.747762 4288085770
5.7126541 -1.5210924 -1.7872114 4288085770
7.7525387 -1.9227695 -1.751233 4288085770
5.4928055 -1.5121284 -1.7922649 4288085770
7.4357185 -1.8998141 -1.7601583 4288085770
5.2799454 -1.5021677 -1.7962489 4288085770
7.1359005 -1.8778558 -1.7689261 4288085770
5.0349922 -1.4822469 -1.7905025 4288085770
6.8190212 -1.8479209 -1.7718277 4288085770
4.8521709 -1.4742661 -1.7982082 4288085770
6.505125 -1.8169928 -1.7726979 4288085770
4.642252 -1.4573255 -1.79614 4288085770
6.2312546 -1.7910461 -1.7762053 4288085770
4.466404 -1.4463539 -1.8007693 4288085770
5.9563675 -1.7621078 -1.7777121 4288085770
4.2835121 -1.431397 -1.8014514 4288085770
5.7054882 -1.7361603 -1.7800016 4288085770
4.1076202 -1.4164391 -1.8020675 4288085770
5.4706268 -1.7112036 -1.7841425 4288085770
3.9327126 -1.4004879 -1.8006704 4288085770
5.2557831 -1.6892352 -1.7901039 4288085770
3.7758427 -1.38552 -1.8031056 4288085770
5.0268841 -1.6612911 -1.7901778 4288085770
3.6249695 -1.3715506 -1.8054879 4288085770
4.8250217 -1.6373281 -1.7940092 4288085770
3.4670696 -1.3545928 -1.8049262 4288085770
4.6171303 -1.6103764 -1.7948873 4288085770
3.3422432 -1.3446012 -1.8120749 4288085770
4.4262581 -1.5854144 -1.7976108 4288085770
3.1973343 -1.3266439 -1.8103864 4288085770
4.2243195 -1.5564795 -1.7934256 4288085770
3.0463886 -1.3066993 -1.8057485 4288085770
4.0584621 -1.5345054 -1.7979224 4288085770
2.9205151 -1.2917247 -1.8078899 4288085770
3.8915768 -1.5105424 -1.7994218 4288085770
2.8116703 -1.2797365 -1.81288 4288085770
3.7226658 -1.4835906 -1.79793 4288085770
2.696806 -1.2647567 -1.815917 4288085770
3.5617619 -1.4586334 -1.7973692 4288085770
3.4329376 -1.4396424 -1.8045249 4288085770
3.2980728 -1.4186664 -1.8077307 4288085770
3.1621876 -1.3956976 -1.8089397 4288085770
3.0222759 -1.3707395 -1.8071797 4288085770
2.9004002 -1.3487649 -1.8092589 4288085770
2.7855434 -1.3277817 -1.8132751 4288085770
2.7145767 0.64748836 -1.7887325 4288085770
2.8306751 0.660501 -1.7865763 4288085770
2.9377251 0.67249489 -1.77951 4288085770
3.0608044 0.68550181 -1.7752869 4288085770
3.2059364 0.69953442 -1.77685 4288085770
3.3350048 0.71253896 -1.7715697 4288085770
3.480093 0.72555351 -1.7681365 4288085770
3.6492329 0.74059391 -1.7704666 4288085770
2.754427 0.68645573 -1.7882044 4288085770
3.8133259 0.75361586 -1.7678514 4288085770
2.8805256 0.69647026 -1.7859631 4288085770
3.9924488 0.76865077 -1.768086 4288085770
3.0036049 0.70447731 -1.7817576 4288085770
4.1875801 0.78369236 -1.7691674 4288085770
3.1397095 0.71449757 -1.7804205 4288085770
4.3937092 0.7987361 -1.7701437 4288085770
3.2848186 0.72451925 -1.7789977 4288085770
4.5707474 0.81073904 -1.7614081 4288085770
3.4349136 0.73353863 -1.77653 4288085770
4.8018856 0.82579088 -1.7631454 4288085770
3.5920181 0.74256229 -1.7749958 4288085770
5.017971 0.83881903 -1.7590332 4288085770
3.788208 0.75462508 -1.7820778 4288085770
5.243042 0.85184526 -1.753835 4288085770
3.9352436 0.76162291 -1.7736464 4288085770
5.5071602 0.86689639 -1.7532568 4288085770
4.1564407 0.77369356 -1.7814894 4288085770
5.7762508 0.88093758 -1.7496344 4288085770
4.3214817 0.7796948 -1.7728891 4288085770
6.0663586 0.89598989 -1.7478075 4288085770
4.5245838 0.78772783 -1.7709186 4288085770
6.3934822 0.91205645 -1.7476234 4288085770
4.7156315 0.7937367 -1.7630696 4288085770
6.7105598 0.92610312 -1.742542 4288085770
4.9357243 0.80076909 -1.7599399 4288085770
7.0596447 0.9401598 -1.7381546 4288085770
5.1828556 0.80882072 -1.7605484 4288085770
7.4247208 0.95521569 -1.7326111 4288085770
5.4179192 0.81484509 -1.7542788 4288085770
7.8558502 0.97230482 -1.732429 4288085770
5.6920395 0.82189822 -1.7536325 4288085770
8.2929325 0.98737764 -1.7271968 4288085770
5.9911766 0.8289628 -1.7547473 4288085770
8.769022 1.0024614 -1.7225916 4288085770
6.3002853 0.8360188 -1.7527664 4288085770
9.2831097 1.0185521 -1.7176195 4288085770
6.623394 0.84107709 -1.7506585 4288085770
9.8522053 1.0356567 -1.713118 4288085770
6.9384441 0.84411335 -1.7426344 4288085770
10.475307 1.0527747 -1.7091005 4288085770
7.2905254 0.84716702 -1.7372564 4288085770
11.176414 1.0709109 -1.7053332 4288085770
7.6706219 0.85023284 -1.7336104 4288085770
11.9245 1.0890489 -1.6991168 4288085770
8.1377888 0.85634279 -1.7371218 4288085770
12.806636 1.1102328 -1.6976085 4288085770
8.5898838 0.85742211 -1.7327944 4288085770
13.717694 1.1283946 -1.6878338 4288085770
9.0689545 0.85749936 -1.7262124 4288085770
14.833831 1.1516261 -1.6850812 4288085770
9.581028 0.85758281 -1.7193147 4288085770
16.056934 1.1738667 -1.6783088 4288085770
10.169146 0.85669804 -1.7166936 4288085770
17.348957 1.1930928 -1.6628876 4288085770
10.801241 0.85481429 -1.7116555 4288085770
11.481327 0.84993649 -1.7051686 4288085770
12.247427 0.84408164 -1.6998627 4288085770
13.152586 0.83927679 -1.7002239 4288085770
14.052634 0.82642984 -1.6886612 4288085770
15.161778 0.81566024 -1.6860925 4288085770
16.309826 0.79786253 -1.6731756 4288085770
4.9521503 -4.7738113 -0.41979972 4293729569
4.943325 -4.7192192 -0.015672565 4293729569
4.9186096 -4.7176933 -0.45692655 4293729569
4.9368038 -4.6770897 -0.054589242 4293729569
4.9410915 -4.696558 -0.49563828 4293729569
4.9372749 -4.6389637 -0.092452794 4293729569
4.959568 -4.6704245 -0.53437114 4293729569
4.9587288 -4.6118355 -0.12915355 4293729569
4.9820499 -4.6452904 -0.57306898 4293729569
4.9872017 -4.5867033 -0.16679391 4293729569
5.026535 -4.6331511 -0.61160123 4293729569
5.0256653 -4.5675726 -0.20335943 4293729569
10.674473 -7.7142639 -1.3852215 4293729569
10.352686 -7.4392776 -1.4023483 4293729569
10.03187 -7.1663027 -1.4164727 4293729569
9.7310257 -6.9083357 -1.4274576 4293729569
9.4962368 -6.6913366 -1.4429524 4293729569
9.2884521 -6.4903326 -1.4582441 4293729569
9.0606079 -6.281354 -1.4676996 4293729569
8.8757954 -6.0983582 -1.4798338 4293729569
8.6649227 -5.9013853 -1.4861687 4293729569
8.4630318 -5.7124195 -1.4904453 4293729569
8.2991753 -5.5444355 -1.4974306 4293729569
8.1653481 -5.3934355 -1.5071871 4293729569
8.0445156 -5.2504358 -1.5158471 4293729569
13.159886 -7.6758194 -1.3722451 4293729569
7.9106407 -5.1024551 -1.5206144 4293729569
12.862021 -7.4108582 -1.3811774 4293729569
7.8148098 -4.9744492 -1.5290869 4293729569
12.641212 -7.184865 -1.3945071 4293729569
7.7369881 -4.8564396 -1.5384216 4293729569
12.484425 -6.9948521 -1.4093481 4293729569
7.6541367 -4.7384396 -1.5448045 4293729569
12.301601 -6.794857 -1.4204038 4293729569
7.5722771 -4.6204433 -1.5501776 4293729569
12.133768 -6.6018639 -1.4303404 4293729569
7.5164356 -4.5144358 -1.5573434 4293729569
12.011955 -6.4338551 -1.4419229 4293729569
7.4285393 -4.3954544 -1.558771 4293729569
11.915144 -6.2778406 -1.4533073 4293729569
7.3977127 -4.3034391 -1.5667455 4293729569
11.793285 -6.1128492 -1.4599004 4293729569
7.3678837 -4.211422 -1.5747108 4293729569
11.690439 -5.9558487 -1.467339 4293729569
7.3440456 -4.122407 -1.5816289 4293729569
11.617601 -5.8158407 -1.4755493 4293729569
7.4684353 -4.0972843 -1.6103494 4293729569
10.505596 -5.2454376 -1.3752179 4293729569
7.6839657 -4.1070967 -1.6523187 4293729569
10.518814 -5.1503963 -1.3877602 4293729569
7.9044914 -4.1159067 -1.6942368 4288085770
11.401985 -5.3988552 -1.4891627 4293729569
8.0799313 -4.1037569 -1.7275133 4288085770
11.359114 -5.2738543 -1.4931377 4293729569
8.1271534 -4.0387087 -1.7398341 4288085770
11.283184 -5.1388817 -1.4913948 4293729569
8.0451508 -3.9227648 -1.7302153 4288085770
11.382442 -5.0678091 -1.5071958 4293729569
8.0232372 -3.8307781 -1.7291042 4288085770
11.379572 -4.9598007 -1.5108466 4293729569
8.0323639 -3.751771 -1.7317411 4288085770
11.454767 -4.8787546 -1.5208434 4293729569
8.0214386 -3.6637859 -1.7295387 4288085770
11.497919 -4.7847309 -1.5261017 4293729569
8.0135059 -3.5778036 -1.7263143 4288085770
11.551056 -4.6937084 -1.5302747 4293729569
8.0356236 -3.5007982 -1.7278335 4288085770
11.606188 -4.6036901 -1.5334322 4293729569
8.0506992 -3.4238076 -1.72542 4288085770
11.659309 -4.5136747 -1.535609 4293729569
8.0968285 -3.355794 -1.7277404 4288085770
11.787491 -4.4466257 -1.5431465 4293729569
8.1439419 -3.2887845 -1.7290549 4288085770
11.92067 -4.3795738 -1.5506358 4293729569
8.1830368 -3.217782 -1.7284322 4288085770
12.216003 -4.3604374 -1.5727384 4293729569
8.2481575 -3.154768 -1.7295879 4288085770
12.59441 -4.36026 -1.6011107 4293729569
8.3142738 -3.091754 -1.730734 4288085770
13.06089 -4.3810377 -1.6367121 4288085770
8.3963985 -3.031734 -1.7327374 4288085770
13.52435 -4.3958235 -1.6703216 4288085770
8.4775047 -2.9717202 -1.7327502 4288085770
13.796578 -4.3517284 -1.6815581 4288085770
8.569622 -2.9127016 -1.7336611 4288085770
13.981688 -4.2796917 -1.681532 4288085770
8.6577187 -2.8526907 -1.7326068 4288085770
14.105721 -4.1906958 -1.6740321 4288085770
8.7498055 -2.7926822 -1.7305144 4288085770
14.31082 -4.1196575 -1.6728178 4288085770
8.8488922 -2.7326722 -1.7283547 4288085770
14.513888 -4.0476313 -1.6686194 4288085770
8.9790211 -2.6816425 -1.7299291 4288085770
14.776007 -3.9855766 -1.66889 4288085770
9.1091251 -2.6266203 -1.7294897 4288085770
15.056114 -3.9265232 -1.6679984 4288085770
9.2512398 -2.5735912 -1.729942 4288085770
15.420269 -3.880435 -1.6713464 4288085770
9.4043465 -2.520565 -1.7292891 4288085770
15.788412 -3.8323507 -1.6736494 4288085770
9.5424213 -2.464551 -1.7257695 4288085770
16.064434 -3.7593269 -1.6637479 4288085770
9.7125263 -2.4125204 -1.7249571 4288085770
16.450527 -3.7072563 -1.6608646 4288085770
9.884613 -2.3584967 -1.7221185 4288085770
16.8416 -3.6501904 -1.655916 4288085770
10.085716 -2.3094611 -1.7210193 4288085770
17.281683 -3.5981131 -1.6515151 4288085770
10.274799 -2.2564335 -1.7180213 4288085770
10.533941 -2.2133727 -1.7203867 4288085770
10.787062 -2.1663198 -1.7207959 4288085770
11.045164 -2.1162724 -1.7191467 4288085770
11.357311 -2.0721984 -1.7220004 4288085770
11.66643 -2.025135 -1.7218727 4288085770
12.015558 -1.9790597 -1.722365 4288085770
12.440748 -1.9409461 -1.7291559 4288085770
12.858901 -1.8968482 -1.7319936 4288085770
13.275014 -1.8477645 -1.7308331 4288085770
13.718126 -1.7976756 -1.7294102 4288085770
14.183208 -1.7435932 -1.7247627 4288085770
14.630241 -1.6825309 -1.7152638 4288085770
15.162309 -1.6244388 -1.7089603 4288085770
15.805438 -1.5733018 -1.7086165 4288085770
16.416492 -1.5101981 -1.7005383 4288085770
17.14658 -1.4510584 -1.6953326 4288085770
17.500164 1.2485974 -1.6641407 4288085770
16.578346 1.3024299 -1.676803 4288085770
15.628407 1.3462124 -1.6767693 4288085770
14.855546 1.3920598 -1.6840289 4288085770
17.49015 1.629298 -1.0038795 4293729569
14.138666 1.4349105 -1.6887616 4288085770
16.375446 1.6531289 -1.0284979 4293729569
13.47878 1.4767723 -1.6929506 4288085770
15.468768 1.6830125 -1.0550987 4293729569
12.891894 1.5156481 -1.696449 4288085770
14.753125 1.7219503 -1.0848343 4293729569
12.352015 1.555536 -1.7004929 4288085770
14.091455 1.7588878 -1.1110587 4293729569
11.814098 1.589411 -1.7005384 4288085770
13.775954 1.8239601 -1.1538632 4293729569
11.331181 1.6232963 -1.7000562 4288085770
13.565513 1.8980765 -1.2026283 4293729569
10.896288 1.658201 -1.7021095 4288085770
13.522156 1.989259 -1.2597308 4293729569
10.500393 1.6931131 -1.703788 4288085770
13.476789 2.0814378 -1.3158491 4293729569
10.114479 1.7250202 -1.7033814 4288085770
13.564509 2.1886766 -1.3806379 4293729569
9.8116379 1.7639711 -1.7101533 4288085770
13.744319 2.3119669 -1.4544877 4293729569
9.510767 1.7999117 -1.7139165 4288085770
14.298454 2.4894559 -1.561558 4293729569
9.2188854 1.8338504 -1.7166004 4288085770
14.811581 2.6709337 -1.6680081 4288085770
8.9309788 1.8657796 -1.7162528 4288085770
14.348792 2.710871 -1.6813122 4288085770
8.6720848 1.9007218 -1.7176166 4288085770
13.839924 2.7377689 -1.6861038 4288085770
8.437212 1.9356749 -1.7207496 4288085770
13.362034 2.7646651 -1.6885977 4288085770
8.1973038 1.9676135 -1.7199413 4288085770
12.932159 2.7945783 -1.6926202 4288085770
8.0014381 2.0025775 -1.7237 4288085770
12.532276 2.823493 -1.6953583 4288085770
7.8185806 2.0405476 -1.7283235 4288085770
12.163399 2.8544173 -1.6987917 4288085770
7.6226768 2.0734978 -1.7280893 4288085770
11.820534 2.8873501 -1.7029687 4288085770
7.4447823 2.107455 -1.7286788 4288085770
11.487629 2.9162712 -1.7030637 4288085770
7.274889 2.1414142 -1.7291914 4288085770
11.183731 2.9482007 -1.7038698 4288085770
7.1260109 2.1773834 -1.7314956 4288085770
10.938887 2.9901624 -1.7100747 4288085770
6.9640961 2.209337 -1.7299384 4288085770
10.687012 3.0281122 -1.7133607 4288085770
6.8342209 2.2473102 -1.7320533 4288085770
10.459148 3.0680704 -1.7174093 4288085770
6.6973305 2.2822785 -1.7332456 4288085770
10.239264 3.1080227 -1.7193812 4288085770
6.5704269 2.3182418 -1.7323387 4288085770
10.038399 3.149986 -1.723164 4288085770
6.4605465 2.3572187 -1.7342582 4288085770
9.8485126 3.1919441 -1.7248409 4288085770
6.3436489 2.3931878 -1.7342551 4288085770
9.6836529 3.2379177 -1.7292638 4288085770
6.2607956 2.4361804 -1.7389011 4288085770
9.5277843 3.2838893 -1.7326006 4288085770
6.1588821 2.4721489 -1.7377543 4288085770
9.4039326 3.3378778 -1.7386024 4288085770
6.0669899 2.5121257 -1.7384975 4288085770
9.2530346 3.3828402 -1.7388947 4288085770
5.9881115 2.5541086 -1.7401088 4288085770
9.1281643 3.4338174 -1.7419164 4288085770
5.9002018 2.5930796 -1.7388172 4288085770
9.0192986 3.4878016 -1.745774 4288085770
5.8273087 2.6350601 -1.7393709 4288085770
8.9134254 3.5417824 -1.7486031 4288085770
5.7664356 2.6800497 -1.7417991 4288085770
8.8245602 3.5997703 -1.752255 4288085770
5.7105618 2.7250404 -1.7441791 4288085770
8.7456932 3.6587601 -1.7558075 4288085770
5.6596851 2.7730319 -1.7465008 4288085770
8.6558113 3.7157407 -1.7574725 4288085770
5.6067944 2.8190165 -1.7468488 4288085770
8.589941 3.7787328 -1.7608863 4288085770
5.5569 2.8650014 -1.7471681 4288085770
8.523056 3.8397179 -1.7623167 4288085770
5.525034 2.9169998 -1.7502935 4288085770
8.4791946 3.9097176 -1.766495 4288085770
5.4861393 2.9669869 -1.7504933 4288085770
8.4162979 3.9716997 -1.7668836 4288085770
5.4412251 3.0139661 -1.7487612 4288085770
8.3794193 4.0426936 -1.7689915 4288085770
5.4223595 3.0699673 -1.7517478 4288085770
8.3545456 4.116694 -1.7719734 4288085770
5.4175167 3.130981 -1.7575828 4288085770
8.3256569 4.1906862 -1.772994 4288085770
5.385603 3.181963 -1.7557119 4288085770
8.3067741 4.268683 -1.774905 4288085770
5.383728 3.2439673 -1.7585149 4288085770
8.3109131 4.3536954 -1.7795706 4288085770
5.3748493 3.3049664 -1.7603885 4288085770
8.3220463 4.4427056 -1.7831552 4288085770
5.3950138 3.375989 -1.7669489 4288085770
8.325161 4.5287075 -1.784827 4288085770
5.4001427 3.4419947 -1.7696705 4288085770
8.3653183 4.630733 -1.7910879 4288085770
5.4072609 3.508997 -1.7713699 4288085770
8.3864307 4.725738 -1.7925558 4288085770
5.4304066 3.5830128 -1.7758911 4288085770
8.4395771 4.8337626 -1.7976713 4288085770
5.441515 3.6520128 -1.776545 4288085770
8.4736843 4.9347701 -1.7989936 4288085770
5.4796581 3.7330313 -1.7808979 4288085770
8.5478268 5.0537987 -1.8038695 4288085770
5.5067768 3.8100381 -1.7833695 4288085770
8.6269627 5.176825 -1.808682 4288085770
5.5549297 3.8970618 -1.788605 4288085770
8.6840706 5.2908363 -1.8097372 4288085770
5.5890427 3.9770689 -1.7899992 4288085770
8.7792091 5.4238687 -1.8143618 4288085770
5.6481915 4.071095 -1.7951047 4288085770
8.877327 5.5568943 -1.8169577 4288085770
5.7063332 4.1641169 -1.7992232 4288085770
8.9954624 5.7029305 -1.8213167 4288085770
5.7844868 4.2681494 -1.8051116 4288085770
9.1336136 5.8589783 -1.8274484 4288085770
5.87467 4.3781953 -1.813864 4288085770
9.2857628 6.0250278 -1.8334115 4288085770
5.9467869 4.4812131 -1.8158135 4288085770
9.4749317 6.2110949 -1.8419497 4288085770
6.0750084 4.6142826 -1.8291211 4288085770
9.6781082 6.4071674 -1.8513191 4288085770
6.1681404 4.7303114 -1.832824 4288085770
9.9032803 6.6182446 -1.8604252 4288085770
6.2372093 4.8333111 -1.8298028 4288085770
10.094393 6.8122907 -1.8629167 4288085770
6.3102798 4.9393115 -1.8267326 4288085770
10.317526 7.0253534 -1.8680351 4288085770
6.4224014 5.0673404 -1.8292117 4288085770
10.583672 7.2664313 -1.8746436 4288085770
6.552536 5.2063794 -1.8334796 4288085770
10.886839 7.5295258 -1.8838203 4288085770
6.7026863 5.3584285 -1.8395104 4288085770
11.210993 7.807621 -1.8917439 4288085770
6.8357849 5.5004544 -1.8397391 4288085770
6.9899139 5.6574974 -1.8437142 4288085770
7.1560249 5.8215361 -1.8455501 4288085770
7.3511658 6.0035934 -1.8510449 4288085770
7.5643139 6.198658 -1.8573215 4288085770
7.824501 6.4227486 -1.8680465 4288085770
8.0806732 6.6458311 -1.8768132 4288085770
8.3588257 6.8849144 -1.8843133 4288085770
8.6269245 7.1199751 -1.8859236 4288085770
8.9550781 7.3940706 -1.8938222 4288085770
9.3472843 7.7112031 -1.9079571 4288085770
9.7404556 8.0313206 -1.918072 4288085770
16.780109 -0.70991325 -1.6689788 4288085770
15.65727 -0.73512745 -1.6788814 4288085770
14.558341 -0.7503686 -1.6795194 4288085770
13.643474 -0.76455116 -1.6853806 4288085770
12.840656 -0.77969313 -1.6961659 4288085770
12.036734 -0.78587294 -1.6959308 4288085770
11.327843 -0.79202175 -1.6987801 4288085770
10.674952 -0.79716015 -1.7010866 4288085770
17.295162 -1.2788262 -1.6759441 4288085770
10.109102 -0.80126572 -1.7075512 4288085770
16.073338 -1.2550511 -1.6886337 4288085770
9.5892487 -0.80536222 -1.7135727 4288085770
14.90844 -1.2262897 -1.6937573 4288085770
9.1054058 -0.80844927 -1.7202438 4288085770
13.879539 -1.1995044 -1.6975776 4288085770
8.6705799 -0.81052017 -1.7284393 4288085770
12.999699 -1.1776667 -1.7069788 4288085770
8.2337036 -0.80860853 -1.7316407 4288085770
12.169807 -1.1538377 -1.7108918 4288085770
7.8148079 -0.80570126 -1.7326653 4288085770
11.394884 -1.1280088 -1.7112683 4288085770
7.4499474 -0.80276918 -1.7371695 4288085770
10.723997 -1.1051474 -1.7146527 4288085770
7.1241283 -0.80281687 -1.745308 4288085770
10.149183 -1.089241 -1.7251356 4288085770
6.8072853 -0.79987049 -1.7513497 4288085770
9.5742817 -1.0673647 -1.7265985 4288085770
6.5034237 -0.79592705 -1.7552627 4288085770
9.0884514 -1.051445 -1.7352241 4288085770
6.1885109 -0.78800344 -1.7542685 4288085770
8.6296043 -1.0335269 -1.7415826 4288085770
5.9336853 -0.78503847 -1.7617127 4288085770
8.1837254 -1.0146174 -1.7448128 4288085770
5.6577816 -0.77610397 -1.7613392 4288085770
7.7307816 -0.9917326 -1.7410975 4288085770
5.4048977 -0.76915979 -1.7627509 4288085770
7.3739452 -0.97678947 -1.7484834 4288085770
5.1770401 -0.76319981 -1.7669249 4288085770
7.0230923 -0.95985222 -1.753805 4288085770
4.9281158 -0.75226688 -1.7642846 4288085770
6.7112579 -0.94490051 -1.7607577 4288085770
4.7473145 -0.74827814 -1.7740123 4288085770
6.3763332 -0.92398834 -1.7589145 4288085770
4.5394249 -0.73932886 -1.774986 4288085770
6.0834541 -0.9080472 -1.76168 4288085770
4.3575649 -0.73136044 -1.7787092 4288085770
5.8025703 -0.89010668 -1.7633231 4288085770
4.1576576 -0.72041225 -1.777596 4288085770
5.5246563 -0.87117672 -1.7619342 4288085770
3.9667301 -0.7094698 -1.7743964 4288085770
5.2827969 -0.85521889 -1.7662083 4288085770
3.8078785 -0.70149374 -1.7788982 4288085770
5.0408897 -0.83727884 -1.7654759 4288085770
3.6469994 -0.6915288 -1.7804127 4288085770
4.8380508 -0.82330704 -1.7713809 4288085770
3.4871006 -0.68057013 -1.7799141 4288085770
4.6311798 -0.80734682 -1.7743182 4288085770
3.332201 -0.66961002 -1.7793677 4288085770
4.4312916 -0.79139233 -1.775188 4288085770
3.1883125 -0.65864563 -1.7797148 4288085770
4.243412 -0.77543211 -1.776942 4288085770
3.05443 -0.64867496 -1.7809694 4288085770
4.0565128 -0.75847816 -1.7766833 4288085770
2.9265575 -0.63770056 -1.7831626 4288085770
3.8856316 -0.74251461 -1.7782736 4288085770
2.8026791 -0.62772846 -1.7843208 4288085770
3.7227516 -0.72755003 -1.7797904 4288085770
3.5428028 -0.70761204 -1.7744544 4288085770
3.3999405 -0.69363689 -1.777782 4288085770
3.2480221 -0.67668343 -1.7751861 4288085770
3.1061172 -0.65972185 -1.7744942 4288085770
2.9662075 -0.64376307 -1.7727861 4288085770
2.8583641 -0.63077402 -1.7777796 4288085770
2.7485085 -0.61678934 -1.7817891 4288085770
2.7749481 1.2775328 -1.769773 4288085770
2.8810177 1.2925327 -1.7646925 4288085770
3.0091324 1.3115532 -1.7643853 4288085770
3.1502724 1.3335867 -1.7669418 4288085770
3.28438 1.3516049 -1.7655798 4288085770
3.4315014 1.3716323 -1.766085 4288085770
3.5846233 1.3916609 -1.7665319 4288085770
2.734827 1.2485359 -1.7832487 4288085770
3.739727 1.4106827 -1.764963 4288085770
2.8308601 1.2565198 -1.7742891 4288085770
3.8998299 1.4307055 -1.763342 4288085770
2.9619942 1.2715483 -1.7759659 4288085770
4.0659237 1.4487262 -1.7606699 4288085770
3.0880909 1.2835615 -1.7737021 4288085770
4.2520561 1.4707639 -1.7617903 4288085770
3.2151775 1.2945716 -1.7704318 4288085770
4.4311485 1.4897869 -1.7589889 4288085770
3.3432579 1.3045785 -1.7661551 4288085770
4.6212406 1.5088115 -1.7560805 4288085770
3.5044193 1.3206222 -1.7705379 4288085770
4.844389 1.5328624 -1.7588352 4288085770
3.6595325 1.3336477 -1.7699893 4288085770
5.0845451 1.55792 -1.7624218 4288085770
3.809618 1.3436618 -1.766499 4288085770
5.2886086 1.5749371 -1.7563846 4288085770
3.9747353 1.355689 -1.7658571 4288085770
5.5196877 1.5939653 -1.7520791 4288085770
4.1528568 1.3687222 -1.7660853 4288085770
5.7677879 1.6150041 -1.749602 4288085770
4.3329716 1.3807518 -1.7652978 4288085770
6.0338974 1.637049 -1.7479469 4288085770
4.5020485 1.3887661 -1.7606304 4288085770
6.3019753 1.6570837 -1.7432791 4288085770
4.6871338 1.3977866 -1.7568045 4288085770
6.5900612 1.6771257 -1.7394176 4288085770
4.9223061 1.4138503 -1.7624699 4288085770
6.9021549 1.7001758 -1.7363132 4288085770
5.1374092 1.4238827 -1.7603498 4288085770
7.2392578 1.723233 -1.7339662 4288085770
5.3474941 1.4309075 -1.7562883 4288085770
7.590353 1.7462895 -1.7304837 4288085770
5.5705757 1.4389346 -1.7520974 4288085770
7.9674549 1.7693541 -1.7277493 4288085770
5.8166904 1.4469762 -1.7506835 4288085770
8.3485184 1.7904055 -1.7209827 4288085770
6.0437355 1.4509902 -1.7424675 4288085770
8.8026543 1.8184974 -1.7214845 4288085770
6.3288651 1.4610455 -1.7426686 4288085770
9.2737617 1.8455818 -1.718825 4288085770
6.6089554 1.4670858 -1.7389319 4288085770
9.7558212 1.8686512 -1.7110729 4288085770
6.913063 1.4741375 -1.7369591 4288085770
10.276896 1.8927341 -1.7049389 4288085770
7.2371807 1.4811964 -1.7357922 4288085770
10.843979 1.9178288 -1.6993556 4288085770
7.5903168 1.4882669 -1.7363441 4288085770
11.528141 1.9539745 -1.7016004 4288085770
7.9464149 1.4923244 -1.7328771 4288085770
12.221235 1.9830983 -1.6967824 4288085770
8.2974739 1.492367 -1.7254726 4288085770
13.011367 2.0182524 -1.695003 4288085770
8.6865616 1.493427 -1.720696 4288085770
13.796421 2.0453784 -1.6852998 4288085770
9.1326923 1.4965138 -1.7203599 4288085770
14.742552 2.0825634 -1.6830013 4288085770
9.5807953 1.4955909 -1.717018 4288085770
14.896885 2.0263083 -1.6006893 4293729569
10.061888 1.4946704 -1.7123562 4288085770
14.052357 1.8635485 -1.432415 4293729569
10.574987 1.4907589 -1.7083944 4288085770
14.031577 1.7872176 -1.3388678 4293729569
11.153116 1.487869 -1.7067988 4288085770
14.357076 1.7440543 -1.2728535 4293729569
11.79727 1.486001 -1.7075598 4288085770
14.941721 1.7199945 -1.2212633 4293729569
12.442364 1.4761128 -1.7023385 4288085770
15.701436 1.7049925 -1.1759459 4293729569
13.140471 1.4652374 -1.6976067 4288085770
16.39205 1.6759412 -1.120345 4293729569
13.896572 1.4513721 -1.6923225 4288085770
17.025562 1.6348424 -1.0543381 4293729569
14.7537 1.435535 -1.6890659 4288085770
15.632778 1.4126842 -1.68062 4288085770
16.677937 1.3918939 -1.6795573 4288085770
17.660954 1.3560412 -1.6641474 4288085770
5.041296 -4.5633793 -0.14329949 4293729569
4.9977741 -4.5772648 -0.18076864 4293729569
4.9902668 -4.6131411 -0.21896285 4293729569
4.978756 -4.6440182 -0.2571789 4293729569
4.9622574 -4.6708937 -0.29642984 4293729569
4.9657669 -4.7097626 -0.33652726 4293729569
4.954277 -4.7356329 -0.37672612 4293729569
4.9497967 -4.7664995 -0.41787401 4293729569
4.9623375 -4.8063545 -0.4608871 4293729569
8.6595116 -7.6064186 -1.4124994 4293729569
8.1966305 -7.2964897 -1.4209396 4293729569
7.7887859 -7.0195398 -1.4319575 4293729569
7.4830379 -6.8115416 -1.4512182 4293729569
7.1642399 -6.5915623 -1.465565 4293729569
6.8774433 -6.3895779 -1.4796621 4293729569
6.5575542 -6.1626291 -1.4849956 4293729569
6.3027496 -5.9786434 -1.4978434 4293729569
6.0649261 -5.8046589 -1.5085599 4293729569
