# .PCD v0.7 - Point Cloud Data file format
VERSION 0.7
FIELDS x y z rgb
SIZE 4 4 4 4
TYPE F F F U
COUNT 1 1 1 1
WIDTH 1120
HEIGHT 1
VIEWPOINT 0 0 0 1 0 0 0
POINTS 1120
DATA ascii
1.1065025 1.5507224 -1.7701204 4288085770
2.6896324 1.8796568 -1.7794724 4288085770
1.0126762 1.572021 -1.7712469 4288085770
2.5337906 1.8971522 -1.7756956 4288085770
0.91985321 1.5933161 -1.7713718 4288085770
2.3799324 1.9126397 -1.7689168 4288085770
0.82201004 1.6116252 -1.7675066 4288085770
2.2651215 1.9360065 -1.7710736 4288085770
0.73017883 1.6309158 -1.7646317 4288085770
2.1392899 1.9564067 -1.7692494 4288085770
0.65135193 1.6521662 -1.7657356 4288085770
2.0344696 1.9797404 -1.7693908 4288085770
0.58754349 1.6763697 -1.7688148 4288085770
1.9226379 2.0000956 -1.7675455 4288085770
0.5007019 1.694643 -1.7639334 4288085770
1.8087997 2.0194561 -1.7637041 4288085770
0.44589996 1.720818 -1.7679975 4288085770
1.7229958 2.0447297 -1.7658157 4288085770
0.38407898 1.744014 -1.7690747 4288085770
1.6231613 2.0660458 -1.7629519 4288085770
0.30624008 1.7622583 -1.7641797 4288085770
1.5483589 2.0922842 -1.7650461 4288085770
0.26043701 1.7894045 -1.7682297 4288085770
1.4525223 2.1125863 -1.7601769 4288085770
0.20962143 1.8145659 -1.7702897 4288085770
1.3807068 2.1388147 -1.7612679 4288085770
0.14979553 1.8367541 -1.7683647 4288085770
1.2918739 2.1600947 -1.7563875 4288085770
0.081958771 1.8559656 -1.762454 4288085770
1.2310715 2.188288 -1.7584596 4288085770
0.061187744 1.8890345 -1.7724621 4288085770
1.1672668 2.2144899 -1.7585375 4288085770
0.010364532 1.9121937 -1.7705228 4288085770
1.1034508 2.2406912 -1.7566159 4288085770
-0.035446167 1.9373379 -1.7705748 4288085770
1.0416451 2.2678859 -1.7556906 4288085770
0.98683548 2.2950587 -1.7547545 4288085770
0.93202972 2.3222308 -1.7528183 4288085770
0.8832283 2.3513849 -1.7528718 4288085770
0.83642578 2.3805311 -1.7509224 4288085770
0.77659607 2.4047174 -1.7449963 4288085770
0.74681854 2.4388113 -1.7470174 4288085770
0.7120285 2.4709203 -1.7470477 4288085770
0.6782341 2.5030248 -1.7450762 4288085770
0.64744949 2.5361214 -1.7450998 4288085770
0.63969421 2.5771461 -1.7500823 4288085770
0.62493134 2.6161921 -1.7520771 4288085770
0.60816193 2.6542439 -1.7530756 4288085770
0.56433487 2.6803772 -1.7441237 4288085770
0.54455566 2.7164373 -1.7421284 4288085770
0.5388031 2.7584543 -1.7441072 4288085770
0.53504181 2.8004646 -1.7450831 4288085770
0.51826096 2.836514 -1.7410829 4288085770
0.50948715 2.8765388 -1.7390678 4288085770
0.52476883 2.92749 -1.7440083 4288085770
0.52601624 2.9714835 -1.742975 4288085770
0.53628159 3.0194452 -1.7429225 4288085770
0.55856705 3.0743737 -1.7468493 4288085770
0.57183456 3.1243291 -1.7467928 4288085770
0.60012817 3.1812387 -1.7507086 4288085770
0.62641907 3.2371531 -1.7516279 4288085770
0.64970016 3.2920771 -1.7525525 4288085770
0.68800735 3.3539541 -1.7554493 4288085770
0.73534012 3.4218035 -1.7603281 4288085770
0.77865982 3.4876642 -1.7622142 4288085770
0.82899094 3.5555031 -1.7650874 4288085770
0.88132858 3.6263354 -1.7679558 4288085770
0.93566132 3.6971617 -1.7708209 4288085770
1.0020294 3.7759497 -1.7746615 4288085770
1.0864334 3.8646827 -1.7824676 4288085770
1.1527901 3.9424696 -1.7833085 4288085770
1.249218 4.0381641 -1.7910905 4288085770
1.3276062 4.1239128 -1.792907 4288085770
-0.020626068 3.4281919 -1.7604773 4288085770
1.4039764 4.2076669 -1.7917275 4288085770
0.041702271 3.4969916 -1.7623308 4288085770
1.4893723 4.2973928 -1.7915299 4288085770
0.10402679 3.5647914 -1.7631845 4288085770
1.5897942 4.3960714 -1.7933025 4288085770
0.18139267 3.642545 -1.768008 4288085770
1.712265 4.5066824 -1.7990324 4288085770
0.26776886 3.7242701 -1.7738142 4288085770
1.8387451 4.6212807 -1.8047531 4288085770
0.35715103 3.8079863 -1.7796147 4288085770
1.9772491 4.7418413 -1.8114505 4288085770
0.44152069 3.8887162 -1.781424 4288085770
2.1227646 4.8673782 -1.8171329 4288085770
0.53490067 3.9734178 -1.7842162 4288085770
2.2762985 4.99789 -1.8217993 4288085770
0.63029099 4.0591135 -1.7870042 4288085770
2.4358406 5.1313829 -1.8264534 4288085770
0.72566605 4.1448078 -1.786792 4288085770
2.6204338 5.2807961 -1.8330572 4288085770
0.8380928 4.2414489 -1.7905455 4288085770
2.8320885 5.4471264 -1.8436067 4288085770
0.93746567 4.3271294 -1.7873256 4288085770
3.028698 5.6035008 -1.8471856 4288085770
1.0679245 4.4337139 -1.792043 4288085770
3.2644043 5.7847538 -1.8576858 4288085770
1.2194252 4.5532331 -1.7997184 4288085770
3.5151329 5.9749584 -1.8661554 4288085770
1.3558769 4.6607976 -1.8014245 4288085770
3.7838974 6.1761074 -1.8765886 4288085770
1.5123749 4.7813001 -1.8060899 4288085770
4.0777168 6.3941751 -1.8859701 4288085770
1.664856 4.8978133 -1.8067632 4288085770
4.368515 6.6072516 -1.8923583 4288085770
1.8704643 5.0481634 -1.81933 4288085770
4.6783524 6.8332667 -1.897707 4288085770
2.0640335 5.1895485 -1.8259206 4288085770
4.9621124 7.0383615 -1.8951087 4288085770
2.2796516 5.3448648 -1.8344665 4288085770
5.264904 7.2553954 -1.8904715 4288085770
2.5112953 5.508131 -1.8439806 4288085770
5.6268234 7.509244 -1.892715 4288085770
2.7669868 5.6863213 -1.8554461 4288085770
6.0588989 7.8088727 -1.9018161 4288085770
3.0437241 5.8764453 -1.8678689 4288085770
6.4909554 8.1054993 -1.9039171 4288085770
3.3044052 6.0546169 -1.872324 4288085770
3.6202087 6.2656183 -1.886668 4288085770
3.9199562 6.4636655 -1.8920445 4288085770
4.2738266 6.6965446 -1.9043112 4288085770
4.6036186 6.9084969 -1.9076276 4288085770
4.917347 7.1054959 -1.9039774 4288085770
5.2581253 7.31741 -1.901273 4288085770
5.6419907 7.5551877 -1.9004807 4288085770
6.1000061 7.8367343 -1.9075387 4288085770
6.5620117 8.1162663 -1.9105895 4288085770
14.640465 -1.1784737 -1.7237551 4288085770
13.789459 -1.2197824 -1.7353582 4288085770
12.952473 -1.2521374 -1.7419329 4288085770
12.230492 -1.2848542 -1.7532926 4288085770
11.580521 -1.3167961 -1.7675169 4288085770
10.841579 -1.3304663 -1.7669029 4288085770
10.183643 -1.3443906 -1.7691369 4288085770
9.5857124 -1.3575027 -1.7732587 4288085770
8.9907913 -1.3656271 -1.7743738 4288085770
8.4938736 -1.378057 -1.7813063 4288085770
8.0079651 -1.3855233 -1.7862165 4288085770
13.904537 -2.1561403 -1.7403429 4288085770
7.5560608 -1.392096 -1.7930629 4288085770
12.916767 -2.1190228 -1.7451823 4288085770
7.0911636 -1.3916314 -1.7929318 4288085770
12.09898 -2.0924377 -1.7577047 4288085770
6.6392784 -1.3882089 -1.7907758 4288085770
11.419163 -2.0792832 -1.7789731 4288085770
6.252388 -1.3889883 -1.7954988 4288085770
10.687374 -2.0499725 -1.7873342 4288085770
5.8665123 -1.3847728 -1.7962186 4288085770
9.9406013 -2.0106187 -1.7877214 4288085770
5.507637 -1.3816414 -1.7988882 4288085770
9.1738472 -1.9602084 -1.7771435 4288085770
5.1737595 -1.3775895 -1.8015108 4288085770
8.5710602 -1.9273081 -1.7802622 4288085770
4.8108864 -1.3664496 -1.7971861 4288085770
8.0182648 -1.8975639 -1.7842882 4288085770
4.5150146 -1.361517 -1.8007376 4288085770
7.511467 -1.8689661 -1.7892287 4288085770
4.2321472 -1.3556261 -1.8032639 4288085770
7.0516624 -1.8445144 -1.7960815 4288085770
3.9432831 -1.3467169 -1.8038013 4288085770
6.5688744 -1.8109941 -1.7959754 4288085770
3.6724167 -1.3368654 -1.8043041 4288085770
6.1410751 -1.7816472 -1.7977672 4288085770
3.406559 -1.3260295 -1.8037977 4288085770
5.7402763 -1.7533846 -1.8005085 4288085770
3.1736984 -1.3172965 -1.8062294 4288085770
5.3464775 -1.723145 -1.8002367 4288085770
2.9378395 -1.306555 -1.8076665 4288085770
4.981678 -1.6939964 -1.8019104 4288085770
2.7179832 -1.2958632 -1.8100739 4288085770
4.6368752 -1.6659112 -1.8035471 4288085770
2.5031319 -1.2841885 -1.8104713 4288085770
4.3080711 -1.636878 -1.8021536 4288085770
2.3042755 -1.2745621 -1.8138394 4288085770
4.0152588 -1.6129556 -1.8066938 4288085770
2.1224174 -1.2649894 -1.8181756 4288085770
3.7314491 -1.5870619 -1.8082166 4288085770
1.9305687 -1.2513874 -1.8185294 4288085770
3.4466438 -1.5591679 -1.8077409 4288085770
1.7447205 -1.2378039 -1.818872 4288085770
3.1928368 -1.5333693 -1.8092074 4288085770
1.5658684 -1.2242436 -1.8182018 4288085770
2.9350243 -1.5065601 -1.8086815 4288085770
1.4210167 -1.2157865 -1.8254685 4288085770
2.7192078 -1.4848804 -1.8130774 4288085770
1.2531738 -1.2002604 -1.8247769 4288085770
2.4873962 -1.458153 -1.8125029 4288085770
1.1093216 -1.1888077 -1.8280413 4288085770
2.2995758 -1.4395602 -1.8188472 4288085770
0.93148041 -1.1682544 -1.8203673 4288085770
2.0707664 -1.4098449 -1.8132663 4288085770
0.79162979 -1.1548157 -1.8226237 4288085770
1.8719482 -1.3842218 -1.8126297 4288085770
0.65078735 -1.1393752 -1.8218813 4288085770
1.6841431 -1.3596368 -1.8129709 4288085770
0.51394653 -1.12395 -1.8221297 4288085770
1.5263176 -1.3411388 -1.8182592 4288085770
0.38809967 -1.109556 -1.8233597 4288085770
1.3654938 -1.3206334 -1.821553 4288085770
0.25525665 -1.0921419 -1.8206019 4288085770
1.2346649 -1.3052187 -1.830791 4288085770
0.14641571 -1.0797989 -1.8258004 4288085770
1.067852 -1.2796977 -1.828095 4288085770
0.026569366 -1.0644248 -1.8240192 4288085770
0.91103363 -1.2552063 -1.8273799 4288085770
0.75621414 -1.2297232 -1.824661 4288085770
0.61639404 -1.2072852 -1.8249149 4288085770
0.47457123 -1.1828434 -1.8221719 4288085770
0.3397522 -1.1584229 -1.8194158 4288085770
0.22192764 -1.1380541 -1.8206284 4288085770
0.095104218 -1.1136591 -1.8178573 4288085770
-0.016723633 -1.0923097 -1.8180585 4288085770
-0.066303253 0.78856719 -1.789144 4288085770
0.036842346 0.80124199 -1.7859049 4288085770
0.13597107 0.8129276 -1.7796745 4288085770
0.28014374 0.82848084 -1.787344 4288085770
0.38927841 0.84013546 -1.7810917 4288085770
0.50540543 0.85176814 -1.7748234 4288085770
0.6545639 0.86530316 -1.777482 4288085770
0.81572723 0.8808018 -1.7811129 4288085770
-0.028381348 0.82443249 -1.7899768 4288085770
0.9618721 0.89334369 -1.7787776 4288085770
0.073738098 0.83210886 -1.7837415 4288085770
1.1210213 0.90684557 -1.7774131 4288085770
0.20288086 0.84270501 -1.784445 4288085770
1.3001823 0.92128766 -1.7800038 4288085770
0.33502197 0.85229218 -1.7851427 4288085770
1.4643135 0.93277311 -1.7766285 4288085770
0.45114136 0.85992503 -1.7788756 4288085770
1.6534691 0.94718254 -1.7761962 4288085770
0.59728241 0.86946929 -1.7805417 4288085770
1.8506203 0.96056724 -1.7757463 4288085770
0.7514267 0.87898922 -1.7831895 4288085770
2.0617714 0.9739089 -1.7762654 4288085770
0.89955902 0.88752508 -1.7808509 4288085770
2.288929 0.98820162 -1.7777483 4288085770
1.0566902 0.89603364 -1.7794919 4288085770
2.5160751 1.0014927 -1.7762308 4288085770
1.2308273 0.90449095 -1.7810955 4288085770
2.7682343 1.0157079 -1.7776575 4288085770
1.4059677 0.91294467 -1.7816961 4288085770
3.025383 1.0299064 -1.7770724 4288085770
1.5840912 0.91938758 -1.7792907 4288085770
3.3115425 1.044016 -1.7784228 4288085770
1.7972336 0.92872572 -1.7838061 4288085770
3.6046867 1.0571022 -1.7767577 4288085770
1.9903564 0.93512154 -1.7803669 4288085770
3.9038277 1.0701687 -1.7730782 4288085770
2.2275009 0.94338524 -1.7848291 4288085770
4.2049561 1.0812269 -1.7653947 4288085770
2.4326096 0.9477421 -1.778363 4288085770
4.5220795 1.091235 -1.7566757 4288085770
2.6857491 0.95595491 -1.7807884 4288085770
5.0263062 1.1156784 -1.7765353 4288085770
2.9438782 0.9611516 -1.7812037 4288085770
5.4014359 1.126507 -1.7686856 4288085770
3.1999931 0.96535206 -1.7776234 4288085770
5.7505264 1.1324108 -1.7508948 4288085770
3.5261421 0.97334135 -1.7848854 4288085770
6.3097229 1.1526784 -1.7606311 4288085770
3.8222542 0.97641778 -1.7812161 4288085770
6.8398705 1.1670294 -1.7584333 4288085770
4.1283607 0.97846329 -1.7775238 4288085770
7.433033 1.182187 -1.7600939 4288085770
4.4054375 0.97659326 -1.7638969 4288085770
8.072197 1.1982008 -1.7596505 4288085770
4.7415276 0.9765439 -1.7571378 4288085770
8.7863579 1.2139827 -1.7600391 4288085770
5.2196922 0.98406589 -1.7710583 4288085770
9.646553 1.2353157 -1.7680986 4288085770
5.5617561 0.97899389 -1.7562864 4288085770
10.657784 1.2611847 -1.7838182 4288085770
6.0118561 0.97759378 -1.7542717 4288085770
11.591927 1.2752801 -1.7767119 4288085770
6.572998 0.97985625 -1.7640071 4288085770
12.584049 1.286194 -1.7664762 4288085770
7.0810852 0.97527564 -1.7598624 4288085770
13.572124 1.2901132 -1.7432501 4288085770
7.680191 0.97241533 -1.7605128 4288085770
14.750217 1.2964444 -1.7225974 4288085770
8.3332901 0.96738887 -1.7630427 4288085770
9.0473785 0.95917201 -1.7634363 4288085770
9.878479 0.95159531 -1.7685671 4288085770
10.89061 0.9454633 -1.7842908 4288085770
11.705624 0.9239254 -1.7694597 4288085770
12.622631 0.89907062 -1.7534006 4288085770
13.63361 0.86992395 -1.7361317 4288085770
14.88261 0.83904481 -1.728328 4288085770
6.4177589 -7.7588577 -0.19939075 4293729569
6.1965523 -7.584136 -0.26280385 4293729569
6.1849213 -7.5520592 -0.32879826 4293729569
6.1573257 -7.5069351 -0.39282325 4293729569
6.1327286 -7.4598188 -0.45683962 4293729569
6.1750069 -7.4559078 -0.52272058 4293729569
6.1933441 -7.4329252 -0.58564758 4293729569
6.1567955 -7.3687744 -0.64668226 4293729569
6.184124 -7.3468189 -0.70958787 4293729569
6.9263954 -7.7704964 -0.10203605 4293729569
6.2064667 -7.3178482 -0.77150166 4293729569
6.9298096 -7.7194672 -0.16598107 4293729569
6.2817307 -7.3210373 -0.83730596 4293729569
6.8583946 -7.6152077 -0.22907436 4293729569
6.4208755 -7.3634214 -0.90697879 4293729569
6.9606285 -7.6244822 -0.29281551 4293729569
6.4702072 -7.3415327 -0.97082996 4293729569
6.9411125 -7.5503836 -0.35380107 4293729569
6.555481 -7.3407526 -1.0366064 4293729569
6.9924622 -7.5205011 -0.41564128 4293729569
6.668705 -7.3570595 -1.1033251 4293729569
7.0717659 -7.5057068 -0.47742245 4293729569
6.7709618 -7.3603296 -1.1700621 4293729569
7.176033 -7.5029888 -0.53814989 4293729569
6.877224 -7.3636141 -1.2357888 4293729569
7.1984558 -7.4470205 -0.59604371 4293729569
7.0573692 -7.410121 -1.3083615 4293729569
7.2957497 -7.4342813 -0.65578127 4293729569
7.2555008 -7.4636803 -1.383894 4293729569
7.3311577 -7.3813543 -0.71164477 4293729569
7.4634094 -7.3837214 -0.77230561 4293729569
7.5996552 -7.3861027 -0.83195615 4293729569
7.693222 -7.5028915 -1.5917959 4293729569
7.7778473 -7.4086084 -0.89451593 4293729569
7.3422432 -7.2088108 -1.5974548 4293729569
7.9191093 -7.4070053 -0.95415074 4293729569
7.0002327 -6.924758 -1.6000988 4293729569
8.0973167 -7.4245129 -1.0147064 4293729569
6.6941452 -6.6638165 -1.6026697 4293729569
8.2775345 -7.4380264 -1.0762538 4293729569
6.4229889 -6.4259825 -1.6061709 4293729569
8.4787292 -7.4596052 -1.1377547 4293729569
6.1937599 -6.2142754 -1.6125853 4293729569
8.7009048 -7.4892445 -1.2022078 4293729569
5.9784966 -6.0126104 -1.6179721 4293729569
8.9480591 -7.5279608 -1.2676046 4293729569
5.7991829 -5.8320551 -1.6262846 4293729569
9.0594254 -7.4862671 -1.3212843 4293729569
5.6308365 -5.6595345 -1.6335752 4293729569
5.4764557 -5.4980569 -1.6398389 4293729569
5.3310623 -5.3396077 -1.6450827 4293729569
5.212616 -5.1982408 -1.6522708 4293729569
10.270912 -7.6958036 -1.5973451 4293729569
5.0921745 -5.0578694 -1.657465 4293729569
9.9408989 -7.4107904 -1.5989585 4293729569
5.0286522 -4.9476662 -1.6705379 4293729569
9.6867599 -7.1690044 -1.6054127 4293729569
4.9481392 -4.8294158 -1.6776478 4293729569
9.4715538 -6.9503403 -1.6117857 4293729569
4.8386574 -4.6970797 -1.6798205 4293729569
7.3856163 -5.8190737 -1.4092135 4293729569
4.7811127 -4.5908985 -1.6878815 4293729569
7.3730888 -5.717021 -1.4311619 4293729569
4.8514175 -4.5480967 -1.7156658 4293729569
7.3935204 -5.6310692 -1.4540389 4293729569
5.0166397 -4.5495753 -1.7602425 4293729569
7.4549103 -5.5612407 -1.4808238 4293729569
5.1968498 -4.5530982 -1.8057828 4288085770
7.5962067 -5.5286517 -1.5154343 4293729569
5.3390999 -4.5375109 -1.8434052 4288085770
8.486702 -5.8293018 -1.6383951 4293729569
5.2965317 -4.4353766 -1.8484309 4288085770
8.3463173 -5.6608725 -1.6366172 4293729569
5.1900139 -4.305058 -1.8395975 4288085770
8.193943 -5.4894075 -1.6328673 4293729569
5.1224556 -4.1938529 -1.8366797 4288085770
8.1824112 -5.3813658 -1.6438079 4293729569
5.0588913 -4.084661 -1.8337533 4288085770
8.1488953 -5.2632594 -1.6497965 4293729569
5.0133018 -3.9845238 -1.8317883 4288085770
8.1003876 -5.1401081 -1.6528194 4293729569
4.9826965 -3.8914318 -1.83079 4288085770
8.0818558 -5.0290484 -1.6577752 4293729569
4.9490852 -3.7973309 -1.828799 4288085770
8.0772934 -4.9250312 -1.6627009 4293729569
4.9384537 -3.7132978 -1.829757 4288085770
8.0337715 -4.8038988 -1.6617126 4293729569
4.9148331 -3.6232285 -1.8267434 4288085770
8.1281166 -4.7381787 -1.6764154 4293729569
4.9171867 -3.5442362 -1.827672 4288085770
8.3883324 -4.7319541 -1.7097409 4293729569
4.9095345 -3.4632149 -1.8256245 4288085770
8.7724533 -4.7670999 -1.7567823 4288085770
4.9158783 -3.3852363 -1.8235438 4288085770
9.1565933 -4.7962451 -1.8038185 4288085770
4.9272118 -3.3112736 -1.8224528 4288085770
9.2129822 -4.7064157 -1.8065982 4288085770
4.946537 -3.2393346 -1.8213432 4288085770
9.2154083 -4.5984268 -1.8025014 4288085770
4.960865 -3.165381 -1.8182447 4288085770
9.2288322 -4.4924712 -1.7973783 4288085770
4.9891777 -3.09547 -1.8171139 4288085770
9.251236 -4.390543 -1.7912357 4288085770
5.0324821 -3.0316033 -1.8169489 4288085770
9.3176117 -4.3037467 -1.7909915 4288085770
5.0707932 -2.9657226 -1.8157952 4288085770
9.3849869 -4.2139554 -1.7877426 4288085770
5.110096 -2.8988461 -1.8116379 4288085770
9.4843292 -4.1352596 -1.7864203 4288085770
5.1763802 -2.8410501 -1.8124185 4288085770
9.5856743 -4.0575714 -1.7850931 4288085770
5.2496681 -2.7842741 -1.8131816 4288085770
9.6530457 -3.9657831 -1.7768421 4288085770
5.3099556 -2.7224627 -1.8099742 4288085770
9.8103561 -3.9002647 -1.7773812 4288085770
5.3882408 -2.6647038 -1.8087237 4288085770
9.9376831 -3.8256559 -1.7739892 4288085770
5.4665222 -2.606946 -1.806473 4288085770
10.060024 -3.7460346 -1.7676063 4288085770
5.5577965 -2.5512266 -1.8051906 4288085770
10.226326 -3.6785455 -1.7641194 4288085770
5.6390724 -2.4934788 -1.8009317 4288085770
10.389637 -3.6090488 -1.7586386 4288085770
5.7653313 -2.4458656 -1.8025653 4288085770
10.613918 -3.5517359 -1.7580109 4288085770
5.8745956 -2.3932018 -1.8002384 4288085770
10.842205 -3.4934359 -1.7553716 4288085770
5.9618683 -2.3334746 -1.7929621 4288085770
11.09248 -3.437202 -1.7536771 4288085770
6.1081238 -2.2869229 -1.7935443 4288085770
11.349762 -3.3789916 -1.7499628 4288085770
6.2803726 -2.2434483 -1.7970626 4288085770
11.67202 -3.3319764 -1.7510903 4288085770
6.4246254 -2.1928921 -1.7936471 4288085770
12.006264 -3.2839994 -1.749187 4288085770
6.6018753 -2.1474347 -1.7951503 4288085770
12.304543 -3.2239165 -1.7413647 4288085770
6.7701302 -2.0979524 -1.7916729 4288085770
12.702782 -3.1811347 -1.7412987 4288085770
6.9943733 -2.0566359 -1.795058 4288085770
13.128021 -3.1384349 -1.7401628 4288085770
7.2066193 -2.0112853 -1.7954705 4288085770
13.652241 -3.1070352 -1.7437813 4288085770
7.4218674 -1.9649458 -1.7938738 4288085770
14.117477 -3.0614605 -1.738539 4288085770
7.6351166 -1.9156008 -1.7892795 4288085770
14.621716 -3.0160046 -1.7331958 4288085770
7.8613625 -1.8662953 -1.7856512 4288085770
8.1376076 -1.8231411 -1.784899 4288085770
8.4348526 -1.7780504 -1.7850912 4288085770
8.7840958 -1.7381158 -1.7891531 4288085770
9.0753479 -1.6870108 -1.7823546 4288085770
9.4425926 -1.6421342 -1.7813649 4288085770
9.8218422 -1.5942945 -1.7793412 4288085770
10.248089 -1.5505955 -1.7801993 4288085770
10.723347 -1.5040481 -1.7809281 4288085770
11.160603 -1.4503884 -1.7737491 4288085770
11.704857 -1.4030516 -1.7732978 4288085770
12.150127 -1.3384216 -1.7580874 4288085770
12.736389 -1.2832167 -1.7515199 4288085770
13.311665 -1.2209814 -1.739974 4288085770
13.991947 -1.1600678 -1.7311563 4288085770
14.724228 -1.0953119 -1.7202039 4288085770
14.3489 1.3338612 -1.7247405 4288085770
13.623257 1.4000602 -1.7427778 4288085770
12.974594 1.4620271 -1.7605958 4288085770
12.331905 1.5189707 -1.7724023 4288085770
11.712185 1.571841 -1.7791464 4288085770
11.257523 1.6312244 -1.7984049 4288085770
10.593716 1.6692148 -1.7902923 4288085770
9.9348679 1.7001853 -1.7761726 4288085770
9.4060669 1.7377722 -1.7716691 4288085770
8.884243 1.7703338 -1.7621503 4288085770
8.473465 1.8095689 -1.7623029 4288085770
8.0806694 1.8467488 -1.7614067 4288085770
7.7258873 1.8848152 -1.7613981 4288085770
14.421555 2.7686701 -1.7260756 4293729569
7.3640785 1.9178984 -1.7564149 4288085770
13.855839 2.8153834 -1.7406707 4293729569
7.0362701 1.9518809 -1.7533324 4288085770
13.360142 2.8668873 -1.7570581 4288085770
6.7835197 1.9936447 -1.7590244 4288085770
13.038536 2.9358773 -1.7849224 4288085770
6.5487671 2.0353534 -1.7636642 4288085770
12.68689 2.9979529 -1.806881 4288085770
6.2719536 2.0671811 -1.7594359 4288085770
12.303204 3.0531185 -1.8219399 4288085770
5.9851151 2.0950358 -1.751241 4288085770
11.78838 3.079664 -1.8194077 4288085770
5.7453117 2.1287537 -1.7489038 4288085770
11.42366 3.1287682 -1.8294179 4288085770
5.5865707 2.1732349 -1.7553205 4288085770
10.951809 3.1521809 -1.8227642 4288085770
5.4648628 2.2226098 -1.7676249 4288085770
10.548008 3.1843929 -1.8209047 4288085770
5.3461494 2.2729738 -1.77792 4288085770
10.091125 3.201756 -1.8092141 4288085770
5.1963959 2.3154266 -1.7823129 4288085770
9.7493324 3.2367821 -1.808172 4288085770
5.0716629 2.3618062 -1.7896295 4288085770
9.3945045 3.264843 -1.8021746 4288085770
4.9319 2.4022269 -1.7919953 4288085770
9.0776901 3.2967911 -1.7980628 4288085770
4.8221626 2.4495606 -1.7982676 4288085770
8.7858849 3.3316641 -1.7938762 4288085770
4.7214317 2.4978681 -1.8055131 4288085770
8.4910622 3.3615441 -1.7877033 4288085770
4.6156845 2.5431881 -1.8097756 4288085770
8.3233528 3.4170537 -1.7951355 4288085770
4.4338341 2.5687237 -1.7982786 4288085770
8.0985756 3.4577274 -1.7937484 4288085770
4.2950325 2.6041358 -1.7936471 4288085770
7.9038162 3.5023112 -1.7932699 4288085770
4.165226 2.6385205 -1.7889903 4288085770
7.7280655 3.5498393 -1.7937334 4288085770
4.0604477 2.6788328 -1.787255 4288085770
7.5743294 3.6023026 -1.7961285 4288085770
3.9476547 2.7161672 -1.783546 4288085770
7.3955536 3.6448359 -1.7926056 4288085770
3.8568878 2.7584381 -1.7827685 4288085770
7.2267876 3.6903393 -1.7890515 4288085770
3.762104 2.7987189 -1.7800043 4288085770
7.0770264 3.7377863 -1.7864399 4288085770
3.6863403 2.8429446 -1.7791812 4288085770
6.9753189 3.7980931 -1.7886763 4288085770
3.6215935 2.8901386 -1.7803233 4288085770
6.8545837 3.8514543 -1.7879746 4288085770
3.5558395 2.9363346 -1.7804689 4288085770
6.7458458 3.9067788 -1.786236 4288085770
3.5141182 2.9904613 -1.7835376 4288085770
6.666153 3.9710193 -1.7884047 4288085770
3.4553642 3.0376358 -1.7826622 4288085770
6.5854492 4.0342617 -1.7885771 4288085770
3.4056129 3.0867832 -1.7817585 4288085770
6.5047379 4.0955024 -1.7877512 4288085770
3.3698845 3.1408911 -1.7838097 4288085770
6.4360313 4.1607075 -1.7868872 4288085770
3.3381538 3.1959858 -1.7848485 4288085770
6.4023705 4.2368107 -1.789911 4288085770
3.3294678 3.2590156 -1.7908123 4288085770
6.3617058 4.3109331 -1.7909565 4288085770
3.308754 3.3180776 -1.7918148 4288085770
6.33004 4.3870287 -1.7919738 4288085770
3.3190918 3.3880513 -1.7987163 4288085770
6.326416 4.473043 -1.7958996 4288085770
3.3114014 3.4520755 -1.801676 4288085770
6.2897377 4.5481501 -1.7929325 4288085770
3.3367615 3.5280058 -1.810528 4288085770
6.2891159 4.6371531 -1.794847 4288085770
3.375145 3.6108978 -1.8203354 4288085770
6.296505 4.7281327 -1.7967362 4288085770
3.3854752 3.681869 -1.8242359 4288085770
6.3209114 4.8260612 -1.7995689 4288085770
3.4318695 3.7687368 -1.8340161 4288085770
6.3282928 4.9180393 -1.7994571 4288085770
3.4251633 3.8347535 -1.8309712 4288085770
6.3667221 5.0239258 -1.8012416 4288085770
3.4475098 3.9116879 -1.8338308 4288085770
6.4241753 5.1367569 -1.8049634 4288085770
3.4668503 3.9886298 -1.8346992 4288085770
6.4555931 5.2406621 -1.8037698 4288085770
3.4310799 4.0407267 -1.8227518 4288085770
6.556118 5.3733673 -1.8113465 4288085770
3.4333763 4.109715 -1.8176773 4288085770
6.6336098 5.4991379 -1.8139977 4288085770
3.4537086 4.1866512 -1.8155427 4288085770
6.736145 5.6378336 -1.8175633 4288085770
3.4820518 4.2675638 -1.8133807 4288085770
6.8667259 5.7894487 -1.8250341 4288085770
3.536438 4.3604016 -1.8151317 4288085770
7.0343781 5.9609575 -1.8363786 4288085770
3.597847 4.459219 -1.8178561 4288085770
7.1549416 6.1125965 -1.8368785 4288085770
3.6662636 4.5600166 -1.8205578 4288085770
7.3095703 6.2821388 -1.8412616 4288085770
3.7366829 4.6648054 -1.82125 4288085770
7.4862404 6.4646153 -1.847568 4288085770
3.826149 4.7785406 -1.8258777 4288085770
7.6919708 6.6650066 -1.8547723 4288085770
3.9186096 4.8952651 -1.8274937 4288085770
7.886673 6.8604283 -1.8590128 4288085770
4.0120697 5.0119858 -1.8291066 4288085770
8.1445007 7.0906649 -1.8680356 4288085770
4.1676674 5.1635299 -1.8415046 4288085770
8.3822899 7.3139582 -1.8721232 4288085770
4.2972069 5.3031454 -1.8459899 4288085770
8.6681709 7.5661111 -1.8800423 4288085770
4.4457855 5.4537063 -1.8524089 4288085770
9.0211906 7.8570671 -1.8927281 4288085770
4.5753136 5.5943203 -1.8538926 4288085770
9.3571739 8.1430702 -1.8994675 4288085770
4.7208786 5.7458849 -1.8543189 4288085770
4.8674431 5.8994455 -1.8537397 4288085770
5.0581093 6.0798807 -1.8600063 4288085770
5.2627945 6.2692728 -1.8642228 4288085770
5.4694901 6.461657 -1.86743 4288085770
5.6711578 6.6520529 -1.8656538 4288085770
5.9279518 6.8762913 -1.8716829 4288085770
6.181736 7.1015329 -1.8717196 4288085770
6.5116959 7.374557 -1.8824873 4288085770
6.8246002 7.6396246 -1.8853116 4288085770
7.1635666 7.9216166 -1.8890429 4288085770
14.289978 -0.55460596 -1.7243888 4288085770
13.156029 -0.57925558 -1.7320435 4288085770
12.162098 -0.5993166 -1.7412453 4288085770
11.301178 -0.61876726 -1.7540193 4288085770
10.395241 -0.62709951 -1.750932 4288085770
9.6113205 -0.63478899 -1.751452 4288085770
8.8994102 -0.64168882 -1.7537405 4288085770
8.27351 -0.64783955 -1.759752 4288085770
14.461205 -1.0811088 -1.7150888 4288085770
7.6666107 -0.65104985 -1.7617013 4288085770
13.284401 -1.0606298 -1.7278552 4288085770
7.1187134 -0.65243459 -1.7634599 4288085770
12.251591 -1.0425756 -1.7401605 4288085770
6.6228218 -0.65497041 -1.7680521 4288085770
11.338787 -1.0258732 -1.7550807 4288085770
6.1749382 -0.65564775 -1.7724886 4288085770
10.351952 -0.99597168 -1.7482321 4288085770
5.7430573 -0.65437365 -1.7758729 4288085770
9.5611305 -0.97463751 -1.753758 4288085770
5.3381767 -0.65217996 -1.7781699 4288085770
8.8573112 -0.95555925 -1.7600055 4288085770
4.9482918 -0.64803243 -1.7784176 4288085770
8.199482 -0.93561888 -1.7641048 4288085770
4.5934143 -0.64498687 -1.7805538 4288085770
7.5706482 -0.91376734 -1.7641103 4288085770
4.2445335 -0.63896155 -1.7796686 4288085770
7.016819 -0.89513397 -1.7678766 4288085770
3.9406624 -0.63406539 -1.7826395 4288085770
6.5029831 -0.87661958 -1.7705145 4288085770
3.6307831 -0.6271553 -1.7816288 4288085770
6.046154 -0.85927057 -1.7759695 4288085770
3.3499069 -0.6203289 -1.7825248 4288085770
5.6183205 -0.84200907 -1.7793314 4288085770
3.1000404 -0.6145916 -1.7863219 4288085770
5.218483 -0.82483006 -1.782604 4288085770
2.847168 -0.60784817 -1.7871282 4288085770
4.81464 -0.80464411 -1.7808876 4288085770
2.6313095 -0.60220933 -1.7928157 4288085770
4.4668007 -0.78861856 -1.7839935 4288085770
2.400444 -0.59353089 -1.79355 4288085770
4.1219597 -0.76960492 -1.7840881 4288085770
2.1605606 -0.58283138 -1.7883127 4288085770
3.7971191 -0.75065112 -1.7831182 4288085770
1.9707069 -0.57527041 -1.7929156 4288085770
3.5032768 -0.73478651 -1.7850511 4288085770
1.7728386 -0.56569028 -1.7925434 4288085770
3.237442 -0.71900225 -1.7888932 4288085770
1.5829697 -0.55613375 -1.7921455 4288085770
2.9916039 -0.70427632 -1.7936718 4288085770
1.4081039 -0.54761982 -1.7937002 4288085770
2.726757 -0.68550158 -1.7905097 4288085770
1.2392426 -0.5371244 -1.7942338 4288085770
2.4899101 -0.66880584 -1.7912586 4288085770
1.07938 -0.52765512 -1.7957399 4288085770
2.2620621 -0.65213847 -1.7899787 4288085770
0.91651154 -0.5171802 -1.7932549 4288085770
2.048214 -0.63551164 -1.7896535 4288085770
0.77165222 -0.50675488 -1.7947118 4288085770
1.8503723 -0.61893082 -1.790277 4288085770
0.62578201 -0.49632907 -1.7931721 4288085770
1.651516 -0.60235023 -1.787904 4288085770
0.50293732 -0.48696542 -1.7985585 4288085770
1.4746742 -0.58683085 -1.7894607 4288085770
0.37407303 -0.47658825 -1.798964 4288085770
1.300827 -0.57132101 -1.7900078 4288085770
0.25721359 -0.46724391 -1.8023317 4288085770
1.1229744 -0.5528028 -1.7865663 4288085770
0.12734985 -0.45486641 -1.7997394 4288085770
0.99514389 -0.54142189 -1.7949672 4288085770
0.8482933 -0.52599168 -1.7954273 4288085770
0.69443512 -0.50954461 -1.7919099 4288085770
0.55459213 -0.49313617 -1.791347 4288085770
0.42974091 -0.47877049 -1.792737 4288085770
0.30989838 -0.46441913 -1.794111 4288085770
0.18904877 -0.44906545 -1.7944877 4288085770
0.38856125 1.4664719 -1.7701368 4288085770
0.49469757 1.4801526 -1.7629173 4288085770
0.65288544 1.5047162 -1.7705848 4288085770
0.78904343 1.523324 -1.7693021 4288085770
0.9392128 1.5428982 -1.7709928 4288085770
1.090374 1.5614655 -1.7706831 4288085770
1.2405281 1.5790316 -1.7683771 4288085770
1.4217072 1.6025219 -1.7720041 4288085770
0.43725967 1.4273062 -1.7710826 4288085770
1.5998764 1.6230168 -1.7736418 4288085770
0.58241653 1.4418988 -1.7747917 4288085770
1.7820396 1.6424965 -1.7732742 4288085770
0.70954895 1.4525301 -1.7725401 4288085770
1.974205 1.6629479 -1.7728865 4288085770
0.85068893 1.464124 -1.7712615 4288085770
2.2024002 1.6883112 -1.7794249 4288085770
1.0028343 1.4776928 -1.772959 4288085770
2.4115639 1.7087142 -1.7790062 4288085770
1.1649857 1.4902351 -1.775641 4288085770
2.6657639 1.7360082 -1.7874935 4288085770
1.3111115 1.4998109 -1.7723563 4288085770
2.8989258 1.7563434 -1.7870317 4288085770
1.4912682 1.5133045 -1.7760036 4288085770
3.1320877 1.7756727 -1.783571 4288085770
1.6654053 1.524807 -1.7756648 4288085770
3.3862495 1.7959466 -1.7820704 4288085770
1.8575554 1.5372643 -1.7782917 4288085770
3.6894417 1.8220959 -1.7874708 4288085770
2.0526962 1.5487096 -1.7789149 4288085770
3.9826164 1.8452632 -1.787894 4288085770
2.2948723 1.5660419 -1.7894425 4288085770
4.2357407 1.8575199 -1.7764096 4288085770
2.4739799 1.5705161 -1.7821071 4288085770
4.4978638 1.869751 -1.7649086 4288085770
2.703125 1.5818691 -1.7846687 4288085770
4.9281044 1.9065607 -1.7800586 4288085770
2.9382629 1.591203 -1.7862229 4288085770
5.2852669 1.9285409 -1.7773674 4288085770
3.16539 1.5985518 -1.7837949 4288085770
5.5833778 1.9376621 -1.761806 4288085770
3.4135208 1.605845 -1.783329 4288085770
6.0145683 1.9634433 -1.7639737 4288085770
3.6836472 1.6140778 -1.7838213 4288085770
6.5217857 1.9970231 -1.7729888 4288085770
3.9467659 1.6183246 -1.7813337 4288085770
6.9999657 2.0216672 -1.7730725 4288085770
4.2008667 1.6185868 -1.7738693 4288085770
7.527153 2.0481744 -1.7740636 4288085770
4.489975 1.6217601 -1.7713358 4288085770
8.0953484 2.0765676 -1.7759767 4288085770
4.9722099 1.6484499 -1.7994096 4288085770
8.6985321 2.103858 -1.7758276 4288085770
5.292305 1.6485314 -1.7948258 4288085770
9.4177551 2.1398361 -1.783453 4288085770
5.5693665 1.6397147 -1.7803359 4288085770
10.34407 2.1942644 -1.8086681 4288085770
5.8654251 1.6298443 -1.7658129 4288085770
11.327366 2.2475238 -1.8297811 4288085770
6.3065567 1.6346036 -1.7710001 4288085770
12.057491 2.2614245 -1.8144243 4288085770
6.7896919 1.6392484 -1.7781112 4288085770
12.884632 2.2790546 -1.8008842 4288085770
7.2347832 1.6349826 -1.7763071 4288085770
13.594669 2.2739758 -1.7675979 4288085770
7.7198753 1.6296036 -1.7744322 4288085770
14.435741 2.2775426 -1.7420571 4288085770
8.2970047 1.6299846 -1.7823794 4288085770
8.8780975 1.6233402 -1.7833321 4288085770
9.5482025 1.6184561 -1.7901196 4288085770
10.336338 1.6172566 -1.8056853 4288085770
11.184464 1.6128852 -1.8201478 4288085770
11.776443 1.5791678 -1.8001285 4288085770
12.564472 1.5519282 -1.7957413 4288085770
13.283432 1.5108515 -1.7755048 4288085770
14.03838 1.4656732 -1.7552097 4288085770
15.01936 1.4248838 -1.7484961 4288085770
7.6869926 -7.5575466 -0.38267431 4293729569
7.5921631 -7.5731611 -0.44187704 4293729569
7.1978912 -7.4668369 -0.55239809 4293729569
7.1010971 -7.471447 -0.61058295 4293729569
6.9084816 -7.4107933 -0.66581994 4293729569
6.7767715 -7.3853083 -0.72301131 4293729569
6.629097 -7.3467808 -0.7782073 4293729569
7.1049767 -7.6933994 -0.16298528 4293729569
6.5533104 -7.3504457 -0.83835042 4293729569
6.9613342 -7.6488638 -0.22816083 4293729569
6.4316063 -7.3219891 -0.89551705 4293729569
6.7957458 -7.585269 -0.29234028 4293729569
6.3508453 -7.3166409 -0.95465171 4293729569
6.7669067 -7.6100531 -0.35843518 4293729569
6.266098 -7.306283 -1.0137839 4293729569
6.5644073 -7.5133619 -0.41861916 4293729569
6.3241158 -7.3873005 -1.0858257 4293729569
6.4487495 -7.4719105 -0.48074764 4293729569
6.2044411 -7.3458548 -1.1399634 4293729569
6.3620415 -7.4475384 -0.54385591 4293729569
6.1506691 -7.3465748 -1.2030582 4293729569
6.3212624 -7.4502935 -0.60792935 4293729569
6.1298485 -7.367382 -1.2691302 4293729569
6.1717033 -7.374752 -0.66805458 4293729569
6.1180191 -7.3912125 -1.3361909 4293729569
6.102993 -7.3524303 -0.73113143 4293729569
5.9973907 -7.3367624 -1.3913033 4293729569
5.9983597 -7.3020144 -0.79122096 4293729569
6.0165291 -7.3756742 -1.4613347 4293729569
6.0494576 -7.3550148 -0.86121827 4293729569
5.9318504 -7.3393154 -1.5204144 4293729569
6.1854095 -7.4652376 -0.94016677 4293729569
5.8671455 -7.3130159 -1.5784755 4293729569
6.0039406 -7.3506241 -0.99127507 4293729569
5.6097755 -7.1482315 -1.6086302 4293729569
5.9752083 -7.3394136 -1.0552967 4293729569
5.2595634 -6.915225 -1.6208274 4293729569
5.9993896 -7.3613396 -1.1242826 4293729569
4.9053574 -6.6762199 -1.6270208 4293729569
5.9936333 -7.3601904 -1.1902795 4293729569
4.5641289 -6.4422541 -1.6311998 4293729569
5.9848824 -7.3530331 -1.2552702 4293729569
4.2378731 -6.2163334 -1.6343668 4293729569
5.9851341 -7.3489017 -1.3202491 4293729569
3.9605446 -6.0215397 -1.6425021 4293729569
6.0323181 -7.373888 -1.3921957 4293729569
3.7111702 -5.8438244 -1.6506181 4293729569
6.0036316 -7.3436832 -1.4531782 4293729569
3.4787674 -5.6751585 -1.65872 4293729569
6.0098953 -7.3335686 -1.5181327 4293729569
3.2303886 -5.4934592 -1.6608269 4293729569
6.0281448 -7.329484 -1.5850761 4293729569
3.0159569 -5.3338485 -1.6659129 4293729569
5.750885 -7.1196632 -1.6061795 4293729569
2.8135071 -5.1802726 -1.6709883 4293729569
5.4197121 -6.8697166 -1.6153073 4293729569
2.6010666 -5.0176806 -1.6700652 4293729569
5.0935287 -6.6217899 -1.6214304 4293729569
2.4315605 -4.8851948 -1.6761198 4293729569
4.7813148 -6.3819075 -1.624543 4293729569
2.2970047 -4.7737975 -1.6871488 4293729569
4.5010452 -6.164113 -1.6296387 4293729569
2.182415 -4.6754494 -1.7011654 4293729569
4.2776833 -5.9834661 -1.6406987 4293729569
2.0508461 -4.5640683 -1.7081892 4293729569
4.0503235 -5.7988176 -1.6467588 4293729569
1.8903275 -4.4316225 -1.7072272 4293729569
3.8628998 -5.6392708 -1.6577919 4293729569
1.8596153 -4.3854833 -1.7341857 4293729569
3.6644859 -5.4737034 -1.663835 4293729569
1.9028091 -4.3895121 -1.7801008 4293729569
3.4880333 -5.321198 -1.6698616 4293729569
1.947998 -4.3915496 -1.8250077 4288085770
3.3415375 -5.1877666 -1.6808684 4293729569
1.9852104 -4.3855658 -1.8689137 4288085770
3.1990318 -5.0553522 -1.6888697 4293729569
1.8925934 -4.2932949 -1.8759 4288085770
3.0355492 -4.9098949 -1.6898863 4293729569
1.764019 -4.1759467 -1.8709068 4288085770
2.8451004 -4.747375 -1.6839216 4293729569
1.6414452 -4.0616145 -1.8669081 4288085770
2.7145653 -4.6230054 -1.6869168 4293729569
1.5358276 -3.9583268 -1.8638988 4288085770
2.6219673 -4.5227294 -1.6958864 4293729569
1.4441986 -3.8640742 -1.8638802 4288085770
2.5563393 -4.438518 -1.710835 4293729569
1.3485794 -3.7658148 -1.8608613 4288085770
2.6245346 -4.4366245 -1.752686 4293729569
1.2389641 -3.6595273 -1.8528543 4288085770
2.8165894 -4.5070205 -1.8234377 4288085770
1.1832924 -3.5863638 -1.8578079 4288085770
2.8428574 -4.47403 -1.8553081 4288085770
1.0976486 -3.4941373 -1.852782 4288085770
2.7972107 -4.3968763 -1.869231 4288085770
1.0369682 -3.4179707 -1.8527396 4288085770
2.6986237 -4.2876043 -1.8681941 4288085770
0.96929932 -3.3367901 -1.8497009 4288085770
2.5890427 -4.1723127 -1.8621669 4288085770
0.91261292 -3.2626367 -1.848655 4288085770
2.4974403 -4.0680633 -1.8601267 4288085770
0.86192322 -3.1914983 -1.8486032 4288085770
2.4148216 -3.9688387 -1.858079 4288085770
0.81521988 -3.123373 -1.8475499 4288085770
2.3361969 -3.8726277 -1.8550296 4288085770
0.76252747 -3.0502353 -1.8444982 4288085770
2.2765465 -3.7864609 -1.855963 4288085770
0.73080444 -2.9901452 -1.8464313 4288085770
2.204895 -3.695272 -1.8519104 4288085770
0.69109344 -2.9250417 -1.8443704 4288085770
2.1652184 -3.6211596 -1.8538284 4288085770
0.65237427 -2.8609428 -1.8413095 4288085770
2.119545 -3.5440345 -1.8537529 4288085770
0.62664413 -2.8038745 -1.8412368 4288085770
2.0508881 -3.4548597 -1.8466988 4288085770
0.58591843 -2.7387762 -1.8351784 4288085770
2.0082016 -3.3787484 -1.8446193 4288085770
0.58416367 -2.6947622 -1.8410845 4288085770
1.9695053 -3.3076496 -1.841542 4288085770
0.55942535 -2.6377006 -1.83901 4288085770
1.9398041 -3.2385712 -1.840451 4288085770
0.53568268 -2.5816445 -1.8359358 4288085770
1.9220848 -3.1765232 -1.8413501 4288085770
0.52693176 -2.5326238 -1.8358457 4288085770
1.908371 -3.1154838 -1.8432434 4288085770
0.51917267 -2.4846034 -1.8367558 4288085770
1.8786621 -3.0474148 -1.8381543 4288085770
0.49842834 -2.4295588 -1.8316774 4288085770
1.8809242 -2.9944181 -1.8410318 4288085770
0.49266434 -2.3825493 -1.8305855 4288085770
1.8582039 -2.9303665 -1.836937 4288085770
0.4939003 -2.3375559 -1.8304834 4288085770
1.8604622 -2.8773737 -1.8378143 4288085770
0.4981308 -2.2945695 -1.8313794 4288085770
1.8597183 -2.8223772 -1.8366935 4288085770
0.49736404 -2.2485757 -1.8292792 4288085770
1.8519821 -2.7653656 -1.8335829 4288085770
0.50558472 -2.2076049 -1.828171 4288085770
1.8562317 -2.7133851 -1.8314581 4288085770
0.51081085 -2.1646247 -1.827065 4288085770
1.8794746 -2.6684475 -1.8343091 4288085770
0.51803207 -2.1226535 -1.8249567 4288085770
1.884716 -2.6174746 -1.8301845 4288085770
0.53724289 -2.0857091 -1.8258343 4288085770
1.9039574 -2.5705318 -1.8300393 4288085770
0.54646683 -2.0437441 -1.822722 4288085770
1.9231873 -2.524591 -1.8288963 4288085770
0.57766724 -2.0128269 -1.8265874 4288085770
1.9544182 -2.4826803 -1.8297367 4288085770
0.60787582 -1.9789114 -1.8284485 4288085770
1.9756508 -2.4367495 -1.8265893 4288085770
0.63408279 -1.9439888 -1.8283157 4288085770
2.0098724 -2.3958492 -1.8264258 4288085770
0.65828705 -1.9080629 -1.8271847 4288085770
2.0480881 -2.3559623 -1.8252559 4288085770
0.70548248 -1.880188 -1.8320234 4288085770
2.0843086 -2.3150692 -1.8240876 4288085770
0.73168945 -1.8442717 -1.8288882 4288085770
2.1325264 -2.2772079 -1.8239012 4288085770
0.76988602 -1.8123798 -1.8297367 4288085770
2.1787376 -2.2393427 -1.8227186 4288085770
0.82707214 -1.7875338 -1.8345604 4288085770
2.2339439 -2.2045007 -1.8225236 4288085770
0.882267 -1.7606821 -1.8393838 4288085770
2.2961464 -2.1706767 -1.8233161 4288085770
0.92246628 -1.7278028 -1.8372257 4288085770
2.3463554 -2.1318293 -1.8191228 4288085770
0.99065018 -1.7039847 -1.8430283 4288085770
2.4305534 -2.1040587 -1.8238823 4288085770
1.026844 -1.6700983 -1.838876 4288085770
2.5027542 -2.0712643 -1.8236556 4288085770
1.0720406 -1.6372347 -1.8357069 4288085770
2.5569572 -2.0324326 -1.8174534 4288085770
1.1332283 -1.6094079 -1.8365152 4288085770
2.6521454 -2.0066938 -1.8211935 4288085770
1.2064095 -1.585608 -1.840307 4288085770
2.7243423 -1.9729056 -1.8179641 4288085770
1.2655945 -1.5577774 -1.8401189 4288085770
2.8305283 -1.9472003 -1.8206809 4288085770
1.3317833 -1.5299687 -1.8389163 4288085770
2.9277191 -1.9184761 -1.8204098 4288085770
1.3959656 -1.5001566 -1.8367133 4288085770
3.0279083 -1.8887625 -1.8191299 4288085770
1.4661522 -1.4723592 -1.8355019 4288085770
3.1280937 -1.8590512 -1.8168497 4288085770
1.526329 -1.4425416 -1.830307 4288085770
3.2412796 -1.8323708 -1.8165486 4288085770
1.6055107 -1.4157696 -1.8290787 4288085770
3.3584595 -1.8047047 -1.8152368 4288085770
1.6756935 -1.3869777 -1.8248644 4288085770
3.4866371 -1.7790675 -1.8149059 4288085770
1.786869 -1.3672802 -1.8305836 4288085770
3.622818 -1.7534523 -1.814558 4288085770
1.8660469 -1.3385162 -1.8253503 4288085770
3.7629967 -1.72785 -1.8132014 4288085770
1.9612198 -1.3137884 -1.8240919 4288085770
3.9291687 -1.7063146 -1.8147988 4288085770
2.0513992 -1.2860522 -1.8198373 4288085770
4.0793495 -1.6797423 -1.8124185 4288085770
2.1725769 -1.2643895 -1.8225303 4288085770
4.2405205 -1.6552014 -1.8100188 4288085770
2.2787476 -1.2386942 -1.820246 4288085770
4.4226913 -1.6327143 -1.8095791 4288085770
2.3949203 -1.2140276 -1.8179424 4288085770
4.6228638 -1.6122742 -1.8111055 4288085770
2.516098 -1.1893718 -1.816628 4288085770
4.8150291 -1.5888195 -1.8086417 4288085770
2.658268 -1.1687691 -1.8182778 4288085770
5.053196 -1.5714836 -1.8110936 4288085770
2.7804375 -1.1421254 -1.8129566 4288085770
5.2853622 -1.5511341 -1.8115513 4288085770
2.9146118 -1.1175108 -1.8096139 4288085770
5.5135269 -1.5277822 -1.8080103 4288085770
3.0737801 -1.0959578 -1.8102248 4288085770
5.7816887 -1.5095336 -1.8083954 4288085770
3.2449493 -1.075438 -1.8108122 4288085770
6.0478554 -1.4882836 -1.8067775 4288085770
3.4141197 -1.0519168 -1.809397 4288085770
6.3550148 -1.4711444 -1.8070812 4288085770
3.5932884 -1.0284257 -1.8069603 4288085770
6.657177 -1.4490013 -1.8023841 4288085770
3.7794609 -1.0049546 -1.8045084 4288085770
7.010334 -1.4329884 -1.8035915 4288085770
3.9956284 -0.98455858 -1.8059993 4288085770
7.3864899 -1.4160435 -1.8027472 4288085770
4.2027969 -0.96114588 -1.8035018 4288085770
7.7526474 -1.3950796 -1.7979147 4288085770
4.4259605 -0.9377799 -1.7999701 4288085770
8.1958008 -1.3793204 -1.7979295 4288085770
4.6831322 -0.91649842 -1.8013706 4288085770
8.6089554 -1.3574936 -1.7899935 4288085770
4.9423027 -0.8942287 -1.7997639 4288085770
9.1281052 -1.3429465 -1.7898474 4288085770
5.2234726 -0.87201834 -1.7991099 4288085770
9.6532555 -1.3254244 -1.785681 4288085770
5.5156441 -0.84784508 -1.795428 4288085770
10.250401 -1.3110993 -1.7833674 4288085770
5.8408165 -0.82575583 -1.7956793 4288085770
10.925549 -1.2979903 -1.7818894 4288085770
6.1849899 -0.80172324 -1.7938857 4288085770
11.715691 -1.2911878 -1.7871788 4288085770
6.5361557 -0.77671719 -1.7890739 4288085770
12.36684 -1.2650473 -1.7687201 4288085770
6.9143257 -0.75178599 -1.7842045 4288085770
13.226974 -1.2514617 -1.7638426 4288085770
7.343502 -0.72699142 -1.7822254 4288085770
14.118114 -1.2319808 -1.7498839 4288085770
7.8356743 -0.70436621 -1.7831161 4288085770
15.203247 -1.2200282 -1.7425261 4288085770
8.3418541 -0.6787889 -1.779969 4288085770
8.9130363 -0.65338445 -1.7806826 4288085770
9.529213 -0.6271143 -1.777297 4288085770
10.214405 -0.60002828 -1.7777607 4288085770
11.029591 -0.57529712 -1.7819502 4288085770
11.82378 -0.54353023 -1.7751675 4288085770
12.739979 -0.51010013 -1.7701182 4288085770
13.717171 -0.47285247 -1.7589281 4288085770
14.808369 -0.43292809 -1.7454855 4288085770
15.29274 3.2133906 -1.7665312 4288085770
15.04015 3.3190939 -1.7709079 4288085770
14.785545 3.4218006 -1.7742968 4288085770
14.583965 3.5293655 -1.7795424 4288085770
14.363354 3.6309719 -1.7798495 4288085770
14.2458 3.7493038 -1.7888603 4288085770
14.14426 3.869597 -1.7958288 4288085770
14.02169 3.983943 -1.8008628 4288085770
13.928131 4.1022077 -1.8048162 4288085770
13.872608 4.2303739 -1.8116522 4288085770
13.809074 4.3555574 -1.8165152 4288085770
13.736519 4.476758 -1.8174095 4288085770
13.652954 4.5979838 -1.8163316 4288085770
13.667469 4.7399569 -1.8229616 4288085770
13.613907 4.8640981 -1.8208027 4288085770
13.600388 4.999136 -1.8215187 4288085770
13.670952 5.1589527 -1.826968 4288085770
13.842609 5.3455124 -1.8421032 4288085770
13.897152 5.5013628 -1.8426011 4288085770
14.00074 5.6730862 -1.84694 4288085770
14.072292 5.8358855 -1.8453794 4288085770
14.274986 6.0403495 -1.8553953 4288085770
14.50972 6.2567253 -1.8653035 4288085770
14.681389 6.4592581 -1.8674011 4288085770
14.848049 6.6607976 -1.8665133 4288085770
15.13485 6.905026 -1.8742266 4288085770
15.356579 7.1314144 -1.8731434 4288085770
15.118893 -0.12762618 -1.7404444 4288085770
13.726982 -0.13782573 -1.7483556 4288085770
12.575096 -0.14566708 -1.7615898 4288085770
11.588223 -0.15294909 -1.7783616 4288085770
10.603317 -0.15427208 -1.7791183 4288085770
9.6844101 -0.15378213 -1.7766864 4288085770
8.8845215 -0.15260768 -1.7779205 4288085770
8.2146416 -0.1527741 -1.7847929 4288085770
14.097145 -0.32186937 -1.7365651 4288085770
7.5387497 -0.14894462 -1.7826753 4288085770
12.905334 -0.30759382 -1.7538731 4288085770
6.9158516 -0.14426398 -1.7784078 4288085770
11.809505 -0.29159594 -1.7639093 4288085770
6.390976 -0.13983512 -1.7808661 4288085770
10.841671 -0.27694631 -1.7735901 4288085770
5.9201012 -0.13554883 -1.7851734 4288085770
9.8638077 -0.25830317 -1.7682927 4288085770
5.4912338 -0.13137269 -1.7913635 4288085770
9.1089706 -0.24423456 -1.7773778 4288085770
5.0843582 -0.12526798 -1.7924883 4288085770
8.3711243 -0.22822762 -1.7794123 4288085770
4.6674767 -0.11814451 -1.7896404 4288085770
7.6612549 -0.21131539 -1.7733676 4288085770
4.3046036 -0.11116219 -1.7896409 4288085770
7.055397 -0.19667053 -1.7740355 4288085770
3.9537163 -0.10321903 -1.7866063 4288085770
6.5385551 -0.18225741 -1.7794533 4288085770
3.6368408 -0.095363855 -1.7854764 4288085770
6.0587082 -0.16894984 -1.7827702 4288085770
3.3479729 -0.087580681 -1.7862682 4288085770
5.6168594 -0.15574098 -1.7879808 4288085770
3.0891113 -0.080870867 -1.7909784 4288085770
5.1880074 -0.14157677 -1.7891536 4288085770
2.8382416 -0.073186874 -1.7936645 4288085770
4.7981453 -0.12851834 -1.79022 4288085770
2.5663567 -0.063463211 -1.7884059 4288085770
4.4142876 -0.11348319 -1.7882652 4288085770
2.3314857 -0.054829836 -1.7880454 4288085770
4.0674248 -0.10054493 -1.7882111 4288085770
2.1286201 -0.046276808 -1.7905948 4288085770
3.7405624 -0.086664915 -1.7860992 4288085770
1.9257507 -0.03772831 -1.7911448 4288085770
3.4607124 -0.073900223 -1.7898567 4288085770
1.7308846 -0.028201818 -1.7916706 4288085770
3.1698494 -0.060118675 -1.7876441 4288085770
1.544014 -0.019698858 -1.7911763 4288085770
2.8919792 -0.046377182 -1.7833953 4288085770
1.3651466 -0.0092182159 -1.7906554 4288085770
2.651123 -0.033725262 -1.7840443 4288085770
1.1912727 0.00024700165 -1.7891228 4288085770
2.4172668 -0.020094872 -1.7836721 4288085770
1.0253983 0.0096879005 -1.7865682 4288085770
2.1914024 -0.0074901581 -1.7812796 4288085770
0.87753677 0.020086288 -1.7869604 4288085770
2.0045509 0.0050230026 -1.7857771 4288085770
0.7286644 0.029485226 -1.7863581 4288085770
1.8006897 0.018569946 -1.7843211 4288085770
0.61782074 0.038800716 -1.7946479 4288085770
1.6168251 0.031061888 -1.7828109 4288085770
0.4809494 0.049164534 -1.79301 4288085770
1.4409676 0.043536663 -1.7832785 4288085770
1.2891159 0.055950403 -1.7856781 4288085770
1.1272507 0.068382263 -1.7841065 4288085770
0.98639679 0.080766201 -1.7864757 4288085770
0.83452606 0.093168974 -1.7838764 4288085770
0.70267105 0.10652375 -1.7842183 4288085770
0.55680084 0.11890531 -1.7796028 4288085770
0.45695877 0.13118839 -1.7868562 4288085770
0.48086929 2.2296281 -1.7515018 4288085770
0.62709808 2.2672453 -1.7579713 4288085770
0.75428391 2.2968962 -1.7565157 4288085770
0.89348602 2.3295212 -1.7580168 4288085770
1.0336761 2.3611393 -1.7575166 4288085770
1.1908913 2.3977182 -1.7599535 4288085770
1.3470879 2.4302952 -1.760402 4288085770
0.39735794 2.1358602 -1.7659247 4288085770
1.5002747 2.4618738 -1.7578614 4288085770
0.49347305 2.1485794 -1.7575998 4288085770
1.6814957 2.5003901 -1.7612202 4288085770
0.62163544 2.1722322 -1.7581539 4288085770
1.8767281 2.5418735 -1.76653 4288085770
0.76583481 2.1988509 -1.7626522 4288085770
2.0569229 2.5753818 -1.7649016 4288085770
0.91001892 2.223465 -1.7651544 4288085770
2.2551422 2.613848 -1.7662077 4288085770
1.0421715 2.2431004 -1.7627034 4288085770
2.4893951 2.6602306 -1.773386 4288085770
1.1973495 2.2676826 -1.7641716 4288085770
2.7026062 2.6986542 -1.7736452 4288085770
1.3535271 2.2912621 -1.7656384 4288085770
2.9318314 2.7390394 -1.775851 4288085770
1.5116959 2.313834 -1.7661011 4288085770
3.1900902 2.787353 -1.7809503 4288085770
