# .PCD v0.7 - Point Cloud Data file format
VERSION 0.7
FIELDS x y z rgb
SIZE 4 4 4 4
TYPE F F F U
COUNT 1 1 1 1
WIDTH 1121
HEIGHT 1
VIEWPOINT 0 0 0 1 0 0 0
POINTS 1121
DATA ascii
2.9934235 -0.18974733 -1.8235548 4288085770
1.2336121 -0.11747956 -1.8227055 4288085770
2.7206421 -0.17370057 -1.8260157 4288085770
1.0377045 -0.10499525 -1.8196294 4288085770
2.464859 -0.15878129 -1.8281362 4288085770
0.8678894 -0.094722271 -1.8210299 4288085770
2.2009583 -0.14178252 -1.8244236 4288085770
0.69000244 -0.082376242 -1.8185966 4288085770
1.9600983 -0.12496209 -1.8222539 4288085770
0.53819275 -0.072241306 -1.8206398 4288085770
1.7302246 -0.10922432 -1.8198631 4288085770
0.395401 -0.061173677 -1.8225071 4288085770
1.530426 -0.094723701 -1.8208725 4288085770
0.26261902 -0.050187826 -1.8261759 4288085770
1.3265533 -0.079183817 -1.8189652 4288085770
0.11773682 -0.038088799 -1.8230879 4288085770
1.1296997 -0.06369257 -1.8159196 4288085770
-0.0060424805 -0.027166843 -1.825578 4288085770
0.95185852 -0.0493536 -1.8154924 4288085770
0.7940979 -0.03517437 -1.8176682 4288085770
0.64730835 -0.021077156 -1.8196251 4288085770
0.48544312 -0.0058515072 -1.8168848 4288085770
0.33959961 0.0082483292 -1.8158228 4288085770
0.20478821 0.022262335 -1.8155429 4288085770
0.08102417 0.036183834 -1.8180435 4288085770
0.10827637 2.0908642 -1.7663171 4288085770
0.2355957 2.1199131 -1.7648818 4288085770
0.37297058 2.1498799 -1.7652495 4288085770
0.4931488 2.1729984 -1.7589347 4288085770
0.62940979 2.1999917 -1.7543132 4288085770
0.77874756 2.2298875 -1.7524574 4288085770
0.94111633 2.2616696 -1.7523324 4288085770
1.1044922 2.292448 -1.7511837 4288085770
0.11352539 2.0118084 -1.7669427 4288085770
1.2697754 2.3222179 -1.7479918 4288085770
0.23777771 2.0308833 -1.7645319 4288085770
1.4421082 2.3529329 -1.7456639 4288085770
0.37911987 2.0538177 -1.765795 4288085770
1.6415558 2.3894372 -1.7458165 4288085770
0.51234436 2.0728254 -1.7632048 4288085770
1.8358917 2.4219894 -1.7430556 4288085770
0.66665649 2.0956683 -1.7632082 4288085770
2.0432587 2.455441 -1.7410381 4288085770
0.81190491 2.1145835 -1.7613785 4288085770
2.2375031 2.4850039 -1.7352679 4288085770
0.97325134 2.1363707 -1.7622383 4288085770
2.4739685 2.5232301 -1.7356875 4288085770
1.1304626 2.1562014 -1.7591722 4288085770
2.730484 2.5643015 -1.7377179 4288085770
1.2997742 2.1769319 -1.7588689 4288085770
3.019104 2.6121244 -1.7421324 4288085770
1.4770355 2.197607 -1.7574065 4288085770
3.2825165 2.6501584 -1.7400134 4288085770
1.6452332 2.2143602 -1.7531102 4288085770
3.5558624 2.6871243 -1.7356913 4288085770
1.8445587 2.236865 -1.7532146 4288085770
3.8523102 2.7269101 -1.7339194 4288085770
2.0307465 2.2534852 -1.7485583 4288085770
4.1546783 2.7656622 -1.7290251 4288085770
2.226944 2.2700233 -1.7457025 4288085770
4.4590149 2.802403 -1.7230837 4288085770
2.4553375 2.2943063 -1.7472336 4288085770
4.7954102 2.8428988 -1.7185161 4288085770
2.7007446 2.3184571 -1.7504246 4288085770
5.1790009 2.8920259 -1.7190397 4288085770
2.9511414 2.3425741 -1.7525156 4288085770
5.5644531 2.936151 -1.7155063 4288085770
3.1672363 2.3549781 -1.7452471 4288085770
6.0522766 3.0014777 -1.7220089 4288085770
3.4375916 2.3769503 -1.7459319 4288085770
6.484726 3.0472598 -1.7165439 4288085770
3.688797 2.3920822 -1.7419727 4288085770
6.881897 3.0803332 -1.7027347 4288085770
3.9640198 2.4090323 -1.7385414 4288085770
7.3030853 3.1152258 -1.6894529 4288085770
4.2251282 2.4191003 -1.7313659 4288085770
7.783432 3.1576662 -1.6790183 4288085770
4.4791412 2.4262314 -1.7213204 4288085770
8.3208923 3.2076669 -1.6724718 4288085770
4.7813263 2.4389853 -1.7163351 4288085770
8.9334717 3.2651 -1.6674535 4288085770
5.1015015 2.451602 -1.7119906 4288085770
9.604126 3.3280935 -1.6642964 4288085770
5.4337006 2.4641309 -1.7074053 4288085770
10.301727 3.3878975 -1.6575902 4288085770
5.8401184 2.4860783 -1.7103746 4288085770
11.121567 3.4647689 -1.6565063 4288085770
6.2715759 2.5078382 -1.7138436 4288085770
11.94519 3.5316367 -1.6483085 4288085770
6.6828003 2.5207705 -1.7106822 4288085770
12.72049 3.5798955 -1.6310065 4288085770
6.9935455 2.5105052 -1.6924398 4288085770
13.822586 3.6766486 -1.6323617 4288085770
7.362442 2.5057898 -1.6790578 4288085770
14.903351 3.7555976 -1.6230757 4288085770
7.8186035 2.5123935 -1.6739762 4288085770
8.2746429 2.5130119 -1.6648748 4288085770
8.8158875 2.5209689 -1.6631005 4288085770
9.3620453 2.5238986 -1.6582091 4288085770
9.9291534 2.5226774 -1.6518843 4288085770
10.64563 2.5353031 -1.6566308 4288085770
11.325775 2.5332313 -1.652046 4288085770
12.102097 2.5354233 -1.6525586 4288085770
12.822067 2.5210714 -1.6431334 4288085770
13.680283 2.5146604 -1.6409795 4288085770
14.635559 2.5065179 -1.6408813 4288085770
10.889267 -5.2357502 -0.21175909 4293729569
10.886124 -5.3548388 -0.24338078 4293729569
8.657196 -5.7045889 -0.6385982 4293729569
8.7193756 -5.8322268 -0.68788552 4293729569
10.061615 -7.7923975 -1.5818603 4293729569
9.3717194 -7.5232768 -1.5896323 4293729569
8.7337036 -7.2725425 -1.5973003 4293729569
8.2044678 -7.0716443 -1.6116121 4293729569
7.6602173 -6.8536148 -1.6202872 4293729569
7.154892 -6.650877 -1.6291282 4293729569
6.6535492 -6.4421568 -1.6349113 4293729569
6.2520447 -6.2832136 -1.6495178 4293729569
5.8105469 -6.0949407 -1.65503 4293729569
5.4539185 -5.9503288 -1.6686866 4293729569
5.0843048 -5.791604 -1.677655 4293729569
4.6926727 -5.6146889 -1.6791298 4293729569
4.3749237 -5.477355 -1.6889832 4293729569
8.0749054 -7.6556525 -1.5969079 4293729569
4.0651398 -5.3380737 -1.6966846 4293729569
7.5361481 -7.3926883 -1.612643 4293729569
3.7503357 -5.1927404 -1.7005084 4293729569
6.9195404 -7.0751004 -1.6161363 4293729569
3.4445038 -5.0484695 -1.7031496 4293729569
6.4495544 -6.8396416 -1.6293962 4293729569
3.1885986 -4.9295931 -1.7116992 4293729569
6.053421 -6.6427565 -1.6490381 4293729569
2.9376678 -4.8097429 -1.7171533 4293729569
5.5613556 -6.3820863 -1.6488321 4293729569
2.7136993 -4.7031088 -1.72702 4293729569
5.1770782 -6.18226 -1.6602476 4293729569
2.4916992 -4.595479 -1.7338517 4293729569
4.8087616 -5.9865489 -1.6703293 4293729569
2.2676544 -4.4828243 -1.7377417 4293729569
4.4493408 -5.7938938 -1.6772225 4293729569
2.055603 -4.374258 -1.7413776 4293729569
4.1308136 -5.6205473 -1.6852262 4293729569
1.8925476 -4.2940917 -1.7549307 4293729569
3.8292694 -5.4553299 -1.6938612 4293729569
1.7084198 -4.1977391 -1.7599633 4293729569
3.5336304 -5.2891459 -1.6993811 4293729569
1.5393066 -4.1085038 -1.7666705 4293729569
3.2469482 -5.1270208 -1.7027075 4293729569
1.397171 -4.0334892 -1.7787859 4293729569
2.9951935 -4.9821649 -1.7082722 4293729569
1.2480011 -3.9524047 -1.7860644 4293729569
2.7483826 -4.8383417 -1.712734 4293729569
1.2058868 -3.9382129 -1.8199584 4288085770
2.5485535 -4.7218938 -1.7241561 4293729569
1.1908112 -3.940249 -1.8612525 4288085770
2.3326416 -4.5922985 -1.727948 4293729569
1.1707153 -3.9372377 -1.8996651 4288085770
2.1387329 -4.4748812 -1.7352555 4293729569
1.0455322 -3.8633416 -1.9094379 4288085770
1.9517517 -4.3585067 -1.7404206 4293729569
0.86724854 -3.7529826 -1.9004052 4288085770
1.7917633 -4.2583456 -1.7489865 4293729569
0.71795654 -3.6588628 -1.8977334 4288085770
1.6447296 -4.164288 -1.7592704 4293729569
0.56367493 -3.5596957 -1.8921802 4288085770
1.5036621 -4.0722671 -1.7674282 4293729569
0.41329956 -3.4625502 -1.8845413 4288085770
1.3695679 -3.9832973 -1.7754347 4293729569
0.28895569 -3.3796182 -1.8823297 4288085770
1.2914886 -3.9277911 -1.7961991 4293729569
0.17260742 -3.3007522 -1.8819435 4288085770
1.3044281 -3.9290404 -1.8389347 4288085770
0.073226929 -3.2310185 -1.8831847 4288085770
1.3183899 -3.9292946 -1.8806531 4288085770
1.2492828 -3.8748507 -1.900234 4288085770
1.1200867 -3.7808971 -1.9021604 4288085770
0.96681213 -3.6707268 -1.8936284 4288085770
0.83853149 -3.5747621 -1.8905437 4288085770
0.69418335 -3.4686503 -1.8798177 4288085770
0.5798645 -3.3797889 -1.8764284 4288085770
0.4715271 -3.2939713 -1.8729084 4288085770
0.38618469 -3.2213447 -1.8748796 4288085770
0.29681396 -3.1456778 -1.8739426 4288085770
0.21643066 -3.0750809 -1.8738072 4288085770
0.14102173 -3.0065207 -1.8735645 4288085770
0.068588257 -2.9389787 -1.8722589 4288085770
0.0011291504 -2.8744736 -1.8708422 4288085770
-0.0093536377 -1.2654086 -1.8557441 4288085770
0.049926758 -1.2468539 -1.8566167 4288085770
0.09312439 -1.2221596 -1.8518341 4288085770
0.15742493 -1.2026414 -1.8526089 4288085770
0.20863342 -1.1790057 -1.8476613 4288085770
0.28091431 -1.1615497 -1.8492677 4288085770
0.35417175 -1.1430939 -1.8488586 4288085770
0.41940308 -1.1225718 -1.8466175 4288085770
0.50869751 -1.1072447 -1.8488748 4288085770
0.57589722 -1.0857292 -1.8445971 4288085770
0.65209961 -1.0662844 -1.841131 4288085770
0.73233032 -1.0478721 -1.8385808 4288085770
0.83259583 -1.0316211 -1.8396194 4288085770
0.94087219 -1.0174332 -1.8414896 4288085770
1.042099 -1.0011821 -1.8405087 4288085770
1.1533508 -0.98600817 -1.8403218 4288085770
0.028900146 -0.75668073 -1.8437884 4288085770
1.2776184 -0.97193682 -1.8418696 4288085770
0.10307312 -0.738217 -1.83936 4288085770
1.401886 -0.95686197 -1.8424208 4288085770
0.18328857 -0.72180474 -1.8368022 4288085770
1.5331421 -0.94283819 -1.8428271 4288085770
0.2775116 -0.70650244 -1.8359592 4288085770
1.6563416 -0.92674077 -1.8394029 4288085770
0.38279724 -0.69329572 -1.8388865 4288085770
1.8055878 -0.91385257 -1.8404424 4288085770
0.48101807 -0.67801917 -1.8369625 4288085770
1.9588623 -0.9009937 -1.8414013 4288085770
0.58822632 -0.66281164 -1.8358576 4288085770
2.121109 -0.8871969 -1.8411834 4288085770
0.69746399 -0.64761925 -1.8347118 4288085770
2.2783203 -0.8723557 -1.8390691 4288085770
0.81668091 -0.63450372 -1.834357 4288085770
2.4615784 -0.86172044 -1.8404157 4288085770
0.95097351 -0.62150931 -1.8366992 4288085770
2.6638641 -0.85122752 -1.8423793 4288085770
1.0822144 -0.6074816 -1.8361056 4288085770
2.8711243 -0.83976758 -1.8432448 4288085770
1.223465 -0.59453464 -1.8373067 4288085770
3.0793457 -0.82730782 -1.8420951 4288085770
1.3867645 -0.5837599 -1.8410566 4288085770
3.2845306 -0.81381404 -1.8380086 4288085770
1.5289764 -0.56880546 -1.8382447 4288085770
3.5317688 -0.80364716 -1.8380644 4288085770
1.6851807 -0.55495679 -1.8361471 4288085770
3.7839966 -0.79151309 -1.8370264 4288085770
1.8654785 -0.54330277 -1.8385575 4288085770
4.0131073 -0.77617633 -1.8274639 4288085770
2.0477295 -0.53065586 -1.8389313 4288085770
4.2882843 -0.76520658 -1.8249586 4288085770
2.2460022 -0.51912975 -1.839978 4288085770
4.5754547 -0.75331306 -1.8192146 4288085770
2.4472198 -0.50561821 -1.8389723 4288085770
4.9026794 -0.74373162 -1.8176563 4288085770
2.6825409 -0.49537444 -1.8422692 4288085770
5.247879 -0.73427808 -1.8147352 4288085770
2.9037628 -0.48300874 -1.8408563 4288085770
5.6391144 -0.72717249 -1.8138778 4288085770
3.141983 -0.46976805 -1.8391035 4288085770
6.0402985 -0.71712482 -1.80883 4288085770
3.3620758 -0.45436478 -1.8297226 4288085770
6.44841 -0.70611727 -1.8006456 4288085770
3.6272888 -0.44131756 -1.8264253 4288085770
6.8614502 -0.69312716 -1.7873676 4288085770
3.9245148 -0.4295162 -1.8254783 4288085770
7.3535767 -0.68474162 -1.7794807 4288085770
4.2106781 -0.41561115 -1.8187611 4288085770
7.9368134 -0.68004906 -1.776746 4288085770
4.5389099 -0.4030323 -1.8161919 4288085770
8.5990295 -0.67694259 -1.7744143 4288085770
4.8700256 -0.38945282 -1.8075674 4288085770
9.3082581 -0.67417574 -1.7701337 4288085770
5.2723236 -0.3794347 -1.8084972 4288085770
9.9892578 -0.66615856 -1.7544372 4288085770
5.6584473 -0.36526132 -1.7997653 4288085770
10.825378 -0.66230631 -1.7436025 4288085770
6.1206818 -0.35367084 -1.7964923 4288085770
11.821579 -0.66265166 -1.7365277 4288085770
6.5657959 -0.33992922 -1.7865698 4288085770
12.922745 -0.66476524 -1.7273309 4288085770
7.069931 -0.32762289 -1.7764533 4288085770
14.072723 -0.66319978 -1.7071607 4288085770
7.6350861 -0.31477451 -1.7681086 4288085770
8.3073883 -0.30574346 -1.7665932 4288085770
9.0326233 -0.29508853 -1.7610157 4288085770
9.7587128 -0.28140664 -1.7464292 4288085770
10.608856 -0.26964688 -1.7333362 4288085770
11.60907 -0.25900865 -1.7232153 4288085770
12.832443 -0.25204301 -1.7195861 4288085770
14.099609 -0.24135756 -1.7040842 4288085770
14.926178 0.08259201 -1.69361 4288085770
13.350204 0.098885298 -1.7008893 4288085770
11.98819 0.11565447 -1.7047961 4288085770
10.834305 0.1299088 -1.7134402 4288085770
9.8905487 0.14363432 -1.7267873 4288085770
9.0728912 0.15744805 -1.7415588 4288085770
8.2740173 0.1711638 -1.7469442 4288085770
7.5821991 0.18410301 -1.7541387 4288085770
13.612259 0.17808962 -1.6867983 4288085770
6.9122772 0.19690609 -1.7558839 4288085770
12.248367 0.19985175 -1.6947701 4288085770
6.3484955 0.20892763 -1.7624581 4288085770
11.113602 0.21995091 -1.7070515 4288085770
5.8517456 0.22146106 -1.770664 4288085770
10.180939 0.23858714 -1.7221959 4288085770
5.4030151 0.23464894 -1.7788913 4288085770
9.3141632 0.25577092 -1.7319868 4288085770
4.9832306 0.2466352 -1.7855217 4288085770
8.5013275 0.27358747 -1.7366774 4288085770
4.5995178 0.25835729 -1.7934148 4288085770
7.8075562 0.29053473 -1.7449305 4288085770
4.2247009 0.27103162 -1.797128 4288085770
7.1547241 0.30620265 -1.7493412 4288085770
3.9039917 0.28329825 -1.8057353 4288085770
6.5679016 0.32139349 -1.7544005 4288085770
3.5691528 0.29569244 -1.8076308 4288085770
6.0471191 0.33710814 -1.7601125 4288085770
3.2623138 0.30788803 -1.808953 4288085770
5.5873871 0.35237646 -1.7675745 4288085770
2.9795074 0.3199048 -1.8117836 4288085770
5.1817169 0.36724567 -1.7779305 4288085770
2.7126923 0.33180785 -1.8142869 4288085770
4.7689056 0.38219285 -1.7814314 4288085770
2.4427795 0.34375286 -1.8118527 4288085770
4.4051361 0.39578009 -1.7869246 4288085770
2.1999207 0.35549355 -1.8118656 4288085770
4.0844879 0.41104126 -1.7965448 4288085770
1.9680176 0.36715984 -1.810653 4288085770
3.780777 0.42518997 -1.8038127 4288085770
1.7712708 0.37955356 -1.8147271 4288085770
3.4749451 0.43937778 -1.8051236 4288085770
1.5623779 0.39105654 -1.8130443 4288085770
3.1981812 0.45234251 -1.8098357 4288085770
1.3564301 0.40255094 -1.8083003 4288085770
2.909256 0.46542549 -1.8067958 4288085770
1.1775818 0.41482902 -1.8090069 4288085770
2.6594238 0.47921133 -1.8079603 4288085770
0.99967957 0.42611194 -1.8066895 4288085770
2.4125519 0.49198365 -1.80706 4288085770
0.83482361 0.43829846 -1.8051097 4288085770
2.188736 0.50558448 -1.8076918 4288085770
0.68196106 0.44939566 -1.80428 4288085770
1.9708405 0.51815128 -1.8061979 4288085770
0.54417419 0.46137428 -1.8061469 4288085770
1.7810669 0.53149843 -1.8091333 4288085770
0.41236877 0.47330999 -1.8078907 4288085770
1.5982666 0.54480028 -1.8109257 4288085770
0.2906189 0.48616624 -1.8114331 4288085770
1.3942871 0.55730653 -1.8041599 4288085770
0.16978455 0.4980464 -1.8119662 4288085770
1.2133636 0.56961417 -1.8009098 4288085770
0.043914795 0.50995159 -1.8105886 4288085770
1.0424805 0.58184719 -1.7984536 4288085770
0.90071106 0.59584928 -1.8014104 4288085770
0.75886536 0.60886812 -1.8003647 4288085770
0.60896301 0.62095165 -1.7974794 4288085770
0.48213196 0.63386011 -1.7971256 4288085770
0.35629272 0.64676142 -1.7967517 4288085770
0.24954224 0.66051102 -1.7999923 4288085770
0.13569641 0.67333102 -1.7983725 4288085770
0.034896851 0.68604636 -1.7994864 4288085770
0.077789307 2.898818 -1.7417114 4288085770
0.18713379 2.9430594 -1.7366536 4288085770
0.31764221 2.9951272 -1.7371957 4288085770
0.44004822 3.0422688 -1.7338822 4288085770
0.59472656 3.1041508 -1.7379706 4288085770
0.75538635 3.1659908 -1.7419364 4288085770
0.88871765 3.2130675 -1.7353976 4288085770
1.041214 3.2679901 -1.7335002 4288085770
-0.0020141602 2.8133636 -1.7419798 4288085770
1.2178497 3.332726 -1.7351496 4288085770
0.12747192 2.8564348 -1.7435052 4288085770
1.3914032 3.3924971 -1.7338407 4288085770
0.25590515 2.8975215 -1.7430437 4288085770
1.5820465 3.4581351 -1.7352059 4288085770
0.38627625 2.9365993 -1.7415326 4288085770
1.7625275 3.5178695 -1.7307537 4288085770
0.52067566 2.9776483 -1.739948 4288085770
1.9641418 3.5844388 -1.7298982 4288085770
0.65905762 3.0176744 -1.7372768 4288085770
2.1646576 3.6480284 -1.7260506 4288085770
0.81454468 3.0635591 -1.73928 4288085770
2.3862915 3.7194576 -1.7248042 4288085770
0.98916626 3.116302 -1.7429206 4288085770
2.599823 3.7829566 -1.72069 4288085770
1.147583 3.1601787 -1.7418544 4288085770
2.8747253 3.8719835 -1.725426 4288085770
1.3079681 3.2020497 -1.7387393 4288085770
3.1495209 3.9580231 -1.7271507 4288085770
1.4924774 3.2517357 -1.7391632 4288085770
3.4575043 4.0538144 -1.7322371 4288085770
1.6648712 3.2945185 -1.7368057 4288085770
3.8519592 4.1839414 -1.7496965 4288085770
1.8684387 3.3480625 -1.7388542 4288085770
4.0640717 4.2315078 -1.73154 4288085770
2.0639191 3.3956809 -1.7370436 4288085770
4.316391 4.2917714 -1.7176135 4288085770
2.2411346 3.4324541 -1.7285597 4288085770
4.6078949 4.3667407 -1.7079456 4288085770
2.4476013 3.4789906 -1.7275188 4288085770
4.9204559 4.4455576 -1.6988623 4288085770
2.6670685 3.52844 -1.7252233 4288085770
5.2489929 4.5262618 -1.6894581 4288085770
2.903595 3.5807614 -1.7245901 4288085770
5.7032776 4.654007 -1.6966774 4288085770
3.160202 3.6389337 -1.7255695 4288085770
6.2056732 4.7954063 -1.7049668 4288085770
3.4117126 3.6911507 -1.7246282 4288085770
6.6867828 4.92099 -1.7056239 4288085770
3.6893005 3.7501764 -1.7251799 4288085770
7.1647797 5.0396099 -1.7023146 4288085770
4.0232086 3.8257704 -1.7336485 4288085770
7.6205139 5.143415 -1.6923974 4288085770
4.2312469 3.8523536 -1.718487 4288085770
8.0429535 5.2284875 -1.6750829 4288085770
4.4865112 3.8915777 -1.7094109 4288085770
8.5818787 5.3496971 -1.6665323 4288085770
4.7678375 3.935606 -1.702821 4288085770
9.1870422 5.4904189 -1.6627061 4288085770
5.0753021 3.9864392 -1.698724 4288085770
9.8161316 5.6309853 -1.6553872 4288085770
5.3907318 4.037221 -1.6934626 4288085770
10.507339 5.7851086 -1.6488502 4288085770
5.7965851 4.1133156 -1.699455 4288085770
11.232574 5.9409924 -1.6416223 4288085770
6.185257 4.1775556 -1.6997488 4288085770
12.012848 6.1054916 -1.6333005 4288085770
6.5828552 4.2407403 -1.6978538 4288085770
12.950607 6.311841 -1.6329253 4288085770
6.9593048 4.2910914 -1.6923378 4288085770
13.89418 6.5101786 -1.6253946 4288085770
7.3587646 4.3432808 -1.6863568 4288085770
14.89978 6.7130833 -1.6166103 4288085770
7.7571259 4.3904862 -1.6783764 4288085770
8.1564484 4.4336896 -1.669359 4288085770
8.6490784 4.4972014 -1.6675141 4288085770
9.2551727 4.5908651 -1.67647 4288085770
9.809845 4.6579394 -1.6743662 4288085770
10.325272 4.708313 -1.6669958 4288085770
10.898804 4.7652683 -1.6614602 4288085770
11.421066 4.8016114 -1.6498883 4288085770
12.0466 4.8581977 -1.6442831 4288085770
12.707153 4.9145355 -1.6389582 4288085770
13.420776 4.9754901 -1.6355631 4288085770
14.296829 5.0652561 -1.6409576 4288085770
14.784897 -4.8460646 -1.5983069 4293729569
14.153427 -4.8116608 -1.6134269 4293729569
13.492966 -4.7660413 -1.6261895 4293729569
12.801498 -4.7011781 -1.6326711 4293729569
12.161057 -4.63868 -1.640094 4293729569
11.507614 -4.5640745 -1.6438363 4293729569
10.894165 -4.4937572 -1.6487381 4293729569
10.342728 -4.4328899 -1.6563265 4293729569
9.8743134 -4.3886309 -1.6691391 4293729569
9.3908844 -4.3352509 -1.6782992 4293729569
8.9174805 -4.2769423 -1.6872742 4293729569
8.4510193 -4.2146692 -1.6931226 4293729569
8.0365906 -4.1637812 -1.7028544 4293729569
7.7142334 -4.1375847 -1.7225912 4293729569
9.1989136 -4.6810989 -1.2406425 4293729569
7.4078522 -4.1135044 -1.7429903 4293729569
9.1687622 -4.760148 -1.3039322 4293729569
7.1334839 -4.0956554 -1.7647059 4293729569
6.9051208 -4.0901532 -1.7914231 4288085770
9.1455078 -4.9265218 -1.4337151 4293729569
6.6607819 -4.0755272 -1.8155086 4288085770
10.212112 -5.4047775 -1.6067784 4293729569
6.4104156 -4.055851 -1.8377383 4288085770
9.669281 -5.2940264 -1.6274073 4293729569
6.0900269 -4.0036283 -1.8475444 4288085770
9.1134338 -5.1701598 -1.6423595 4293729569
5.7205811 -3.9310226 -1.8484447 4288085770
8.5865631 -5.0504951 -1.6566985 4293729569
5.4151764 -3.8769011 -1.8569505 4288085770
8.0526428 -4.9187574 -1.6652329 4293729569
5.0937195 -3.8126426 -1.8598297 4288085770
7.541687 -4.7911806 -1.6732781 4293729569
4.7612305 -3.7382872 -1.8579776 4288085770
7.081665 -4.6769629 -1.6812193 4293729569
4.5038147 -3.691509 -1.8674667 4288085770
6.6666412 -4.5740805 -1.6931884 4293729569
4.2293396 -3.6325874 -1.8713577 4288085770
6.298584 -4.4865422 -1.7081268 4293729569
3.925827 -3.5584307 -1.8679092 4288085770
5.9104919 -4.3838348 -1.7165411 4293729569
3.6413269 -3.4884148 -1.8660529 4288085770
5.5123749 -4.2740426 -1.7211912 4293729569
3.3838501 -3.4255998 -1.8666112 4288085770
5.1511993 -4.173512 -1.7260425 4293729569
3.1613617 -3.3750541 -1.8723986 4288085770
4.8330536 -4.0883112 -1.7369454 4293729569
2.9348755 -3.319468 -1.8752897 4288085770
4.5258789 -4.0021734 -1.7446263 4293729569
2.6893311 -3.2527204 -1.8716185 4288085770
4.3477325 -3.9700315 -1.7724278 4293729569
2.4908447 -3.2033424 -1.8769081 4288085770
4.216629 -3.9562514 -1.8071854 4288085770
2.2602692 -3.1366951 -1.8719289 4288085770
4.101532 -3.9485948 -1.844588 4288085770
2.054718 -3.0782435 -1.8714015 4288085770
3.9173737 -3.9053907 -1.8675597 4288085770
1.8571777 -3.0208478 -1.8707049 4288085770
3.6210785 -3.8092971 -1.8670585 4288085770
1.679657 -2.9706085 -1.8735673 4288085770
3.3337555 -3.7122626 -1.8653767 4288085770
1.4900818 -2.9122601 -1.8707111 4288085770
3.102478 -3.6386557 -1.8714449 4288085770
1.3074951 -2.854965 -1.8687065 4288085770
2.8701477 -3.5620337 -1.8755467 4288085770
1.1459351 -2.8048286 -1.8692405 4288085770
2.6438141 -3.4844499 -1.8785298 4288085770
0.97131348 -2.7465811 -1.8650763 4288085770
2.3963928 -3.3946857 -1.8739965 4288085770
0.80371094 -2.6893823 -1.8607633 4288085770
2.1819763 -3.3171725 -1.8737338 4288085770
0.66514587 -2.643415 -1.862807 4288085770
1.9885712 -3.2478185 -1.876004 4288085770
0.52754211 -2.597446 -1.8628304 4288085770
1.7751007 -3.1662912 -1.8707387 4288085770
0.38093567 -2.5433981 -1.8590734 4288085770
1.5926819 -3.0970099 -1.8717835 4288085770
0.2673645 -2.5056179 -1.8635681 4288085770
1.4232178 -3.0328188 -1.8725398 4288085770
0.1287384 -2.4526258 -1.8596423 4288085770
1.2397156 -2.9595094 -1.8686235 4288085770
0.010116577 -2.4087894 -1.8592665 4288085770
1.0722198 -2.8913195 -1.8663561 4288085770
0.91070557 -2.8251719 -1.8639572 4288085770
0.7722168 -2.7682056 -1.8660467 4288085770
0.6186676 -2.7011051 -1.8614876 4288085770
0.49319458 -2.6482337 -1.8642924 4288085770
0.35862732 -2.5882783 -1.862313 4288085770
0.24612427 -2.5384972 -1.8648384 4288085770
0.12754822 -2.4846575 -1.8635042 4288085770
0.0039520264 -2.4257703 -1.8592951 4288085770
0.083480835 -0.22535038 -1.8218796 4288085770
0.18870544 -0.21308923 -1.8217628 4288085770
0.29792786 -0.20085597 -1.821563 4288085770
0.41009521 -0.18963861 -1.8202975 4288085770
0.51423645 -0.17634916 -1.8152063 4288085770
0.63743591 -0.16521239 -1.8147132 4288085770
0.77165222 -0.15415549 -1.8149931 4288085770
0.91993713 -0.1432085 -1.8179839 4288085770
1.0711975 -0.13227367 -1.8189123 4288085770
1.215332 -0.12126851 -1.8149865 4288085770
0.16485596 -0.031932592 -1.8200176 4288085770
1.3825836 -0.11044836 -1.8165848 4288085770
0.28504944 -0.021775007 -1.8195827 4288085770
1.5588379 -0.10068989 -1.8179924 4288085770
0.3911438 -0.010493994 -1.8134415 4288085770
1.7481079 -0.090025902 -1.8201363 4288085770
0.54249573 -0.00058054924 -1.8193648 4288085770
1.94133 -0.079376221 -1.8191979 4288085770
0.66256714 0.0096030235 -1.8129308 4288085770
2.1526031 -0.069868326 -1.821883 4288085770
0.81584167 0.018516064 -1.8158095 4288085770
2.3618011 -0.059324503 -1.8196142 4288085770
0.98513794 0.028314114 -1.8193614 4288085770
2.605072 -0.050037146 -1.8216388 4288085770
1.1382904 0.038253069 -1.8162453 4288085770
2.8553162 -0.039789677 -1.821523 4288085770
1.3175201 0.046990871 -1.8175871 4288085770
3.1024933 -0.029508114 -1.8184698 4288085770
1.511795 0.055616617 -1.8206189 4288085770
3.3746796 -0.020403624 -1.8158958 4288085770
1.6989899 0.065312624 -1.8187997 4288085770
3.6769104 -0.010518551 -1.8157065 4288085770
1.9082489 0.073839188 -1.8205221 4288085770
3.9760742 -0.00059127808 -1.8105795 4288085770
2.1405334 0.082198381 -1.8237689 4288085770
4.2931976 0.0092163086 -1.8040812 4288085770
2.3667297 0.091621161 -1.8221447 4288085770
4.649353 0.018742085 -1.7997777 4288085770
2.6119232 0.099908352 -1.8211238 4288085770
5.0104523 0.028250217 -1.7913711 4288085770
2.8761444 0.10806036 -1.8207104 4288085770
5.4306488 0.037325621 -1.7877452 4288085770
3.1363068 0.11725712 -1.8163841 4288085770
5.8597412 0.046360493 -1.7789342 4288085770
3.4295044 0.12521338 -1.8143718 4288085770
6.3258362 0.055140257 -1.7693594 4288085770
3.742691 0.13303185 -1.8119466 4288085770
6.8539581 0.062475204 -1.7624996 4288085770
4.0708771 0.14076257 -1.8092263 4288085770
7.4762573 0.070142269 -1.7617157 4288085770
4.4129791 0.14739823 -1.8021977 4288085770
8.1213837 0.077669621 -1.7524426 4288085770
4.7931061 0.15475917 -1.7973883 4288085770
8.8746033 0.083426237 -1.7469347 4288085770
5.1791534 0.16210079 -1.7874563 4288085770
9.6827393 0.08981657 -1.7372954 4288085770
5.6193085 0.1680479 -1.7814028 4288085770
10.547806 0.095831394 -1.7224791 4288085770
6.0964508 0.17373538 -1.7755854 4288085770
11.579987 0.10065937 -1.7122133 4288085770
6.6035156 0.17922974 -1.7661493 4288085770
12.886383 0.10353589 -1.7102869 4288085770
7.2298126 0.18385053 -1.7662528 4288085770
14.214508 0.106318 -1.6949084 4288085770
7.858902 0.18649054 -1.7572882 4288085770
8.582077 0.18946505 -1.750385 4288085770
9.4273071 0.19257617 -1.7459657 4288085770
10.309372 0.19346285 -1.7337754 4288085770
11.247345 0.19398594 -1.7154286 4288085770
12.514709 0.19213486 -1.7142837 4288085770
13.854843 0.18882942 -1.700628 4288085770
13.667084 0.52374268 -1.6883357 4288085770
12.373199 0.55049062 -1.6954334 4288085770
11.270401 0.57493758 -1.7035367 4288085770
10.377792 0.59992123 -1.7202609 4288085770
9.5610809 0.62241316 -1.7313907 4288085770
8.7411499 0.64197397 -1.7315733 4288085770
8.0593872 0.66156626 -1.7388766 4288085770
7.4265289 0.68084383 -1.7421572 4288085770
13.383057 0.92379713 -1.6669562 4288085770
6.8807678 0.69951677 -1.7486207 4288085770
12.208206 0.93671894 -1.6775162 4288085770
6.3729706 0.71793938 -1.7532904 4288085770
11.174316 0.94969702 -1.6851351 4288085770
5.9102173 0.73605204 -1.7590196 4288085770
10.364716 0.9671092 -1.7030981 4288085770
5.4954681 0.75383854 -1.7647469 4288085770
9.5127716 0.97887349 -1.7059171 4288085770
5.1117401 0.77141356 -1.7708261 4288085770
8.8491058 0.99531698 -1.7188313 4288085770
4.7800751 0.78962255 -1.7798231 4288085770
8.2013397 1.0086713 -1.7274001 4288085770
4.4463501 0.80685759 -1.7858589 4288085770
7.585434 1.0218332 -1.7303026 4288085770
4.1416016 0.82390356 -1.7902887 4288085770
7.0686798 1.0363019 -1.7381437 4288085770
3.8829956 0.84261012 -1.8007648 4288085770
6.6119995 1.0523558 -1.7477396 4288085770
3.6041718 0.85849047 -1.8026488 4288085770
6.1702271 1.067322 -1.754019 4288085770
3.3634949 0.87609029 -1.8097456 4288085770
5.7072296 1.0774736 -1.7507184 4288085770
3.1579132 0.89543748 -1.8201191 4288085770
5.3304443 1.0920045 -1.7556403 4288085770
2.88591 0.90830588 -1.8138463 4288085770
4.9957275 1.1072416 -1.7626884 4288085770
2.6490326 0.92191815 -1.8118451 4288085770
4.690033 1.1242802 -1.7701399 4288085770
2.4270935 0.93643498 -1.8085353 4288085770
4.3842163 1.1383402 -1.7725794 4288085770
2.2413635 0.95167446 -1.8124759 4288085770
4.118515 1.1541116 -1.7791903 4288085770
2.0404205 0.96605039 -1.808728 4288085770
3.8718414 1.1717505 -1.7864139 4288085770
1.876709 0.98213863 -1.8132136 4288085770
3.6260681 1.1863964 -1.7906039 4288085770
1.7058411 0.99730039 -1.8118427 4288085770
3.3822479 1.2010415 -1.7917531 4288085770
1.52388 1.0095575 -1.8056896 4288085770
3.1845551 1.2183526 -1.7979529 4288085770
1.3740692 1.024565 -1.8068793 4288085770
2.9607086 1.2318687 -1.7976801 4288085770
1.2161255 1.0376525 -1.8022292 4288085770
2.7307281 1.2424469 -1.7925217 4288085770
1.08638 1.0535216 -1.8040049 4288085770
2.5449219 1.2576947 -1.7944634 4288085770
0.93437195 1.065578 -1.7972262 4288085770
2.3620911 1.2719321 -1.7943389 4288085770
0.8196106 1.0813425 -1.7996886 4288085770
2.1862183 1.2861269 -1.7930682 4288085770
0.69372559 1.0952067 -1.7963736 4288085770
2.020401 1.3002503 -1.7925885 4288085770
0.58087158 1.1099761 -1.7947915 4288085770
1.852478 1.3134003 -1.7891471 4288085770
0.47303772 1.124707 -1.7941043 4288085770
1.7156982 1.3293159 -1.7910702 4288085770
0.38131714 1.1413128 -1.7970903 4288085770
1.5788879 1.3452408 -1.7909925 4288085770
0.27241516 1.1550632 -1.7934206 4288085770
1.4390259 1.359195 -1.7889702 4288085770
0.18362427 1.171658 -1.7943451 4288085770
1.317215 1.3750143 -1.7895801 4288085770
0.10188293 1.1882017 -1.7961228 4288085770
1.2084656 1.3937385 -1.79193 4288085770
0.016052246 1.2037854 -1.7949808 4288085770
1.0926514 1.4085224 -1.7914102 4288085770
0.98483276 1.4252534 -1.7907317 4288085770
0.8588562 1.4371312 -1.7844098 4288085770
0.78321838 1.4576168 -1.7900784 4288085770
0.68032837 1.4723225 -1.7872875 4288085770
0.585495 1.4889705 -1.7853377 4288085770
0.47145081 1.4987814 -1.7757576 4288085770
0.39567566 1.5172887 -1.7764189 4288085770
0.33297729 1.5386963 -1.7798207 4288085770
0.25517273 1.5552263 -1.7785156 4288085770
0.19544983 1.5756185 -1.7808506 4288085770
0.12966919 1.594063 -1.7803032 4288085770
0.060806274 1.6115375 -1.7778151 4288085770
-0.0029907227 1.6299732 -1.7762258 4288085770
0.034088135 3.3288264 -1.7378471 4288085770
0.11767578 3.396256 -1.7393959 4288085770
0.20428467 3.4656706 -1.7398913 4288085770
0.27468872 3.5252185 -1.7346795 4288085770
0.36323547 3.5926285 -1.733124 4288085770
0.47096252 3.6718946 -1.7352216 4288085770
0.57255554 3.7472186 -1.7334282 4288085770
0.67918396 3.8235044 -1.7325342 4288085770
0.79180908 3.9027557 -1.7305276 4288085770
0.90638733 3.980998 -1.7274754 4288085770
1.03508 4.0681372 -1.7261679 4288085770
1.171814 4.1582203 -1.7257049 4288085770
0.035903931 3.5377612 -1.7457092 4288085770
1.3377686 4.2650871 -1.7297065 4288085770
0.12832642 3.596159 -1.7410319 4288085770
1.4935303 4.364048 -1.727885 4288085770
0.23887634 3.6654234 -1.7390239 4288085770
1.6865845 4.4847269 -1.733381 4288085770
0.35346985 3.7356567 -1.7379363 4288085770
1.886673 4.6073642 -1.7377388 4288085770
0.48210144 3.8127928 -1.7375858 4288085770
2.0937042 4.7329636 -1.7399633 4288085770
0.61882019 3.8928671 -1.7390792 4288085770
2.3279266 4.8733654 -1.7456853 4288085770
0.74230957 3.9630589 -1.733804 4288085770
2.6235962 5.0483136 -1.7612779 4288085770
0.89807129 4.0520024 -1.7359378 4288085770
2.8939667 5.2064686 -1.7683227 4282675967
1.0406647 4.1300592 -1.7322981 4288085770
3.0502625 5.2915039 -1.7484229 4288085770
1.2064514 4.2209411 -1.7332313 4288085770
3.3123932 5.4387479 -1.7475893 4288085770
1.4004211 4.3276143 -1.7386453 4288085770
3.6056671 5.6017756 -1.7481749 4288085770
1.5680542 4.414505 -1.7345202 4288085770
3.8121796 5.7094669 -1.730325 4288085770
1.7598877 4.514215 -1.7349474 4288085770
4.0478363 5.8309469 -1.7159269 4288085770
1.9597321 4.6168761 -1.7342193 4288085770
4.3176422 5.9701958 -1.7018936 4288085770
2.1917572 4.7352972 -1.7388885 4288085770
4.660965 6.1509085 -1.698509 4288085770
2.5074768 4.902091 -1.7590253 4288085770
5.0625763 6.3612108 -1.6990364 4288085770
2.8079224 5.0560265 -1.7704227 4282675967
5.5093994 6.594202 -1.701719 4288085770
2.9983673 5.1398044 -1.7568038 4288085770
5.9621277 6.8251657 -1.701268 4288085770
3.2411346 5.2511988 -1.7512138 4288085770
6.3703918 7.0254879 -1.687608 4288085770
3.6512146 5.4583473 -1.7745554 4282675967
6.892334 7.2859898 -1.6868393 4288085770
3.8535004 5.5390706 -1.7556732 4282675967
7.3949585 7.529664 -1.6763971 4288085770
4.1081238 5.6464171 -1.7428157 4288085770
7.993042 7.820673 -1.6721694 4288085770
4.3012085 5.7142277 -1.7180665 4288085770
8.6261749 8.1254625 -1.6642678 4288085770
4.5808716 5.8284035 -1.7057149 4288085770
4.9048157 5.9642611 -1.6985338 4288085770
5.3142548 6.1415062 -1.7007496 4288085770
5.7487488 6.3295841 -1.7024887 4288085770
6.1669922 6.4998016 -1.6974871 4288085770
6.6082916 6.6778622 -1.6930373 4288085770
7.086731 6.8706684 -1.6898754 4288085770
7.5861359 7.0663433 -1.6842868 4288085770
8.1206512 7.2747774 -1.6800201 4288085770
8.6549988 7.4752417 -1.6697195 4288085770
9.2677002 7.7071552 -1.6649201 4288085770
9.9214935 7.9527979 -1.6593211 4288085770
14.571091 -2.495723 -1.7519877 4288085770
13.802216 -2.4996362 -1.7630818 4288085770
12.923187 -2.4767523 -1.7596004 4288085770
12.13623 -2.4594963 -1.7591665 4288085770
11.428314 -2.4437828 -1.7620699 4288085770
10.801453 -2.4326208 -1.7672546 4288085770
10.251709 -2.4279962 -1.7777965 4288085770
9.6949005 -2.4143043 -1.7835252 4288085770
9.2091675 -2.4081109 -1.7947323 4288085770
8.7484436 -2.3990779 -1.8044279 4288085770
8.2436218 -2.3777211 -1.807101 4288085770
14.664368 -3.6883159 -1.747679 4288085770
7.7467651 -2.3503997 -1.8056328 4288085770
13.741089 -3.6042118 -1.7614028 4288085770
7.3480377 -2.3377759 -1.8140457 4288085770
12.768707 -3.50073 -1.7632411 4288085770
6.9793701 -2.3263626 -1.8248227 4288085770
11.897308 -3.40593 -1.7669241 4288085770
6.6176453 -2.312983 -1.832463 4288085770
11.066849 -3.3123922 -1.7677429 4288085770
6.2589111 -2.2936146 -1.8380668 4288085770
10.393448 -3.2439394 -1.7771614 4288085770
5.9272308 -2.2784414 -1.8470857 4288085770
9.7440186 -3.1736405 -1.785084 4288085770
5.5734558 -2.2530847 -1.8476121 4288085770
9.1766357 -3.1139028 -1.7962425 4288085770
5.2186279 -2.2227128 -1.8461812 4288085770
8.6261902 -3.052269 -1.805053 4288085770
4.8257294 -2.1790481 -1.8356063 4288085770
8.1287689 -2.9979968 -1.8157203 4288085770
4.5209656 -2.1540227 -1.8371041 4288085770
7.6673431 -2.9479706 -1.8276145 4288085770
4.2321777 -2.128103 -1.8382704 4288085770
7.2479095 -2.9022248 -1.8396099 4288085770
3.9644623 -2.1053352 -1.8419821 4288085770
6.8074341 -2.8463151 -1.8460906 4288085770
3.7438354 -2.0909114 -1.8526709 4288085770
6.4089661 -2.7956951 -1.8546679 4288085770
3.4880829 -2.0642095 -1.8531492 4288085770
6.0043945 -2.7400095 -1.8573945 4288085770
3.2312927 -2.0354924 -1.8516572 4288085770
5.605835 -2.6813595 -1.8590076 4288085770
2.9975433 -2.0089397 -1.8526733 4288085770
5.1891479 -2.6125522 -1.8520439 4288085770
2.7778015 -1.9844838 -1.854387 4288085770
4.8125 -2.5510252 -1.8482101 4288085770
2.5349884 -1.9498465 -1.8496282 4288085770
4.4638367 -2.4926872 -1.8447754 4288085770
2.3332367 -1.9245089 -1.8509686 4288085770
4.1692657 -2.446739 -1.8481534 4288085770
2.1274567 -1.8961325 -1.849406 4288085770
3.8846893 -2.400861 -1.8523214 4288085770
1.9316864 -1.868826 -1.8486292 4288085770
3.5789795 -2.3458014 -1.8469722 4288085770
1.7338715 -1.8374938 -1.8449128 4288085770
3.3163605 -2.3000598 -1.8486788 4288085770
1.5842133 -1.8205292 -1.8521254 4288085770
3.0677338 -2.2564101 -1.8500831 4288085770
1.3903656 -1.7862105 -1.8453386 4288085770
2.8341064 -2.2148635 -1.8521645 4288085770
1.2346344 -1.7631851 -1.8477051 4288085770
2.5974426 -2.1692843 -1.8513262 4288085770
1.0708771 -1.7350895 -1.8462613 4288085770
2.3557281 -2.1196549 -1.8466122 4288085770
0.92214966 -1.7101104 -1.8484886 4288085770
2.1580963 -2.0823541 -1.8499196 4288085770
0.78744507 -1.6882275 -1.8514092 4288085770
1.9423828 -2.0369043 -1.8466418 4288085770
0.64167786 -1.6612554 -1.8505833 4288085770
1.7507019 -1.9966254 -1.8458369 4288085770
0.51896667 -1.640456 -1.8542478 4288085770
1.5750732 -1.9604697 -1.8486788 4288085770
0.38720703 -1.6155801 -1.8541186 4288085770
1.3943481 -1.920259 -1.8466442 4288085770
0.27349854 -1.5948399 -1.8575943 4288085770
1.2386932 -1.8872343 -1.8490531 4288085770
0.14073181 -1.5659446 -1.8545043 4288085770
1.0659637 -1.8470719 -1.8458507 4288085770
0.91027832 -1.8100345 -1.8452775 4288085770
0.77462769 -1.7791462 -1.8482583 4288085770
0.63192749 -1.7431941 -1.8474081 4288085770
0.50427246 -1.7123582 -1.8502204 4288085770
0.36550903 -1.6754197 -1.8462918 4288085770
0.24282837 -1.6436081 -1.8470037 4288085770
0.13214111 -1.6148839 -1.8494513 4288085770
0.11169434 0.41129375 -1.8017156 4288085770
0.23594666 0.42346144 -1.8041608 4288085770
0.35313416 0.43569708 -1.8017533 4288085770
0.48233032 0.44684601 -1.8010895 4288085770
0.61152649 0.45899892 -1.7994297 4288085770
0.75372314 0.47106361 -1.7984965 4288085770
0.89691162 0.48312616 -1.7965429 4288085770
-0.003112793 0.48002744 -1.8044212 4288085770
1.062149 0.49502778 -1.7981255 4288085770
0.11911011 0.48921752 -1.8048956 4288085770
1.2414703 0.5078299 -1.8014181 4288085770
0.25334167 0.49932551 -1.8061216 4288085770
1.4317932 0.52056074 -1.8044789 4288085770
0.37345886 0.50854611 -1.8026392 4288085770
1.6421356 0.53314853 -1.8101189 4288085770
0.5146637 0.51761293 -1.8027141 4288085770
1.8302917 0.54492354 -1.8062193 4288085770
0.65283203 0.52670813 -1.8008525 4288085770
2.026474 0.55664229 -1.8031514 4288085770
0.79797363 0.53576207 -1.7978437 4288085770
2.2738495 0.56998539 -1.8090174 4288085770
0.96421814 0.54465818 -1.7993925 4288085770
2.5170898 0.58238101 -1.808965 4288085770
1.160614 0.55432892 -1.8073137 4288085770
2.7713928 0.59469724 -1.8106806 4288085770
1.3327942 0.56319904 -1.8057373 4288085770
3.0627289 0.60775948 -1.8146222 4288085770
1.5501556 0.57273746 -1.8122165 4288085770
3.3228607 0.61906767 -1.8092091 4288085770
1.756424 0.58136535 -1.814924 4288085770
3.5969849 0.63028932 -1.8025014 4288085770
1.9555664 0.58906507 -1.8117759 4288085770
3.8961029 0.64234424 -1.7962725 4288085770
2.1828156 0.59756136 -1.8130424 4288085770
4.2032013 0.65235233 -1.7888672 4288085770
2.430069 0.60592365 -1.8148878 4288085770
4.5392761 0.66417623 -1.7798612 4288085770
2.6692505 0.61235499 -1.8128941 4288085770
4.9144135 0.67472982 -1.7740304 4288085770
2.9505157 0.62049222 -1.8150251 4288085770
5.3095398 0.68616199 -1.7657835 4288085770
3.2558441 0.62846494 -1.8186505 4288085770
5.7386627 0.69736981 -1.7578218 4288085770
3.4907227 0.63198042 -1.8037312 4288085770
6.2077637 0.70831752 -1.7490194 4288085770
3.796875 0.63797784 -1.8003285 4288085770
6.7459869 0.72079611 -1.7437732 4288085770
4.1239929 0.64284348 -1.795481 4288085770
7.3321838 0.73296332 -1.737519 4288085770
4.4530029 0.64671421 -1.786588 4288085770
7.9773865 0.74474335 -1.7310231 4288085770
4.8210907 0.65031886 -1.7798746 4288085770
8.6955872 0.7570498 -1.7229979 4288085770
5.2121429 0.65277863 -1.771673 4288085770
9.5409393 0.77049685 -1.7203095 4288085770
5.6231689 0.65511322 -1.7620518 4288085770
10.409073 0.78183484 -1.7081311 4288085770
6.1063385 0.65695024 -1.7579148 4288085770
11.343109 0.79276276 -1.6905658 4288085770
6.612381 0.65765572 -1.7492917 4288085770
12.510406 0.80611777 -1.6821172 4288085770
7.193573 0.65884399 -1.7460945 4288085770
13.846725 0.82036734 -1.6721237 4288085770
7.8267059 0.65870428 -1.7398002 4288085770
8.5128174 0.65722108 -1.7323878 4288085770
9.3651428 0.65560794 -1.7334869 4288085770
10.203201 0.65013957 -1.7228658 4288085770
11.052032 0.64064026 -1.7029989 4288085770
12.157196 0.63140082 -1.6957548 4288085770
13.447418 0.62094021 -1.6896207 4288085770
8.9408112 -5.6131058 -1.160202 4293729569
8.7642517 -5.434 -1.1716862 4293729569
8.864502 -5.3677797 -1.2028809 4293729569
8.8927612 -5.2710638 -1.2277153 4293729569
8.9369354 -5.1814451 -1.2511845 4293729569
9.0570831 -5.1203442 -1.2799385 4293729569
9.3624573 -5.003408 -0.58388305 4293729569
9.0080872 -4.7671156 -0.58834291 4293729569
9.2164612 -4.852623 -1.3407764 4293729569
10.879822 -5.3166313 -0.66872525 4293729569
9.1975555 -4.7345414 -1.3516893 4293729569
10.922974 -5.2099767 -0.68528819 4293729569
9.3985748 -4.6939664 -1.3806577 4293729569
9.3796082 -4.5778718 -1.3885624 4293729569
9.4655914 -4.495492 -1.4041214 4293729569
11.662735 -5.0896378 -1.6085155 4293729569
11.727783 -4.9811063 -1.6206262 4293729569
11.806854 -4.8756633 -1.6324298 4293729569
11.810837 -4.7486935 -1.6348989 4293729569
11.833786 -4.6278505 -1.637944 4293729569
11.887695 -4.5142083 -1.6413081 4293729569
12.038651 -4.4272308 -1.6525233 4293729569
12.334625 -4.3802452 -1.6755269 4293729569
12.917709 -4.4002209 -1.7212241 4293729569
13.436783 -4.3977518 -1.76036 4288085770
13.721725 -4.328661 -1.7756884 4288085770
13.730469 -4.1936669 -1.7650893 4288085770
13.834259 -4.0773144 -1.7604172 4288085770
14.001053 -3.9743867 -1.7593663 4288085770
14.206863 -3.8787208 -1.7604663 4288085770
14.394608 -3.7769186 -1.7569711 4288085770
14.583313 -3.6731138 -1.7514632 4288085770
14.824036 -3.5766587 -1.7488339 4288085770
14.84407 1.0379477 -1.6763036 4288085770
13.475891 1.0696907 -1.6680491 4288085770
12.394028 1.1045666 -1.6708224 4288085770
11.507294 1.1391795 -1.6785152 4288085770
10.678497 1.1714365 -1.6829851 4288085770
9.9727936 1.2038994 -1.6898825 4288085770
9.3431091 1.2358727 -1.6981876 4288085770
8.7734528 1.2664695 -1.7052319 4288085770
8.1484375 1.2884657 -1.7003939 4288085770
7.6847992 1.3183839 -1.7082179 4288085770
14.1772 1.9054966 -1.6179254 4288085770
7.25914 1.3480589 -1.7162464 4288085770
13.126144 1.91117 -1.620929 4288085770
6.8695068 1.376508 -1.7235167 4288085770
12.283401 1.9274836 -1.6326239 4288085770
6.5128937 1.4067414 -1.7321036 4288085770
11.492554 1.9404826 -1.640218 4288085770
6.1802216 1.4338324 -1.7381761 4288085770
10.791718 1.9539165 -1.645931 4288085770
5.8123474 1.4561808 -1.7359626 4288085770
10.10881 1.9652467 -1.6492603 4288085770
5.4795227 1.4782965 -1.7360156 4288085770
9.5259552 1.9809351 -1.6535151 4288085770
5.1837616 1.5031672 -1.7383058 4288085770
8.9791565 1.9963899 -1.6590154 4288085770
4.9441528 1.531662 -1.7454383 4288085770
8.3990173 2.0011058 -1.6521642 4288085770
4.6954193 1.557229 -1.7487481 4288085770
7.9542084 2.0179162 -1.6565373 4288085770
4.4536438 1.5807612 -1.749903 4288085770
7.5855713 2.0422235 -1.6653502 4288085770
4.2520142 1.608017 -1.7562354 4288085770
7.246933 2.0663395 -1.674535 4288085770
4.0653839 1.6361778 -1.7622578 4288085770
6.974472 2.0980153 -1.688369 4288085770
3.880722 1.6623309 -1.7672307 4288085770
6.6858673 2.1248126 -1.6975186 4288085770
3.693985 1.6875086 -1.7692416 4288085770
6.3981934 2.1486163 -1.7036355 4288085770
3.5604553 1.7193165 -1.7791698 4288085770
6.1134338 2.1704135 -1.7066824 4288085770
3.3695984 1.74054 -1.7762492 4288085770
5.8065033 2.1853771 -1.703162 4288085770
3.1837311 1.7597327 -1.7732151 4288085770
5.5215912 2.2011957 -1.701185 4288085770
3.0178833 1.7827954 -1.7707789 4288085770
5.2828064 2.2227082 -1.7022684 4288085770
2.8469849 1.801898 -1.7664316 4288085770
5.0550232 2.2441516 -1.7031214 4288085770
2.7102203 1.8267655 -1.7663963 4288085770
4.8412323 2.2665067 -1.7036855 4288085770
2.5583344 1.8467441 -1.7626545 4288085770
4.660553 2.2926388 -1.7075741 4288085770
2.4275208 1.8695836 -1.7604849 4288085770
4.4918823 2.3206911 -1.7122195 4288085770
2.2986908 1.8914094 -1.7582695 4288085770
4.3331909 2.3486838 -1.715656 4288085770
2.1758575 1.9141974 -1.7559326 4288085770
4.1905365 2.3775735 -1.7197611 4288085770
2.0741119 1.9398417 -1.7561677 4288085770
4.0659637 2.4103374 -1.7265046 4288085770
1.9733734 1.9654794 -1.7563813 4288085770
3.9242859 2.4392281 -1.7285888 4288085770
1.8574677 1.9852362 -1.7508862 4288085770
3.7855377 2.466104 -1.7296026 4288085770
1.7858429 2.0166712 -1.7555168 4288085770
3.6638489 2.4968696 -1.7312768 4288085770
1.6960754 2.042244 -1.7545006 4288085770
3.5421448 2.5256352 -1.7329419 4288085770
1.6082764 2.0678086 -1.7524426 4288085770
3.4143372 2.5514545 -1.7307217 4288085770
1.5345612 2.0952721 -1.7530992 4288085770
3.2794495 2.5743308 -1.7256362 4288085770
1.4547577 2.1207867 -1.7508738 4288085770
3.1696777 2.6020331 -1.7240469 4288085770
1.3910828 2.1501846 -1.7523291 4288085770
3.0659332 2.6306944 -1.723336 4288085770
1.3213043 2.1776309 -1.7509024 4288085770
2.9822388 2.6642218 -1.7242262 4288085770
1.2605591 2.206018 -1.7502906 4288085770
2.8965302 2.6967649 -1.7241547 4288085770
1.1867218 2.2305031 -1.7459362 4288085770
2.8047638 2.7253547 -1.7221925 4288085770
1.1299591 2.2598681 -1.7442448 4288085770
2.7149658 2.7559395 -1.7181971 4288085770
1.0802765 2.2911816 -1.744415 4288085770
2.6452484 2.7903833 -1.7177985 4288085770
1.0375824 2.3234472 -1.7454426 4288085770
2.5775604 2.8248138 -1.7173579 4288085770
0.9979248 2.3566942 -1.7464116 4288085770
2.5047913 2.8572888 -1.7140143 4288085770
0.93907166 2.384089 -1.7407548 4288085770
2.4601898 2.8985629 -1.7161205 4288085770
0.91954041 2.4231892 -1.7463286 4288085770
2.4065247 2.9369054 -1.7154028 4288085770
0.88279724 2.4564295 -1.7442353 4288085770
2.3990936 2.9909225 -1.7227862 4288085770
0.85012817 2.4916358 -1.744066 4288085770
2.3494263 3.0292449 -1.7209852 4288085770
0.81439209 2.52387 -1.7419469 4288085770
2.3188171 3.0744352 -1.7218144 4288085770
0.78367615 2.5590687 -1.7407358 4288085770
2.2871857 3.1186361 -1.7216609 4288085770
0.75595093 2.5952525 -1.7384665 4288085770
2.256546 3.163835 -1.7204902 4288085770
0.75143433 2.6392627 -1.7427461 4288085770
2.2299194 3.2090092 -1.7192357 4288085770
0.71862793 2.6714907 -1.7375653 4288085770
2.2173767 3.2600827 -1.7207124 4288085770
0.71406555 2.7165098 -1.7398498 4288085770
2.2017822 3.310183 -1.720248 4288085770
0.69132996 2.752666 -1.7364757 4288085770
2.1982422 3.3642006 -1.7215488 4288085770
0.6816864 2.7937293 -1.7358491 4288085770
2.1755676 3.4103618 -1.7172153 4288085770
0.66595459 2.8328419 -1.7323401 4288085770
2.1891174 3.4732642 -1.720196 4288085770
0.66534424 2.8788443 -1.7325456 4288085770
2.1875458 3.5282817 -1.7184589 4288085770
0.66169739 2.9228735 -1.7308056 4288085770
2.1829224 3.5823212 -1.7157815 4288085770
0.67823792 2.9757524 -1.7346823 4288085770
2.1933899 3.6422601 -1.7148135 4288085770
0.68058777 3.0217438 -1.732825 4288085770
2.2119141 3.7071433 -1.7146981 4288085770
0.69302368 3.0736651 -1.7327826 4288085770
2.2525787 3.7818727 -1.7181623 4288085770
0.71353149 3.1295271 -1.7345884 4288085770
2.2881622 3.8546419 -1.7197235 4288085770
0.72691345 3.18045 -1.7325213 4288085770
2.292511 3.9126425 -1.7128737 4288085770
0.74938965 3.2363052 -1.7332852 4288085770
2.3320923 3.9883947 -1.712364 4288085770
0.77284241 3.2931566 -1.7330329 4288085770
2.3877869 4.0710306 -1.7155468 4288085770
0.79629517 3.3490133 -1.7317765 4288085770
2.4243011 4.1448145 -1.7120922 4288085770
0.82679749 3.4098215 -1.7313931 4288085770
2.4819489 4.2304506 -1.7122457 4288085770
0.86428833 3.4735861 -1.7308762 4288085770
2.5678101 4.3308907 -1.7168734 4288085770
0.90382385 3.5393343 -1.7313249 4288085770
2.6717682 4.4412098 -1.7231648 4288085770
0.9524231 3.6100221 -1.7326057 4288085770
2.8109894 4.5732799 -1.7358115 4288085770
0.98985291 3.6737986 -1.729089 4288085770
2.9633179 4.7122607 -1.7502143 4288085770
1.0353546 3.7425222 -1.7264254 4288085770
3.0238342 4.8029113 -1.742327 4288085770
1.0929565 3.8181577 -1.7265379 4288085770
3.1044617 4.9024258 -1.7370579 4288085770
1.1636353 3.8997035 -1.7284029 4288085770
3.23349 5.0305963 -1.7408988 4288085770
1.2120667 3.9704204 -1.7226851 4288085770
3.452179 5.2141447 -1.7591031 4288085770
1.2948151 4.0608916 -1.724335 4288085770
3.6516724 5.3858366 -1.7716563 4282675967
1.3845825 4.1553144 -1.726855 4288085770
3.7392273 5.4923306 -1.7602699 4282675967
1.4642029 4.2438216 -1.724561 4288085770
3.7692719 5.5652418 -1.7359412 4288085770
1.5750885 4.3511057 -1.7286937 4288085770
3.8516998 5.6667881 -1.71964 4288085770
1.6839142 4.4574137 -1.7298648 4288085770
3.9855042 5.7999802 -1.7113998 4288085770
1.7987823 4.5676813 -1.7319267 4288085770
4.1000824 5.9223194 -1.6965139 4288085770
1.9277039 4.6858606 -1.7337277 4288085770
4.2932434 6.0931168 -1.6931927 4288085770
2.064682 4.8099871 -1.7363856 4288085770
4.5165405 6.2827177 -1.6913202 4288085770
2.2247925 4.9479561 -1.7416189 4288085770
4.776062 6.4960794 -1.6927912 4288085770
2.4019928 5.0988145 -1.7475488 4288085770
5.0667725 6.7292366 -1.6956942 4288085770
2.6134796 5.2704372 -1.7588513 4288085770
5.3301849 6.9455967 -1.6910951 4288085770
2.7915802 5.4193082 -1.7607529 4288085770
5.6408691 7.1936512 -1.6886423 4288085770
2.9413757 5.550396 -1.7531698 4288085770
5.9494324 7.4397402 -1.6812236 4288085770
3.0417175 5.6478429 -1.7334764 4288085770
