# .PCD v0.7 - Point Cloud Data file format
VERSION 0.7
FIELDS x y z rgb
SIZE 4 4 4 4
TYPE F F F U
COUNT 1 1 1 1
WIDTH 1127
HEIGHT 1
VIEWPOINT 0 0 0 1 0 0 0
POINTS 1127
DATA ascii
4.530117 -0.39191771 -1.8230394 4288085770
6.5554237 -0.53582525 -1.8134735 4288085770
4.7272263 -0.37881327 -1.8237529 4288085770
6.8525562 -0.52267122 -1.8120759 4288085770
4.9163704 -0.36372471 -1.8203895 4288085770
7.1676979 -0.50950909 -1.8098385 4288085770
5.1215076 -0.35062361 -1.8181744 4288085770
7.4998569 -0.49534321 -1.8057494 4288085770
5.3625965 -0.33748674 -1.8212789 4288085770
7.8869667 -0.48313093 -1.8071549 4288085770
5.5947418 -0.32337332 -1.8183008 4288085770
8.2960968 -0.47091198 -1.806756 4288085770
5.8349018 -0.30826139 -1.813391 4288085770
8.7352314 -0.45767784 -1.8056209 4288085770
6.1229992 -0.29510117 -1.8159134 4288085770
9.2413387 -0.44539595 -1.8080844 4288085770
6.3981667 -0.27997208 -1.8103148 4288085770
9.7964458 -0.43408585 -1.8109863 4288085770
6.7182808 -0.26679754 -1.8111217 4288085770
10.413548 -0.42374086 -1.814442 4288085770
7.0474281 -0.25163126 -1.8080029 4288085770
11.055694 -0.41039515 -1.8131115 4288085770
7.4125576 -0.23743773 -1.8072071 4288085770
11.775829 -0.3990016 -1.8134806 4288085770
7.8126755 -0.22422028 -1.8077253 4288085770
12.642911 -0.38850689 -1.8201588 4288085770
8.2478008 -0.20898676 -1.8075486 4288085770
13.540066 -0.37501955 -1.8190951 4288085770
8.6909752 -0.1937623 -1.8024434 4288085770
14.595197 -0.36343431 -1.8214419 4288085770
9.2320671 -0.18045807 -1.8062149 4288085770
15.771349 -0.35178804 -1.8218644 4288085770
9.8471451 -0.16610479 -1.8126413 4288085770
17.200447 -0.34097958 -1.8295385 4288085770
10.492253 -0.15074539 -1.8153315 4288085770
11.21535 -0.13633823 -1.819718 4288085770
11.99848 -0.11990786 -1.820632 4288085770
12.95354 -0.10435772 -1.8300776 4288085770
14.017627 -0.087752819 -1.8374896 4288085770
15.132776 -0.069142342 -1.8373493 4288085770
16.454901 -0.049405575 -1.8410459 4288085770
17.352089 1.6467686 -1.0382413 4293729569
16.865391 1.7474127 -1.0086081 4293729569
16.643587 1.8672349 -0.99127722 4293729569
16.567726 1.9951539 -0.98022211 4293729569
16.519882 2.1260824 -0.96740735 4293729569
16.539013 2.2630546 -0.9571712 4293729569
16.513176 2.3939924 -0.94355249 4293729569
16.489357 2.5269253 -0.92794561 4293729569
16.480543 2.6628637 -0.91146326 4293729569
16.483746 2.7988029 -0.89308786 4293729569
16.511948 2.9367559 -0.87492907 4293729569
16.567139 3.0787249 -0.85699868 4293729569
16.689339 3.2347274 -0.83862317 4293729569
17.095177 0.15202904 -1.8390605 4288085770
15.611287 0.1572566 -1.8327889 4288085770
14.40834 0.16364765 -1.834024 4288085770
13.300451 0.17006874 -1.8291079 4288085770
12.322567 0.17655659 -1.824353 4288085770
11.479658 0.18412113 -1.8228004 4288085770
10.703774 0.1917119 -1.8188467 4288085770
17.405998 0.25708771 -1.8265432 4288085770
10.015888 0.19934797 -1.8146787 4288085770
15.962053 0.26635361 -1.8256149 4288085770
9.4059792 0.20803356 -1.8142045 4288085770
14.716117 0.27672005 -1.8254529 4288085770
8.8331051 0.2167263 -1.8100605 4288085770
13.627197 0.28716135 -1.8236933 4288085770
8.3451729 0.22548199 -1.812676 4288085770
12.635294 0.2966485 -1.820803 4288085770
7.8872585 0.23424816 -1.8135594 4288085770
11.768386 0.30720139 -1.8190264 4288085770
7.4333973 0.2429986 -1.8084787 4288085770
10.997473 0.31780481 -1.8181074 4288085770
7.0544777 0.25280619 -1.8100646 4288085770
10.247631 0.32739592 -1.8093791 4288085770
6.7165413 0.26264191 -1.8140166 4288085770
9.6596947 0.33810234 -1.8120947 4288085770
6.3966007 0.27248669 -1.8181294 4288085770
9.0808105 0.34879589 -1.8088907 4288085770
6.0916901 0.28233099 -1.8193763 4288085770
8.5698967 0.35953379 -1.8092941 4288085770
5.7987938 0.29217529 -1.8187307 4288085770
8.1119804 0.37030029 -1.8101711 4288085770
5.5458527 0.30305576 -1.823439 4288085770
7.696064 0.38108921 -1.8114232 4288085770
5.2610092 0.31188679 -1.8168676 4288085770
7.2871799 0.39187002 -1.8087379 4288085770
5.0221119 0.32275963 -1.8167011 4288085770
6.9492416 0.4037056 -1.8126836 4288085770
4.7982063 0.33264399 -1.8176715 4288085770
6.6193295 0.41453648 -1.813704 4288085770
4.6032791 0.34354973 -1.8208978 4288085770
6.3203983 0.42638969 -1.8169981 4288085770
4.4023781 0.35444307 -1.8210707 4288085770
6.0414715 0.43825102 -1.819471 4288085770
4.2264423 0.36536169 -1.8254668 4288085770
5.8005123 0.45114422 -1.8262804 4288085770
4.0365715 0.37525177 -1.8227409 4288085770
5.5206528 0.46098423 -1.8217504 4288085770
3.8556957 0.38614702 -1.8200924 4288085770
5.2727642 0.47284985 -1.8205003 4288085770
3.6888218 0.39704895 -1.8175691 4288085770
5.0508556 0.48473501 -1.8214823 4288085770
3.5319309 0.4079628 -1.817135 4288085770
4.8090191 0.49458599 -1.8142917 4288085770
3.372076 0.41786289 -1.8126771 4288085770
4.6200924 0.506495 -1.8175687 4288085770
3.2361736 0.42879057 -1.8134305 4288085770
4.4341927 0.51839638 -1.8178723 4288085770
3.0893154 0.43969774 -1.8090857 4288085770
4.2622833 0.53130817 -1.819298 4288085770
2.9763851 0.4516468 -1.8130414 4288085770
4.0863895 0.54321194 -1.818691 4288085770
2.8574924 0.46258068 -1.8129467 4288085770
3.927496 0.55512428 -1.8182358 4288085770
2.7406063 0.47451258 -1.8118669 4288085770
3.7666225 0.5660305 -1.8157661 4288085770
3.6167412 0.57794523 -1.8143911 4288085770
3.4778557 0.58986545 -1.8131148 4288085770
3.3339882 0.60177708 -1.8097937 4288085770
3.2160854 0.61471415 -1.8107018 4288085770
3.0682621 0.62460923 -1.802351 4288085770
2.9613495 0.63755536 -1.8043573 4288085770
2.849474 0.64948702 -1.8023221 4288085770
2.7505665 0.66343427 -1.8033969 4288085770
2.6626453 0.67639375 -1.8065729 4288085770
2.7350502 2.9958007 -1.8013672 4288085770
2.8541183 3.0508578 -1.8032705 4288085770
2.9762039 3.1059127 -1.8042009 4288085770
3.1232357 3.1729956 -1.8103189 4288085770
3.2712688 3.239079 -1.8164492 4288085770
3.4123516 3.2991438 -1.817535 4288085770
3.5863514 3.3752489 -1.8268682 4288085770
3.7524071 3.4443324 -1.830151 4288085770
2.6389294 2.91271 -1.8037679 4288085770
3.9314384 3.5184312 -1.8365351 4288085770
2.7600174 2.9587646 -1.8047166 4288085770
4.0915451 3.5794964 -1.8347887 4288085770
2.8870983 3.0048251 -1.8067189 4288085770
4.2666302 3.6475751 -1.8351555 4288085770
3.0211792 3.0528893 -1.808778 4288085770
4.4626751 3.7236767 -1.8396864 4288085770
3.1432934 3.0939353 -1.806751 4288085770
4.6757069 3.8057895 -1.8453516 4288085770
3.3013248 3.1500268 -1.8140012 4288085770
4.8797894 3.8798828 -1.8459605 4288085770
3.4683609 3.2091193 -1.820323 4288085770
5.0968571 3.958986 -1.8476712 4288085770
3.6314087 3.2642071 -1.8256212 4288085770
5.3309059 4.0421038 -1.8515218 4288085770
3.7735329 3.3062601 -1.8227707 4288085770
5.5709743 4.1252179 -1.8534268 4288085770
3.9565697 3.3663611 -1.8292331 4288085770
5.830019 4.2163482 -1.8574779 4288085770
4.1336346 3.4224498 -1.8326541 4288085770
6.0910797 4.3034735 -1.8595589 4288085770
4.3127079 3.4755368 -1.8351021 4288085770
6.38311 4.4026232 -1.8648822 4288085770
4.5047722 3.5326328 -1.8386546 4288085770
6.6671829 4.4947567 -1.8661548 4288085770
4.6898651 3.5827167 -1.8391656 4288085770
6.9941978 4.6019273 -1.8727677 4288085770
4.8979244 3.6428208 -1.8428528 4288085770
7.3172493 4.7040834 -1.87536 4288085770
5.0950279 3.692908 -1.8424716 4288085770
7.6702824 4.814261 -1.8801974 4288085770
5.3210888 3.7540212 -1.8463174 4288085770
8.0263348 4.9214339 -1.8830709 4288085770
5.5411663 3.8101254 -1.8481245 4288085770
8.4223576 5.0416336 -1.8882642 4288085770
5.7772465 3.8692379 -1.8500659 4288085770
8.8204098 5.157824 -1.8904874 4288085770
6.0273037 3.9313633 -1.8541241 4288085770
9.2784081 5.2940607 -1.8981885 4288085770
6.2674026 3.9854717 -1.8541169 4288085770
9.7504139 5.4303012 -1.9050153 4288085770
6.5185089 4.0405827 -1.8532053 4288085770
10.241434 5.5675449 -1.91001 4288085770
6.777607 4.0957007 -1.8533657 4288085770
10.785429 5.7208219 -1.9174316 4288085770
7.0716705 4.1618452 -1.8568066 4288085770
11.333444 5.8680944 -1.9229075 4288085770
7.3567543 4.2199793 -1.8581914 4288085770
11.970386 6.0464296 -1.9350882 4288085770
7.6758099 4.2871394 -1.8628536 4288085770
12.643333 6.2277808 -1.946583 4288085770
7.989893 4.3492875 -1.8644863 4288085770
13.348287 6.414144 -1.9573499 4288085770
8.2660561 4.3913937 -1.8578391 4288085770
14.016335 6.5774622 -1.958855 4288085770
8.6570454 4.4736075 -1.8691021 4288085770
14.770342 6.7628322 -1.9640653 4288085770
9.0500717 4.5508113 -1.8763983 4288085770
15.558345 6.9512196 -1.9695718 4288085770
9.4311314 4.618999 -1.8806145 4288085770
16.442314 7.1646614 -1.9778644 4288085770
9.8012257 4.6781731 -1.881759 4288085770
17.419245 7.3991585 -1.9899279 4288085770
10.206293 4.7433701 -1.8851997 4288085770
10.627371 4.8085728 -1.887784 4288085770
11.063437 4.8747854 -1.8915001 4288085770
11.546462 4.9490337 -1.8996134 4288085770
11.992572 5.00424 -1.8994526 4288085770
12.503623 5.0744929 -1.9048295 4288085770
13.00471 5.1337318 -1.9071504 4288085770
13.546763 5.2000008 -1.9128178 4288085770
14.046894 5.2452278 -1.911172 4288085770
14.541048 5.2814431 -1.9064997 4288085770
15.153101 5.3457465 -1.9128017 4288085770
15.717219 5.3860083 -1.9127456 4288085770
16.327335 5.4312935 -1.9130874 4288085770
16.98341 5.4816136 -1.9178269 4288085770
16.704914 3.2611563 -1.1890168 4293729569
16.638397 3.1150167 -1.1558602 4293729569
16.615833 2.9779139 -1.1280711 4293729569
16.589256 2.8408124 -1.1012461 4293729569
16.587643 2.7057352 -1.0786391 4293729569
16.579031 2.5706546 -1.0559694 4293729569
16.587379 2.4375944 -1.0374459 4293729569
16.644695 2.3105679 -1.022344 4293729569
16.667019 2.1795237 -1.00694 4293729569
16.674334 2.0444746 -0.9924134 4293729569
16.749605 1.9174721 -0.98247266 4293729569
16.811863 1.7884691 -0.97442126 4293729569
17.360899 1.6967702 -0.9906286 4293729569
17.635208 -3.4069171 -1.8295338 4288085770
16.985346 -3.4232464 -1.8247482 4288085770
16.358467 -3.4365587 -1.8221598 4288085770
15.83154 -3.4578047 -1.825493 4288085770
15.251655 -3.4630928 -1.8233023 4288085770
14.754717 -3.4793224 -1.8278897 4288085770
14.262785 -3.4865513 -1.8314948 4288085770
13.731899 -3.4808187 -1.8287109 4288085770
13.228004 -3.4720678 -1.8271602 4288085770
12.735116 -3.4603157 -1.8246992 4288085770
12.253224 -3.4445572 -1.8223249 4288085770
11.80232 -3.42978 -1.8212318 4288085770
11.343442 -3.4050169 -1.817037 4288085770
16.985985 -4.9018717 -1.6492014 4293729569
10.932531 -3.3882179 -1.8172967 4288085770
16.152988 -4.8052626 -1.6524314 4293729569
10.537626 -3.3684125 -1.8166915 4288085770
15.41597 -4.7235947 -1.6595682 4293729569
10.183678 -3.3555732 -1.8214751 4288085770
14.710956 -4.6409159 -1.6659894 4293729569
9.81777 -3.3337531 -1.8211242 4288085770
14.057946 -4.5652094 -1.6728985 4293729569
9.4448776 -3.3059435 -1.818692 4288085770
13.427949 -4.484498 -1.6779991 4293729569
9.0859833 -3.2751265 -1.8163768 4288085770
12.904896 -4.4277134 -1.6911325 4293729569
8.7410908 -3.2443032 -1.8141873 4288085770
12.457804 -4.3878736 -1.7099991 4293729569
8.4111958 -3.2144718 -1.8121353 4288085770
12.058696 -4.3560066 -1.7313205 4293729569
8.1102772 -3.1886168 -1.8133558 4288085770
11.736539 -4.3420811 -1.7593874 4293729569
7.8293457 -3.1647491 -1.8157616 4288085770
11.412399 -4.3241644 -1.7854242 4293729569
7.5454254 -3.1368852 -1.8171284 4288085770
11.098257 -4.3052406 -1.811548 4288085770
7.2715015 -3.108017 -1.8185821 4288085770
10.709195 -4.2573853 -1.8269112 4288085770
7.0215702 -3.0831342 -1.8212634 4288085770
10.288198 -4.1915703 -1.8339335 4288085770
6.8015957 -3.0652204 -1.8292348 4288085770
9.8412476 -4.1127844 -1.8346832 4288085770
6.5436878 -3.031352 -1.827817 4288085770
9.3493748 -4.013051 -1.824966 4288085770
6.3117542 -3.0034595 -1.8306506 4288085770
8.898489 -3.9202919 -1.817638 4288085770
6.0988045 -2.9785523 -1.835664 4288085770
8.5005665 -3.8414907 -1.8158278 4288085770
5.8708858 -2.9456635 -1.8365185 4288085770
8.1396351 -3.770669 -1.815374 4288085770
5.6399937 -2.9087853 -1.8343344 4288085770
7.7956867 -3.7018328 -1.8170786 4288085770
5.4320736 -2.8768868 -1.8353717 4288085770
7.4777393 -3.6389828 -1.8190348 4288085770
5.2381401 -2.8469753 -1.8385406 4288085770
7.1747952 -3.5761261 -1.8211256 4288085770
5.0452309 -2.8160725 -1.8387154 4288085770
6.8768559 -3.5112686 -1.8222554 4288085770
4.8413372 -2.7771802 -1.8367677 4288085770
6.6248779 -3.4613743 -1.8288434 4288085770
4.6713905 -2.7502546 -1.841161 4288085770
6.3789062 -3.41048 -1.8344818 4288085770
4.4874973 -2.7143521 -1.8394018 4288085770
6.1119843 -3.3476133 -1.833896 4288085770
4.3255596 -2.6844254 -1.8428581 4288085770
5.8231316 -3.2727823 -1.8250769 4288085770
4.1536655 -2.6485176 -1.8412067 4288085770
5.5882034 -3.2158971 -1.8257966 4288085770
3.9887638 -2.6126027 -1.8406181 4288085770
5.3752575 -3.1649952 -1.8287318 4288085770
3.8378525 -2.5816793 -1.8411702 4288085770
5.1613216 -3.1110969 -1.8306489 4288085770
3.6879406 -2.5477538 -1.8417206 4288085770
4.9723682 -3.0651789 -1.8348125 4288085770
3.551012 -2.517817 -1.8444011 4288085770
4.7684593 -3.0102844 -1.8338162 4288085770
3.4270668 -2.4928679 -1.8492129 4288085770
4.5885143 -2.9623656 -1.8370562 4288085770
3.2941456 -2.4609318 -1.8509232 4288085770
4.4085865 -2.9134536 -1.8382931 4288085770
3.1482754 -2.42202 -1.846496 4288085770
4.2316685 -2.8635416 -1.8385543 4288085770
3.0462971 -2.4000478 -1.8555143 4288085770
4.0637417 -2.8146238 -1.8398991 4288085770
2.9174099 -2.3651214 -1.8532518 4288085770
3.9068146 -2.7686996 -1.8413517 4288085770
2.7945213 -2.330193 -1.8510431 4288085770
3.7528954 -2.7217765 -1.8418287 4288085770
2.6885834 -2.3022366 -1.8550079 4288085770
3.6159554 -2.6808372 -1.8454758 4288085770
3.4600697 -2.6299272 -1.8419228 4288085770
3.3261433 -2.5869918 -1.8435911 4288085770
3.1992092 -2.5450497 -1.8463254 4288085770
3.0792847 -2.5051074 -1.8481283 4288085770
2.952383 -2.4611769 -1.8468567 4288085770
2.8374672 -2.4202352 -1.8477019 4288085770
2.731535 -2.3822827 -1.8506367 4288085770
2.677515 -0.13813257 -1.80558 4288085770
2.7806377 -0.12609577 -1.8044751 4288085770
2.9067192 -0.11503267 -1.80858 4288085770
3.0118675 -0.10200262 -1.8044904 4288085770
3.1379738 -0.090949535 -1.8055956 4288085770
3.2760601 -0.078883171 -1.8088062 4288085770
3.43013 -0.067803383 -1.8141638 4288085770
3.5752449 -0.056743622 -1.8144406 4288085770
3.7453022 -0.045653343 -1.8209425 4288085770
2.7493477 0.0068688393 -1.8148088 4288085770
3.9014244 -0.033590317 -1.8203156 4288085770
2.8495274 0.017886639 -1.8076804 4288085770
4.0645542 -0.021526814 -1.8187519 4288085770
2.9915886 0.027963638 -1.8139328 4288085770
4.2426605 -0.010447979 -1.8203263 4288085770
3.1057568 0.037991047 -1.8079333 4288085770
4.4347706 0.00063562393 -1.821027 4288085770
3.2508411 0.048060894 -1.8112131 4288085770
4.6408596 0.011730671 -1.823854 4288085770
3.3989468 0.058125496 -1.8125199 4288085770
4.8310165 0.023798943 -1.8195341 4288085770
3.5660229 0.068208218 -1.8169979 4288085770
5.034174 0.034872055 -1.8153344 4288085770
3.7331295 0.077281952 -1.8184793 4288085770
5.2682915 0.046972752 -1.8154112 4288085770
3.9331703 0.087392807 -1.8272549 4288085770
5.5164204 0.058076382 -1.8146173 4288085770
4.0973186 0.096450329 -1.8237094 4288085770
5.7935104 0.069206715 -1.8180847 4288085770
4.295414 0.10554266 -1.8264703 4288085770
6.0846272 0.080334663 -1.8186786 4288085770
4.4865437 0.11561918 -1.8251654 4288085770
6.359808 0.091434479 -1.8121288 4288085770
4.6826935 0.12469196 -1.8219087 4288085770
6.6849327 0.1025753 -1.8120294 4288085770
4.8918514 0.13276863 -1.8177723 4288085770
7.025074 0.11371803 -1.8100655 4288085770
5.1409435 0.1408844 -1.8209962 4288085770
7.3902245 0.12486935 -1.8073273 4288085770
5.388073 0.14998817 -1.8201995 4288085770
7.811327 0.13506317 -1.810097 4288085770
5.6492023 0.1580987 -1.8195322 4288085770
8.2644482 0.14526653 -1.8111552 4288085770
5.9513016 0.16723728 -1.8222313 4288085770
8.7505932 0.1564765 -1.8095084 4288085770
6.2384663 0.17534876 -1.8177986 4288085770
9.320673 0.1677475 -1.8156189 4288085770
6.5536118 0.1824789 -1.8156215 4288085770
9.9307861 0.1790266 -1.8180907 4288085770
6.900753 0.19062471 -1.81373 4288085770
10.603896 0.19033575 -1.8211306 4288085770
7.2738953 0.19778347 -1.8120761 4288085770
11.380975 0.20170355 -1.8281085 4288085770
7.6940079 0.20497274 -1.813846 4288085770
12.179125 0.21205854 -1.8272793 4288085770
8.1650944 0.2111969 -1.8190789 4288085770
13.148224 0.22351027 -1.8329895 4288085770
8.6492329 0.21740818 -1.8184295 4288085770
14.215329 0.23500633 -1.8385837 4288085770
9.1843605 0.22364759 -1.8192399 4288085770
15.376493 0.24552679 -1.8380294 4288085770
9.7704849 0.22891188 -1.8205136 4288085770
16.74563 0.25715399 -1.8413482 4288085770
10.446582 0.23422813 -1.825599 4288085770
11.211655 0.23859358 -1.8334903 4288085770
12.015792 0.24195576 -1.8347367 4288085770
12.916932 0.24436235 -1.8358613 4288085770
13.981024 0.24686289 -1.8434563 4288085770
15.167147 0.24641037 -1.848161 4288085770
16.48531 0.24500561 -1.8490598 4288085770
14.181238 -5.6033745 -0.50763869 4293729569
14.192899 -5.4902458 -0.55241847 4293729569
17.237804 0.44192171 -1.8312314 4288085770
15.934835 0.47034121 -1.8333416 4288085770
14.788878 0.49582958 -1.8348832 4288085770
13.746971 0.51934958 -1.8313732 4288085770
12.826058 0.54192638 -1.8289626 4288085770
12.014132 0.56355762 -1.8285424 4288085770
11.296212 0.58422995 -1.8279773 4288085770
10.62232 0.60391474 -1.8248136 4288085770
17.093597 0.88776398 -1.8156685 4288085770
9.9944553 0.62161279 -1.8190728 4288085770
15.914601 0.90325046 -1.8219391 4288085770
9.4635296 0.64137316 -1.8202051 4288085770
14.785695 0.91473269 -1.8186746 4288085770
8.9706402 0.65814042 -1.8176904 4288085770
13.820763 0.92729759 -1.8188931 4288085770
8.5267124 0.67694187 -1.8196138 4288085770
12.976823 0.94091964 -1.8202056 4288085770
8.1137981 0.69475245 -1.8198212 4288085770
12.15795 0.95153332 -1.8147535 4288085770
7.7209167 0.71156359 -1.8172129 4288085770
11.439055 0.96320009 -1.8122045 4288085770
7.3740025 0.72840524 -1.8180213 4288085770
10.821136 0.97691965 -1.8125653 4288085770
7.0460968 0.74525309 -1.8180019 4288085770
10.278195 0.99168015 -1.8156029 4288085770
6.7661533 0.76313424 -1.8224144 4288085770
9.7462997 1.004432 -1.8137461 4288085770
6.493227 0.78101349 -1.8248905 4288085770
9.2424221 1.0161912 -1.8101456 4288085770
6.2173328 0.79688287 -1.8243451 4288085770
8.8304844 1.0320106 -1.8133677 4288085770
5.9754124 0.81377411 -1.8261051 4288085770
8.4305859 1.0448244 -1.8127071 4288085770
5.7684574 0.83269238 -1.8321764 4288085770
8.0357018 1.0576351 -1.810092 4288085770
5.530592 0.84756827 -1.8279784 4288085770
7.7017899 1.0724826 -1.8110237 4288085770
5.29175 0.86043835 -1.8217772 4288085770
7.3699036 1.0853229 -1.8089794 4288085770
5.0868683 0.87533545 -1.8198785 4288085770
7.0679989 1.100183 -1.8092014 4288085770
4.8880024 0.89022946 -1.8160338 4288085770
6.7920914 1.1140549 -1.8096617 4288085770
4.7280655 0.90816474 -1.8205339 4288085770
6.5281963 1.1289299 -1.8092279 4288085770
4.5571823 0.92407751 -1.8189404 4288085770
6.2783089 1.1428087 -1.807924 4288085770
4.3992767 0.94000292 -1.8194646 4288085770
6.0653687 1.1607192 -1.8119439 4288085770
4.254364 0.95693612 -1.8211035 4288085770
5.8514671 1.1766174 -1.8119603 4288085770
4.1214504 0.97487569 -1.8228486 4288085770
5.6525574 1.1915257 -1.8131157 4288085770
3.9656048 0.98778462 -1.8173996 4288085770
5.4716377 1.2094455 -1.8154259 4288085770
3.8287296 1.0027108 -1.815117 4288085770
5.2618046 1.2203259 -1.8084931 4288085770
3.7178059 1.0206633 -1.8180614 4288085770
5.0948906 1.2372494 -1.8099328 4288085770
3.5829544 1.0345824 -1.8127998 4288085770
4.9270096 1.2521644 -1.8083693 4288085770
3.4710617 1.0505261 -1.8127409 4288085770
4.7601452 1.2660732 -1.8048177 4288085770
3.362175 1.0664682 -1.8117092 4288085770
4.6102581 1.2819965 -1.8034143 4288085770
3.2612782 1.0834169 -1.8117471 4288085770
4.4703655 1.2979271 -1.8031018 4288085770
3.1683769 1.1003721 -1.8128576 4288085770
4.3314915 1.3138518 -1.8007983 4288085770
3.0535469 1.1142948 -1.8057774 4288085770
4.2165775 1.3317997 -1.8027065 4288085770
2.9846001 1.1342731 -1.8110965 4288085770
4.091692 1.3477347 -1.8015298 4288085770
2.8987026 1.1512287 -1.8112705 4288085770
3.9907665 1.367692 -1.8045592 4288085770
2.8208065 1.1691883 -1.8115141 4288085770
3.8768883 1.384629 -1.8024795 4288085770
2.7528706 1.1891639 -1.8158424 4288085770
3.7729931 1.4025767 -1.8024875 4288085770
2.6720009 1.2061141 -1.8130618 4288085770
3.6541615 1.4154971 -1.7953738 4288085770
3.5732365 1.4364641 -1.7985816 4288085770
3.5022907 1.458441 -1.8038772 4288085770
3.4233837 1.4784029 -1.805106 4288085770
3.3285313 1.4943407 -1.8002014 4288085770
3.2436619 1.5122883 -1.7973819 4288085770
3.1966877 1.5382853 -1.8058834 4288085770
3.1287899 1.5592496 -1.8062093 4288085770
3.0559101 1.5782061 -1.8044955 4288085770
2.9970074 1.6001744 -1.8049001 4288085770
2.9430885 1.6221511 -1.8073498 4288085770
2.8851986 1.6441176 -1.8067634 4288085770
2.8313046 1.6660852 -1.8062134 4288085770
2.7833958 1.6890621 -1.8077149 4288085770
2.7175522 1.7070105 -1.8020675 4288085770
2.682621 1.7339988 -1.8056754 4288085770
2.6695347 3.1597281 -1.7995622 4288085770
2.7355824 3.2267632 -1.8039733 4288085770
2.8006554 3.29179 -1.8053812 4288085770
2.8786926 3.3648336 -1.8108841 4288085770
2.9687042 3.4448886 -1.818476 4288085770
3.0657082 3.5279498 -1.8271229 4288085770
3.1577511 3.6079974 -1.8317331 4288085770
3.2488098 3.6860387 -1.8343401 4288085770
3.3458672 3.7690828 -1.8369874 4288085770
3.4618816 3.8621471 -1.8437786 4288085770
3.591877 3.9632237 -1.852674 4288085770
3.6859818 4.0412521 -1.8503087 4288085770
3.8220024 4.1443229 -1.8562531 4288085770
3.9500599 4.2413788 -1.8581421 4288085770
2.7265549 3.5547805 -1.8399793 4288085770
4.089098 4.3444452 -1.8621141 4288085770
2.8226357 3.6268189 -1.8406487 4288085770
4.2481213 4.4595237 -1.8672334 4288085770
2.9266949 3.7028663 -1.8433791 4288085770
4.3901939 4.5625806 -1.8672327 4288085770
3.0307751 3.7779081 -1.8441126 4288085770
4.5701942 4.6886744 -1.8745114 4288085770
3.1438503 3.8569541 -1.8449165 4288085770
4.7372608 4.8047428 -1.874701 4288085770
3.275877 3.9470229 -1.8508614 4288085770
4.9252892 4.9318323 -1.8790498 4288085770
3.3909779 4.0250621 -1.8486863 4288085770
5.1133442 5.05791 -1.8794013 4288085770
3.5569477 4.134161 -1.8598858 4288085770
5.3453293 5.2110286 -1.8870758 4288085770
3.6830482 4.2152042 -1.8578022 4288085770
5.5803318 5.3631425 -1.8927803 4288085770
3.8560486 4.3252978 -1.8660626 4288085770
5.8393116 5.5292735 -1.900663 4288085770
4.0330429 4.4363933 -1.8743565 4288085770
6.1063061 5.697402 -1.9066126 4288085770
4.1921291 4.5334554 -1.8735271 4288085770
6.3853073 5.8715334 -1.9116545 4288085770
4.3711643 4.6405401 -1.8778507 4288085770
6.6862926 6.0556784 -1.9178677 4288085770
4.5472336 4.7456126 -1.8781527 4288085770
7.0611649 6.2858849 -1.9346216 4288085770
4.7482738 4.8617053 -1.8816504 4288085770
7.4280968 6.5070715 -1.945329 4288085770
4.9503307 4.9777927 -1.8831575 4288085770
7.8339996 6.7492819 -1.9583308 4288085770
5.1803436 5.1089044 -1.8888761 4288085770
8.2259922 6.9774604 -1.9622456 4288085770
5.4213543 5.243021 -1.8946859 4288085770
8.6559429 7.2266655 -1.9694456 4288085770
5.6863403 5.3901548 -1.9026767 4288085770
9.1448326 7.5089107 -1.9820877 4288085770
5.9523659 5.5342774 -1.9066852 4288085770
9.7136555 7.8342085 -2.0003338 4288085770
6.2263966 5.678401 -1.9097664 4288085770
6.5433636 5.8475614 -1.9191672 4288085770
6.8593636 6.0117102 -1.9245728 4288085770
7.1983509 6.185873 -1.9311589 4288085770
7.6032524 6.3950877 -1.9462446 4288085770
8.0021896 6.5972896 -1.9572961 4288085770
8.4241409 6.8064957 -1.9665366 4288085770
8.8271656 6.9986739 -1.968653 4288085770
9.3090973 7.2319107 -1.97937 4288085770
9.7940636 7.4611378 -1.9861258 4288085770
10.357949 7.7294216 -2.0004878 4288085770
10.914894 7.9846859 -2.0088236 4288085770
17.635286 -1.4965639 -1.8475767 4288085770
16.933311 -1.5558505 -1.857373 4288085770
16.276333 -1.6101155 -1.8675636 4288085770
15.492487 -1.6444812 -1.8615458 4288085770
14.755636 -1.6728253 -1.8559377 4288085770
14.077775 -1.6981397 -1.8518565 4288085770
13.508832 -1.7293806 -1.8567809 4288085770
12.996873 -1.7585897 -1.8642169 4288085770
12.41701 -1.772862 -1.8599941 4288085770
11.914099 -1.7900839 -1.8614781 4288085770
11.408221 -1.8003182 -1.8589153 4288085770
10.929334 -1.8105373 -1.8575977 4288085770
17.025352 -2.7309804 -1.8265198 4288085770
10.456463 -1.8147597 -1.8543178 4288085770
16.140366 -2.7033558 -1.8324099 4288085770
10.011587 -1.8169689 -1.8512859 4288085770
15.342366 -2.678689 -1.8400979 4288085770
9.5767307 -1.8151789 -1.8463339 4288085770
14.530437 -2.6410508 -1.8396226 4288085770
9.1808548 -1.8143654 -1.8437384 4288085770
13.766522 -2.6033955 -1.8375831 4288085770
8.8149567 -1.8145318 -1.843418 4288085770
13.129543 -2.5786633 -1.8437322 4288085770
8.4440956 -1.8097134 -1.8390383 4288085770
12.456633 -2.5399685 -1.8415157 4288085770
8.1171856 -1.8078589 -1.8400661 4288085770
11.82073 -2.5002604 -1.8386321 4288085770
7.8102684 -1.8059931 -1.8422754 4288085770
11.272791 -2.4695001 -1.8405724 4288085770
7.5063763 -1.8001342 -1.8415006 4288085770
10.735887 -2.4337454 -1.8385985 4288085770
7.223465 -1.7962604 -1.8429221 4288085770
10.210999 -2.3959913 -1.8347281 4288085770
6.9625435 -1.7923722 -1.8455431 4288085770
9.6891384 -2.3522468 -1.8268679 4288085770
6.7216034 -1.7894707 -1.8503485 4288085770
9.2731972 -2.3244252 -1.8300146 4288085770
6.4497337 -1.7766047 -1.8468446 4288085770
8.8443089 -2.2896266 -1.8270237 4288085770
6.2048283 -1.7677164 -1.8475968 4288085770
8.4733715 -2.2617869 -1.8295789 4288085770
5.9639397 -1.7558308 -1.8463771 4288085770
8.1104431 -2.2319474 -1.8312011 4288085770
5.7320538 -1.7449412 -1.8452418 4288085770
7.7625351 -2.2011056 -1.8309566 4288085770
5.519146 -1.7340379 -1.8462788 4288085770
7.4685631 -2.1802192 -1.83823 4288085770
5.2942734 -1.7181511 -1.8431929 4288085770
7.1686325 -2.1543508 -1.840435 4288085770
5.102356 -1.7082353 -1.8454233 4288085770
6.8916874 -2.1294651 -1.8448516 4288085770
4.9314117 -1.7013001 -1.8508526 4288085770
6.5917931 -2.0976067 -1.84304 4288085770
4.7504921 -1.6893787 -1.8531773 4288085770
6.3019047 -2.0637474 -1.8403136 4288085770
4.5556278 -1.6714807 -1.8493581 4288085770
6.0360088 -2.0338736 -1.838816 4288085770
4.377737 -1.6565671 -1.8487016 4288085770
5.7851143 -2.0039926 -1.8374547 4288085770
4.2098427 -1.6416478 -1.8481358 4288085770
5.5472183 -1.9741054 -1.8362113 4288085770
4.0429668 -1.6247339 -1.8455735 4288085770
5.3263035 -1.947206 -1.8371308 4288085770
3.8770924 -1.6068196 -1.8430175 4288085770
5.1223812 -1.9222951 -1.8392099 4288085770
3.7411575 -1.5948739 -1.8467504 4288085770
4.9224606 -1.8973851 -1.8403254 4288085770
3.616209 -1.5849185 -1.8525889 4288085770
4.7495041 -1.8764482 -1.8466971 4288085770
3.4773083 -1.5699835 -1.853286 4288085770
4.5715714 -1.8525229 -1.8500149 4288085770
3.3204746 -1.5470786 -1.8457979 4288085770
4.3767071 -1.8216276 -1.8451594 4288085770
3.2075272 -1.536118 -1.8517424 4288085770
4.2038021 -1.7957077 -1.8455172 4288085770
3.0876045 -1.5211682 -1.8546121 4288085770
4.0378971 -1.7697849 -1.8459386 4288085770
2.9696922 -1.5062203 -1.8565001 4288085770
3.871006 -1.7418685 -1.8443452 4288085770
2.8597794 -1.4912691 -1.8584607 4288085770
3.7270889 -1.7179332 -1.8459718 4288085770
2.7418919 -1.47333 -1.8573402 4288085770
3.5831833 -1.6940002 -1.8465986 4288085770
3.4452782 -1.669064 -1.8472768 4288085770
3.3163509 -1.647119 -1.8500453 4288085770
3.1854534 -1.6221824 -1.8497871 4288085770
3.0605526 -1.5972438 -1.8495835 4288085770
2.9446487 -1.5752983 -1.8504699 4288085770
2.8307381 -1.5513515 -1.8513689 4288085770
2.7327976 -1.5323858 -1.856427 4288085770
2.7129269 0.43569183 -1.8038186 4288085770
2.828043 0.44873381 -1.8038299 4288085770
2.9591293 0.46079159 -1.8069896 4288085770
3.0822525 0.47283459 -1.8060764 4288085770
3.2123756 0.48488092 -1.8052272 4288085770
3.3724346 0.49896002 -1.8116448 4288085770
3.5185509 0.51101637 -1.8119408 4288085770
3.6796436 0.52308512 -1.8143734 4288085770
2.7597275 0.49167681 -1.809093 4288085770
3.8477402 0.53615618 -1.8168669 4288085770
2.8818436 0.50072193 -1.8091794 4288085770
4.032814 0.54924154 -1.8215148 4288085770
3.0269127 0.51079178 -1.8144718 4288085770
4.2089481 0.56130505 -1.8200841 4288085770
3.1500664 0.51882648 -1.81057 4288085770
4.4000511 0.57338428 -1.8217897 4288085770
3.2971573 0.52788877 -1.8128836 4288085770
4.5921745 0.58545542 -1.8205043 4288085770
3.4522457 0.53695774 -1.81627 4288085770
4.8082867 0.59754324 -1.8214376 4288085770
3.622324 0.54603529 -1.8207928 4288085770
5.0254154 0.60962534 -1.8203799 4288085770
3.7914295 0.55510473 -1.8223066 4288085770
5.2575436 0.62171435 -1.8194587 4288085770
3.9595528 0.56316757 -1.8218143 4288085770
5.5116444 0.63382196 -1.8217374 4288085770
4.1845551 0.57329226 -1.8348341 4288085770
5.8206768 0.64897299 -1.8315079 4288085770
4.3666973 0.58035612 -1.8324722 4288085770
6.081852 0.66006088 -1.8258536 4288085770
4.5249138 0.58538723 -1.821898 4288085770
6.3749866 0.67117429 -1.8244902 4288085770
4.7420197 0.59247756 -1.8238541 4288085770
6.6801491 0.68228507 -1.8202363 4288085770
4.9571495 0.59855914 -1.822795 4288085770
7.011301 0.69340944 -1.8172188 4288085770
5.2002525 0.60566092 -1.8249879 4288085770
7.3774338 0.70555592 -1.8165169 4288085770
5.4443855 0.61175537 -1.8241926 4288085770
7.7615852 0.71670413 -1.8139815 4288085770
5.7194786 0.61787486 -1.8276794 4288085770
8.200695 0.72888875 -1.8159437 4288085770
6.0025883 0.6229918 -1.8292416 4288085770
8.6618252 0.74107718 -1.8161061 4288085770
6.2847385 0.62709761 -1.826798 4288085770
9.1839409 0.75429583 -1.8178209 4288085770
6.5948753 0.63121843 -1.825609 4288085770
9.7141037 0.76550412 -1.8146139 4288085770
6.9080372 0.63333273 -1.821453 4288085770
10.365175 0.77979159 -1.8214992 4288085770
7.2601833 0.63546968 -1.8196518 4288085770
11.029322 0.79206252 -1.820509 4288085770
7.6343384 0.63661361 -1.8170537 4288085770
11.750467 0.80335855 -1.82004 4288085770
8.077425 0.63980794 -1.8220774 4288085770
12.596589 0.81671619 -1.8227026 4288085770
8.5135784 0.63997936 -1.8200461 4288085770
13.502744 0.8290894 -1.8219142 4288085770
9.0017204 0.63917685 -1.8194909 4288085770
14.599838 0.84356523 -1.8288579 4288085770
9.5088825 0.63637781 -1.8171141 4288085770
15.690079 0.85199285 -1.8197553 4288085770
10.100992 0.63462996 -1.8205078 4288085770
16.988255 0.86353016 -1.8185366 4288085770
10.769093 0.63091922 -1.8255984 4288085770
11.455236 0.62520218 -1.8258587 4288085770
12.234369 0.61752963 -1.8279709 4288085770
13.086528 0.60688138 -1.8277556 4288085770
14.083635 0.59531188 -1.8338623 4288085770
15.134807 0.5787468 -1.8334748 4288085770
16.313002 0.55723 -1.8312569 4288085770
17.581242 0.53174019 -1.8248694 4288085770
12.52357 -7.8023682 -1.5270083 4293729569
12.116463 -7.4835205 -1.5344193 4293729569
11.779348 -7.2046385 -1.5445784 4293729569
11.519214 -6.9677095 -1.5595548 4293729569
8.1427631 -5.1436749 -0.63272297 4293729569
8.1674767 -5.1850395 -1.2220887 4293729569
8.1185722 -5.0536089 -0.66225481 4293729569
8.1463013 -5.0969772 -1.2496533 4293729569
8.1733837 -5.0025043 -0.69361389 4293729569
8.1711063 -5.0288868 -1.2806923 4293729569
10.627893 -6.1279869 -1.6011174 4293729569
10.462823 -5.9510298 -1.6121253 4293729569
10.277808 -5.7690992 -1.6169375 4293729569
10.136763 -5.6071367 -1.6262058 4293729569
9.9877453 -5.4451876 -1.6324013 4293729569
9.8697281 -5.2982235 -1.6389205 4293729569
9.7377319 -5.1462717 -1.6432987 4293729569
16.332304 -7.8178492 -1.5277315 4293729569
9.648716 -5.0132914 -1.651121 4293729569
16.023235 -7.5469675 -1.5331686 4293729569
9.5137634 -4.8633556 -1.6504776 4293729569
15.866118 -7.3389969 -1.5481635 4293729569
9.4277763 -4.735383 -1.655341 4293729569
15.682045 -7.1250505 -1.5578965 4293729569
9.3487988 -4.6114101 -1.6592795 4293729569
15.527984 -6.9250946 -1.5669414 4293729569
9.2838249 -4.493432 -1.6633621 4293729569
15.422903 -6.7461081 -1.5794904 4293729569
9.2368431 -4.3844433 -1.6686333 4293729569
15.276881 -6.5531597 -1.5846279 4293729569
9.2268391 -4.2894278 -1.6772802 4293729569
15.159855 -6.3751965 -1.5910709 4293729569
9.3047428 -4.228344 -1.697822 4293729569
14.053457 -5.8388948 -1.5065094 4293729569
9.5644684 -4.2311182 -1.7421972 4293729569
13.970457 -5.6839218 -1.511326 4293729569
9.8671532 -4.2458611 -1.7919967 4288085770
14.029401 -5.5788622 -1.5255731 4293729569
10.086931 -4.2266722 -1.8289472 4288085770
14.687976 -5.6764069 -1.5928435 4293729569
10.093962 -4.1326618 -1.8337519 4288085770
14.728942 -5.5613651 -1.6038996 4293729569
10.005102 -4.0067291 -1.8245946 4288085770
14.786919 -5.4503174 -1.6141216 4293729569
9.9752045 -3.9017563 -1.8210324 4288085770
14.846913 -5.3372736 -1.6223564 4293729569
9.9802704 -3.806757 -1.8218164 4288085770
15.023853 -5.2621593 -1.6387614 4293729569
9.9843483 -3.7137613 -1.821597 4288085770
15.045906 -5.1361523 -1.6396146 4293729569
10.024399 -3.6297417 -1.8247302 4288085770
15.133919 -5.0311031 -1.6461267 4293729569
10.047485 -3.5417404 -1.8236977 4288085770
15.202978 -4.919076 -1.6474468 4293729569
10.072584 -3.4547415 -1.8216863 4288085770
15.318012 -4.8190193 -1.6522188 4293729569
10.09569 -3.3657451 -1.8186512 4288085770
15.47504 -4.7299414 -1.6584038 4293729569
10.178736 -3.2927036 -1.8232063 4288085770
15.689041 -4.6528311 -1.6681405 4293729569
10.252808 -3.2176738 -1.8246742 4288085770
15.980013 -4.5956745 -1.682634 4293729569
10.352864 -3.1476264 -1.8283926 4288085770
16.536835 -4.5963488 -1.7177094 4293729569
10.454929 -3.0765815 -1.8311267 4288085770
17.264553 -4.6319141 -1.7664381 4293729569
10.535037 -2.9995608 -1.8286439 4288085770
10.650109 -2.929512 -1.8304992 4288085770
10.758209 -2.8574758 -1.8292853 4288085770
10.914258 -2.7954011 -1.834536 4288085770
11.081323 -2.7333279 -1.8378868 4288085770
11.217423 -2.6622787 -1.8369309 4288085770
11.419478 -2.6031861 -1.8416089 4288085770
11.606561 -2.5391092 -1.8431365 4288085770
11.788659 -2.4720397 -1.8426107 4288085770
11.999749 -2.4079542 -1.8433571 4288085770
12.257804 -2.3498373 -1.8485481 4288085770
12.492901 -2.2837443 -1.8485078 4288085770
12.748007 -2.2186441 -1.8476524 4288085770
13.034085 -2.1555223 -1.8500848 4288085770
13.380144 -2.0973697 -1.8550775 4288085770
13.777177 -2.0411849 -1.8635399 4288085770
14.114278 -1.9730482 -1.8634233 4288085770
14.445422 -1.900929 -1.8582412 4288085770
14.878493 -1.8367414 -1.86201 4288085770
15.372553 -1.7735248 -1.8673371 4288085770
15.89962 -1.705296 -1.871951 4288085770
16.38175 -1.629106 -1.8691336 4288085770
16.894882 -1.5509048 -1.8655928 4288085770
17.373095 -1.4637446 -1.8527092 4288085770
17.596729 0.80791497 -1.8207364 4288085770
16.523748 0.86145186 -1.8238101 4288085770
15.565773 0.91103888 -1.8269429 4288085770
14.708816 0.95666695 -1.8290074 4288085770
13.874928 0.99528384 -1.8233008 4288085770
13.187974 1.0369866 -1.8259259 4288085770
12.499084 1.0716696 -1.821552 4288085770
11.911163 1.1084075 -1.8210933 4288085770
11.368251 1.143163 -1.8200502 4288085770
10.854347 1.1749289 -1.8182797 4288085770
10.413412 1.2087369 -1.8201692 4288085770
16.805607 1.8004751 -1.80486 4288085770
9.9865036 1.2405429 -1.8191918 4288085770
15.964627 1.8271182 -1.8101217 4288085770
9.5786152 1.269352 -1.8163958 4288085770
15.181676 1.8507798 -1.8129201 4288085770
9.2057247 1.2981772 -1.8139188 4288085770
14.423784 1.8694336 -1.8089604 4288085770
8.8788052 1.328032 -1.8148583 4288085770
13.783844 1.8931556 -1.8110626 4288085770
8.5339546 1.3538594 -1.808645 4288085770
13.20989 1.9189103 -1.8147612 4288085770
8.2360497 1.381722 -1.8078545 4288085770
12.630004 1.9386432 -1.8114213 4288085770
7.9641361 1.4105988 -1.8082982 4288085770
12.106106 1.9594049 -1.8095894 4288085770
7.7082253 1.4384811 -1.8078905 4288085770
11.617207 1.98018 -1.8070762 4288085770
7.4583397 1.4653602 -1.8055403 4288085770
11.167313 2.0009723 -1.8049191 4288085770
7.2494068 1.4952714 -1.8085557 4288085770
10.778399 2.0257983 -1.8053071 4288085770
7.034502 1.5231714 -1.8085216 4288085770
10.414482 2.0506358 -1.805923 4288085770
6.8346062 1.5510762 -1.8076247 4288085770
10.079556 2.0774894 -1.8077978 4288085770
6.634716 1.5759785 -1.8057357 4288085770
9.7256947 2.0973153 -1.8025187 4288085770
6.4568119 1.6038957 -1.8060392 4288085770
9.4198055 2.1211715 -1.8006662 4288085770
6.3008842 1.6338286 -1.8085377 4288085770
9.1299114 2.1450348 -1.7989595 4288085770
6.135994 1.6607466 -1.8069625 4288085770
8.8560314 2.1679027 -1.7964015 4288085770
5.9821053 1.6876695 -1.8054876 4288085770
8.5961571 2.1907742 -1.7929711 4288085770
5.8461876 1.716609 -1.8071713 4288085770
8.3652611 2.2176647 -1.7917943 4288085770
5.729248 1.7475624 -1.8110226 4288085770
8.1533566 2.2445667 -1.7917908 4288085770
5.6083393 1.7775064 -1.8118407 4288085770
7.9784107 2.2774961 -1.7961081 4288085770
5.4854393 1.8054461 -1.8116455 4288085770
7.7984924 2.3094153 -1.7973827 4288085770
5.3605595 1.8323796 -1.809435 4288085770
7.6046162 2.3343177 -1.7945487 4288085770
5.256649 1.8623312 -1.8104079 4288085770
7.4476948 2.3672471 -1.7960303 4288085770
5.1457634 1.8902709 -1.8083224 4288085770
7.2977772 2.3991802 -1.7975786 4288085770
5.0708027 1.9252493 -1.8145459 4288085770
7.1458855 2.4291039 -1.7961138 4288085770
4.9569588 1.9501774 -1.8084414 4288085770
7.0179539 2.4630487 -1.7988529 4288085770
4.8630638 1.9791265 -1.8075039 4288085770
6.8730793 2.4929698 -1.7954527 4288085770
4.810091 2.0181167 -1.8149177 4288085770
6.7711372 2.531929 -1.79942 4288085770
4.711237 2.0450535 -1.8099449 4288085770
6.6462536 2.5638618 -1.7971967 4288085770
4.6183834 2.0709929 -1.8050292 4288085770
6.5213814 2.593792 -1.7939789 4288085770
4.5634384 2.1069741 -1.8094329 4288085770
6.4284573 2.6317501 -1.7960309 4288085770
4.4666138 2.1309035 -1.8014864 4288085770
6.3425312 2.6707115 -1.7981441 4288085770
4.4097061 2.1648738 -1.8018773 4288085770
6.2606163 2.7106721 -1.7992914 4288085770
4.3597832 2.2008517 -1.8043267 4288085770
6.1856995 2.7506361 -1.8005023 4288085770
4.306879 2.2358234 -1.8047514 4288085770
6.1087933 2.790596 -1.8006947 4288085770
4.2489929 2.2687871 -1.803136 4288085770
6.0319042 2.8285511 -1.7988931 4288085770
4.1990929 2.3037572 -1.8025882 4288085770
5.9939365 2.8795455 -1.8054116 4288085770
4.1482067 2.337724 -1.8010339 4288085770
5.942009 2.9255226 -1.807816 4288085770
4.1182709 2.3787141 -1.8046522 4288085770
5.8880997 2.9704933 -1.8082049 4288085770
4.0853596 2.4186952 -1.8052458 4288085770
5.8461742 3.0194724 -1.8096925 4288085770
4.0404797 2.4526618 -1.8027464 4288085770
5.8102417 3.0684571 -1.8122346 4288085770
4.0145607 2.4946487 -1.8043985 4288085770
5.7793198 3.1204412 -1.8138148 4288085770
3.9746914 2.5296152 -1.8009419 4288085770
5.7633572 3.177443 -1.8195176 4288085770
3.9428005 2.5685909 -1.7995474 4288085770
5.7414322 3.2324309 -1.8211716 4288085770
3.9418411 2.6195998 -1.8054031 4288085770
5.7294865 3.2904294 -1.8249085 4288085770
3.901989 2.6535611 -1.7999495 4288085770
5.7195492 3.3504257 -1.8276585 4288085770
3.8970585 2.7025599 -1.8027742 4288085770
5.6926537 3.4034033 -1.8262721 4288085770
3.8841438 2.7485495 -1.8035342 4288085770
5.6967144 3.4684064 -1.8291365 4288085770
3.8642616 2.7905283 -1.8012413 4288085770
5.6987762 3.5324082 -1.831985 4288085770
3.8683281 2.8435314 -1.8041372 4288085770
5.7018452 3.598408 -1.8338374 4288085770
3.868412 2.8935273 -1.8050053 4288085770
5.7049255 3.6634052 -1.8346926 4288085770
3.8595295 2.940511 -1.8027991 4288085770
5.7269821 3.7364159 -1.8376994 4288085770
3.8885422 3.0055385 -1.8108909 4288085770
5.7390575 3.8064172 -1.8386233 4288085770
3.8876534 3.0555258 -1.8087498 4288085770
5.7651196 3.8814273 -1.8406613 4288085770
3.9116974 3.1175432 -1.813804 4288085770
5.7901936 3.9574347 -1.8416877 4288085770
3.944725 3.1845679 -1.8199271 4288085770
5.8332348 4.0414577 -1.8458565 4288085770
3.9588165 3.2415674 -1.819904 4288085770
5.8713036 4.1254711 -1.84698 4288085770
3.9759159 3.3015654 -1.8189 4288085770
5.9113712 4.2094851 -1.8481218 4288085770
4.0199451 3.3755951 -1.8251047 4288085770
5.9724178 4.3045139 -1.8514253 4288085770
4.0669804 3.450623 -1.8303341 4288085770
6.0484428 4.4075546 -1.8568443 4288085770
4.1120243 3.5256472 -1.8345451 4288085770
6.1224804 4.5105896 -1.8602451 4288085770
4.1590805 3.6006699 -1.8377745 4288085770
6.1975327 4.6136217 -1.8626552 4288085770
4.1891842 3.6676714 -1.8358707 4288085770
6.2995358 4.7336774 -1.8692658 4288085770
4.2482262 3.7497022 -1.8401909 4288085770
6.3736172 4.8377018 -1.8686643 4288085770
4.306284 3.832727 -1.8424994 4288085770
6.4826279 4.9627576 -1.8743254 4288085770
4.3733234 3.9197612 -1.8468791 4288085770
6.6106319 5.0988226 -1.8801302 4288085770
4.4373932 4.0057859 -1.8482343 4288085770
6.743639 5.2378893 -1.8859729 4288085770
4.5034676 4.0938096 -1.8486025 4288085770
6.860693 5.3689356 -1.8866912 4288085770
4.5835133 4.1898475 -1.8520769 4288085770
7.0136909 5.5220118 -1.8926786 4288085770
4.6725521 4.2918887 -1.8556172 4288085770
7.1826859 5.6850948 -1.8987855 4288085770
4.7566223 4.3909206 -1.8561203 4288085770
7.3576756 5.8531809 -1.9049335 4288085770
4.8606472 4.5009713 -1.8607761 4288085770
7.5526562 6.0342755 -1.9112291 4288085770
4.9866409 4.6260405 -1.8685921 4288085770
7.7736053 6.2323914 -1.9207163 4288085770
5.1086636 4.7491002 -1.8733773 4288085770
8.0285339 6.4545245 -1.9314491 4288085770
5.2356911 4.8761592 -1.8771974 4288085770
8.2924652 6.6826591 -1.9412484 4288085770
5.3747158 5.0112238 -1.8811057 4288085770
8.5674133 6.9187927 -1.9491267 4288085770
5.5107594 5.1442809 -1.8829921 4288085770
8.8603554 7.1679349 -1.9571344 4288085770
5.6917152 5.3053808 -1.8932136 4288085770
9.1962566 7.446105 -1.9684565 4288085770
5.8487625 5.4514451 -1.8942568 4288085770
9.5731239 7.7502985 -1.9820828 4288085770
6.0257778 5.6115265 -1.8984449 4288085770
9.9919701 8.0855141 -1.9970094 4288085770
6.2297611 5.7886257 -1.9048338 4288085770
6.475687 5.9947577 -1.9165276 4288085770
6.7086639 6.1908703 -1.9231303 4288085770
6.9975586 6.4260263 -1.9371388 4288085770
7.2944584 6.665184 -1.95021 4288085770
7.6073799 6.9153399 -1.9603977 4288085770
7.9133415 7.1614838 -1.9665327 4288085770
8.2443027 7.4236345 -1.9718531 4288085770
8.6431675 7.7318382 -1.9856703 4288085770
9.0830212 8.0680599 -1.9997865 4288085770
16.735538 -0.73516369 -1.8205137 4288085770
15.783561 -0.77855682 -1.8279287 4288085770
14.870646 -0.81194735 -1.8286735 4288085770
14.053691 -0.84428549 -1.8342927 4288085770
13.244814 -0.86664248 -1.8309587 4288085770
12.511924 -0.8869648 -1.8293138 4288085770
11.836038 -0.9042635 -1.8271819 4288085770
11.234122 -0.91952038 -1.828721 4288085770
10.6842 -0.93375444 -1.8307325 4288085770
16.929585 -1.4540668 -1.8492155 4288085770
10.148304 -0.94299078 -1.8298589 4288085770
15.907568 -1.4454803 -1.8588508 4288085770
9.6424179 -0.95021486 -1.828254 4288085770
14.848673 -1.4229474 -1.8541112 4288085770
9.1525555 -0.95344114 -1.8237848 4288085770
13.937745 -1.4063406 -1.8537401 4288085770
8.726656 -0.95862818 -1.8239058 4288085770
13.096833 -1.3877077 -1.8520036 4288085770
8.3207626 -0.9618082 -1.8232042 4288085770
12.339909 -1.3700347 -1.8520374 4288085770
7.9818039 -0.96793938 -1.8301226 4288085770
11.63801 -1.3513446 -1.8495713 4288085770
7.6139183 -0.96710587 -1.8287576 4288085770
11.022072 -1.3346062 -1.8518966 4288085770
7.278019 -0.96725416 -1.8286878 4288085770
10.43316 -1.317863 -1.8514686 4288085770
6.9790936 -0.96837854 -1.8319587 4288085770
9.8682804 -1.2971196 -1.8472497 4288085770
6.7111397 -0.97048092 -1.8385154 4288085770
9.3563824 -1.2783475 -1.8455203 4288085770
6.4122562 -0.96561909 -1.8367702 4288085770
8.8625126 -1.2575755 -1.8409503 4288085770
6.1493454 -0.96373224 -1.8383623 4288085770
8.4246006 -1.2407675 -1.8409024 4288085770
5.9094067 -0.96182775 -1.8431642 4288085770
8.025692 -1.2239418 -1.8412113 4288085770
5.6455498 -0.95395756 -1.8387313 4288085770
7.671751 -1.2100873 -1.8449391 4288085770
5.4166451 -0.94905853 -1.8396261 4288085770
7.3268299 -1.1942353 -1.8467441 4288085770
5.1717949 -0.94018269 -1.8343641 4288085770
6.9979153 -1.1773787 -1.8476926 4288085770
4.9828548 -0.93625498 -1.8396268 4288085770
6.7049809 -1.1635003 -1.8509781 4288085770
4.8099022 -0.93331814 -1.8460385 4288085770
6.4260502 -1.1496158 -1.8543916 4288085770
4.6030331 -0.92341948 -1.8431211 4288085770
6.1172047 -1.1277714 -1.8475097 4288085770
4.4241257 -0.91649866 -1.8444674 4288085770
5.8912354 -1.1168523 -1.8554155 4288085770
4.239254 -0.90759039 -1.8417537 4288085770
5.5854454 -1.0920224 -1.8425535 4288085770
4.0603848 -0.89767933 -1.8390921 4288085770
5.3435535 -1.0741339 -1.8412948 4288085770
3.8895111 -0.886765 -1.836501 4288085770
5.1296368 -1.059226 -1.8432997 4288085770
3.7356129 -0.87783527 -1.8370707 4288085770
4.9376907 -1.0462999 -1.8485111 4288085770
3.6076584 -0.87187767 -1.8438857 4288085770
4.73279 -1.0303931 -1.8485957 4288085770
3.4448204 -0.85897017 -1.8373624 4288085770
4.5329075 -1.0124888 -1.8467208 4288085770
3.2869835 -0.84606075 -1.8308851 4288085770
4.3400345 -0.99458456 -1.8439101 4288085770
3.1590824 -0.83611917 -1.8316897 4288085770
4.1401958 -0.97469378 -1.8370301 4288085770
3.0291901 -0.82518148 -1.8314732 4288085770
3.9633217 -0.95678234 -1.8343654 4288085770
2.9082985 -0.81523895 -1.8313419 4288085770
3.7954445 -0.93886614 -1.8317832 4288085770
2.7814331 -0.80230713 -1.8281478 4288085770
3.6794605 -0.92889595 -1.841697 4288085770
2.6645546 -0.79136896 -1.82605 4288085770
3.5156097 -0.90998602 -1.8361484 4288085770
3.3697414 -0.89306307 -1.83277 4288085770
3.2218838 -0.87514353 -1.8283706 4288085770
3.0820274 -0.85622072 -1.8240415 4288085770
2.987051 -0.8462429 -1.8331473 4288085770
2.841238 -0.82533598 -1.8237584 4288085770
2.7442875 -0.81236792 -1.8298383 4288085770
2.656662 1.0067754 -1.8133075 4288085770
2.7727604 1.0238211 -1.8143264 4288085770
2.8659401 1.0348351 -1.8071511 4288085770
2.9870453 1.0508826 -1.8082187 4288085770
3.0981979 1.0639122 -1.8042028 4288085770
3.2482433 1.0829883 -1.8115278 4288085770
3.372385 1.0970266 -1.8086283 4288085770
3.5264683 1.114094 -1.8119955 4288085770
2.7015171 1.0037498 -1.8147321 4288085770
3.6685925 1.1291454 -1.8112581 4288085770
2.8056641 1.012779 -1.8116626 4288085770
3.8097343 1.1431911 -1.8085144 4288085770
2.9327602 1.024832 -1.8137957 4288085770
3.9698563 1.1582508 -1.8079419 4288085770
3.0449028 1.0338647 -1.8107996 4288085770
4.1439571 1.1753218 -1.8094923 4288085770
3.1839905 1.0459254 -1.8140426 4288085770
4.3240585 1.1913955 -1.8111004 4288085770
3.3191051 1.0559766 -1.8142542 4288085770
4.4912262 1.2044451 -1.8055975 4288085770
3.4562321 1.065026 -1.8134871 4288085770
4.6943169 1.2225316 -1.8084109 4288085770
3.6043358 1.0750854 -1.8148177 4288085770
4.9363518 1.2436514 -1.8175732 4288085770
3.7464809 1.0821319 -1.8121016 4288085770
5.1325188 1.2567139 -1.812336 4288085770
3.9185543 1.0942097 -1.8166467 4288085770
5.3845768 1.2768297 -1.8185928 4288085770
4.0786877 1.1022668 -1.8150928 4288085770
5.6436539 1.295944 -1.8229164 4288085770
4.2518044 1.1113348 -1.8156551 4288085770
5.8578491 1.3070066 -1.8148495 4288085770
4.4518719 1.1224277 -1.8214595 4288085770
6.1129856 1.3211033 -1.8131499 4288085770
4.6010799 1.1244586 -1.8118212 4288085770
6.3881207 1.3372087 -1.8116286 4288085770
4.7991943 1.1315379 -1.8126178 4288085770
6.6832466 1.3533258 -1.81129 4288085770
5.0212688 1.1416383 -1.8176262 4288085770
7.00037 1.3694522 -1.8111531 4288085770
5.223423 1.1457086 -1.8144679 4288085770
7.343483 1.3865936 -1.8122516 4288085770
5.4675064 1.1538157 -1.8186831 4288085770
7.6956253 1.4027307 -1.8104355 4288085770
5.7066193 1.1599131 -1.819858 4288085770
8.0657654 1.4168756 -1.8087893 4288085770
5.9367809 1.1629937 -1.8159587 4288085770
8.5028515 1.4370637 -1.8127408 4288085770
6.1949215 1.1660914 -1.8143157 4288085770
8.9649429 1.4562628 -1.8169241 4288085770
6.4710426 1.1692026 -1.8148375 4288085770
9.4490566 1.4754639 -1.8183089 4288085770
6.7511921 1.1713073 -1.8123989 4288085770
9.9591923 1.4916711 -1.8179399 4288085770
7.0663033 1.1744387 -1.8142778 4288085770
10.518314 1.5099032 -1.8190144 4288085770
