# .PCD v0.7 - Point Cloud Data file format
VERSION 0.7
FIELDS x y z rgb
SIZE 4 4 4 4
TYPE F F F U
COUNT 1 1 1 1
WIDTH 1109
HEIGHT 1
VIEWPOINT 0 0 0 1 0 0 0
POINTS 1109
DATA ascii
-0.85430908 2.3387313 -1.7420151 4288085770
-2.0531158 2.0391207 -1.7628388 4288085770
-0.64120483 2.3649812 -1.741945 4288085770
-1.9159546 2.0483193 -1.7580144 4288085770
-0.4151001 2.3902535 -1.7409711 4288085770
-1.7608337 2.0605121 -1.7563596 4288085770
-0.16203308 2.4215226 -1.7442646 4288085770
-1.6126862 2.0687232 -1.7516155 4288085770
0.093063354 2.4498196 -1.7445493 4288085770
-1.4346008 2.0829167 -1.7531626 4288085770
0.3561554 2.4771252 -1.7448895 4288085770
-1.2584686 2.0941257 -1.7526681 4288085770
0.68017578 2.5164237 -1.7548211 4288085770
-1.0773468 2.1053486 -1.751214 4288085770
0.96829224 2.5437741 -1.7533619 4288085770
-0.88922119 2.1155705 -1.7508075 4288085770
1.2763977 2.5721388 -1.753072 4288085770
-0.70007324 2.1238189 -1.7473922 4288085770
1.5555725 2.5895381 -1.7444563 4288085770
-0.50093079 2.1310697 -1.7450488 4288085770
1.8487549 2.608953 -1.7359698 4288085770
-0.25286865 2.1473098 -1.7511749 4288085770
2.1938934 2.6343846 -1.7329516 4288085770
-0.019760132 2.1575737 -1.7521298 4288085770
2.5040894 2.6488438 -1.7215595 4288085770
0.21537781 2.1658568 -1.7510839 4288085770
2.9051971 2.6783209 -1.7210252 4288085770
0.4724884 2.1751399 -1.7532229 4288085770
3.3582611 2.7138314 -1.7239592 4288085770
0.72961426 2.1824403 -1.753345 4288085770
3.7824097 2.7383685 -1.7195673 4288085770
0.98773193 2.1857662 -1.7504416 4288085770
4.1756439 2.7519374 -1.7068334 4288085770
1.2838593 2.1930933 -1.752877 4288085770
4.6298065 2.7725329 -1.6996484 4288085770
1.5500183 2.1924372 -1.7490034 4288085770
5.1069946 2.7931628 -1.6916482 4288085770
1.8291931 2.190804 -1.744226 4288085770
5.6381531 2.8168373 -1.6861069 4288085770
2.1213684 2.1871853 -1.739537 4288085770
6.1983032 2.8385611 -1.6787829 4288085770
2.4095612 2.1805797 -1.7327893 4288085770
6.8204651 2.8633366 -1.6739812 4288085770
2.7587128 2.1789999 -1.7315741 4288085770
7.4716644 2.8861704 -1.6663957 4288085770
3.1358185 2.1774259 -1.7335835 4288085770
8.1708374 2.9080667 -1.6581872 4288085770
3.4760284 2.1658869 -1.7262113 4288085770
8.9410095 2.9320345 -1.6515658 4288085770
3.8671722 2.1573544 -1.7252741 4288085770
9.8401337 2.9660959 -1.6520648 4288085770
4.2633667 2.1458535 -1.7213511 4288085770
10.838242 3.0012856 -1.6513679 4288085770
4.6256256 2.123373 -1.7100625 4288085770
11.933365 3.0385847 -1.6514666 4288085770
5.0647888 2.1069202 -1.7064428 4288085770
5.5229797 2.0874887 -1.70295 4288085770
6.0281677 2.0661101 -1.6998181 4288085770
6.5463715 2.0397472 -1.6967478 4288085770
7.1025543 2.0124269 -1.6939743 4288085770
7.7077484 1.9821434 -1.6935687 4288085770
8.2819824 1.9418855 -1.6858292 4288085770
8.9621735 1.9026966 -1.6849496 4288085770
9.6693878 1.8575549 -1.6822362 4288085770
10.446609 1.808475 -1.6820505 4288085770
11.3078 1.7544732 -1.6844969 4288085770
10.680283 -5.6651258 -0.28736091 4293729569
10.539291 -5.7595024 -0.31143123 4293729569
7.7715149 -4.968709 -0.30292994 4293729569
7.473465 -4.9842501 -0.32440794 4293729569
7.1794281 -4.9987831 -0.3459267 4293729569
7.132431 -5.0950804 -0.37373513 4293729569
6.4682465 -4.9670038 -0.38949305 4293729569
6.4402466 -5.0642872 -0.41844475 4293729569
7.1494293 -5.4448738 -0.4679108 4293729569
4.4784546 -5.0864782 -0.63552564 4293729569
4.4453583 -5.1648436 -0.67359734 4293729569
3.026062 -4.6212749 -0.6438148 4293729569
2.8359528 -4.6167345 -0.67132872 4293729569
2.6568298 -4.6131916 -0.6999222 4293729569
2.5337219 -4.6346102 -0.73175383 4293729569
2.5256195 -4.7069473 -0.77007699 4293729569
2.5730286 -4.7834291 -0.23477443 4293729569
2.5294952 -4.7852964 -0.8114453 4293729569
2.529892 -4.8368225 -0.27497667 4293729569
2.5193481 -4.855669 -0.85376865 4293729569
2.5087585 -4.9001913 -0.3152709 4293729569
2.4812164 -4.9110565 -0.89399421 4293729569
6.2238312 -7.5455065 -1.706727 4293729569
5.6466064 -7.3142548 -1.7140541 4293729569
5.1364136 -7.1119413 -1.7236736 4293729569
4.6162262 -6.8965969 -1.728323 4293729569
4.0471039 -6.6452188 -1.7218845 4293729569
3.5879517 -6.4488058 -1.7268631 4293729569
3.1088409 -6.2343502 -1.7238338 4293729569
2.7117004 -6.0618753 -1.7301068 4293729569
2.3096008 -5.8803577 -1.7304163 4293729569
2.0014648 -5.7478218 -1.7420647 4293729569
1.635376 -5.5772629 -1.7425702 4293729569
1.3102875 -5.4266891 -1.7472351 4293729569
1.0122223 -5.2870846 -1.7520235 4293729569
4.5031128 -7.3996382 -1.7091012 4293729569
0.72013855 -5.1474657 -1.7558606 4293729569
3.9668427 -7.1183233 -1.7151794 4293729569
0.43505859 -5.0078306 -1.7587535 4293729569
3.4966125 -6.8719587 -1.7244911 4293729569
0.14903259 -4.8631554 -1.7566812 4293729569
2.9864349 -6.5945406 -1.721745 4293729569
-0.125 -4.7224646 -1.7546716 4293729569
2.59021 -6.3820906 -1.7313628 4293729569
-0.35205078 -4.6077719 -1.7588184 4293729569
2.19104 -6.1635952 -1.735008 4293729569
-0.58306885 -4.4860582 -1.7599926 4293729569
1.8358917 -5.9670658 -1.7408199 4293729569
-0.80709839 -4.3663197 -1.7592063 4293729569
1.4647675 -5.7564964 -1.7396228 4293729569
-0.99513245 -4.2675915 -1.7645309 4293729569
1.1596375 -5.584918 -1.7466247 4293729569
-1.1691742 -4.1738539 -1.7709258 4293729569
0.84750366 -5.4043064 -1.7486475 4293729569
-1.3432007 -4.0781002 -1.7753372 4293729569
0.5774231 -5.2476711 -1.7538033 4293729569
-1.4932251 -3.9963531 -1.7838223 4293729569
0.28634644 -5.0740185 -1.7539351 4293729569
-1.5264282 -3.9887037 -1.8206182 4293729569
0.026275635 -4.9173307 -1.7541718 4293729569
-1.5496063 -3.9860611 -1.8594515 4293729569
-0.2297821 -4.7606211 -1.7524409 4293729569
-1.5678101 -3.9844208 -1.8993163 4288085770
-0.45884705 -4.6189137 -1.7547994 4293729569
-1.624939 -3.9547329 -1.9281056 4288085770
-0.68087769 -4.4801674 -1.7531891 4293729569
-1.7769318 -3.8599224 -1.9286849 4288085770
-0.8729248 -4.3564262 -1.7566919 4293729569
-1.934906 -3.7600842 -1.9252589 4288085770
-1.0509796 -4.2416782 -1.7612309 4293729569
-2.0808716 -3.6652403 -1.9228866 4288085770
-1.2080078 -4.1379137 -1.7668452 4293729569
-2.2198334 -3.5743885 -1.9205368 4288085770
-1.3570557 -4.0371494 -1.7734983 4293729569
-2.3587952 -3.4805193 -1.9162123 4288085770
-1.4112091 -3.9974422 -1.800395 4293729569
-2.4747772 -3.4006672 -1.9169536 4288085770
-1.4004059 -3.9967937 -1.8434815 4293729569
-2.5807343 -3.3258104 -1.9187324 4288085770
-1.3846436 -3.9981489 -1.8875906 4288085770
-2.6876984 -3.2489395 -1.9185205 4288085770
-1.4048309 -3.9734612 -1.9216321 4288085770
-2.8086395 -3.1620255 -1.9112816 4288085770
-1.5348206 -3.8776331 -1.9233949 4288085770
-2.9026184 -3.0911474 -1.912123 4288085770
-1.6808167 -3.7697821 -1.9201319 4288085770
-1.807785 -3.672925 -1.9189277 4288085770
-1.9347534 -3.5750513 -1.9157324 4288085770
-2.0467377 -3.485178 -1.9145892 4288085770
-2.1656647 -3.3912783 -1.9094245 4288085770
-2.2546539 -3.3144035 -1.9113555 4288085770
-2.3635864 -3.224493 -1.9062369 4288085770
-2.4455719 -3.1506023 -1.9071987 4288085770
-2.522522 -3.0796957 -1.9071753 4288085770
-2.602478 -3.0057783 -1.9051535 4288085770
-2.681427 -2.9318581 -1.9031396 4288085770
-2.7553558 -2.8609238 -1.9001405 4288085770
-2.8182983 -2.7949934 -1.8991871 4288085770
-2.8832245 -2.7280579 -1.8972263 4288085770
-2.8525696 -1.1408463 -1.8564699 4288085770
-2.8154297 -1.11376 -1.8509822 4288085770
-2.7513275 -1.0937023 -1.8526487 4288085770
-2.6782684 -1.0756588 -1.8573687 4288085770
-2.6281281 -1.0515661 -1.8529582 4288085770
-2.562027 -1.0294809 -1.8516569 4288085770
-2.4969025 -1.0083961 -1.8503392 4288085770
-2.4248047 -0.98731232 -1.8500764 4288085770
-2.3566895 -0.96621704 -1.8477821 4288085770
-2.2835693 -0.94511414 -1.8455274 4288085770
-2.1835022 -0.92903137 -1.849443 4288085770
-2.1143646 -0.90591049 -1.8441732 4288085770
-2.0222473 -0.88680267 -1.8440506 4288085770
-1.9321289 -0.86768246 -1.8419123 4288085770
-1.8429871 -0.84755325 -1.8387744 4288085770
-2.9082794 -0.63389397 -1.8471782 4288085770
-1.7398834 -0.82842541 -1.837738 4288085770
-2.8301544 -0.61579514 -1.8459377 4288085770
-1.6317749 -0.81028461 -1.8357327 4288085770
-2.7390747 -0.59870672 -1.8477907 4288085770
-1.5096741 -0.79315186 -1.8368289 4288085770
-2.6619415 -0.5795908 -1.8445504 4288085770
-1.3935547 -0.77500057 -1.8348861 4288085770
-2.5788269 -0.56147003 -1.8413489 4288085770
-1.2614441 -0.75784969 -1.8350606 4288085770
-2.4866943 -0.54435444 -1.8402095 4288085770
-1.1363068 -0.73968124 -1.8321884 4288085770
-2.3885803 -0.52723312 -1.8391173 4288085770
-0.9662323 -0.72652721 -1.8376276 4288085770
-2.2725067 -0.51212311 -1.8421495 4288085770
-0.83010864 -0.70833683 -1.8338416 4288085770
-2.1753693 -0.49298668 -1.839066 4288085770
-0.67799377 -0.69113636 -1.8311727 4288085770
-2.0802307 -0.47382593 -1.8329666 4288085770
-0.49989319 -0.6759491 -1.8336909 4288085770
-1.9541321 -0.45868921 -1.8340771 4288085770
-0.35273743 -0.65572166 -1.8270078 4288085770
-1.8260193 -0.44254112 -1.8342118 4288085770
-0.16461182 -0.64048958 -1.8256044 4288085770
-1.7128754 -0.42436934 -1.8292449 4288085770
0.025497437 -0.62325573 -1.8242335 4288085770
-1.5707703 -0.40820503 -1.8294892 4288085770
0.26359558 -0.61100864 -1.8281972 4288085770
-1.426651 -0.39201641 -1.8287499 4288085770
0.498703 -0.59672451 -1.8291569 4288085770
-1.289505 -0.37381601 -1.8239737 4288085770
0.68688965 -0.57541656 -1.8188059 4288085770
-1.1283875 -0.3576231 -1.8233688 4288085770
0.91403198 -0.55809736 -1.8127277 4288085770
-0.965271 -0.34141827 -1.8217797 4288085770
1.1881409 -0.54277515 -1.8130014 4288085770
-0.77716064 -0.32520199 -1.8223865 4288085770
1.4742889 -0.52742243 -1.8113694 4288085770
-0.59204102 -0.30897284 -1.8209698 4288085770
1.7534485 -0.51004553 -1.8056991 4288085770
-0.39889526 -0.29171753 -1.8176243 4288085770
2.0755768 -0.49463606 -1.8023493 4288085770
-0.19377136 -0.27545691 -1.8153646 4288085770
2.4097443 -0.47819519 -1.7971022 4288085770
0.02734375 -0.25818729 -1.8142385 4288085770
2.7978668 -0.46372795 -1.7962623 4288085770
0.28244019 -0.24289417 -1.8153625 4288085770
3.2000275 -0.44821835 -1.7925403 4288085770
0.53057861 -0.22557688 -1.8124483 4288085770
3.6581421 -0.43366337 -1.7912493 4288085770
0.79071045 -0.20823812 -1.8086278 4288085770
4.1562805 -0.41906309 -1.7902718 4288085770
1.0968018 -0.19188738 -1.8101602 4288085770
4.6963959 -0.40540457 -1.7886162 4288085770
1.4019318 -0.17450571 -1.8076928 4288085770
5.2246094 -0.38668728 -1.7779076 4288085770
1.6771393 -0.15308237 -1.7960234 4288085770
5.8027954 -0.36891222 -1.7675827 4288085770
2.0322723 -0.13564301 -1.7939479 4288085770
6.5109711 -0.35403109 -1.763253 4288085770
2.3904419 -0.11615944 -1.7869127 4288085770
7.2941437 -0.33805656 -1.7585199 4288085770
2.8455353 -0.099641323 -1.7896135 4288085770
8.142334 -0.32097673 -1.7503049 4288085770
3.3196564 -0.081075191 -1.7894795 4288085770
9.1035156 -0.30475807 -1.7419682 4288085770
3.899704 -0.06546545 -1.7991519 4288085770
10.202744 -0.28837633 -1.7337141 4288085770
4.4008942 -0.042786121 -1.789263 4288085770
11.609863 -0.27572012 -1.7368431 4288085770
5.0020447 -0.022034168 -1.7851415 4288085770
5.5333099 0.0037541389 -1.7665124 4288085770
6.2774353 0.025675774 -1.7625208 4288085770
7.101593 0.049687386 -1.7591727 4288085770
7.981781 0.075813293 -1.7502806 4288085770
8.9999695 0.10308552 -1.7434788 4288085770
10.147171 0.13253927 -1.7337053 4288085770
11.648254 0.16129398 -1.7386999 4288085770
11.023956 0.32310867 -1.7310438 4288085770
9.5870361 0.31731033 -1.732981 4288085770
8.3900909 0.31378508 -1.7377763 4288085770
7.3891144 0.31146574 -1.7470837 4288085770
6.4871368 0.31127977 -1.7551675 4288085770
5.6921844 0.31123543 -1.7620726 4288085770
5.0581512 0.31230688 -1.7792206 4288085770
11.312851 0.30052233 -1.7230406 4288085770
4.482132 0.31446266 -1.794822 4288085770
9.8109283 0.30866146 -1.7225947 4288085770
3.9781036 0.31668711 -1.8129759 4288085770
8.5999451 0.31610966 -1.7283735 4288085770
3.6219482 0.31997156 -1.8462725 4282675967
7.5469666 0.3247366 -1.7363727 4288085770
2.6725006 0.32730436 -1.7830508 4288085770
6.6829529 0.33255291 -1.7498136 4288085770
2.1946106 0.33270597 -1.7834303 4288085770
5.8330078 0.34146738 -1.753371 4288085770
1.7797089 0.3381567 -1.7872927 4288085770
5.1979523 0.34952831 -1.771569 4288085770
1.4177551 0.34465313 -1.7935698 4288085770
4.6339111 0.35867262 -1.7903199 4288085770
1.070816 0.3501749 -1.7989542 4288085770
4.0589294 0.36788607 -1.7989872 4288085770
0.75985718 0.35673285 -1.8056228 4288085770
3.6358337 0.37715721 -1.8238194 4288085770
0.4379425 0.36432457 -1.8062158 4288085770
2.9181366 0.38748598 -1.7964005 4288085770
0.1390686 0.37194347 -1.8069851 4288085770
2.3153839 0.39689302 -1.7768552 4288085770
-0.15782166 0.37959766 -1.8037703 4288085770
1.8834839 0.40534687 -1.7776124 4288085770
-0.42570496 0.3872776 -1.8017778 4288085770
1.5315094 0.41583061 -1.786999 4288085770
-0.67359924 0.3949666 -1.8019388 4288085770
1.1915588 0.42536163 -1.7924702 4288085770
-0.9025116 0.40267611 -1.8022454 4288085770
0.86662292 0.43591642 -1.7970643 4288085770
-1.1283875 0.41040516 -1.8005753 4288085770
0.60861206 0.446486 -1.8101721 4288085770
-1.324295 0.41914654 -1.8021431 4288085770
0.25979614 0.45712805 -1.8005831 4288085770
-1.525177 0.42790461 -1.800673 4288085770
-0.027099609 0.46677637 -1.7994614 4288085770
-1.6931 0.43665361 -1.8054557 4288085770
-0.28501892 0.4774437 -1.80057 4288085770
-1.8570099 0.44543171 -1.8072691 4288085770
-0.55885315 0.48715782 -1.7935483 4288085770
-2.0178986 0.45422125 -1.8081057 4288085770
-0.80171204 0.4978838 -1.7897725 4288085770
-2.1777954 0.46402884 -1.8069582 4288085770
-1.0086212 0.5086112 -1.7912722 4288085770
-2.307724 0.47281408 -1.8130324 4288085770
-1.2085419 0.51834488 -1.7928178 4288085770
-2.4446411 0.4826231 -1.8150613 4288085770
-1.3954468 0.52909613 -1.7944713 4288085770
-2.5865173 0.49245977 -1.8130517 4288085770
-1.5553894 0.54085398 -1.7993398 4288085770
-2.7004547 0.50227165 -1.8182571 4288085770
-1.7362671 0.5516367 -1.7980394 4288085770
-2.8123779 0.51210213 -1.8214774 4288085770
-1.8812103 0.56241226 -1.8030145 4288085770
-2.0321198 0.57421303 -1.8039527 4288085770
-2.1700134 0.58501387 -1.8069818 4288085770
-2.3049316 0.59683418 -1.8080423 4288085770
-2.4208679 0.6076436 -1.8132403 4288085770
-2.5547638 0.61948967 -1.8113086 4288085770
-2.662674 0.63131714 -1.8155761 4288085770
-2.8035126 0.6412015 -1.8075752 4288085770
-2.8934631 0.65403509 -1.8139884 4288085770
-2.8617096 2.8532791 -1.7456939 4288085770
-2.7396393 2.8944359 -1.7449536 4288085770
-2.6185608 2.9335923 -1.7441893 4288085770
-2.4894714 2.9747591 -1.7435017 4288085770
-2.3434296 3.0219212 -1.7459924 4288085770
-2.2492218 3.0441513 -1.7318847 4288085770
-2.1210938 3.0803494 -1.7271492 4288085770
-1.9660339 3.1265392 -1.7277002 4288085770
-2.8937225 2.7471566 -1.7515557 4288085770
-1.8299103 3.1617622 -1.7210174 4288085770
-2.7746277 2.7773108 -1.7507029 4288085770
-1.6728058 3.2049789 -1.7185593 4288085770
-2.6575317 2.8034792 -1.7478023 4288085770
-1.5087128 3.2482038 -1.7161543 4288085770
-2.5404053 2.829648 -1.7449017 4288085770
-1.3326416 3.295434 -1.7148731 4288085770
-2.3993378 2.8638129 -1.7462487 4288085770
-1.1715088 3.3336887 -1.7084048 4288085770
-2.2652435 2.8939857 -1.7455099 4288085770
-0.97145081 3.3859403 -1.7083468 4288085770
-2.1331177 2.9201808 -1.7417233 4288085770
-0.80430603 3.4212179 -1.6998999 4288085770
-1.9950104 2.9473672 -1.7399905 4288085770
-0.56626892 3.4844754 -1.70522 4288085770
-1.8389282 2.9805579 -1.7404432 4288085770
-0.38313293 3.5227723 -1.696919 4288085770
-1.6928101 3.0077615 -1.7377715 4288085770
-0.12911987 3.5860567 -1.7013609 4288085770
-1.5496826 3.0309782 -1.7330444 4288085770
0.14686584 3.6553512 -1.7080188 4288085770
-1.4185181 3.048213 -1.7241771 4288085770
0.44485474 3.7286727 -1.7148762 4288085770
-1.223465 3.088419 -1.7289829 4288085770
0.74087524 3.798008 -1.719686 4288085770
-1.0413818 3.1206427 -1.7296255 4288085770
1.049881 3.8683672 -1.7236028 4288085770
-0.89321899 3.137898 -1.7208874 4288085770
1.321991 3.9217472 -1.7191005 4288085770
-0.71310425 3.1641431 -1.7184658 4288085770
1.6110687 3.9771476 -1.7147431 4288085770
-0.5289917 3.1903934 -1.7160745 4288085770
1.9221649 4.0365667 -1.711586 4288085770
-0.34983826 3.2106695 -1.7095964 4288085770
2.2851868 4.1110067 -1.7139459 4288085770
-0.12176514 3.2469325 -1.7126207 4288085770
2.6692047 4.1864738 -1.7164736 4288085770
0.084350586 3.2722173 -1.7093885 4288085770
3.0961914 4.2739601 -1.7234254 4288085770
0.32839966 3.3084908 -1.7135344 4288085770
3.5331726 4.3584819 -1.7274292 4288085770
0.61741638 3.3557787 -1.7231116 4288085770
3.9602356 4.4340324 -1.7262838 4288085770
0.87348938 3.3880913 -1.7243164 4288085770
4.4012909 4.5076084 -1.7242286 4288085770
1.1275787 3.4174111 -1.7244813 4288085770
4.8333893 4.5741987 -1.7190478 4288085770
1.370697 3.4387488 -1.7204978 4288085770
5.2885132 4.639833 -1.712034 4288085770
1.598877 3.4521019 -1.7123358 4288085770
5.7635956 4.7074919 -1.705189 4288085770
1.8440399 3.4674594 -1.7063186 4288085770
6.2227631 4.7631721 -1.6931245 4288085770
2.1231384 3.4898248 -1.704617 4288085770
6.674942 4.8108673 -1.6779418 4288085770
2.4112854 3.5122099 -1.7019835 4288085770
7.2310638 4.8816338 -1.6707366 4288085770
2.7213745 3.5346057 -1.7015173 4288085770
7.8331451 4.9584532 -1.6639297 4288085770
3.0414886 3.5570128 -1.7011271 4288085770
8.4212952 5.0242901 -1.6529269 4288085770
3.4295197 3.592454 -1.7073593 4288085770
9.0554199 5.0941744 -1.6433065 4288085770
3.8165588 3.6248944 -1.7135594 4288085770
9.7855072 5.18115 -1.6375539 4288085770
4.1227722 3.6283505 -1.7049084 4288085770
10.642502 5.2912383 -1.6379535 4288085770
4.4419403 3.6328063 -1.6983643 4288085770
11.592484 5.413415 -1.642158 4288085770
4.792099 3.6382921 -1.693064 4288085770
5.123291 3.6357713 -1.6855543 4288085770
5.5034485 3.6402857 -1.6814737 4288085770
5.9205933 3.64782 -1.6806986 4288085770
6.3087616 3.6433606 -1.6746058 4288085770
6.7219391 3.6389148 -1.6707029 4288085770
7.1520844 3.6334825 -1.6679215 4288085770
7.5792847 3.6200709 -1.6620517 4288085770
8.0244904 3.6046731 -1.6573026 4288085770
8.4936676 3.5873048 -1.6527197 4288085770
8.9438782 3.5599301 -1.645911 4288085770
9.4800415 3.5436034 -1.6468453 4288085770
10.015228 3.5182991 -1.6446989 4288085770
10.65033 3.5010602 -1.6503773 4288085770
11.264496 3.4708285 -1.6517906 4288085770
11.848694 3.4285777 -1.6508784 4288085770
11.476456 -4.6215334 -1.8074555 4288085770
10.850525 -4.5923347 -1.8069408 4288085770
10.252594 -4.5601091 -1.8076627 4293729569
9.6976471 -4.5318394 -1.8096795 4288085770
9.1796875 -4.5055399 -1.8139606 4288085770
8.6907196 -4.4822226 -1.8204381 4288085770
8.221756 -4.4568806 -1.8270836 4288085770
7.7907562 -4.4365158 -1.8369772 4288085770
7.3567963 -4.4081316 -1.8439131 4288085770
6.9617767 -4.3867311 -1.8550885 4288085770
6.5417938 -4.3523207 -1.8611796 4288085770
10.507568 -5.6971502 -1.4743311 4293729569
6.1817932 -4.3318863 -1.8736129 4288085770
7.8926849 -4.9434214 -1.3415972 4293729569
5.7888184 -4.2934456 -1.8799415 4288085770
7.5675049 -4.937129 -1.3771815 4293729569
5.402832 -4.2519779 -1.8843479 4288085770
7.2253571 -4.9188404 -1.4107338 4293729569
5.0328522 -4.2105074 -1.8908756 4288085770
7.2191162 -5.0143557 -1.4729133 4293729569
4.6428833 -4.1570225 -1.892349 4288085770
7.1698914 -5.0959167 -1.5338798 4293729569
4.2419281 -4.0935192 -1.8898201 4288085770
6.4708099 -4.9347801 -1.529881 4293729569
3.8320007 -4.0220022 -1.8842881 4288085770
6.4425812 -5.0163221 -1.5920069 4293729569
3.4740448 -3.9634542 -1.8830454 4288085770
6.4772797 -5.1208506 -1.6624246 4293729569
3.1780396 -3.9249096 -1.8921111 4288085770
6.3780365 -5.1744404 -1.7192385 4293729569
2.8540649 -3.8703356 -1.8930943 4288085770
5.8579407 -5.0581732 -1.7272344 4293729569
2.5501099 -3.8197556 -1.8961968 4288085770
5.2828979 -4.9158936 -1.7250237 4293729569
2.2371368 -3.7601595 -1.8963041 4288085770
4.7848358 -4.7945528 -1.7272277 4293729569
1.9351959 -3.7005358 -1.8944952 4288085770
4.3487701 -4.6921749 -1.7347486 4293729569
1.6602173 -3.6489182 -1.8978262 4288085770
3.8587341 -4.5627823 -1.7320786 4293729569
1.3702698 -3.5862722 -1.8951325 4288085770
3.4616699 -4.4643402 -1.7378631 4293729569
1.1043091 -3.5286112 -1.8945808 4288085770
3.0966187 -4.373868 -1.7448261 4293729569
0.8283844 -3.4639397 -1.89101 4288085770
2.7215729 -4.2763901 -1.7497699 4293729569
0.59341431 -3.4142647 -1.8936288 4288085770
2.4345093 -4.2108774 -1.7641227 4293729569
0.38644409 -3.3725882 -1.9003952 4288085770
2.2233887 -4.1753502 -1.7888088 4293729569
0.16247559 -3.3208847 -1.9011135 4288085770
2.0812378 -4.1668177 -1.8237996 4293729569
-0.077438354 -3.2581692 -1.8978 4288085770
1.9530487 -4.1622849 -1.8608642 4288085770
-0.28640747 -3.2054472 -1.8986406 4288085770
1.826889 -4.1557407 -1.89696 4288085770
-0.47836304 -3.158721 -1.9015617 4288085770
1.6018066 -4.1011686 -1.9136941 4288085770
-0.66133118 -3.1129818 -1.9045429 4288085770
1.2938232 -4.0045538 -1.9121392 4288085770
-0.84230042 -3.0652428 -1.9075556 4288085770
0.97787476 -3.8999119 -1.9065998 4288085770
-1.0661621 -2.9954472 -1.8974295 4288085770
0.73983765 -3.8292837 -1.9143598 4288085770
-1.2341156 -2.9486847 -1.8995287 4288085770
0.51582336 -3.7616367 -1.9222021 4288085770
-1.404068 -2.8989067 -1.899637 4288085770
0.22386169 -3.657938 -1.9128211 4288085770
-1.5810089 -2.8431149 -1.8967414 4288085770
-0.028106689 -3.5692472 -1.9106219 4288085770
-1.7429352 -2.7923117 -1.8949194 4288085770
-0.26107788 -3.4875326 -1.9085107 4288085770
-1.8829041 -2.7505293 -1.8991911 4288085770
-0.49203491 -3.4038076 -1.9054313 4288085770
-2.0447998 -2.6947031 -1.8944099 4288085770
-0.68702698 -3.3350782 -1.9075034 4288085770
-2.175766 -2.6539011 -1.8977425 4288085770
-0.89198303 -3.2583294 -1.9055653 4288085770
-2.3197021 -2.603076 -1.8960576 4288085770
-1.0749512 -3.1905746 -1.9067211 4288085770
-2.4416504 -2.5622559 -1.8984585 4288085770
-1.2788849 -3.1097851 -1.8998234 4288085770
-2.5755615 -2.5134106 -1.8958337 4288085770
-1.4488525 -3.0440178 -1.9010618 4288085770
-2.7094727 -2.4625587 -1.8922253 4288085770
-1.6068268 -2.982233 -1.9023595 4288085770
-2.8164368 -2.4237204 -1.8947244 4288085770
-1.7807617 -2.9094143 -1.896625 4288085770
-1.9317169 -2.8466063 -1.8959842 4288085770
-2.0836639 -2.7827845 -1.8933442 4288085770
-2.2176056 -2.7249641 -1.8937919 4288085770
-2.3675232 -2.6571064 -1.8871999 4288085770
-2.4765015 -2.6092968 -1.8927565 4288085770
-2.5984497 -2.5544434 -1.8912714 4288085770
-2.7033997 -2.5056114 -1.8948667 4288085770
-2.80336 -2.4587727 -1.8984835 4288085770
-2.8347321 -0.1245842 -1.828444 4288085770
-2.7396088 -0.11145401 -1.8272521 4288085770
-2.6494598 -0.097297192 -1.8220313 4288085770
-2.5363617 -0.08516264 -1.8229654 4288085770
-2.426239 -0.072013378 -1.8218849 4288085770
-2.3031311 -0.059855938 -1.8218935 4288085770
-2.1969604 -0.04567194 -1.8157909 4288085770
-2.063858 -0.033503056 -1.8158736 4288085770
-1.9347229 -0.020314217 -1.8129344 4288085770
-2.8729095 0.06333971 -1.8276155 4288085770
-1.7876129 -0.0081267357 -1.8131208 4288085770
-2.7588196 0.074477196 -1.8285487 4288085770
-1.6295013 0.0030751228 -1.813381 4288085770
-2.6596527 0.086652756 -1.8223779 4288085770
-1.4713745 0.015292168 -1.8116493 4288085770
-2.535553 0.097802162 -1.823385 4288085770
-1.3172607 0.028520107 -1.8078954 4288085770
-2.4174194 0.10997725 -1.8203559 4288085770
-1.1301422 0.039757252 -1.8083711 4288085770
-2.2922821 0.12116146 -1.8173699 4288085770
-0.95799255 0.052016735 -1.8037426 4288085770
-2.1381989 0.13132668 -1.8215919 4288085770
-0.75488281 0.064274788 -1.8043451 4288085770
-2.0060425 0.14353466 -1.8166661 4288085770
-0.54974365 0.076567173 -1.800962 4288085770
-1.8509216 0.15474033 -1.8159034 4288085770
-0.30964661 0.086855412 -1.803823 4288085770
-1.6977997 0.16595984 -1.8131256 4288085770
-0.060546875 0.099178314 -1.803767 4288085770
-1.5326691 0.17618608 -1.8114285 4288085770
0.22355652 0.10950565 -1.8089547 4288085770
-1.3455658 0.18641472 -1.8128951 4288085770
0.51464844 0.11986542 -1.8111944 4288085770
-1.1524506 0.19766092 -1.8134141 4288085770
0.79678345 0.13226318 -1.8073828 4288085770
-0.96730042 0.20794487 -1.8078654 4288085770
1.092926 0.14469385 -1.8016753 4288085770
-0.74819946 0.21822262 -1.8085694 4288085770
1.4151001 0.15615034 -1.7971525 4288085770
-0.53504944 0.2295332 -1.8042367 4288085770
1.7552643 0.16864443 -1.7907715 4288085770
-0.28096008 0.23883867 -1.8071918 4288085770
2.1293945 0.18017292 -1.7856348 4288085770
-0.015838623 0.24917459 -1.8082373 4288085770
2.5265808 0.19274807 -1.7786772 4288085770
0.23831177 0.25955391 -1.8022006 4288085770
3.1095886 0.20137739 -1.7950695 4288085770
0.58338928 0.26893425 -1.8108318 4288085770
3.822525 0.21009874 -1.8214276 4288085770
0.88050842 0.27935791 -1.8061135 4288085770
4.2548065 0.22383833 -1.7997365 4288085770
1.2126617 0.28981018 -1.8036556 4288085770
4.8339996 0.23567295 -1.7901216 4288085770
1.5368652 0.29930973 -1.7941296 4288085770
5.4162598 0.24857712 -1.7725363 4288085770
1.9020233 0.30983591 -1.7879159 4288085770
6.0914764 0.26157331 -1.7586415 4288085770
2.3171692 0.31940889 -1.7840655 4288085770
6.9426422 0.27271795 -1.755038 4288085770
2.916153 0.32803535 -1.8035731 4288085770
7.8358612 0.2849884 -1.742754 4288085770
3.7409668 0.33576059 -1.8477511 4282675967
8.937027 0.29646397 -1.7390065 4288085770
4.0553741 0.34648991 -1.808157 4288085770
10.140244 0.30911636 -1.7300239 4288085770
4.6675262 0.3553195 -1.8047593 4288085770
11.736343 0.32017422 -1.7349439 4288085770
5.1908264 0.36419725 -1.7807004 4288085770
5.8560791 0.3731904 -1.7656956 4288085770
6.6942596 0.38132 -1.7619662 4288085770
7.5744629 0.3895669 -1.7505481 4288085770
8.65065 0.39701319 -1.7465763 4288085770
9.8398438 0.4046483 -1.7374423 4288085770
11.352005 0.41062641 -1.7386887 4288085770
11.316101 0.57473707 -1.7316556 4288085770
9.8641815 0.59177685 -1.7309039 4288085770
8.6422272 0.60809231 -1.7347124 4288085770
7.6402588 0.62466764 -1.7430191 4288085770
6.7822418 0.64042234 -1.753299 4288085770
5.9443359 0.65527487 -1.75471 4288085770
5.2933197 0.67128277 -1.7684009 4288085770
11.894714 0.85468769 -1.707619 4288085770
4.7752533 0.68840647 -1.7900045 4288085770
10.382797 0.86265039 -1.7064006 4288085770
4.1723328 0.70256376 -1.7930093 4288085770
9.2078247 0.87397003 -1.7174973 4288085770
3.8242035 0.72282743 -1.8257933 4282675967
8.0689087 0.88343287 -1.7168272 4288085770
3.264328 0.73511267 -1.8200777 4288085770
7.1929016 0.89515638 -1.7279601 4288085770
2.5017395 0.73844481 -1.7739165 4288085770
6.4119415 0.90801859 -1.7377481 4288085770
2.0768433 0.75186443 -1.774128 4288085770
5.6420135 0.91795874 -1.7395897 4288085770
1.7049103 0.76532888 -1.7776999 4288085770
5.0739899 0.93206549 -1.7548347 4288085770
1.3999481 0.77983284 -1.787735 4288085770
4.5859528 0.94825268 -1.7736394 4288085770
1.0830078 0.79336929 -1.7916818 4288085770
4.0639954 0.96147442 -1.7821918 4288085770
0.79608154 0.80694389 -1.7958329 4288085770
3.7009125 0.98078299 -1.8068702 4288085770
0.55210876 0.82252598 -1.8062918 4288085770
3.1670685 0.98910999 -1.8003049 4288085770
0.26023865 0.83414984 -1.8033953 4288085770
2.4694366 0.98647881 -1.7605445 4288085770
-0.0036773682 0.84580326 -1.8016889 4288085770
2.0625305 0.99693775 -1.7588584 4288085770
-0.23857117 0.85847807 -1.8021877 4288085770
1.726593 1.0104327 -1.7646778 4288085770
-0.48744202 0.87017298 -1.7975845 4288085770
1.4376221 1.0249577 -1.7748244 4288085770
-0.71231079 0.88189173 -1.7941444 4288085770
1.1307068 1.0365224 -1.7768261 4288085770
-0.92718506 0.89362383 -1.7907727 4288085770
0.85179138 1.0501075 -1.781034 4288085770
-1.1100922 0.90635681 -1.7926259 4288085770
0.58688354 1.062727 -1.7833297 4288085770
-1.2819977 0.91911316 -1.7935538 4288085770
0.38388062 1.0793543 -1.7950771 4288085770
-1.4369202 0.93287468 -1.7966053 4288085770
0.10403442 1.088026 -1.7882414 4288085770
-1.5878296 0.94664955 -1.7986844 4288085770
-0.11686707 1.1007185 -1.7888367 4288085770
-1.7297516 0.96042824 -1.8018246 4288085770
-0.34475708 1.1124177 -1.7873778 4288085770
-1.8696594 0.97421837 -1.8039787 4288085770
-0.58360291 1.1211505 -1.7798216 4288085770
-1.9985809 0.98802137 -1.8062077 4288085770
-0.76451111 1.1348863 -1.7816973 4288085770
-2.1085205 1.0028181 -1.812573 4288085770
-0.94841003 1.1466422 -1.7805371 4288085770
-2.2284393 1.0166411 -1.8138635 4288085770
-1.1092987 1.1604037 -1.7825489 4288085770
-2.3582916 1.0284905 -1.810071 4288085770
-1.282196 1.1721907 -1.7794645 4288085770
-2.4542389 1.0443134 -1.8155398 4288085770
-1.4151154 1.1869731 -1.783674 4288085770
-2.5581512 1.0581574 -1.8169394 4288085770
-1.5580139 1.2007661 -1.7848086 4288085770
-2.6700287 1.0710149 -1.8152771 4288085770
-1.691925 1.214571 -1.7860045 4288085770
-2.769928 1.0838795 -1.8146963 4288085770
-1.8138428 1.2283835 -1.7882814 4288085770
-2.8668213 1.0977488 -1.8141437 4288085770
-1.9167938 1.2451973 -1.7937109 4288085770
-2.0296936 1.2600293 -1.7950571 4288085770
-2.1356049 1.2748628 -1.797451 4288085770
-2.2574768 1.2867227 -1.7937138 4288085770
-2.3474121 1.3035688 -1.7972319 4288085770
-2.4542847 1.3164411 -1.7946041 4288085770
-2.5471802 1.3313074 -1.7950869 4288085770
-2.6291046 1.3471789 -1.7966518 4288085770
-2.7139893 1.3620563 -1.7971888 4288085770
-2.799881 1.3769469 -1.7957194 4288085770
-2.8757782 1.3928347 -1.7963254 4288085770
-2.8253326 3.5731645 -1.7261894 4288085770
-2.7292786 3.635314 -1.7233057 4288085770
-2.6312103 3.6964664 -1.7204268 4288085770
-2.5151978 3.7676179 -1.7207458 4288085770
-2.3941498 3.8397765 -1.7211053 4288085770
-2.2621307 3.917948 -1.7215848 4288085770
-2.1380768 3.9891343 -1.7189558 4288085770
-1.9791107 4.0803099 -1.7237155 4288085770
-1.8350525 4.1595135 -1.722281 4288085770
-2.9172974 3.5609632 -1.730391 4288085770
-1.6630859 4.2547212 -1.7251575 4288085770
-2.8152313 3.6131287 -1.7264669 4288085770
-1.4771271 4.3569307 -1.7301815 4288085770
-2.689209 3.678278 -1.7288034 4288085770
-1.2851715 4.459157 -1.7342441 4288085770
-2.5741119 3.7354603 -1.725004 4288085770
-1.0971527 4.5574098 -1.7342484 4288085770
-2.4460754 3.7976353 -1.724329 4288085770
-0.8961792 4.6606703 -1.7353776 4288085770
-2.312027 3.8618188 -1.7237096 4288085770
-0.71612549 4.7489605 -1.7292492 4288085770
-2.1630096 3.9329979 -1.7262437 4288085770
-0.49514771 4.8592558 -1.7295644 4288085770
-1.9930267 4.0141878 -1.7309952 4288085770
-0.2721405 4.9675694 -1.7278764 4288085770
-1.8469543 4.0794101 -1.7274616 4288085770
-0.028182983 5.0849023 -1.7273977 4288085770
-1.6859283 4.1506281 -1.7270734 4288085770
0.22981262 5.2072606 -1.7260499 4288085770
-1.500946 4.2328458 -1.7309303 4288085770
0.48280334 5.3246288 -1.7226288 4288085770
-1.3259125 4.3080897 -1.7296655 4288085770
0.75480652 5.447021 -1.719372 4288085770
-1.1478424 4.3813457 -1.7274041 4288085770
1.0587463 5.5864391 -1.7184596 4288085770
-0.96380615 4.4556098 -1.7251897 4288085770
1.3986511 5.74088 -1.720902 4288085770
-0.74482727 4.5468793 -1.7283397 4288085770
1.7595825 5.9023476 -1.723537 4288085770
-0.52183533 4.6381617 -1.730515 4288085770
2.1175232 6.0578518 -1.7211039 4288085770
-0.30279541 4.7224712 -1.7286086 4288085770
2.5044403 6.2253766 -1.7209556 4288085770
-0.060806274 4.8167782 -1.7309318 4288085770
2.8903809 6.3859401 -1.7157447 4288085770
0.17123413 4.9011202 -1.7271097 4288085770
3.3512573 6.5805531 -1.7172947 4288085770
0.4312439 4.998466 -1.7275736 4288085770
3.8231506 6.7771959 -1.7169316 4288085770
0.70323181 5.0978198 -1.7291317 4288085770
4.2880554 6.9628773 -1.7104342 4288085770
0.94030762 5.1752005 -1.7212853 4288085770
4.7410431 7.1365747 -1.6997621 4288085770
1.2412872 5.2816 -1.7220879 4288085770
5.2160339 7.3143167 -1.6872649 4288085770
1.5382996 5.3820095 -1.7208161 4288085770
5.694046 7.4860945 -1.6707392 4288085770
1.8582916 5.4894505 -1.7197497 4288085770
6.220047 7.6759343 -1.6546695 4288085770
2.198288 5.6019077 -1.7198539 4288085770
6.828949 7.9018335 -1.6454282 4288085770
2.5612488 5.7223797 -1.7221711 4288085770
7.5127869 8.1548214 -1.6378915 4288085770
2.9451904 5.8468785 -1.7246568 4288085770
3.3261871 5.9644141 -1.7220669 4288085770
3.6951904 6.0699492 -1.7173021 4288085770
4.1151886 6.1945343 -1.7150214 4288085770
4.5381775 6.3131237 -1.7127118 4288085770
4.9382477 6.4167395 -1.7031319 4288085770
5.3792725 6.5323834 -1.6969154 4288085770
5.8183136 6.6400428 -1.6886208 4288085770
6.3123169 6.7647557 -1.6828201 4288085770
6.8163452 6.8864903 -1.67606 4288085770
7.3343658 7.0072508 -1.6683822 4288085770
7.8574219 7.1220341 -1.6586888 4288085770
8.4394226 7.2528696 -1.6525068 4288085770
8.9984894 7.3667278 -1.6410506 4288085770
9.6554718 7.5116539 -1.636471 4288085770
10.246552 7.6205506 -1.6241736 4288085770
11.000488 7.7825866 -1.6223609 4288085770
11.828384 7.9637032 -1.6231811 4288085770
11.895416 -1.7061005 -1.7888157 4288085770
11.192596 -1.7540598 -1.7888706 4288085770
10.432785 -1.7840395 -1.7816989 4288085770
9.8469238 -1.8278866 -1.7875462 4288085770
9.2150726 -1.8577375 -1.7862067 4288085770
8.6891785 -1.8905067 -1.792531 4288085770
8.1393127 -1.9162664 -1.7937562 4288085770
7.6514282 -1.9429865 -1.8003759 4288085770
7.1695251 -1.9646816 -1.8050749 4288085770
6.7006378 -1.9813452 -1.8078983 4288085770
6.248764 -1.9939861 -1.810864 4288085770
5.8318481 -2.0085983 -1.8160412 4288085770
5.4139557 -2.0172014 -1.82026 4288085770
5.0070496 -2.0217695 -1.8215823 4288085770
11.433929 -3.2580214 -1.8133898 4288085770
4.6151733 -2.0243244 -1.824018 4288085770
10.551971 -3.1992273 -1.8141363 4288085770
4.2252808 -2.0218554 -1.8235073 4288085770
9.8219452 -3.1612949 -1.8237033 4288085770
3.8703766 -2.0213604 -1.8262074 4288085770
9.0639648 -3.1083469 -1.8262076 4288085770
3.5274658 -2.0188541 -1.8290012 4288085770
8.3240051 -3.0493355 -1.8238771 4288085770
3.2365265 -2.022316 -1.8370848 4288085770
7.6820374 -3.0032415 -1.8280795 4288085770
2.8896484 -2.0107737 -1.8349249 4288085770
7.0930481 -2.9610958 -1.834594 4288085770
2.5937347 -2.0062132 -1.83904 4288085770
6.4940948 -2.9079008 -1.8331316 4288085770
2.2908173 -1.9956284 -1.8391578 4288085770
5.9721069 -2.8666582 -1.8390734 4288085770
2.01091 -1.987031 -1.8414092 4288085770
5.4551544 -2.8193789 -1.8410957 4288085770
1.7320099 -1.9764318 -1.843683 4288085770
4.9661713 -2.7740622 -1.8432844 4288085770
1.4451141 -1.9588041 -1.8409607 4288085770
4.5072174 -2.7287083 -1.8456676 4288085770
1.2131958 -1.9511671 -1.8465157 4288085770
4.0512848 -2.678318 -1.8441103 4288085770
0.9493103 -1.9335175 -1.844943 4288085770
3.6243286 -2.6298895 -1.8427253 4288085770
0.71139526 -1.9188471 -1.845515 4288085770
3.2433777 -2.5894403 -1.8465755 4288085770
0.49946594 -1.9081764 -1.8502238 4288085770
2.8874207 -2.5509501 -1.8495719 4288085770
0.26556396 -1.8884869 -1.8488617 4288085770
2.5474701 -2.5124397 -1.8526723 4288085770
0.081619263 -1.8798037 -1.8567362 4288085770
2.2225037 -2.473918 -1.8568699 4288085770
-0.1302948 -1.8610926 -1.856509 4288085770
1.9005737 -2.4323587 -1.8571117 4288085770
-0.3381958 -1.8413696 -1.8553159 4288085770
1.5946198 -2.3927879 -1.8584411 4288085770
-0.53210449 -1.8226433 -1.8562057 4288085770
1.287674 -2.348196 -1.8568039 4288085770
-0.68504333 -1.8139267 -1.8652816 4288085770
0.99575806 -2.3045835 -1.8552561 4288085770
-0.86296082 -1.7951803 -1.8662751 4288085770
0.74281311 -2.2689505 -1.8578975 4288085770
-1.0708313 -1.7644024 -1.8581698 4288085770
0.49885559 -2.2333069 -1.8605974 4288085770
-1.2297668 -1.7486477 -1.861263 4288085770
0.28088379 -2.2036524 -1.8664184 4288085770
-1.3936768 -1.7278748 -1.8613634 4288085770
0.035964966 -2.1619711 -1.8641598 4288085770
-1.5505829 -1.7071009 -1.862509 4288085770
-0.18197632 -2.1262846 -1.8660288 4288085770
-1.6944885 -1.6893177 -1.8647153 4288085770
-0.40289307 -2.0875721 -1.8639021 4288085770
-1.8504181 -1.6655188 -1.8628917 4288085770
-0.61480713 -2.0488472 -1.861834 4288085770
-1.9863129 -1.646718 -1.8641577 4288085770
-0.80474854 -2.0151243 -1.8638687 4288085770
-2.1252289 -1.6249123 -1.8644285 4288085770
-0.98867798 -1.9813852 -1.8649423 4288085770
-2.2451477 -1.6071138 -1.8687901 4288085770
-1.1716003 -1.945631 -1.8640385 4288085770
-2.3720703 -1.5862923 -1.8691308 4288085770
-1.3455353 -1.9108715 -1.8641849 4288085770
-2.4919891 -1.5664778 -1.8715088 4288085770
-1.5124512 -1.8770952 -1.863369 4288085770
-2.6238708 -1.5406342 -1.8678567 4288085770
-1.6404114 -1.8543463 -1.8727179 4288085770
-2.7427826 -1.5187941 -1.8672571 4288085770
-1.8073273 -1.8165464 -1.8689339 4288085770
-2.8467102 -1.4999657 -1.8707306 4288085770
-1.9762115 -1.7767258 -1.8621531 4288085770
-2.1191559 -1.743927 -1.8624847 4288085770
-2.2560577 -1.7121115 -1.8618474 4288085770
-2.358017 -1.6913204 -1.8703494 4288085770
-2.4969177 -1.6544771 -1.8657386 4288085770
-2.6168365 -1.6246557 -1.8671956 4288085770
-2.7337494 -1.5948143 -1.8666723 4288085770
-2.8366852 -1.5679846 -1.8702154 4288085770
-2.8203735 0.4830389 -1.813477 4288085770
-2.7112579 0.49419308 -1.8122437 4288085770
-2.5861664 0.5063529 -1.8131185 4288085770
-2.4810181 0.51754141 -1.8068595 4288085770
-2.3489075 0.52970982 -1.8077779 4288085770
-2.2177887 0.54090071 -1.8056822 4288085770
-2.0776825 0.55209637 -1.8046432 4288085770
-1.936554 0.56331015 -1.8016102 4288085770
-2.818573 0.56401443 -1.8130658 4288085770
-1.780426 0.57452631 -1.8006711 4288085770
-2.6954803 0.57317162 -1.813904 4288085770
-1.6253052 0.5857563 -1.7977259 4288085770
-2.5633698 0.58234072 -1.8147991 4288085770
-1.4461975 0.59699631 -1.7979312 4288085770
-2.4282684 0.59151411 -1.8157125 4288085770
-1.2640686 0.60825443 -1.7961552 4288085770
-2.3070984 0.59972334 -1.8095303 4288085770
-1.0779419 0.61952591 -1.7934043 4288085770
-2.1569977 0.60791636 -1.8105302 4288085770
-0.84288025 0.63180065 -1.7989688 4288085770
-2.0098572 0.617136 -1.8075187 4288085770
-0.6307373 0.64310646 -1.7963808 4288085770
-1.8697205 0.62437153 -1.8014479 4288085770
-0.39363098 0.65442324 -1.7969496 4288085770
-1.6866302 0.6335845 -1.8056622 4288085770
-0.10258484 0.666749 -1.8058653 4288085770
-1.5224915 0.64083624 -1.8017418 4288085770
0.19749451 0.68010998 -1.8118448 4288085770
-1.3383636 0.64809656 -1.7999465 4288085770
0.46363831 0.69050217 -1.8075874 4288085770
-1.1152802 0.65734816 -1.8064117 4288085770
0.71081543 0.69993067 -1.795203 4288085770
-0.92114258 0.66363811 -1.8026714 4288085770
1.0169678 0.71038532 -1.7901964 4288085770
-0.72998047 0.66995621 -1.7949121 4288085770
1.3441315 0.72086573 -1.7853212 4288085770
-0.46990967 0.67826319 -1.800601 4288085770
1.672287 0.73038006 -1.7764447 4288085770
-0.18682861 0.68559408 -1.8074267 4288085770
2.0584259 0.74193811 -1.7719474 4288085770
0.10327148 0.69295883 -1.811296 4288085770
2.4915771 0.75255203 -1.7687371 4288085770
0.36943054 0.69835806 -1.8059988 4288085770
3.3263397 0.77627325 -1.8231502 4288085770
0.64257812 0.70277643 -1.7997379 4288085770
3.815506 0.78600693 -1.8142829 4288085770
0.95172119 0.70822668 -1.7957103 4288085770
4.2018127 0.79175854 -1.7847378 4288085770
1.2808685 0.71170282 -1.7917924 4288085770
4.8269653 0.80264187 -1.780731 4288085770
1.6040497 0.71421766 -1.7818289 4288085770
5.3512268 0.80854464 -1.7560513 4288085770
1.9772186 0.71776772 -1.7761867 4288085770
6.0194397 0.81756163 -1.7422979 4288085770
2.4043579 0.72035789 -1.7748749 4288085770
6.8555908 0.82774591 -1.7366061 4288085770
3.1272278 0.73004723 -1.8134739 4288085770
7.760788 0.83804512 -1.7283463 4288085770
3.7772675 0.73580313 -1.8305836 4282675967
8.7720032 0.84750748 -1.7177434 4288085770
4.1056213 0.72953176 -1.7935805 4288085770
9.9541779 0.85818815 -1.7092204 4288085770
4.7057953 0.72937489 -1.7903295 4288085770
11.38533 0.87017441 -1.7052662 4288085770
5.2250671 0.72324848 -1.7685235 4288085770
5.8742828 0.71823359 -1.7555404 4288085770
6.6744537 0.71336365 -1.7505035 4288085770
7.5126801 0.7055912 -1.7396815 4288085770
8.5118713 0.69600773 -1.7328527 4288085770
9.6371002 0.68361425 -1.7237902 4288085770
11.032242 0.67050791 -1.7254112 4288085770
2.5227509 -4.9103489 -0.44733801 4293729569
2.5275269 -4.841651 -0.48788303 4293729569
2.537323 -4.774931 -0.52644372 4293729569
2.5311127 -4.6992245 -0.56397367 4293729569
2.5279083 -4.6244984 -0.59951448 4293729569
2.6567383 -4.6116467 -0.64240038 4293729569
2.8226166 -4.6137438 -0.68540055 4293729569
2.9914703 -4.6148472 -0.7294265 4293729569
4.5056458 -5.2017126 -0.19027394 4293729569
4.4526367 -5.1967659 -0.85201472 4293729569
4.507431 -5.1129885 -0.22694974 4293729569
4.4594269 -5.109026 -0.88771379 4293729569
4.580246 -5.0541677 -0.26383626 4293729569
4.5432281 -5.0552206 -0.92863011 4293729569
12.09079 -7.6094904 -1.6787179 4293729569
11.69545 -7.3051062 -1.688576 4293729569
6.4705505 -5.1286335 -0.53684694 4293729569
11.260101 -6.9887152 -1.6902792 4293729569
6.4323578 -5.0048876 -0.56353861 4293729569
6.4448242 -5.0275164 -1.3144772 4293729569
6.5031738 -4.9250097 -0.59256893 4293729569
6.4896393 -4.9366722 -1.3434305 4293729569
7.212204 -5.0724201 -0.64380372 4293729569
7.2034607 -5.086339 -1.4296793 4293729569
7.2160187 -4.9616022 -0.66865498 4293729569
7.2192688 -4.9785032 -1.454582 4293729569
7.4789124 -4.9384956 -0.70243549 4293729569
7.3731079 -4.9165583 -1.4899855 4293729569
7.8678131 -4.953248 -0.74070346 4293729569
7.7489166 -4.9274483 -1.544203 4293729569
10.523193 -5.7155924 -0.87424684 4293729569
9.3125916 -5.328537 -1.7097721 4293729569
9.1574402 -5.1477757 -1.7131727 4293729569
8.9763184 -4.962019 -1.712451 4293729569
8.8131866 -4.7832384 -1.7117872 4293729569
8.7570801 -4.6403637 -1.7185097 4293729569
8.7989502 -4.5264215 -1.7336149 4293729569
9.1617889 -4.5042601 -1.7789979 4293729569
9.6725616 -4.5179977 -1.8380177 4288085770
9.8514252 -4.4329271 -1.8617446 4288085770
9.7693787 -4.2790079 -1.8573892 4288085770
9.735321 -4.1370506 -1.8572376 4288085770
9.6202698 -3.9761305 -1.8467321 4288085770
9.6322174 -3.8461132 -1.8467724 4288085770
9.6031799 -3.7081137 -1.8416212 4288085770
9.6201477 -3.5810747 -1.8396695 4288085770
9.6441193 -3.4560127 -1.8357451 4288085770
9.6311035 -3.3249693 -1.8276393 4288085770
9.713089 -3.2108498 -1.8269875 4288085770
9.7550964 -3.0907393 -1.8201356 4288085770
9.8220978 -2.9746027 -1.8144066 4288085770
9.9690857 -2.8713961 -1.81407 4288085770
10.094101 -2.763196 -1.8106356 4288085770
10.243088 -2.6579723 -1.8083258 4288085770
10.383102 -2.5507298 -1.8019753 4288085770
10.599091 -2.4514227 -1.8010302 4288085770
10.768127 -2.3441343 -1.7938566 4288085770
10.99614 -2.2427874 -1.789999 4288085770
11.280151 -2.1473875 -1.789439 4288085770
11.597137 -2.0509453 -1.7890878 4288085770
11.959137 -1.9554415 -1.7890043 4288085770
10.981812 0.88599586 -1.7108817 4288085770
9.7358704 0.92325354 -1.7077072 4288085770
8.7299042 0.95978975 -1.7129607 4288085770
7.828949 0.99348402 -1.7168205 4288085770
7.0769348 1.0273523 -1.7255716 4288085770
6.3739777 1.0573249 -1.7295871 4288085770
5.697052 1.0853629 -1.7297442 4288085770
5.157074 1.1145368 -1.7377272 4288085770
11.875046 1.5435047 -1.6758969 4288085770
4.7090454 1.1467862 -1.7532818 4288085770
10.600143 1.5527148 -1.6733494 4288085770
4.2660675 1.1760859 -1.762845 4288085770
9.5502167 1.566205 -1.6761758 4288085770
3.8151398 1.2004337 -1.7643249 4288085770
8.6532593 1.5818896 -1.6819313 4288085770
3.4881134 1.2318487 -1.780596 4288085770
7.8513031 1.598712 -1.6872623 4288085770
2.9203491 1.2412319 -1.7542703 4288085770
7.1203613 1.6146469 -1.6910105 4288085770
2.5454407 1.2637053 -1.7531908 4288085770
6.4624329 1.6306815 -1.6951954 4288085770
2.2045441 1.2852187 -1.7533073 4288085770
5.8904724 1.6498189 -1.7019162 4288085770
1.9075928 1.3077698 -1.7566946 4288085770
5.3185577 1.6640072 -1.7016017 4288085770
1.6416626 1.3313637 -1.7602737 4288085770
4.8486023 1.6832919 -1.7079322 4288085770
1.3937073 1.3549666 -1.7659602 4288085770
4.4506226 1.7056537 -1.7177143 4288085770
1.1427917 1.3766026 -1.7666149 4288085770
4.0786591 1.7290511 -1.7276595 4288085770
0.90187073 1.3972521 -1.7673223 4288085770
3.7067108 1.7484846 -1.7325761 4288085770
0.69792175 1.4199233 -1.772265 4288085770
3.3318024 1.7659431 -1.7334609 4288085770
0.48501587 1.440619 -1.77214 4288085770
2.9389191 1.7764277 -1.7271881 4288085770
0.28309631 1.4613218 -1.7730806 4288085770
2.6210175 1.7939715 -1.7274134 4288085770
0.071212769 1.4790478 -1.7689402 4288085770
2.3151245 1.8095403 -1.7266963 4288085770
-0.110672 1.4988003 -1.7669933 4288085770
2.068161 1.8321447 -1.7323818 4288085770
-0.30455017 1.5155578 -1.7619534 4288085770
1.8542023 1.8567729 -1.7412789 4288085770
-0.46046448 1.5353241 -1.7631617 4288085770
1.6392365 1.8794222 -1.7471557 4288085770
-0.61936951 1.5541077 -1.7613454 4288085770
1.4432831 1.9040971 -1.7531605 4288085770
-0.76127625 1.5749002 -1.7616446 4288085770
1.2094116 1.9197779 -1.7508738 4288085770
-0.89918518 1.5947056 -1.7609608 4288085770
1.003479 1.9394755 -1.7517831 4288085770
-1.0220947 1.6165161 -1.7623811 4288085770
0.81956482 1.9602032 -1.7528315 4288085770
-1.1420135 1.6373401 -1.7628124 4288085770
0.63465881 1.9789438 -1.7518597 4288085770
-1.2519379 1.6581688 -1.7643027 4288085770
0.46073914 1.9976926 -1.7519531 4288085770
-1.3588562 1.6800022 -1.7658186 4288085770
0.27987671 2.014461 -1.7479906 4288085770
-1.471756 1.6988564 -1.7632771 4288085770
0.12097168 2.0332451 -1.7461741 4288085770
-1.5736542 1.7207108 -1.7628229 4288085770
-0.045898438 2.0500393 -1.7412953 4288085770
-1.6536102 1.7455592 -1.7675214 4288085770
-0.17582703 2.0728331 -1.7436805 4288085770
-1.7385254 1.7684226 -1.7691758 4288085770
-0.29873657 2.0956521 -1.7441075 4288085770
-1.8304291 1.7892981 -1.7677741 4288085770
-0.456604 2.1094737 -1.7372613 4288085770
-1.9093628 1.8121696 -1.7694643 4288085770
-0.56851196 2.133327 -1.7377646 4288085770
-1.9882507 1.8340755 -1.76915 4288085770
-0.66543579 2.1581655 -1.7403595 4288085770
-2.0621643 1.8579602 -1.7698762 4288085770
-0.78831482 2.1770191 -1.7357564 4288085770
-2.1320953 1.8808508 -1.7706189 4288085770
-0.88124084 2.2018709 -1.7373757 4288085770
-2.2119751 1.9007568 -1.7672806 4288085770
-0.97515869 2.2267356 -1.7369888 4288085770
-2.2718964 1.9256606 -1.7680974 4288085770
-1.0640717 2.250607 -1.7366247 4288085770
-2.3477783 1.9455719 -1.7647829 4288085770
-1.1280212 2.2814765 -1.7414601 4288085770
-2.3947144 1.9734793 -1.767699 4288085770
-1.2198944 2.3033657 -1.7380641 4288085770
-2.4456482 1.9983888 -1.7695701 4288085770
-1.2928314 2.3292522 -1.7388101 4288085770
-2.5045471 2.0223165 -1.767386 4288085770
-1.3767242 2.3521523 -1.7354691 4288085770
-2.5534668 2.0472355 -1.7682686 4288085770
-1.4326477 2.3820543 -1.7373452 4288085770
-2.5983887 2.0741601 -1.7691894 4288085770
-1.5005646 2.4079628 -1.7361209 4288085770
-2.6403198 2.101089 -1.770128 4288085770
-1.5475159 2.4408693 -1.7390723 4288085770
-2.6872101 2.1260328 -1.7680228 4288085770
-1.6163788 2.4657974 -1.7348351 4288085770
-2.7211456 2.1549649 -1.7700236 4288085770
-1.6473694 2.5017052 -1.7409031 4288085770
-2.7710419 2.1789122 -1.7668934 4288085770
-1.7142334 2.5266423 -1.7356782 4288085770
-2.8049469 2.2068591 -1.7668869 4288085770
-1.7531738 2.5605683 -1.7376845 4288085770
-2.8348846 2.236804 -1.7679188 4288085770
-1.7881165 2.5945067 -1.7387145 4288085770
-2.8697815 2.2647648 -1.7659068 4288085770
-1.8410034 2.6224561 -1.7345943 4288085770
-2.8987122 2.2937183 -1.7659376 4288085770
-1.8609619 2.6613932 -1.7387497 4288085770
-1.8869019 2.6983366 -1.740855 4288085770
-1.9288025 2.7273016 -1.7368076 4288085770
-1.9417572 2.7692552 -1.740026 4288085770
-1.978653 2.8002276 -1.7360227 4288085770
-1.9906006 2.8421893 -1.7382472 4288085770
-2.0264893 2.8731699 -1.7332499 4288085770
-2.0434265 2.912147 -1.7324231 4288085770
-2.0553436 2.9531317 -1.7316403 4288085770
-2.0483398 3.0021057 -1.7360277 4288085770
-2.084198 3.0321145 -1.7270236 4288085770
-2.098114 3.070118 -1.7232072 4288085770
-2.1160126 3.1071301 -1.71736 4288085770
-2.1159363 3.1521306 -1.7166772 4288085770
-2.1168671 3.197144 -1.7139883 4288085770
-2.1197815 3.2411623 -1.7102804 4288085770
-2.1087189 3.290185 -1.7086916 4288085770
-2.0886688 3.3452058 -1.7091992 4288085770
