# .PCD v0.7 - Point Cloud Data file format
VERSION 0.7
FIELDS x y z rgb
SIZE 4 4 4 4
TYPE F F F U
COUNT 1 1 1 1
WIDTH 1128
HEIGHT 1
VIEWPOINT 0 0 0 1 0 0 0
POINTS 1128
DATA ascii
9.8128567 0.27279896 -1.8196439 4288085770
6.509531 0.23236185 -1.7997683 4288085770
9.2270603 0.28571969 -1.8133606 4288085770
6.1757584 0.24300987 -1.7938756 4288085770
8.7082577 0.29930878 -1.8082372 4288085770
5.8809433 0.2544778 -1.7906548 4288085770
8.2314434 0.31169015 -1.8038529 4288085770
5.6061268 0.26484698 -1.7877897 4288085770
7.7916584 0.32487488 -1.7981077 4288085770
5.377182 0.27603453 -1.7927157 4288085770
7.39781 0.33685184 -1.7961692 4288085770
5.1443253 0.2872088 -1.792576 4288085770
7.0270176 0.34969538 -1.7916266 4288085770
4.8945961 0.29842073 -1.7851461 4288085770
6.6871853 0.36239833 -1.7896234 4288085770
4.7086487 0.31039548 -1.7908162 4288085770
6.3763294 0.37496459 -1.7891248 4288085770
4.4908905 0.32045561 -1.7849506 4288085770
6.0875034 0.38740873 -1.7870101 4288085770
4.3020668 0.33239877 -1.7835745 4288085770
5.8007317 0.39982295 -1.7819334 4288085770
4.1102905 0.34333658 -1.7791556 4288085770
5.552866 0.41207755 -1.7825323 4288085770
3.9454403 0.35416758 -1.779204 4288085770
5.330965 0.42521656 -1.7855755 4288085770
5.0753613 0.4273417 -1.7810851 4288085770
3.6338711 0.36753529 -1.7810758 4288085770
4.8515835 0.43942308 -1.7768222 4288085770
3.4979858 0.37923282 -1.7834417 4288085770
4.6547623 0.45139042 -1.7750584 4288085770
3.3303146 0.38898295 -1.7732388 4288085770
4.4689445 0.46430445 -1.7734908 4288085770
3.2164116 0.40158224 -1.7770036 4288085770
4.2980862 0.4771629 -1.774201 4288085770
3.0856152 0.41321284 -1.7744669 4288085770
4.1292591 0.48899433 -1.7729584 4288085770
3.9634743 0.50179422 -1.769765 4288085770
3.8146305 0.51453745 -1.7698849 4288085770
3.6907349 0.52818501 -1.7734569 4288085770
3.5479393 0.53987336 -1.7706996 4288085770
3.4071827 0.55153477 -1.7659808 4288085770
3.2644596 0.56318879 -1.7592272 4288085770
3.1635609 0.57672489 -1.7632271 4288085770
3.0288754 0.58832276 -1.7546233 4288085770
3.0774307 2.9922199 -1.6623975 4288085770
3.1918449 3.0366244 -1.6589844 4288085770
3.3421803 3.0979366 -1.6650572 4288085770
3.4855957 3.1542289 -1.6650488 4288085770
3.6349945 3.2105017 -1.666145 4288085770
3.7953777 3.2717395 -1.6693896 4288085770
3.9897385 3.3468592 -1.6781105 4288085770
4.1701431 3.4130018 -1.681661 4288085770
4.3325996 3.4671772 -1.6789974 4288085770
3.122057 2.9079885 -1.6635574 4288085770
4.5210361 3.5322638 -1.680694 4288085770
3.2553673 2.9493477 -1.6655002 4288085770
4.73946 3.6102426 -1.6868037 4288085770
3.4026814 2.9956489 -1.6686445 4288085770
4.9339371 3.6732738 -1.6856197 4288085770
3.5440006 3.0359612 -1.6697344 4288085770
5.1274166 3.7333016 -1.6834422 4288085770
3.6963425 3.0812209 -1.6709727 4288085770
5.3608799 3.8091817 -1.6868273 4288085770
3.8776054 3.1364045 -1.6796321 4288085770
5.5883865 3.8790557 -1.6861573 4288085770
4.042944 3.1816022 -1.6810976 4288085770
5.841877 3.9578323 -1.6888651 4288085770
4.1903133 3.2178504 -1.678322 4288085770
6.101387 4.036571 -1.6906744 4288085770
4.3696594 3.2649815 -1.6800116 4288085770
6.376894 4.1192422 -1.6937274 4288085770
4.5450058 3.3081229 -1.6806642 4288085770
6.6664295 4.2038383 -1.6960067 4288085770
4.7373409 3.3562014 -1.6835703 4288085770
6.9739552 4.293366 -1.7005554 4288085770
4.9366779 3.4052465 -1.6865884 4288085770
7.3294888 4.3986912 -1.708805 4288085770
5.1280327 3.4473031 -1.6865257 4288085770
7.6910343 4.5019794 -1.7161738 4288085770
5.3433723 3.4972718 -1.6898125 4288085770
8.0466328 4.5982513 -1.7184955 4288085770
5.5457573 3.5382583 -1.6879483 4288085770
8.4402294 4.7053685 -1.7243844 4288085770
5.7790852 3.5901506 -1.6925296 4288085770
8.8448391 4.8124256 -1.7294625 4288085770
6.0134335 3.6390202 -1.6951526 4288085770
9.3004627 4.9342651 -1.7383007 4288085770
6.2617912 3.6898232 -1.6980015 4288085770
9.7371426 5.0421333 -1.7399241 4288085770
6.5151501 3.7385938 -1.6999537 4288085770
10.243814 5.171721 -1.7485784 4288085770
6.7775097 3.7873216 -1.7020615 4288085770
10.793486 5.3131309 -1.7608761 4288085770
7.0508633 3.838006 -1.7053417 4288085770
11.381193 5.4603505 -1.7727827 4288085770
7.3402195 3.8896141 -1.7088915 4288085770
11.843996 5.5529971 -1.763976 4288085770
7.6285648 3.9372187 -1.7114595 4288085770
12.539747 5.7247286 -1.7805508 4288085770
7.9429226 3.9907084 -1.7154244 4288085770
13.379549 5.9398527 -1.8082508 4288085770
8.2542896 4.0381947 -1.7173868 4288085770
14.401369 6.2102246 -1.8516387 4288085770
8.6066227 4.0945215 -1.7239853 4288085770
15.147291 6.3696036 -1.8561682 4288085770
8.9829388 4.1557522 -1.7329565 4288085770
16.030218 6.5654082 -1.8717643 4288085770
9.3323154 4.2030492 -1.7345754 4288085770
16.903189 6.7451992 -1.8803183 4288085770
9.7506199 4.266089 -1.745258 4288085770
17.7922 6.9188781 -1.8851968 4288085770
10.156961 4.3221507 -1.751788 4288085770
10.582277 4.3771315 -1.7596558 4288085770
11.079573 4.4508228 -1.7746109 4288085770
11.51491 4.4967208 -1.7787253 4288085770
11.929258 4.5286837 -1.7785925 4288085770
12.407621 4.5764012 -1.7853912 4288085770
12.915918 4.6259804 -1.7937382 4288085770
13.538164 4.701098 -1.8128422 4288085770
14.071444 4.7415409 -1.819697 4288085770
14.609713 4.7769523 -1.8256813 4288085770
15.164984 4.8082733 -1.8309914 4288085770
15.732244 4.8355303 -1.8355421 4288085770
16.260496 4.8439374 -1.8355762 4288085770
16.917685 4.876811 -1.846635 4288085770
17.547869 4.8957877 -1.8543416 4288085770
17.539663 -3.9179819 -2.1018271 4288085770
16.899862 -3.9149325 -2.0927529 4288085770
16.319967 -3.9181392 -2.0877695 4288085770
15.776037 -3.9204977 -2.0854006 4288085770
15.209242 -3.9097869 -2.0785227 4288085770
14.67341 -3.8992035 -2.0741811 4288085770
14.170568 -3.8897765 -2.0704203 4288085770
13.621935 -3.8591907 -2.0596819 4288085770
13.091318 -3.8276994 -2.0482483 4288085770
12.567774 -3.7892616 -2.0348749 4288085770
12.105085 -3.7610638 -2.0276427 4288085770
11.669348 -3.7339761 -2.0228891 4288085770
17.753832 -5.4771581 -1.9820856 4293729569
11.279505 -3.7140672 -2.0229888 4288085770
16.753908 -5.3184557 -1.9614428 4293729569
10.834925 -3.6739852 -2.0129666 4288085770
15.89472 -5.1883607 -1.9494802 4293729569
10.436247 -3.6410925 -2.0067997 4288085770
15.179239 -5.0888782 -1.9472662 4293729569
10.042608 -3.6042335 -1.9996852 4288085770
14.513708 -4.9956226 -1.9469689 4293729569
9.6968365 -3.5755532 -1.9984685 4288085770
13.897135 -4.9085999 -1.9475714 4293729569
9.3351803 -3.5378363 -1.9928983 4288085770
13.436106 -4.8631783 -1.9652244 4293729569
9.0084553 -3.5062649 -1.9899851 4288085770
13.044924 -4.8320489 -1.9882072 4293729569
8.672781 -3.4676616 -1.9858559 4288085770
12.714567 -4.8171587 -2.0173836 4293729569
8.3690434 -3.4341915 -1.9843227 4288085770
12.388254 -4.7982979 -2.0455947 4288085770
8.0514317 -3.3927028 -1.9774796 4288085770
11.995272 -4.7512259 -2.0614057 4288085770
7.7676983 -3.3583262 -1.9762837 4288085770
11.573454 -4.6900668 -2.0715957 4288085770
7.4581432 -3.3118951 -1.9675363 4288085770
11.048159 -4.5855889 -2.0616169 4288085770
7.185461 -3.2735903 -1.9644965 4288085770
10.552816 -4.4862442 -2.0532007 4288085770
6.8979244 -3.2262728 -1.9551202 4288085770
10.086462 -4.3900366 -2.0453115 4288085770
6.6551952 -3.1900918 -1.9546148 4288085770
9.6152363 -4.284853 -2.0322571 4288085770
6.4015789 -3.1479061 -1.9488684 4288085770
9.171957 -4.185792 -2.0207396 4288085770
6.1629162 -3.1077731 -1.9453987 4288085770
8.8104115 -4.111042 -2.018846 4288085770
5.9302959 -3.0656865 -1.9400147 4288085770
8.4300289 -4.0242591 -2.0105209 4288085770
5.6937294 -3.0196011 -1.9325279 4288085770
8.0835514 -3.9456093 -2.0058517 4288085770
5.5059242 -2.9896615 -1.9350249 4288085770
7.7351475 -3.8629787 -1.9981149 4288085770
5.286335 -2.9446471 -1.9288403 4288085770
7.4087238 -3.7834508 -1.9907831 4288085770
5.0876827 -2.9047122 -1.9250611 4288085770
7.0912952 -3.7039664 -1.9836069 4288085770
4.8930511 -2.8638067 -1.9203423 4288085770
6.7958393 -3.6295855 -1.9768547 4288085770
4.710371 -2.8259385 -1.9178571 4288085770
6.5163364 -3.5582616 -1.9724041 4288085770
4.5376644 -2.7891078 -1.9165524 4288085770
6.2309704 -3.4799669 -1.9617895 4288085770
4.369976 -2.7523103 -1.9143344 4288085770
5.9764614 -3.4117701 -1.9567965 4288085770
4.2062912 -2.7145321 -1.9121765 4288085770
5.7438869 -3.3496578 -1.9542357 4288085770
4.0366783 -2.6727552 -1.9068807 4288085770
5.4904728 -3.2765048 -1.9452175 4288085770
3.8849869 -2.6360331 -1.9049386 4288085770
5.2689362 -3.213464 -1.940838 4288085770
3.7402725 -2.6003351 -1.9041256 4288085770
5.0544319 -3.1504757 -1.934579 4288085770
3.5916233 -2.5616477 -1.9002181 4288085770
4.8469067 -3.0885108 -1.9294502 4288085770
3.4440022 -2.5199742 -1.8953017 4288085770
4.6583118 -3.0316167 -1.9266924 4288085770
3.3232059 -2.489361 -1.8979455 4288085770
4.4697666 -2.9727411 -1.9219166 4288085770
3.1806297 -2.4467299 -1.8911062 4288085770
4.3041077 -2.9229357 -1.9216164 4288085770
3.0579224 -2.4121456 -1.8896812 4288085770
4.1285725 -2.8651311 -1.9160734 4288085770
3.9630051 -2.8103647 -1.9117292 4288085770
3.8252773 -2.7666714 -1.913963 4288085770
3.6647472 -2.7109475 -1.9076968 4288085770
3.5201607 -2.6592805 -1.9037398 4288085770
3.3746147 -2.606627 -1.8977581 4288085770
3.2439842 -2.5600159 -1.8950871 4288085770
3.1213303 -2.5144324 -1.8935617 4288085770
3.0961952 -0.13332218 -1.788098 4288085770
3.1895161 -0.12084693 -1.7804629 4288085770
3.3077297 -0.10942787 -1.7792441 4288085770
3.4518375 -0.099069536 -1.7844576 4288085770
3.5880165 -0.087713897 -1.7855297 4288085770
3.7202435 -0.076369703 -1.7835354 4288085770
3.8744164 -0.066097319 -1.7849084 4288085770
4.0296078 -0.054839313 -1.7852861 4288085770
3.036787 0.0019375086 -1.785555 4288085770
4.218689 -0.045678854 -1.7922357 4288085770
3.161972 0.011334419 -1.7854661 4288085770
4.3918934 -0.034514248 -1.7919036 4288085770
3.2871914 0.020711541 -1.7833763 4288085770
4.5671329 -0.02337867 -1.7896026 4288085770
3.4203777 0.030071616 -1.7834154 4288085770
4.7792416 -0.014344573 -1.7949213 4288085770
3.5874443 0.039344132 -1.7910055 4288085770
4.9963875 -0.0043532848 -1.7983097 4288085770
3.7266941 0.048636615 -1.7871398 4288085770
5.2026367 0.0066288114 -1.7955078 4288085770
3.8808918 0.05788964 -1.7865168 4288085770
5.4448071 0.01648438 -1.7972997 4288085770
4.0490685 0.066088021 -1.7871298 4288085770
5.6909981 0.026311696 -1.7981538 4288085770
4.2401733 0.074219942 -1.7921139 4288085770
5.9691677 0.036000907 -1.8005255 4288085770
4.4323502 0.083307385 -1.7931033 4288085770
6.2513542 0.045661688 -1.8019599 4288085770
4.647438 0.091338634 -1.7994739 4288085770
6.5645161 0.054189146 -1.8049048 4288085770
4.8307266 0.099397898 -1.7933241 4288085770
6.9006939 0.063600242 -1.807211 4288085770
5.0628567 0.10632068 -1.7969772 4288085770
7.2738323 0.072860301 -1.8121144 4288085770
5.3070049 0.11417794 -1.7998127 4288085770
7.6410503 0.081098318 -1.8119272 4288085770
5.5312614 0.12005788 -1.7953423 4288085770
8.0661945 0.090108097 -1.8166674 4288085770
5.800436 0.1277796 -1.7965795 4288085770
8.5353565 0.098904371 -1.8211178 4288085770
6.1045399 0.13437986 -1.8023912 4288085770
9.0365391 0.10653287 -1.824093 4288085770
6.4187069 0.14089382 -1.8043627 4288085770
9.6106586 0.11385375 -1.8312467 4288085770
6.7459011 0.14632791 -1.8045524 4288085770
10.232813 0.12193286 -1.8371636 4288085770
7.1020603 0.15264785 -1.8071984 4288085770
10.891989 0.12882107 -1.8416845 4288085770
7.4991779 0.15779865 -1.8125151 4288085770
11.696066 0.13608891 -1.8535377 4288085770
7.9023952 0.16286176 -1.8119262 4288085770
12.594133 0.14292228 -1.866906 4288085770
8.3824711 0.16663909 -1.8195907 4288085770
13.570227 0.14836526 -1.8785414 4288085770
8.8945675 0.17025882 -1.8267676 4288085770
14.79117 0.1537559 -1.9021207 4288085770
9.4586887 0.17361838 -1.8327817 4288085770
16.134172 0.15953255 -1.9226536 4288085770
10.052855 0.17580932 -1.8362859 4288085770
17.51346 0.16296256 -1.9257787 4288085770
10.755915 0.17754704 -1.8465472 4288085770
11.511015 0.17801458 -1.854653 4288085770
12.380064 0.17697591 -1.8666044 4288085770
13.374063 0.17537993 -1.8825673 4288085770
14.538012 0.17100912 -1.9022878 4288085770
15.903894 0.16472548 -1.9272691 4288085770
17.307035 0.15610033 -1.9358581 4288085770
16.261316 -5.7529349 -0.81449378 4293729569
16.314318 -5.6346998 -0.85794568 4293729569
17.367044 0.38371813 -1.9249688 4288085770
15.974405 0.41477871 -1.9073631 4288085770
14.751764 0.44407761 -1.8901266 4288085770
13.620203 0.46888563 -1.8662046 4288085770
12.706484 0.49488023 -1.8562711 4288085770
11.857813 0.51753277 -1.8422779 4288085770
11.084146 0.53783596 -1.8273493 4288085770
10.43141 0.55967438 -1.8190686 4288085770
17.102293 0.82260585 -1.8922981 4288085770
9.8566265 0.58121061 -1.8148655 4288085770
15.807566 0.83723783 -1.8762811 4288085770
9.3218708 0.60053718 -1.8082432 4288085770
14.712774 0.85305089 -1.8670026 4288085770
8.8480892 0.61961138 -1.8034643 4288085770
13.655119 0.86355901 -1.8463055 4288085770
8.3983479 0.63754541 -1.7960321 4288085770
12.750406 0.87645203 -1.8316838 4288085770
7.9895611 0.65533757 -1.7921668 4288085770
11.920694 0.88900757 -1.8171009 4288085770
7.6107731 0.67399943 -1.7887055 4288085770
11.222925 0.9030394 -1.8083133 4288085770
7.2600002 0.690516 -1.7836562 4288085770
10.60914 0.9167192 -1.8016852 4288085770
6.9432011 0.70790911 -1.7810644 4288085770
10.027388 0.930224 -1.7925023 4288085770
6.642416 0.7252208 -1.7776953 4288085770
9.5315647 0.94541633 -1.7894794 4288085770
6.3686123 0.74242747 -1.775699 4288085770
9.0667667 0.96045017 -1.7848867 4288085770
6.110796 0.75957674 -1.7749244 4288085770
8.6399555 0.97533131 -1.781819 4288085770
5.8779736 0.77661765 -1.7744945 4288085770
8.2431698 0.98904634 -1.7761785 4288085770
5.6371994 0.79164493 -1.7699822 4288085770
7.8853512 1.0036285 -1.7740637 4288085770
5.4174118 0.80759311 -1.7667474 4288085770
7.5555439 1.0190772 -1.7713236 4288085770
5.2245922 0.82546049 -1.7668597 4288085770
7.2377453 1.0334618 -1.7677633 4288085770
5.0148506 0.83931708 -1.7597903 4288085770
6.9489346 1.0487326 -1.7655901 4288085770
4.8420181 0.85609782 -1.7601939 4288085770
6.6771259 1.0629178 -1.7626673 4288085770
4.6632271 0.87186807 -1.7575272 4288085770
6.4263134 1.0790241 -1.7610067 4288085770
4.5084057 0.8875587 -1.7571899 4288085770
6.1785221 1.0930932 -1.757414 4288085770
4.338665 0.90224159 -1.7506622 4288085770
5.9467297 1.1070927 -1.7540423 4288085770
4.1928616 0.91888082 -1.7494386 4288085770
5.7469177 1.1239779 -1.7530731 4288085770
4.0560532 0.93448126 -1.7483517 4288085770
5.5261555 1.1358936 -1.7468804 4288085770
3.9391975 0.95204324 -1.7515141 4288085770
5.3363609 1.1507112 -1.7440759 4288085770
3.8173943 0.96857864 -1.7506219 4288085770
5.1685371 1.1684697 -1.7445365 4288085770
3.6956005 0.98510158 -1.748731 4288085770
5.0037327 1.184191 -1.7430643 4288085770
3.5708256 0.99961352 -1.7448245 4288085770
4.8329716 1.1978899 -1.7375363 4288085770
3.4670181 1.0160707 -1.7441808 4288085770
4.6791916 1.2135392 -1.734217 4288085770
3.36022 1.0315288 -1.7425095 4288085770
4.5423698 1.2291515 -1.7341303 4288085770
3.2664032 1.0489548 -1.7429916 4288085770
4.3946114 1.2437503 -1.7289079 4288085770
3.1745968 1.06636 -1.7425019 4288085770
4.2767868 1.2622923 -1.7300459 4288085770
3.0887814 1.0837512 -1.7430943 4288085770
4.15798 1.2788142 -1.7291955 4288085770
4.0371971 1.2943206 -1.7263318 4288085770
3.9284058 1.311787 -1.7246081 4288085770
3.8186226 1.3272457 -1.7218956 4288085770
3.7138405 1.3436825 -1.7192403 4288085770
3.6210403 1.3620917 -1.7187241 4288085770
3.5511894 1.3844621 -1.7234718 4288085770
3.4633961 1.4018376 -1.722037 4288085770
3.3816109 1.420187 -1.7206725 4288085770
3.3137932 1.4415122 -1.7224613 4288085770
3.2280254 1.4578545 -1.7190684 4288085770
3.1383018 1.4721655 -1.7116469 4288085770
3.0884552 1.4964494 -1.7166444 4288085770
3.0964813 3.4807401 -1.6601975 4288085770
3.1969032 3.5613508 -1.664482 4288085770
3.2903557 3.6369421 -1.6647344 4288085770
3.3878288 3.7145042 -1.6640136 4288085770
3.515274 3.810035 -1.6714648 4288085770
3.6027889 3.8785663 -1.6647204 4288085770
3.73629 3.9750223 -1.6682354 4288085770
3.8897953 4.0844412 -1.6758517 4288085770
3.993351 4.1598916 -1.6682273 4288085770
4.154892 4.2712512 -1.6739203 4288085770
4.2924747 4.3656039 -1.6705056 4288085770
4.4680672 4.4828792 -1.6743048 4288085770
3.164772 3.7316165 -1.6754807 4288085770
4.6376686 4.5941429 -1.6750966 4288085770
3.2702408 3.799108 -1.6719822 4288085770
4.8223133 4.7143426 -1.6759726 4288085770
3.3877239 3.8735604 -1.6695534 4288085770
5.0179768 4.8394947 -1.6769286 4288085770
3.5331974 3.9639661 -1.6732932 4288085770
5.2386532 4.9775753 -1.6810499 4288085770
3.6727009 4.0493484 -1.6730143 4288085770
5.4443779 5.1046348 -1.6781076 4288085770
3.8242054 4.1407032 -1.6748163 4288085770
5.6961269 5.2585826 -1.6824321 4288085770
3.9817142 4.2330327 -1.6766826 4288085770
5.9479027 5.4104934 -1.6837782 4288085770
4.1432648 4.3263078 -1.6755875 4288085770
6.2097073 5.5653486 -1.6842147 4288085770
4.3038139 4.4165754 -1.673514 4288085770
6.5145626 5.7450686 -1.6889027 4288085770
4.4953651 4.5247836 -1.6776217 4288085770
6.8544636 5.9436741 -1.6968099 4288085770
4.6979427 4.6369324 -1.6808215 4288085770
7.2704334 6.1860628 -1.7141637 4288085770
4.8975315 4.7450686 -1.6820291 4288085770
7.7004528 6.4343677 -1.7296211 4288085770
5.1121426 4.8591413 -1.6833562 4288085770
8.1855564 6.711472 -1.7484335 4288085770
5.3507862 4.9861345 -1.6868335 4288085770
8.6016827 6.9406652 -1.7499319 4288085770
5.5804367 5.1031184 -1.686314 4288085770
9.0168285 7.1648121 -1.7474736 4288085770
5.8431244 5.2379966 -1.689 4288085770
9.5000858 7.4257164 -1.7494408 4288085770
6.1088066 5.3718629 -1.6917337 4288085770
10.040407 7.7154245 -1.7557873 4288085770
6.3915272 5.5116434 -1.6936122 4288085770
10.58481 8.001029 -1.7552291 4288085770
6.6882763 5.6553516 -1.6946205 4288085770
7.0290432 5.8219447 -1.7019166 4288085770
7.3868618 5.9944406 -1.7073532 4288085770
7.8417377 6.2206917 -1.7273802 4288085770
8.3186665 6.4528112 -1.7446138 4288085770
8.8156261 6.6908464 -1.7620274 4288085770
9.2575817 6.889957 -1.766203 4288085770
9.6925716 7.0780234 -1.7644187 4288085770
10.171602 7.2849393 -1.7659658 4288085770
10.694685 7.5106912 -1.7698432 4288085770
11.273848 7.7592139 -1.7751573 4288085770
11.841009 7.9917274 -1.7755071 4288085770
17.408487 -1.8234344 -2.0120664 4288085770
16.686361 -1.8642452 -2.0134864 4288085770
15.998266 -1.900213 -2.0142756 4288085770
15.316259 -1.9262595 -2.0110202 4288085770
14.646311 -1.9463835 -2.005846 4288085770
13.941526 -1.9534767 -1.9910764 4288085770
13.301687 -1.9617944 -1.9811386 4288085770
12.684908 -1.9632487 -1.968407 4288085770
12.190928 -1.9760675 -1.9693559 4288085770
11.751894 -1.9910812 -1.974022 4288085770
11.233091 -1.9889128 -1.9654785 4288085770
10.730349 -1.9808519 -1.9540633 4288085770
17.039209 -3.0483494 -2.0531311 4288085770
10.286528 -1.977988 -1.9474527 4288085770
16.127562 -2.9974325 -2.0460668 4288085770
9.849741 -1.971168 -1.9398826 4288085770
15.323851 -2.9539466 -2.0424471 4288085770
9.4459095 -1.9644802 -1.9347302 4288085770
14.492273 -2.8974662 -2.0303211 4288085770
9.0631084 -1.9558764 -1.9288129 4288085770
13.703794 -2.8362153 -2.0136709 4288085770
8.7192402 -1.9513862 -1.9274355 4288085770
12.932356 -2.7720623 -1.9952027 4288085770
8.3694553 -1.9399228 -1.921898 4288085770
12.304701 -2.726387 -1.9887632 4288085770
8.0565968 -1.9335639 -1.9208883 4288085770
11.673178 -2.6717875 -1.9751662 4288085770
7.7587414 -1.9252687 -1.9200426 4288085770
11.109541 -2.6264098 -1.9675354 4288085770
7.462923 -1.9150088 -1.9171995 4288085770
10.53702 -2.5720732 -1.9536842 4288085770
7.1930676 -1.9058321 -1.9166948 4288085770
10.071314 -2.5330703 -1.950359 4288085770
6.9262371 -1.8946815 -1.9152049 4288085770
9.6086712 -2.4901328 -1.943025 4288085770
6.6833553 -1.8855934 -1.9170419 4288085770
9.1570492 -2.4452555 -1.9348079 4288085770
6.4554577 -1.8775556 -1.9200794 4288085770
8.7404003 -2.4035132 -1.9280668 4288085770
6.2385674 -1.8685648 -1.9232429 4288085770
8.3726711 -2.3679252 -1.9260138 4288085770
5.9987907 -1.8525681 -1.9190344 4288085770
8.0040073 -2.3283851 -1.9199015 4288085770
5.7600441 -1.8335893 -1.9138025 4288085770
7.6932087 -2.2989993 -1.9216388 4288085770
5.5422764 -1.8156862 -1.9098455 4288085770
7.3685207 -2.2616324 -1.9171039 4288085770
5.3374748 -1.7998121 -1.9080774 4288085770
7.0588284 -2.2253299 -1.9127709 4288085770
5.1287212 -1.7809601 -1.9032239 4288085770
6.7641392 -2.1901031 -1.9076396 4288085770
4.9309731 -1.7611547 -1.8984953 4288085770
6.4944096 -2.1569431 -1.9058455 4288085770
4.754158 -1.7453859 -1.8980795 4288085770
6.2416649 -2.1258543 -1.9042903 4288085770
4.5883198 -1.7316506 -1.8988267 4288085770
5.9899521 -2.0927966 -1.9007243 4288085770
4.3797073 -1.702904 -1.8858536 4288085770
5.7751369 -2.0668161 -1.9037071 4288085770
4.2278767 -1.6872282 -1.8867518 4288085770
5.5603657 -2.0378757 -1.903654 4288085770
4.0690899 -1.6695621 -1.8845395 4288085770
5.3286858 -2.0029285 -1.8983165 4288085770
3.9143276 -1.6499259 -1.881353 4288085770
5.1378937 -1.9760764 -1.8995892 4288085770
3.7615643 -1.6302986 -1.8781923 4288085770
4.9640465 -1.9532559 -1.9041244 4288085770
3.6177921 -1.6107092 -1.8751453 4288085770
4.7394543 -1.9134176 -1.8928171 4288085770
3.4989128 -1.5971339 -1.8794831 4288085770
4.5457802 -1.8796444 -1.8869694 4288085770
3.3611622 -1.5765829 -1.8754987 4288085770
4.3630829 -1.8479047 -1.8822845 4288085770
3.2393494 -1.5590472 -1.8757507 4288085770
4.1993294 -1.8202057 -1.8808864 4288085770
3.1235199 -1.5425241 -1.8770908 4288085770
4.0505295 -1.7945309 -1.8826998 4288085770
3.882843 -1.7628677 -1.8772045 4288085770
3.7371006 -1.7352579 -1.8750325 4288085770
3.6082897 -1.7116673 -1.8771218 4288085770
3.4695492 -1.6830871 -1.8750256 4288085770
3.3537312 -1.6615515 -1.8773028 4288085770
3.2070866 -1.6280167 -1.8690473 4288085770
3.0893211 -1.6025124 -1.868251 4288085770
3.0550308 0.43718827 -1.765256 4288085770
3.1762218 0.44865215 -1.7644659 4288085770
3.3044014 0.46010026 -1.7647554 4288085770
3.4455433 0.4715347 -1.7681929 4288085770
3.596693 0.48392761 -1.7717315 4288085770
3.7379074 0.4952814 -1.7691671 4288085770
3.9020462 0.50662029 -1.7728659 4288085770
4.0572586 0.51791608 -1.7704595 4288085770
3.1161175 0.49000132 -1.7719971 4288085770
4.2304363 0.52917731 -1.771259 4288085770
3.2283497 0.49743605 -1.7661518 4288085770
4.4106236 0.54039598 -1.7711374 4288085770
3.3675041 0.50585258 -1.7676021 4288085770
4.6227531 0.55254865 -1.7763687 4288085770
3.5226326 0.51422942 -1.7712349 4288085770
4.8029823 0.56271374 -1.7722567 4288085770
3.6727867 0.52260029 -1.7728087 4288085770
5.0400982 0.57477629 -1.7787713 4288085770
3.830946 0.52992451 -1.7734865 4288085770
5.2822399 0.58679098 -1.7833413 4288085770
3.9981022 0.53821141 -1.7742549 4288085770
5.4974728 0.59679729 -1.778628 4288085770
4.1832275 0.54546392 -1.7782396 4288085770
5.7456722 0.60670662 -1.7772895 4288085770
4.3733616 0.55268222 -1.7812797 4288085770
6.0218468 0.61853969 -1.7792426 4288085770
4.5555496 0.5588665 -1.77924 4288085770
6.3080311 0.62830466 -1.7793351 4288085770
4.7357559 0.5640325 -1.775189 4288085770
6.6232014 0.63997567 -1.7817305 4288085770
4.9598846 0.57010972 -1.7786273 4288085770
6.9613667 0.65055132 -1.7844001 4288085770
5.1790657 0.57514042 -1.7770196 4288085770
7.3215389 0.66202199 -1.7863048 4288085770
5.4351711 0.5821116 -1.7828063 4288085770
7.7156887 0.67237848 -1.7906092 4288085770
5.686327 0.58703637 -1.7835604 4288085770
8.1478519 0.68356353 -1.7943317 4288085770
5.9435081 0.58989608 -1.781408 4288085770
8.59902 0.69465613 -1.7972671 4288085770
6.2286587 0.59367979 -1.7825595 4288085770
9.1181698 0.70649308 -1.8029634 4288085770
6.5228138 0.5964129 -1.7828249 4288085770
9.6713123 0.71718901 -1.8090564 4288085770
6.8729191 0.60098052 -1.7887005 4288085770
10.243513 0.72672504 -1.8093754 4288085770
7.2320194 0.60349774 -1.7937022 4288085770
10.863714 0.73606169 -1.8102373 4288085770
7.6071644 0.6048944 -1.7948972 4288085770
11.632826 0.7478869 -1.8207549 4288085770
8.010294 0.60518849 -1.7974216 4288085770
12.492918 0.7603476 -1.8332907 4288085770
8.4753742 0.60626554 -1.8036391 4288085770
13.50495 0.77424407 -1.8525306 4288085770
8.9534893 0.60424864 -1.8070382 4288085770
14.628008 0.78765243 -1.8710231 4288085770
9.4795895 0.60204571 -1.8119801 4288085770
15.861109 0.79952282 -1.8847734 4288085770
10.030722 0.5976851 -1.813229 4288085770
17.225225 0.80982232 -1.8980187 4288085770
10.683779 0.59298229 -1.8216347 4288085770
11.389853 0.58703226 -1.8286513 4288085770
12.226812 0.5806604 -1.8461515 4288085770
13.111826 0.57100821 -1.8582312 4288085770
14.174753 0.55969834 -1.8783404 4288085770
15.322699 0.54298222 -1.8954736 4288085770
16.588655 0.52273583 -1.9109775 4288085770
17.920721 0.49404034 -1.914328 4288085770
7.2340336 -5.3550553 -0.18073833 4293729569
7.1207371 -5.302125 -0.71087217 4293729569
7.2309971 -5.2904797 -0.22076577 4293729569
7.2054424 -5.2908611 -0.75556767 4293729569
7.258894 -5.2430434 -0.26035702 4293729569
7.2163944 -5.2343683 -0.79385436 4293729569
7.309763 -5.2067142 -0.29934371 4293729569
7.2722073 -5.2030153 -0.83596325 4293729569
7.36693 -5.1898055 -0.87973297 4293729569
7.7417622 -5.3284221 -0.9505645 4293729569
9.6776638 -6.2189593 -1.2202312 4293729569
7.7040882 -5.0958953 -1.0467829 4293729569
7.7669888 -5.0566406 -1.0838476 4293729569
8.310358 -5.2616997 -1.1743603 4293729569
8.3682995 -5.2134252 -1.2112423 4293729569
8.2986698 -5.0998292 -1.2318745 4293729569
8.3815784 -5.0616693 -1.2681569 4293729569
9.6337528 -5.5845056 -1.4485091 4293729569
9.6060505 -5.4810371 -1.4727136 4293729569
10.237444 -5.6618991 -0.89369678 4293729569
10.424685 -5.7717199 -1.6022705 4293729569
9.9733524 -5.4466572 -0.90086758 4293729569
9.752058 -5.3676777 -1.5415325 4293729569
10.443396 -5.5638161 -0.96134543 4293729569
9.8510075 -5.3195815 -1.5778302 4293729569
10.513491 -5.4966903 -0.99107111 4293729569
9.7246952 -5.1689672 -1.5823425 4293729569
11.727667 -5.9261785 -1.1126617 4293729569
10.264307 -5.3129678 -1.6749188 4293729569
10.619532 -5.3675313 -1.7423161 4293729569
10.726534 -5.3135104 -1.775607 4293729569
11.642885 -5.5699677 -1.1705737 4293729569
11.193464 -5.4053431 -1.8576807 4293729569
11.773932 -5.5161033 -1.2001063 4293729569
11.264647 -5.3282757 -1.8832682 4293729569
11.691523 -5.375598 -1.2102064 4293729569
11.180319 -5.1888723 -1.8853651 4293729569
11.648043 -5.2512493 -1.2209365 4293729569
11.106958 -5.0565138 -1.8876749 4293729569
11.119364 -4.957376 -1.90034 4293729569
11.078947 -4.8361378 -1.9041463 4293729569
11.167158 -4.7642093 -1.9249767 4293729569
11.42589 -4.752677 -1.9694186 4293729569
11.781385 -4.7713952 -2.0252829 4288085770
11.998293 -4.7357917 -2.0619459 4288085770
16.233912 -6.0338326 -1.7127577 4293729569
12.064672 -4.6469011 -2.0733023 4288085770
16.187685 -5.8766289 -1.7119676 4293729569
11.997442 -4.5137377 -2.0636549 4288085770
16.158415 -5.7294946 -1.7114938 4293729569
11.95315 -4.3896379 -2.0563717 4288085770
16.339731 -5.6450171 -1.7280697 4293729569
11.914858 -4.2685776 -2.0481925 4288085770
11.905489 -4.1575909 -2.0434532 4288085770
11.897146 -4.0466523 -2.0357246 4288085770
11.946642 -3.9548347 -2.0368595 4288085770
11.951284 -3.8479488 -2.0293188 4288085770
12.0138 -3.7572124 -2.0285997 4288085770
12.068335 -3.6644723 -2.0257688 4288085770
12.102957 -3.5657227 -2.0176473 4288085770
12.19842 -3.4821064 -2.018362 4288085770
12.281958 -3.3945129 -2.0138965 4288085770
12.381418 -3.3109858 -2.0116401 4288085770
12.499899 -3.2305048 -2.0096378 4288085770
12.636358 -3.1530826 -2.0088611 4288085770
12.784834 -3.074724 -2.0071912 4288085770
12.979227 -3.0044954 -2.0101032 4288085770
13.160669 -2.9302576 -2.0098233 4288085770
13.361109 -2.8570964 -2.0097499 4288085770
13.583529 -2.7860103 -2.0109267 4288085770
13.808992 -2.7119792 -2.0090909 4288085770
14.091345 -2.6480947 -2.0139747 4288085770
14.36278 -2.5772374 -2.0136437 4288085770
14.693129 -2.5135484 -2.0190105 4288085770
14.999582 -2.4408472 -2.018002 4288085770
15.34001 -2.370271 -2.0183649 4288085770
15.721422 -2.3008323 -2.0211554 4288085770
16.168787 -2.2346351 -2.0266557 4288085770
16.561285 -2.1573279 -2.0234365 4288085770
17.005751 -2.0822036 -2.0227704 4288085770
17.560133 -2.0134561 -2.0283017 4288085770
17.439188 0.86285561 -1.8851625 4288085770
16.316568 0.91025114 -1.8713259 4288085770
15.388876 0.95899493 -1.8672217 4288085770
14.419271 0.9956789 -1.8479286 4288085770
13.613607 1.0338037 -1.836089 4288085770
12.863951 1.0686766 -1.8228022 4288085770
12.185278 1.1022832 -1.8111738 4288085770
11.562601 1.1326532 -1.7990986 4288085770
11.015886 1.1627675 -1.7907101 4288085770
10.543154 1.195649 -1.7869443 4288085770
17.433565 1.8133016 -1.8330575 4288085770
10.097429 1.2253783 -1.7804695 4288085770
16.466791 1.8311229 -1.8240916 4288085770
9.6896839 1.2549874 -1.7763385 4288085770
15.62501 1.8534942 -1.819178 4288085770
9.3099499 1.2834551 -1.7704769 4288085770
14.804243 1.8686922 -1.8085653 4288085770
8.9552021 1.3118542 -1.7668418 4288085770
14.073481 1.8855488 -1.7997347 4288085770
8.619463 1.3391477 -1.7613949 4288085770
13.376734 1.9002104 -1.7872447 4288085770
8.3257046 1.3673203 -1.7593106 4288085770
12.806948 1.9224901 -1.7837754 4288085770
8.0309658 1.3924365 -1.7532655 4288085770
12.204203 1.9337493 -1.770182 4288085770
7.7921886 1.4234365 -1.7546319 4288085770
11.670458 1.9487658 -1.7591499 4288085770
7.5314426 1.447418 -1.7489096 4288085770
11.199697 1.966578 -1.7516392 4288085770
7.2956753 1.4733455 -1.7463821 4288085770
10.76993 1.9862428 -1.7454685 4288085770
7.0789204 1.5001829 -1.7430123 4288085770
10.424131 2.012666 -1.7459465 4288085770
6.8611736 1.523994 -1.7376794 4288085770
10.061361 2.0340807 -1.7413498 4288085770
6.6644154 1.549752 -1.7345048 4288085770
9.7345943 2.057368 -1.7380465 4288085770
6.4946384 1.5774487 -1.7345423 4288085770
9.4238148 2.0785773 -1.7339188 4288085770
6.3348675 1.6061056 -1.734655 4288085770
9.1450443 2.1046898 -1.7320031 4288085770
6.1571159 1.6297581 -1.7296842 4288085770
8.8742733 2.1287556 -1.7291909 4288085770
6.0123425 1.6583555 -1.7299327 4288085770
8.6294994 2.1547332 -1.7275821 4288085770
5.887558 1.688904 -1.73233 4288085770
8.3887386 2.1776502 -1.7230562 4288085770
5.7467957 1.7144403 -1.7296613 4288085770
8.1549892 2.2005239 -1.7175945 4288085770
5.6050472 1.7389503 -1.7250003 4288085770
7.9432278 2.2253408 -1.7142998 4288085770
5.4882774 1.7664219 -1.724517 4288085770
7.7484684 2.2500904 -1.7111579 4288085770
5.3795128 1.7958617 -1.724075 4288085770
7.5627079 2.2768044 -1.7080671 4288085770
5.2667503 1.823302 -1.7226287 4288085770
7.3949566 2.306462 -1.706092 4288085770
5.1420155 1.8467141 -1.7161375 4288085770
7.2391911 2.3350878 -1.7052399 4288085770
5.0442581 1.8750951 -1.7148105 4288085770
7.0774479 2.3616762 -1.7003659 4288085770
4.9395123 1.9004583 -1.7104682 4288085770
6.9346943 2.3902352 -1.6986314 4288085770
4.8367596 1.9258137 -1.7061456 4288085770
6.7999401 2.4207621 -1.6969405 4288085770
4.7639923 1.959141 -1.7079664 4288085770
6.6692028 2.4512429 -1.6932842 4288085770
4.673254 1.9854488 -1.7037345 4288085770
6.5574551 2.4836943 -1.6927663 4288085770
4.5975037 2.0147274 -1.7015907 4288085770
6.4507046 2.5171256 -1.6922783 4288085770
4.5217571 2.0440059 -1.699447 4288085770
6.3389797 2.5485313 -1.6887776 4288085770
4.4520111 2.074261 -1.697342 4288085770
6.2462425 2.5838919 -1.6873847 4288085770
4.3852673 2.1045036 -1.6952637 4288085770
6.1495075 2.6162536 -1.6850027 4288085770
4.3095322 2.1307368 -1.6901673 4288085770
6.0747814 2.6555581 -1.6847094 4288085770
4.2617893 2.1659348 -1.6901819 4288085770
6.0040474 2.6948619 -1.6854519 4288085770
4.2160397 2.2011399 -1.6912144 4288085770
5.9303322 2.7321324 -1.6831988 4288085770
4.1543159 2.2303174 -1.6861972 4288085770
5.8506145 2.767411 -1.6799234 4288085770
4.1135731 2.2654877 -1.6862742 4288085770
5.7998962 2.8106356 -1.6807832 4288085770
4.0648479 2.2986441 -1.6833116 4288085770
5.7461853 2.8538573 -1.6806163 4288085770
4.0161228 2.3297851 -1.6793793 4288085770
5.6854858 2.8930607 -1.6774491 4288085770
3.973402 2.3639174 -1.6764547 4288085770
5.6407871 2.9372313 -1.6763471 4288085770
3.9486618 2.4040546 -1.6785973 4288085770
5.6050816 2.9843962 -1.6772791 4288085770
3.9119434 2.4381485 -1.6747268 4288085770
5.5633984 3.0285246 -1.6742049 4288085770
3.8912163 2.4792542 -1.6758896 4288085770
5.5357056 3.0786581 -1.6751617 4288085770
3.8555145 2.5143287 -1.671012 4288085770
5.5080261 3.1277611 -1.6741341 4288085770
3.8228188 2.5503907 -1.6661459 4288085770
5.4883537 3.1808476 -1.6741158 4288085770
3.8061123 2.5924509 -1.6653289 4288085770
5.4686871 3.2329187 -1.6731128 4288085770
3.7894039 2.6345105 -1.664512 4288085770
5.4570312 3.2879586 -1.6721345 4288085770
3.7816982 2.6795495 -1.6647284 4288085770
5.4483795 3.3439863 -1.6711673 4288085770
3.7819958 2.7275727 -1.6659693 4288085770
5.4517326 3.4059968 -1.6722137 4288085770
3.7633152 2.7675793 -1.661165 4288085770
5.4600945 3.4699876 -1.6732734 4288085770
3.7626228 2.8155909 -1.6613969 4288085770
5.468462 3.5329633 -1.6733481 4288085770
3.7629414 2.864583 -1.6606221 4288085770
5.4768391 3.5969234 -1.6724073 4288085770
3.7722626 2.9165552 -1.6608804 4288085770
5.4872284 3.660861 -1.6704837 4288085770
3.7935791 2.9735253 -1.6641672 4288085770
5.5016289 3.727782 -1.6685494 4288085770
3.8029213 3.0264666 -1.6624097 4288085770
5.5370312 3.8046808 -1.6706458 4288085770
3.8162651 3.0814073 -1.6616563 4288085770
5.5734482 3.8825607 -1.6717356 4288085770
3.8376122 3.1393318 -1.661927 4288085770
5.6098824 3.9604101 -1.6708249 4288085770
3.8519726 3.1952384 -1.6591672 4288085770
5.6523304 4.0422354 -1.6699055 4288085770
3.8813267 3.2571461 -1.6604458 4288085770
5.6937847 4.1230497 -1.6679915 4288085770
3.9186974 3.3240221 -1.6617179 4288085770
5.7562542 4.2148266 -1.6690928 4288085770
3.9720802 3.3998804 -1.6659921 4288085770
5.8237343 4.3085828 -1.6702064 4288085770
4.0244617 3.4757431 -1.6702567 4288085770
5.8992424 4.409308 -1.6712824 4288085770
4.0468636 3.5345719 -1.6645184 4288085770
5.9867592 4.5150008 -1.6733857 4288085770
4.1142673 3.6183901 -1.6697906 4288085770
6.0842953 4.6276698 -1.676469 4288085770
4.1736813 3.6981943 -1.6720535 4288085770
6.1978645 4.7502894 -1.6805376 4288085770
4.221117 3.77197 -1.6693023 4288085770
6.3134613 4.8758712 -1.682577 4288085770
4.2985573 3.8627334 -1.6735526 4288085770
6.42206 4.9974499 -1.6826149 4288085770
4.3730183 3.9524629 -1.6747915 4288085770
6.5246792 5.1159921 -1.6786453 4288085770
4.4274864 4.0301805 -1.6700383 4288085770
6.652338 5.2504807 -1.6776479 4288085770
4.5139751 4.126863 -1.6712729 4288085770
6.8060246 5.3989124 -1.6796616 4288085770
4.5864792 4.2155237 -1.6675071 4288085770
6.9567394 5.5483088 -1.6786324 4288085770
4.6859875 4.31917 -1.6697456 4288085770
7.1154881 5.7026591 -1.6765949 4288085770
4.7745209 4.4177833 -1.6669639 4288085770
7.3132877 5.8819318 -1.6795126 4288085770
4.8920765 4.5343585 -1.6691595 4288085770
7.6101894 6.1210394 -1.6973735 4288085770
5.018652 4.6569123 -1.6723391 4288085770
7.9081631 6.365068 -1.7101623 4288085770
5.1442566 4.7784095 -1.6715239 4288085770
8.2582035 6.6419973 -1.7298948 4288085770
5.2878723 4.9108968 -1.6746954 4288085770
8.5232105 6.8679585 -1.7296661 4288085770
5.432518 5.0453339 -1.6748434 4288085770
8.7902508 7.0958805 -1.7274212 4288085770
5.5821819 5.1817365 -1.6740025 4288085770
9.0873585 7.3436999 -1.7261277 4288085770
5.7508888 5.3310795 -1.674126 4288085770
9.4245548 7.6183906 -1.7267655 4288085770
5.9176083 5.4793992 -1.6722461 4288085770
9.7918377 7.9129481 -1.726354 4288085770
6.1293926 5.6566324 -1.6763099 4288085770
6.3452015 5.8368206 -1.6783606 4288085770
6.6501331 6.0758529 -1.6932763 4288085770
6.9921398 6.3418012 -1.7120954 4288085770
7.3321743 6.6046815 -1.7259401 4288085770
7.6412029 6.8465466 -1.7308346 4288085770
7.9282475 7.0723619 -1.7267812 4288085770
8.2533894 7.3240428 -1.7236551 4288085770
8.6246014 7.6056027 -1.7244669 4288085770
9.0399227 7.9170179 -1.7271916 4288085770
17.41226 -0.95649403 -1.9467448 4288085770
16.376261 -0.98551661 -1.9426631 4288085770
15.390329 -1.0067928 -1.9348747 4288085770
14.499411 -1.0234287 -1.9277965 4288085770
13.656542 -1.03631 -1.9170569 4288085770
12.892656 -1.046443 -1.9099253 4288085770
12.212755 -1.0558774 -1.9044741 4288085770
11.575884 -1.061491 -1.8983179 4288085770
10.977018 -1.0652487 -1.8924466 4288085770
17.536287 -1.6813765 -1.9827415 4288085770
10.441141 -1.0682285 -1.8880812 4288085770
16.444487 -1.6551569 -1.9803604 4288085770
9.9352703 -1.0693226 -1.8839356 4288085770
15.401731 -1.6252022 -1.9733278 4288085770
9.4604015 -1.0695333 -1.8800305 4288085770
14.42803 -1.5915723 -1.962804 4288085770
9.0185375 -1.0688536 -1.8773834 4288085770
13.466421 -1.5521314 -1.9432908 4288085770
8.5986996 -1.0653045 -1.8718728 4288085770
12.71763 -1.5272527 -1.9407512 4288085770
8.2188244 -1.0638428 -1.8707241 4288085770
12.077765 -1.5086889 -1.9452041 4288085770
7.8399944 -1.0584493 -1.8655232 4288085770
11.35811 -1.4741278 -1.9297546 4288085770
7.5161037 -1.0561678 -1.8668224 4288085770
10.770338 -1.4499037 -1.9255484 4288085770
7.2202015 -1.0529759 -1.869337 4288085770
10.155668 -1.4177232 -1.9119991 4288085770
6.9243336 -1.0488324 -1.868838 4288085770
9.6259327 -1.3907824 -1.9042283 4288085770
6.6305027 -1.0417442 -1.8653101 4288085770
9.1252041 -1.3639667 -1.8956982 4288085770
6.3646297 -1.0356984 -1.8660289 4288085770
8.6824322 -1.3403056 -1.8916928 4288085770
6.1067791 -1.0287144 -1.8647987 4288085770
8.2586765 -1.3167481 -1.8858458 4288085770
5.8499641 -1.0187831 -1.8605317 4288085770
7.8928699 -1.2963445 -1.8845226 4288085770
5.6131287 -1.0098946 -1.8584453 4288085770
7.537077 -1.2749953 -1.8822678 4288085770
5.3972607 -1.002038 -1.859547 4288085770
7.2352047 -1.259737 -1.8875502 4288085770
5.1914062 -0.99423474 -1.8597323 4288085770
6.9274044 -1.2395685 -1.8857073 4288085770
4.9586449 -0.97947437 -1.8505889 4288085770
6.6585369 -1.2234511 -1.8902479 4288085770
4.7757797 -0.97174221 -1.8519644 4288085770
6.3857136 -1.2053819 -1.8907257 4288085770
4.5749893 -0.95905429 -1.8461155 4288085770
6.1109467 -1.1833861 -1.8861262 4288085770
4.3841896 -0.94638842 -1.8413495 4288085770
5.8541622 -1.1634412 -1.8827065 4288085770
4.2153587 -0.9357577 -1.8397952 4288085770
5.5914249 -1.1395388 -1.8751765 4288085770
4.0485401 -0.92415029 -1.8372425 4288085770
5.3486633 -1.1176798 -1.8698426 4288085770
3.8737717 -0.90959316 -1.8295788 4288085770
5.1228981 -1.0968843 -1.8646644 4288085770
3.7359028 -0.90001518 -1.8322955 4288085770
4.915102 -1.0771089 -1.8626498 4288085770
3.5781193 -0.88549048 -1.8267719 4288085770
4.6953812 -1.0534003 -1.8534759 4288085770
3.443285 -0.87498778 -1.8254989 4288085770
4.5085888 -1.0347195 -1.8506504 4288085770
3.3244076 -0.8654657 -1.8293725 4288085770
4.3327885 -1.0160646 -1.8489155 4288085770
3.1866207 -0.85101622 -1.8240141 4288085770
4.1370678 -0.9934625 -1.8389562 4288085770
3.0727634 -0.840545 -1.8259143 4288085770
3.9692879 -0.97386974 -1.8352727 4288085770
3.8164864 -0.95530123 -1.8337275 4288085770
3.6537342 -0.93477529 -1.8270708 4288085770
3.5219059 -0.9182536 -1.8277296 4288085770
3.3771286 -0.8987636 -1.8232366 4288085770
3.2433434 -0.88029855 -1.8198494 4288085770
3.1255245 -0.86384577 -1.8196238 4288085770
3.0831146 1.0212562 -1.7381727 4288085770
3.1973076 1.0347931 -1.7358207 4288085770
3.3144913 1.0483197 -1.7334925 4288085770
3.4456711 1.0628281 -1.7332553 4288085770
3.5768585 1.0773206 -1.7320179 4288085770
3.7240334 1.0927879 -1.7328874 4288085770
3.8562393 1.1042126 -1.7277054 4288085770
4.0244064 1.1216369 -1.7307044 4288085770
3.1449451 1.0100788 -1.7417067 4288085770
4.1895885 1.1370239 -1.7307121 4288085770
3.2741032 1.0206116 -1.7425171 4288085770
4.3587646 1.1513969 -1.7307664 4288085770
3.3972816 1.0291017 -1.7393132 4288085770
4.5409489 1.1677231 -1.7308882 4288085770
3.5254478 1.0376065 -1.7381474 4288085770
4.731123 1.1830372 -1.7320877 4288085770
3.6676083 1.0470772 -1.7380732 4288085770
4.9362907 1.1993138 -1.7343866 4288085770
3.8217583 1.0575372 -1.7400752 4288085770
5.1644516 1.21754 -1.73883 4288085770
3.9719162 1.0649637 -1.7390944 4288085770
5.3836384 1.2327185 -1.738252 4288085770
4.1330643 1.0733831 -1.7401816 4288085770
5.6547756 1.2538555 -1.7469782 4288085770
4.2862434 1.0797508 -1.7362393 4288085770
5.8849697 1.266963 -1.7445158 4288085770
4.4633923 1.0881133 -1.7374493 4288085770
6.1451607 1.282995 -1.7442364 4288085770
4.6535263 1.0964456 -1.7397596 4288085770
6.4213314 1.2979863 -1.7450966 4288085770
4.8686447 1.107753 -1.7462133 4288085770
6.7295055 1.3158952 -1.7481538 4288085770
5.0478287 1.1109962 -1.7405182 4288085770
7.0426807 1.3317547 -1.749281 4288085770
5.3089104 1.1232204 -1.7523094 4288085770
7.3928623 1.3494976 -1.7516612 4288085770
5.5190697 1.1284177 -1.7508196 4288085770
7.7590351 1.3672 -1.7551633 4288085770
5.7412281 1.1315563 -1.7484545 4288085770
8.137228 1.383795 -1.7547735 4288085770
5.9903679 1.1366469 -1.7492641 4288085770
8.5693951 1.4022781 -1.7597669 4288085770
6.2624969 1.1426878 -1.7522346 4288085770
8.9965916 1.4176825 -1.7587689 4288085770
6.5356312 1.1456934 -1.7532605 4288085770
9.4897633 1.4369318 -1.7632142 4288085770
6.829771 1.1486081 -1.7534477 4288085770
10.044916 1.4580083 -1.771104 4288085770
7.157877 1.1534822 -1.7588631 4288085770
10.578123 1.4720027 -1.7689358 4288085770
7.4929981 1.1552837 -1.7613806 4288085770
11.229288 1.4937208 -1.7765466 4288085770
7.8511143 1.1570033 -1.7640742 4288085770
11.947443 1.5172319 -1.7866396 4288085770
8.2252293 1.1566501 -1.7659224 4288085770
12.74859 1.5424633 -1.7983378 4288085770
8.6353359 1.1562011 -1.7700466 4288085770
13.616747 1.5664237 -1.8085665 4288085770
9.073431 1.1546528 -1.7744015 4288085770
14.642878 1.5959167 -1.8259131 4288085770
9.5305347 1.1499888 -1.775951 4288085770
15.665045 1.6172639 -1.8333563 4288085770
10.044607 1.1462029 -1.782921 4288085770
16.784239 1.637217 -1.838559 4288085770
10.544729 1.1363221 -1.7808794 4288085770
11.178751 1.1332065 -1.7947532 4288085770
11.813814 1.1219426 -1.7997636 4288085770
12.552832 1.113422 -1.8125228 4288085770
13.370836 1.1006207 -1.8259529 4288085770
14.243826 1.0836087 -1.8388683 4288085770
15.221804 1.0652395 -1.8536047 4288085770
16.26478 1.0385755 -1.8649679 4288085770
17.37575 1.0046225 -1.8739647 4288085770
5.646801 -5.4007406 -0.85572326 4293729569
5.6396046 -5.3949561 -0.90157068 4293729569
5.8046379 -5.5016613 -1.0165491 4293729569
6.5933132 -6.0263009 -1.2740492 4293729569
6.5712109 -5.9934492 -1.3203362 4293729569
6.5959454 -5.9916553 -1.3734835 4293729569
6.5778484 -5.9568181 -1.4197663 4293729569
5.6826363 -5.2593002 -0.8305186 4293729569
6.5278835 -5.8979721 -1.4594159 4293729569
5.6715813 -5.2245874 -0.87085485 4293729569
6.5486774 -5.8861995 -1.5103672 4293729569
6.2964935 -5.6239767 -0.98606884 4293729569
6.3791904 -5.7403164 -1.5256919 4293729569
6.3283119 -5.6123099 -1.0331014 4293729569
5.8948936 -5.377285 -1.4800965 4293729569
6.4647999 -5.6698136 -1.0930506 4293729569
5.8609505 -5.322578 -1.5149316 4293729569
7.3622494 -6.30653 -1.850298 4293729569
6.5035648 -5.6184621 -1.1824657 4293729569
6.8790035 -5.9395857 -1.7996444 4293729569
6.4307766 -5.5296912 -1.2124486 4293729569
6.6378765 -5.7368112 -1.7924961 4293729569
5.7290974 -5.0261769 -1.1479295 4293729569
6.6737118 -5.717124 -1.8414232 4293729569
5.764986 -5.0096402 -1.187909 4293729569
6.4933949 -5.5544543 -1.8413874 4293729569
5.8138485 -4.9981313 -1.2290666 4293729569
6.3120975 -5.3908153 -1.8393284 4293729569
5.8467693 -4.9746013 -1.2679073 4293729569
6.1029396 -5.20825 -1.8267499 4293729569
5.8508072 -4.9310741 -1.3002033 4293729569
5.9435883 -5.0586848 -1.8250853 4293729569
6.5365467 -5.314136 -1.4475807 4293729569
5.792244 -4.9141984 -1.8205637 4293729569
6.6014042 -5.3016472 -1.4908363 4293729569
5.6608181 -4.7837286 -1.8194214 4293729569
8.3276348 -6.3073778 -1.8271762 4293729569
5.5792294 -4.6842937 -1.8271595 4293729569
8.1802197 -6.1506562 -1.8374776 4293729569
5.4856911 -4.57587 -1.8316604 4293729569
8.0188847 -5.9859853 -1.8415445 4293729569
5.4897881 -4.5284414 -1.8578905 4293729569
7.9283123 -5.8643885 -1.856845 4293729569
5.5666237 -4.5230098 -1.9003507 4293729569
6.9926357 -5.2444167 -1.7086803 4293729569
5.6693668 -4.5315652 -1.9492325 4293729569
6.5771923 -4.9397879 -1.6545634 4293729569
5.7462273 -4.5211501 -1.9906086 4288085770
6.5833492 -4.8814011 -1.6786224 4293729569
5.7254772 -4.4538217 -2.0053234 4288085770
6.8914814 -4.9941196 -1.7627321 4293729569
5.609108 -4.3295703 -1.9943918 4288085770
7.1866856 -5.0938606 -1.8425301 4293729569
5.514658 -4.2193265 -1.9878534 4288085770
7.1400509 -4.999496 -1.8536028 4293729569
5.4152508 -4.106133 -1.9772292 4288085770
7.0445957 -4.879149 -1.8528866 4293729569
5.3507099 -4.0129232 -1.9751924 4288085770
6.9571247 -4.7628298 -1.8522953 4293729569
5.2901649 -3.922744 -1.9722346 4288085770
6.8865948 -4.656517 -1.8549939 4293729569
5.2366009 -3.8365719 -1.9703947 4288085770
6.8908367 -4.5912743 -1.8699208 4293729569
5.184042 -3.7514365 -1.9665786 4288085770
7.030653 -4.5940738 -1.9119667 4293729569
5.1245136 -3.6633108 -1.960662 4288085770
7.172472 -4.5948792 -1.9539932 4293729569
5.0869102 -3.5861928 -1.9590887 4288085770
7.3133068 -4.5926986 -1.9949621 4288085770
5.0413513 -3.5061142 -1.9534072 4288085770
7.3943577 -4.5585332 -2.0219622 4288085770
4.9908199 -3.4220531 -1.9456228 4288085770
7.3797245 -4.4773769 -2.027483 4288085770
4.9751606 -3.3579752 -1.9464253 4288085770
7.351141 -4.3892393 -2.0287857 4288085770
4.9405842 -3.284951 -1.9399406 4288085770
7.2278767 -4.2571492 -2.0066676 4288085770
4.9169617 -3.2158973 -1.9376014 4288085770
7.1684093 -4.1560588 -1.9985296 4288085770
4.8863811 -3.1449029 -1.930179 4288085770
7.1298847 -4.0660048 -1.9927269 4288085770
4.8767357 -3.0828965 -1.928058 4288085770
7.097353 -3.9769542 -1.9879845 4288085770
4.868084 -3.0218937 -1.9259609 4288085770
7.0807743 -3.8969414 -1.9845077 4288085770
4.853466 -2.9579198 -1.9207705 4288085770
7.0602245 -3.8139493 -1.9789521 4288085770
4.8597851 -2.9029512 -1.9198817 4288085770
7.0606098 -3.741977 -1.9767314 4288085770
4.871088 -2.8509817 -1.9200786 4288085770
7.0699825 -3.6730192 -1.9756259 4288085770
4.8704376 -2.7940397 -1.9161059 4288085770
7.0594158 -3.5970771 -1.9692589 4288085770
4.8747787 -2.7391138 -1.9122022 4288085770
7.0688114 -3.5281689 -1.9651531 4288085770
4.8910866 -2.6891949 -1.9104685 4288085770
7.0831814 -3.4622614 -1.962133 4288085770
4.8924561 -2.6323094 -1.9035097 4288085770
7.1085377 -3.3993742 -1.9602422 4288085770
4.9336967 -2.5913923 -1.9071056 4288085770
7.1338978 -3.3375204 -1.9563679 4288085770
4.9619846 -2.5454977 -1.9065243 4288085770
7.1702518 -3.2776878 -1.9536058 4288085770
4.9683495 -2.4916449 -1.8986512 4288085770
7.213583 -3.2218621 -1.9519609 4288085770
5.0046291 -2.4477777 -1.8981606 4288085770
7.2529354 -3.1640551 -1.9482533 4288085770
5.0329361 -2.4019334 -1.8945788 4288085770
7.3032742 -3.1092865 -1.9446748 4288085770
5.0811939 -2.3620896 -1.8952407 4288085770
7.3635845 -3.0585182 -1.9432348 4288085770
5.1294575 -2.322263 -1.8949021 4288085770
7.4328938 -3.008781 -1.9418753 4288085770
5.1807232 -2.2824466 -1.8945848 4288085770
7.5081844 -2.9620631 -1.9406091 4288085770
5.2280045 -2.2416496 -1.892222 4288085770
7.5894909 -2.914366 -1.9393688 4288085770
5.3151913 -2.2118547 -1.8983296 4288085770
7.6638126 -2.8656955 -1.9350609 4288085770
5.3575001 -2.1670749 -1.8938631 4288085770
7.7630863 -2.8230429 -1.9350322 4288085770
5.4167728 -2.1293187 -1.8916353 4288085770
7.85639 -2.77842 -1.9319266 4288085770
5.5009918 -2.0975804 -1.8936869 4288085770
7.9706554 -2.7378185 -1.9320379 4288085770
5.586216 -2.064846 -1.8957282 4288085770
8.0959148 -2.699254 -1.9322611 4288085770
5.6764393 -2.0321286 -1.8978049 4288085770
8.2112026 -2.6577067 -1.9293619 4288085770
5.7736588 -2.0004344 -1.8999478 4288085770
8.3484631 -2.6201999 -1.9286863 4288085770
5.855917 -1.9647567 -1.8979172 4288085770
8.4917202 -2.5817134 -1.9280373 4288085770
