# .PCD v0.7 - Point Cloud Data file format
VERSION 0.7
FIELDS x y z rgb
SIZE 4 4 4 4
TYPE F F F U
COUNT 1 1 1 1
WIDTH 1110
HEIGHT 1
VIEWPOINT 0 0 0 1 0 0 0
POINTS 1110
DATA ascii
-1.5927429 -1.8278232 -1.8230635 4288085770
-1.7254333 -1.797049 -1.8252186 4288085770
-1.8591309 -1.7642698 -1.8263747 4288085770
-1.9938049 -1.7294865 -1.824531 4288085770
-2.114502 -1.697782 -1.8256711 4288085770
-2.1012878 0.4764905 -1.7715682 4288085770
-1.9921265 0.48684216 -1.7654165 4288085770
-1.8548889 0.49803209 -1.7662264 4288085770
-1.711731 0.5101862 -1.7660283 4288085770
-1.5654907 0.52132225 -1.7648262 4288085770
-1.4113464 0.5314126 -1.7636138 4288085770
-1.2521362 0.54247332 -1.763394 4288085770
-1.0739441 0.55342197 -1.7641488 4288085770
-2.0858765 0.55635691 -1.7695013 4288085770
-0.89373779 0.56435919 -1.7629009 4288085770
-1.9636841 0.56463385 -1.7643319 4288085770
-0.71258545 0.57528973 -1.7596518 4288085770
-1.8114929 0.57373571 -1.7671226 4288085770
-0.49438477 0.58600473 -1.7633525 4288085770
-1.6593323 0.58183813 -1.7679135 4288085770
-0.26916504 0.59767818 -1.7650436 4288085770
-1.4871216 0.58982277 -1.7716771 4288085770
-0.031982422 0.60828304 -1.766719 4288085770
-1.3239746 0.59785986 -1.7704529 4288085770
0.19320679 0.61795473 -1.7624103 4288085770
-1.171814 0.60495949 -1.7642435 4288085770
0.4473877 0.62845707 -1.7610623 4288085770
-0.97964478 0.61282682 -1.7659801 4288085770
0.71859741 0.6388607 -1.7606913 4288085770
-0.76245117 0.6205492 -1.7726833 4288085770
1.0108032 0.64914036 -1.7592922 4288085770
-0.57830811 0.62746143 -1.7664303 4288085770
1.3279724 0.65927362 -1.7588593 4288085770
-0.34811401 0.63410664 -1.770116 4288085770
1.6781921 0.67021465 -1.7603809 4288085770
-0.13095093 0.63982677 -1.7668189 4288085770
2.036377 0.68010664 -1.7578927 4288085770
0.1262207 0.64731169 -1.768468 4288085770
2.4395752 0.68973732 -1.7583436 4288085770
0.36837769 0.65188456 -1.7641371 4288085770
2.8817749 0.70013809 -1.7597409 4288085770
0.64752197 0.65724182 -1.7647566 4288085770
3.3379517 0.70945501 -1.7581204 4288085770
0.93469238 0.6625514 -1.7633651 4288085770
3.8441162 0.71947956 -1.7564315 4288085770
1.2478333 0.66670847 -1.7619387 4288085770
4.4113464 0.72914648 -1.7576603 4288085770
1.5860291 0.67071819 -1.7614785 4288085770
5.0485229 0.73940516 -1.7607945 4288085770
1.9501343 0.67457628 -1.7609831 4288085770
5.7427368 0.74832678 -1.7618517 4288085770
2.3442993 0.67725849 -1.7614475 4288085770
6.5339661 0.75868225 -1.7667769 4288085770
2.7804565 0.67969465 -1.7628549 4288085770
7.4111328 0.76853132 -1.7685865 4288085770
3.2285767 0.68105984 -1.7612466 4288085770
8.3873291 0.77780008 -1.7712618 4288085770
3.7487793 0.68200302 -1.7635406 4288085770
9.5185242 0.78715992 -1.7747279 4288085770
4.2998962 0.6817646 -1.7647926 4288085770
10.813751 0.79555845 -1.7799717 4288085770
4.9100037 0.68018055 -1.7659658 4288085770
12.343964 0.80557871 -1.7878975 4288085770
5.6021423 0.67811489 -1.7690276 4288085770
6.3482666 0.67373276 -1.7700168 4288085770
7.1983643 0.6687417 -1.7738656 4288085770
8.1634827 0.66007614 -1.7785591 4288085770
9.2185669 0.64988136 -1.7811314 4288085770
10.534668 0.63815975 -1.7943507 4288085770
12.023743 0.62242222 -1.8083366 4288085770
2.2891541 -4.8740396 -0.23470271 4293729569
2.2966614 -4.8120761 -0.27567136 4293729569
2.3551025 -4.776412 -0.31657684 4293729569
11.127716 -7.7387109 -1.2962388 4293729569
11.236145 -7.6306353 -0.35105217 4293729569
11.256439 -7.6554537 -1.3490309 4293729569
11.826721 -7.7370911 -0.40825927 4293729569
11.545746 -7.636138 -1.4136192 4293729569
11.993408 -7.660059 -0.45600069 4293729569
11.818146 -7.604723 -1.4762269 4293729569
12.522858 -7.2828145 -1.6821352 4293729569
12.12973 -6.9855089 -1.6805893 4293729569
7.8044739 -5.2472072 -1.3390855 4293729569
7.8111877 -5.1244817 -0.5630368 4293729569
7.853241 -5.1464891 -1.3639845 4293729569
7.8749084 -5.0308523 -0.58691704 4293729569
11.306427 -6.24368 -1.6895026 4293729569
11.083862 -6.0243754 -1.6917435 4293729569
10.879211 -5.815176 -1.6929628 4293729569
10.76236 -5.6364923 -1.6990689 4293729569
10.609619 -5.4465981 -1.7012216 4293729569
10.476776 -5.2668209 -1.7013499 4293729569
10.382904 -5.102272 -1.7044283 4293729569
10.298981 -4.9417825 -1.7064942 4293729569
10.246979 -4.7924795 -1.7085191 4293729569
10.209961 -4.6452656 -1.7115239 4293729569
10.231842 -4.5163956 -1.7174519 4293729569
10.564301 -4.4723411 -1.7519726 4293729569
11.096527 -4.4734554 -1.8032283 4293729569
11.71759 -4.4910893 -1.861365 4288085770
11.958252 -4.4054995 -1.8810014 4288085770
11.981232 -4.2656393 -1.8789245 4288085770
11.982147 -4.1216502 -1.8718776 4288085770
11.99411 -3.9807258 -1.8638157 4288085770
12.079987 -3.8542352 -1.8616556 4288085770
12.135864 -3.7235689 -1.8545359 4288085770
12.204773 -3.5929792 -1.8473982 4288085770
12.390533 -3.4850729 -1.849104 4288085770
12.557312 -3.3700562 -1.8458346 4288085770
12.115936 -2.8967876 -0.79230201 4293729569
12.355652 -2.7952018 -0.77993429 4293729569
12.691986 -2.8098853 -1.7674695 4293729569
12.455444 -2.6687961 -0.75975454 4293729569
11.699097 0.94157553 -1.7804116 4288085770
10.438385 0.97996378 -1.7681121 4288085770
9.403717 1.0180292 -1.764506 4288085770
8.4760132 1.0524659 -1.7597555 4288085770
7.656311 1.085269 -1.7558588 4288085770
6.9646301 1.1183228 -1.757789 4288085770
6.2929077 1.1482573 -1.7536923 4288085770
5.670166 1.1749043 -1.74853 4288085770
5.1364441 1.2020311 -1.7472466 4288085770
11.687408 1.6726022 -1.7432538 4288085770
4.6296997 1.2279983 -1.7439274 4288085770
10.627594 1.6888146 -1.7416865 4288085770
4.184967 1.2536016 -1.7435237 4288085770
9.7558289 1.7099252 -1.746863 4288085770
3.7622375 1.2780766 -1.7410904 4288085770
8.8960266 1.7239642 -1.7440251 4288085770
3.3945007 1.3032298 -1.7425827 4288085770
8.1202393 1.7395091 -1.7410728 4288085770
3.0537415 1.3282237 -1.7440382 4288085770
7.4384155 1.7555041 -1.7399925 4288085770
2.717041 1.3501945 -1.7414888 4288085770
6.8256226 1.7730947 -1.7398187 4288085770
2.40625 1.3730111 -1.7399043 4288085770
6.2488403 1.7884717 -1.7375966 4288085770
2.1355286 1.3975959 -1.7412649 4288085770
5.723053 1.8055511 -1.7353047 4288085770
1.8837891 1.4220681 -1.7445997 4288085770
5.2212219 1.8184886 -1.7309815 4288085770
1.6500854 1.4464355 -1.7479101 4288085770
4.7844543 1.8370461 -1.7305681 4288085770
1.4012756 1.4678874 -1.7442418 4288085770
4.389679 1.8563581 -1.7310983 4288085770
1.1805725 1.4901786 -1.7445351 4288085770
4.0158691 1.8745446 -1.7296001 4288085770
0.98684692 1.5133119 -1.7467915 4288085770
3.6761475 1.8925338 -1.7300555 4288085770
0.77005005 1.5325761 -1.7420801 4288085770
3.3423767 1.9104857 -1.7275032 4288085770
0.58728027 1.5556426 -1.7423218 4288085770
3.055603 1.9311643 -1.7288862 4288085770
0.41854858 1.5776286 -1.7435445 4288085770
2.7868347 1.9527354 -1.7302445 4288085770
0.24981689 1.5996127 -1.7427675 4288085770
2.5240784 1.9722705 -1.7295955 4288085770
0.085021973 1.6195741 -1.7399856 4288085770
2.2823486 1.9926848 -1.7289177 4288085770
-0.05368042 1.6433825 -1.7421674 4288085770
2.0635681 2.0149627 -1.7302083 4288085770
-0.19744873 1.6652207 -1.7403561 4288085770
1.8327637 2.0323119 -1.7275165 4288085770
-0.34020996 1.6850524 -1.7385441 4288085770
1.6430664 2.0564198 -1.7297667 4288085770
-0.46594238 1.7087865 -1.7387079 4288085770
1.4733276 2.0814109 -1.7329906 4288085770
-0.58068848 1.7314534 -1.7388576 4288085770
1.2665405 2.098618 -1.7282656 4288085770
-0.69845581 1.7541394 -1.7380112 4288085770
1.1118164 2.1235223 -1.7304686 4288085770
-0.8041687 1.7777543 -1.7391478 4288085770
0.96612549 2.1503711 -1.732659 4288085770
-0.90591431 1.8003469 -1.7392796 4288085770
0.81134033 2.1722741 -1.7318629 4288085770
-1.0076599 1.8229375 -1.7374114 4288085770
0.66763306 2.1951127 -1.7320513 4288085770
-1.1054077 1.8455052 -1.7365381 4288085770
0.5559082 2.2237639 -1.7351953 4288085770
-1.1931458 1.8690152 -1.7366503 4288085770
0.40814209 2.2436242 -1.7313899 4288085770
-1.276886 1.8925004 -1.7357572 4288085770
0.29141235 2.2683043 -1.7315415 4288085770
-1.3395996 1.9208655 -1.7408353 4288085770
0.18469238 2.2959247 -1.7326788 4288085770
-1.4313354 1.9413972 -1.7359537 4288085770
0.062927246 2.3176341 -1.7288378 4288085770
-1.5081177 1.9648414 -1.7340513 4288085770
-0.022735596 2.3481326 -1.732946 4288085770
-1.5617981 1.9941535 -1.7391163 4288085770
-0.12249756 2.373713 -1.7310745 4288085770
-1.6214905 2.0204988 -1.7401901 4288085770
-0.24026489 2.3943963 -1.7252282 4288085770
-1.7012634 2.0419612 -1.7352921 4288085770
-0.29586792 2.4297204 -1.7312943 4288085770
-1.7630005 2.0673165 -1.7343689 4288085770
-0.42468262 2.4454675 -1.7204641 4288085770
-1.8147278 2.0956149 -1.7354318 4288085770
-0.45431519 2.487638 -1.7304937 4288085770
-1.8754272 2.119967 -1.733507 4288085770
-0.5300293 2.5160775 -1.7295884 4288085770
-1.9221191 2.1482358 -1.7335628 4288085770
-0.63781738 2.5347018 -1.7197293 4288085770
-1.9708557 2.1755157 -1.7336217 4288085770
-0.71054077 2.5621219 -1.7168206 4288085770
-1.9995117 2.2086797 -1.7376517 4288085770
-0.76721191 2.593451 -1.7168888 4288085770
-2.0562744 2.2320065 -1.7337223 4288085770
-0.81991577 2.6267533 -1.7169517 4288085770
-2.0939636 2.2612233 -1.7327656 4288085770
-0.87759399 2.6570878 -1.7150215 4288085770
-2.1276855 2.2924161 -1.7338029 4288085770
-0.91226196 2.6942859 -1.7180589 4288085770
-2.1723938 2.3186717 -1.7298568 4288085770
-0.97195435 2.7236304 -1.713132 4288085770
-1.0096436 2.7598472 -1.7141737 4288085770
-1.0532837 2.793097 -1.7122239 4288085770
-1.0819702 2.8322597 -1.7122525 4288085770
-1.1066284 2.8723998 -1.7132756 4288085770
-1.1292419 2.9125304 -1.7142955 4288085770
-1.1549072 2.951674 -1.7133201 4288085770
-1.1624756 2.9987159 -1.7163182 4288085770
-1.1971436 3.0339131 -1.7113558 4288085770
-1.2207947 3.0730462 -1.708378 4288085770
-1.2354431 3.1161265 -1.7063864 4288085770
-1.2460632 3.1601834 -1.7053896 4288085770
-1.2486572 3.2071929 -1.7043809 4288085770
-1.2522583 3.25421 -1.7033736 4288085770
-1.2488403 3.3041844 -1.7023562 4288085770
-1.2484131 3.3521781 -1.700343 4288085770
-1.2460022 3.4021583 -1.6983272 4288085770
-1.2235413 3.4610229 -1.7002817 4288085770
-1.210083 3.5159392 -1.6982495 4288085770
-1.1886597 3.5738082 -1.6972057 4288085770
-1.1601562 3.6356359 -1.6981515 4288085770
-1.127655 3.7004409 -1.6980911 4288085770
-1.0861206 3.7691941 -1.6990176 4288085770
-1.022522 3.8498197 -1.7059108 4288085770
-0.97897339 3.919559 -1.7048346 4288085770
-0.94546509 3.9853559 -1.7007726 4288085770
-0.88690186 4.0630097 -1.7016739 4288085770
-0.81622314 4.1485925 -1.7035567 4288085770
-2.1650391 3.4944892 -1.7075418 4288085770
-0.75363159 4.2302213 -1.7024516 4288085770
-2.1175232 3.5582061 -1.7074615 4288085770
-0.67398071 4.3207488 -1.7043215 4288085770
-2.0770569 3.6179643 -1.7053915 4288085770
-0.59133911 4.4132609 -1.7051862 4288085770
-2.0215454 3.6866336 -1.7062997 4288085770
-0.51968384 4.4998364 -1.7020675 4288085770
-1.9629822 3.7572865 -1.7062026 4288085770
-0.41394043 4.6062131 -1.7048978 4288085770
-1.892395 3.8348699 -1.7090875 4288085770
-0.33026123 4.699719 -1.7017616 4288085770
-1.8308411 3.9065042 -1.7079865 4288085770
-0.25463867 4.7872701 -1.6946374 4288085770
-1.7582703 3.9840741 -1.7078689 4288085770
-0.12680054 4.907516 -1.6974348 4288085770
-1.6867065 4.0606494 -1.7057532 4288085770
6.1035156e-05 5.0267692 -1.698234 4288085770
-1.611084 4.1402011 -1.704631 4288085770
0.12185669 5.1430507 -1.6950406 4288085770
-1.5094299 4.2356029 -1.70847 4288085770
0.26373291 5.2722154 -1.6948169 4288085770
-1.4107361 4.3300214 -1.709313 4288085770
0.41665649 5.4073167 -1.6945769 4288085770
-1.3030396 4.4273849 -1.7111434 4288085770
0.56555176 5.5394378 -1.6913432 4288085770
-1.2053833 4.5188079 -1.708989 4288085770
0.74554443 5.691381 -1.6920625 4288085770
-1.0976868 4.6161723 -1.7068199 4288085770
0.92556763 5.8433204 -1.6887821 4288085770
-0.97692871 4.7224593 -1.7066303 4288085770
1.1407471 6.0180554 -1.6904482 4288085770
-0.86526489 4.8197999 -1.7014555 4288085770
1.3448181 6.1848559 -1.6861318 4288085770
-0.72744751 4.9349885 -1.7012414 4288085770
1.5921326 6.3784041 -1.6867501 4288085770
-0.581604 5.0551286 -1.7000149 4288085770
1.8463745 6.5779099 -1.6853582 4288085770
-0.42074585 5.1831832 -1.7007667 4288085770
2.1358643 6.7982106 -1.6869131 4288085770
-0.25384521 5.3142009 -1.699509 4288085770
2.4242249 7.0175176 -1.6844703 4288085770
-0.072875977 5.4541383 -1.7002307 4288085770
2.7557983 7.2645726 -1.6839625 4288085770
0.10803223 5.592072 -1.6969532 4288085770
3.1014404 7.5205445 -1.6804336 4288085770
0.31005859 5.7428842 -1.6966439 4288085770
3.4721985 7.791369 -1.678867 4288085770
0.52810669 5.9036021 -1.6953105 4288085770
3.8850098 8.0889473 -1.6762377 4288085770
0.75924683 6.0712447 -1.6939584 4288085770
1.0083923 6.2487807 -1.6935793 4288085770
1.2866821 6.445148 -1.6951565 4288085770
1.5769958 6.6464438 -1.6937162 4288085770
1.8823547 6.8556485 -1.6912543 4288085770
2.2127991 7.0797086 -1.6907548 4288085770
2.5582581 7.3106818 -1.6862339 4288085770
2.9569397 7.5743442 -1.6866332 4288085770
3.3696594 7.8439221 -1.6840123 4288085770
3.8215027 8.1362724 -1.683333 4288085770
11.868988 -1.0516706 -1.8154708 4288085770
10.854004 -1.0707283 -1.8108076 4288085770
10.007996 -1.0917735 -1.813923 4288085770
9.2239685 -1.1101847 -1.817957 4288085770
8.4530334 -1.1206717 -1.815971 4288085770
7.7731018 -1.1316915 -1.817866 4288085770
7.1121521 -1.1378241 -1.8177344 4288085770
6.5362549 -1.1454525 -1.8204917 4288085770
5.9763184 -1.1481767 -1.821227 4288085770
12.696899 -1.9375777 -1.8356375 4288085770
5.3804932 -1.1416917 -1.8120061 4288085770
11.546265 -1.8928385 -1.8351341 4288085770
4.8556213 -1.1366224 -1.806693 4288085770
10.551636 -1.8550115 -1.8394278 4288085770
4.3787537 -1.1328349 -1.8043171 4288085770
9.5429993 -1.8061075 -1.8327366 4288085770
3.9458923 -1.1303029 -1.8048841 4288085770
8.6583252 -1.7649283 -1.8308848 4288085770
3.5370178 -1.1269126 -1.8054191 4288085770
7.877655 -1.7283578 -1.8318983 4288085770
3.1511841 -1.1206555 -1.8039228 4288085770
7.1600037 -1.6911559 -1.8298286 4288085770
2.7843323 -1.114512 -1.8034021 4288085770
6.4843445 -1.6552014 -1.8287045 4288085770
2.4215088 -1.1033912 -1.7998747 4288085770
5.8406677 -1.6154356 -1.823537 4288085770
2.0946655 -1.0954823 -1.7993006 4288085770
5.2689514 -1.5830903 -1.8232776 4288085770
1.770874 -1.0845909 -1.7957219 4288085770
4.7122803 -1.5458341 -1.8169969 4288085770
1.48703 -1.0769324 -1.7970916 4288085770
4.212616 -1.5129118 -1.8146423 4288085770
1.1992188 -1.0662518 -1.7944659 4288085770
3.7239075 -1.4770536 -1.8092726 4288085770
0.94238281 -1.0567508 -1.7957996 4288085770
3.2901917 -1.4465179 -1.8078328 4288085770
0.6965332 -1.0473156 -1.797119 4288085770
2.8964844 -1.4192157 -1.807341 4288085770
0.45474243 -1.0369043 -1.7964329 4288085770
2.5087585 -1.3889489 -1.8048404 4288085770
0.2479248 -1.0286961 -1.8017014 4288085770
2.1300964 -1.3557363 -1.7983273 4288085770
0.031097412 -1.0174313 -1.801982 4288085770
1.8183289 -1.3329134 -1.8017296 4288085770
-0.16671753 -1.0072765 -1.8042382 4288085770
1.5006104 -1.3050566 -1.8001379 4288085770
-0.36352539 -0.99612856 -1.8044931 4288085770
1.2148743 -1.2813873 -1.8005058 4288085770
-0.55331421 -0.98402119 -1.8047382 4288085770
0.93414307 -1.2547479 -1.7988662 4288085770
-0.75112915 -0.9678688 -1.8009926 4288085770
0.71142578 -1.2374454 -1.8071526 4288085770
-0.92391968 -0.95586157 -1.8012155 4288085770
0.44967651 -1.2099175 -1.8034877 4288085770
-1.1017151 -0.94082499 -1.7994438 4288085770
0.20391846 -1.1844831 -1.8018028 4288085770
-1.2565002 -0.92792368 -1.8006428 4288085770
-0.019805908 -1.1611781 -1.8010892 4288085770
-1.4203186 -0.91296864 -1.7978531 4288085770
-0.23751831 -1.1369061 -1.7993673 4288085770
-1.5751038 -0.89806795 -1.7960519 4288085770
-0.44229126 -1.1137128 -1.7986289 4288085770
-1.7128906 -0.8852663 -1.7972285 4288085770
-0.64202881 -1.0895472 -1.7968837 4288085770
-1.8456726 -0.87249279 -1.7983986 4288085770
-0.81478882 -1.06954 -1.8001045 4288085770
-1.9874878 -0.85666847 -1.7955796 4288085770
-0.99752808 -1.0464745 -1.7973369 4288085770
-2.1083069 -0.84396505 -1.7977341 4288085770
-1.1672668 -1.0234857 -1.7965528 4288085770
-1.3230286 -1.0035777 -1.7977511 4288085770
-1.4738159 -0.98269987 -1.7979425 4288085770
-1.6145325 -0.96287966 -1.7991208 4288085770
-1.7662964 -0.93899727 -1.7953128 4288085770
-1.9030457 -0.91820097 -1.7944859 4288085770
-2.026825 -0.89948082 -1.7956427 4288085770
-2.1485596 -0.87977219 -1.7967964 4288085770
-2.0886841 1.0551949 -1.7571584 4288085770
-1.9725037 1.0675073 -1.753003 4288085770
-1.8352966 1.080698 -1.7538193 4288085770
-1.6910706 1.0948482 -1.7556263 4288085770
-1.5438843 1.1089797 -1.7554299 4288085770
-1.4006653 1.1211348 -1.7512385 4288085770
-1.2284546 1.1351204 -1.7540091 4288085770
-2.1468811 1.0544996 -1.7622281 4288085770
-1.0652771 1.1481581 -1.7527915 4288085770
-2.015686 1.0637255 -1.7630535 4288085770
-0.89004517 1.1621246 -1.7515584 4288085770
-1.8825378 1.0729389 -1.761876 4288085770
-0.69284058 1.1769652 -1.7542962 4288085770
-1.7533569 1.0801759 -1.7577044 4288085770
-0.49661255 1.1898098 -1.7530352 4288085770
-1.5941467 1.0902381 -1.7614928 4288085770
-0.28640747 1.2045717 -1.7527558 4288085770
-1.4529724 1.097404 -1.7573055 4288085770
-0.066192627 1.2182765 -1.7524635 4288085770
-1.297821 1.1044888 -1.7551004 4288085770
0.17300415 1.2318692 -1.7531465 4288085770
-1.1286621 1.1124921 -1.7548763 4288085770
0.42224121 1.2464032 -1.7528161 4288085770
-0.9324646 1.1223383 -1.7596165 4288085770
0.69442749 1.2618032 -1.7554554 4288085770
-0.7572937 1.1283045 -1.7573849 4288085770
0.94561768 1.2723231 -1.7491232 4288085770
-0.56912231 1.1341963 -1.7551361 4288085770
1.230835 1.2856469 -1.7467459 4288085770
-0.3399353 1.1438489 -1.7618331 4288085770
1.5480652 1.2997823 -1.7473267 4288085770
-0.13876343 1.148664 -1.7565676 4288085770
1.8732605 1.3128715 -1.7438971 4288085770
0.082366943 1.1533613 -1.7552766 4288085770
2.2404785 1.3277135 -1.7444118 4288085770
0.33755493 1.1608615 -1.7589399 4288085770
2.6326904 1.3424096 -1.743894 4288085770
0.57669067 1.164454 -1.7546252 4288085770
3.0539246 1.356935 -1.7443386 4288085770
0.83285522 1.1679459 -1.7512881 4288085770
3.4831238 1.3694148 -1.7397724 4288085770
1.1130066 1.1712985 -1.7509195 4288085770
3.9663391 1.3835769 -1.7401358 4288085770
1.4301453 1.1754341 -1.7535027 4288085770
4.4885559 1.3975101 -1.739448 4288085770
1.7402954 1.1776114 -1.7520951 4288085770
5.0827942 1.4140229 -1.7406656 4288085770
2.0734558 1.1786532 -1.7506582 4288085770
5.73703 1.4311843 -1.7438039 4288085770
2.4436035 1.1794791 -1.7511722 4288085770
6.4542847 1.4479766 -1.7468599 4288085770
2.8457031 1.1811161 -1.7526447 4288085770
7.2425232 1.4653525 -1.7488228 4288085770
3.2518616 1.1787314 -1.7511126 4288085770
8.0807495 1.4804358 -1.748721 4288085770
3.7029419 1.1760802 -1.7505218 4288085770
9.07901 1.4995809 -1.7534086 4288085770
4.1830444 1.1732616 -1.7508928 4288085770
10.132263 1.5144029 -1.7520248 4288085770
4.7211914 1.1691031 -1.7521883 4288085770
11.316498 1.5304589 -1.751469 4288085770
5.2862854 1.1627851 -1.7534488 4288085770
12.77478 1.5529094 -1.7585534 4288085770
5.9183655 1.1540747 -1.7536224 4288085770
6.6504517 1.1467814 -1.7606643 4288085770
7.3815308 1.1324902 -1.7577096 4288085770
8.2075806 1.1166434 -1.7586304 4288085770
9.1566162 1.0990772 -1.7633909 4288085770
10.181641 1.0760651 -1.7660528 4288085770
11.308624 1.0494547 -1.7675823 4288085770
12.626587 1.016726 -1.7728628 4288085770
-0.32583618 -4.6676273 0.0059876442 4293729569
-0.32470703 -4.677629 -0.036010385 4293729569
-0.34448242 -4.6695085 -0.078031898 4293729569
-0.3263855 -4.6866097 -0.12100911 4293729569
-0.3371582 -4.6815414 -0.16301954 4293729569
-0.33401489 -4.6835556 -0.20601308 4293729569
-0.32983398 -4.6845741 -0.24800503 4293729569
-0.31866455 -4.6886349 -0.29198825 4293729569
-0.33340454 -4.6715441 -0.33400118 4293729569
-0.34014893 -4.6584992 -0.37500417 4293729569
-0.31655884 -4.6507363 0.013030767 4293729569
-0.32196045 -4.6616011 -0.41797817 4293729569
-0.29833984 -4.648839 -0.027941585 4293729569
-0.32369995 -4.6475859 -0.45997417 4293729569
-0.29708862 -4.6318412 -0.069933176 4293729569
-0.31051636 -4.6426587 -0.50195277 4293729569
-0.28585815 -4.6209025 -0.1109128 4293729569
-0.3102417 -4.6256557 -0.54294574 4293729569
-0.29351807 -4.5948529 -0.15191412 4293729569
-0.30792236 -4.6086636 -0.58393562 4293729569
-0.27026367 -4.587985 -0.19287884 4293729569
-0.29669189 -4.5967255 -0.624915 4293729569
-0.25802612 -4.5720506 -0.23285568 4293729569
-0.28942871 -4.578763 -0.66589797 4293729569
-0.23175049 -4.563201 -0.27281582 4293729569
-0.27316284 -4.5648537 -0.70687068 4293729569
-0.17663574 -4.5725193 -0.31474197 4293729569
-0.25088501 -4.5539789 -0.74783528 4293729569
-0.20175171 -4.5592623 -0.79176867 4293729569
-0.17648315 -4.5464067 -0.83172905 4293729569
4.6499023 -7.5235696 -1.6679989 4293729569
4.3336182 -7.2527142 -1.6773511 4293729569
4.0153503 -6.9808483 -1.6827062 4293729569
3.7458496 -6.7422695 -1.6900045 4293729569
3.4793701 -6.5067081 -1.6952993 4293729569
3.2198486 -6.2771878 -1.6975867 4293729569
3.0081177 -6.0789475 -1.703818 4293729569
2.7924194 -5.8786845 -1.7070538 4293729569
2.5737305 -5.6774054 -1.7072939 4293729569
2.3639832 -5.4841785 -1.7045242 4293729569
2.1691895 -5.3010402 -1.702737 4293729569
6.5791321 -7.7169404 -1.6774248 4293729569
2.0391541 -5.15728 -1.7088724 4293729569
6.243927 -7.4259758 -1.6787978 4293729569
1.8782349 -4.9953394 -1.7090451 4293729569
5.9117737 -7.1390295 -1.6781682 4293729569
1.6933289 -4.8232603 -1.7012478 4293729569
5.6074219 -6.8732476 -1.6765064 4293729569
1.57724 -4.6895828 -1.7033678 4293729569
2.3280945 -4.9770942 -1.2854308 4293729569
1.4721375 -4.5639696 -1.7064749 4293729569
2.3216858 -4.9010558 -1.3084179 4293729569
1.3699951 -4.4403734 -1.7075783 4293729569
2.3920898 -4.8644648 -1.3403114 4293729569
1.2877502 -4.3288951 -1.7116588 4293729569
4.736908 -6.0231514 -1.6824502 4293729569
1.2095337 -4.2204394 -1.713734 4293729569
4.5730591 -5.8471928 -1.6846231 4293729569
1.1611938 -4.1281586 -1.721774 4293729569
4.4501038 -5.691474 -1.6907464 4293729569
1.125824 -4.0429535 -1.7297977 4293729569
4.3291626 -5.5387673 -1.6938676 4293729569
1.2400513 -4.0336199 -1.7666398 4288085770
4.2061157 -5.3870487 -1.6959921 4293729569
1.3802185 -4.0354371 -1.8074492 4288085770
4.1190796 -5.253541 -1.7000726 4293729569
1.5214233 -4.0342607 -1.8492573 4288085770
4.0040588 -5.1078701 -1.6991881 4293729569
1.5639038 -3.9835091 -1.8691851 4282675967
3.9199219 -4.9773798 -1.7012657 4293729569
1.495636 -3.8791134 -1.8642484 4282675967
3.842804 -4.8539314 -1.7013358 4293729569
1.3904114 -3.7585046 -1.8513576 4288085770
3.7766113 -4.7345471 -1.7023925 4293729569
1.3231201 -3.6561162 -1.8434199 4288085770
3.7363586 -4.628315 -1.7064172 4293729569
1.2887573 -3.5699198 -1.8424429 4288085770
3.7041016 -4.5261292 -1.7094325 4293729569
1.2424011 -3.4796531 -1.8374802 4288085770
3.6798096 -4.4269896 -1.7114373 4293729569
1.2050476 -3.3924398 -1.8325065 4288085770
3.6704712 -4.3359385 -1.7154247 4293729569
1.1756592 -3.3092723 -1.828523 4288085770
3.644165 -4.2367887 -1.7154325 4293729569
1.1752014 -3.2402735 -1.8305043 4288085770
3.7206726 -4.1802373 -1.729313 4293729569
1.1627502 -3.165206 -1.8275002 4288085770
3.8600159 -4.1480541 -1.751115 4293729569
1.1782227 -3.1023011 -1.8294617 4288085770
4.1200867 -4.1615753 -1.7907659 4288085770
1.1897583 -3.0383725 -1.830428 4288085770
4.3802185 -4.1720963 -1.8294157 4288085770
1.2211914 -2.9805617 -1.8333691 4288085770
4.5365601 -4.1400127 -1.8491944 4288085770
1.2247314 -2.9145873 -1.8303457 4288085770
4.6120911 -4.0754585 -1.8570739 4288085770
1.2581787 -2.8577878 -1.8322846 4288085770
4.6237183 -3.9865322 -1.8520333 4288085770
1.2776794 -2.7949069 -1.8302401 4288085770
4.6213684 -3.8925242 -1.8450104 4288085770
1.2891846 -2.7299805 -1.8252066 4288085770
4.638031 -3.8046277 -1.8389632 4288085770
1.3146667 -2.670135 -1.8221549 4288085770
4.7045898 -3.7340229 -1.838853 4288085770
1.3810425 -2.623528 -1.827052 4288085770
4.7770996 -3.6664524 -1.8387359 4288085770
1.3965759 -2.560626 -1.8200132 4288085770
4.8486328 -3.5968769 -1.8366195 4288085770
1.4559631 -2.5109792 -1.8209189 4288085770
4.9361572 -3.5313947 -1.8354822 4288085770
1.5033875 -2.4562621 -1.8178393 4288085770
5.0326233 -3.4679654 -1.8343335 4288085770
1.5737915 -2.4106793 -1.8197309 4288085770
5.1390991 -3.4065948 -1.8331722 4288085770
1.6661682 -2.369225 -1.8235937 4288085770
5.2466125 -3.3452294 -1.8300089 4288085770
1.7345886 -2.3196321 -1.8214868 4288085770
5.3990479 -3.2951274 -1.8327881 4288085770
1.8119812 -2.2730904 -1.8203694 4288085770
5.5184937 -3.2348335 -1.8286098 4288085770
1.8973694 -2.2275958 -1.8202406 4288085770
5.7068787 -3.1919413 -1.832342 4288085770
1.9777832 -2.1790729 -1.8171178 4288085770
5.8852844 -3.1419923 -1.8330864 4288085770
2.0931396 -2.1397538 -1.8199502 4288085770
6.0756836 -3.0951138 -1.8328151 4288085770
2.1845398 -2.0932946 -1.8158129 4288085770
6.3110962 -3.0574963 -1.8374852 4288085770
2.2729492 -2.0448189 -1.8106793 4288085770
6.5154724 -3.0097003 -1.8351942 4288085770
2.3963318 -2.0045471 -1.8115009 4288085770
6.7498474 -2.9670792 -1.8358647 4288085770
2.5296936 -1.9643331 -1.8113087 4288085770
7.0351868 -2.9317558 -1.8394679 4288085770
2.6730652 -1.925179 -1.8121029 4288085770
7.3075562 -2.8903577 -1.8390869 4288085770
2.8424072 -1.8911762 -1.8158637 4288085770
7.5729675 -2.8459187 -1.8357145 4288085770
3.0007324 -1.8521099 -1.8156382 4288085770
7.9012756 -2.8098485 -1.8372594 4288085770
3.1860657 -1.8172016 -1.8183769 4288085770
8.2177124 -2.7677088 -1.8338183 4288085770
3.3704224 -1.778286 -1.819116 4288085770
8.6009827 -2.7349606 -1.8342897 4288085770
3.5588074 -1.740396 -1.8178498 4288085770
8.9463806 -2.6909914 -1.8288089 4288085770
3.775116 -1.7056684 -1.8195466 4288085770
9.3537598 -2.6563845 -1.8262464 4288085770
3.9844666 -1.6669002 -1.8192517 4288085770
9.8460388 -2.6292744 -1.8295714 4288085770
4.2148132 -1.6292567 -1.8179287 4288085770
10.306335 -2.5929794 -1.8239375 4288085770
4.4531555 -1.5906587 -1.8165947 4288085770
10.87265 -2.5683031 -1.8261622 4288085770
4.7275085 -1.5552716 -1.8182126 4288085770
11.483948 -2.5448914 -1.8273267 4288085770
5.0058594 -1.5189085 -1.817825 4288085770
12.129211 -2.5176792 -1.8264443 4288085770
5.3352051 -1.4848423 -1.8213683 4288085770
5.6985474 -1.4539766 -1.826867 4288085770
6.0658569 -1.4181347 -1.8293589 4288085770
6.4382019 -1.380322 -1.8288435 4288085770
6.8965454 -1.348012 -1.8352123 4288085770
7.3099365 -1.3064404 -1.8326401 4288085770
7.7953186 -1.2672911 -1.832971 4288085770
8.2536926 -1.2219844 -1.8263367 4288085770
8.7940674 -1.1791577 -1.8245918 4288085770
9.4204407 -1.137835 -1.8257312 4288085770
10.035889 -1.0884471 -1.8188823 4288085770
10.738281 -1.0415711 -1.8159167 4288085770
11.546661 -0.99631405 -1.8158079 4288085770
12.46109 -0.94967747 -1.8185545 4288085770
12.130219 1.5988002 -1.7585167 4288085770
11.257629 1.6549096 -1.7527171 4288085770
10.490112 1.7124038 -1.7497712 4288085770
9.8605652 1.7710891 -1.7536334 4288085770
9.2970276 1.8283887 -1.7584041 4288085770
8.6473694 1.87219 -1.7482976 4288085770
8.1157532 1.9213004 -1.7460269 4288085770
7.6601868 1.9699655 -1.7466537 4288085770
7.1775513 2.0127873 -1.7413191 4288085770
6.8239441 2.0638576 -1.7458028 4288085770
6.3942871 2.1023688 -1.7393948 4288085770
6.0266724 2.1435189 -1.7359 4288085770
5.7190247 2.1903167 -1.7373205 4288085770
5.3903809 2.2302365 -1.7327713 4288085770
12.608917 3.309938 -1.7245039 4288085770
5.1217651 2.2768064 -1.7351371 4288085770
11.983246 3.3485999 -1.7253693 4288085770
4.8471375 2.3194108 -1.7325124 4288085770
11.380554 3.3821263 -1.7232038 4288085770
4.5755005 2.3579984 -1.7288836 4288085770
10.840881 3.4182849 -1.7209498 4288085770
4.355896 2.4022803 -1.7281815 4288085770
10.376251 3.4610047 -1.7225899 4288085770
4.1432495 2.4455218 -1.72847 4288085770
9.9596252 3.5064406 -1.7241627 4288085770
3.9536438 2.4906278 -1.7297257 4288085770
9.493927 3.539165 -1.7188059 4288085770
3.7449646 2.5298457 -1.7250091 4288085770
9.1302795 3.584291 -1.7193047 4288085770
3.5713806 2.5738587 -1.7252427 4288085770
8.7887268 3.6322894 -1.7207719 4288085770
3.3877258 2.6149297 -1.7224909 4288085770
8.4400635 3.673327 -1.7172505 4288085770
3.2501221 2.6627307 -1.7246739 4288085770
8.1554565 3.7229905 -1.7176379 4288085770
3.0974731 2.7056203 -1.7228783 4288085770
7.8789062 3.7726054 -1.7170144 4288085770
2.9558716 2.7494464 -1.7200674 4288085770
7.636322 3.8240237 -1.7173427 4288085770
2.8482971 2.8000712 -1.7232076 4288085770
7.3827515 3.8725047 -1.7156872 4288085770
2.6956482 2.8379598 -1.7164129 4288085770
7.163147 3.9257874 -1.7149831 4288085770
2.5860291 2.8855977 -1.7155567 4288085770
6.9786072 3.9858642 -1.7162293 4288085770
2.4453735 2.9234157 -1.7087454 4288085770
6.8011169 4.0438991 -1.7154659 4288085770
2.3397827 2.9680285 -1.7058841 4288085770
6.6265259 4.0999169 -1.7136987 4288085770
2.2882385 3.0263267 -1.7119449 4288085770
6.5201111 4.1755395 -1.7188329 4288085770
2.1976318 3.0748525 -1.7090617 4288085770
6.3405151 4.2275853 -1.7140731 4288085770
2.1260681 3.1272674 -1.7091516 4288085770
6.2290955 4.2992339 -1.7152148 4288085770
2.0534668 3.1786885 -1.7082425 4288085770
6.1426697 4.3747382 -1.718321 4288085770
1.9768982 3.2281308 -1.7043399 4288085770
5.993103 4.4316077 -1.7115186 4288085770
1.918335 3.2814698 -1.7034112 4288085770
5.9136658 4.5080686 -1.7126149 4288085770
1.8768005 3.3407083 -1.7044576 4288085770
5.8192139 4.579618 -1.7097329 4288085770
1.8432922 3.4019008 -1.7054924 4288085770
5.7547913 4.6589904 -1.7088076 4288085770
1.8248291 3.4680047 -1.7085057 4288085770
5.6763306 4.7324443 -1.7049035 4288085770
1.8082886 3.5340981 -1.7105163 4288085770
5.625946 4.8147359 -1.702958 4288085770
1.7808228 3.5962539 -1.7095424 4288085770
5.5845947 4.9009728 -1.7019991 4288085770
1.741272 3.6544805 -1.7055863 4288085770
5.5662842 4.9940782 -1.7020069 4288085770
1.7408447 3.7264781 -1.7075731 4288085770
5.5569458 5.0901275 -1.7010018 4288085770
1.7243042 3.7925696 -1.7055835 4288085770
5.5486145 5.1871705 -1.6989955 4288085770
1.7328796 3.8665156 -1.7075576 4288085770
5.5593567 5.2911057 -1.6979607 4288085770
1.7535095 3.947391 -1.710513 4288085770
5.5881348 5.4029298 -1.6978995 4288085770
1.7590332 4.0223546 -1.7094911 4288085770
5.6299744 5.5196815 -1.6978194 4288085770
1.7866821 4.1061893 -1.7104367 4288085770
5.6898193 5.6463294 -1.698712 4288085770
1.8022766 4.1850915 -1.7093998 4288085770
5.7186279 5.7601542 -1.6936501 4288085770
1.8258972 4.268949 -1.708351 4288085770
5.7824707 5.8887763 -1.6915373 4288085770
1.8665466 4.3597074 -1.7082771 4288085770
5.8764648 6.0312228 -1.6923794 4288085770
1.8941345 4.4445405 -1.7052225 4288085770
6.0085144 6.1924472 -1.6941649 4288085770
1.9488831 4.5432162 -1.7061273 4288085770
6.1045227 6.3388782 -1.6910039 4288085770
1.9905396 4.6359668 -1.7030514 4288085770
6.2707214 6.5179029 -1.6937386 4288085770
2.0632935 4.7425361 -1.70393 4288085770
6.4208679 6.6910205 -1.6934968 4288085770
2.1260376 4.8461652 -1.7018229 4288085770
6.5980835 6.8809772 -1.6932145 4288085770
2.1887512 4.9507909 -1.6987158 4288085770
6.7683105 7.066978 -1.689942 4288085770
2.2825928 5.0702386 -1.6985623 4288085770
6.9696045 7.2727952 -1.6886231 4288085770
2.3674011 5.1867366 -1.6954221 4288085770
7.2271423 7.5072818 -1.6892203 4288085770
2.4993286 5.3269601 -1.6992117 4288085770
7.4645691 7.7348876 -1.6868473 4288085770
2.6122742 5.4592967 -1.6980294 4288085770
7.7281494 7.979341 -1.6824342 4288085770
2.7311707 5.5955939 -1.6948379 4288085770
2.8771667 5.7467351 -1.6956064 4288085770
3.0232239 5.9008746 -1.6923736 4288085770
3.1712341 6.0570016 -1.6881381 4288085770
3.3654785 6.2388625 -1.6898335 4288085770
3.586731 6.4385619 -1.6914879 4288085770
3.7990417 6.6343179 -1.6901554 4288085770
4.0283508 6.8419671 -1.687797 4288085770
4.2948608 7.0724053 -1.688383 4288085770
4.5552979 7.3018756 -1.6839772 4288085770
4.875 7.5680003 -1.6834823 4288085770
5.2228088 7.8539605 -1.6839446 4288085770
5.6218262 8.1736221 -1.6853296 4288085770
12.74826 -0.4081893 -1.7868069 4288085770
11.392242 -0.42224503 -1.7826477 4288085770
10.227295 -0.43441868 -1.7822293 4288085770
9.2203369 -0.44451761 -1.7835962 4288085770
8.3204041 -0.45324612 -1.785818 4288085770
7.5034485 -0.45846224 -1.7869262 4288085770
6.7275696 -0.45991707 -1.7859772 4288085770
6.0317078 -0.46184063 -1.7849203 4288085770
5.3787842 -0.46001863 -1.7818044 4288085770
11.42868 -0.85550308 -1.7957503 4288085770
4.7799072 -0.45751381 -1.7786149 4288085770
10.193939 -0.82526779 -1.7924126 4288085770
4.2600403 -0.45546961 -1.7783185 4288085770
9.1871948 -0.80136681 -1.7987686 4288085770
3.7612 -0.45154905 -1.7769929 4288085770
8.1994934 -0.77358007 -1.7940973 4288085770
3.3333435 -0.45004511 -1.7815722 4288085770
7.337738 -0.74853182 -1.7942566 4288085770
2.8884583 -0.44344234 -1.7781729 4288085770
6.5959778 -0.72718668 -1.7972549 4288085770
2.4986267 -0.43816137 -1.7786998 4288085770
5.8572083 -0.70186186 -1.7912477 4288085770
2.1167908 -0.43192863 -1.776215 4288085770
5.2094421 -0.67906857 -1.7891179 4288085770
1.7899475 -0.42701578 -1.7796565 4288085770
4.6087036 -0.65655041 -1.7869247 4288085770
1.4650879 -0.4191165 -1.7780944 4288085770
4.072937 -0.63541412 -1.7846435 4288085770
1.1772461 -0.41343355 -1.7804829 4288085770
3.5751648 -0.61450148 -1.7833117 4288085770
0.90441895 -0.40683889 -1.7828506 4288085770
3.1364136 -0.59593248 -1.7849003 4288085770
0.64657593 -0.39933109 -1.7841979 4288085770
2.7006531 -0.57538366 -1.7814845 4288085770
0.39273071 -0.39184904 -1.7845398 4288085770
2.3058472 -0.55707359 -1.7800134 4288085770
0.16790771 -0.38353443 -1.7878424 4288085770
1.9490967 -0.53998566 -1.7804917 4288085770
-0.078918457 -0.37309408 -1.7831737 4288085770
1.6152954 -0.52203369 -1.7799386 4288085770
-0.29174805 -0.36485147 -1.7834598 4288085770
1.3085327 -0.50524092 -1.7813493 4288085770
-0.49853516 -0.35464287 -1.7827367 4288085770
1.0117798 -0.48850489 -1.7807461 4288085770
-0.67437744 -0.34661674 -1.7869731 4288085770
0.75195312 -0.4729867 -1.7840937 4288085770
-0.87521362 -0.33544493 -1.7822417 4288085770
0.50515747 -0.45854378 -1.787424 4288085770
-1.0480042 -0.326437 -1.7834731 4288085770
0.22937012 -0.4389329 -1.7807916 4288085770
-1.2208557 -0.31542969 -1.7817043 4288085770
0.013580322 -0.42467213 -1.7840797 4288085770
-1.3696594 -0.30656099 -1.7849036 4288085770
-0.21917725 -0.40731335 -1.7803897 4288085770
-1.5284729 -0.29563618 -1.7831155 4288085770
-0.42596436 -0.39110565 -1.7806653 4288085770
-1.6633301 -0.28684998 -1.786296 4288085770
-0.60977173 -0.37703228 -1.7829105 4288085770
-1.8151245 -0.27496529 -1.7824982 4288085770
-0.78955078 -0.36198282 -1.7851497 4288085770
-1.9389343 -0.26524448 -1.7846633 4288085770
-0.97232056 -0.34591722 -1.7823929 4288085770
-2.0757446 -0.25344801 -1.7818455 4288085770
-1.1431274 -0.33092022 -1.7816194 4288085770
-2.1715698 -0.24588966 -1.7909735 4288085770
-1.3039246 -0.31598377 -1.7818333 4288085770
-1.462677 -0.30005741 -1.780044 4288085770
-1.6105042 -0.2851963 -1.7802397 4288085770
-1.7482605 -0.26939392 -1.7804221 4288085770
-1.875061 -0.25565529 -1.7815901 4288085770
-1.9998779 -0.2419281 -1.7827553 4288085770
-2.1236572 -0.22620726 -1.7829186 4288085770
-2.1954651 1.6675763 -1.7438556 4288085770
-2.0882263 1.6849418 -1.7407171 4288085770
-1.9639893 1.7042079 -1.7405571 4288085770
-1.849762 1.7205329 -1.7364105 4288085770
-1.7105103 1.7417121 -1.7382315 4288085770
-1.5652771 1.7638555 -1.7400447 4288085770
-1.440033 1.7791152 -1.7348844 4288085770
-1.2757568 1.8031478 -1.7386733 4288085770
-2.1607666 1.6253304 -1.7458347 4288085770
-1.1425476 1.8173604 -1.7315038 4288085770
-2.0395508 1.6386161 -1.7456802 4288085770
-0.9743042 1.8393703 -1.7332882 4288085770
-1.9143372 1.651876 -1.7455207 4288085770
-0.79806519 1.8613305 -1.7340626 4288085770
-1.808197 1.6592479 -1.7373866 4288085770
-0.61480713 1.8832526 -1.7348286 4288085770
-1.6679688 1.6734195 -1.7392083 4288085770
-0.43255615 1.9031777 -1.7325963 4288085770
-1.5267639 1.6865869 -1.7390286 4288085770
-0.23028564 1.9249873 -1.7333382 4288085770
-1.3916016 1.6967864 -1.7368482 4288085770
-0.026031494 1.9457822 -1.7330688 4288085770
-1.2243347 1.7128015 -1.7406365 4288085770
0.20724487 1.9714112 -1.735773 4288085770
-1.071167 1.722898 -1.7394439 4288085770
0.47052002 2.0008645 -1.7434384 4288085770
-0.91897583 1.7319999 -1.7362536 4288085770
0.7038269 2.0214915 -1.7411438 4288085770
-0.72375488 1.7488513 -1.7420071 4288085770
0.94604492 2.0410647 -1.7378386 4288085770
-0.56558228 1.755919 -1.7368096 4288085770
1.2012634 2.061563 -1.7355174 4288085770
-0.37841797 1.7668147 -1.7375754 4288085770
1.4935608 2.0858445 -1.7361482 4288085770
-0.18621826 1.7766833 -1.7363347 4288085770
1.7627869 2.1032605 -1.7298106 4288085770
0.020965576 1.7874646 -1.7370754 4288085770
2.0830383 2.1283784 -1.7304069 4288085770
0.24017334 1.7981744 -1.7398013 4288085770
2.425354 2.1533675 -1.730976 4288085770
0.44937134 1.8059421 -1.7365407 4288085770
2.8036499 2.1821456 -1.7344996 4288085770
0.70758057 1.8194251 -1.7432173 4288085770
3.1729126 2.2049747 -1.7320365 4288085770
0.92468262 1.822144 -1.7369488 4288085770
3.6022339 2.2334561 -1.7354964 4288085770
1.1758423 1.8296676 -1.7356364 4288085770
4.0234985 2.2579799 -1.7339684 4288085770
1.4380188 1.8351245 -1.7353107 4288085770
4.4717712 2.2813468 -1.7314073 4288085770
1.7182007 1.8414779 -1.7349626 4288085770
4.9830627 2.3113456 -1.733766 4288085770
2.0163574 1.8477244 -1.7365924 4288085770
5.5133362 2.3382316 -1.7331022 4288085770
2.3164978 1.8509593 -1.7352208 4288085770
6.0896606 2.3668485 -1.7343811 4288085770
2.6466675 1.8560205 -1.7358111 4288085770
6.7189941 2.3971562 -1.7355939 4288085770
2.9907837 1.8579965 -1.7353855 4288085770
7.4413452 2.432919 -1.7406894 4288085770
3.3499451 1.8588872 -1.7349414 4288085770
8.1696777 2.462646 -1.7407798 4288085770
3.7200623 1.8577113 -1.7334844 4288085770
8.9749756 2.4939208 -1.7407748 4288085770
4.1401978 1.8582435 -1.7349652 4288085770
9.8002625 2.5190768 -1.7347468 4288085770
4.5713196 1.8557115 -1.7354335 4288085770
10.743591 2.5515428 -1.7345706 4288085770
5.0354309 1.8519855 -1.7368609 4288085770
11.784943 2.5834346 -1.7322735 4288085770
5.5425415 1.8480086 -1.7382356 4288085770
6.0986633 1.8437448 -1.7425498 4288085770
6.6757507 1.8353562 -1.7458392 4288085770
7.2608032 1.8209224 -1.7441207 4288085770
7.921875 1.8090434 -1.7483076 4288085770
8.5999146 1.7890639 -1.747476 4288085770
9.4319763 1.7731843 -1.7564522 4288085770
10.188934 1.7437387 -1.7525262 4288085770
11.021851 1.7088513 -1.7495075 4288085770
12.019806 1.6769967 -1.7552842 4288085770
2.3728638 -4.7293887 -0.090117693 4293729569
2.3207703 -4.7710819 -0.12419379 4293729569
2.2876587 -4.8228865 -0.15924954 4293729569
2.2964172 -4.8939371 -0.19625962 4293729569
4.2669678 -7.4643435 -1.6266137 4293729569
4.0667114 -7.3671646 -1.6708354 4293729569
3.6772156 -7.1368814 -1.6832503 4293729569
-0.090423584 -4.5868816 -1.1591376 4293729569
-0.13018799 -4.5786457 -1.1991869 4293729569
-0.19290161 -4.5522752 -1.2342585 4293729569
4.3903198 -7.6431532 -1.3675443 4293729569
-0.22268677 -4.5460978 -1.2752966 4293729569
-0.10723877 -4.5768585 -0.89316976 4293729569
-0.23651123 -4.5490127 -1.3183171 4293729569
-0.072235107 -4.6090589 -0.94213974 4293729569
-0.24337769 -4.5549688 -1.3623306 4293729569
-0.097015381 -4.5979099 -0.98317015 4293729569
-0.25820923 -4.5528784 -1.4043514 4293729569
-0.11178589 -4.5908194 -1.0261902 4293729569
-0.26107788 -4.5578575 -1.4493603 4293729569
-0.14450073 -4.5706253 -1.0652286 4293729569
-0.26690674 -4.5588198 -1.4933711 4293729569
-0.14233398 -4.5716343 -1.1092304 4293729569
-0.27667236 -4.5537586 -1.5363854 4293729569
-0.13217163 -4.5756893 -1.1542236 4293729569
-0.27252197 -4.5567789 -1.5813855 4293729569
-0.10708618 -4.5888324 -1.2012013 4293729569
-0.27035522 -4.556788 -1.6263872 4293729569
-0.094909668 -4.5908995 -1.2461914 4293729569
-0.27017212 -4.552784 -1.67039 4293729569
-0.086700439 -4.5879431 -1.2891854 4293729569
-0.33569336 -4.5014 -1.6984597 4293729569
2.0623779 -6.0464716 -1.7209953 4293729569
-0.47790527 -4.3935671 -1.7056063 4293729569
1.7687988 -5.8297534 -1.7202972 4293729569
-0.62512207 -4.2817078 -1.7097582 4293729569
1.466217 -5.6059837 -1.712607 4293729569
-0.75439453 -4.180953 -1.715891 4293729569
1.2064514 -5.4094648 -1.7088729 4293729569
-0.88864136 -4.0741701 -1.7190286 4293729569
0.97964478 -5.2331386 -1.7111043 4293729569
-1.0159302 -3.971427 -1.7211586 4293729569
0.77770996 -5.0739574 -1.71131 4293729569
-1.0534973 -3.9282064 -1.7451967 4293729569
0.55780029 -4.9016738 -1.706534 4293729569
-1.0273743 -3.9283562 -1.7871698 4288085770
0.37878418 -4.7556276 -1.7077154 4293729569
-1.0001526 -3.9265118 -1.8281413 4288085770
0.19979858 -4.6085811 -1.7058963 4293729569
-0.9899292 -3.9115701 -1.8641304 4288085770
0.022735596 -4.4625483 -1.7010752 4293729569
-1.090271 -3.8199854 -1.8662308 4288085770
-0.12435913 -4.3356891 -1.7012233 4293729569
-1.213501 -3.7122681 -1.8603545 4288085770
-0.2366333 -4.2310343 -1.7073354 4293729569
-1.3347473 -3.6045623 -1.8524755 4288085770
-0.34292603 -4.130414 -1.7124413 4293729569
-1.4550476 -3.4988642 -1.841596 4288085770
-0.44519043 -4.030818 -1.7175428 4293729569
-1.5404358 -3.4143689 -1.8406807 4288085770
-0.50167847 -3.9604886 -1.7305971 4293729569
-1.6228027 -3.3318899 -1.8397614 4288085770
-0.44448853 -3.9608207 -1.7725354 4288085770
-1.6952515 -3.2554703 -1.8388323 4288085770
-0.38031006 -3.9631929 -1.8144659 4288085770
-1.7696533 -3.1760387 -1.8369046 4288085770
-0.34405518 -3.9464028 -1.849425 4288085770
-1.8381042 -3.1016421 -1.8349713 4288085770
-0.41146851 -3.865011 -1.8554899 4288085770
-1.8955688 -3.0333097 -1.8350264 4288085770
-0.51272583 -3.7614214 -1.8505884 4288085770
-1.954071 -2.9639721 -1.8330823 4288085770
-0.60705566 -3.6618741 -1.8466805 4288085770
-1.9995728 -2.9017096 -1.8351249 4288085770
-0.71331787 -3.556258 -1.8367845 4288085770
-2.0430908 -2.8414583 -1.8361653 4288085770
-0.78469849 -3.4718437 -1.8358527 4288085770
-2.0875854 -2.7782025 -1.8352059 4288085770
-0.85308838 -3.3884473 -1.8329176 4288085770
-2.1251221 -2.719986 -1.8362399 4288085770
-0.91052246 -3.3111148 -1.8319713 4288085770
-2.1696472 -2.6577311 -1.832281 4288085770
-0.97491455 -3.2307422 -1.8290321 4288085770
-2.2012024 -2.6025505 -1.8333083 4288085770
-1.024353 -3.158457 -1.8280772 4288085770
-1.0678406 -3.0892072 -1.8271166 4288085770
-1.1152954 -3.0179338 -1.8241595 4288085770
-1.1547852 -2.9517071 -1.8221945 4288085770
-1.1583862 -2.9036889 -1.8291923 4288085770
-1.1779175 -2.8475788 -1.8312067 4288085770
-1.2084656 -2.7864046 -1.8282326 4288085770
-1.2269897 -2.7303009 -1.8282453 4288085770
-1.2425537 -2.6762147 -1.8282558 4288085770
-1.2491455 -2.6261802 -1.8292562 4288085770
-1.2497253 -2.5791817 -1.8312508 4288085770
-1.2583008 -2.5271354 -1.8302532 4288085770
-1.2868042 -2.4659786 -1.8212696 4288085770
-1.2744446 -2.4240556 -1.8252505 4288085770
-1.263092 -2.3821263 -1.8262318 4288085770
-1.2497253 -2.3402109 -1.8282119 4288085770
-1.2523193 -2.2912021 -1.8232082 4288085770
-1.2359314 -2.2513022 -1.8241845 4288085770
-1.2196045 -2.2114034 -1.8241614 4288085770
-1.196228 -2.1725459 -1.8251303 4288085770
-1.1828613 -2.1296296 -1.8221098 4288085770
-1.1555176 -2.0937943 -1.8220748 4288085770
-1.1202087 -2.0590072 -1.8240312 4288085770
-1.0948486 -2.0201607 -1.8209981 4288085770
-2.1944885 -1.6247139 -1.8311611 4288085770
-1.0625 -1.9843559 -1.8199574 4288085770
-2.1861267 -1.5867691 -1.8241466 4288085770
-1.0252075 -1.9505801 -1.8199118 4288085770
-2.1548157 -1.5579576 -1.824108 4288085770
-0.97686768 -1.9198685 -1.8218552 4288085770
-2.1205444 -1.5291643 -1.824066 4288085770
-0.94052124 -1.8840866 -1.8188099 4288085770
-2.0792542 -1.5024114 -1.8260173 4288085770
-0.90621948 -1.8472939 -1.8147675 4288085770
-2.0469666 -1.4716067 -1.8239774 4288085770
-0.85290527 -1.8166118 -1.8147045 4288085770
-2.0096741 -1.442831 -1.8219324 4288085770
-0.79159546 -1.7899752 -1.8166336 4288085770
-1.9713745 -1.415061 -1.8208865 4288085770
-0.74029541 -1.7572827 -1.813573 4288085770
-1.933075 -1.3852906 -1.8178402 4288085770
-0.67102051 -1.7306938 -1.8154932 4288085770
-1.8908081 -1.3575444 -1.8157898 4288085770
-0.61569214 -1.6990237 -1.8124281 4288085770
-1.8365173 -1.3338671 -1.8167268 4288085770
-0.55938721 -1.6673594 -1.8083624 4288085770
-1.788269 -1.3061557 -1.8146702 4288085770
-0.47613525 -1.6428514 -1.8102676 4288085770
-1.7579346 -1.2743411 -1.8066329 4288085770
-0.41781616 -1.6111999 -1.8051995 4288085770
-1.7046814 -1.2486596 -1.8045708 4288085770
-0.32855225 -1.586729 -1.8060986 4288085770
-1.6384277 -1.2260523 -1.8054949 4288085770
-0.23129272 -1.5643039 -1.8079888 4288085770
-1.5841675 -1.1993766 -1.8024319 4288085770
-0.11605835 -1.5459838 -1.8138601 4288085770
-1.5048828 -1.1798453 -1.8053418 4288085770
-0.040771484 -1.5154309 -1.8077735 4288085770
-1.4456177 -1.1541986 -1.8012739 4288085770
0.077514648 -1.4971294 -1.8116416 4288085770
-1.3653564 -1.1326747 -1.803183 4288085770
0.16278076 -1.4676356 -1.8055445 4288085770
-1.2920837 -1.1091089 -1.8010994 4288085770
0.2840271 -1.4473515 -1.8074092 4288085770
-1.2048645 -1.0886264 -1.8020014 4288085770
0.3913269 -1.4209862 -1.8032881 4288085770
-1.1235962 -1.0651083 -1.7999092 4288085770
0.52056885 -1.3997483 -1.8041438 4288085770
-1.0393372 -1.0426068 -1.7988137 4288085770
0.6618042 -1.3805814 -1.8049871 4288085770
-0.95010376 -1.0211363 -1.7967139 4288085770
0.80603027 -1.3604317 -1.8058263 4288085770
-0.84283447 -1.0017691 -1.7985939 4288085770
0.93933105 -1.3362193 -1.8016776 4288085770
-0.74359131 -0.98135757 -1.7974824 4288085770
1.0845337 -1.3150768 -1.7985166 4288085770
-0.58840942 -0.96926975 -1.809311 4288085770
1.2578125 -1.2960973 -1.7993246 4288085770
-0.4831543 -0.94689322 -1.8061935 4288085770
1.4230347 -1.2750711 -1.7971417 4288085770
-0.38989258 -0.9214468 -1.7980882 4288085770
1.6082458 -1.2561636 -1.7959369 4288085770
-0.25662231 -0.90223169 -1.79994 4288085770
1.8045349 -1.237319 -1.7947201 4288085770
-0.12338257 -0.88301945 -1.7997922 4288085770
2.0247192 -1.2216144 -1.7964777 4288085770
0.015838623 -0.86384106 -1.7986377 4288085770
2.2459717 -1.2039165 -1.7962338 4288085770
0.15411377 -0.84365606 -1.7964841 4288085770
2.4862061 -1.1873302 -1.7959696 4288085770
0.30136108 -0.82252502 -1.7943209 4288085770
2.7614136 -1.1739478 -1.7996675 4288085770
0.46258545 -0.80347681 -1.7931432 4288085770
3.035614 -1.1585608 -1.7993666 4288085770
0.63583374 -0.78449583 -1.7929515 4288085770
3.3268433 -1.1422734 -1.7990469 4288085770
0.81207275 -0.76353645 -1.7907571 4288085770
3.6550598 -1.1292014 -1.8006872 4288085770
1.0013123 -0.74565125 -1.7895483 4288085770
3.9842529 -1.1141367 -1.7993263 4288085770
1.2035522 -0.72584105 -1.7883254 4288085770
4.3624878 -1.1023583 -1.801912 4288085770
1.4237976 -0.70713758 -1.7880832 4288085770
4.7636719 -1.089715 -1.8034731 4288085770
1.6460266 -0.68844604 -1.785839 4288085770
5.191925 -1.0772305 -1.804005 4288085770
1.9042358 -0.67096472 -1.7885555 4288085770
5.6700745 -1.0670385 -1.8064829 4288085770
2.1594849 -0.65146589 -1.7862755 4288085770
6.2102661 -1.0602088 -1.8118933 4288085770
2.4487 -0.63416719 -1.7879585 4288085770
6.7344971 -1.047287 -1.8093206 4288085770
2.7399597 -0.61487865 -1.7866391 4288085770
7.3016968 -1.0336185 -1.8047017 4288085770
3.0812073 -0.59788465 -1.7882661 4288085770
7.9708862 -1.0255451 -1.8059717 4288085770
3.4074097 -0.57780313 -1.7849089 4288085770
8.7180786 -1.0179296 -1.8081573 4288085770
3.7756958 -0.55796719 -1.783506 4288085770
9.4892578 -1.0074558 -1.8043166 4288085770
4.1849365 -0.53937101 -1.7840587 4288085770
10.380432 -1.0006852 -1.8033456 4288085770
4.6321716 -0.52099705 -1.7845703 4288085770
11.400604 -0.99567032 -1.8032347 4288085770
5.1204224 -0.50186491 -1.7860376 4288085770
12.56778 -0.99351692 -1.8049639 4288085770
5.660675 -0.48303604 -1.787448 4288085770
6.2169495 -0.46130276 -1.7858411 4288085770
