# .PCD v0.7 - Point Cloud Data file format
VERSION 0.7
FIELDS x y z rgb
SIZE 4 4 4 4
TYPE F F F U
COUNT 1 1 1 1
WIDTH 1128
HEIGHT 1
VIEWPOINT 0 0 0 1 0 0 0
POINTS 1128
DATA ascii
12.513501 1.9622254 -1.8002392 4288085770
6.9692898 1.4130819 -1.8082185 4288085770
11.87353 1.9850526 -1.8026745 4288085770
6.6243973 1.4384346 -1.8021986 4288085770
11.299543 2.0100021 -1.8066766 4288085770
6.3264561 1.4658823 -1.8015814 4288085770
10.719628 2.0289295 -1.8036368 4288085770
6.0545025 1.4943793 -1.8021868 4288085770
10.1957 2.0489619 -1.802079 4288085770
5.7985554 1.5219047 -1.8019322 4288085770
9.7067728 2.0690577 -1.7998233 4288085770
5.5486298 1.5484376 -1.7997311 4288085770
9.2568493 2.0892246 -1.7979047 4288085770
5.3396568 1.578054 -1.8028791 4288085770
8.8679008 2.1135075 -1.7985064 4288085770
5.124712 1.6056547 -1.8029784 4288085770
8.5039511 2.1378367 -1.7993239 4288085770
4.924778 1.6332812 -1.8022077 4288085770
8.1689892 2.1642208 -1.8013887 4288085770
4.7248535 1.6579065 -1.8004415 4288085770
7.8150978 2.1835585 -1.796301 4288085770
4.5469093 1.685575 -1.8008606 4288085770
7.5091743 2.2069898 -1.7946212 4288085770
4.3909416 1.7152874 -1.8034663 4288085770
7.2192497 2.2304504 -1.7930795 4288085770
4.2260151 1.741977 -1.8019994 4288085770
6.9453335 2.252939 -1.7906778 4288085770
4.0720863 1.768687 -1.8006275 4288085770
6.6854286 2.2754514 -1.787397 4288085770
3.9361324 1.7974348 -1.8024077 4288085770
6.4544945 2.302021 -1.7863601 4288085770
3.8191509 1.8282208 -1.8063486 4288085770
6.2425518 2.3286271 -1.7864875 4288085770
3.6982002 1.857995 -1.8072569 4288085770
6.067564 2.3613081 -1.7909243 4288085770
3.5752602 1.8857636 -1.807151 4288085770
5.8875999 2.3929749 -1.7923198 4288085770
3.4503422 1.9125252 -1.8050296 4288085770
5.6936874 2.4176092 -1.7896059 4288085770
3.3463898 1.9423308 -1.8060846 4288085770
5.5367222 2.4503186 -1.7911983 4288085770
3.2354641 1.970118 -1.8040825 4288085770
5.3867588 2.4820404 -1.792853 4288085770
3.1604595 2.0049851 -1.8103797 4288085770
5.234827 2.511754 -1.7914937 4288085770
3.0465775 2.0297606 -1.8043569 4288085770
5.1068478 2.5455172 -1.7943307 4288085770
2.9526424 2.0585797 -1.8034958 4288085770
4.9619312 2.5752397 -1.7910324 4288085770
2.8996201 2.0974879 -1.810977 4288085770
4.8599377 2.6140525 -1.7950907 4288085770
2.800724 2.1242924 -1.8060807 4288085770
4.7350082 2.6458135 -1.7929618 4288085770
2.7078323 2.1501074 -1.8012376 4288085770
4.6100941 2.6755724 -1.7898363 4288085770
2.6528416 2.186007 -1.8057065 4288085770
4.5171165 2.7133989 -1.7919737 4288085770
2.5559769 2.20981 -1.7978324 4288085770
4.431139 2.7522378 -1.7941704 4288085770
2.4990253 2.2437 -1.7982872 4288085770
4.3491688 2.7920828 -1.7954 4288085770
2.4490509 2.2796059 -1.8007994 4288085770
4.2741966 2.8319409 -1.79669 4288085770
2.3960991 2.3145032 -1.8012872 4288085770
4.1972332 2.8717937 -1.7969625 4288085770
2.3381653 2.3473876 -1.7997351 4288085770
4.1202927 2.9096432 -1.7952387 4288085770
2.2882175 2.3822887 -1.7992489 4288085770
4.0822582 2.960577 -1.8018304 4288085770
2.2372837 2.4161859 -1.7977557 4288085770
4.0302658 3.0064793 -1.8043094 4288085770
2.2072906 2.4571307 -1.8014326 4288085770
3.9762936 3.0513744 -1.8047726 4288085770
2.174324 2.4970648 -1.8020852 4288085770
3.9343014 3.1002932 -1.8063332 4288085770
2.1293964 2.5309715 -1.7996439 4288085770
3.8983021 3.1492248 -1.8089454 4288085770
2.1034203 2.5729203 -1.8013537 4288085770
3.8673096 3.2011642 -1.8105963 4288085770
2.0634995 2.6078353 -1.797954 4288085770
3.8512688 3.2581372 -1.8163683 4288085770
2.0315533 2.6467679 -1.7966169 4288085770
3.8292675 3.3130929 -1.8180921 4288085770
2.0305271 2.6977689 -1.802528 4288085770
3.8172455 3.3710704 -1.8218973 4288085770
1.9906235 2.7316804 -1.7971301 4288085770
3.8072262 3.4310498 -1.8247167 4288085770
1.9856262 2.7806692 -1.8000101 4288085770
3.7802525 3.4839916 -1.8234004 4288085770
1.9726486 2.8266399 -1.8008257 4288085770
3.7842255 3.5489969 -1.8263328 4288085770
1.9527073 2.8685935 -1.7985876 4288085770
3.7861996 3.6129985 -1.8292494 4288085770
1.9567013 2.9215989 -1.8015388 4288085770
3.7891769 3.6790004 -1.8311714 4288085770
1.9567165 2.9715939 -1.8024607 4288085770
3.7921658 3.7440007 -1.8320951 4288085770
1.9477654 3.0185671 -1.8003094 4288085770
3.8141232 3.817039 -1.83517 4288085770
1.9766922 3.0836267 -1.8084574 4288085770
3.8261013 3.8870559 -1.8361636 4288085770
1.9757328 3.133615 -1.8063705 4288085770
3.8520603 3.9621003 -1.8382698 4288085770
1.999691 3.1956604 -1.81148 4288085770
3.8770275 4.0381413 -1.8393662 4288085770
2.0326328 3.2627244 -1.8176595 4288085770
3.9199562 4.12222 -1.8436049 4288085770
2.0466423 3.3197434 -1.8176911 4288085770
3.9579067 4.2062845 -1.8448006 4288085770
2.0636578 3.3797662 -1.8167436 4288085770
3.997858 4.2903533 -1.8460138 4288085770
2.1075859 3.4538503 -1.8230069 4288085770
4.058773 4.3854637 -1.8493904 4288085770
2.15452 3.5289383 -1.8282945 4288085770
4.134655 4.4886041 -1.8548838 4288085770
2.199461 3.6040206 -1.8325647 4288085770
4.2085533 4.5917392 -1.8583602 4288085770
2.2464123 3.6791053 -1.8358524 4288085770
4.2834625 4.6948729 -1.8608451 4288085770
2.2764225 3.746151 -1.8340064 4288085770
4.3853016 4.8150635 -1.8675361 4288085770
2.33535 3.8282592 -1.8383867 4288085770
4.4592361 4.9191918 -1.8670112 4288085770
2.3932953 3.9113624 -1.8407567 4288085770
4.5680771 5.0443935 -1.8727547 4288085770
2.4602165 3.9984856 -1.8451979 4288085770
4.6958923 5.1806302 -1.8786446 4288085770
2.5241642 4.0845981 -1.8466151 4288085770
4.8287086 5.3198762 -1.8845732 4288085770
2.5901165 4.1727128 -1.8470464 4288085770
4.9455814 5.4510846 -1.8853766 4288085770
2.6700306 4.2688584 -1.8505857 4288085770
5.0983677 5.6043677 -1.8914555 4288085770
2.7589302 4.3710203 -1.8541933 4288085770
5.2671375 5.7676797 -1.8976568 4288085770
2.8428612 4.4701686 -1.8547628 4288085770
5.4418964 5.9360027 -1.9039018 4288085770
2.9467373 4.580359 -1.8594872 4288085770
5.6366272 6.117363 -1.9102991 4288085770
3.0725574 4.705596 -1.8673775 4288085770
5.8573017 6.3157759 -1.9198936 4288085770
3.1944103 4.8288202 -1.8722366 4288085770
6.111927 6.5382528 -1.9307433 4288085770
3.3212624 4.9560518 -1.8761326 4288085770
6.3755474 6.7667446 -1.9406615 4288085770
3.4601002 5.0913062 -1.8801196 4288085770
6.6501694 7.0032535 -1.9486623 4288085770
3.5959606 5.2245507 -1.8820841 4288085770
6.9427662 7.2527952 -1.9567977 4288085770
3.7766972 5.3858919 -1.8923923 4288085770
7.2782841 7.5314212 -1.9682581 4288085770
3.9335403 5.5321741 -1.8935174 4288085770
7.6547337 7.8361254 -1.9820312 4288085770
4.1103325 5.6924977 -1.8977929 4288085770
8.0731163 8.1719093 -1.9971179 4288085770
4.3140736 5.8698745 -1.9042747 4288085770
4.5597172 6.0763364 -1.9160726 4288085770
4.7924232 6.2727661 -1.9227746 4288085770
5.0809956 6.5083103 -1.9368978 4288085770
5.3775692 6.7478676 -1.950084 4288085770
5.6901455 6.9984493 -1.960391 4288085770
5.9957676 7.2450123 -1.9666442 4288085770
6.3263645 7.5076189 -1.9720881 4288085770
6.7248058 7.8163638 -1.9860457 4288085770
7.164196 8.153183 -2.000313 4288085770
14.828887 -0.63915443 -1.8078742 4288085770
13.876977 -0.68388271 -1.8156998 4288085770
12.96411 -0.7185483 -1.8168473 4288085770
12.147204 -0.75203228 -1.8228244 4288085770
11.338357 -0.77551508 -1.8198551 4288085770
10.605496 -0.79685783 -1.8185405 4288085770
9.9296331 -0.81509638 -1.8167148 4288085770
9.3277416 -0.83119535 -1.8185267 4288085770
8.7778416 -0.84619904 -1.8207871 4288085770
15.023952 -1.3578162 -1.8357078 4288085770
8.2419586 -0.85618162 -1.8201611 4288085770
14.001927 -1.350666 -1.8458436 4288085770
7.7360821 -0.86410999 -1.8187915 4288085770
12.943001 -1.3296056 -1.841637 4288085770
7.2462215 -0.86801434 -1.8145543 4288085770
12.032051 -1.3142695 -1.8417217 4288085770
6.8203335 -0.87379599 -1.8148744 4288085770
11.191113 -1.2968078 -1.8404094 4288085770
6.4144421 -0.87754202 -1.8143643 4288085770
10.434165 -1.2801909 -1.840826 4288085770
6.0754948 -0.88415337 -1.821439 4288085770
9.7322416 -1.2624779 -1.8387175 4288085770
5.7076073 -0.8838315 -1.8202518 4288085770
9.1162815 -1.2466011 -1.8413568 4288085770
5.3717098 -0.88444901 -1.8203433 4288085770
8.5273476 -1.2306795 -1.8412298 4288085770
5.0727882 -0.88599348 -1.8237565 4288085770
7.9624367 -1.2107196 -1.8373047 4288085770
4.804842 -0.88847733 -1.8304398 4288085770
7.4505119 -1.1926599 -1.8358415 4288085770
4.5059509 -0.88403082 -1.8288435 4288085770
6.9566135 -1.1725721 -1.8315313 4288085770
4.2430382 -0.88251209 -1.8305639 4288085770
6.5186787 -1.1563749 -1.831712 4288085770
4.0031013 -0.88094759 -1.8354833 4288085770
6.1197453 -1.1401062 -1.8322308 4288085770
3.7392311 -0.87344122 -1.8311857 4288085770
5.765789 -1.12675 -1.8361436 4288085770
3.5103226 -0.86886263 -1.8321956 4288085770
5.4208469 -1.1113815 -1.8381314 4288085770
3.2654552 -0.86032248 -1.8270609 4288085770
5.0919113 -1.0949841 -1.8392562 4288085770
3.0765114 -0.85666418 -1.8324187 4288085770
4.7989578 -1.0815182 -1.8426974 4288085770
2.9035587 -0.85397482 -1.8389167 4288085770
4.52001 -1.0680265 -1.8462598 4288085770
2.6966724 -0.84436178 -1.8361093 4288085770
4.2111301 -1.0466061 -1.8395501 4288085770
2.5177593 -0.83769226 -1.8375491 4288085770
3.9851513 -1.0360107 -1.8475761 4288085770
2.3328743 -0.8290391 -1.8349339 4288085770
3.6793194 -1.0115938 -1.8348879 4288085770
2.1539898 -0.81937504 -1.832369 4288085770
3.4374046 -0.99404192 -1.8337647 4288085770
1.9831009 -0.80869579 -1.8298718 4288085770
3.2234669 -0.97943401 -1.8358885 4288085770
1.8291893 -0.79998207 -1.830525 4288085770
3.0315056 -0.96678162 -1.8412061 4288085770
1.701231 -0.79420996 -1.8374078 4288085770
2.8265839 -0.95116043 -1.8414063 4288085770
1.538372 -0.78152323 -1.8309767 4288085770
2.6266766 -0.93353319 -1.8396468 4288085770
1.3805141 -0.76882648 -1.8245893 4288085770
2.4337749 -0.91589546 -1.836948 4288085770
1.2525997 -0.75906467 -1.8254659 4288085770
2.2339058 -0.89627552 -1.8301854 4288085770
1.1226921 -0.7483077 -1.8253237 4288085770
2.0570068 -0.87860823 -1.8276252 4288085770
1.0017872 -0.73853397 -1.8252611 4288085770
1.8891029 -0.86092329 -1.8251429 4288085770
0.87490273 -0.72577572 -1.822142 4288085770
1.7731133 -0.85112572 -1.8351232 4288085770
0.75800705 -0.71499825 -1.8201123 4288085770
1.60923 -0.83243847 -1.8296738 4288085770
1.4633389 -0.81571531 -1.8263836 4288085770
1.3154526 -0.79799747 -1.8220747 4288085770
1.1755676 -0.7792654 -1.8178332 4288085770
1.0805817 -0.76943016 -1.8269954 4288085770
0.93473434 -0.74871635 -1.8176991 4288085770
0.83777046 -0.73588991 -1.8238394 4288085770
0.74760246 1.0831456 -1.8093116 4288085770
0.86367607 1.1003518 -1.8102931 4288085770
0.9568367 1.1115038 -1.8030849 4288085770
1.0779209 1.1277189 -1.8041116 4288085770
1.1890526 1.140908 -1.8000562 4288085770
1.3390751 1.1601856 -1.8073298 4288085770
1.4631958 1.1744003 -1.8043858 4288085770
1.6172581 1.1916792 -1.8076973 4288085770
0.7924614 1.0801809 -1.8107114 4288085770
1.7593594 1.2069294 -1.8069078 4288085770
0.89659309 1.089359 -1.8076016 4288085770
1.9004784 1.2211752 -1.8041114 4288085770
1.023674 1.1015871 -1.8096867 4288085770
2.0605793 1.236459 -1.8034782 4288085770
1.1358032 1.1107795 -1.8066463 4288085770
2.2346573 1.2537711 -1.8049634 4288085770
1.2748737 1.1230307 -1.8098354 4288085770
2.4147377 1.2700942 -1.8065022 4288085770
1.4099751 1.13327 -1.809993 4288085770
2.5818825 1.2833831 -1.800933 4288085770
1.5470886 1.1425114 -1.8091697 4288085770
2.7849522 1.3017497 -1.8036683 4288085770
1.695179 1.1527762 -1.8104399 4288085770
3.0269585 1.3231976 -1.812737 4288085770
1.8373108 1.1600237 -1.8076632 4288085770
3.2231045 1.336539 -1.8074195 4288085770
2.0093727 1.1723368 -1.8121386 4288085770
3.4751396 1.3570004 -1.8135769 4288085770
2.1694946 1.180619 -1.8105165 4288085770
3.7341919 1.3764713 -1.8177967 4288085770
2.342598 1.1899276 -1.8110054 4288085770
3.9483662 1.3878412 -1.8096389 4288085770
2.5426483 1.2012937 -1.8167255 4288085770
4.2034817 1.4022958 -1.8078318 4288085770
2.6918526 1.2035432 -1.8070177 4288085770
4.4785938 1.4187865 -1.8061955 4288085770
2.8899574 1.2108982 -1.8077267 4288085770
4.773695 1.4353158 -1.8057325 4288085770
3.1120205 1.221303 -1.8126394 4288085770
5.0907955 1.451885 -1.8054606 4288085770
3.3141651 1.2256584 -1.8093882 4288085770
5.4338856 1.4695036 -1.8064127 4288085770
3.5582409 1.234102 -1.8134948 4288085770
5.7860031 1.4861341 -1.8044448 4288085770
3.7973423 1.2405317 -1.8145614 4288085770
6.1561222 1.5007973 -1.8026359 4288085770
4.0274982 1.2439373 -1.8105549 4288085770
6.5931816 1.5215907 -1.8063991 4288085770
4.2856331 1.2473969 -1.808791 4288085770
7.0552464 1.5414302 -1.8103811 4288085770
4.5617504 1.2508929 -1.8091835 4288085770
7.5393353 1.5613053 -1.8115538 4288085770
4.8418941 1.2533915 -1.8066126 4288085770
8.049448 1.5782247 -1.8109572 4288085770
5.1570034 1.2569604 -1.8083434 4288085770
8.6085434 1.5972354 -1.8117827 4288085770
5.4971104 1.2595747 -1.810293 4288085770
9.1946697 1.613291 -1.8098471 4288085770
5.8182697 1.2571459 -1.8060852 4288085770
9.8817291 1.6355395 -1.8137788 4288085770
6.211359 1.2598608 -1.8104948 4288085770
10.615817 1.6558709 -1.8161215 4288085770
6.6084919 1.2575762 -1.8109468 4288085770
11.406931 1.6743016 -1.8159621 4288085770
7.0306225 1.255338 -1.8116159 4288085770
12.26505 1.6938534 -1.8153832 4288085770
7.4777546 1.2521455 -1.8125038 4288085770
13.184201 1.7095122 -1.8123398 4288085770
7.9738808 1.2470438 -1.8148197 4288085770
14.235324 1.7284162 -1.8124373 4288085770
8.5189934 1.2420335 -1.8185611 4288085770
15.325544 1.7403753 -1.8028847 4288085770
9.0431833 1.2299743 -1.8151313 4288085770
9.6473312 1.2190673 -1.816394 4288085770
10.326464 1.206301 -1.8203108 4288085770
11.038628 1.18959 -1.8215206 4288085770
11.823807 1.1690116 -1.8223702 4288085770
12.666979 1.1455405 -1.8247279 4288085770
13.582192 1.1161952 -1.8237197 4288085770
14.550443 1.0809424 -1.8201814 4288085770
15.535767 1.0367098 -1.8098048 4288085770
6.9433937 -7.644609 -1.4983203 4293729569
6.5337772 -7.3444505 -1.5082477 4293729569
6.1862202 -7.0861564 -1.5217872 4293729569
5.8407116 -6.8268666 -1.5293432 4293729569
5.5172329 -6.581531 -1.537115 4293729569
5.2377872 -6.3650994 -1.5483201 4293729569
5.018383 -6.1885371 -1.5641165 4293729569
4.7640133 -5.9870601 -1.5705657 4293729569
4.5366573 -5.8035235 -1.579281 4293729569
4.3073444 -5.6169991 -1.5829744 4293729569
7.4815445 -7.6325469 -1.493091 4293729569
4.085043 -5.4344621 -1.5857358 4293729569
7.1119308 -7.3383012 -1.5043827 4293729569
3.9097595 -5.2838159 -1.5949612 4293729569
6.787384 -7.0739636 -1.515118 4293729569
3.7345009 -5.1321778 -1.6001856 4293729569
6.4768715 -6.8205981 -1.5249939 4293729569
3.5722675 -4.989511 -1.6055384 4293729569
6.1964226 -6.5861754 -1.5321641 4293729569
3.4460297 -4.8687644 -1.6162431 4293729569
5.9229832 -6.3567367 -1.5394037 4293729569
3.3378105 -4.7599759 -1.6281252 4293729569
5.7075882 -6.1661725 -1.5512154 4293729569
3.2046185 -4.6352506 -1.6327621 4293729569
5.4942303 -5.9766078 -1.5590466 4293729569
3.0754356 -4.5125184 -1.6364374 4293729569
5.2978916 -5.7990088 -1.5670464 4293729569
2.9302883 -4.3788285 -1.6339546 4293729569
5.1325779 -5.6403413 -1.5773492 4293729569
2.8361301 -4.2790179 -1.6409745 4293729569
4.9802914 -5.4906487 -1.5867808 4293729569
2.7389927 -4.17522 -1.644962 4293729569
4.7910309 -5.3190446 -1.5878518 4293729569
2.6328659 -4.066443 -1.6458622 4293729569
4.6637783 -5.1852994 -1.5975289 4293729569
2.5837173 -3.9935327 -1.6583213 4293729569
4.5425396 -5.0555444 -1.6062652 4293729569
2.5285854 -3.9156384 -1.6677197 4293729569
4.4243355 -4.9277854 -1.6120311 4293729569
2.5783653 -3.9004903 -1.7021422 4293729569
4.314127 -4.8050094 -1.6188755 4293729569
2.6501389 -3.8982902 -1.7407794 4288085770
4.2139492 -4.6902146 -1.6248205 4293729569
2.7358932 -3.9010568 -1.782548 4288085770
4.1107769 -4.5714278 -1.6287329 4293729569
2.7976742 -3.8878837 -1.8170804 4288085770
4.0076275 -4.4546437 -1.6306486 4293729569
2.7455826 -3.8069901 -1.8215015 4288085770
3.930481 -4.3528008 -1.6358169 4293729569
2.6695213 -3.7131581 -1.8186905 4288085770
3.8643417 -4.257935 -1.6420933 4293729569
2.5964699 -3.6213183 -1.815909 4288085770
3.8032207 -4.1650596 -1.6464169 4293729569
2.5743847 -3.5583587 -1.8236231 4288085770
3.7620907 -4.083137 -1.6549344 4293729569
2.5243301 -3.4794669 -1.8240651 4288085770
3.7179813 -4.0002265 -1.6604238 4293729569
2.4942646 -3.4115281 -1.8277006 4288085770
3.7458286 -3.9551444 -1.6796081 4293729569
2.4552345 -3.3396153 -1.8272505 4288085770
3.858614 -3.9518638 -1.7166086 4293729569
2.4261837 -3.2716765 -1.8298953 4288085770
4.0803375 -4.0023246 -1.7736564 4288085770
2.3961506 -3.2037435 -1.830531 4288085770
4.215107 -4.004992 -1.8138614 4288085770
2.3711243 -3.1387997 -1.8312157 4288085770
4.2269955 -3.9459548 -1.8258835 4288085770
2.3371258 -3.0708799 -1.827816 4288085770
4.1659508 -3.8510928 -1.8212049 4288085770
2.3191071 -3.0089211 -1.8285674 4288085770
4.1219158 -3.764194 -1.8176891 4288085770
2.2961102 -2.9459772 -1.826273 4288085770
4.08288 -3.6822839 -1.815225 4288085770
2.2821045 -2.8870115 -1.8260642 4288085770
4.0528431 -3.603353 -1.813845 4288085770
2.2840881 -2.836009 -1.8290091 4288085770
4.051796 -3.5383563 -1.8167434 4288085770
2.2820816 -2.7820163 -1.8299143 4288085770
4.0277748 -3.4624152 -1.8144214 4288085770
2.2780972 -2.7280316 -1.8288019 4288085770
4.0107594 -3.3904576 -1.8121675 4288085770
2.2810936 -2.6760297 -1.8297547 4288085770
4.0287209 -3.3334193 -1.8162465 4288085770
2.2960892 -2.6299987 -1.8328226 4288085770
4.034708 -3.2714119 -1.8162116 4288085770
2.3070965 -2.5819793 -1.8338524 4288085770
4.0317059 -3.2054262 -1.8140908 4288085770
2.3071289 -2.5289888 -1.8307772 4288085770
4.0427055 -3.1454101 -1.8131034 4288085770
2.327137 -2.4849501 -1.8318925 4288085770
4.073679 -3.0923452 -1.816304 4288085770
2.3431568 -2.437922 -1.8319681 4288085770
4.1066761 -3.0402799 -1.8175236 4288085770
2.3671703 -2.394876 -1.8331208 4288085770
4.1356792 -2.9872246 -1.8177066 4288085770
2.3921986 -2.3518291 -1.8332824 4288085770
4.1666832 -2.9331646 -1.8179059 4288085770
2.4202232 -2.3087749 -1.8334706 4288085770
4.2176838 -2.8870602 -1.8202945 4288085770
2.43927 -2.2627444 -1.8305748 4288085770
4.2597008 -2.8369789 -1.8195976 4288085770
2.4782944 -2.2236667 -1.8318666 4288085770
4.3087177 -2.7888813 -1.8199657 4288085770
2.5173302 -2.1845903 -1.8321587 4288085770
4.3707275 -2.7437553 -1.8214539 4288085770
2.5633545 -2.1464977 -1.8335142 4288085770
4.4197674 -2.6946616 -1.8188208 4288085770
2.6163692 -2.1113882 -1.8369366 4288085770
4.500536 -2.6546588 -1.8225002 4288085770
2.6641846 -2.0724645 -1.8353179 4288085770
4.5745602 -2.6125088 -1.8231016 4288085770
2.71422 -2.0353656 -1.8357123 4288085770
4.6396065 -2.5673819 -1.8206187 4288085770
2.7602787 -1.9962778 -1.8330684 4288085770
4.7306309 -2.5291944 -1.8223773 4288085770
2.8243141 -1.9621477 -1.8345919 4288085770
4.8116722 -2.4860325 -1.8210398 4288085770
2.8903465 -1.9280128 -1.8361331 4288085770
4.9097061 -2.448832 -1.8218623 4288085770
2.9603825 -1.8948693 -1.8377116 4288085770
5.0177345 -2.4126091 -1.8237755 4288085770
3.0224457 -1.8587494 -1.8352146 4288085770
5.1157875 -2.3724132 -1.8215939 4288085770
3.1044769 -1.8275795 -1.8379027 4288085770
5.2368183 -2.337163 -1.8236243 4288085770
3.1765347 -1.7924366 -1.8364962 4288085770
5.3638573 -2.3029013 -1.8247097 4288085770
3.2516003 -1.7572889 -1.8341167 4288085770
5.485918 -2.2656555 -1.8227463 4288085770
3.3456402 -1.7270951 -1.8359133 4288085770
5.6119785 -2.2284007 -1.8208188 4288085770
3.428709 -1.6929302 -1.8336065 4288085770
5.7420464 -2.1911392 -1.817927 4288085770
3.5507202 -1.6666727 -1.8396581 4288085770
5.9020977 -2.1588092 -1.8183093 4288085770
3.6567802 -1.636457 -1.8395619 4288085770
6.0641575 -2.1254778 -1.8177085 4288085770
3.7847996 -1.610188 -1.8446674 4288085770
6.2552032 -2.0960822 -1.8193715 4288085770
3.9188271 -1.5829077 -1.848825 4288085770
6.4392662 -2.0647049 -1.8189695 4288085770
4.022913 -1.5487018 -1.8447055 4288085770
6.6503162 -2.0372672 -1.8208139 4288085770
4.1769352 -1.5243788 -1.8500454 4288085770
6.8683701 -2.0078168 -1.8217179 4288085770
4.3239803 -1.4960742 -1.8523177 4288085770
7.0954361 -1.9793487 -1.8217037 4288085770
4.4630432 -1.4657903 -1.8515161 4288085770
7.3365002 -1.949851 -1.8218127 4288085770
4.6420574 -1.4404125 -1.8580775 4288085770
7.619545 -1.925261 -1.8253034 4288085770
4.7851486 -1.4071269 -1.8533074 4288085770
7.9245987 -1.9006267 -1.8279902 4288085770
4.921257 -1.3718581 -1.8464721 4288085770
8.2756157 -1.8818884 -1.8360955 4288085770
5.0863361 -1.3395228 -1.8438995 4288085770
8.5976915 -1.8552222 -1.8359313 4288085770
5.2693977 -1.3091469 -1.84349 4288085770
8.9717388 -1.8334417 -1.8402377 4288085770
5.434515 -1.273818 -1.8359137 4288085770
9.3547945 -1.8076448 -1.8426188 4288085770
5.6375866 -1.2434025 -1.8346828 4288085770
9.8028345 -1.7877083 -1.848588 4288085770
5.8666439 -1.2149282 -1.8356866 4288085770
10.24091 -1.7637987 -1.8494627 4288085770
6.1096992 -1.1854258 -1.8368138 4288085770
10.708998 -1.7368298 -1.8486007 4288085770
6.353775 -1.1549239 -1.8349485 4288085770
11.194092 -1.7098265 -1.8468907 4288085770
6.5988674 -1.1214237 -1.8310884 4288085770
11.707207 -1.6797681 -1.8424261 4288085770
6.9168968 -1.094759 -1.8358885 4288085770
12.303303 -1.6545315 -1.8417087 4288085770
7.2299519 -1.0631108 -1.8366374 4288085770
12.947402 -1.6281962 -1.840418 4288085770
7.5220566 -1.0285144 -1.8311951 4288085770
13.776423 -1.6144571 -1.8517947 4288085770
7.8831196 -0.99676704 -1.8313721 4288085770
14.536557 -1.585885 -1.8465362 4288085770
8.2711697 -0.9639616 -1.8327885 4288085770
15.370692 -1.5551591 -1.8409348 4288085770
8.6732521 -0.92913198 -1.830327 4288085770
9.0873442 -0.89128017 -1.8259686 4288085770
9.5514107 -0.85432005 -1.8240575 4288085770
10.0535 -0.8162837 -1.8204839 4288085770
10.649541 -0.77804279 -1.8227485 4288085770
11.296578 -0.73969507 -1.8254682 4288085770
11.982635 -0.69827032 -1.8255317 4288085770
12.771677 -0.65462732 -1.827511 4288085770
13.53879 -0.60304499 -1.8192832 4288085770
14.479844 -0.55208921 -1.8186089 4288085770
15.525904 -0.49691582 -1.8168653 4288085770
15.774644 1.6483834 -1.8054087 4288085770
15.113566 1.7229962 -1.8063642 4288085770
15.737286 1.8220499 -0.93380082 4293729569
14.469534 1.7926393 -1.8034793 4288085770
15.552725 1.9337282 -0.98199123 4293729569
13.967422 1.8675911 -1.8088633 4288085770
15.461142 2.0516033 -1.0320091 4293729569
13.443382 1.9344881 -1.8080609 4288085770
15.413543 2.1745713 -1.0824155 4293729569
12.998307 2.0035558 -1.8109655 4288085770
15.409935 2.3016322 -1.1332117 4293729569
12.535305 2.0635772 -1.8077211 4288085770
15.402332 2.4306827 -1.1829692 4293729569
12.135254 2.1287363 -1.8090357 4288085770
15.486672 2.5709314 -1.2365381 4293729569
11.742249 2.188905 -1.8064202 4288085770
15.414153 2.6908352 -1.2787243 4293729569
11.407213 2.2512 -1.8073232 4288085770
15.388607 2.8188393 -1.3223215 4293729569
11.068202 2.3094835 -1.8061959 4288085770
15.40004 2.9519231 -1.3672445 4293729569
10.762185 2.3698366 -1.8053621 4288085770
15.444457 3.0920763 -1.4124542 4293729569
10.459185 2.4261937 -1.8025606 4288085770
15.472875 3.2311943 -1.4565209 4293729569
10.213141 2.4896758 -1.8042617 4288085770
15.766074 3.4138899 -1.5169098 4293729569
9.961132 2.5491414 -1.8029146 4288085770
9.7341127 2.6096611 -1.8027908 4288085770
9.5231028 2.6692128 -1.8018123 4288085770
9.3770046 2.7399111 -1.8084024 4288085770
9.1570406 2.7944381 -1.80335 4288085770
9.0519257 2.8682246 -1.8113041 4288085770
8.912879 2.9349308 -1.8129628 4288085770
8.7798328 3.0026495 -1.814674 4288085770
8.6767578 3.0734341 -1.8186505 4288085770
8.5487442 3.1381593 -1.8174109 4288085770
8.4596729 3.2119722 -1.8205092 4288085770
16.143608 5.0661507 -1.8810614 4288085770
8.3775988 3.2867999 -1.823669 4288085770
15.919527 5.160675 -1.8799175 4288085770
8.320507 3.3656816 -1.8280479 4288085770
15.761378 5.267344 -1.88335 4288085770
8.2444515 3.4395189 -1.829263 4288085770
15.651196 5.3861156 -1.8881974 4288085770
8.1783943 3.5153775 -1.8305652 4288085770
15.558005 5.5089226 -1.8931919 4288085770
8.1413002 3.5982995 -1.8341182 4288085770
15.484815 5.6347709 -1.8973622 4288085770
8.095232 3.6792004 -1.8355935 4288085770
15.462564 5.7747302 -1.9049711 4288085770
8.0751305 3.7661583 -1.8392938 4288085770
15.486263 5.9307895 -1.9149714 4288085770
8.0470486 3.852097 -1.8409237 4288085770
15.500999 6.0818257 -1.9218976 4288085770
8.0379429 3.9440768 -1.8437159 4288085770
15.457829 6.21873 -1.9213223 4288085770
8.0358353 4.0380716 -1.8465685 4288085770
15.517527 6.3868608 -1.9286295 4288085770
8.0477123 4.1350965 -1.8505425 4288085770
15.554281 6.5469375 -1.9317415 4288085770
8.063591 4.2351294 -1.8535486 4288085770
15.65794 6.7321615 -1.9394207 4288085770
8.0465469 4.3250837 -1.8502722 4288085770
15.754627 6.9183655 -1.9440356 4288085770
8.081419 4.4311552 -1.8524405 4288085770
15.886283 7.1136446 -1.949953 4288085770
8.1831551 4.5633802 -1.8641747 4288085770
16.05888 7.3290138 -1.9582107 4288085770
8.2489815 4.6835198 -1.8686023 4288085770
8.3088188 4.8026447 -1.8719777 4288085770
8.4275618 4.9439011 -1.8808525 4288085770
8.4954062 5.0680404 -1.8822925 4288085770
8.5981846 5.2082572 -1.8870249 4288085770
8.7608643 5.3746076 -1.8972605 4288085770
8.8746557 5.5228443 -1.8990811 4288085770
9.0253763 5.6871638 -1.9052118 4288085770
9.1781063 5.855485 -1.909355 4288085770
9.3717651 6.0438962 -1.916839 4288085770
9.6532574 6.2725062 -1.9340583 4288085770
9.8788824 6.4809833 -1.9408023 4288085770
10.14943 6.7125597 -1.9509188 4288085770
10.437951 6.9571743 -1.9611791 4288085770
10.693567 7.1907082 -1.9631585 4288085770
11.04499 7.4724584 -1.9759339 4288085770
11.426386 7.7742686 -1.9869515 4288085770
11.809788 8.0820808 -1.9959788 4288085770
14.863807 -0.21971798 -1.8180319 4288085770
13.578967 -0.24342632 -1.8124275 4288085770
12.572017 -0.2665329 -1.8203402 4288085770
11.539194 -0.28171778 -1.8120061 4288085770
10.667312 -0.29555368 -1.8111284 4288085770
9.8534527 -0.30627251 -1.8067714 4288085770
9.1755438 -0.31569767 -1.8086445 4288085770
15.653396 -0.55111456 -1.8066778 4288085770
8.5426359 -0.32302856 -1.8099222 4288085770
14.302411 -0.54295015 -1.8094281 4288085770
7.9157829 -0.32635832 -1.8032483 4288085770
13.136421 -0.5353961 -1.8128545 4288085770
7.3619175 -0.32953167 -1.7992355 4288085770
12.107457 -0.52655792 -1.8145208 4288085770
6.8590298 -0.33059454 -1.7976818 4288085770
11.135544 -0.51560831 -1.8107005 4288085770
6.3971386 -0.3315711 -1.7964993 4288085770
10.269616 -0.50443268 -1.80884 4288085770
5.9872265 -0.33243418 -1.7977874 4288085770
9.4947081 -0.49206972 -1.8048024 4288085770
5.6103115 -0.33222866 -1.7993731 4288085770
8.8687172 -0.48537779 -1.8121223 4288085770
5.255394 -0.33197594 -1.8011578 4288085770
8.1958313 -0.47180414 -1.8060069 4288085770
4.9344559 -0.33064938 -1.8052491 4288085770
7.5969353 -0.45907211 -1.801563 4288085770
4.6255341 -0.32830048 -1.8074476 4288085770
7.06703 -0.44819355 -1.7987469 4288085770
4.3136539 -0.32396412 -1.8046161 4288085770
6.5731277 -0.43524027 -1.795254 4288085770
4.04772 -0.32152319 -1.8082038 4288085770
6.1451759 -0.42513943 -1.7983627 4288085770
3.7728271 -0.31610727 -1.8067058 4288085770
5.747242 -0.41497803 -1.7997435 4288085770
3.5428905 -0.31258965 -1.8106182 4288085770
5.3753033 -0.40376139 -1.801358 4288085770
3.3059769 -0.30709076 -1.8114643 4288085770
5.0363655 -0.39347506 -1.803273 4288085770
3.0800781 -0.3005724 -1.8104087 4288085770
4.731411 -0.38411474 -1.8074974 4288085770
2.8811455 -0.29598999 -1.8136003 4288085770
4.43647 -0.37273598 -1.8098093 4288085770
2.6892147 -0.28939533 -1.8158522 4288085770
4.1395569 -0.36136675 -1.8081031 4288085770
2.4903297 -0.28282261 -1.813041 4288085770
3.8616467 -0.34895706 -1.8065675 4288085770
2.3184032 -0.27618551 -1.8154743 4288085770
3.5987453 -0.33651829 -1.804168 4288085770
2.146492 -0.26855087 -1.815906 4288085770
3.3688126 -0.32600307 -1.80607 4288085770
1.9686146 -0.25993538 -1.8122822 4288085770
3.150877 -0.31446314 -1.8080795 4288085770
1.8186874 -0.25325108 -1.8149146 4288085770
2.924984 -0.30194712 -1.8050147 4288085770
1.6578083 -0.24459934 -1.8114446 4288085770
2.7559967 -0.29229546 -1.8134708 4288085770
1.5019379 -0.2349391 -1.8070186 4288085770
2.5550938 -0.280725 -1.8116339 4288085770
1.3660221 -0.22722864 -1.8077763 4288085770
2.3821564 -0.26909065 -1.814051 4288085770
1.235117 -0.21850872 -1.807578 4288085770
2.1982727 -0.25648689 -1.8103669 4288085770
2.0453339 -0.24581003 -1.8129663 4288085770
1.8804398 -0.23316479 -1.8104541 4288085770
1.7255363 -0.22049761 -1.8090327 4288085770
1.5666676 -0.20784426 -1.803575 4288085770
1.4227791 -0.19515705 -1.8002533 4288085770
1.2998486 -0.18341732 -1.8021228 4288085770
1.2749023 1.8338413 -1.7981224 4288085770
1.3969841 1.857091 -1.7971988 4288085770
1.5430069 1.8853977 -1.8014859 4288085770
1.6720867 1.9086621 -1.8006259 4288085770
1.8131657 1.9329517 -1.7998735 4288085770
1.9482651 1.954226 -1.797071 4288085770
2.1043205 1.9805501 -1.7984518 4288085770
2.2643852 2.0058818 -1.7988704 4288085770
1.3098869 1.7608783 -1.8025383 4288085770
2.4304523 2.0312252 -1.7993435 4288085770
1.436964 1.7771411 -1.8036698 4288085770
2.6264458 2.0636411 -1.806079 4288085770
1.5600739 1.7913914 -1.8017678 4288085770
2.7905655 2.0849736 -1.8015399 4288085770
1.7031364 1.8096895 -1.804042 4288085770
2.9975815 2.1164093 -1.8063768 4288085770
1.8422241 1.8249764 -1.8042837 4288085770
3.2006302 2.1448328 -1.8081815 4288085770
1.9663773 1.8352237 -1.7983968 4288085770
3.3977242 2.1692383 -1.8059378 4288085770
2.1164532 1.8505347 -1.7997385 4288085770
3.6008282 2.1926548 -1.8027498 4288085770
2.265564 1.8638401 -1.7980741 4288085770
3.8248863 2.2201214 -1.8037467 4288085770
2.4436054 1.883215 -1.8026645 4288085770
4.0439987 2.2435701 -1.7997042 4288085770
2.6406078 1.9046352 -1.8114243 4288085770
4.2910671 2.2710838 -1.7999101 4288085770
2.7927608 1.9139414 -1.8057929 4288085770
4.5461426 2.2986131 -1.7991886 4288085770
2.9758472 1.9283211 -1.8064358 4288085770
4.8201962 2.3281853 -1.8006366 4288085770
3.1479759 1.9376738 -1.8039858 4288085770
5.106266 2.3567798 -1.8001952 4288085770
3.3390846 1.9500675 -1.8027042 4288085770
5.394352 2.3833771 -1.798775 4288085770
3.5311928 1.960464 -1.8014342 4288085770
5.6994381 2.4100099 -1.7965089 4288085770
3.7542706 1.97493 -1.8034401 4288085770
6.0385017 2.4407167 -1.796546 4288085770
3.957407 1.9823465 -1.8002745 4288085770
6.3646183 2.4653904 -1.7924734 4288085770
4.1974754 1.9958496 -1.8034362 4288085770
6.7606468 2.5002215 -1.7960223 4288085770
4.4216022 2.0033121 -1.8014612 4288085770
7.153717 2.5310411 -1.7955498 4288085770
4.6687088 2.012826 -1.801692 4288085770
7.6057262 2.5699923 -1.8006014 4288085770
4.9397907 2.0243928 -1.8041381 4288085770
8.0757561 2.6059785 -1.8038207 4288085770
5.1989212 2.0299292 -1.8024837 4288085770
8.5657988 2.6410058 -1.8062232 4288085770
5.4770374 2.0365071 -1.8020003 4288085770
9.0868464 2.6770971 -1.8079057 4288085770
5.750185 2.039072 -1.799477 4288085770
9.6289082 2.7102313 -1.8087833 4288085770
6.0393429 2.039669 -1.7961019 4288085770
10.229948 2.7484918 -1.8111893 4288085770
6.3514652 2.0433187 -1.7959315 4288085770
10.907935 2.7929201 -1.8182861 4288085770
6.6935787 2.0470331 -1.7970332 4288085770
11.611954 2.8343997 -1.822623 4288085770
7.0596733 2.0508013 -1.8003528 4288085770
12.356997 2.8739631 -1.8253354 4288085770
7.4607468 2.0556459 -1.8059889 4288085770
13.150036 2.9126277 -1.8284849 4288085770
7.8488846 2.0544548 -1.8055153 4288085770
14.019087 2.9534507 -1.8303216 4288085770
8.2600155 2.0513144 -1.8062533 4288085770
14.916185 2.9873271 -1.8284224 4288085770
8.6871662 2.0442059 -1.8061423 4288085770
15.892279 3.0233703 -1.8272378 4288085770
9.153285 2.0391839 -1.8093824 4288085770
9.6104517 2.0281374 -1.8085493 4288085770
15.94057 2.8112137 -1.6499597 4293729569
10.108621 2.015178 -1.8080913 4288085770
15.573067 2.6532731 -1.5328333 4293729569
10.671738 2.0043621 -1.8132205 4288085770
15.550221 2.5400968 -1.4447774 4293729569
11.234905 1.986541 -1.8143594 4288085770
15.529358 2.4269273 -1.3587391 4293729569
11.799125 1.9617171 -1.8115176 4288085770
15.547446 2.3168464 -1.277051 4293729569
12.454279 1.9400933 -1.8154973 4288085770
15.534561 2.2006979 -1.1940894 4293729569
13.057558 1.9033456 -1.8090262 4288085770
15.538642 2.08759 -1.1142781 4293729569
13.768763 1.8698361 -1.8105314 4288085770
15.610673 1.9786308 -1.0390782 4293729569
14.507997 1.8293831 -1.8103005 4288085770
15.77264 1.8778689 -0.96968436 4293729569
15.238298 1.7799041 -1.8050005 4288085770
16.19648 1.793673 -0.91164654 4293729569
16.024609 1.724544 -1.8002175 4288085770
12.278866 -5.4128566 -0.22986771 4293729569
12.339045 -5.5576949 -0.25761095 4293729569
6.3174019 -4.9167914 -0.72501034 4293729569
6.1952209 -4.9127784 -0.19887203 4293729569
6.2522697 -4.9568839 -0.76147228 4293729569
6.1640892 -4.9667945 -0.23866186 4293729569
6.2411461 -5.0238538 -0.80346155 4293729569
6.1509552 -5.0297685 -0.28062746 4293729569
10.337288 -7.6653123 -1.5002567 4293729569
9.7768135 -7.4514775 -1.5128741 4293729569
9.2143602 -7.2266545 -1.5204587 4293729569
8.7099485 -7.0257068 -1.5296031 4293729569
8.2335453 -6.8336987 -1.540014 4293729569
7.7681713 -6.6396737 -1.5465226 4293729569
7.3298283 -6.4555917 -1.5522901 4293729569
6.895483 -6.2665029 -1.5570873 4293729569
6.494175 -6.0913463 -1.5612032 4293729569
6.1188812 -5.9241366 -1.5655665 4293729569
5.7825966 -5.7758374 -1.5733099 4293729569
5.4603291 -5.6305108 -1.5801846 4293729569
5.1450806 -5.4851718 -1.5851232 4293729569
8.584506 -7.5690637 -1.4961693 4293729569
4.8458424 -5.3447986 -1.5902139 4293729569
8.0689278 -7.3061337 -1.5091294 4293729569
4.5866165 -5.2253385 -1.5986964 4293729569
7.5703812 -7.047174 -1.5192496 4293729569
4.3403931 -5.110847 -1.6083038 4293729569
7.1438866 -6.8260579 -1.5330753 4293729569
4.0702019 -4.9754186 -1.609665 4293729569
6.6864243 -6.5810189 -1.5375874 4293729569
3.8569946 -4.873858 -1.6205901 4293729569
6.2609921 -6.3499112 -1.5424094 4293729569
3.620821 -4.7533555 -1.6232806 4293729569
5.9015961 -6.1556592 -1.5518812 4293729569
3.4236374 -4.6547627 -1.6323552 4293729569
5.5742226 -5.9773393 -1.5626652 4293729569
3.2034988 -4.537231 -1.6321954 4293729569
5.2398758 -5.7890382 -1.5683727 4293729569
3.0013523 -4.4296584 -1.6352127 4293729569
4.9855556 -5.6505599 -1.5828744 4293729569
2.7842236 -4.3091245 -1.6330762 4293729569
4.6752529 -5.4712138 -1.5858124 4293729569
2.6051025 -4.2105021 -1.6353147 4293729569
4.4059792 -5.3147779 -1.591154 4293729569
2.4439735 -4.1208396 -1.640729 4293729569
4.159708 -5.1702895 -1.5987207 4293729569
2.3018379 -4.0411305 -1.6493292 4293729569
3.927454 -5.0317731 -1.6064229 4293729569
2.1806984 -3.9733758 -1.6611363 4293729569
3.7072239 -4.8982329 -1.612241 4293729569
2.035593 -3.8876815 -1.6647013 4293729569
3.5020123 -4.7726617 -1.6182063 4293729569
1.9774246 -3.8577762 -1.6891321 4293729569
3.314806 -4.6550517 -1.6253458 4293729569
1.9811764 -3.8667159 -1.731178 4293729569
3.1226215 -4.5334554 -1.6294349 4293729569
1.9619598 -3.8587127 -1.7659923 4288085770
2.928463 -4.4078708 -1.6295004 4293729569
1.9757042 -3.8706279 -1.810133 4288085770
2.7403164 -4.2842717 -1.6286234 4293729569
1.8875771 -3.8138013 -1.8232548 4288085770
2.5901642 -4.1835847 -1.6341224 4293729569
1.7914734 -3.7499967 -1.8322948 4288085770
2.4510231 -4.0878749 -1.6397282 4293729569
1.6394501 -3.6463351 -1.8227724 4288085770
2.3568554 -4.0200582 -1.6547804 4293729569
1.5233936 -3.5655847 -1.8226079 4288085770
2.2287312 -3.9293275 -1.659493 4293729569
1.4233341 -3.4937978 -1.8246011 4288085770
2.1895313 -3.8943782 -1.6860889 4293729569
1.3382568 -3.4299731 -1.830741 4288085770
2.1873035 -3.88234 -1.7210519 4293729569
1.2332249 -3.3532033 -1.8286822 4288085770
2.2170429 -3.8882241 -1.7643294 4288085770
2.2337952 -3.8841386 -1.8034755 4288085770
2.1736355 -3.829247 -1.8208539 4288085770
2.0545712 -3.7355065 -1.8186446 4288085770
1.9544945 -3.6527209 -1.8196226 4288085770
1.8594189 -3.5729232 -1.82165 4288085770
1.7743435 -3.4971042 -1.8247738 4288085770
1.6922913 -3.4232793 -1.8259276 4288085770
1.6132393 -3.35045 -1.8271099 4288085770
1.5501785 -3.286582 -1.8314497 4288085770
1.4531746 -3.2018013 -1.8244528 4288085770
1.401125 -3.1439104 -1.8289006 4288085770
1.3331013 -3.0760598 -1.8281898 4288085770
1.2690983 -3.0092039 -1.8255171 4288085770
1.2170715 -2.949317 -1.8269622 4288085770
1.2413521 -1.506454 -1.8361682 4288085770
1.2874165 -1.4823618 -1.8365514 4288085770
1.3334923 -1.4562721 -1.8349322 4288085770
1.3935471 -1.4361467 -1.8374478 4288085770
1.4436264 -1.4110484 -1.8358662 4288085770
1.5046864 -1.3899231 -1.8373896 4288085770
1.5687542 -1.3677926 -1.8379388 4288085770
1.6547718 -1.3526049 -1.8456963 4288085770
1.7158623 -1.3284855 -1.8432156 4288085770
1.7749615 -1.3043709 -1.8397169 4288085770
1.8530312 -1.2832098 -1.8403941 4288085770
1.9111462 -1.2581005 -1.834885 4288085770
1.9982109 -1.2389188 -1.8366464 4288085770
2.0643349 -1.2137933 -1.8302097 4288085770
2.155407 -1.1946054 -1.8310074 4288085770
2.2664528 -1.1793694 -1.8359915 4288085770
2.3645363 -1.1591682 -1.8348513 4288085770
1.2450867 -0.92354155 -1.8303901 4288085770
2.4536495 -1.1369915 -1.8306268 4288085770
1.3281555 -0.90636921 -1.8321182 4288085770
2.5746994 -1.1207356 -1.8347001 4288085770
1.3912868 -0.88524961 -1.8256599 4288085770
2.7067528 -1.1064558 -1.8388755 4288085770
1.4703789 -0.8660903 -1.8243492 4288085770
2.8268318 -1.0872073 -1.8389359 4288085770
1.5814056 -0.85185051 -1.8313346 4288085770
2.9419384 -1.0669737 -1.8359494 4288085770
1.6734905 -0.83366203 -1.8311428 4288085770
3.0979843 -1.0536423 -1.8413435 4288085770
1.7675934 -0.81547117 -1.828969 4288085770
3.2390671 -1.0353484 -1.8415952 4288085770
1.8557014 -0.79629469 -1.8257395 4288085770
3.3771763 -1.0170655 -1.8388197 4288085770
1.9578018 -0.77808762 -1.8236384 4288085770
3.504303 -0.99481058 -1.8329391 4288085770
2.0778618 -0.76183462 -1.8267027 4288085770
3.678381 -0.97944546 -1.8344935 4288085770
2.1889629 -0.74360847 -1.8246828 4288085770
3.8754349 -0.96602774 -1.8392588 4288085770
2.3190308 -0.72733593 -1.8268374 4288085770
4.0385475 -0.94569254 -1.8357068 4288085770
2.4620895 -0.71203423 -1.8301113 4288085770
4.2136765 -0.92633533 -1.8302649 4288085770
2.5981731 -0.69475174 -1.830319 4288085770
4.4207706 -0.90990353 -1.8301167 4288085770
2.7193108 -0.6755085 -1.8243884 4288085770
4.6378613 -0.89344931 -1.8300588 4288085770
2.8883572 -0.66015053 -1.8288974 4288085770
4.8419971 -0.87403107 -1.8238795 4288085770
3.0434494 -0.64282846 -1.828277 4288085770
5.068121 -0.85556364 -1.8199004 4288085770
3.1875916 -0.62353849 -1.8215547 4288085770
5.3182373 -0.83804417 -1.8171399 4288085770
3.3487072 -0.60420799 -1.8179859 4288085770
5.5843506 -0.82048988 -1.8145242 4288085770
3.5467682 -0.58978939 -1.8217586 4288085770
5.8654747 -0.80390501 -1.8110455 4288085770
3.7198982 -0.57043552 -1.8162986 4288085770
6.1915665 -0.78822041 -1.8119756 4288085770
3.9459553 -0.55495787 -1.8203233 4288085770
6.5047131 -0.77057076 -1.8057854 4288085770
4.1630535 -0.53750515 -1.8192642 4288085770
6.8877945 -0.7567625 -1.8082337 4288085770
4.3771763 -0.51806355 -1.8151749 4288085770
7.3028831 -0.74188805 -1.8099705 4288085770
4.6072998 -0.49958706 -1.811232 4288085770
7.7499695 -0.7279439 -1.8119982 4288085770
4.8693943 -0.48203897 -1.81058 4288085770
8.2350655 -0.71392155 -1.8133699 4288085770
5.1425076 -0.46346998 -1.8080261 4288085770
8.7611656 -0.69881248 -1.8141111 4288085770
5.4306183 -0.44486952 -1.8056079 4288085770
9.2993002 -0.68268394 -1.8109595 4288085770
5.7277451 -0.42525196 -1.8012697 4288085770
9.9413977 -0.66832829 -1.8127519 4288085770
6.0818367 -0.4075079 -1.8014501 4288085770
10.6425 -0.65384865 -1.8140781 4288085770
6.4519444 -0.38873196 -1.7997739 4288085770
11.451584 -0.64013624 -1.8183832 4288085770
6.8610229 -0.36986923 -1.8014505 4288085770
12.299707 -0.62534761 -1.8180397 4288085770
7.3111076 -0.35092115 -1.8024982 4288085770
13.242849 -0.60836077 -1.8155534 4288085770
7.8241634 -0.33183479 -1.8071158 4288085770
14.287008 -0.59116125 -1.811981 4288085770
8.352252 -0.31172132 -1.8078678 4288085770
15.44721 -0.57172298 -1.8034557 4288085770
8.9453373 -0.29047012 -1.8092067 4288085770
9.5784388 -0.26913548 -1.8089074 4288085770
10.331488 -0.24653912 -1.8146925 4288085770
11.136574 -0.22183895 -1.8159454 4288085770
12.080622 -0.19783735 -1.8224576 4288085770
13.083729 -0.16872072 -1.8214965 4288085770
14.23382 -0.13929033 -1.8228657 4288085770
15.618863 -0.10835361 -1.8303598 4288085770
16.152813 1.748327 -1.2906209 4293729569
15.794717 1.861547 -1.2852436 4293729569
15.747423 1.9984598 -1.2976346 4293729569
15.68716 2.13434 -1.3069099 4293729569
15.673881 2.2713239 -1.3176069 4293729569
15.656617 2.4112959 -1.3262643 4293729569
15.703317 2.558409 -1.3374881 4293729569
15.704063 2.6994178 -1.344306 4293729569
15.659863 2.8363233 -1.3467246 4293729569
15.650651 2.976305 -1.3494543 4293729569
15.724379 3.1294701 -1.3559132 4293729569
15.779142 3.2795901 -1.3592056 4293729569
14.986072 0.094753742 -1.8227103 4288085770
13.63817 0.087805748 -1.8196197 4288085770
12.533195 0.083399296 -1.8257068 4288085770
11.435356 0.081988335 -1.8158532 4288085770
10.519456 0.080982208 -1.8136326 4288085770
9.6635828 0.082103252 -1.8079479 4288085770
8.9646425 0.083578587 -1.8106718 4288085770
15.241947 0.06627655 -1.8170617 4288085770
8.2578011 0.08602047 -1.8023229 4288085770
13.837024 0.074202538 -1.8134385 4288085770
7.6369171 0.08965683 -1.7987443 4288085770
12.66506 0.081644058 -1.8149074 4288085770
7.0930176 0.093462944 -1.7968566 4288085770
11.635099 0.089395046 -1.8166509 4288085770
6.5911331 0.098358631 -1.7933447 4288085770
10.657225 0.098246574 -1.8088597 4288085770
6.1562004 0.10340786 -1.7954338 4288085770
9.8223076 0.10741758 -1.8063519 4288085770
5.7532768 0.10852575 -1.7968099 4288085770
9.0923767 0.11681938 -1.8057865 4288085770
5.3883381 0.11472845 -1.7995257 4288085770
8.4104805 0.12632227 -1.8016518 4288085770
5.0434113 0.12097311 -1.8014212 4288085770
7.7935829 0.13496685 -1.7981019 4288085770
4.7254772 0.12727737 -1.8035587 4288085770
7.2626534 0.144804 -1.7983223 4288085770
4.4385357 0.13465071 -1.8069733 4288085770
6.7357769 0.15464163 -1.7925788 4288085770
4.1606007 0.14204264 -1.8094685 4288085770
6.3048267 0.16370058 -1.7956982 4288085770
3.8896942 0.14944601 -1.8090266 4288085770
5.8909111 0.17379189 -1.7949686 4288085770
3.636795 0.15688753 -1.8077464 4288085770
5.5289631 0.18400097 -1.7977058 4288085770
3.3849125 0.16432858 -1.8044749 4288085770
5.1810322 0.19423819 -1.7985687 4288085770
3.1620102 0.17283583 -1.8034626 4288085770
4.8700867 0.20355844 -1.801765 4288085770
2.9740429 0.18142891 -1.8097641 4288085770
4.5851288 0.21393681 -1.8061931 4288085770
2.7851105 0.18901443 -1.812058 4288085770
4.2991943 0.2243104 -1.8076123 4288085770
2.5951977 0.1975956 -1.8123417 4288085770
4.0302887 0.23471642 -1.8061842 4288085770
2.4272633 0.20622683 -1.8148228 4288085770
3.7633934 0.24512577 -1.8037741 4288085770
2.2593403 0.21585751 -1.8163024 4288085770
3.5194969 0.25558615 -1.8015703 4288085770
2.1054134 0.22551823 -1.8179078 4288085770
3.3015709 0.26610661 -1.8025999 4288085770
1.9165993 0.23408699 -1.8072007 4288085770
3.0936527 0.27664804 -1.8027191 4288085770
1.7627087 0.24374294 -1.804806 4288085770
2.9117069 0.28825045 -1.8060704 4288085770
1.6407452 0.25347948 -1.8106986 4288085770
2.715807 0.29881477 -1.8042974 4288085770
1.49687 0.26315403 -1.8063939 4288085770
2.5628414 0.31048346 -1.809909 4288085770
1.3709641 0.27287436 -1.8062505 4288085770
2.3769684 0.3210659 -1.8052257 4288085770
1.2470627 0.28259706 -1.8051251 4288085770
2.2399902 0.33277082 -1.8119808 4288085770
2.0880795 0.34443426 -1.8116015 4288085770
1.9431686 0.3551116 -1.8112861 4288085770
1.786314 0.36575603 -1.8048633 4288085770
1.6524067 0.37745619 -1.8036454 4288085770
1.5185223 0.38815498 -1.800429 4288085770
1.3956184 0.39987946 -1.7993098 4288085770
1.2896862 0.41164637 -1.8013432 4288085770
1.2179298 2.6259506 -1.7918729 4288085770
1.3449135 2.6722295 -1.7959572 4288085770
1.4649429 2.7134876 -1.7959856 4288085770
1.5909672 2.7557592 -1.7960668 4288085770
1.7219849 2.7990429 -1.7971916 4288085770
1.8530312 2.840323 -1.7953193 4288085770
2.0030289 2.88765 -1.79761 4288085770
2.1550179 2.935982 -1.7999176 4288085770
2.3030605 2.9782994 -1.7981974 4288085770
1.3089352 2.5771194 -1.8007644 4288085770
2.4810219 3.0336909 -1.8027298 4288085770
1.4319859 2.6093843 -1.8008322 4288085770
2.7068405 3.1072025 -1.8186706 4288085770
1.5540485 2.6396458 -1.7998934 4288085770
2.8798656 3.1545768 -1.8181694 4288085770
1.6791115 2.6699142 -1.7989818 4288085770
3.0638771 3.2059746 -1.8177617 4288085770
1.8031979 2.6981773 -1.796064 4288085770
3.272831 3.2644348 -1.8225698 4288085770
1.9502106 2.7334991 -1.7993441 4288085770
3.4808159 3.3198891 -1.8243734 4288085770
2.0852852 2.7627881 -1.7975241 4288085770
3.7047729 3.3803806 -1.8283145 4288085770
2.246294 2.8001409 -1.8009275 4288085770
3.9287643 3.4368687 -1.8292612 4288085770
2.3973484 2.8324666 -1.800248 4288085770
4.1677284 3.4973924 -1.8323376 4288085770
2.5374508 2.8577642 -1.7964787 4288085770
4.414711 3.5579309 -1.8334866 4288085770
2.7603149 2.9142685 -1.8114158 4288085770
4.6637077 3.616473 -1.8336562 4288085770
2.9024506 2.9355664 -1.8046701 4288085770
4.9267006 3.6760459 -1.8339508 4288085770
3.0994434 2.9759998 -1.8093947 4288085770
5.2136669 3.7426732 -1.8354527 4288085770
3.3054237 3.0174549 -1.8151989 4288085770
5.5096359 3.80832 -1.837037 4288085770
3.4795151 3.0448275 -1.8117337 4288085770
5.8305779 3.8790238 -1.8398398 4288085770
3.6745796 3.0762491 -1.8104528 4288085770
6.1645241 3.9507563 -1.842759 4288085770
3.8915882 3.1137261 -1.814362 4288085770
6.5114784 4.0225158 -1.8447957 4288085770
4.1156006 3.1522169 -1.8173331 4288085770
6.8893986 4.101347 -1.8491025 4288085770
4.3346539 3.1846929 -1.8172673 4288085770
7.2903061 4.1842284 -1.8536114 4288085770
4.5637074 3.2171912 -1.817292 4288085770
7.7112045 4.2681556 -1.8592997 4288085770
4.8216991 3.2577596 -1.8225672 4288085770
8.106205 4.3380146 -1.8567724 4288085770
5.0707397 3.2913034 -1.8237709 4288085770
8.5910635 4.4340849 -1.864022 4288085770
5.3198071 3.3208444 -1.82298 4288085770
9.1178808 4.5362515 -1.8746425 4288085770
5.5788612 3.3524089 -1.823277 4288085770
9.610816 4.6223316 -1.8759782 4288085770
5.8479176 3.3829956 -1.8236655 4288085770
10.190639 4.7286124 -1.8850718 4288085770
6.1319714 3.4136155 -1.8241895 4288085770
10.786482 4.8339257 -1.8923113 4288085770
6.4459763 3.4503067 -1.8289758 4288085770
11.391388 4.9312534 -1.8946432 4288085770
6.7430592 3.4769528 -1.8276227 4288085770
12.03326 5.0346656 -1.8993009 4288085770
7.0681 3.5086646 -1.8295153 4288085770
12.685194 5.131093 -1.8990588 4288085770
7.4041367 3.5394025 -1.8325087 4288085770
13.40507 5.2396746 -1.9024141 4288085770
7.7781258 3.5762277 -1.8388367 4288085770
14.169934 5.3503561 -1.9061725 4288085770
8.149168 3.6070411 -1.841146 4288085770
14.985814 5.4641476 -1.9083879 4288085770
8.5072479 3.6288235 -1.8413506 4288085770
15.875636 5.590106 -1.9142548 4288085770
8.8923111 3.6546669 -1.8427933 4288085770
9.281394 3.6745179 -1.8432804 4288085770
9.715436 3.7004724 -1.8471655 4288085770
10.12056 3.7143548 -1.8448056 4288085770
10.574624 3.7333524 -1.847881 4288085770
11.02773 3.7463436 -1.8479556 4288085770
11.537772 3.7664676 -1.8535352 4288085770
12.033874 3.7765555 -1.8550022 4288085770
12.500054 3.7725706 -1.8512177 4288085770
13.021179 3.7757127 -1.8519202 4288085770
13.545331 3.7698603 -1.8516623 4288085770
14.105484 3.7640872 -1.8517293 4288085770
14.689617 3.7573702 -1.8540143 4288085770
15.287772 3.7436833 -1.8554354 4288085770
15.887969 3.7209976 -1.8548869 4288085770
16.041027 2.9429216 -1.562308 4293729569
15.797063 2.7752986 -1.5003282 4293729569
15.754901 2.6361406 -1.4541334 4293729569
15.759669 2.503094 -1.4143546 4293729569
15.750442 2.368017 -1.3744521 4293729569
15.749199 2.2329593 -1.3366218 4293729569
15.829871 2.1060929 -1.3065207 4293729569
