# .PCD v0.7 - Point Cloud Data file format
VERSION 0.7
FIELDS x y z rgb
SIZE 4 4 4 4
TYPE F F F U
COUNT 1 1 1 1
WIDTH 1116
HEIGHT 1
VIEWPOINT 0 0 0 1 0 0 0
POINTS 1116
DATA ascii
0.33737183 -0.22730398 -1.7837709 4288085770
-0.91345215 -0.10620928 -1.7884058 4288085770
0.5335083 -0.21547413 -1.7843095 4288085770
-0.77334595 -0.094337463 -1.7880532 4288085770
0.72964478 -0.20265675 -1.7828413 4288085770
-0.62219238 -0.082459927 -1.7896789 4288085770
0.94775391 -0.19184446 -1.7833439 4288085770
-0.48406982 -0.069612503 -1.7853237 4288085770
1.1869202 -0.18004417 -1.7847987 4288085770
-0.30892944 -0.058750153 -1.7879096 4288085770
1.4330139 -0.16826439 -1.7842401 4288085770
-0.14678955 -0.046909809 -1.7855142 4288085770
1.6831665 -0.15649939 -1.7816738 4288085770
0.035339355 -0.035068035 -1.78608 4288085770
1.9703064 -0.14474821 -1.7820357 4288085770
0.2194519 -0.023246288 -1.7836419 4288085770
2.2314148 -0.13202763 -1.7744414 4288085770
0.42163086 -0.011426926 -1.7831684 4288085770
2.5575562 -0.12030888 -1.7747272 4288085770
0.64672852 -0.00061511993 -1.7846574 4288085770
2.8937073 -0.10862064 -1.7719938 4288085770
0.86087036 0.011172771 -1.781161 4288085770
3.2738342 -0.097943306 -1.7731816 4288085770
1.1080017 0.021965027 -1.7826072 4288085770
3.6559753 -0.087299824 -1.7693654 4288085770
1.3561707 0.033725739 -1.7790447 4288085770
4.0811157 -0.075680733 -1.7674593 4288085770
1.6382751 0.044487476 -1.7804228 4288085770
4.5522156 -0.0651021 -1.7654704 4288085770
1.9093933 0.056219578 -1.7758161 4288085770
5.0803528 -0.054560184 -1.7653705 4288085770
2.2115173 0.067931175 -1.7721487 4288085770
5.6555176 -0.045057297 -1.765186 4288085770
2.541687 0.078632832 -1.7704335 4288085770
6.2836304 -0.034608364 -1.7638923 4288085770
2.9157715 0.089314938 -1.7716333 4288085770
7.0437927 -0.026213646 -1.7713548 4288085770
3.2879639 0.10096598 -1.7678298 4288085770
7.8108826 -0.015892029 -1.7687911 4288085770
3.7190857 0.11158609 -1.7669185 4288085770
8.7170715 -0.0066642761 -1.7699634 4288085770
4.183197 0.12217712 -1.7659434 4288085770
9.7371826 0.0014710426 -1.7719213 4288085770
4.6903687 0.13273859 -1.7658845 4288085770
10.940338 0.0094752312 -1.7775234 4288085770
5.2574768 0.14324522 -1.7657095 4288085770
12.265472 0.018333912 -1.7768825 4288085770
5.890625 0.15371132 -1.7674059 4288085770
6.5547485 0.16411543 -1.7640423 4288085770
7.3358765 0.17346382 -1.7674583 4288085770
8.2500305 0.18371153 -1.7726089 4288085770
9.2271729 0.19388437 -1.7746371 4288085770
10.350311 0.2039237 -1.7753822 4288085770
11.71048 0.21380901 -1.783667 4288085770
13.258636 0.22351313 -1.7885863 4288085770
11.994934 0.46700048 -1.771948 4288085770
10.627014 0.48119354 -1.7673086 4288085770
9.4621582 0.49420834 -1.7633127 4288085770
8.4243164 0.50710249 -1.7580899 4288085770
7.5764465 0.52088165 -1.761516 4288085770
6.7605591 0.5335865 -1.7578915 4288085770
6.0446777 0.54621267 -1.7560881 4288085770
12.585907 0.69537163 -1.7623817 4288085770
5.4088135 0.55776644 -1.7541491 4288085770
11.17804 0.70460224 -1.75784 4288085770
4.8319397 0.57027149 -1.7530977 4288085770
9.9501648 0.71365499 -1.7509772 4288085770
4.321106 0.5827322 -1.7539283 4288085770
8.9443054 0.72457218 -1.7537044 4288085770
3.8462219 0.59515238 -1.7536947 4288085770
8.0074463 0.73438072 -1.7493149 4288085770
3.4163818 0.60653877 -1.7543875 4288085770
7.186554 0.74509525 -1.7467121 4288085770
3.0405273 0.61990166 -1.7589701 4288085770
6.4556885 0.75574207 -1.7459487 4288085770
2.660675 0.63122845 -1.7575737 4288085770
5.8138428 0.76630735 -1.745026 4288085770
2.3267822 0.64353418 -1.7590884 4288085770
5.2179565 0.7768321 -1.7440215 4288085770
2.0209351 0.65581989 -1.7615529 4288085770
4.690094 0.78830719 -1.7448889 4288085770
1.7210388 0.66808128 -1.7610067 4288085770
4.2211914 0.79973459 -1.7466511 4288085770
1.4541931 0.68033171 -1.7634016 4288085770
3.7783508 0.81212711 -1.7463597 4288085770
1.2053528 0.69255924 -1.7647644 4288085770
3.3684692 0.82248688 -1.7460233 4288085770
0.97348022 0.70577908 -1.7670902 4288085770
2.9966125 0.83482695 -1.747605 4288085770
0.74060059 0.717978 -1.7664243 4288085770
2.6607971 0.84713459 -1.749123 4288085770
0.52075195 0.72916651 -1.7657419 4288085770
2.3428955 0.85842514 -1.7506157 4288085770
0.30990601 0.74133921 -1.764037 4288085770
2.0540466 0.871696 -1.7530428 4288085770
0.13806152 0.75451708 -1.7682554 4288085770
1.7681885 0.88293648 -1.7514781 4288085770
-0.049835205 0.7666688 -1.7665094 4288085770
1.5183411 0.89517879 -1.7548422 4288085770
-0.22772217 0.77781105 -1.7647523 4288085770
1.2884521 0.90839624 -1.7571644 4288085770
-0.37954712 0.7909646 -1.7679349 4288085770
1.0625916 0.92160368 -1.7584792 4288085770
-0.54244995 0.8030858 -1.7651442 4288085770
0.85876465 0.93480349 -1.7617544 4288085770
-0.6913147 0.81520939 -1.7643281 4288085770
0.65689087 0.94798231 -1.7620264 4288085770
-0.81716919 0.82834578 -1.7684647 4288085770
0.44000244 0.95813322 -1.7563452 4288085770
-0.95404053 0.84045172 -1.7666274 4288085770
0.25512695 0.97028875 -1.7555934 4288085770
-1.0819092 0.8535552 -1.7657675 4288085770
0.087280273 0.98344278 -1.7568048 4288085770
-1.1937256 0.86666489 -1.7678787 4288085770
-0.072570801 0.99658251 -1.7570018 4288085770
-1.3045959 0.87976646 -1.7689885 4288085770
-0.22244263 1.0097198 -1.7581812 4288085770
-1.4014587 0.89387655 -1.7730659 4288085770
-0.36129761 1.0228543 -1.7603406 4288085770
-1.5123291 0.90595818 -1.7711824 4288085770
-0.51016235 1.0349569 -1.7565244 4288085770
-0.6300354 1.0490808 -1.7596434 4288085770
-0.75790405 1.0631919 -1.7597762 4288085770
-0.88772583 1.075284 -1.7569262 4288085770
-1.0046082 1.0883718 -1.7550462 4288085770
-1.1114502 1.1024694 -1.756142 4288085770
-1.2383728 1.1125245 -1.7483007 4288085770
-1.3262329 1.1286201 -1.7513486 4288085770
-1.4050903 1.1447191 -1.7563809 4288085770
-1.4909363 1.1597986 -1.7574323 4288085770
-1.4810486 3.4360118 -1.7000362 4288085770
-1.3828735 3.49089 -1.6954912 4288085770
-1.2616882 3.5587773 -1.6958178 4288085770
-1.1325073 3.6296668 -1.6971098 4288085770
-1.0033264 3.6975408 -1.6964227 4288085770
-0.87310791 3.7664075 -1.6947263 4288085770
-0.72793579 3.8412747 -1.6949638 4288085770
-0.53967285 3.9391694 -1.704969 4288085770
-0.40652466 4.0029931 -1.6973022 4288085770
-1.532959 3.417026 -1.7022506 4288085770
-0.24032593 4.0848413 -1.6974548 4288085770
-1.4197998 3.4679008 -1.6997064 4288085770
-0.072113037 4.1646733 -1.6956178 4288085770
-1.2846069 3.5297923 -1.7020487 4288085770
0.11608887 4.2535062 -1.6966842 4288085770
-1.1534119 3.5876651 -1.701425 4288085770
0.31033325 4.3453288 -1.69672 4288085770
-1.0172424 3.6465354 -1.7007858 4288085770
0.51751709 4.4391322 -1.6957198 4288085770
-0.85009766 3.7214208 -1.7069842 4288085770
0.7097168 4.5239215 -1.6908065 4288085770
-0.70291138 3.78128 -1.7063192 4288085770
0.94793701 4.6307235 -1.6936637 4288085770
-0.54971313 3.8431268 -1.7046298 4288085770
1.1591187 4.7194819 -1.6866902 4288085770
-0.40155029 3.8999581 -1.6999835 4288085770
1.419342 4.8312497 -1.6874746 4288085770
-0.2293396 3.9678063 -1.7012199 4288085770
1.6775818 4.9400058 -1.6862832 4288085770
-0.06817627 4.0266242 -1.6965371 4288085770
1.9307556 5.041739 -1.6811479 4288085770
0.12902832 4.1034646 -1.6996688 4288085770
2.2420654 5.1724668 -1.6827141 4288085770
0.33322144 4.1802907 -1.7017883 4288085770
2.5512695 5.2971749 -1.6813251 4288085770
0.51242065 4.2420859 -1.6960536 4288085770
2.8695068 5.4218621 -1.6779195 4288085770
0.72860718 4.3188891 -1.6961521 4288085770
3.2337646 5.5675416 -1.6792916 4288085770
0.9317627 4.3866754 -1.6923345 4288085770
3.5830078 5.6992002 -1.6757847 4288085770
1.1799927 4.4754748 -1.6962954 4288085770
3.9932861 5.8588367 -1.6769811 4288085770
1.4121704 4.5512481 -1.6943728 4288085770
4.3935547 6.0064406 -1.6722759 4288085770
1.6643982 4.6350179 -1.6943606 4288085770
4.8378296 6.1720395 -1.6723722 4288085770
1.9135742 4.7127748 -1.6923944 4288085770
5.3041077 6.3415971 -1.6694025 4288085770
2.1717529 4.7915187 -1.6894058 4288085770
5.8634338 6.5501304 -1.6750058 4288085770
2.4629822 4.8822513 -1.689278 4288085770
6.3686829 6.7266259 -1.6679205 4288085770
2.7572021 4.9709744 -1.6881582 4288085770
6.9780273 6.9440923 -1.670375 4288085770
3.057373 5.0576863 -1.6860417 4288085770
7.596344 7.157517 -1.6678404 4288085770
3.3945923 5.1573834 -1.686772 4288085770
8.2446594 7.3779054 -1.6642064 4288085770
3.7208252 5.2470717 -1.6845893 4288085770
8.9760132 7.6272416 -1.6632301 4288085770
4.0730286 5.34374 -1.6833137 4288085770
9.7924194 7.9055295 -1.6669081 4288085770
4.4442444 5.4443946 -1.6819776 4288085770
10.687805 8.2077389 -1.6692852 4288085770
4.8484802 5.5540385 -1.6835226 4288085770
5.2377014 5.650661 -1.6801816 4288085770
5.670929 5.7622685 -1.6806625 4288085770
6.1051025 5.865849 -1.6771957 4288085770
6.5803528 5.9824224 -1.6775688 4288085770
7.0865784 6.1029639 -1.6778604 4288085770
7.6208191 6.2284875 -1.6790684 4288085770
8.1820679 6.3579869 -1.6802026 4288085770
8.7703552 6.4894605 -1.6812757 4288085770
9.3976135 6.627913 -1.6842328 4288085770
10.053864 6.7663245 -1.6851391 4288085770
10.740112 6.9097142 -1.6869591 4288085770
11.394348 7.029098 -1.6829973 4288085770
12.162598 7.1804185 -1.6856192 4288085770
12.866821 7.2997394 -1.6795703 4288085770
5.0410461 4.1049981 -0.8359431 4293729569
5.0760498 4.0307527 -0.80538213 4293729569
5.1700745 3.9744792 -0.77859533 4293729569
5.321106 3.9341874 -0.75660074 4293729569
5.4541626 3.8869061 -0.73368442 4293729569
5.5531921 3.8276496 -0.70990932 4293729569
5.6512146 3.7663999 -0.68714964 4293729569
5.7632446 3.7081513 -0.666345 4293729569
5.8212891 3.634932 -0.64273655 4293729569
5.8292847 3.5457511 -0.61832464 4293729569
5.840271 3.4575744 -0.59490025 4293729569
5.8843079 3.3783898 -0.57435715 4293729569
5.8973083 3.2902255 -0.55292976 4293729569
6.050354 3.235992 -0.54002583 4293729569
6.0083618 3.13588 -0.51877582 4293729569
6.0723572 3.0577073 -0.50319111 4293729569
6.1404114 2.9795403 -0.48859894 4293729569
6.1804504 2.8954053 -0.47509658 4293729569
6.2744751 2.8192344 -0.46344578 4293729569
6.2644958 2.7251382 -0.44909894 4293729569
6.3485413 2.6469951 -0.44047868 4293729569
6.7015991 2.613668 -0.44008219 4293729569
7.1757202 2.5952554 -0.44337142 4293729569
7.8118591 2.5947423 -0.4532541 4293729569
13.109222 -2.8010647 -1.8470553 4288085770
10.310822 -2.4244449 -0.82345855 4293729569
12.407318 -2.8124347 -1.8473727 4288085770
10.078979 -2.4939322 -0.86933434 4293729569
10.221436 -2.5634689 -1.6975678 4293729569
9.927124 -2.5724673 -0.91912997 4293729569
9.897583 -2.6130021 -1.7244726 4293729569
9.2423096 -2.5537176 -0.93921554 4293729569
9.6017151 -2.6635461 -1.7533346 4293729569
9.3043823 -2.6643672 -1.0008477 4293729569
9.8188477 -2.8061891 -1.8369075 4288085770
9.5325317 -2.8080866 -1.0744077 4293729569
9.2099609 -2.7916775 -1.8318864 4288085770
8.6660767 -2.7831986 -1.8307911 4288085770
8.1652222 -2.7747462 -1.8316199 4288085770
7.6513672 -2.7563081 -1.8284045 4288085770
7.2024841 -2.7468908 -1.8311352 4288085770
6.7216492 -2.72349 -1.8268279 4288085770
6.2757568 -2.7021146 -1.8234726 4288085770
13.369415 -4.4020996 -1.8953124 4288085770
5.8778992 -2.686743 -1.8260726 4288085770
12.36264 -4.2802391 -1.8882765 4288085770
5.4820862 -2.6673932 -1.8256422 4288085770
11.524872 -4.1864786 -1.8891293 4288085770
5.1192017 -2.6480608 -1.827154 4288085770
10.670074 -4.0757575 -1.8818985 4288085770
4.7443542 -2.6227429 -1.8246464 4288085770
9.8293152 -3.9590826 -1.8696026 4288085770
4.4244995 -2.6064293 -1.8291022 4288085770
9.0285034 -3.8424511 -1.8562366 4288085770
4.094635 -2.5841334 -1.8295354 4288085770
8.390686 -3.7598877 -1.8548108 4288085770
3.7958069 -2.5638514 -1.8319267 4288085770
7.7588501 -3.6713495 -1.850334 4288085770
3.4819336 -2.5375769 -1.8313049 4288085770
7.1660767 -3.5858474 -1.8458086 4288085770
3.2070923 -2.5173111 -1.8346547 4288085770
6.6302795 -3.5083773 -1.8442365 4288085770
2.932251 -2.4940593 -1.8359841 4288085770
6.1064758 -3.428931 -1.8406295 4288085770
2.6694031 -2.4708114 -1.8382922 4288085770
5.6336365 -3.3585188 -1.838993 4288085770
2.4225464 -2.448571 -1.8415788 4288085770
5.1718445 -3.284122 -1.8363103 4288085770
2.1586914 -2.4183559 -1.838842 4288085770
4.7700195 -3.2237542 -1.8376151 4288085770
1.9368591 -2.3971252 -1.8440911 4288085770
4.3542175 -3.1534069 -1.8338779 4288085770
1.7129822 -2.3729193 -1.8453239 4288085770
4.0184021 -3.1040652 -1.8401402 4288085770
1.486145 -2.3447182 -1.8455349 4288085770
3.6565552 -3.041754 -1.8383616 4288085770
1.2683105 -2.3165238 -1.8457302 4288085770
3.3277588 -2.9854534 -1.8395652 4288085770
1.0544739 -2.2873409 -1.8449119 4288085770
3.0319519 -2.9371548 -1.8447634 4288085770
0.84362793 -2.2551684 -1.843068 4288085770
2.7320862 -2.8838799 -1.8459359 4288085770
0.67877197 -2.2379766 -1.8502434 4288085770
2.4362488 -2.8266227 -1.8450741 4288085770
0.48989868 -2.2088089 -1.8503813 4288085770
2.1664429 -2.7763746 -1.8462135 4288085770
0.28103638 -2.1706636 -1.8444935 4288085770
1.8936462 -2.7221446 -1.8443311 4288085770
0.1262207 -2.1495018 -1.8486246 4288085770
1.6577759 -2.6769145 -1.8474444 4288085770
-0.065643311 -2.1123729 -1.842714 4288085770
1.401947 -2.6217072 -1.8445255 4288085770
-0.24047852 -2.0792398 -1.8397995 4288085770
1.1681519 -2.5724995 -1.8446079 4288085770
-0.3873291 -2.05509 -1.8428966 4288085770
0.94628906 -2.5243106 -1.8436762 4288085770
-0.55020142 -2.0219679 -1.8399612 4288085770
0.73748779 -2.4781179 -1.8447345 4288085770
-0.68502808 -1.9978364 -1.8420366 4288085770
0.53564453 -2.4319468 -1.8437809 4288085770
-0.82089233 -1.9717047 -1.8441006 4288085770
0.3458252 -2.3877726 -1.8448194 4288085770
-0.96871948 -1.9395962 -1.8411454 4288085770
0.1579895 -2.3426135 -1.8438474 4288085770
-1.0905457 -1.9154706 -1.8441981 4288085770
-0.021850586 -2.2984622 -1.842868 4288085770
-1.2154236 -1.8883557 -1.8452362 4288085770
-0.20770264 -2.249332 -1.8378664 4288085770
-1.3502808 -1.856266 -1.8412582 4288085770
-0.35250854 -2.2151721 -1.8428918 4288085770
-1.4741211 -1.8261714 -1.8392743 4288085770
-0.50735474 -2.1740363 -1.8428887 4288085770
-0.65820312 -2.1339049 -1.8428851 4288085770
-0.80505371 -2.0927835 -1.8418678 4288085770
-0.94085693 -2.0546656 -1.8418509 4288085770
-1.0747375 -2.0165555 -1.8408307 4288085770
-1.200531 -1.9794405 -1.841803 4288085770
-1.326416 -1.9413381 -1.8407689 4288085770
-1.4532471 -1.9002552 -1.8367161 4288085770
-1.4758606 0.26475859 -1.7768072 4288085770
-1.3657227 0.27664232 -1.7755197 4288085770
-1.2355652 0.28853416 -1.7781957 4288085770
-1.1134338 0.30040073 -1.7758862 4288085770
-0.98431396 0.31226778 -1.7745637 4288085770
-0.85018921 0.32412958 -1.7732316 4288085770
-0.70803833 0.33497763 -1.7708915 4288085770
-0.53686523 0.3458519 -1.7764977 4288085770
-1.4727783 0.37176609 -1.7850443 4288085770
-0.37875366 0.35769176 -1.7751216 4288085770
-1.3606567 0.38163471 -1.7817668 4288085770
-0.21463013 0.36951923 -1.7727336 4288085770
-1.2415161 0.39049721 -1.7784826 4288085770
-0.048461914 0.38132954 -1.7683421 4288085770
-1.116394 0.40034723 -1.7741803 4288085770
0.15368652 0.39216328 -1.7718903 4288085770
-0.97528076 0.4102149 -1.7748486 4288085770
0.33578491 0.4039526 -1.7664691 4288085770
-0.82107544 0.41907978 -1.7764994 4288085770
0.56695557 0.41576433 -1.7709571 4288085770
-0.66497803 0.42892694 -1.7761394 4288085770
0.78805542 0.42654514 -1.7694701 4288085770
-0.50387573 0.43776321 -1.7747773 4288085770
1.0262146 0.43830919 -1.7679447 4288085770
-0.35070801 0.44658041 -1.7694296 4288085770
1.2893372 0.44907141 -1.7693795 4288085770
-0.15155029 0.45541525 -1.7729963 4288085770
1.5464783 0.46080542 -1.7658182 4288085770
0.058563232 0.4652462 -1.7775365 4288085770
1.8326111 0.47152567 -1.7642106 4288085770
0.22866821 0.47203445 -1.7701703 4288085770
2.1357727 0.48322344 -1.7615641 4288085770
0.48483276 0.4818573 -1.7796243 4288085770
2.4548645 0.49390459 -1.7588946 4288085770
0.6869812 0.48962212 -1.773192 4288085770
2.8170166 0.5055604 -1.7581383 4288085770
0.92907715 0.49739552 -1.7736856 4288085770
3.2121887 0.51719284 -1.7583205 4288085770
1.1642151 0.50413656 -1.7681984 4288085770
3.6312866 0.52879477 -1.7574583 4288085770
1.4403687 0.51187992 -1.768628 4288085770
4.0844116 0.53936625 -1.7565395 4288085770
1.7225037 0.51859665 -1.7660533 4288085770
4.5845642 0.55089283 -1.7555262 4288085770
2.0276184 0.52630472 -1.7654289 4288085770
5.1287231 0.56237984 -1.7544309 4288085770
2.3577576 0.53198433 -1.7637714 4288085770
5.7398376 0.5738163 -1.7552112 4288085770
2.6948853 0.53864241 -1.760094 4288085770
6.4089661 0.58519077 -1.7548836 4288085770
3.1069946 0.5442791 -1.7632841 4288085770
7.1591187 0.59748602 -1.7533983 4288085770
3.5081482 0.54987764 -1.7594937 4288085770
7.9953003 0.6097188 -1.754753 4288085770
3.9662781 0.55445051 -1.7596046 4288085770
8.9674377 0.62183332 -1.7568547 4288085770
4.4534302 0.55899 -1.7586607 4288085770
10.081573 0.63583326 -1.7616786 4288085770
5.0055542 0.5634675 -1.7575959 4288085770
11.321716 0.64768982 -1.7622813 4288085770
5.5956421 0.56591797 -1.7574741 4288085770
12.851837 0.66233778 -1.7713252 4288085770
6.2938232 0.56929445 -1.7611438 4288085770
7.0309448 0.57061291 -1.7617539 4288085770
7.8510742 0.57084799 -1.761216 4288085770
8.7842102 0.57100439 -1.7644678 4288085770
9.860321 0.56903362 -1.7684656 4288085770
11.090454 0.56492615 -1.7731897 4288085770
12.494568 0.55864239 -1.7756027 4288085770
3.8668213 -4.8575025 -0.031837106 4293729569
3.8950806 -4.8012543 -0.073393941 4293729569
3.9633484 -4.762042 -0.11498606 4293729569
6.4919128 -5.1326618 -0.53240025 4293729569
6.4932251 -5.0374217 -0.56874454 4293729569
12.050232 -5.3571277 -0.36266363 4293729569
12.030151 -5.3367362 -1.3065819 4293729569
12.059509 -5.2199779 -0.38670456 4293729569
9.583374 -2.7858694 -1.2500416 4293729569
10.039886 -2.7825909 -0.4670769 4293729569
9.5525818 -2.6618974 -1.2422529 4293729569
10.047089 -2.6646349 -0.46225226 4293729569
9.7018127 -2.5710075 -1.2473265 4293729569
10.031036 -2.5062089 -1.2642144 4293729569
13.085815 0.83532238 -1.7634209 4288085770
11.748962 0.86757183 -1.7581328 4288085770
10.61615 0.89764786 -1.7564121 4288085770
9.5932312 0.92560863 -1.7534651 4288085770
8.6633911 0.94946003 -1.7473418 4288085770
7.8495178 0.97320318 -1.7419645 4288085770
7.1806946 0.99886465 -1.7452558 4288085770
6.533844 1.0214725 -1.7435199 4288085770
5.9699707 1.0430107 -1.7436093 4288085770
12.472443 1.4596925 -1.7384251 4288085770
5.4131165 1.0635166 -1.7396904 4288085770
11.301575 1.4667864 -1.7339495 4288085770
4.9552612 1.0859723 -1.7425407 4288085770
10.29071 1.4767513 -1.733102 4288085770
4.5113831 1.1063795 -1.7403747 4288085770
9.3628235 1.4846082 -1.7280871 4288085770
4.1045227 1.1257658 -1.7401341 4288085770
8.5529785 1.4943619 -1.7247993 4288085770
3.7436829 1.1461134 -1.7407862 4288085770
7.8460999 1.5060353 -1.7242721 4288085770
3.3928528 1.1654434 -1.7404228 4288085770
7.2022095 1.5176396 -1.722607 4288085770
3.0780029 1.1847448 -1.7409812 4288085770
6.6143494 1.5301967 -1.7218126 4288085770
2.7841492 1.2040281 -1.7414933 4288085770
6.0915222 1.5437031 -1.7228683 4288085770
2.5112915 1.2242956 -1.7429525 4288085770
5.5926514 1.5561657 -1.7208792 4288085770
2.2524414 1.2435489 -1.7443887 4288085770
5.1717834 1.5725851 -1.7236909 4288085770
2.0125732 1.2617769 -1.7447895 4288085770
4.7559204 1.5859804 -1.7235123 4288085770
1.7927246 1.2819996 -1.7471327 4288085770
4.3640442 1.5993309 -1.7202817 4288085770
1.5939026 1.3032084 -1.7504233 4288085770
4.0112 1.6136637 -1.7199584 4288085770
1.3790283 1.3193922 -1.7477838 4288085770
3.6943359 1.6289754 -1.7215492 4288085770
1.1661377 1.3355613 -1.7431399 4288085770
3.3914795 1.644259 -1.72111 4288085770
0.9992981 1.3567452 -1.7473606 4288085770
3.1226501 1.6625299 -1.723575 4288085770
0.83847046 1.3769107 -1.7495748 4288085770
2.8557434 1.6777792 -1.7230567 4288085770
0.66461182 1.393054 -1.7468451 4288085770
2.6279297 1.6980162 -1.7264179 4288085770
0.52972412 1.4152064 -1.7509891 4288085770
2.3980713 1.7142353 -1.7268115 4288085770
0.38088989 1.4323392 -1.7501978 4288085770
2.1871948 1.7314348 -1.7271563 4288085770
0.24002075 1.4504647 -1.7493819 4288085770
1.9833679 1.7486286 -1.727486 4288085770
0.090148926 1.4665713 -1.7446007 4288085770
1.8045044 1.7688107 -1.7297403 4288085770
-0.037689209 1.484683 -1.7437564 4288085770
1.6056213 1.7839799 -1.7270728 4288085770
-0.15655518 1.5037932 -1.7438864 4288085770
1.4537964 1.8061485 -1.7312542 4288085770
-0.2644043 1.5248985 -1.7449778 4288085770
1.2779236 1.8222947 -1.7285296 4288085770
-0.35421753 1.5480146 -1.7500156 4288085770
1.1070862 1.837429 -1.7248009 4288085770
-0.47109985 1.5650964 -1.7461549 4288085770
0.97518921 1.8605719 -1.7279319 4288085770
-0.57894897 1.5831747 -1.7432677 4288085770
0.82736206 1.8776898 -1.7251388 4288085770
-0.66778564 1.6032624 -1.7443246 4288085770
0.69549561 1.8978062 -1.7242903 4288085770
-0.76971436 1.6213341 -1.7414242 4288085770
0.57565308 1.9189243 -1.7254082 4288085770
-0.8494873 1.6424131 -1.7424539 4288085770
0.46380615 1.9410343 -1.7265025 4288085770
-0.93838501 1.6614804 -1.7405185 4288085770
0.34393311 1.9591312 -1.7246412 4288085770
-1.025238 1.6795402 -1.7375847 4288085770
0.23910522 1.9812288 -1.7247199 4288085770
-1.1021423 1.699595 -1.7356161 4288085770
0.14224243 2.0033236 -1.7257808 4288085770
-1.170929 1.721664 -1.7366151 4288085770
0.041381836 2.0243955 -1.7228576 4288085770
-1.2507935 1.7397013 -1.7316667 4288085770
-0.044464111 2.0474801 -1.7238873 4288085770
-1.3026733 1.7637715 -1.7356151 4288085770
-0.13534546 2.0695558 -1.7229353 4288085770
-1.3625183 1.7868242 -1.735588 4288085770
-0.20916748 2.0946355 -1.7249252 4288085770
-1.4193726 1.8098803 -1.7365543 4288085770
-0.28500366 2.1187024 -1.7249266 4288085770
-1.4631653 1.8359356 -1.7394716 4288085770
-0.35986328 2.1427636 -1.7239255 4288085770
-1.52005 1.8579783 -1.7384447 4288085770
-0.42672729 2.1688218 -1.7238935 4288085770
-0.49856567 2.1908727 -1.7218996 4288085770
-0.55841064 2.2169251 -1.7218517 4288085770
-0.62225342 2.2409673 -1.7198266 4288085770
-0.67510986 2.2690187 -1.7207502 4288085770
-0.73397827 2.2930484 -1.7177142 4288085770
-0.7828064 2.3210912 -1.7176286 4288085770
-0.8286438 2.3501287 -1.7175299 4288085770
-0.8664856 2.3801579 -1.7174066 4288085770
-0.91537476 2.4071794 -1.7143282 4288085770
-0.94717407 2.439218 -1.7161778 4288085770
-0.98706055 2.4672294 -1.7130729 4288085770
-1.0209045 2.4982486 -1.7119337 4288085770
-1.0537415 2.5292611 -1.7097927 4288085770
-1.0765686 2.562283 -1.7106158 4288085770
-1.1014099 2.5962939 -1.7094365 4288085770
-1.116272 2.633307 -1.7102147 4288085770
-1.138092 2.6673093 -1.7080287 4288085770
-1.1409302 2.7093244 -1.7107459 4288085770
-1.1687927 2.7403102 -1.7055939 4288085770
-1.1696167 2.7823176 -1.707307 4288085770
-1.1734314 2.8233218 -1.708033 4288085770
-1.1842651 2.8603044 -1.7048024 4288085770
-1.177124 2.9063029 -1.7064701 4288085770
-1.1739502 2.9502931 -1.7061607 4288085770
-1.1637268 2.9972892 -1.7078148 4288085770
-1.1716003 3.035255 -1.7025706 4288085770
-1.1594238 3.0822272 -1.7012216 4288085770
-1.1522827 3.1271996 -1.6988977 4288085770
-1.1340637 3.1771731 -1.6985146 4288085770
-1.1189575 3.2261367 -1.6961457 4288085770
-1.1017761 3.2760978 -1.693765 4288085770
-1.0725403 3.3320603 -1.6933168 4288085770
-1.0374146 3.3900247 -1.6938418 4288085770
-1.0082092 3.4459729 -1.6913937 4288085770
-0.96603394 3.5089307 -1.6918687 4288085770
-0.92282104 3.5708795 -1.6913482 4288085770
-0.87765503 3.635819 -1.6898032 4288085770
-0.82446289 3.702765 -1.6902264 4288085770
-0.76226807 3.7767072 -1.6915816 4288085770
-0.70803833 3.844625 -1.6879958 4288085770
-0.61383057 3.936583 -1.6961571 4288085770
-0.55264282 4.0094867 -1.6915218 4288085770
-0.47644043 4.0904021 -1.6907977 4288085770
-0.38922119 4.17732 -1.6920084 4288085770
-0.30801392 4.2612176 -1.689253 4288085770
-1.5346069 3.6074681 -1.6994518 4288085770
-0.20080566 4.3601222 -1.6913372 4288085770
-1.4703674 3.6733899 -1.6978568 4288085770
-0.080535889 4.4670272 -1.6953379 4288085770
-1.387146 3.7513251 -1.7011374 4288085770
0.014678955 4.5578952 -1.690503 4288085770
-1.3269958 3.8142228 -1.6955725 4288085770
0.14694214 4.6727815 -1.6934222 4288085770
-1.2427673 3.8911309 -1.6948575 4288085770
0.24716187 4.7656255 -1.6855623 4288085770
-1.1175537 3.9950776 -1.7058672 4288085770
0.38137817 4.8794818 -1.6844834 4288085770
-1.0443726 4.0639615 -1.7002319 4288085770
0.49856567 4.9823146 -1.677518 4288085770
-0.93713379 4.1538606 -1.701377 4288085770
0.65481567 5.1091485 -1.6763014 4288085770
-0.83892822 4.2367406 -1.6985894 4288085770
0.82913208 5.2469783 -1.6769687 4288085770
-0.72970581 4.3266158 -1.69673 4288085770
0.99533081 5.3787885 -1.6736954 4288085770
-0.60848999 4.4234939 -1.6967958 4288085770
1.1846008 5.52459 -1.6722749 4288085770
-0.48526001 4.5193553 -1.6948637 4288085770
1.3879089 5.6783786 -1.6707686 4288085770
-0.34902954 4.6242232 -1.6958412 4288085770
1.6001587 5.8371491 -1.6682075 4288085770
-0.22183228 4.7200532 -1.6898998 4288085770
1.8204651 5.9999118 -1.6656011 4288085770
-0.063598633 4.836906 -1.6917461 4288085770
2.0697632 6.1806455 -1.6628073 4288085770
0.074615479 4.9377179 -1.6847459 4288085770
2.3570862 6.3843713 -1.664771 4288085770
0.24389648 5.0585399 -1.6835397 4288085770
2.6334229 6.5800653 -1.6598142 4288085770
0.40710449 5.1723466 -1.6793944 4288085770
2.9527588 6.8017402 -1.6585835 4288085770
0.60739136 5.3111501 -1.6799957 4288085770
3.2941284 7.0353961 -1.657221 4288085770
0.80865479 5.446939 -1.6786152 4288085770
3.6524658 7.279017 -1.6537524 4288085770
1.0328979 5.5957112 -1.6780943 4288085770
4.0168152 7.5226054 -1.6462697 4288085770
1.2601929 5.7454686 -1.6755594 4288085770
4.4842529 7.8331656 -1.6490995 4288085770
1.5044556 5.9032102 -1.673932 4288085770
4.9287109 8.1246796 -1.6421095 4288085770
1.7667542 6.0709462 -1.6731952 4288085770
2.0470581 6.2476535 -1.6713566 4288085770
2.3383484 6.4283462 -1.668466 4288085770
2.6567078 6.6240172 -1.6664118 4288085770
2.9960327 6.8296733 -1.6652423 4288085770
3.3743591 7.0572953 -1.6648346 4288085770
3.7486877 7.2768931 -1.6604904 4288085770
4.1480408 7.5084548 -1.6540076 4288085770
4.62146 7.7839885 -1.6540581 4288085770
5.1289062 8.0764923 -1.6549155 4288085770
13.095947 -1.2484679 -1.8224705 4288085770
12.133057 -1.2745218 -1.820891 4288085770
11.322174 -1.3036833 -1.8259772 4288085770
10.556274 -1.3278961 -1.8299257 4288085770
9.7103577 -1.334125 -1.8199404 4288085770
8.9644775 -1.3404264 -1.8137223 4288085770
8.3265991 -1.35179 -1.8142859 4288085770
7.7136841 -1.357193 -1.8127512 4288085770
7.1298523 -1.359632 -1.810129 4288085770
6.5679016 -1.3591075 -1.805436 4288085770
13.369202 -2.2557323 -1.8405198 4288085770
6.0460205 -1.3556228 -1.80063 4288085770
12.289368 -2.208653 -1.840726 4288085770
5.5941772 -1.3571692 -1.8016936 4288085770
11.280487 -2.1616533 -1.8397671 4288085770
5.1482849 -1.3547354 -1.800717 4288085770
10.358673 -2.1157563 -1.8366121 4288085770
4.7434082 -1.3523302 -1.8016447 4288085770
9.4538269 -2.0619149 -1.8273641 4288085770
4.3505554 -1.3489366 -1.8025376 4288085770
8.7009888 -2.0241556 -1.828869 4288085770
3.9837036 -1.3435769 -1.8023568 4288085770
7.9671631 -1.9784689 -1.822276 4288085770
3.639801 -1.3392324 -1.8031293 4288085770
7.3003235 -1.9378242 -1.8195606 4288085770
3.3079224 -1.3319001 -1.8038536 4288085770
6.7034912 -1.9022293 -1.8197151 4288085770
2.9880676 -1.3235888 -1.8035434 4288085770
6.1236572 -1.8626785 -1.8158039 4288085770
2.6752319 -1.3132963 -1.8012036 4288085770
5.6138 -1.8281798 -1.8147627 4288085770
2.4083557 -1.3060102 -1.8047765 4288085770
5.1469421 -1.796711 -1.8156415 4288085770
2.1534729 -1.2997446 -1.8073286 4288085770
4.6950989 -1.7642703 -1.8144788 4288085770
1.9226074 -1.295476 -1.8138376 4288085770
4.2832642 -1.733851 -1.8162361 4288085770
1.6507568 -1.2792387 -1.8093623 4288085770
3.9104309 -1.707458 -1.819929 4288085770
1.4238892 -1.2699995 -1.8118287 4288085770
3.516571 -1.6720972 -1.8156112 4288085770
1.2010498 -1.2597795 -1.8122793 4288085770
3.1907654 -1.6477513 -1.8192083 4288085770
0.9871521 -1.2475619 -1.813696 4288085770
2.862915 -1.6194229 -1.8197831 4288085770
0.79034424 -1.2373528 -1.8160859 4288085770
2.5620728 -1.5931101 -1.8223087 4288085770
0.59246826 -1.2251515 -1.8174649 4288085770
2.2762146 -1.566812 -1.8247989 4288085770
0.37359619 -1.2059822 -1.8108464 4288085770
1.9953613 -1.5395384 -1.8242713 4288085770
0.19772339 -1.1947956 -1.813181 4288085770
1.7184753 -1.5102835 -1.8217214 4288085770
0.022888184 -1.180624 -1.8134931 4288085770
1.4676514 -1.4840407 -1.8211304 4288085770
-0.13198853 -1.1694522 -1.8167788 4288085770
1.2297974 -1.4577985 -1.8225094 4288085770
-0.2918396 -1.1552958 -1.8170561 4288085770
0.9949646 -1.4295864 -1.819868 4288085770
-0.46170044 -1.1381497 -1.8143364 4288085770
0.78710938 -1.4063663 -1.8221966 4288085770
-0.59552002 -1.1279855 -1.8195797 4288085770
0.58023071 -1.3811698 -1.821505 4288085770
-0.74841309 -1.1108561 -1.816816 4288085770
0.36941528 -1.3529882 -1.8178085 4288085770
-0.89227295 -1.0947294 -1.8150438 4288085770
0.17355347 -1.3268075 -1.8160905 4288085770
-1.025116 -1.0795999 -1.8152517 4288085770
-0.0092773438 -1.301641 -1.8143488 4288085770
-1.1519775 -1.0654693 -1.8164526 4288085770
-0.1741333 -1.2794657 -1.8165849 4288085770
-1.2698364 -1.0523419 -1.8186394 4288085770
-0.34197998 -1.2553134 -1.8148149 4288085770
-1.4096985 -1.0312529 -1.8118242 4288085770
-0.50582886 -1.229167 -1.8130223 4288085770
-1.5005493 -1.0221119 -1.8199743 4288085770
-0.64068604 -1.2110066 -1.8172148 4288085770
-0.78756714 -1.1868706 -1.8163959 4288085770
-0.92236328 -1.1647391 -1.8165616 4288085770
-1.0812683 -1.1366372 -1.8087443 4288085770
-1.197113 -1.1165047 -1.8118795 4288085770
-1.3339844 -1.0904121 -1.806024 4288085770
-1.4188232 -1.0782571 -1.8171395 4288085770
-1.5326233 -1.0561404 -1.8182567 4288085770
-1.4909363 0.83973932 -1.7640113 4288085770
-1.3617554 0.85462523 -1.7675956 4288085770
-1.2597046 0.86546469 -1.7602731 4288085770
-1.1225281 0.87933636 -1.7628454 4288085770
-0.99740601 0.89218569 -1.7604531 4288085770
-0.8522644 0.90604019 -1.7620054 4288085770
-0.71109009 0.91887999 -1.7605745 4288085770
-0.54995728 0.93271303 -1.7610885 4288085770
-1.4189453 0.87668943 -1.7745661 4288085770
-0.39984131 0.94552803 -1.7576355 4288085770
-1.303833 0.88553524 -1.7702252 4288085770
-0.22268677 0.95935106 -1.7591103 4288085770
-1.1886597 0.89337683 -1.7648903 4288085770
-0.041534424 0.9731555 -1.7585756 4288085770
-1.0595398 0.90222025 -1.7625152 4288085770
0.14257812 0.9869566 -1.7580336 4288085770
-0.918396 0.91107416 -1.7631108 4288085770
0.33670044 1.0007405 -1.7564672 4288085770
-0.76928711 0.92091846 -1.7636803 4288085770
0.56188965 1.0155258 -1.7598187 4288085770
-0.61911011 0.92875004 -1.7622608 4288085770
0.80206299 1.0313029 -1.7641274 4288085770
-0.4630127 0.93757343 -1.7608203 4288085770
1.0291748 1.0440464 -1.7614876 4288085770
-0.296875 0.94538546 -1.7593619 4288085770
1.2683105 1.057776 -1.7588118 4288085770
-0.10275269 0.95521021 -1.763822 4288085770
1.5214233 1.0704927 -1.7561089 4288085770
0.083374023 0.96300316 -1.7623152 4288085770
1.7885742 1.0831861 -1.7523721 4288085770
0.27651978 0.97079468 -1.7617911 4288085770
2.0806885 1.0968752 -1.7515677 4288085770
0.48165894 0.97857428 -1.761238 4288085770
2.4028625 1.1115322 -1.7506841 4288085770
0.6947937 0.98533916 -1.759672 4288085770
2.7299805 1.1251636 -1.7467943 4288085770
0.92694092 0.99209023 -1.7590598 4288085770
3.078125 1.1377735 -1.7428607 4288085770
1.1700439 0.99883699 -1.7594212 4288085770
3.4612427 1.1523657 -1.7418283 4288085770
1.4201965 1.0045552 -1.7567719 4288085770
3.8903809 1.1669111 -1.7406849 4288085770
1.6983337 1.0102658 -1.7570544 4288085770
4.3535156 1.1824279 -1.7404522 4288085770
1.9794617 1.0149579 -1.7553369 4288085770
4.8406982 1.1979046 -1.7381603 4288085770
2.2996216 1.0206304 -1.7565175 4288085770
5.3928223 1.2133355 -1.7387112 4288085770
2.6087036 1.0232821 -1.7527453 4288085770
6.0059814 1.230701 -1.7391003 4288085770
2.9398499 1.0259013 -1.7479192 4288085770
6.6340942 1.2460308 -1.7364665 4288085770
3.3319702 1.0295053 -1.7499388 4288085770
7.3362732 1.2612901 -1.7346529 4288085770
3.7250977 1.0310822 -1.7479686 4288085770
8.1273804 1.2784643 -1.73361 4288085770
4.1622314 1.0326242 -1.7478918 4288085770
9.0485535 1.298521 -1.735231 4288085770
4.635376 1.0331306 -1.7477337 4288085770
10.089691 1.3194656 -1.7385544 4288085770
5.1514893 1.0325975 -1.7484783 4288085770
11.333862 1.345253 -1.7493507 4288085770
5.6925964 1.0300264 -1.7471756 4288085770
12.609009 1.3639135 -1.7461191 4288085770
6.3047485 1.0273871 -1.7467004 4288085770
6.9998779 1.024693 -1.7510234 4288085770
7.7250061 1.0169349 -1.7503067 4288085770
8.5440979 1.0101004 -1.752355 4288085770
9.4432068 0.99815989 -1.751242 4288085770
10.468353 0.98612213 -1.7548231 4288085770
11.647491 0.96993542 -1.7600566 4288085770
12.998627 0.95058441 -1.7668921 4288085770
5.014679 -7.3778591 -0.8068701 4293729569
5.1119385 -7.39151 -0.87472022 4293729569
0.99984741 -4.5764217 -0.68988788 4293729569
0.97610474 -4.5201759 -0.7235657 4293729569
5.5924072 -7.3988056 -1.2065738 4293729569
5.6986694 -7.3974795 -1.2723006 4293729569
5.7969971 -7.3871517 -1.3369862 4293729569
5.9312439 -7.3958426 -1.4047111 4293729569
1.0143738 -4.3250847 -0.8951484 4293729569
6.2749329 -7.3963399 -0.79284346 4293729569
6.1828308 -7.3922257 -1.5370611 4293729569
6.41922 -7.398088 -0.85349619 4293729569
6.3381348 -7.4019246 -1.6067406 4293729569
2.4903564 -5.0103917 -0.63810527 4293729569
2.4806519 -5.0418077 -1.1683537 4293729569
2.4606018 -4.9311457 -0.67064273 4293729569
2.4579163 -4.9675832 -1.1989077 4293729569
2.4978638 -4.8899574 -0.70527089 4293729569
2.4781799 -4.9173765 -1.2335168 4293729569
2.552124 -4.8577785 -0.7409178 4293729569
2.5324402 -4.8861847 -1.2711705 4293729569
7.7703552 -7.7062283 -1.1962212 4293729569
2.6257019 -4.875 -1.3138624 4293729569
5.6462402 -6.4860992 -1.7732602 4293729569
5.3666382 -6.2438407 -1.7683145 4293729569
5.0839844 -6.0026002 -1.7603842 4293729569
4.8143311 -5.7723804 -1.7514957 4293729569
4.5436707 -5.5451856 -1.7386304 4293729569
4.3549805 -5.3630157 -1.7348658 4293729569
4.1732788 -5.1868606 -1.7301244 4293729569
3.8640747 -4.9077601 -1.1039902 4293729569
3.9805908 -5.0077138 -1.7223901 4293729569
3.8623657 -4.8266172 -1.1254445 4293729569
3.7618713 -4.8175869 -1.7076463 4293729569
3.8926086 -4.7604895 -1.1499213 4293729569
3.6851196 -4.6994686 -1.7140371 4293729569
3.9538574 -4.7093863 -1.1754221 4293729569
3.6223755 -4.5893564 -1.7214469 4293729569
8.5541077 -6.78269 -1.7030171 4293729569
3.554657 -4.4782529 -1.7268625 4293729569
8.4104309 -6.6004944 -1.7101406 4293729569
3.4788818 -4.3631682 -1.7282711 4293729569
8.2377625 -6.405302 -1.7122477 4293729569
3.4141235 -4.2540951 -1.7296931 4293729569
8.0830994 -6.2211285 -1.7143849 4293729569
3.3883667 -4.1630216 -1.7371398 4293729569
7.9344177 -6.0409751 -1.7145344 4293729569
3.5076294 -4.1359401 -1.768659 4293729569
7.8297119 -5.8828473 -1.7177237 4293729569
3.7168579 -4.1468649 -1.8132123 4293729569
6.4981995 -5.2074127 -1.5744616 4293729569
3.9300537 -4.1537876 -1.8587285 4288085770
6.5254517 -5.1163497 -1.5887762 4293729569
3.9922791 -4.0957403 -1.8761798 4288085770
6.6696777 -5.0723286 -1.6151186 4293729569
3.9215393 -3.9827077 -1.8705896 4288085770
7.270874 -5.2084308 -1.694544 4293729569
3.8537292 -3.8716991 -1.8620058 4288085770
7.4411316 -5.164432 -1.7218219 4293729569
3.7739868 -3.7566903 -1.8514243 4288085770
7.4013672 -5.0403924 -1.7220799 4293729569
3.7662048 -3.6716838 -1.8518673 4288085770
7.4066162 -4.9353795 -1.7253548 4293729569
3.7624207 -3.587688 -1.8513068 4288085770
7.4088745 -4.8263712 -1.72761 4293729569
3.7355957 -3.4967022 -1.8457566 4288085770
7.4360962 -4.7293825 -1.7308844 4293729569
3.7298279 -3.4147179 -1.8432146 4288085770
7.464325 -4.6314087 -1.7321497 4293729569
3.73703 -3.3357408 -1.8416609 4288085770
7.4785767 -4.5284328 -1.7314159 4293729569
3.7662048 -3.2647734 -1.8421069 4288085770
7.5327759 -4.4384789 -1.7336706 4293729569
3.7754517 -3.1858113 -1.8385478 4288085770
7.6499939 -4.3685579 -1.740904 4293729569
3.8166199 -3.1188571 -1.8389908 4288085770
7.8912354 -4.3386745 -1.7621003 4293729569
3.8558044 -3.0509069 -1.8384322 4288085770
8.2084351 -4.3288164 -1.7912427 4293729569
3.901001 -2.9839697 -1.8368653 4288085770
8.6136475 -4.3389978 -1.828302 4293729569
3.9552307 -2.919035 -1.8362895 4288085770
8.9978638 -4.339191 -1.860346 4288085770
4.0243835 -2.8581038 -1.8377033 4288085770
9.2520752 -4.2953615 -1.875415 4288085770
4.0806274 -2.7931919 -1.8341225 4288085770
9.4202576 -4.225523 -1.878522 4288085770
4.1457825 -2.731276 -1.8325399 4288085770
9.5224609 -4.1356812 -1.8716573 4288085770
4.2219543 -2.6703708 -1.8309366 4288085770
9.6906738 -4.0608754 -1.8697299 4288085770
4.3171387 -2.6144805 -1.8303198 4288085770
9.8278503 -3.9750648 -1.8638061 4288085770
4.4323425 -2.5615902 -1.8326734 4288085770
10.052063 -3.9122982 -1.8648208 4288085770
4.5315247 -2.5047181 -1.8300399 4288085770
10.319244 -3.8585575 -1.86879 4288085770
4.6366882 -2.4488437 -1.8283983 4288085770
10.536469 -3.7898104 -1.8657814 4288085770
4.7668762 -2.3989844 -1.8287352 4288085770
10.808655 -3.7311027 -1.8657042 4288085770
4.89505 -2.3461359 -1.8270565 4288085770
11.10083 -3.6724153 -1.8655773 4288085770
5.0362244 -2.2942939 -1.8263525 4288085770
11.446014 -3.6227713 -1.8673793 4288085770
5.1964111 -2.2444654 -1.8266145 4288085770
11.79718 -3.5691473 -1.8671397 4288085770
5.3435974 -2.1896508 -1.8228754 4288085770
12.098389 -3.5005238 -1.8589224 4288085770
5.527771 -2.1418478 -1.8230914 4288085770
12.564575 -3.4619889 -1.8634981 4288085770
5.6899414 -2.0880497 -1.8193215 4288085770
9.6776123 -2.7800684 -1.5500642 4293729569
5.8811035 -2.0372734 -1.8164996 4288085770
9.6607666 -2.6653099 -1.5123264 4293729569
6.1173096 -1.9945066 -1.81962 4288085770
9.9619446 -2.6077142 -1.5001837 4293729569
6.3614807 -1.9477675 -1.8196932 4288085770
10.14209 -2.5250766 -1.4751726 4293729569
6.620636 -1.9020386 -1.8207363 4288085770
10.845276 -2.5267055 -1.4924301 4293729569
6.9028625 -1.8563333 -1.8217221 4288085770
7.2110291 -1.8126493 -1.8236567 4288085770
7.5421753 -1.7679834 -1.8265275 4288085770
7.8463745 -1.7173367 -1.8224243 4288085770
8.233551 -1.6727304 -1.8251559 4288085770
8.5976868 -1.6211405 -1.8218969 4288085770
9.0708923 -1.5786066 -1.8274275 4288085770
9.5490723 -1.5310979 -1.8299123 4288085770
10.106262 -1.4886389 -1.8372341 4288085770
10.721466 -1.4452429 -1.8444043 4288085770
11.235657 -1.3858342 -1.8377181 4288085770
11.843842 -1.3285117 -1.8338059 4288085770
12.553009 -1.2722645 -1.8336576 4288085770
13.243225 -1.2060528 -1.8254889 4288085770
12.464172 1.4351072 -1.7448343 4288085770
11.59137 1.4860601 -1.7456831 4288085770
10.75354 1.5299416 -1.7414919 4288085770
9.9876709 1.5717368 -1.7361335 4288085770
9.3208313 1.6144485 -1.7345201 4288085770
8.7119751 1.6540947 -1.7327815 4288085770
8.1681824 1.6936779 -1.7318796 4288085770
7.6503296 1.7302184 -1.728933 4288085770
7.1754761 1.7667179 -1.7268788 4288085770
6.7416382 1.8021712 -1.7247282 4288085770
6.3787842 1.8415799 -1.7273721 4288085770
5.9819641 1.8729806 -1.7231556 4288085770
12.719971 2.7444863 -1.7032536 4288085770
5.6641541 1.9103317 -1.7247003 4288085770
11.999146 2.76928 -1.704898 4288085770
5.3523254 1.9456711 -1.7252432 4288085770
11.298279 2.7890229 -1.7025267 4288085770
5.0384521 1.9769793 -1.7208189 4288085770
7.709198 2.3819699 -1.4133269 4293729569
4.7816467 2.0142713 -1.72321 4288085770
7.1313171 2.386517 -1.4017488 4293729569
4.5307617 2.0485425 -1.7236072 4288085770
6.5483704 2.3830304 -1.3842386 4293729569
4.2599487 2.0788016 -1.7190815 4288085770
6.0965271 2.3944707 -1.3772968 4293729569
4.0240784 2.1110358 -1.7164546 4288085770
5.7126465 2.4118629 -1.3741435 4293729569
3.8192749 2.1452584 -1.7167357 4288085770
5.2727661 2.4152436 -1.3602265 4293729569
3.6184387 2.1794658 -1.7160074 4288085770
4.9108582 2.4275775 -1.3520521 4293729569
3.4425964 2.2156634 -1.7172018 4288085770
4.5679626 2.4388919 -1.3438367 4293729569
3.2487488 2.2458434 -1.7134837 4288085770
4.3231201 2.465158 -1.344273 4293729569
3.0908813 2.2820125 -1.7136332 4288085770
4.1793518 2.5103831 -1.3553258 4293729569
2.9400635 2.3171725 -1.7137722 4288085770
4.1195984 2.5705791 -1.3750654 4293729569
2.7912292 2.3513236 -1.7129129 4288085770
4.0557861 2.6317697 -1.3938085 4293729569
2.6654053 2.3914704 -1.714955 4288085770
4.0290833 2.6999421 -1.4154104 4293729569
2.5245972 2.4235997 -1.7120894 4288085770
3.9753113 2.7611156 -1.4331282 4293729569
2.4107361 2.4617267 -1.7131151 4288085770
3.9245605 2.8232789 -1.4498314 4293729569
2.2958679 2.4978404 -1.7121569 4288085770
3.9017639 2.8914266 -1.4684237 4293729569
2.2010498 2.5389514 -1.7141145 4288085770
4.4033813 3.0934958 -1.559785 4293729569
2.0882263 2.5740571 -1.7121581 4288085770
4.5066833 3.1996293 -1.5968012 4293729569
1.990387 2.6121449 -1.7101437 4288085770
4.7411499 3.3427405 -1.6512352 4293729569
1.9185486 2.656239 -1.7130228 4288085770
4.8234558 3.4478631 -1.6833113 4288085770
1.8277283 2.6943192 -1.7109905 4288085770
4.7156372 3.5019965 -1.6862124 4288085770
1.7539368 2.7364011 -1.7118887 4288085770
4.5747986 3.5441251 -1.6832787 4288085770
1.6740723 2.7754683 -1.7098223 4288085770
4.4930115 3.6022363 -1.6870874 4288085770
1.6282654 2.8245397 -1.7136019 4288085770
4.393219 3.6553397 -1.6869751 4288085770
1.5534363 2.8645959 -1.7105161 4288085770
4.286377 3.7044368 -1.6849078 4288085770
1.4886169 2.9066472 -1.7083913 4288085770
4.2035828 3.759521 -1.6847395 4288085770
1.4127502 2.9446902 -1.7033216 4288085770
4.10672 3.8096004 -1.6816407 4288085770
1.3519287 2.985724 -1.6991938 4288085770
4.0369263 3.8666644 -1.680426 4288085770
1.3121033 3.0337682 -1.6999654 4288085770
4.0021362 3.9357295 -1.6850415 4288085770
1.2842712 3.0858064 -1.7016796 4288085770
3.964325 4.0037761 -1.6866714 4288085770
1.260498 3.1388383 -1.7033764 4288085770
3.9115295 4.0658202 -1.6853801 4288085770
1.2246704 3.1878562 -1.7011312 4288085770
3.8817444 4.1358523 -1.6859761 4288085770
1.1998291 3.2408786 -1.7008313 4288085770
3.8459167 4.2038779 -1.6846012 4288085770
1.1660156 3.289887 -1.6975809 4288085770
3.8251343 4.2768989 -1.6851541 4288085770
1.1461792 3.3438954 -1.6962615 4288085770
3.8113708 4.3529058 -1.6846691 4288085770
1.1453857 3.4059014 -1.6978391 4288085770
3.8015747 4.430902 -1.6831607 4288085770
1.1335754 3.4629006 -1.6964792 4288085770
3.7617188 4.4948916 -1.6758229 4288085770
1.1167603 3.5178924 -1.6931449 4288085770
3.7769775 4.5828795 -1.677183 4288085770
1.1159363 3.5788779 -1.6917297 4288085770
3.7931824 4.6708522 -1.676541 4288085770
1.1411743 3.6528697 -1.6951605 4288085770
3.812439 4.7608161 -1.6748773 4288085770
1.1523438 3.7188563 -1.6956812 4288085770
3.850647 4.8587708 -1.6751114 4288085770
1.147583 3.7798209 -1.6902758 4288085770
3.8718872 4.949718 -1.6714362 4288085770
1.1847534 3.8587976 -1.693643 4288085770
3.9211121 5.055655 -1.6705881 4288085770
1.1939697 3.9247518 -1.6891683 4288085770
3.977356 5.1625829 -1.6697158 4288085770
1.2151489 3.9967074 -1.6866227 4288085770
4.0306091 5.270493 -1.6658443 4288085770
1.2704163 4.0856643 -1.6898752 4288085770
4.1208801 5.3953967 -1.6667629 4288085770
1.3196106 4.1716151 -1.6911641 4288085770
4.2011108 5.5172963 -1.6657282 4288085770
1.3718262 4.2595553 -1.6914314 4288085770
4.3063965 5.6501689 -1.6645552 4288085770
1.4140625 4.3424792 -1.6877576 4288085770
4.4046936 5.7830443 -1.6623994 4288085770
1.4803162 4.4384103 -1.6889354 4288085770
4.5089417 5.9198956 -1.6582018 4288085770
1.5415039 4.5333266 -1.6871322 4288085770
4.6382141 6.0717359 -1.6558388 4288085770
1.6177673 4.6362386 -1.6872367 4288085770
4.8095703 6.2455535 -1.6572198 4288085770
1.6769409 4.7301307 -1.6814457 4288085770
4.9678955 6.4143577 -1.6546677 4288085770
1.7642212 4.8400245 -1.6804746 4288085770
5.1362 6.5911469 -1.6510361 4288085770
1.8574829 4.9529119 -1.679468 4288085770
5.34552 6.7909141 -1.6511444 4288085770
1.9647522 5.0747828 -1.6783649 4288085770
5.5649109 6.9986558 -1.6491727 4288085770
2.0740356 5.1986442 -1.6762429 4288085770
5.7922668 7.2123761 -1.6451401 4288085770
2.1862793 5.3244948 -1.6730999 4288085770
6.0476379 7.4450784 -1.6429075 4288085770
2.3365784 5.4733462 -1.6757044 4288085770
6.3450623 7.702745 -1.6423982 4288085770
2.4818726 5.6211724 -1.6743284 4288085770
6.6364441 7.9613805 -1.6358973 4288085770
2.6271057 5.7689786 -1.6699523 4288085770
6.9819031 8.2519932 -1.6350423 4288085770
2.7824402 5.9227805 -1.66651 4288085770
2.9707336 6.0985742 -1.6668342 4288085770
3.1820984 6.2883401 -1.6670052 4288085770
3.3693848 6.4650836 -1.6603254 4288085770
3.62677 6.6868052 -1.6611623 4288085770
3.8681335 6.8985171 -1.6581074 4288085770
4.1515198 7.1401935 -1.6567425 4288085770
4.4449158 7.3868394 -1.6523181 4288085770
4.7483215 7.642467 -1.6468073 4288085770
5.125824 7.9480491 -1.6467687 4288085770
5.5272827 8.2695923 -1.6445607 4288085770
12.746155 -0.52670956 -1.7907885 4288085770
11.612274 -0.54942274 -1.7938269 4288085770
10.54837 -0.56524801 -1.7916406 4288085770
9.5764771 -0.57719326 -1.7871939 4288085770
8.7155762 -0.58724499 -1.7854518 4288085770
7.9537048 -0.59539557 -1.7854449 4288085770
7.2217712 -0.60060835 -1.7813419 4288085770
6.5748901 -0.60390282 -1.7790092 4288085770
13.267548 -1.0832262 -1.8112446 4288085770
6.0050354 -0.60725164 -1.7814809 4288085770
11.958679 -1.0517864 -1.8073601 4288085770
5.446167 -0.60764694 -1.7789043 4288085770
10.888824 -1.0305452 -1.8139366 4288085770
4.945282 -0.60808802 -1.7791809 4288085770
9.7829895 -0.99737072 -1.8045229 4288085770
4.4764099 -0.60657263 -1.7783629 4288085770
8.8291016 -0.96835089 -1.7977513 4288085770
4.0675354 -0.60709095 -1.782406 4288085770
7.9922791 -0.94343615 -1.79471 4288085770
3.6666565 -0.60463953 -1.7834085 4288085770
7.2463989 -0.91961145 -1.7934445 4288085770
3.3007812 -0.60122156 -1.7853152 4288085770
6.561554 -0.89686251 -1.791031 4288085770
2.9499207 -0.597826 -1.786184 4288085770
5.9646912 -0.87718678 -1.7924143 4288085770
2.6310425 -0.59445524 -1.7889715 4288085770
5.3698425 -0.85355568 -1.7877661 4288085770
2.3231812 -0.58910847 -1.7897176 4288085770
4.8529663 -0.83298492 -1.7869402 4288085770
2.0323486 -0.58277512 -1.7914134 4288085770
4.3871155 -0.8144598 -1.7879983 4288085770
1.747467 -0.57647657 -1.7890946 4288085770
3.9512939 -0.79596853 -1.7889804 4288085770
1.5115967 -0.57117891 -1.7946578 4288085770
3.5534058 -0.77851963 -1.7898728 4288085770
1.2617188 -0.56389809 -1.7952429 4288085770
3.1705933 -0.76009464 -1.7897202 4288085770
1.0228882 -0.55663872 -1.7948002 4288085770
2.8206787 -0.74270105 -1.7904915 4288085770
0.83599854 -0.55237579 -1.8032464 4288085770
2.4948425 -0.72533512 -1.7912015 4288085770
0.59515381 -0.54015398 -1.7967747 4288085770
2.1940002 -0.70898342 -1.7938544 4288085770
0.40527344 -0.53292179 -1.8002077 4288085770
1.8991699 -0.69165993 -1.7934858 4288085770
0.2104187 -0.52371311 -1.7996398 4288085770
1.6323242 -0.67535353 -1.7950524 4288085770
0.020568848 -0.51450872 -1.799059 4288085770
1.3734436 -0.65907145 -1.7945997 4288085770
-0.15731812 -0.50432491 -1.7974416 4288085770
1.140625 -0.64378929 -1.798087 4288085770
-0.31018066 -0.49612808 -1.8017739 4288085770
0.91372681 -0.62753677 -1.7985524 4288085770
-0.47601318 -0.4859581 -1.8001255 4288085770
0.69689941 -0.61128712 -1.7999927 4288085770
-0.63790894 -0.47479916 -1.7974607 4288085770
0.49804688 -0.59705973 -1.801401 4288085770
-0.78076172 -0.4646349 -1.7987539 4288085770
0.28115845 -0.5778513 -1.7968205 4288085770
-0.93365479 -0.45249319 -1.7950591 4288085770
0.092285156 -0.56164169 -1.7971898 4288085770
-1.0634766 -0.44234276 -1.7963191 4288085770
-0.084564209 -0.54644442 -1.7975355 4288085770
-1.1843567 -0.43319654 -1.7985634 4288085770
-0.25942993 -0.53027201 -1.7948691 4288085770
-1.2982178 -0.42405176 -1.8017901 4288085770
-0.41629028 -0.51509142 -1.7961637 4288085770
-0.5770874 -0.49793243 -1.793455 4288085770
-0.7159729 -0.48376656 -1.7957109 4288085770
-0.86080933 -0.468606 -1.7959751 4288085770
