# .PCD v0.7 - Point Cloud Data file format
VERSION 0.7
FIELDS x y z rgb
SIZE 4 4 4 4
TYPE F F F U
COUNT 1 1 1 1
WIDTH 1121
HEIGHT 1
VIEWPOINT 0 0 0 1 0 0 0
POINTS 1121
DATA ascii
6.4876366 -0.36455119 -1.8319752 4288085770
8.8917542 -0.47758257 -1.8313019 4288085770
6.1877518 -0.35767138 -1.8299078 4288085770
8.4448509 -0.46477389 -1.8337203 4288085770
5.9348488 -0.35278988 -1.834004 4288085770
8.0309525 -0.45295012 -1.835255 4288085770
5.6549797 -0.34589398 -1.8290092 4288085770
7.6540565 -0.44111454 -1.8379235 4288085770
5.3931084 -0.33799112 -1.8240826 4288085770
7.2761765 -0.42726541 -1.8355948 4288085770
5.170208 -0.33109546 -1.8272935 4288085770
6.9432755 -0.41441286 -1.8384254 4288085770
4.9563217 -0.32418787 -1.8275374 4288085770
6.6143913 -0.40154481 -1.8362714 4288085770
4.7394485 -0.31627321 -1.8247738 4288085770
6.3105049 -0.38866663 -1.8342077 4288085770
4.5425606 -0.30835605 -1.8240823 4288085770
6.0146332 -0.37478316 -1.8311759 4288085770
4.3506775 -0.2994343 -1.8224119 4288085770
5.7497444 -0.36189282 -1.8302535 4288085770
4.169796 -0.29150832 -1.8207787 4288085770
5.4748764 -0.34799004 -1.8232983 4288085770
3.9959145 -0.28257966 -1.8191736 4288085770
5.2459869 -0.33509099 -1.8245059 4288085770
3.8410225 -0.27465165 -1.8206341 4288085770
5.01511 -0.3221792 -1.8207068 4288085770
3.6721573 -0.26471019 -1.8150506 4288085770
4.8102226 -0.309268 -1.8210013 4288085770
3.5402565 -0.2567786 -1.8185942 4288085770
4.6113319 -0.29635215 -1.8203177 4288085770
3.3833923 -0.24583244 -1.8130569 4288085770
4.4274406 -0.28443289 -1.8206856 4288085770
3.2584915 -0.23789537 -1.8156263 4288085770
4.2435608 -0.27150548 -1.8180565 4288085770
4.0706673 -0.25857627 -1.8164676 4288085770
3.9107819 -0.24664474 -1.8159224 4288085770
3.769886 -0.23471427 -1.8184454 4288085770
3.6070137 -0.2207706 -1.8128958 4288085770
3.4591408 -0.20782626 -1.8093972 4288085770
3.3462296 -0.19589305 -1.8150214 4288085770
3.2073555 -0.18294275 -1.8105553 4288085770
3.1966209 1.8344238 -1.7984518 4288085770
3.3437004 1.8664593 -1.8060397 4288085770
3.4738007 1.8925077 -1.8065526 4288085770
3.6108971 1.9195558 -1.8080915 4288085770
3.7589989 1.9486059 -1.8106734 4288085770
3.9001122 1.9736642 -1.8092197 4288085770
4.068203 2.0047171 -1.8138748 4288085770
4.2402954 2.0357742 -1.8175434 4288085770
3.2355003 1.7673773 -1.8053432 4288085770
4.41539 2.0668356 -1.8202214 4288085770
3.3705978 1.7874192 -1.8088547 4288085770
4.5944901 2.0959017 -1.8219074 4288085770
3.5097008 1.8084656 -1.8113824 4288085770
4.7845917 2.1269724 -1.8236358 4288085770
3.6557961 1.8285121 -1.8149309 4288085770
4.9736938 2.1550453 -1.8243519 4288085770
3.778923 1.8415717 -1.8103806 4288085770
5.2097664 2.1951156 -1.833262 4288085770
3.9560013 1.8676142 -1.820051 4288085770
5.3988876 2.2191999 -1.8299658 4288085770
4.0901299 1.8796785 -1.8155347 4288085770
5.6249847 2.251286 -1.8318179 4288085770
4.2592239 1.900732 -1.8201629 4288085770
5.865078 2.2863746 -1.8347256 4288085770
4.4323196 1.92079 -1.8238013 4288085770
6.0991936 2.3154724 -1.8335953 4288085770
4.6094246 1.9398525 -1.82645 4288085770
6.3702774 2.3525686 -1.8386129 4288085770
4.7645531 1.9509286 -1.8210007 4288085770
6.6473694 2.3876708 -1.8426447 4288085770
4.9826317 1.9759886 -1.8308051 4288085770
6.9104843 2.4157865 -1.8396081 4288085770
5.1677437 1.9910631 -1.8304683 4288085770
7.1955948 2.4479058 -1.838657 4288085770
5.3828354 2.0111361 -1.8352472 4288085770
7.4807129 2.4760337 -1.8346939 4288085770
5.5859528 2.0252182 -1.8349677 4288085770
7.8028221 2.5091691 -1.8338699 4288085770
5.8050575 2.0403047 -1.8357449 4288085770
8.1449242 2.5443096 -1.8341187 4288085770
6.0101852 2.0513964 -1.8324627 4288085770
8.4920387 2.5754585 -1.8323721 4288085770
6.2652779 2.0704863 -1.8373721 4288085770
8.8951302 2.6156163 -1.8358405 4288085770
6.5133896 2.0845847 -1.838243 4288085770
9.3142242 2.6557841 -1.8383616 4288085770
6.7635002 2.0966842 -1.8391143 4288085770
9.7923012 2.7039652 -1.8451046 4288085770
7.0316162 2.1087942 -1.839046 4288085770
10.268398 2.745157 -1.8478199 4288085770
7.2957344 2.1179054 -1.8379549 4288085770
10.801472 2.7933617 -1.8547467 4288085770
7.5898438 2.1300206 -1.8399731 4288085770
11.390541 2.8465841 -1.8638759 4288085770
7.8819695 2.1371467 -1.8379698 4288085770
12.003613 2.8968225 -1.8710762 4288085770
8.2060738 2.1472778 -1.8390822 4288085770
12.635704 2.9440804 -1.874331 4288085770
8.5192032 2.1514153 -1.8361396 4288085770
13.352776 3.0003629 -1.881897 4288085770
8.8733177 2.1595559 -1.8383453 4288085770
14.168831 3.06567 -1.8958201 4288085770
9.2194443 2.1627052 -1.8365096 4288085770
15.161831 3.1540184 -1.9224058 4288085770
9.6135521 2.1688633 -1.8388437 4288085770
16.351772 3.2634153 -1.961714 4282675967
10.026661 2.1750264 -1.8422407 4288085770
17.317856 3.3218122 -1.9671178 4288085770
10.470764 2.179203 -1.8457357 4288085770
10.887894 2.1753855 -1.8431156 4288085770
11.372002 2.1755791 -1.8467317 4288085770
11.852131 2.1697853 -1.8453157 4288085770
12.384235 2.1659994 -1.8490794 4288085770
12.940361 2.1562328 -1.8499057 4288085770
13.541477 2.1474793 -1.8528845 4288085770
14.159595 2.1327357 -1.8549019 4288085770
14.92667 2.1280246 -1.8684474 4288085770
15.716766 2.1153316 -1.8790455 4288085770
16.680817 2.1106811 -1.9012491 4288085770
17.683872 2.1000504 -1.9225639 4288085770
14.213139 -5.377871 -0.2269084 4293729569
14.18721 -5.4899664 -0.25447553 4293729569
16.686867 -7.749229 -0.71782905 4293729569
16.357841 -7.7465024 -0.76073635 4293729569
15.989819 -7.7217832 -0.80058128 4293729569
15.658787 -7.7090602 -0.84451288 4293729569
15.343761 -7.6963248 -0.8864975 4293729569
15.062729 -7.6965833 -0.93155581 4293729569
14.801689 -7.6978316 -0.97667855 4293729569
14.516659 -7.6850896 -1.020763 4293729569
14.711487 -7.8686185 -0.19184263 4293729569
14.321617 -7.7113309 -1.0730274 4293729569
14.427402 -7.8499179 -0.25094819 4293729569
14.071583 -7.7055783 -1.1192067 4293729569
14.136311 -7.8202186 -0.30906361 4293729569
13.776543 -7.673841 -1.1633159 4293729569
13.874229 -7.8025107 -0.36923921 4293729569
13.675499 -7.7360587 -1.2217824 4293729569
13.641151 -7.7937884 -0.42848346 4293729569
13.624454 -7.8192658 -1.2843505 4293729569
13.457077 -7.8040462 -0.48783204 4293729569
8.3373985 -5.2640266 -0.38359571 4293729569
8.3906097 -5.3196745 -0.96260327 4293729569
8.2673759 -5.2961907 -0.42825887 4293729569
8.2656059 -5.3238406 -0.99916953 4293729569
8.2303772 -5.3443408 -0.47298262 4293729569
8.2075996 -5.3609967 -1.0428575 4293729569
8.2203598 -5.4034872 -0.52076167 4293729569
8.1915894 -5.4201465 -1.0906173 4293729569
8.2263451 -5.471633 -0.57056648 4293729569
8.1645737 -5.4733043 -1.1393589 4293729569
8.2693367 -5.5587707 -0.62343556 4293729569
8.1585503 -5.5344615 -1.1911452 4293729569
8.1495285 -5.5936198 -1.2429274 4293729569
8.1734924 -5.6697779 -1.2997668 4293729569
10.050156 -6.7998033 -1.5965247 4293729569
9.5961723 -6.6100287 -1.6025916 4293729569
9.1431961 -6.4152436 -1.6056776 4293729569
8.6912231 -6.2134495 -1.6047885 4293729569
8.2252693 -5.9966383 -1.5968997 4293729569
7.883297 -5.8478179 -1.604214 4293729569
7.5373306 -5.69099 -1.6085396 4293729569
7.2683563 -5.5761514 -1.6209919 4293729569
10.937618 -7.7773242 -1.5553782 4293729569
7.0053864 -5.4603105 -1.6334674 4293729569
10.35458 -7.4786077 -1.5613506 4293729569
6.7454147 -5.3424621 -1.6439589 4293729569
9.8545494 -7.2218642 -1.5714697 4293729569
6.4834633 -5.2196031 -1.6504599 4293729569
9.3885231 -6.9811101 -1.5826529 4293729569
6.2544937 -5.1137447 -1.6620178 4293729569
8.9425163 -6.7473359 -1.5898818 4293729569
6.0005455 -4.9878707 -1.6645547 4293729569
8.4795189 -6.4955478 -1.5901097 4293729569
5.7835884 -4.8819981 -1.6731527 4293729569
8.0825233 -6.2807498 -1.5964434 4293729569
5.5896301 -4.7871213 -1.6837934 4293729569
7.6805458 -6.0589323 -1.595783 4293729569
5.3476982 -4.6592288 -1.6813768 4293729569
7.3705521 -5.8891072 -1.6062671 4293729569
5.1417542 -4.5503359 -1.6850218 4293729569
7.0835571 -5.7312737 -1.6177919 4293729569
5.0537643 -4.5154619 -1.712829 4293729569
6.8275681 -5.5894308 -1.6303694 4293729569
5.0177574 -4.5115957 -1.7517126 4293729569
6.5815849 -5.450582 -1.6429709 4293729569
4.9977379 -4.5177407 -1.7966182 4288085770
6.3216209 -5.2997208 -1.6485686 4293729569
4.9687309 -4.5148787 -1.8375252 4288085770
6.096653 -5.1678519 -1.6572164 4293729569
4.7957954 -4.4159703 -1.8402463 4288085770
5.8656921 -5.0299778 -1.6628636 4293729569
4.6358566 -4.3220582 -1.843995 4288085770
5.6497421 -4.8980937 -1.6675422 4293729569
4.4429436 -4.2051296 -1.8367062 4288085770
5.4657745 -4.7852101 -1.6772683 4293729569
4.2720337 -4.1002021 -1.8334532 4288085770
5.2528343 -4.6513095 -1.6769639 4293729569
4.1161079 -4.0022726 -1.8312283 4288085770
5.0758858 -4.539412 -1.682711 4293729569
3.9761887 -3.9133425 -1.8320289 4288085770
5.0378799 -4.5135393 -1.7186507 4293729569
3.8342705 -3.8214064 -1.8298322 4288085770
5.0498505 -4.5196724 -1.7646563 4293729569
3.7193413 -3.7454748 -1.8336756 4288085770
5.0588264 -4.5218077 -1.8106639 4288085770
3.5964279 -3.6635323 -1.8325114 4288085770
5.0088348 -4.483922 -1.8406008 4288085770
3.4785156 -3.5815878 -1.8313638 4288085770
4.8319092 -4.3609986 -1.8373822 4288085770
3.3656006 -3.5026412 -1.8302236 4288085770
4.6829758 -4.2560759 -1.8392009 4288085770
3.2576904 -3.4256921 -1.8290939 4288085770
4.5090599 -4.1321368 -1.8309962 4288085770
4.3691406 -4.0292015 -1.829839 4288085770
4.2372169 -3.930263 -1.8286958 4288085770
4.1152954 -3.8373237 -1.8285675 4288085770
3.9993744 -3.7473779 -1.8274499 4288085770
3.8884621 -3.6584277 -1.8253456 4288085770
3.7865448 -3.575479 -1.8252528 4288085770
3.6976242 -3.498528 -1.8261842 4288085770
3.6047096 -3.4195728 -1.825109 4288085770
3.5138054 -3.3406105 -1.8220408 4288085770
3.4428864 -3.2726541 -1.8240036 4288085770
3.3709793 -3.2046919 -1.8239636 4288085770
3.3070564 -3.1397328 -1.8259404 4288085770
3.2321587 -3.0687604 -1.8219006 4288085770
3.1761398 -1.5390807 -1.8447763 4288085770
3.2322426 -1.5170671 -1.8470031 4288085770
3.2863426 -1.4960543 -1.8492208 4288085770
3.3434525 -1.4740373 -1.8504503 4288085770
3.3975563 -1.4510187 -1.8506734 4288085770
3.4506721 -1.4269947 -1.8488964 4288085770
3.5277672 -1.4089798 -1.8541749 4288085770
3.5798874 -1.3839475 -1.8493973 4288085770
3.6579895 -1.3649267 -1.8526816 4288085770
3.7021217 -1.3368889 -1.844888 4288085770
3.7712288 -1.3148574 -1.8431531 4288085770
3.8493423 -1.2948276 -1.8434396 4288085770
3.9234581 -1.2727908 -1.8407195 4288085770
4.0335503 -1.2587668 -1.8480853 4288085770
4.1216545 -1.2397324 -1.8483984 4288085770
4.2167702 -1.2206916 -1.8477329 4288085770
4.3128815 -1.2016505 -1.8470699 4288085770
3.1908493 -0.96515524 -1.8403441 4288085770
4.4089966 -1.1816064 -1.8454095 4288085770
3.2529755 -0.94411552 -1.8345852 4288085770
4.4801407 -1.1565474 -1.8346876 4288085770
3.3260956 -0.92407882 -1.8318567 4288085770
4.603241 -1.1395026 -1.8370998 4288085770
3.4012146 -0.90503871 -1.8281311 4288085770
4.6983719 -1.1174437 -1.8304415 4288085770
3.4973183 -0.8890065 -1.83046 4288085770
4.8244781 -1.0993916 -1.8308651 4288085770
3.5904312 -0.87196958 -1.8307827 4288085770
4.9825706 -1.0883454 -1.8383648 4288085770
3.6845436 -0.85492957 -1.8301079 4288085770
5.092701 -1.0662769 -1.8307509 4288085770
3.7876549 -0.83788788 -1.8304603 4288085770
5.2657967 -1.0532209 -1.8373011 4288085770
3.8767738 -0.818838 -1.8257756 4288085770
5.4009209 -1.0341495 -1.8327532 4288085770
4.0108681 -0.80580008 -1.8322096 4288085770
5.5670319 -1.0180789 -1.83329 4288085770
4.1439629 -0.79075611 -1.8366464 4288085770
5.7501335 -1.0030028 -1.8348757 4288085770
4.2540817 -0.77269971 -1.8330214 4288085770
5.9372368 -0.98792565 -1.8364718 4288085770
4.3642044 -0.75363982 -1.8283991 4288085770
6.1233597 -0.97083652 -1.8340702 4288085770
4.5053177 -0.73758066 -1.8288612 4288085770
6.3414612 -0.95774734 -1.8367531 4288085770
4.6474304 -0.72152126 -1.8293259 4288085770
6.5645714 -0.9426533 -1.838456 4288085770
4.7965393 -0.70545805 -1.8298113 4288085770
6.80867 -0.9295522 -1.8412156 4288085770
4.9596443 -0.69039166 -1.8313353 4288085770
7.0487938 -0.91444075 -1.8399686 4288085770
5.1047707 -0.67231286 -1.8258137 4288085770
7.3129044 -0.89932168 -1.8397927 4288085770
5.3068657 -0.65924561 -1.8334483 4288085770
7.5980148 -0.88519824 -1.8416766 4288085770
5.4829826 -0.64216149 -1.8310159 4288085770
7.8841286 -0.87006271 -1.8395654 4288085770
5.7010803 -0.62908137 -1.8366975 4288085770
8.1872559 -0.85391343 -1.8355072 4288085770
5.8931999 -0.61098635 -1.833315 4288085770
8.5143776 -0.83775604 -1.8325205 4288085770
6.118309 -0.59488785 -1.8340251 4288085770
8.889492 -0.82458484 -1.8326678 4288085770
6.3564186 -0.57978332 -1.8347706 4288085770
9.2826042 -0.81040204 -1.8318712 4288085770
6.6175232 -0.56467402 -1.8375843 4288085770
9.688736 -0.79420149 -1.8271179 4288085770
6.8866348 -0.54855216 -1.837424 4288085770
10.20483 -0.78398001 -1.8326759 4288085770
7.1807404 -0.5314213 -1.838342 4288085770
10.731937 -0.77074087 -1.8342751 4288085770
7.495842 -0.5152868 -1.841318 4288085770
11.313049 -0.75847399 -1.8350302 4288085770
7.8149605 -0.49813569 -1.8393078 4288085770
11.929165 -0.74518764 -1.8348914 4288085770
8.16008 -0.48097217 -1.8373744 4288085770
12.673264 -0.73585927 -1.8411218 4288085770
8.5421867 -0.46379721 -1.8375506 4288085770
13.428383 -0.72249949 -1.8383943 4288085770
8.9293137 -0.44560826 -1.8337436 4288085770
14.301498 -0.71109927 -1.8410114 4288085770
9.3644295 -0.42640293 -1.8320818 4288085770
15.332596 -0.70263755 -1.8480891 4288085770
9.8575363 -0.40917933 -1.8335859 4288085770
16.412716 -0.69012892 -1.8473213 4288085770
10.401646 -0.39093196 -1.8352435 4288085770
17.8078 -0.68450963 -1.8594699 4288085770
10.998749 -0.37265968 -1.8370575 4288085770
11.661854 -0.35435975 -1.8400663 4288085770
12.415951 -0.33402312 -1.8453503 4288085770
13.22406 -0.31364954 -1.8467923 4288085770
14.221142 -0.29421723 -1.8587919 4288085770
15.24025 -0.27073932 -1.8588653 4288085770
16.427353 -0.2451911 -1.8624408 4288085770
17.984394 -0.22252464 -1.8851045 4288085770
17.032684 0.030199766 -1.856439 4288085770
15.66481 0.029482126 -1.8511976 4288085770
14.460938 0.03085649 -1.8443513 4288085770
13.442047 0.033306718 -1.8449464 4288085770
12.542164 0.036825418 -1.8438265 4288085770
11.728279 0.041395545 -1.8409134 4288085770
10.971409 0.046007991 -1.8341358 4288085770
17.257469 0.037348032 -1.8439668 4288085770
10.330517 0.051656127 -1.835636 4288085770
15.921566 0.048623681 -1.8458406 4288085770
9.7016411 0.058335781 -1.8291678 4288085770
14.680691 0.059976816 -1.8389395 4288085770
9.1917458 0.064050198 -1.8319783 4288085770
13.652798 0.071423769 -1.8385427 4288085770
8.7138519 0.070787072 -1.8328679 4288085770
12.762894 0.081937432 -1.8404695 4288085770
8.2879562 0.077542305 -1.8368804 4288085770
11.916016 0.093488932 -1.8375016 4288085770
7.8920555 0.085313439 -1.8409673 4288085770
11.186127 0.10409892 -1.8358076 4288085770
7.47118 0.093105316 -1.8339955 4288085770
10.522236 0.11574066 -1.8352727 4288085770
7.1412849 0.1009078 -1.8392385 4288085770
9.8973541 0.12641537 -1.8308275 4288085770
6.7794075 0.1097275 -1.8334095 4288085770
9.3694611 0.13612258 -1.8326085 4288085770
6.4515266 0.1185621 -1.828661 4288085770
8.8745651 0.14785624 -1.8314741 4288085770
6.1456451 0.12640488 -1.8249614 4288085770
8.4376678 0.15860832 -1.8344738 4288085770
5.8677597 0.13525951 -1.8223313 4288085770
8.0357704 0.17038155 -1.8365594 4288085770
5.6498528 0.14311469 -1.8298397 4288085770
7.6528816 0.1811713 -1.8366872 4288085770
5.3859787 0.15298891 -1.823246 4288085770
7.2979889 0.19197559 -1.836881 4288085770
5.1520958 0.16186643 -1.8207201 4288085770
6.9331131 0.20379329 -1.8310548 4288085770
4.9332085 0.1717521 -1.8182329 4288085770
6.6262207 0.21462595 -1.8303624 4288085770
4.7513123 0.18063533 -1.8228302 4288085770
6.3023491 0.22547138 -1.8226299 4288085770
4.5604248 0.19053245 -1.8214091 4288085770
6.0374603 0.23732328 -1.8230401 4288085770
4.3815384 0.20043588 -1.8200166 4288085770
5.7885628 0.24818349 -1.8234853 4288085770
4.194664 0.21034741 -1.8146055 4288085770
5.5496788 0.26005507 -1.8219571 4288085770
4.0427628 0.22025263 -1.8172766 4288085770
5.3307915 0.27093089 -1.8224732 4288085770
3.8838768 0.23016977 -1.8149315 4288085770
5.1198959 0.28281426 -1.8220112 4288085770
3.7319984 0.24009025 -1.8126031 4288085770
4.8910217 0.29370964 -1.8145038 4288085770
3.5881119 0.25001526 -1.8102937 4288085770
4.7141266 0.30560458 -1.8161224 4288085770
3.4642143 0.26093841 -1.8120344 4288085770
4.5422363 0.31750536 -1.8167528 4288085770
3.3493195 0.27185977 -1.8157964 4288085770
4.3653488 0.32841277 -1.8143682 4288085770
3.2364197 0.28278565 -1.8185633 4288085770
4.1924706 0.33932853 -1.8099934 4288085770
4.0435829 0.35124433 -1.8096783 4288085770
3.8916931 0.363168 -1.8063562 4288085770
3.7538033 0.37408948 -1.8060642 4288085770
3.6279144 0.38601756 -1.8058034 4288085770
3.5080261 0.39794588 -1.8065569 4288085770
3.3781433 0.40988398 -1.802287 4288085770
3.2922287 0.42280841 -1.8101238 4288085770
3.2686462 2.6773431 -1.8089442 4288085770
3.3837395 2.7204053 -1.8083446 4288085770
3.5138245 2.7674668 -1.8107922 4288085770
3.6489029 2.8165345 -1.812258 4288085770
3.7859879 2.864603 -1.8137251 4288085770
3.9410629 2.9186721 -1.8182527 4288085770
4.0951462 2.970747 -1.8207716 4288085770
4.2652168 3.0288253 -1.8253465 4288085770
3.2035637 2.5842786 -1.8064933 4288085770
4.4362907 3.0849066 -1.8289173 4288085770
3.3326492 2.6233397 -1.8089138 4288085770
4.6283569 3.1479874 -1.8365586 4288085770
3.4637375 2.6613986 -1.812336 4288085770
4.8314171 3.2140746 -1.8442348 4288085770
3.5928307 2.6964693 -1.8117439 4288085770
5.0554657 3.2871642 -1.8549815 4288085770
3.7339172 2.735534 -1.8151923 4288085770
5.2795219 3.358263 -1.8627219 4288085770
3.8740158 2.7716074 -1.8156289 4288085770
5.4985962 3.4223716 -1.8664289 4288085770
4.0330963 2.8146796 -1.8201313 4288085770
5.7216644 3.4864831 -1.8701452 4288085770
4.184185 2.852756 -1.8215997 4288085770
5.9627342 3.555604 -1.8739189 4288085770
4.356266 2.8968325 -1.8271356 4288085770
6.2257881 3.6317253 -1.8817651 4288085770
4.5153618 2.933917 -1.8276193 4288085770
6.4778595 3.6998587 -1.883561 4288085770
4.7084312 2.9820015 -1.8342162 4288085770
6.7679138 3.7799983 -1.8904823 4288085770
4.8965149 3.0260935 -1.8377889 4288085770
7.0339928 3.8461466 -1.8903044 4288085770
5.0835991 3.0681877 -1.8403533 4288085770
7.3110695 3.9143038 -1.8891582 4288085770
5.2896729 3.1132832 -1.8459707 4288085770
7.6041489 3.984467 -1.8890555 4288085770
5.5077515 3.1623826 -1.8526287 4288085770
7.9312134 4.0646372 -1.8930625 4288085770
5.7208328 3.2054915 -1.8552563 4288085770
8.2912636 4.1538196 -1.899174 4288085770
5.9389191 3.2496035 -1.8578985 4288085770
8.6543236 4.2390103 -1.9032803 4288085770
6.1640053 3.2907224 -1.8595476 4288085770
9.0923462 4.3482184 -1.9156349 4288085770
6.4150848 3.3398438 -1.8652819 4288085770
9.5293884 4.4514384 -1.9239687 4288085770
6.6571693 3.3819723 -1.8669738 4288085770
9.9714355 4.5506701 -1.9293014 4288085770
6.9152489 3.4281039 -1.8707148 4288085770
10.453465 4.6599131 -1.938758 4288085770
7.1903267 3.4752388 -1.8764986 4288085770
10.935516 4.7611742 -1.9421896 4288085770
7.4644165 3.5183861 -1.8782673 4288085770
11.453564 4.8694501 -1.9477266 4288085770
7.7235146 3.5535374 -1.8759767 4288085770
12.006599 4.9837456 -1.9533633 4288085770
7.9956131 3.5886927 -1.8747158 4288085770
12.568649 5.0930552 -1.9560053 4288085770
8.2987061 3.6308594 -1.8755488 4288085770
13.172695 5.2083864 -1.9597633 4288085770
8.6227875 3.6750288 -1.8794367 4288085770
13.92268 5.3647594 -1.9769875 4288085770
8.9418755 3.7142081 -1.8792976 4288085770
14.848602 5.5671878 -2.0087631 4288085770
9.3119507 3.7653942 -1.8863138 4288085770
15.881512 5.7916656 -2.0448551 4288085770
9.6480446 3.7995868 -1.8851982 4288085770
16.817482 5.9731417 -2.0635881 4288085770
10.032127 3.8447909 -1.8892283 4288085770
17.712502 6.1286311 -2.0701451 4288085770
10.434212 3.8900046 -1.8933001 4288085770
10.867283 3.9392276 -1.900456 4288085770
11.325348 3.9904613 -1.9086763 4288085770
11.76543 4.0296974 -1.9128172 4288085770
12.263504 4.0789576 -1.9201239 4288085770
12.713608 4.1082149 -1.9192569 4288085770
13.173714 4.1334815 -1.9174008 4288085770
13.719791 4.1747694 -1.9247938 4288085770
14.288864 4.2160707 -1.9322401 4288085770
14.958912 4.2724042 -1.9479671 4288085770
15.725937 4.3427739 -1.9699626 4288085770
16.397015 4.3801279 -1.9796327 4288085770
17.049103 4.406486 -1.9842247 4288085770
17.753189 4.4328675 -1.9909374 4288085770
18.157124 -5.0783215 -1.7637526 4293729569
17.54121 -5.0547032 -1.7693945 4293729569
16.958298 -5.0300698 -1.7761163 4288085770
16.401382 -5.0044198 -1.7829014 4288085770
15.954456 -5.0037374 -1.7998662 4288085770
15.408535 -4.9660759 -1.8047135 4288085770
14.938614 -4.9433851 -1.814692 4288085770
14.484684 -4.9176927 -1.8267169 4288085770
14.018761 -4.8839951 -1.8347381 4288085770
13.559841 -4.8452892 -1.8417908 4288085770
13.048916 -4.7825904 -1.8407956 4288085770
12.612988 -4.7378697 -1.8469204 4288085770
12.164059 -4.6821475 -1.8500481 4288085770
17.322758 -6.4903588 -1.6065286 4293729569
11.706142 -4.6184177 -1.8491794 4288085770
16.408752 -6.2969074 -1.6089954 4293729569
11.265224 -4.5536795 -1.8483531 4288085770
14.246754 -5.6478348 -1.4939485 4293729569
10.840298 -4.488934 -1.8485643 4288085770
14.131767 -5.7100883 -1.553494 4293729569
10.404385 -4.413177 -1.8427832 4288085770
14.037777 -5.7773371 -1.6160729 4293729569
10.011463 -4.3474073 -1.8410717 4288085770
13.58979 -5.7096891 -1.6432397 4293729569
9.6335411 -4.2816324 -1.840395 4288085770
12.988808 -5.5790715 -1.6512425 4293729569
9.2626228 -4.2128477 -1.8377438 4288085770
12.373837 -5.4324441 -1.6532614 4293729569
8.9187012 -4.1500525 -1.837137 4288085770
11.852863 -5.3157806 -1.6614075 4293729569
8.6127777 -4.0972481 -1.840588 4288085770
11.312893 -5.185113 -1.664552 4293729569
8.2808609 -4.0304403 -1.8380213 4288085770
10.840923 -5.0734205 -1.6727968 4293729569
7.9989357 -3.9776216 -1.8415282 4288085770
10.359962 -4.9517164 -1.6750512 4293729569
7.6960182 -3.9128008 -1.8400228 4288085770
9.9150009 -4.8379931 -1.6783646 4293729569
7.4281006 -3.8579683 -1.8415684 4288085770
9.5100441 -4.7352562 -1.6847378 4293729569
7.162178 -3.8011312 -1.8421248 4288085770
9.2750778 -4.70048 -1.7112995 4293729569
6.9032593 -3.7422876 -1.8417034 4288085770
9.0981064 -4.6866946 -1.745932 4293729569
6.6433449 -3.6804414 -1.8402888 4288085770
8.9501228 -4.6829076 -1.7856016 4293729569
6.41642 -3.6295915 -1.8439174 4288085770
8.8001442 -4.6751184 -1.8242786 4288085770
6.1935043 -3.5767303 -1.8445613 4288085770
8.5511856 -4.6203303 -1.8438685 4288085770
5.9625854 -3.5168667 -1.8432081 4288085770
8.2072334 -4.5185423 -1.8453802 4288085770
5.7386703 -3.4579997 -1.8418679 4288085770
7.8912849 -4.4257441 -1.84893 4288085770
5.5287552 -3.4011221 -1.8395544 4288085770
7.5653419 -4.3239379 -1.8474836 4288085770
5.3138466 -3.339241 -1.8352443 4288085770
7.2394104 -4.218122 -1.8430494 4288085770
5.1069336 -3.278358 -1.8319497 4288085770
6.9654694 -4.1322966 -1.8456752 4288085770
4.9160194 -3.2224693 -1.8296773 4288085770
6.6905327 -4.0424604 -1.8443109 4288085770
4.7451019 -3.1735778 -1.8304299 4288085770
6.4225998 -3.9516191 -1.8429656 4288085770
4.5651932 -3.1186819 -1.8281797 4288085770
6.1846657 -3.8727708 -1.844654 4288085770
4.3922844 -3.0637798 -1.8249462 4288085770
5.9427338 -3.7889118 -1.8423479 4288085770
4.2393723 -3.0158782 -1.8257375 4288085770
5.7078018 -3.7040515 -1.8410614 4288085770
4.0844574 -2.9649711 -1.8245335 4288085770
5.4858742 -3.6241808 -1.8387897 4288085770
3.9365387 -2.9160595 -1.8233395 4288085770
5.2699509 -3.5443039 -1.8355319 4288085770
3.8016281 -2.8721499 -1.8251605 4288085770
5.0550194 -3.4614239 -1.8312856 4288085770
3.6647186 -2.8252358 -1.8249861 4288085770
4.8551025 -3.3835344 -1.827059 4288085770
3.5248108 -2.7733111 -1.8208199 4288085770
4.6681824 -3.3106403 -1.8238472 4288085770
3.3998985 -2.7283902 -1.8206673 4288085770
4.5002594 -3.2447443 -1.8236585 4288085770
3.276989 -2.6824679 -1.8205222 4288085770
4.3443336 -3.1838474 -1.8254825 4288085770
4.1794167 -3.1149406 -1.8223099 4288085770
4.0325012 -3.0540323 -1.8221546 4288085770
3.8975754 -2.9971237 -1.8240154 4288085770
3.7616577 -2.9382091 -1.8238796 4288085770
3.6197395 -2.8752861 -1.8197421 4288085770
3.4918289 -2.8173604 -1.8176218 4288085770
3.3789101 -2.7654357 -1.8185185 4288085770
3.2619972 -2.7095041 -1.8164177 4288085770
3.236908 -0.42290235 -1.8123885 4288085770
3.3410149 -0.40984726 -1.8136704 4288085770
3.4461174 -0.39679122 -1.8149548 4288085770
3.5292435 -0.38172126 -1.8071935 4288085770
3.6513481 -0.36966074 -1.8105145 4288085770
3.7504654 -0.35558712 -1.8047875 4288085770
3.9005585 -0.34552455 -1.8131676 4288085770
4.027668 -0.33244884 -1.8125031 4288085770
4.1687698 -0.32037055 -1.8138679 4288085770
3.1877747 -0.22798109 -1.8138555 4288085770
4.311882 -0.30828512 -1.8132377 4288085770
3.3018684 -0.21692204 -1.8161546 4288085770
4.4619827 -0.29619789 -1.8136235 4288085770
3.4049835 -0.20385206 -1.8124338 4288085770
4.6270905 -0.2841047 -1.8150443 4288085770
3.5340881 -0.19278419 -1.8147678 4288085770
4.7981987 -0.27200484 -1.8154792 4288085770
3.6611977 -0.18171442 -1.816097 4288085770
4.9882965 -0.2599026 -1.8189583 4288085770
3.792305 -0.17063594 -1.8154354 4288085770
5.1764069 -0.24779201 -1.8194325 4288085770
3.9364128 -0.15955889 -1.8178043 4288085770
5.3895073 -0.23667216 -1.8219621 4288085770
4.0825195 -0.14747453 -1.8181807 4288085770
5.5976181 -0.22454643 -1.821483 4288085770
4.2226334 -0.13638163 -1.8145399 4288085770
5.8527145 -0.21441305 -1.8281074 4288085770
4.3927345 -0.12529135 -1.8179691 4288085770
6.0888252 -0.20227015 -1.8276932 4288085770
4.5828323 -0.1151948 -1.8234419 4288085770
6.3549271 -0.1901176 -1.8303491 4288085770
4.7629433 -0.10408926 -1.8238943 4288085770
6.625042 -0.17895043 -1.8290112 4288085770
4.9500542 -0.09297657 -1.8233628 4288085770
6.9511299 -0.16777623 -1.8368038 4288085770
5.1581535 -0.082859516 -1.8258774 4288085770
7.2542458 -0.15658569 -1.8345426 4288085770
5.3652725 -0.071731687 -1.8243926 4288085770
7.5963516 -0.14438009 -1.8353752 4288085770
5.617363 -0.061602831 -1.8320097 4288085770
7.9724617 -0.13315666 -1.8372841 4288085770
5.852478 -0.051456928 -1.8305868 4288085770
8.3545723 -0.12192035 -1.8362068 4288085770
6.1135864 -0.040301323 -1.8312275 4288085770
8.7546921 -0.10966098 -1.8311743 4288085770
6.377697 -0.030137897 -1.8298723 4288085770
9.226799 -0.097372174 -1.8313096 4288085770
6.7107849 -0.019962192 -1.8386775 4288085770
9.7648964 -0.08705771 -1.8365924 4288085770
7.0368958 -0.0097693205 -1.8404666 4288085770
10.322006 -0.074713469 -1.8359252 4288085770
7.3869972 0.00043511391 -1.8433113 4288085770
10.949112 -0.063334823 -1.8384181 4288085770
7.7451057 0.010657072 -1.8421745 4288085770
11.64822 -0.05190897 -1.8400786 4288085770
8.1372223 0.020896673 -1.8421168 4288085770
12.427322 -0.041436672 -1.8429223 4288085770
8.5503387 0.030155301 -1.8401049 4288085770
13.277435 -0.029914379 -1.8439342 4288085770
9.0084496 0.040438771 -1.8392007 4288085770
14.252537 -0.018321037 -1.8472369 4288085770
9.4985619 0.049741864 -1.8383678 4288085770
15.368637 -0.0076465607 -1.8528646 4288085770
10.086658 0.059084892 -1.8447632 4288085770
16.726727 0.0041652918 -1.863059 4288085770
10.683769 0.069457293 -1.843182 4288085770
18.149841 0.01505053 -1.8624011 4288085770
11.391876 0.077877283 -1.8488533 4288085770
12.129982 0.087333798 -1.8485972 4288085770
13.031078 0.095867157 -1.8567175 4288085770
13.912205 0.1044302 -1.8507907 4288085770
15.051296 0.11211085 -1.8594614 4288085770
16.290405 0.12087131 -1.8623675 4288085770
17.71751 0.12775111 -1.8647048 4288085770
17.416283 0.3714745 -1.8578227 4288085770
16.110378 0.38959873 -1.859349 4288085770
14.927494 0.40582395 -1.8541089 4288085770
13.927597 0.42215776 -1.8532221 4288085770
13.029709 0.43755877 -1.8525299 4288085770
12.193825 0.45201206 -1.8479562 4288085770
11.465931 0.46752751 -1.8465935 4288085770
10.83004 0.48210335 -1.8454056 4288085770
16.977955 0.69915986 -1.8537247 4288085770
10.214161 0.49470401 -1.8402514 4288085770
15.733067 0.70733804 -1.8503535 4288085770
9.6792603 0.5093435 -1.8402594 4288085770
14.63818 0.71661472 -1.8472739 4288085770
9.2153664 0.52402091 -1.8434039 4288085770
13.639313 0.72397184 -1.8383744 4288085770
8.7854691 0.53872049 -1.8466141 4288085770
12.792423 0.73340887 -1.836772 4288085770
8.3805733 0.55244535 -1.8468703 4288085770
12.014545 0.74289984 -1.8323032 4288085770
7.9986839 0.56618816 -1.8461715 4288085770
11.338657 0.75345206 -1.8300329 4288085770
7.6457863 0.57994741 -1.8465292 4288085770
10.747757 0.76504898 -1.8319297 4288085770
7.3068924 0.5927214 -1.8449109 4288085770
10.184864 0.77567261 -1.8308772 4288085770
6.976017 0.60551214 -1.8393089 4288085770
9.6899757 0.78733808 -1.8309578 4288085770
6.7091179 0.6193189 -1.8428317 4288085770
9.2490768 0.80003315 -1.8331449 4288085770
6.3842506 0.62913662 -1.829234 4288085770
8.8271866 0.8117438 -1.8343663 4288085770
6.1733437 0.64496583 -1.8378699 4288085770
8.4552879 0.82548141 -1.837689 4288085770
5.9244576 0.65780455 -1.834426 4288085770
8.1093903 0.83823913 -1.8400592 4288085770
5.7015648 0.67065185 -1.8340321 4288085770
7.7705002 0.85001016 -1.8394406 4288085770
5.4926758 0.68450838 -1.8336679 4288085770
7.4386139 0.86179405 -1.8358359 4288085770
5.2807961 0.69637728 -1.8282928 4288085770
7.1437263 0.87359393 -1.8353022 4288085770
5.0789108 0.70824981 -1.8239374 4288085770
6.8588448 0.88540912 -1.8317879 4288085770
4.9060211 0.7221272 -1.8246428 4288085770
6.5849609 0.89623123 -1.8282925 4288085770
4.7361336 0.73501498 -1.8223513 4288085770
6.3460693 0.90906787 -1.8278692 4288085770
4.5962296 0.74990231 -1.8271224 4288085770
6.1351776 0.92291725 -1.8295019 4288085770
4.4373512 0.76180321 -1.8228498 4288085770
5.9162865 0.93477285 -1.8271145 4288085770
4.2944603 0.77570593 -1.8216132 4288085770
5.7144012 0.94763392 -1.8267627 4288085770
4.1475677 0.78760904 -1.819364 4288085770
5.50951 0.96050179 -1.8234059 4288085770
4.0186729 0.80251795 -1.8191574 4288085770
5.3286209 0.97337925 -1.8220942 4288085770
3.8817978 0.81443608 -1.8139277 4288085770
5.1577301 0.98626357 -1.820802 4288085770
3.7768974 0.82935238 -1.8167665 4288085770
5.0038376 1.0011532 -1.8215475 4288085770
3.6510201 0.84127486 -1.8125581 4288085770
4.8489494 1.0140479 -1.8202862 4288085770
3.5551224 0.85619986 -1.8144145 4288085770
4.7200508 1.0299456 -1.8240821 4288085770
3.4462318 0.87012762 -1.8122441 4288085770
4.5611687 1.0408521 -1.8178082 4288085770
3.3523407 0.88405693 -1.8131018 4288085770
4.4302788 1.0547625 -1.8165957 4288085770
3.2684402 0.89998692 -1.8159842 4288085770
4.2963943 1.0676769 -1.8133749 4288085770
4.1884995 1.0835938 -1.8152114 4288085770
4.0726089 1.0985143 -1.8140309 4288085770
3.9607201 1.1124374 -1.8128549 4288085770
3.8468323 1.1253706 -1.8076727 4288085770
3.7509422 1.1412985 -1.8085327 4288085770
3.6550522 1.1562321 -1.8073905 4288085770
3.5691566 1.1721692 -1.8072697 4288085770
3.48526 1.189108 -1.807156 4288085770
3.4113617 1.2060474 -1.8090607 4288085770
3.328476 1.2219924 -1.8069462 4288085770
3.2585793 1.2389373 -1.8078586 4288085770
3.1906815 1.2568836 -1.8087779 4288085770
3.2005386 3.2334652 -1.8239897 4288085770
3.306591 3.3095059 -1.8323846 4288085770
3.4026566 3.3785539 -1.8357415 4288085770
3.5127182 3.4556055 -1.8411454 4288085770
3.6257782 3.5326653 -1.8445542 4288085770
3.7488289 3.6147227 -1.8509942 4288085770
3.8738861 3.6967878 -1.8554372 4288085770
4.0009422 3.7788568 -1.8588835 4288085770
4.1449928 3.8709311 -1.8643873 4288085770
4.3040276 3.9690065 -1.8729337 4288085770
4.4610748 4.0650897 -1.8784704 4288085770
3.2356415 3.3923702 -1.841416 4288085770
4.624115 4.1641774 -1.8840255 4288085770
3.34272 3.4554343 -1.8417729 4288085770
4.8041534 4.2702723 -1.8906294 4288085770
3.4837646 3.5374956 -1.8512428 4288085770
5.06213 4.4233675 -1.9155021 4288085770
3.6118279 3.6095619 -1.8556608 4288085770
5.289135 4.5544705 -1.9302573 4288085770
3.7718658 3.6996298 -1.8671854 4288085770
5.4791794 4.6605906 -1.9308765 4288085770
3.9009399 3.768712 -1.8665956 4288085770
5.6822166 4.7727156 -1.9325343 4288085770
4.0440025 3.8437943 -1.8690467 4288085770
5.8972588 4.8898487 -1.9342264 4288085770
4.1980591 3.9248786 -1.8735331 4288085770
6.1302872 5.0149884 -1.9379712 4288085770
4.388092 4.0249662 -1.8851354 4288085770
6.3753166 5.1431384 -1.9407446 4288085770
4.5261726 4.0910659 -1.8805503 4288085770
6.6353416 5.2792988 -1.9435657 4288085770
4.7182159 4.1881661 -1.888146 4288085770
6.9403343 5.4384656 -1.9545288 4288085770
4.9582214 4.310267 -1.9068948 4288085770
7.2463379 5.5946479 -1.9604839 4288085770
5.2022324 4.4333792 -1.9226524 4288085770
7.5843277 5.7658424 -1.9695354 4288085770
5.4322548 4.5444961 -1.9333507 4288085770
7.9912758 5.9730568 -1.9878064 4288085770
5.6483002 4.6426244 -1.9369869 4288085770
8.4512024 6.2072921 -2.0112441 4288085770
5.8483734 4.7297621 -1.9335636 4288085770
8.9421158 6.4535446 -2.0357671 4288085770
6.0844116 4.8349037 -1.9372523 4288085770
9.4390373 6.6988187 -2.0542955 4288085770
6.3274574 4.9400554 -1.9389521 4288085770
9.8930092 6.9111023 -2.059654 4288085770
6.5914955 5.0532131 -1.9437094 4288085770
10.366974 7.1303983 -2.0650651 4288085770
6.8615341 5.1673803 -1.946479 4288085770
10.837952 7.3417115 -2.0644464 4288085770
7.1585503 5.2915535 -1.9533224 4288085770
11.363903 7.5780516 -2.066992 4288085770
7.4335976 5.4007387 -1.9510838 4288085770
11.937847 7.8334179 -2.0716701 4288085770
7.7676125 5.5369344 -1.9590213 4288085770
8.1376114 5.6891418 -1.971064 4288085770
8.5575867 5.8633704 -1.9872531 4288085770
9.0065498 6.0466132 -2.0055146 4288085770
9.4805145 6.2368722 -2.0238371 4288085770
10.006454 6.449152 -2.0473082 4288085770
10.515415 6.6444435 -2.0626993 4288085770
13.353184 8.0524712 -1.6754843 4293729569
10.983414 6.8117361 -2.06794 4288085770
13.304523 7.9396768 -1.5910492 4293729569
11.458424 6.9750428 -2.0701787 4288085770
13.519722 7.9599848 -1.5324376 4293729569
11.950432 7.1413631 -2.0714529 4288085770
13.667953 7.9422631 -1.4686042 4293729569
12.494415 7.324707 -2.0768604 4288085770
13.942139 7.9825978 -1.414147 4293729569
13.075401 7.5170789 -2.0813537 4288085770
13.980431 7.9018354 -1.3389475 4293729569
13.676388 7.7104697 -2.0838807 4288085770
14.038719 7.8300772 -1.2668073 4293729569
14.339348 7.9258866 -2.0915718 4288085770
14.505821 7.949501 -1.2268955 4293729569
18.053864 -2.3494935 -1.849714 4288085770
17.295998 -2.3770046 -1.8474686 4288085770
16.615131 -2.4024744 -1.8493464 4288085770
15.952263 -2.4229269 -1.8492682 4288085770
15.316391 -2.439362 -1.8492439 4288085770
14.699524 -2.4487782 -1.8472707 4288085770
14.156643 -2.4621592 -1.8503976 4288085770
13.633766 -2.4725242 -1.8525651 4288085770
13.071888 -2.468895 -1.8477174 4288085770
12.550003 -2.4652443 -1.8449306 4288085770
12.039116 -2.4565778 -1.8391788 4288085770
11.56023 -2.4488993 -1.836471 4288085770
11.128345 -2.4431973 -1.8368282 4288085770
17.491264 -3.7359481 -1.8473948 4288085770
10.726456 -2.4384789 -1.8382281 4288085770
16.58733 -3.6615601 -1.8462499 4288085770
10.30957 -2.4257584 -1.8356309 4288085770
15.747402 -3.5911283 -1.8451905 4288085770
9.9136848 -2.412024 -1.8330687 4288085770
14.987476 -3.5276532 -1.8472311 4288085770
9.5567932 -2.4022751 -1.8345537 4288085770
14.229553 -3.4551554 -1.8423038 4288085770
9.2058983 -2.3885169 -1.8340602 4288085770
13.609627 -3.403595 -1.8475195 4288085770
8.8810081 -2.3767433 -1.8346002 4288085770
12.953701 -3.3360314 -1.8437316 4288085770
8.563118 -2.3619661 -1.8351604 4288085770
12.340782 -3.2714429 -1.8410001 4288085770
8.2722244 -2.3491731 -1.8367552 4288085770
11.801865 -3.2168164 -1.8423495 4288085770
7.972332 -2.3313804 -1.8363525 4288085770
11.283947 -3.1611671 -1.8407341 4288085770
7.7124367 -2.3195734 -1.8399916 4288085770
10.790024 -3.1055045 -1.8401557 4288085770
7.4475479 -2.3027635 -1.8416435 4288085770
10.315113 -3.0488238 -1.8376138 4288085770
7.1896477 -2.2859449 -1.8423015 4288085770
9.876194 -2.9961233 -1.8371094 4288085770
6.9557571 -2.2711163 -1.8449897 4288085770
9.4722824 -2.9474025 -1.8376459 4288085770
6.718853 -2.2522864 -1.8466864 4288085770
9.079361 -2.8966722 -1.837206 4288085770
6.4689636 -2.2284484 -1.8423792 4288085770
8.7234459 -2.8529248 -1.8398 4288085770
6.2390671 -2.2066083 -1.842096 4288085770
8.3565369 -2.8011675 -1.8364028 4288085770
6.0161743 -2.1837611 -1.8408267 4288085770
8.0376205 -2.7593961 -1.8390467 4288085770
5.8182716 -2.1649055 -1.8425825 4288085770
7.7227097 -2.713613 -1.8387095 4288085770
5.6143761 -2.1420479 -1.8423421 4288085770
7.4307976 -2.6718206 -1.8403947 4288085770
5.4104843 -2.1171823 -1.8391082 4288085770
7.1678886 -2.6350145 -1.8441079 4288085770
5.2045898 -2.0883083 -1.8328841 4288085770
6.9099731 -2.5972023 -1.8468323 4288085770
5.0107002 -2.0614367 -1.8296719 4288085770
6.6540642 -2.5573826 -1.8475662 4288085770
4.8617935 -2.0465593 -1.8354899 4288085770
6.4011536 -2.5145583 -1.8473144 4288085770
4.6869011 -2.0216742 -1.8323004 4288085770
6.1482468 -2.4687228 -1.8430721 4288085770
4.5130081 -1.9947888 -1.8291188 4288085770
5.8953438 -2.4208846 -1.8378366 4288085770
4.3631134 -1.9729007 -1.8309575 4288085770
5.6814346 -2.3820338 -1.8376313 4288085770
4.2092133 -1.949005 -1.8287969 4288085770
5.4465332 -2.3351774 -1.8304203 4288085770
4.0753174 -1.9291097 -1.8316536 4288085770
5.2516251 -2.2983141 -1.8302379 4288085770
3.9504166 -1.9112109 -1.8355178 4288085770
5.0467224 -2.2554464 -1.8260592 4288085770
3.814518 -1.8883084 -1.8353817 4288085770
4.862812 -2.2185731 -1.8248942 4288085770
3.6796188 -1.8633996 -1.8332529 4288085770
4.6799088 -2.1786938 -1.8217397 4288085770
3.5637207 -1.8434922 -1.8361371 4288085770
4.5290031 -2.1498156 -1.8265988 4288085770
3.4278259 -1.8155781 -1.8320167 4288085770
4.360096 -2.1119266 -1.8234593 4288085770
3.3039284 -1.7906619 -1.8299052 4288085770
4.2151947 -2.0810356 -1.825334 4288085770
3.2120323 -1.7757505 -1.8368098 4288085770
4.0662842 -2.0461421 -1.8252151 4288085770
3.9323807 -2.0162444 -1.8271034 4288085770
3.8084755 -1.9883457 -1.8310003 4288085770
3.6755753 -1.9544386 -1.8299026 4288085770
3.5396729 -1.9195243 -1.8258041 4288085770
3.3997765 -1.8796045 -1.8187152 4288085770
3.2928734 -1.8526913 -1.8216349 4288085770
3.1799698 -1.8217708 -1.8205582 4288085770
3.2054825 0.19662178 -1.8094474 4288085770
3.3175926 0.20868957 -1.810606 4288085770
3.4356995 0.22176456 -1.810774 4288085770
3.5548134 0.23384309 -1.8099399 4288085770
3.6589317 0.24592912 -1.8030877 4288085770
3.8000374 0.2580111 -1.8062787 4288085770
3.9551392 0.27009976 -1.8104855 4288085770
4.1012497 0.28219426 -1.8106812 4288085770
3.2053032 0.2865696 -1.8116398 4288085770
4.2653542 0.29529214 -1.8139005 4288085770
3.3394127 0.29664099 -1.8168166 4288085770
4.4264679 0.30739701 -1.8141125 4288085770
3.4515266 0.30672371 -1.8129672 4288085770
4.5955772 0.31950998 -1.8133335 4288085770
3.5856361 0.31580389 -1.81514 4288085770
4.7866859 0.33162677 -1.8165793 4288085770
3.6997566 0.32489669 -1.8082893 4288085770
4.9757919 0.34375072 -1.8168222 4288085770
3.8548622 0.33498275 -1.8134885 4288085770
5.1849022 0.35588002 -1.8200876 4288085770
4.0049706 0.34407699 -1.8146785 4288085770
5.4290009 0.37002158 -1.8273987 4288085770
4.156086 0.35317779 -1.8138691 4288085770
5.659111 0.3821739 -1.8276867 4288085770
4.3441887 0.36328363 -1.820105 4288085770
5.8932228 0.39433503 -1.8259786 4288085770
4.5133018 0.37239695 -1.8193152 4288085770
6.1543312 0.40650904 -1.8263007 4288085770
4.7224045 0.38251734 -1.8255738 4288085770
6.4424362 0.41968989 -1.8306561 4288085770
4.9085159 0.39064264 -1.8247993 4288085770
6.7615395 0.4328891 -1.8360459 4288085770
5.1126289 0.39977419 -1.8260478 4288085770
7.0856438 0.44609785 -1.8394402 4288085770
5.3277435 0.40791929 -1.8253051 4288085770
7.4387474 0.45832956 -1.8418638 4288085770
5.5448608 0.41506886 -1.8235612 4288085770
7.8058586 0.47157693 -1.8423048 4288085770
5.8019638 0.42422867 -1.8278683 4288085770
8.2109604 0.4848417 -1.8457887 4288085770
6.0660744 0.43239915 -1.8301793 4288085770
8.6160774 0.49712706 -1.8422675 4288085770
6.3381882 0.43958378 -1.8294953 4288085770
9.062191 0.50943494 -1.8407915 4288085770
6.6572952 0.44778037 -1.8358668 4288085770
9.5053062 0.52075839 -1.8333074 4288085770
6.9814034 0.45498931 -1.8392398 4288085770
10.067413 0.53513193 -1.8369658 4288085770
7.3275146 0.46221352 -1.8426367 4288085770
10.648521 0.54753315 -1.8356377 4288085770
7.7076225 0.46845841 -1.8470678 4288085770
11.311634 0.56098521 -1.836403 4288085770
8.0987396 0.47472548 -1.8465099 4288085770
12.059738 0.57549036 -1.839265 4288085770
8.5218468 0.48000598 -1.8489839 4288085770
12.859848 0.59003729 -1.8401829 4288085770
8.925972 0.48330271 -1.841429 4288085770
13.745956 0.60365266 -1.8381915 4288085770
9.4060898 0.48663449 -1.8399578 4288085770
14.792061 0.61936671 -1.8403829 4288085770
9.9402084 0.48999786 -1.8405459 4288085770
16.026157 0.63619345 -1.8487842 4288085770
10.526321 0.49239445 -1.8421873 4288085770
17.428261 0.65413946 -1.8563721 4288085770
11.169441 0.49483335 -1.8428903 4288085770
11.868561 0.49531388 -1.8426473 4288085770
12.664673 0.4948529 -1.8455075 4288085770
13.574783 0.49446511 -1.850493 4288085770
14.51091 0.48911893 -1.8474879 4288085770
15.655025 0.48489606 -1.8517132 4288085770
16.918144 0.47675884 -1.8550546 4288085770
8.2421532 -5.4169331 -0.10601828 4293729569
8.2451897 -5.3560681 -0.1521849 4293729569
8.2592201 -5.2981901 -0.19635235 4293729569
8.3082733 -5.2582874 -0.24049805 4293729569
13.392113 -7.8430982 -0.40640599 4293729569
13.506145 -7.8002067 -0.47160989 4293729569
13.570152 -7.7293458 -0.53485119 4293729569
13.70319 -7.6914363 -0.59805644 4293729569
13.858231 -7.6595092 -0.66126281 4293729569
14.055283 -7.6475539 -0.72544706 4293729569
14.315353 -7.6595635 -0.79261547 4293729569
14.584423 -7.6735654 -0.85978514 4293729569
14.881496 -7.69455 -0.92795771 4293729569
15.161564 -7.7035432 -0.99514955 4293729569
15.458633 -7.7145247 -1.0623497 4293729569
15.801708 -7.7394843 -1.1335472 4293729569
16.172791 -7.7714257 -1.2057476 4293729569
16.51786 -7.7873826 -1.2769711 4293729569
16.866924 -7.7973342 -1.3472142 4293729569
18.010128 -7.8361278 -1.5609932 4293729569
17.630024 -7.5384345 -1.5715083 4293729569
17.221916 -7.233747 -1.576021 4293729569
14.189278 -5.9453321 -1.3601776 4293729569
14.114265 -5.7964468 -1.3805252 4293729569
14.156281 -5.6905036 -1.4098455 4293729569
14.245941 -5.5901179 -0.60519564 4293729569
16.130657 -6.2696342 -1.6057981 4293729569
14.274956 -5.4781694 -0.6295222 4293729569
15.990635 -6.0837712 -1.6171949 4293729569
15.854614 -5.9018993 -1.6265839 4293729569
15.722591 -5.7250247 -1.635962 4293729569
15.665592 -5.5741038 -1.6483275 4293729569
15.566586 -5.4091964 -1.6546988 4293729569
15.496586 -5.2552719 -1.6620624 4293729569
15.436588 -5.107338 -1.6694171 4293729569
15.568619 -5.0143113 -1.6927713 4293729569
15.963692 -4.9981589 -1.7391193 4293729569
16.506771 -5.0129352 -1.798498 4288085770
16.859829 -4.9707928 -1.8378842 4288085770
16.988853 -4.863749 -1.8542734 4288085770
16.930859 -4.7077827 -1.8506509 4288085770
16.90987 -4.5617948 -1.849031 4288085770
16.926888 -4.4247851 -1.8494149 4288085770
16.959908 -4.2917619 -1.8488002 4288085770
17.000935 -4.1617312 -1.848183 4288085770
17.063965 -4.0366821 -1.8465693 4288085770
17.146988 -3.9146214 -1.8459625 4288085770
17.279026 -3.8015337 -1.8483691 4288085770
17.366055 -3.6774588 -1.8437709 4288085770
17.499088 -3.5623589 -1.8421835 4288085770
17.660133 -3.4522376 -1.8406035 4288085770
17.853168 -3.3440995 -1.841043 4288085770
18.124214 -3.2459154 -1.8455153 4288085770
18.118111 0.78520298 -1.8572559 4288085770
16.868198 0.82125634 -1.8525898 4288085770
15.779293 0.85443223 -1.848014 4288085770
14.821388 0.88470513 -1.8445106 4288085770
13.927483 0.91303492 -1.8380409 4288085770
13.164581 0.9414537 -1.8356515 4288085770
12.491673 0.96893555 -1.8353143 4288085770
11.887768 0.99646735 -1.8360194 4288085770
11.323868 1.0210375 -1.8337407 4288085770
10.812962 1.04664 -1.8344976 4288085770
17.362602 1.5775776 -1.8618758 4288085770
10.308064 1.0682634 -1.8292472 4288085770
16.298714 1.5837774 -1.8552449 4288085770
9.8841591 1.0929325 -1.8300546 4288085770
15.327831 1.5900536 -1.8466712 4288085770
9.48526 1.1156256 -1.8288718 4288085770
14.471943 1.5974145 -1.83917 4288085770
9.1343536 1.1403446 -1.8317236 4288085770
13.695053 1.6048385 -1.830717 4288085770
8.7944489 1.1640773 -1.8325795 4288085770
13.033165 1.618331 -1.8293501 4288085770
8.4775467 1.1858304 -1.8324441 4288085770
12.461269 1.6338869 -1.8300432 4288085770
8.1676483 1.2065969 -1.8293105 4288085770
11.961361 1.6534866 -1.8347908 4288085770
7.8957481 1.2293814 -1.8302052 4288085770
11.438473 1.6650933 -1.8305033 4288085770
7.6438446 1.2511814 -1.8311095 4288085770
11.016571 1.6857554 -1.8343015 4288085770
7.4009476 1.2739906 -1.8310221 4288085770
10.558681 1.6974144 -1.8290536 4288085770
7.1610451 1.2938051 -1.8299285 4288085770
10.19178 1.717121 -1.8318827 4288085770
6.9511414 1.3166367 -1.8308612 4288085770
9.8138885 1.7318355 -1.8286916 4288085770
6.7482414 1.3384767 -1.8307956 4288085770
9.4629936 1.7485678 -1.8265226 4288085770
6.5743408 1.3623278 -1.8347527 4288085770
9.1490936 1.7653257 -1.8253758 4288085770
6.3824387 1.3831813 -1.8326912 4288085770
8.869194 1.7861012 -1.8272604 4288085770
6.2025414 1.4040442 -1.830637 4288085770
8.5942955 1.8048863 -1.827143 4288085770
6.0346413 1.4249133 -1.82959 4288085770
8.3423996 1.8246887 -1.8270419 4288085770
5.8917351 1.447791 -1.8325638 4288085770
8.0874939 1.8414969 -1.8239315 4288085770
5.7248383 1.4666746 -1.8265121 4288085770
7.8825912 1.8653271 -1.8268696 4288085770
5.579937 1.4875611 -1.8254793 4288085770
7.6686897 1.8851613 -1.825792 4288085770
5.4320412 1.5064538 -1.8214391 4288085770
7.4807892 1.9090072 -1.8277406 4288085770
5.304142 1.5283535 -1.8204193 4288085770
7.284893 1.9288549 -1.8266736 4288085770
5.1782417 1.5492573 -1.8183979 4288085770
7.1249847 1.9547194 -1.8296446 4288085770
5.0673409 1.5721673 -1.818391 4288085770
6.9360886 1.9735805 -1.8255795 4288085770
4.9614334 1.5960784 -1.8193897 4288085770
6.7921829 1.9984598 -1.8275576 4288085770
4.8715286 1.621996 -1.8224034 4288085770
6.6312828 2.0193372 -1.8255147 4288085770
4.7836266 1.6469182 -1.8244157 4288085770
6.5043755 2.0462294 -1.8275083 4288085770
4.6727295 1.6658416 -1.8193982 4288085770
6.3554802 2.0671184 -1.8244728 4288085770
4.5858269 1.6907698 -1.819411 4288085770
6.2265778 2.0910172 -1.8234572 4288085770
4.4899292 1.7117019 -1.8154081 4288085770
6.1326675 2.121927 -1.8284814 4288085770
4.4170227 1.7366354 -1.8174293 4288085770
5.9997711 2.1418333 -1.8234528 4288085770
4.3391228 1.7605731 -1.816445 4288085770
5.8898659 2.1667469 -1.8224516 4288085770
4.2552223 1.7825117 -1.8134519 4288085770
5.7739677 2.1896639 -1.8184413 4288085770
4.1803169 1.8054575 -1.8104669 4288085770
5.6890526 2.2195857 -1.8214684 4288085770
4.1154099 1.8314024 -1.8104957 4288085770
5.6141396 2.2515152 -1.8245069 4288085770
4.0645027 1.8613501 -1.8135437 4288085770
5.4982491 2.2714398 -1.8174887 4288085770
3.9926071 1.8833005 -1.8095576 4288085770
5.4153404 2.3003738 -1.8165143 4288085770
3.9376984 1.9112531 -1.8095978 4288085770
5.3384361 2.3293126 -1.8155435 4288085770
3.8797989 1.937206 -1.8086309 4288085770
5.2735252 2.3622551 -1.8165904 4288085770
3.833889 1.9661629 -1.8096792 4288085770
5.2066154 2.3931983 -1.8166308 4288085770
3.769989 1.9881247 -1.8036979 4288085770
5.1347084 2.4221461 -1.8136629 4288085770
3.729084 2.0170879 -1.8037491 4288085770
5.0708046 2.4520946 -1.8127027 4288085770
3.6901741 2.0480502 -1.8048068 4288085770
5.0128975 2.4840503 -1.8107512 4288085770
3.6472702 2.0760145 -1.803854 4288085770
4.9649849 2.5190053 -1.8118135 4288085770
3.6083641 2.104985 -1.8019065 4288085770
4.9290657 2.5589647 -1.8148965 4288085770
3.5644569 2.1329541 -1.7989532 4288085770
4.8741608 2.5899282 -1.8109441 4288085770
3.5385513 2.165926 -1.8000238 4288085770
