# .PCD v0.7 - Point Cloud Data file format
VERSION 0.7
FIELDS x y z rgb
SIZE 4 4 4 4
TYPE F F F U
COUNT 1 1 1 1
WIDTH 1106
HEIGHT 1
VIEWPOINT 0 0 0 1 0 0 0
POINTS 1106
DATA ascii
8.3966675 -0.069767952 -1.8199787 4288085770
7.2558136 -0.082481384 -1.8118552 4288085770
6.2839508 -0.093756199 -1.810901 4288085770
5.4350815 -0.10273218 -1.8120629 4288085770
4.6742039 -0.10950947 -1.8123035 4288085770
3.9613266 -0.11319208 -1.8095757 4288085770
10.410947 -0.35108423 -1.8248472 4288085770
3.3724442 -0.11853552 -1.8149892 4288085770
9.0350208 -0.33630991 -1.8223068 4288085770
2.821558 -0.12179756 -1.8194299 4288085770
7.7731018 -0.3193121 -1.8128724 4288085770
2.2766685 -0.12207603 -1.8188583 4288085770
6.6911774 -0.30386972 -1.8076377 4288085770
1.722784 -0.11844301 -1.8072529 4288085770
5.7952576 -0.29094982 -1.8096145 4288085770
1.2468929 -0.11557913 -1.8037344 4288085770
4.9713326 -0.27787399 -1.8096665 4288085770
0.85099983 -0.11448479 -1.8073118 4288085770
4.2204189 -0.26463985 -1.8077943 4288085770
0.4851017 -0.11231995 -1.8109139 4288085770
3.5974941 -0.25305796 -1.8140675 4288085770
0.11520767 -0.10919666 -1.8095057 4288085770
3.0015755 -0.24143076 -1.817369 4288085770
-0.21469307 -0.10496092 -1.811133 4288085770
2.4336548 -0.22776937 -1.8156871 4288085770
-0.53558922 -0.10072136 -1.8097697 4288085770
1.8837414 -0.21310282 -1.8080177 4288085770
-0.79549408 -0.097285271 -1.8174759 4288085770
1.4008198 -0.19924879 -1.8054242 4288085770
-1.0663967 -0.091911793 -1.8191583 4288085770
0.96690178 -0.18627501 -1.8038877 4288085770
-1.3352966 -0.085551262 -1.8178365 4288085770
0.5919838 -0.17512608 -1.8084251 4288085770
-1.5841999 -0.079144955 -1.8165359 4288085770
0.23706436 -0.16294193 -1.8109769 4288085770
-1.8011055 -0.073632717 -1.8202744 4288085770
-0.087854385 -0.15267563 -1.8155721 4288085770
-2.0330124 -0.065186024 -1.8189789 4288085770
-0.4237709 -0.13847828 -1.8131315 4288085770
-2.2619114 -0.056764126 -1.8126864 4288085770
-0.71868706 -0.1271677 -1.8137518 4288085770
-2.4528179 -0.050202847 -1.8144459 4288085770
-0.99160576 -0.11479855 -1.8153889 4288085770
-2.6387272 -0.04164362 -1.814198 4288085770
-1.2705231 -0.10147429 -1.8120136 4288085770
-2.8266315 -0.033100128 -1.8119483 4288085770
-1.5184383 -0.089058399 -1.8116767 4288085770
-2.9895382 -0.025474072 -1.8137306 4288085770
-1.7503586 -0.076600552 -1.8123562 4288085770
-3.1454525 -0.017831802 -1.81552 4288085770
-1.968277 -0.065108776 -1.8130566 4288085770
-3.3183594 -0.0072784424 -1.8092735 4288085770
-2.1911945 -0.051654339 -1.8097395 4288085770
-3.4612675 0.0013942719 -1.8110703 4288085770
-2.376112 -0.040067673 -1.8134742 4288085770
-3.5881767 0.0091161728 -1.81489 4288085770
-2.5860252 -0.02660656 -1.8061706 4288085770
-3.7210827 0.017800331 -1.8146974 4288085770
-2.7539425 -0.013986588 -1.8089167 4288085770
-2.9268627 -0.001396656 -1.8086575 4288085770
-3.0797787 0.010246754 -1.8094255 4288085770
-3.2366943 0.022868633 -1.8081831 4288085770
-3.3796139 0.035540581 -1.809955 4288085770
-3.5345249 0.048142433 -1.8047146 4288085770
-3.6654415 0.060836792 -1.8054992 4288085770
-3.7953587 0.073521137 -1.8042846 4288085770
-3.8486919 2.0956998 -1.7947166 4288085770
-3.7116547 2.126045 -1.7996725 4288085770
-3.5816059 2.1533489 -1.80064 4288085770
-3.4445591 2.1816692 -1.8016086 4288085770
-3.3015137 2.2100101 -1.8035833 4288085770
-3.1574669 2.2373402 -1.8035655 4288085770
-2.9964275 2.2677288 -1.8065466 4288085770
-2.8413754 2.2950847 -1.8065401 4288085770
-3.8286972 2.0307176 -1.7971437 4288085770
-2.6763306 2.3234704 -1.8075382 4288085770
-3.6966381 2.0520387 -1.8001509 4288085770
-2.4952965 2.3559058 -1.8105277 4288085770
-3.5485859 2.0754161 -1.8061622 4288085770
-2.3002682 2.3893864 -1.8155257 4288085770
-3.4145184 2.0947294 -1.8071839 4288085770
-2.1072273 2.4208374 -1.8165342 4288085770
-3.2914314 2.1079857 -1.803232 4288085770
-1.9191799 2.449264 -1.815556 4288085770
-3.1323776 2.1313825 -1.808255 4288085770
-1.7211323 2.4777141 -1.8145888 4288085770
-3.0022926 2.1436431 -1.8023164 4288085770
-1.5001049 2.5112307 -1.8156141 4288085770
-2.8182526 2.1701233 -1.8113468 4288085770
-1.2850571 2.5397143 -1.8136647 4288085770
-2.651186 2.1895201 -1.8134034 4288085770
-1.0610104 2.5692186 -1.8117183 4288085770
-2.4601383 2.2140043 -1.8204536 4288085770
-0.80597878 2.6038206 -1.8137732 4288085770
-2.2850666 2.2324073 -1.8205248 4288085770
-0.54694748 2.6374257 -1.8148384 4288085770
-2.1039944 2.2488303 -1.821615 4288085770
-0.27391052 2.6710572 -1.8149184 4288085770
-1.9359074 2.2611921 -1.8177167 4288085770
0.012121201 2.7057252 -1.8160059 4288085770
-1.7368355 2.2796571 -1.8188131 4288085770
0.30715752 2.7394013 -1.8151091 4288085770
-1.5307636 2.2971387 -1.8199233 4288085770
0.62019157 2.7731268 -1.8152313 4288085770
-1.3306808 2.3105876 -1.8180525 4288085770
0.96021271 2.8119268 -1.8173507 4288085770
-1.1156044 2.3260841 -1.8181846 4288085770
1.3292294 2.8518014 -1.8204941 4288085770
-0.89252281 2.3395929 -1.8173379 4288085770
1.6932621 2.8876328 -1.8186574 4288085770
-0.65244484 2.355154 -1.8184965 4288085770
2.0962811 2.9275737 -1.8198369 4288085770
-0.41835594 2.3666761 -1.8156741 4288085770
2.5282955 2.9695892 -1.822034 4288085770
-0.15028191 2.3823085 -1.817862 4288085770
2.9982967 3.0157056 -1.826246 4288085770
0.11780357 2.3949292 -1.8180691 4288085770
3.5172901 3.064949 -1.8324912 4288085770
0.40887451 2.4096096 -1.8192879 4288085770
4.0802631 3.1193018 -1.8397508 4288085770
0.68797302 2.4172366 -1.8165382 4288085770
3.6968365 2.9756351 -1.7182413 4293729569
1.0110512 2.4310043 -1.8197968 4288085770
3.0505543 2.7841799 -1.568751 4293729569
1.3141518 2.4376876 -1.8170787 4288085770
2.8240089 2.6780677 -1.477174 4293729569
1.6692314 2.4505301 -1.8203776 4288085770
2.8623123 2.6237872 -1.4195551 4293729569
2.0193291 2.4573357 -1.8197089 4288085770
2.9036102 2.5685201 -1.3629456 4293729569
2.371439 2.4611332 -1.8170614 4288085770
2.8999386 2.504122 -1.3023454 4293729569
2.762537 2.467041 -1.8174425 4288085770
2.907259 2.440763 -1.2437507 4293729569
3.1696434 2.4709861 -1.8178531 4288085770
2.9125824 2.3783996 -1.1861454 4293729569
3.6167412 2.477031 -1.8202902 4288085770
2.9958706 2.3262727 -1.1365601 4293729569
4.074852 2.4790938 -1.8207659 4288085770
3.1381359 2.2813087 -1.0909934 4293729569
3.5734501 2.3281121 -1.6931762 4293729569
3.3193893 2.2404604 -1.0494422 4293729569
3.5218143 2.2495699 -1.6276126 4293729569
3.5816154 2.2088327 -1.0129198 4293729569
3.5511456 2.1812861 -1.5730716 4293729569
3.9558086 2.1885104 -0.983446 4293729569
3.9453144 2.1621306 -1.5626124 4293729569
4.325016 2.1631577 -0.9509986 4293729569
4.3794823 2.1430807 -1.5541953 4293729569
4.9261532 2.1624277 -0.93164438 4293729569
4.9456081 2.1354146 -1.5578479 4293729569
5.7242413 2.1772015 -0.9194032 4293729569
5.4457855 2.1115251 -1.5505316 4293729569
5.8445873 2.1041231 -0.86398977 4293729569
5.9999619 2.0877745 -1.5452725 4293729569
5.739994 2.0064502 -0.79749072 4293729569
6.6201286 2.0662024 -1.54407 4293729569
10.502252 2.3631001 -1.839354 4288085770
6.6501789 -4.9329515 -0.19240947 4293729569
6.6505413 -5.0517917 -0.21916831 4293729569
1.1701202 -4.4505191 -0.079566337 4293729569
1.2727222 -4.5077291 -0.63905305 4293729569
1.1593513 -4.5183244 -0.11599034 4293729569
1.1798668 -4.5377355 -0.67314929 4293729569
1.1856174 -4.6020207 -0.15555504 4293729569
1.1620884 -4.6025424 -0.7115469 4293729569
1.1773415 -4.6812453 -0.75406837 4293729569
5.2976246 -7.3780284 -1.5036633 4293729569
4.6961803 -7.1423812 -1.5105282 4293729569
4.0947227 -6.899755 -1.5143485 4293729569
3.616394 -6.7167821 -1.5276797 4293729569
3.1380501 -6.5248408 -1.5359534 4293729569
2.6757145 -6.336864 -1.5442692 4293729569
2.2424011 -6.1578231 -1.5516726 4293729569
1.8280983 -5.9827523 -1.5571213 4293729569
1.4698505 -5.8345075 -1.5698003 4293729569
1.078558 -5.6614079 -1.5712855 4293729569
0.73130608 -5.5081735 -1.577944 4293729569
0.37203407 -5.3430057 -1.5785134 4293729569
4.0513 -7.538116 -1.4864192 4293729569
0.034778595 -5.1857867 -1.5791568 4293729569
3.4997597 -7.2643027 -1.501093 4293729569
-0.28045654 -5.0375085 -1.5808804 4293729569
2.9321861 -6.9725833 -1.506635 4293729569
-0.53362465 -4.9230361 -1.5908856 4293729569
2.4637318 -6.7345948 -1.5186247 4293729569
-0.76076126 -4.820497 -1.6019943 4293729569
2.0323124 -6.5125184 -1.530755 4293729569
-0.99792862 -4.7079988 -1.6100285 4293729569
1.6118946 -6.2934308 -1.5409155 4293729569
-1.2441025 -4.5855546 -1.6129895 4293729569
1.2215137 -6.0862842 -1.5491841 4293729569
-1.4602451 -4.480021 -1.6190904 4293729569
0.85416222 -5.8900914 -1.5565468 4293729569
-1.6483555 -4.3883967 -1.6293099 4293729569
0.50882721 -5.7018476 -1.5639836 4293729569
-1.8534946 -4.2828431 -1.6344222 4293729569
0.14246178 -5.4976897 -1.5652958 4293729569
-2.0626431 -4.1723256 -1.6354983 4293729569
-0.17283821 -5.3214002 -1.5688401 4293729569
-2.2637825 -4.0637889 -1.6365954 4293729569
-0.43708229 -5.1739478 -1.5796227 4293729569
-2.4388962 -3.969172 -1.6408088 4293729569
-0.68931198 -5.0304799 -1.5884432 4293729569
-2.578968 -3.8944345 -1.6511866 4293729569
-0.92752838 -4.8929849 -1.5963167 4293729569
-2.7320595 -3.8087602 -1.6564804 4293729569
-1.155735 -4.7594676 -1.6042259 4293729569
-2.9091854 -3.7061925 -1.6536404 4293729569
-1.3799419 -4.6249642 -1.6081327 4293729569
-3.0232315 -3.6423898 -1.6651155 4293729569
-1.585125 -4.5013986 -1.6151296 4293729569
-3.0481758 -3.6342292 -1.7000408 4293729569
-1.7522659 -4.3977208 -1.6262938 4293729569
-3.0621052 -3.6320329 -1.7370158 4293729569
-1.9674625 -4.2632346 -1.62421 4293729569
-3.0730381 -3.629827 -1.7739942 4288085770
-2.1376095 -4.1545939 -1.6303389 4293729569
-3.0909824 -3.6216464 -1.8099269 4288085770
-2.3187714 -4.0370097 -1.6313987 4293729569
-3.1770191 -3.5667634 -1.8234881 4288085770
-2.469902 -3.9383321 -1.6366111 4293729569
-3.3191185 -3.4731212 -1.819742 4288085770
-2.5899925 -3.8555484 -1.6469582 4293729569
-3.4542141 -3.3824744 -1.8140222 4288085770
-2.7250977 -3.7638307 -1.6522321 4293729569
-3.5943127 -3.2878523 -1.8062716 4288085770
-2.8692207 -3.6631608 -1.6534388 4293729569
-3.7003746 -3.2131 -1.8066841 4288085770
-2.8871918 -3.6420131 -1.6842885 4293729569
-3.8044357 -3.13835 -1.8060987 4288085770
-2.8831348 -3.6337724 -1.7212442 4293729569
-2.8570595 -3.6384435 -1.7643058 4293729569
-2.8209724 -3.6470847 -1.8084035 4288085770
-2.8920155 -3.5861678 -1.8219421 4288085770
-3.0261326 -3.4845195 -1.8161527 4288085770
-3.1432323 -3.3918185 -1.8124384 4288085770
-3.2593288 -3.3001213 -1.8077316 4288085770
-3.3614082 -3.2163858 -1.8040905 4288085770
-3.4554768 -3.1366248 -1.8014832 4288085770
-3.5255203 -3.0707693 -1.8049904 4288085770
-3.5975723 -3.001925 -1.8074763 4288085770
-3.6846352 -2.9251661 -1.8018951 4288085770
-3.7456703 -2.8623028 -1.8034308 4288085770
-3.8027039 -2.8014235 -1.8059833 4288085770
-3.8397522 -1.2805877 -1.8272754 4288085770
-3.7916946 -1.2564769 -1.8281729 4288085770
-3.7346325 -1.2353387 -1.8300993 4288085770
-3.6795731 -1.2122111 -1.8310105 4288085770
-3.6155109 -1.1920567 -1.8329506 4288085770
-3.5534496 -1.1709199 -1.8338796 4288085770
-3.4813843 -1.1517339 -1.8378345 4288085770
-3.4143257 -1.1295791 -1.8387649 4288085770
-3.358263 -1.1054821 -1.8346713 4288085770
-3.2571907 -1.0921974 -1.8436948 4288085770
-3.1931305 -1.0680823 -1.8396094 4288085770
-3.1050625 -1.0498662 -1.8425872 4288085770
-3.0309963 -1.0277209 -1.8395251 4288085770
-2.9329262 -1.0104818 -1.8425199 4288085770
-2.8518658 -0.9873271 -1.8384585 4288085770
-2.7307911 -0.97400284 -1.846503 4288085770
-2.6127167 -0.95871019 -1.8505316 4288085770
-3.7882214 -0.71153069 -1.8336937 4288085770
-2.5436554 -0.93162251 -1.8404319 4288085770
-3.7171478 -0.69239235 -1.8306473 4288085770
-2.4245853 -0.91434813 -1.8414488 4288085770
-3.6350784 -0.67321587 -1.8296125 4288085770
-2.3035126 -0.8970685 -1.8424675 4288085770
-3.5460052 -0.65601683 -1.8295977 4288085770
-2.1824417 -0.87880182 -1.8414801 4288085770
-3.4459324 -0.63976669 -1.8336006 4288085770
-2.028368 -0.86540747 -1.8485591 4288085770
-3.3638649 -0.62060881 -1.8295658 4288085770
-1.8902988 -0.84709501 -1.8485891 4288085770
-3.2597904 -0.60337591 -1.8295666 4288085770
-1.7532253 -0.82879829 -1.8466183 4288085770
-3.1507168 -0.5871172 -1.831579 4288085770
-1.5751495 -0.8153615 -1.8517224 4288085770
-3.0356426 -0.57085228 -1.8325977 4288085770
-1.4520798 -0.79313564 -1.843711 4288085770
-2.9225731 -0.55259752 -1.8326015 4288085770
-1.2620049 -0.77867746 -1.8478214 4288085770
-2.8024979 -0.53632689 -1.8326255 4288085770
-1.1069298 -0.75936508 -1.8418628 4288085770
-2.6694221 -0.52002001 -1.8336631 4288085770
-0.9308567 -0.74098444 -1.8389328 4288085770
-2.52635 -0.50467682 -1.8367174 4288085770
-0.75178146 -0.72260427 -1.8350058 4288085770
-2.3812733 -0.48933506 -1.8387737 4288085770
-0.55570602 -0.70517778 -1.832103 4288085770
-2.2111988 -0.47591066 -1.8448693 4288085770
-0.32162476 -0.69063759 -1.8332592 4288085770
-2.0791225 -0.45665121 -1.8388865 4288085770
-0.086547852 -0.67510748 -1.83241 4288085770
-1.9270496 -0.43832016 -1.836931 4288085770
0.15552711 -0.65756798 -1.8305553 4288085770
-1.7429752 -0.42288876 -1.8390282 4288085770
0.43060493 -0.64294004 -1.8307545 4288085770
-1.5508995 -0.40743923 -1.8411337 4288085770
0.69768524 -0.6253624 -1.8259258 4288085770
-1.4098244 -0.38619137 -1.8301476 4288085770
0.97576332 -0.60875988 -1.8211154 4288085770
-1.2107487 -0.36974525 -1.829254 4288085770
1.3108444 -0.59399986 -1.8203771 4288085770
-1.0016785 -0.35227585 -1.8283644 4288085770
1.6729202 -0.57916451 -1.8216671 4288085770
-0.79260254 -0.33383274 -1.8234684 4288085770
2.0940018 -0.56816673 -1.8270446 4288085770
-0.5795269 -0.31538582 -1.8175769 4288085770
2.5030823 -0.55324221 -1.8253839 4288085770
-0.31345177 -0.29876661 -1.8197533 4288085770
2.9471626 -0.53823662 -1.8237597 4288085770
-0.054374695 -0.28119469 -1.8169159 4288085770
3.4242458 -0.52316189 -1.8211702 4288085770
0.22469521 -0.26257658 -1.8140932 4288085770
3.9383278 -0.50701523 -1.816613 4288085770
0.53977203 -0.24585724 -1.8143209 4288085770
4.5624104 -0.4955554 -1.8212031 4288085770
0.85284615 -0.22717333 -1.8095337 4288085770
5.1914959 -0.4811368 -1.8177789 4288085770
1.2259216 -0.21031237 -1.8108221 4288085770
5.9075794 -0.46650362 -1.8164459 4288085770
1.6079941 -0.19244432 -1.8101134 4288085770
6.6966648 -0.45270252 -1.8151958 4288085770
2.0740623 -0.17633057 -1.8175055 4288085770
7.624752 -0.44155502 -1.8181105 4288085770
2.5721321 -0.15916252 -1.8219247 4288085770
8.7308369 -0.43196392 -1.8262241 4288085770
3.1112003 -0.14089346 -1.8273801 4288085770
9.9149246 -0.4202323 -1.8284067 4288085770
3.609272 -0.1188097 -1.8187672 4288085770
4.1913452 -0.098493576 -1.816255 4288085770
4.8744068 -0.077912331 -1.8188484 4288085770
5.6154671 -0.05621624 -1.8184958 4288085770
6.4655304 -0.033256054 -1.8202511 4288085770
7.4095898 -0.010079384 -1.8221047 4288085770
8.580637 0.014666557 -1.8311892 4288085770
9.8906851 0.040745258 -1.8424127 4288085770
5.8950348 2.0048997 -0.85075223 4293729569
6.0548458 2.1313503 -0.86508989 4293729569
5.976738 2.2291625 -0.86435825 4293729569
5.1249027 2.2279255 -0.81844079 4293729569
4.6319618 2.2626338 -0.79267555 4293729569
4.1980209 2.2984819 -0.76796675 4293729569
3.9010353 2.3496871 -0.750305 4293729569
3.7360039 2.418231 -0.73867178 4293729569
3.5599861 2.4817357 -0.72505987 4293729569
3.4609413 2.5564356 -0.71445739 4293729569
3.5638065 2.6656644 -0.71484572 4293729569
3.6176071 2.8596926 -0.70261842 4293729569
3.6594963 2.9617372 -0.6959874 4293729569
4.0870037 3.336585 -0.6809665 4293729569
4.1518784 3.4476547 -0.67030007 4293729569
4.0067902 3.6050465 -0.63009679 4293729569
9.9440489 0.3107357 -1.8371563 4288085770
8.5741692 0.30862999 -1.8305773 4288085770
7.3752842 0.30791378 -1.8251877 4288085770
6.3373947 0.30857134 -1.8219764 4288085770
5.4425011 0.30956888 -1.8219292 4288085770
4.663599 0.31284046 -1.8240017 4288085770
3.9047089 0.31609488 -1.8170971 4288085770
10.292776 0.31146049 -1.8366225 4288085770
3.2618122 0.32065678 -1.8173189 4288085770
8.8258734 0.3211174 -1.8268455 4288085770
2.6989059 0.32542467 -1.8216326 4288085770
7.578968 0.33127308 -1.8183223 4288085770
2.1280098 0.33110046 -1.8149301 4288085770
6.5750523 0.34004831 -1.8210926 4288085770
1.6161118 0.33692169 -1.8102953 4288085770
5.6421452 0.34994173 -1.8179377 4288085770
1.1432095 0.34283733 -1.8067051 4288085770
4.8412247 0.36015701 -1.8189347 4288085770
0.76129913 0.35001755 -1.8122131 4288085770
4.1133156 0.36952209 -1.8180226 4288085770
0.37639618 0.35714293 -1.8107175 4288085770
3.4454021 0.38002157 -1.8171728 4288085770
0.0054931641 0.36429405 -1.8082377 4288085770
2.8844852 0.3897953 -1.8214532 4288085770
-0.30941391 0.37159681 -1.8098227 4288085770
2.3085785 0.40045929 -1.8147092 4288085770
-0.59232903 0.37999868 -1.8154373 4288085770
1.7816753 0.41024017 -1.8090283 4288085770
-0.87823296 0.38734627 -1.8140554 4288085770
1.3197689 0.41919422 -1.8074291 4288085770
-1.1441422 0.39575863 -1.8156897 4288085770
0.90985107 0.43028498 -1.8088763 4288085770
-1.3910522 0.40521383 -1.8173388 4288085770
0.53793716 0.44046688 -1.8113741 4288085770
-1.6179619 0.4127202 -1.8200246 4288085770
0.1760273 0.45163774 -1.8088765 4288085770
-1.8558636 0.42115498 -1.8156906 4288085770
-0.14688683 0.46192312 -1.8104306 4288085770
-2.0597744 0.43069935 -1.8163893 4288085770
-0.44080544 0.4732728 -1.8120114 4288085770
-2.2636833 0.43923092 -1.8150945 4288085770
-0.70072174 0.48371935 -1.8166382 4288085770
-2.4595871 0.44877291 -1.8128021 4288085770
-0.97263527 0.49510527 -1.8162441 4288085770
-2.6305008 0.45839834 -1.8145384 4288085770
-1.2205486 0.50555134 -1.8168846 4288085770
-2.7994118 0.46802092 -1.8152771 4288085770
-1.4694595 0.51696825 -1.813517 4288085770
-2.9663219 0.47762823 -1.813018 4288085770
-1.6813793 0.52850866 -1.8161922 4288085770
-3.1242294 0.48726177 -1.8117689 4288085770
-1.9012852 0.5389967 -1.8138646 4288085770
-3.2851334 0.49685478 -1.8055167 4288085770
-2.0981998 0.55054998 -1.813557 4288085770
-3.4120464 0.50659227 -1.8093035 4288085770
-2.2761154 0.56216002 -1.8152711 4288085770
-3.530962 0.51734781 -1.8130928 4288085770
-2.4640274 0.57271338 -1.8119804 4288085770
-3.6608734 0.52803802 -1.8108693 4288085770
-2.638937 0.58430243 -1.8096979 4288085770
-3.7817841 0.53776121 -1.8106629 4288085770
-2.8018475 0.59491873 -1.807436 4288085770
-2.9337711 0.60765839 -1.8131964 4288085770
-3.0816841 0.61930799 -1.810945 4288085770
-3.2225933 0.62998009 -1.8097085 4288085770
-3.3565063 0.64166737 -1.8084731 4288085770
-3.480423 0.65438414 -1.8082424 4288085770
-3.593338 0.66613245 -1.8090314 4288085770
-3.7022572 0.67889714 -1.8108181 4288085770
-3.8241653 0.68959093 -1.8066031 4288085770
-3.8569984 2.8939037 -1.7947018 4288085770
-3.7479763 2.9351263 -1.792555 4288085770
-3.6339531 2.9773664 -1.7914073 4288085770
-3.4879704 3.031733 -1.7982163 4288085770
-3.3619556 3.0759997 -1.7970698 4288085770
-3.2199593 3.1263294 -1.7999016 4288085770
-3.0599804 3.1837134 -1.8047072 4288085770
-2.9119797 3.233043 -1.8055534 4288085770
-2.7459946 3.2884328 -1.8093804 4288085770
-3.7989483 2.8509851 -1.7950861 4288085770
-2.562027 3.3508768 -1.8151814 4288085770
-3.6579399 2.8943408 -1.8019651 4288085770
-2.3301144 3.4315028 -1.831917 4288085770
-3.5428963 2.9255698 -1.7988952 4288085770
-2.1601143 3.4828672 -1.830777 4288085770
-3.4138603 2.9608505 -1.7988148 4288085770
-1.9381714 3.5544162 -1.839563 4288085770
-3.2808266 2.99614 -1.7987394 4288085770
-1.7292042 3.6179018 -1.8433884 4288085770
-3.1288128 3.037499 -1.802646 4288085770
-1.509243 3.6834118 -1.8472136 4288085770
-2.9737988 3.0788584 -1.8055563 4288085770
-1.295269 3.7438881 -1.8480662 4288085770
-2.8257656 3.1151814 -1.805493 4288085770
-1.0503235 3.8154602 -1.8528812 4288085770
-2.6417751 3.1646466 -1.814384 4288085770
-0.81335258 3.8799875 -1.853735 4288085770
-2.4867382 3.1999707 -1.8123364 4288085770
-0.54341507 3.9546151 -1.8585604 4288085770
-2.2857533 3.2514734 -1.8212351 4288085770
-0.2694664 4.028245 -1.862398 4288085770
-2.0987415 3.2949104 -1.8251717 4288085770
0.0074825287 4.0998678 -1.8642535 4288085770
-1.894743 3.343399 -1.8310952 4288085770
0.27246094 4.1624227 -1.8601564 4288085770
-1.7196999 3.3767614 -1.8280866 4288085770
0.66730309 4.2744246 -1.8788816 4288085770
-1.4907188 3.4303195 -1.8360068 4288085770
0.99923134 4.3551831 -1.8827435 4288085770
-1.2906876 3.4677582 -1.8360018 4288085770
1.329174 4.4329028 -1.8816239 4288085770
-1.0447025 3.5213535 -1.8439432 4288085770
1.7370472 4.5348783 -1.8924351 4288085770
-0.8176918 3.5648661 -1.8459306 4288085770
2.1788998 4.6449361 -1.9042336 4288085770
-0.58867073 3.6053753 -1.8469414 4288085770
2.5987949 4.7408972 -1.9091021 4288085770
-0.34165764 3.6499324 -1.848947 4288085770
2.9957294 4.8237519 -1.9060324 4288085770
-0.064666748 3.7015829 -1.8549416 4288085770
3.4406261 4.9187474 -1.9079394 4288085770
0.15639114 3.7290268 -1.8490331 4288085770
3.9374962 5.0258861 -1.9138285 4288085770
0.40542793 3.7635541 -1.8461111 4288085770
4.4583549 5.1350713 -1.9187336 4288085770
0.74638367 3.8273883 -1.8581028 4288085770
5.0252018 5.2523651 -1.9246411 4288085770
1.1073341 3.8932743 -1.8711058 4288085770
5.603054 5.3676705 -1.9285768 4288085770
1.3763866 3.9228313 -1.866244 4288085770
6.2638607 5.5021939 -1.9374847 4288085770
1.6694279 3.9574561 -1.8633777 4288085770
6.9186878 5.6276698 -1.9414481 4288085770
2.0254192 4.0082827 -1.8694794 4288085770
7.6774597 5.7764316 -1.9533821 4288085770
2.3834248 4.0550995 -1.8736115 4288085770
8.4382553 5.9161558 -1.9593818 4288085770
2.7594299 4.1019568 -1.8777664 4288085770
9.2200613 6.052907 -1.9624289 4288085770
3.112463 4.1377215 -1.8759692 4288085770
10.220722 6.2462544 -1.9813621 4288085770
3.5194702 4.1836476 -1.8801705 4288085770
3.9214916 4.2245488 -1.8824004 4288085770
4.3325214 4.2604561 -1.8826765 4288085770
4.7695446 4.2994356 -1.8849647 4288085770
3.3366184 3.8456333 -1.0742756 4293729569
5.2025928 4.3303781 -1.8833041 4288085770
3.2850075 3.7521331 -1.0198611 4293729569
3.2354717 3.7058773 -1.5771353 4293729569
3.2523785 3.6646957 -0.96842903 4293729569
3.1528759 3.606288 -1.5197238 4293729569
3.1697769 3.5651405 -0.91601753 4293729569
3.1252384 3.5198691 -1.4692909 4293729569
3.1221504 3.4746838 -0.86658722 4293729569
3.0856113 3.4304235 -1.4188639 4293729569
3.1704578 3.4085021 -0.82611096 4293729569
3.1269283 3.3612335 -1.3793995 4293729569
3.3826714 3.380753 -0.79557675 4293729569
3.1292725 3.281929 -1.3359561 4293729569
3.6568604 3.3631625 -0.76805115 4293729569
3.0986347 3.1945376 -1.2905267 4293729569
3.9450455 3.3456101 -0.74154341 4293729569
3.0390167 3.1000683 -1.2431095 4293729569
4.2552319 3.3281064 -0.71506363 4293729569
3.0693417 3.0258675 -1.2056667 4293729569
3.0656815 2.9455845 -1.1672227 4293729569
3.8261738 3.0634236 -0.61236155 4293729569
3.0800133 2.867362 -1.1317877 4293729569
4.0454121 3.0236969 -0.58292073 4293729569
3.0923443 2.7881351 -1.096357 4293729569
4.1467171 2.9556811 -0.5495261 4293729569
3.1186676 2.7119529 -1.0629233 4293729569
4.186058 2.8735065 -0.51315093 4293729569
3.1549854 2.6368139 -1.0324954 4293729569
4.2513809 2.7984111 -0.47975999 4293729569
3.1723118 2.5586255 -1.0010645 4293729569
4.4556484 2.7446585 -0.45139837 4293729569
3.2096291 2.4824955 -0.97164494 4293729569
4.6899128 2.6929789 -0.42406088 4293729569
3.2799339 2.4114664 -0.94623238 4293729569
4.9121838 2.6372662 -0.39573634 4293729569
3.3772278 2.3435111 -0.92283303 4293729569
3.5294952 2.2817128 -0.90446126 4293729569
3.8756943 2.2464352 -0.89915371 4293729569
4.2299023 2.207175 -0.89388454 4293729569
4.7220688 2.1812842 -0.89769948 4293729569
5.3432102 2.163728 -0.90862203 4293729569
6.0923271 2.1524978 -0.9256652 4293729569
6.2076664 2.0625966 -0.90444362 4293729569
10.777352 -4.6015582 -1.660326 4293729569
10.12539 -4.5699992 -1.6612685 4293729569
9.5184336 -4.5423188 -1.6652963 4293729569
8.9044523 -4.5026689 -1.6672306 4293729569
8.2334251 -4.4382014 -1.6609161 4293729569
7.561388 -4.3657575 -1.6515439 4293729569
7.0464058 -4.3278737 -1.6556177 4293729569
6.433363 -4.2542844 -1.6483133 4293729569
5.9683819 -4.216291 -1.6534493 4293729569
5.4863796 -4.1673532 -1.6544867 4293729569
5.0393848 -4.1213193 -1.6585897 4293729569
4.5613632 -4.0603948 -1.6565475 4293729569
4.1673756 -4.020227 -1.6627601 4293729569
6.7189941 -4.9245496 -1.2424209 4293729569
3.8134022 -3.986958 -1.6710732 4293729569
6.71525 -5.0261283 -1.3051389 4293729569
3.4684258 -3.9536605 -1.6803975 4293729569
6.7104988 -5.1266894 -1.3708488 4293729569
3.187479 -3.9361787 -1.6959161 4293729569
8.4409122 -5.8403363 -1.593127 4293729569
2.9605579 -3.9345279 -1.7186164 4293729569
7.6386261 -5.662107 -1.5938399 4293729569
2.6936035 -3.9150147 -1.7341387 4293729569
6.8233051 -5.4659486 -1.5884095 4293729569
2.4466553 -3.8994441 -1.7517148 4288085770
6.137064 -5.3094544 -1.5904251 4293729569
2.2197132 -3.886807 -1.7723376 4288085770
5.5788975 -5.1906171 -1.6008718 4293729569
2.0057755 -3.8761497 -1.7919906 4288085770
4.9756889 -5.0479388 -1.6030918 4293729569
1.7498035 -3.8466268 -1.8054564 4288085770
4.415493 -4.9121633 -1.6054159 4293729569
1.4607944 -3.7982259 -1.8117461 4288085770
3.9193344 -4.7962174 -1.6119621 4293729569
1.1627846 -3.7438731 -1.813982 4288085770
3.4171619 -4.6693196 -1.6134235 4293729569
0.87877274 -3.6904836 -1.8172427 4288085770
2.9109764 -4.5344596 -1.6108229 4293729569
0.59875298 -3.6340976 -1.8184873 4288085770
2.4878426 -4.4273667 -1.6155256 4293729569
0.30972862 -3.5707469 -1.8176708 4288085770
2.1597729 -4.3549895 -1.6305965 4293729569
0.039705276 -3.5103593 -1.8159001 4288085770
1.7796593 -4.2568002 -1.6354173 4293729569
-0.1962986 -3.4618554 -1.8202569 4288085770
1.4025345 -4.1526237 -1.6371996 4293729569
-0.44231224 -3.4054017 -1.8205447 4288085770
1.0554295 -4.0573745 -1.6400836 4293729569
-0.6863327 -3.3459506 -1.8198136 4288085770
0.7313385 -3.9680676 -1.6440393 4293729569
-0.94136238 -3.2785587 -1.8140121 4288085770
0.43626213 -3.8866811 -1.650088 4293729569
-1.1703815 -3.2190809 -1.8123003 4288085770
0.16419983 -3.8132291 -1.6582226 4293729569
-1.3613777 -3.1734772 -1.8167355 4288085770
0.0052146912 -3.7864003 -1.6848332 4293729569
-1.555378 -3.1239004 -1.8181385 4288085770
-0.078710556 -3.7923255 -1.7227725 4293729569
-1.7653923 -3.0653877 -1.8154577 4288085770
-0.20567513 -3.7753968 -1.7534945 4288085770
-1.9734154 -3.0028844 -1.8107511 4288085770
-0.30462074 -3.7703776 -1.788337 4288085770
-2.141407 -2.9582362 -1.8142226 4288085770
-0.47162437 -3.7306018 -1.8098454 4288085770
-2.3214188 -2.9046493 -1.8126147 4288085770
-0.69067955 -3.6640382 -1.8170966 4288085770
-2.4984226 -2.8510556 -1.8110108 4288085770
-0.94075584 -3.5786004 -1.8161741 4288085770
-2.6654282 -2.7984409 -1.809427 4288085770
-1.1978436 -3.4862065 -1.8111933 4288085770
-2.8214245 -2.7497931 -1.8088853 4288085770
-1.4199028 -3.4087071 -1.8103629 4288085770
-2.9634151 -2.7050948 -1.8113898 4288085770
-1.626955 -3.3351607 -1.8115801 4288085770
-3.1194153 -2.6524611 -1.8088195 4288085770
-1.8300114 -3.2606111 -1.811795 4288085770
-3.254406 -2.6077604 -1.809333 4288085770
-2.0320663 -3.1840806 -1.808997 4288085770
-3.3833923 -2.5640397 -1.8108608 4288085770
-2.2081013 -3.1194572 -1.811317 4288085770
-3.4863644 -2.5322113 -1.8195065 4288085770
-2.3811398 -3.0528421 -1.8116266 4288085770
-3.6183567 -2.4845181 -1.8180022 4288085770
-2.5541801 -2.9842329 -1.810922 4288085770
-3.7353401 -2.4417772 -1.8185525 4288085770
-2.7192116 -2.917613 -1.8092415 4288085770
-3.8543301 -2.3960481 -1.8180789 4288085770
-2.8862495 -2.8480201 -1.8045374 4288085770
-3.0212669 -2.7922983 -1.807973 4288085770
-3.1672878 -2.7306428 -1.8053521 4288085770
-3.3043079 -2.6709538 -1.8047568 4288085770
-3.4203148 -2.6201973 -1.807252 4288085770
-3.5553398 -2.5585313 -1.8026446 4288085770
-3.6383209 -2.5226445 -1.8132881 4288085770
-3.7433205 -2.4738641 -1.8158113 4288085770
-3.8523235 -2.4221125 -1.8153081 4288085770
-3.8445415 -0.18659353 -1.8069692 4288085770
-3.735466 -0.17432213 -1.8120368 4288085770
-3.6353798 -0.16110659 -1.8120855 4288085770
-3.5422935 -0.14693499 -1.8081176 4288085770
-3.437212 -0.13271523 -1.807166 4288085770
-3.3131313 -0.12043285 -1.8092546 4288085770
-3.1960506 -0.10717964 -1.8093265 4288085770
-3.0629673 -0.094883919 -1.8104278 4288085770
-2.9518776 -0.080686569 -1.804485 4288085770
-2.792799 -0.069297791 -1.8106289 4288085770
-3.7959538 0.025476933 -1.8085717 4288085770
-2.664711 -0.055063248 -1.8047096 4288085770
-3.6658707 0.035801411 -1.8146826 4288085770
-2.4966278 -0.043668747 -1.8088661 4288085770
-3.573782 0.049949169 -1.8077135 4288085770
-2.3375435 -0.031322956 -1.8090036 4288085770
-3.4556923 0.061191082 -1.8058012 4288085770
-2.1544609 -0.018909931 -1.8111739 4288085770
-3.3076153 0.072561264 -1.8129301 4288085770
-1.9713764 -0.0065097809 -1.8113445 4288085770
-3.185524 0.084797859 -1.8090165 4288085770
-1.7852898 0.0058879852 -1.8105195 4288085770
-3.0554333 0.097057819 -1.806114 4288085770
-1.5762081 0.018352032 -1.8117261 4288085770
-2.8883495 0.10745716 -1.8112763 4288085770
-1.363121 0.030810356 -1.8109382 4288085770
-2.731266 0.11881304 -1.8134181 4288085770
-1.1260357 0.04234314 -1.8131909 4288085770
-2.5701771 0.13014936 -1.8115658 4288085770
-0.89394951 0.054835796 -1.8114297 4288085770
-2.4030895 0.14250612 -1.8107146 4288085770
-0.63886261 0.067387104 -1.8107004 4288085770
-2.2140064 0.15294027 -1.8139079 4288085770
-0.35977554 0.078998089 -1.8110114 4288085770
-2.0039253 0.16342688 -1.8181299 4288085770
-0.06269455 0.091650486 -1.8113399 4288085770
-1.8128395 0.17582273 -1.8153121 4288085770
0.24539375 0.10430384 -1.8086843 4288085770
-1.5917492 0.18631268 -1.8165503 4288085770
0.58748055 0.11604786 -1.8080827 4288085770
-1.3556633 0.19783592 -1.8178017 4288085770
0.93757057 0.12879467 -1.8054856 4288085770
-1.1225739 0.20933104 -1.8160496 4288085770
1.3366585 0.1406641 -1.8049631 4288085770
-0.87148285 0.21986675 -1.8143295 4288085770
1.7797432 0.15264511 -1.8065016 4288085770
-0.59439278 0.23146677 -1.8136382 4288085770
2.297823 0.16382074 -1.8121511 4288085770
-0.31629944 0.24204731 -1.809956 4288085770
2.8459034 0.17606211 -1.8178351 4288085770
0.001789093 0.25373793 -1.8093218 4288085770
3.3989944 0.18825054 -1.8145268 4288085770
0.34087563 0.26448107 -1.8097241 4288085770
3.9960823 0.20153761 -1.8112729 4288085770
0.69896889 0.2752533 -1.8081529 4288085770
4.7461624 0.21323252 -1.8182442 4288085770
1.1020546 0.28614569 -1.8096442 4288085770
5.4882545 0.22583199 -1.8141986 4288085770
1.5391464 0.29611349 -1.8111898 4288085770
6.3583393 0.23875713 -1.8163304 4288085770
2.0192299 0.30718374 -1.8137879 4288085770
7.3294277 0.25188398 -1.8156028 4288085770
2.5793114 0.31747293 -1.8225043 4288085770
8.5354996 0.26461601 -1.8272074 4288085770
3.1414032 0.327703 -1.8222243 4288085770
9.8505831 0.27752495 -1.8299643 4288085770
3.7574883 0.33805943 -1.8230189 4288085770
4.4965706 0.34872293 -1.8289845 4288085770
5.2286682 0.35930014 -1.8249414 4288085770
6.0907555 0.37020731 -1.8270787 4288085770
7.0528488 0.38031435 -1.8263627 4288085770
8.2179298 0.39093351 -1.8349285 4288085770
9.542016 0.40187693 -1.839716 4288085770
11.073098 0.41229868 -1.8477987 4288085770
10.126493 0.65880299 -1.8405657 4288085770
8.7655811 0.67278624 -1.8324437 4288085770
7.6436634 0.68734169 -1.8316725 4288085770
6.6457443 0.70115972 -1.8300906 4288085770
5.8008156 0.71634102 -1.8327259 4288085770
5.0318966 0.72967315 -1.8334876 4288085770
4.3109798 0.74308085 -1.8303199 4288085770
11.055558 0.97174644 -1.835639 4288085770
3.661068 0.75565052 -1.8282639 4288085770
9.5926714 0.97550058 -1.8264418 4288085770
3.0881462 0.76940989 -1.8293134 4288085770
8.3867702 0.98185873 -1.823607 4288085770
2.5652313 0.78226376 -1.8284438 4288085770
7.3678589 0.99064636 -1.8240316 4288085770
2.0603237 0.79412794 -1.823608 4288085770
6.4279537 0.99858427 -1.8215798 4288085770
1.5774212 0.80602455 -1.8168045 4288085770
5.5990467 1.0067718 -1.8202907 4288085770
1.1855011 0.81917858 -1.8181272 4288085770
4.8831348 1.0172195 -1.8211528 4288085770
0.81258202 0.8323667 -1.8184777 4288085770
4.2202244 1.0267684 -1.8200999 4288085770
0.49665642 0.84671569 -1.8239043 4288085770
3.5913239 1.0353694 -1.8161047 4288085770
0.18473625 0.86004424 -1.8253444 4288085770
3.0494156 1.0451822 -1.8152294 4288085770
-0.11717796 0.87237978 -1.8248066 4288085770
2.5545044 1.0560899 -1.8134158 4288085770
-0.41109085 0.8847177 -1.8222805 4288085770
2.1055908 1.0671198 -1.8146696 4288085770
-0.63502312 0.90028214 -1.8298348 4288085770
1.6836815 1.077194 -1.8139704 4288085770
-0.85894966 0.9148314 -1.8353965 4288085770
1.2957687 1.0893424 -1.8133066 4288085770
-1.0808697 0.92835569 -1.8369688 4288085770
0.95485306 1.1006 -1.8137189 4288085770
-1.2777996 0.94396424 -1.8425628 4288085770
0.64192963 1.1139486 -1.8181574 4288085770
-1.4787178 0.95753455 -1.8441657 4288085770
0.33401299 1.1262784 -1.8186111 4288085770
-1.6786308 0.97008538 -1.8427775 4288085770
0.054100037 1.1386695 -1.8191056 4288085770
-1.8375607 0.98577619 -1.8484274 4288085770
-0.20282173 1.1521249 -1.8216264 4288085770
-2.0194759 0.99836636 -1.8470658 4288085770
-0.44374466 1.1656084 -1.8231708 4288085770
-2.1973877 1.0109503 -1.8437099 4288085770
-0.67866325 1.1781046 -1.8247315 4288085770
-2.3663006 1.0235608 -1.8413675 4288085770
-0.88358498 1.1926808 -1.8283211 4288085770
-2.5362015 1.0351331 -1.834031 4288085770
-1.0805073 1.2072597 -1.8299227 4288085770
-2.6881123 1.047781 -1.8317134 4288085770
-1.2784252 1.2208295 -1.8305302 4288085770
-2.8260269 1.0614669 -1.8304089 4288085770
-1.4563484 1.2354572 -1.8331596 4288085770
-2.955946 1.0751846 -1.8311163 4288085770
-1.6292686 1.2490885 -1.8348037 4288085770
-3.0908508 1.0868475 -1.8258311 4288085770
-1.7901897 1.2637463 -1.8364581 4288085770
-3.2057724 1.1015983 -1.8265531 4288085770
-1.9670944 1.2753177 -1.8311113 4288085770
-3.313694 1.1163712 -1.8282852 4288085770
-2.1230125 1.2889717 -1.8307805 4288085770
-3.4286041 1.1290922 -1.825022 4288085770
-2.2659302 1.3036537 -1.8304614 4288085770
-3.5275249 1.143878 -1.8257673 4288085770
-2.4048462 1.317337 -1.8291554 4288085770
-3.6354332 1.1566069 -1.8215144 4288085770
-2.5467548 1.3299997 -1.8258526 4288085770
-3.7163658 1.1734605 -1.8262713 4288085770
-2.6776695 1.3436933 -1.8235584 4288085770
-3.8082809 1.1872468 -1.8250344 4288085770
-2.8095798 1.3563702 -1.8192704 4288085770
-2.9254951 1.3700967 -1.8169982 4288085770
-3.0384102 1.3848295 -1.8147231 4288085770
-3.1523209 1.3975456 -1.8104614 4288085770
-3.2492447 1.4133351 -1.8112024 4288085770
-3.3371677 1.4301445 -1.8119491 4288085770
-3.4310837 1.4449186 -1.8097019 4288085770
-3.5120106 1.4617434 -1.810459 4288085770
-3.5989265 1.4765329 -1.8082219 4288085770
-3.6688538 1.4943886 -1.8099879 4288085770
-3.7507706 1.5101817 -1.8067509 4288085770
-3.8156986 1.5280483 -1.8085239 4288085770
-3.8320808 3.4976096 -1.7970283 4288085770
-3.7251472 3.5739 -1.8056246 4288085770
-3.6261921 3.6451292 -1.8082463 4288085770
-3.513258 3.7234185 -1.8148366 4288085770
-3.3913326 3.8067193 -1.8204033 4288085770
-3.2454453 3.9021308 -1.8339164 4288085770
-3.1145267 3.9884512 -1.8394737 4288085770
-2.9875984 4.0707407 -1.8420548 4288085770
-2.8496761 4.1580544 -1.8446152 4288085770
-2.6937866 4.2554364 -1.851128 4288085770
-2.534893 4.3528099 -1.8556449 4288085770
-3.7623291 3.678905 -1.8247933 4288085770
-2.3749905 4.4491715 -1.8581707 4288085770
-3.6493607 3.7451503 -1.8254716 4288085770
-2.205101 4.5495615 -1.8616815 4288085770
-3.5174236 3.8214808 -1.8321038 4288085770
-2.0122414 4.6620231 -1.8681374 4288085770
-3.3954582 3.8897452 -1.8327805 4288085770
-1.7974091 4.7855616 -1.8785439 4288085770
-3.2435436 3.9751332 -1.8413755 4288085770
-1.5675983 4.9171324 -1.8889134 4288085770
-3.1085873 4.0474262 -1.8420415 4288085770
-1.3437614 5.0416536 -1.8943257 4288085770
-2.953661 4.1297913 -1.8466625 4288085770
-1.0809822 5.1873102 -1.9066398 4288085770
-2.7997246 4.2101398 -1.849297 4288085770
-0.8281765 5.3239098 -1.9140055 4288085770
-2.6288128 4.2995472 -1.8548901 4288085770
-0.53142929 5.4846396 -1.9262583 4288085770
-2.4459095 4.3919802 -1.8604779 4288085770
-0.20371628 5.6594667 -1.942453 4282675967
-2.265995 4.4813929 -1.8640838 4288085770
0.079076767 5.8050861 -1.9437959 4288085770
-2.0760899 4.5738339 -1.8686819 4288085770
0.40980721 5.9758677 -1.9530241 4288085770
-1.8672009 4.6743231 -1.8742485 4288085770
0.76651573 6.1567059 -1.9622164 4282675967
-1.6543179 4.7758207 -1.8798134 4288085770
1.1292267 6.3375502 -1.9704173 4282675967
-1.4004841 4.897459 -1.8922905 4288085770
1.5089283 6.5244083 -1.9755983 4288085770
-1.1576233 5.0090289 -1.8988252 4288085770
1.9215946 6.7243528 -1.9827315 4288085770
-0.8857975 5.1346917 -1.9092987 4288085770
2.3871994 6.950449 -1.99475 4288085770
-0.59698486 5.2663903 -1.9197526 4282675967
2.828867 7.1564188 -1.9968807 4288085770
-0.28020096 5.4101791 -1.9351571 4282675967
3.2935143 7.3704314 -1.9989851 4288085770
0.036590576 5.5499468 -1.9465933 4282675967
3.8330727 7.6206665 -2.0079346 4288085770
0.34741211 5.680665 -1.953087 4282675967
4.4505444 7.9081059 -2.0217249 4288085770
0.7541008 5.8617072 -1.9753516 4282675967
5.1559181 8.234787 -2.0423555 4288085770
1.1038895 6.0065174 -1.9827986 4282675967
1.4157486 6.1241717 -1.9803895 4282675967
1.738615 6.2418356 -1.9759958 4282675967
2.0275383 6.3383675 -1.9637078 4288085770
2.4432907 6.4983211 -1.9711396 4288085770
2.9419575 6.694519 -1.9874264 4288085770
3.3927059 6.8595257 -1.9918718 4288085770
3.8694363 7.0315962 -1.9973032 4288085770
4.378149 7.2127438 -2.0037146 4288085770
4.9318237 7.4080038 -2.0120881 4288085770
5.482523 7.5952268 -2.016516 4288085770
6.2110252 7.8619747 -2.0396194 4288085770
6.9615326 8.1277561 -2.0607622 4288085770
7.6861076 8.3694086 -2.0720434 4288085770
10.833977 -2.0841241 -1.8573738 4288085770
10.036139 -2.10291 -1.8503523 4288085770
9.3052931 -2.1205368 -1.8454196 4288085770
8.5844364 -2.130156 -1.8384426 4288085770
7.9265728 -2.1406159 -1.8345635 4288085770
7.3237057 -2.1509409 -1.8327634 4288085770
6.7088261 -2.1503224 -1.8268654 4288085770
6.2079544 -2.1613894 -1.8302194 4288085770
5.6940727 -2.1635141 -1.8294885 4288085770
5.2141857 -2.1655493 -1.8308066 4288085770
4.7242928 -2.1606445 -1.827059 4288085770
4.2773952 -2.1566162 -1.8273804 4288085770
10.669249 -3.4258485 -1.8209976 4288085770
3.8344898 -2.1476011 -1.8246709 4288085770
9.7071953 -3.3479743 -1.8160273 4288085770
3.4966011 -2.1532755 -1.8332224 4288085770
8.87216 -3.281785 -1.8163278 4288085770
3.1166954 -2.1460953 -1.8346181 4288085770
8.0701256 -3.2145391 -1.8146684 4288085770
2.71978 -2.1309872 -1.8309308 4288085770
7.3060913 -3.145225 -1.8110492 4288085770
2.3648682 -2.1197667 -1.8303334 4288085770
6.621067 -3.0837164 -1.8106022 4288085770
2.0629616 -2.1153789 -1.836863 4288085770
6.009058 -3.0310273 -1.8133262 4288085770
1.7480469 -2.1050487 -1.8393302 4288085770
5.4350548 -2.9792552 -1.8161123 4288085770
1.4531307 -2.0946674 -1.842826 4288085770
4.9110565 -2.9323587 -1.8210069 4288085770
1.1842194 -2.0872149 -1.8483814 4288085770
4.398056 -2.8814688 -1.821888 4288085770
0.87828827 -2.0679016 -1.8457954 4288085770
3.9080486 -2.8305206 -1.8238024 4288085770
0.58835983 -2.047555 -1.8432252 4288085770
3.4620571 -2.7854695 -1.8268238 4288085770
0.34243965 -2.035059 -1.8477768 4288085770
3.0300636 -2.7373958 -1.8288434 4288085770
0.086511612 -2.0176163 -1.8482776 4288085770
2.6160679 -2.6892896 -1.8298892 4288085770
-0.1854248 -1.9922514 -1.8426964 4288085770
2.2290764 -2.6441174 -1.8319954 4288085770
-0.43735886 -1.968821 -1.8401588 4288085770
1.8740959 -2.6038609 -1.8361845 4288085770
-0.67929077 -1.9463696 -1.8376428 4288085770
1.5321102 -2.561583 -1.8393778 4288085770
-0.89222145 -1.9278255 -1.839198 4288085770
1.2041264 -2.5192823 -1.841591 4288085770
-1.0931492 -1.910254 -1.8407776 4288085770
0.88514519 -2.4759769 -1.8418099 4288085770
-1.3130894 -1.8857546 -1.8382788 4288085770
0.55415154 -2.4257264 -1.8379602 4288085770
-1.517025 -1.8622122 -1.8368101 4288085770
0.28918076 -2.390274 -1.8423156 4288085770
-1.7059574 -1.8406305 -1.8363776 4288085770
0.0072002411 -2.3478875 -1.842595 4288085770
-1.8898945 -1.8190374 -1.8359524 4288085770
-0.28078651 -2.2995515 -1.8378221 4288085770
-2.04282 -1.8043332 -1.8416231 4288085770
-0.53876495 -2.2571278 -1.8361359 4288085770
-2.2277603 -1.7767715 -1.8371524 4288085770
-0.78874207 -2.2156787 -1.8354688 4288085770
-2.3876934 -1.7571115 -1.8387762 4288085770
-1.02672 -2.1732125 -1.8338115 4288085770
-2.5516357 -1.7324896 -1.8363578 4288085770
-1.247694 -2.1347003 -1.8332081 4288085770
-2.7005692 -1.7118058 -1.8379902 4288085770
-1.4716663 -2.0932174 -1.8295786 4288085770
-2.846508 -1.6891236 -1.8386123 4288085770
-1.6696339 -2.0566478 -1.8300228 4288085770
-2.9964466 -1.6634784 -1.8352066 4288085770
-1.8636036 -2.0190773 -1.8294655 4288085770
-3.1253796 -1.643744 -1.8378749 4288085770
-2.0305634 -1.9894104 -1.8340058 4288085770
-3.2543163 -1.6230159 -1.8395361 4288085770
-2.2055244 -1.954792 -1.8344979 4288085770
-3.3992558 -1.5943832 -1.8331158 4288085770
-2.3764896 -1.9191709 -1.8339884 4288085770
-3.5301952 -1.5696821 -1.8317447 4288085770
-2.5444565 -1.8835435 -1.8334833 4288085770
-3.6511326 -1.5469527 -1.8314025 4288085770
-2.7034168 -1.848897 -1.8329983 4288085770
-3.7660694 -1.5242019 -1.8320692 4288085770
-2.8533764 -1.8162231 -1.833541 4288085770
-2.9963322 -1.7835412 -1.8330938 4288085770
-3.1322899 -1.7518363 -1.8336641 4288085770
-3.2702503 -1.7181511 -1.8322167 4288085770
-3.4052086 -1.6834669 -1.8297663 4288085770
-3.5421677 -1.6478095 -1.8243058 4288085770
-3.6661243 -1.6140933 -1.8228787 4288085770
-3.7740822 -1.5863209 -1.8245183 4288085770
-3.767128 0.46193838 -1.8045311 4288085770
-3.6510448 0.47419214 -1.8056099 4288085770
-3.5249653 0.4864831 -1.8087031 4288085770
-3.4078751 0.49871016 -1.8057835 4288085770
-3.2787876 0.5109849 -1.805881 4288085770
-3.1327095 0.52431917 -1.8089955 4288085770
-2.993618 0.53560829 -1.8081148 4288085770
-2.8485279 0.54790354 -1.8062353 4288085770
-3.7564926 0.55196571 -1.810891 4288085770
-2.6784534 0.56130457 -1.8113841 4288085770
-3.6393967 0.56120682 -1.8099935 4288085770
-2.5003719 0.57370853 -1.8145518 4288085770
-3.505312 0.57150793 -1.812113 4288085770
-2.3092937 0.58714771 -1.818731 4288085770
-3.3692207 0.58180523 -1.8132354 4288085770
-2.1172085 0.59956789 -1.8199186 4288085770
-3.2331276 0.5920887 -1.8123579 4288085770
-1.9091282 0.61203718 -1.8231295 4288085770
-3.0910358 0.60138416 -1.8114961 4288085770
-1.6780529 0.62557793 -1.8293658 4288085770
-2.9209518 0.61178541 -1.8166672 4288085770
-1.4639645 0.63902378 -1.8275779 4288085770
-2.761858 0.62112617 -1.8168299 4288085770
-1.22188 0.65155172 -1.8288376 4288085770
-2.5877686 0.63050604 -1.8180144 4288085770
-0.96679878 0.66411638 -1.8311158 4288085770
-2.3986797 0.63993454 -1.8212199 4288085770
-0.72670364 0.67658854 -1.8253729 4288085770
-2.1756096 0.65148783 -1.8314594 4288085770
-0.47261047 0.68809175 -1.8196573 4288085770
-1.9745159 0.65991974 -1.83169 4288085770
-0.16452789 0.70077157 -1.8220116 4288085770
-1.7624245 0.6693902 -1.8339287 4288085770
0.15456009 0.71345258 -1.8213819 4288085770
-1.5223389 0.67892957 -1.8372077 4288085770
0.52663612 0.72728658 -1.8258204 4288085770
-1.2982368 0.68638945 -1.8344786 4288085770
0.86373329 0.73996305 -1.8192168 4288085770
-1.045145 0.69494915 -1.8367835 4288085770
1.2658176 0.75283265 -1.8197062 4288085770
-0.80303764 0.70241904 -1.8300806 4288085770
1.7119007 0.76680565 -1.821251 4288085770
-0.5409317 0.7089467 -1.8254135 4288085770
2.2229729 0.78194976 -1.8268818 4288085770
-0.24983025 0.71555996 -1.8237879 4288085770
2.7470531 0.79609227 -1.8285388 4288085770
0.081264496 0.72328997 -1.8262124 4288085770
3.3051453 0.80928707 -1.827252 4288085770
0.41036606 0.72997832 -1.8236414 4288085770
3.9302254 0.8236351 -1.8270538 4288085770
0.78646278 0.73679876 -1.8251377 4288085770
4.6652927 0.84027457 -1.8339987 4288085770
1.1625729 0.741575 -1.8206491 4288085770
5.4143829 0.85487771 -1.8319788 4288085770
1.614666 0.74858332 -1.8252547 4288085770
6.268465 0.86971688 -1.8311094 4288085770
2.0827713 0.75258946 -1.8249054 4288085770
7.230547 0.8858068 -1.8323877 4288085770
2.6428585 0.75986266 -1.8336657 4288085770
8.3586159 0.90328717 -1.8378963 4288085770
3.1949673 0.7630446 -1.8324445 4288085770
9.5747013 0.91990042 -1.8355393 4288085770
3.7980766 0.76634502 -1.8322964 4288085770
11.075767 0.94020081 -1.8425688 4288085770
4.5141735 0.769943 -1.8393104 4288085770
5.2442875 0.77051282 -1.8383669 4288085770
6.0554047 0.7702589 -1.8375472 4288085770
6.9845238 0.76927662 -1.838904 4288085770
7.9956474 0.76545095 -1.837401 4288085770
9.2197657 0.76214147 -1.8432033 4288085770
10.656881 0.7563324 -1.8543336 4288085770
1.1818447 -4.6409507 -0.43600494 4293729569
1.1677399 -4.5647216 -0.4714244 4293729569
1.1896706 -4.5054078 -0.50802261 4293729569
1.300684 -4.4858766 -0.54804802 4293729569
10.294625 -7.3473363 -1.5237007 4293729569
9.9811287 -7.0778966 -1.5392441 4293729569
9.7136803 -6.8313651 -1.5540255 4293729569
9.4122248 -6.5759511 -1.5626903 4293729569
9.214859 -6.365273 -1.5768415 4293729569
9.0475206 -6.1675277 -1.5911329 4293729569
8.837162 -5.956923 -1.5992645 4293729569
6.6867218 -5.0727963 -0.62348342 4293729569
6.6945992 -5.075789 -1.430544 4293729569
6.7045555 -4.9605966 -0.64568394 4293729569
6.7604656 -4.9794612 -1.4559338 4293729569
8.3722458 -5.3977513 -1.6234448 4293729569
8.2209587 -5.2160544 -1.626878 4293729569
8.1397209 -5.0611663 -1.6356142 4293729569
8.0714931 -4.9112582 -1.6434067 4293729569
8.0172825 -4.765326 -1.6502494 4293729569
7.9250546 -4.6115136 -1.6519768 4293729569
7.884861 -4.4735675 -1.6568993 4293729569
7.9186974 -4.355413 -1.668079 4293729569
7.9725533 -4.2442241 -1.6783402 4293729569
8.2905235 -4.2022805 -1.7135093 4293729569
8.8695955 -4.223598 -1.7725376 4288085770
9.3506136 -4.2112098 -1.8201697 4288085770
9.4924889 -4.1098142 -1.832635 4288085770
9.4102755 -3.9530768 -1.821355 4288085770
9.4271107 -3.8230653 -1.8184212 4288085770
9.5579805 -3.7157378 -1.8248258 4288085770
9.6458378 -3.5975566 -1.8240855 4288085770
9.745697 -3.4813418 -1.8243778 4288085770
9.8365583 -3.3641677 -1.8216492 4288085770
10.005443 -3.2597885 -1.8241323 4288085770
10.267348 -3.171154 -1.8338714 4288085770
10.525249 -3.0785503 -1.8405749 4288085770
10.763142 -2.9780207 -1.8431896 4288085770
11.004018 -2.8744907 -1.8447863 4288085770
9.8592529 1.0857034 -1.8391833 4288085770
8.7552929 1.1182876 -1.8362181 4288085770
7.8213367 1.149256 -1.8355305 4288085770
6.9403915 1.1763029 -1.8299546 4288085770
6.1424541 1.2025304 -1.824514 4288085770
5.4705086 1.2290621 -1.8232682 4288085770
4.8505592 1.2547145 -1.82311 4288085770
4.2956161 1.280508 -1.823052 4288085770
3.7656803 1.3033338 -1.8200552 4288085770
10.136627 1.8182104 -1.8291751 4288085770
3.3007393 1.3273234 -1.8201513 4288085770
9.1307163 1.8280156 -1.8275317 4288085770
2.8528042 1.3493178 -1.8172891 4288085770
8.256794 1.8411131 -1.8280691 4288085770
2.4478683 1.3714309 -1.8164912 4288085770
7.3939037 1.8471851 -1.8206745 4288085770
2.0569401 1.3925519 -1.8127226 4288085770
6.6499939 1.8575459 -1.8174341 4288085770
1.7439861 1.4179101 -1.8180444 4288085770
6.0070705 1.8721561 -1.81832 4288085770
1.4120598 1.4381666 -1.8153745 4288085770
5.4371414 1.8889327 -1.8203038 4288085770
1.1301136 1.4615703 -1.8177595 4288085770
4.878231 1.9006884 -1.8163424 4288085770
0.85218048 1.4829669 -1.8181655 4288085770
4.3733139 1.9145765 -1.8144493 4288085770
0.59924126 1.5054259 -1.8196028 4288085770
3.9363823 1.9326427 -1.8166317 4288085770
0.36330032 1.5279214 -1.8210664 4288085770
3.5024624 1.947685 -1.8148409 4288085770
0.13336372 1.5494151 -1.8205466 4288085770
3.1225357 1.9648602 -1.8151189 4288085770
-0.070579529 1.5729878 -1.8230523 4288085770
2.7376213 1.9790015 -1.8124115 4288085770
-0.2795105 1.5935273 -1.8225725 4288085770
2.4076939 1.9972775 -1.8117595 4288085770
-0.46345139 1.6161366 -1.8241163 4288085770
2.1037598 2.0166254 -1.8131399 4288085770
-0.65638351 1.636703 -1.8226614 4288085770
