# .PCD v0.7 - Point Cloud Data file format
VERSION 0.7
FIELDS x y z rgb
SIZE 4 4 4 4
TYPE F F F U
COUNT 1 1 1 1
WIDTH 1124
HEIGHT 1
VIEWPOINT 0 0 0 1 0 0 0
POINTS 1124
DATA ascii
14.244242 2.1675129 -1.0589837 4293729569
15.214468 2.2684238 -1.8247832 4288085770
14.286285 2.0884206 -1.000052 4293729569
15.831575 2.2579203 -1.8267241 4288085770
14.362333 2.0123034 -0.94411343 4293729569
14.421377 1.9322007 -0.88818049 4293729569
14.674503 1.9236245 -1.5791605 4293729569
14.672436 1.8729506 -0.84220695 4293729569
14.486515 1.8097014 -1.5012861 4293729569
15.238527 1.8454576 -0.81016904 4293729569
14.707575 1.7434835 -1.4643222 4293729569
15.789611 1.8099744 -0.77514017 4293729569
15.223656 1.7040498 -1.4523008 4293729569
16.799725 1.8121331 -0.75602549 4293729569
15.856743 1.6695278 -1.4482617 4293729569
16.655838 1.6428826 -1.456197 4293729569
17.498926 1.609199 -1.4621338 4293729569
18.370007 1.5664907 -1.4650759 4293729569
19.334145 -5.7305474 -0.31852341 4293729569
19.376125 -5.8905616 -0.34566024 4293729569
13.305964 -5.204495 -0.55569649 4293729569
13.251017 -5.2864242 -0.58977365 4293729569
15.613666 -7.8216071 -1.4797364 4293729569
14.923964 -7.5930448 -1.487607 4293729569
14.299248 -7.3845344 -1.4964882 4293729569
13.716522 -7.1880603 -1.5053756 4293729569
13.176788 -7.0056167 -1.5162709 4293729569
12.649052 -6.8211865 -1.5241631 4293729569
12.161306 -6.6477876 -1.5320609 4293729569
11.732542 -6.5004334 -1.5449752 4293729569
11.257803 -6.3210483 -1.5488663 4293729569
10.834047 -6.162704 -1.5557705 4293729569
10.414295 -5.9993653 -1.5586699 4293729569
10.05652 -5.8650708 -1.5685884 4293729569
9.7147408 -5.7347903 -1.5775087 4293729569
9.3479767 -5.5854945 -1.5804149 4293729569
13.28121 -7.8247762 -1.4789596 4293729569
8.3095188 -5.0427547 -1.4710476 4293729569
12.660557 -7.5392661 -1.4907731 4293729569
7.8797951 -4.8424258 -1.452916 4293729569
7.8688145 -4.827805 -1.0149033 4293729569
7.854887 -4.8723693 -1.4989433 4293729569
7.8129292 -4.8347259 -1.0569136 4293729569
7.8019981 -4.8852925 -1.5419586 4293729569
7.8020229 -4.8676782 -1.105942 4293729569
7.7411156 -4.8892121 -1.5829669 4293729569
7.7771244 -4.8906217 -1.1519631 4293729569
7.608263 -4.8500848 -1.6099452 4293729569
7.7652225 -4.9185739 -1.2009873 4293729569
7.4004498 -4.7629104 -1.6208892 4293729569
7.758316 -4.9485278 -1.2510123 4293729569
7.1396637 -4.6397061 -1.6188074 4293729569
7.7744026 -4.9914985 -1.3050468 4293729569
6.92486 -4.5405326 -1.6237419 4293729569
7.8094788 -5.0434804 -1.3620868 4293729569
6.7150555 -4.4413619 -1.6276758 4293729569
8.7711163 -5.6620803 -1.5725241 4293729569
6.5282402 -4.3542094 -1.6346179 4293729569
8.5293293 -5.5438714 -1.5904444 4293729569
6.3444271 -4.2650619 -1.6385578 4293729569
8.1955872 -5.3656077 -1.5893221 4293729569
6.1856041 -4.18893 -1.6475066 4293729569
7.8258686 -5.1593204 -1.5771719 4293729569
6.0287819 -4.1117969 -1.6554464 4293729569
7.6270695 -5.0581489 -1.5941008 4293729569
5.8629684 -4.0266633 -1.6593865 4293729569
7.4402657 -4.9599862 -1.6100314 4293729569
5.7871113 -3.9965825 -1.6843654 4293729569
7.1655045 -4.80477 -1.6069217 4293729569
5.7582321 -3.9945331 -1.7203636 4293729569
6.9447231 -4.6795907 -1.6108325 4293729569
5.7323532 -3.9914823 -1.7573608 4288085770
6.7389336 -4.5624232 -1.6157489 4293729569
5.7154713 -3.9944386 -1.796362 4288085770
6.5531368 -4.4542727 -1.6206709 4293729569
5.6486149 -3.963367 -1.8203392 4288085770
6.3823357 -4.3541341 -1.6275988 4293729569
5.5028 -3.877254 -1.8202769 4288085770
6.2295265 -4.2630048 -1.6365325 4293729569
5.3579845 -3.791142 -1.8182145 4288085770
6.0897121 -4.1778874 -1.6454704 4293729569
5.2231655 -3.7100377 -1.8171554 4288085770
5.9478989 -4.0897708 -1.6524059 4293729569
5.096344 -3.630939 -1.8170974 4288085770
5.8330746 -4.0166707 -1.6643515 4293729569
4.9795208 -3.5578475 -1.8180437 4288085770
5.7962151 -3.992619 -1.6943313 4293729569
4.8606987 -3.4807582 -1.8149866 4288085770
5.8013344 -3.9925914 -1.7343278 4293729569
4.7638645 -3.4166803 -1.8189386 4288085770
5.8264446 -4.0035758 -1.7803314 4288085770
4.6640358 -3.3496027 -1.8198887 4288085770
5.8135757 -3.9895396 -1.8143175 4288085770
4.5702057 -3.2845302 -1.8208398 4288085770
5.6967583 -3.9074464 -1.8182559 4288085770
5.537962 -3.7973304 -1.8081746 4288085770
5.4331417 -3.7202458 -1.8121161 4288085770
5.3303185 -3.6431642 -1.8150576 4288085770
5.2274971 -3.5650849 -1.8149983 4288085770
5.127676 -3.4870086 -1.8149387 4288085770
5.0248547 -3.4069314 -1.8118778 4288085770
4.9380283 -3.3358655 -1.811823 4288085770
4.8771896 -3.2808142 -1.8187793 4288085770
4.7853661 -3.2047477 -1.814721 4288085770
4.7195301 -3.1436973 -1.8166727 4288085770
4.6606922 -3.0866499 -1.8206275 4288085770
4.5938492 -3.0236006 -1.8195778 4288085770
4.6111717 -1.4747572 -1.8591419 4288085770
4.6633053 -1.4528027 -1.8601148 4288085770
4.69944 -1.4268403 -1.8540862 4288085770
4.7475739 -1.4028854 -1.8520578 4288085770
4.8266964 -1.3879471 -1.8590333 4288085770
4.87883 -1.3649945 -1.8560053 4288085770
4.9579582 -1.3490582 -1.8609799 4288085770
5.0060921 -1.3241062 -1.8549507 4288085770
5.1042194 -1.312181 -1.8639263 4288085770
5.1823502 -1.2932472 -1.8648984 4288085770
5.2394829 -1.2693024 -1.8578688 4288085770
5.3036175 -1.2473621 -1.8528402 4288085770
5.3847466 -1.2274323 -1.8518111 4288085770
5.4728775 -1.2095065 -1.8517827 4288085770
5.5470104 -1.1875753 -1.8457527 4288085770
5.6411381 -1.1696553 -1.8447235 4288085770
4.6343613 -0.96384144 -1.8556741 4288085770
5.7382679 -1.1517382 -1.8436941 4288085770
4.7134914 -0.94690895 -1.855648 4288085770
5.8353958 -1.132822 -1.8406637 4288085770
4.78862 -0.92897463 -1.8536215 4288085770
5.9585247 -1.1179223 -1.8436333 4288085770
4.8837471 -0.91405296 -1.856595 4288085770
6.0736561 -1.1010189 -1.8426024 4288085770
4.9488716 -0.89411449 -1.849568 4288085770
6.2047749 -1.0861263 -1.8445712 4288085770
5.0389996 -0.87719202 -1.8475404 4288085770
6.3289013 -1.0692306 -1.843539 4288085770
5.1241264 -0.85926723 -1.8445126 4288085770
6.4720306 -1.0543475 -1.844506 4288085770
5.2272568 -0.84435272 -1.845485 4288085770
6.6091595 -1.0374622 -1.8434721 4288085770
5.3383846 -0.82944393 -1.8474563 4288085770
6.7422886 -1.0195765 -1.8394377 4288085770
5.4235134 -0.80952263 -1.8394266 4288085770
6.9074173 -1.0047112 -1.8404018 4288085770
5.5306435 -0.79261446 -1.8363968 4288085770
7.0685444 -0.98884583 -1.8383657 4288085770
5.652771 -0.77771664 -1.8363668 4288085770
7.2606697 -0.97600031 -1.8413279 4288085770
5.775898 -0.76181936 -1.8353355 4288085770
7.4297981 -0.95914268 -1.8372896 4288085770
5.9350243 -0.74894524 -1.8423022 4288085770
7.6119251 -0.9422965 -1.8322498 4288085770
6.046154 -0.73004484 -1.8342701 4288085770
7.8330517 -0.92847538 -1.8342072 4288085770
6.1782818 -0.71415806 -1.8302376 4288085770
8.0181828 -0.91063309 -1.8261659 4288085770
6.3374081 -0.69928741 -1.8312025 4288085770
8.2603073 -0.89683056 -1.8261206 4288085770
6.4965343 -0.68342113 -1.8291665 4288085770
8.512434 -0.88303566 -1.826074 4288085770
6.675663 -0.66956615 -1.8311297 4288085770
8.8025608 -0.87127018 -1.8280241 4288085770
6.8567905 -0.65371466 -1.8300909 4288085770
9.0696869 -0.85549068 -1.8239735 4288085770
7.0429134 -0.63886833 -1.8290521 4288085770
9.3748112 -0.84173822 -1.82292 4288085770
7.2480412 -0.62403631 -1.8290108 4288085770
9.7149372 -0.82901287 -1.8228625 4288085770
7.4341717 -0.60619497 -1.8219693 4288085770
10.058062 -0.81529379 -1.8198036 4288085770
7.6722984 -0.59238625 -1.8239245 4288085770
10.417189 -0.79958868 -1.8137407 4288085770
7.8964252 -0.57657433 -1.8188798 4288085770
10.859314 -0.78994274 -1.8166722 4288085770
8.1375523 -0.55977297 -1.8148321 4288085770
11.310438 -0.77730608 -1.8165997 4288085770
8.4376793 -0.54701281 -1.8187796 4288085770
11.776564 -0.76368618 -1.8115243 4288085770
8.7568035 -0.53426743 -1.8237249 4288085770
12.32169 -0.75212431 -1.8114401 4288085770
9.0939331 -0.51953745 -1.8266658 4288085770
12.890816 -0.73958492 -1.8073519 4288085770
9.4200592 -0.50380468 -1.8226073 4288085770
13.532938 -0.72810173 -1.8052546 4288085770
9.7941875 -0.4891057 -1.8235432 4288085770
14.28306 -0.71870232 -1.8071448 4288085770
10.155315 -0.47140265 -1.8164781 4288085770
15.140186 -0.71038437 -1.8120214 4288085770
10.572445 -0.45474195 -1.8134066 4288085770
16.077309 -0.70113516 -1.8118864 4288085770
11.052574 -0.43912745 -1.8143275 4288085770
17.116432 -0.69196653 -1.8117375 4288085770
11.567699 -0.42354155 -1.8142434 4288085770
18.363554 -0.68595791 -1.8185635 4288085770
12.095827 -0.40596962 -1.8101557 4288085770
12.711958 -0.38946533 -1.8080573 4288085770
13.381086 -0.37100458 -1.8049499 4288085770
14.182215 -0.35564089 -1.8108274 4288085770
15.089346 -0.33836269 -1.8156887 4288085770
16.115479 -0.32017899 -1.8215332 4288085770
17.200607 -0.30004692 -1.8193676 4288085770
18.57774 -0.28113842 -1.8291637 4288085770
17.391132 1.6164231 -0.90866387 4293729569
17.359343 1.7414474 -0.91157275 4293729569
16.192455 1.7513018 -0.85678893 4293729569
15.558601 1.8017647 -0.82687145 4293729569
15.170767 1.8730464 -0.80789065 4293729569
14.892939 1.9502456 -0.79188412 4293729569
14.713116 2.0373726 -0.77985132 4293729569
14.693314 2.1443813 -0.77477241 4293729569
14.657505 2.2483997 -0.76669908 4293729569
14.673706 2.3583808 -0.76061106 4293729569
14.788916 2.4852872 -0.75749111 4293729569
14.710102 2.5823345 -0.74343163 4293729569
14.788311 2.7052658 -0.73532206 4293729569
15.191565 2.8869576 -0.74110484 4293729569
15.207767 3.0029323 -0.72701275 4293729569
15.522015 3.1766872 -0.724819 4293729569
15.037138 3.1960287 -0.68689781 4293729569
18.105244 -0.017088413 -1.8291589 4288085770
16.790359 -0.013109684 -1.825448 4288085770
15.630477 -0.0072488785 -1.8197014 4288085770
14.639595 -0.0015120506 -1.8179173 4288085770
13.75071 0.0041480064 -1.8161106 4288085770
13.00383 0.010705948 -1.8192719 4288085770
12.286949 0.018236637 -1.8164258 4288085770
18.404024 0.03266573 -1.8220745 4288085770
11.672068 0.025694847 -1.818557 4288085770
17.083145 0.044650555 -1.8213586 4288085770
11.127192 0.034100056 -1.8216722 4288085770
15.902267 0.055526733 -1.8166121 4288085770
10.577305 0.042505741 -1.8177884 4288085770
14.892384 0.068277359 -1.8148266 4288085770
10.116426 0.050848007 -1.8198849 4288085770
13.981506 0.079952717 -1.81102 4288085770
9.6835461 0.058168411 -1.820976 4288085770
13.22263 0.091517925 -1.8141799 4288085770
9.3206692 0.066440582 -1.8280509 4288085770
12.513752 0.10404539 -1.814328 4288085770
8.9037895 0.075743675 -1.8201367 4288085770
11.889875 0.11550903 -1.8164582 4288085770
8.557909 0.084998608 -1.821207 4288085770
11.344999 0.12691545 -1.8215709 4288085770
8.2150307 0.094248295 -1.8172765 4288085770
10.811127 0.13931131 -1.8216803 4288085770
7.9261532 0.10446262 -1.8203337 4288085770
10.312248 0.15067863 -1.8187828 4288085770
7.6442738 0.1136694 -1.8203897 4288085770
9.8863716 0.16299486 -1.8218685 4288085770
7.3913975 0.12285614 -1.8224396 4288085770
9.5004959 0.17428207 -1.8259462 4288085770
7.1455173 0.13303614 -1.822487 4288085770
9.1166172 0.18556452 -1.8250233 4288085770
6.9176407 0.14320326 -1.8235307 4288085770
8.7597408 0.1968255 -1.8220946 4288085770
6.6837616 0.15337133 -1.8195753 4288085770
8.4158611 0.2090764 -1.8191619 4288085770
6.4858856 0.16351604 -1.8216122 4288085770
8.1169834 0.22029591 -1.8192203 4288085770
6.2990055 0.17365313 -1.8236468 4288085770
7.8381081 0.23250008 -1.8192736 4288085770
6.12113 0.18378305 -1.8256792 4288085770
7.5882339 0.24368477 -1.8223213 4288085770
5.9462509 0.19490957 -1.8247104 4288085770
7.345356 0.25586319 -1.8233666 4288085770
5.7833748 0.20502806 -1.8267395 4288085770
7.1194782 0.26802874 -1.8244083 4288085770
5.6294956 0.21613932 -1.826766 4288085770
6.8876019 0.27919531 -1.8214519 4288085770
5.4816189 0.22624636 -1.8277918 4288085770
6.675724 0.29034853 -1.819491 4288085770
5.3397427 0.23734808 -1.8278157 4288085770
6.4858475 0.30248737 -1.8205247 4288085770
5.191864 0.24745178 -1.8238413 4288085770
6.3129711 0.31461334 -1.8225545 4288085770
5.0819893 0.25953388 -1.8298576 4288085770
6.1420956 0.32673693 -1.822584 4288085770
4.9731121 0.27061367 -1.8338742 4288085770
5.9972191 0.33984518 -1.8286074 4288085770
4.8642368 0.28269339 -1.8378901 4288085770
5.846344 0.35195398 -1.8296325 4288085770
4.7403584 0.29377937 -1.83391 4288085770
5.6944675 0.36406255 -1.8286579 4288085770
4.621479 0.30486155 -1.8309287 4288085770
5.563591 0.37715816 -1.8316779 4288085770
5.4317169 0.38925362 -1.8326987 4288085770
5.3108387 0.40234113 -1.8347168 4288085770
5.1989651 0.4154222 -1.8377326 4288085770
5.0850887 0.42850399 -1.8387489 4288085770
4.9722118 0.44058371 -1.8387657 4288085770
4.8663292 0.45365906 -1.8387803 4288085770
4.7664547 0.4667294 -1.8387935 4288085770
4.6725788 0.47979665 -1.8408054 4288085770
4.5647011 0.49186993 -1.835821 4288085770
4.6296806 2.6314497 -1.8214737 4288085770
4.7408295 2.6793642 -1.8224214 4288085770
4.8639774 2.7312722 -1.8263642 4288085770
4.984129 2.7791808 -1.8273102 4288085770
5.1072807 2.8290868 -1.8282543 4288085770
5.2404327 2.8809862 -1.8301953 4288085770
5.3925915 2.9418743 -1.8361266 4288085770
5.5397491 2.9977634 -1.8380624 4288085770
4.5624905 2.5714722 -1.826533 4288085770
5.6909027 3.052649 -1.8389978 4288085770
4.6796341 2.6123834 -1.8284842 4288085770
5.8800735 3.1255136 -1.8509144 4288085770
4.7907734 2.6482968 -1.8274399 4288085770
6.0532322 3.1873841 -1.8528413 4288085770
4.9159203 2.6892023 -1.8293896 4288085770
6.239397 3.2542472 -1.8587623 4288085770
5.0350609 2.7251096 -1.8273437 4288085770
6.4155579 3.3131142 -1.8586905 4288085770
5.1702061 2.7680082 -1.8302902 4288085770
6.6137199 3.3809671 -1.8626088 4288085770
5.3093529 2.8099034 -1.8322365 4288085770
6.8018799 3.4408245 -1.8615342 4288085770
5.4595013 2.8557911 -1.8351784 4288085770
6.990036 3.4986806 -1.858461 4288085770
5.6036453 2.8966823 -1.8361244 4288085770
7.2302113 3.5785055 -1.8663634 4288085770
5.7657948 2.9445615 -1.8400627 4288085770
7.5284023 3.6802945 -1.8842404 4288085770
5.9239388 2.9874423 -1.8410046 4288085770
7.7605667 3.7501197 -1.8831509 4288085770
6.1160965 3.043303 -1.849932 4288085770
7.9937267 3.8159437 -1.8810639 4288085770
6.2772388 3.08318 -1.8478758 4288085770
8.2659035 3.8967421 -1.8839599 4288085770
6.4553871 3.1280458 -1.8488128 4288085770
8.5620823 3.9855249 -1.889846 4288085770
6.6295319 3.1699133 -1.8477528 4288085770
8.8822689 4.0792918 -1.8977243 4288085770
6.8106766 3.2107759 -1.8466921 4288085770
9.200449 4.1690569 -1.9016055 4288085770
7.0128269 3.2586253 -1.8486228 4288085770
9.4956188 4.2448349 -1.8985003 4288085770
7.2389812 3.3134594 -1.8545443 4288085770
9.8437996 4.3375778 -1.9013742 4288085770
7.4511299 3.3603005 -1.8554739 4288085770
10.224993 4.4402981 -1.9062351 4288085770
7.708292 3.4221134 -1.863385 4288085770
10.623182 4.5440063 -1.9120922 4288085770
7.9404411 3.4689403 -1.8643107 4288085770
11.030373 4.6467061 -1.9149483 4288085770
8.1975994 3.5247512 -1.8692259 4288085770
11.454565 4.7523937 -1.9167992 4288085770
8.4577522 3.5775588 -1.8721424 4288085770
11.917765 4.8660536 -1.9216378 4288085770
8.7339077 3.6323557 -1.8770547 4288085770
12.449982 5.0006666 -1.9314493 4288085770
9.0120602 3.6841497 -1.8789686 4288085770
12.941175 5.1123047 -1.9332837 4288085770
9.2882099 3.7329445 -1.8798848 4288085770
13.497387 5.2428975 -1.9390935 4288085770
9.5843582 3.783725 -1.881796 4288085770
14.124609 5.3914413 -1.948878 4288085770
9.9015141 3.8394918 -1.8856999 4288085770
14.725819 5.5209999 -1.9516801 4288085770
10.203661 3.8842664 -1.884614 4288085770
15.421052 5.6784935 -1.9604461 4288085770
10.547817 3.9400129 -1.8875129 4288085770
16.13928 5.8329692 -1.9672096 4288085770
10.892971 3.9917579 -1.8894142 4288085770
17.004543 6.0283432 -1.9839188 4288085770
11.245121 4.0414972 -1.8903154 4288085770
17.811779 6.1937532 -1.9896585 4288085770
11.625273 4.0942178 -1.8932097 4288085770
18.702028 6.3761034 -1.9973714 4282675967
12.007425 4.1429343 -1.8931061 4288085770
12.450586 4.2056112 -1.8999817 4288085770
12.861736 4.2523079 -1.900874 4288085770
13.287886 4.2979927 -1.900764 4288085770
13.778044 4.3576345 -1.9066331 4288085770
14.267197 4.4092755 -1.9095074 4288085770
14.728338 4.4479342 -1.9073956 4288085770
15.278494 4.5035324 -1.9132558 4288085770
15.851649 4.5591145 -1.9191117 4288085770
16.399788 4.5977106 -1.9189832 4288085770
17.002937 4.644269 -1.9228395 4288085770
17.634087 4.6898084 -1.927691 4288085770
18.283234 4.7313328 -1.9305418 4288085770
18.880363 4.7508912 -1.926417 4288085770
14.597639 3.307632 -1.3251703 4293729569
14.552664 3.1976333 -1.279253 4293729569
14.472683 3.0796585 -1.2313474 4293729569
14.448713 2.9746475 -1.1904228 4293729569
15.625774 3.1603518 -0.5020811 4293729569
14.437742 2.8696275 -1.1504955 4293729569
15.953847 3.1110904 -0.47105399 4293729569
14.440775 2.7686 -1.1145631 4293729569
16.037886 3.0150037 -0.43410334 4293729569
14.437809 2.6665773 -1.0786325 4293729569
14.457846 2.5685396 -1.0466948 4293729569
14.509882 2.4744811 -1.0177485 4293729569
14.513916 2.3724551 -0.9858163 4293729569
14.516951 2.2704315 -0.95588446 4293729569
14.530983 2.168401 -0.92795038 4293729569
14.542019 2.0663736 -0.90101683 4293729569
14.627062 1.9732957 -0.88006353 4293729569
14.774111 1.8881757 -0.86309355 4293729569
15.080172 1.8169451 -0.85508478 4293729569
15.560247 1.7605944 -0.85703391 4293729569
17.005398 1.7935703 -0.90574509 4293729569
17.53146 1.7211871 -0.90869653 4293729569
17.450474 1.5892272 -0.88279969 4293729569
19.439442 -4.7057586 -1.7735904 4288085770
18.757584 -4.6712699 -1.7716926 4288085770
18.104721 -4.6377997 -1.7717901 4288085770
17.447868 -4.5923305 -1.7678803 4288085770
16.935997 -4.5759578 -1.7759632 4288085770
16.380136 -4.5415587 -1.7780423 4288085770
15.877269 -4.5151935 -1.7841167 4288085770
15.368408 -4.4778275 -1.7871852 4288085770
14.911547 -4.4494948 -1.79425 4288085770
19.293558 -5.8029141 -1.3813318 4293729569
14.481684 -4.4221835 -1.8023106 4288085770
19.167622 -5.8927846 -1.4474132 4293729569
14.019829 -4.377852 -1.8043659 4288085770
19.056681 -5.9856658 -1.5144941 4293729569
13.60697 -4.3445535 -1.8104191 4288085770
18.836769 -6.0404725 -1.5745698 4293729569
13.172117 -4.2972407 -1.8124675 4288085770
18.060974 -5.9139056 -1.5886288 4293729569
12.789259 -4.2609639 -1.8185135 4288085770
17.291189 -5.7773471 -1.5976801 4293729569
12.314426 -4.1876302 -1.8095522 4288085770
16.520409 -5.6307912 -1.6027251 4293729569
11.887585 -4.1253285 -1.8055892 4288085770
15.851616 -5.5083051 -1.6127671 4293729569
11.50074 -4.071054 -1.8046241 4288085770
15.131836 -5.3607888 -1.612802 4293729569
11.128891 -4.016789 -1.8036562 4288085770
14.381071 -5.191256 -1.6048284 4293729569
10.781044 -3.9655414 -1.8046862 4288085770
13.758282 -5.0588098 -1.6058555 4293729569
10.4242 -3.9062886 -1.8017124 4288085770
13.230474 -4.9514279 -1.6138816 4293729569
10.135345 -3.8670812 -1.8077393 4288085770
12.666681 -4.8240247 -1.6129012 4293729569
9.8414936 -3.8218694 -1.811763 4288085770
12.234858 -4.7397094 -1.6239249 4293729569
9.5766335 -3.7836776 -1.8177862 4288085770
11.770044 -4.636375 -1.628942 4293729569
9.2917824 -3.7344766 -1.8188059 4288085770
11.360224 -4.5470805 -1.6359583 4293729569
9.038929 -3.693294 -1.8248248 4288085770
10.922417 -4.4417672 -1.6369694 4293729569
8.7880764 -3.6491146 -1.8288416 4288085770
10.55459 -4.3595014 -1.6439828 4293729569
8.5332241 -3.6009336 -1.8298564 4288085770
10.180773 -4.2682328 -1.6479913 4293729569
8.2833767 -3.5497575 -1.8298683 4288085770
9.9339199 -4.2260461 -1.6680087 4293729569
8.053524 -3.5035934 -1.8328799 4288085770
9.7580528 -4.2079053 -1.6970286 4293729569
7.8126774 -3.4494252 -1.8308884 4288085770
9.6061783 -4.1987777 -1.7300503 4293729569
7.597826 -3.4032731 -1.8328971 4288085770
9.455307 -4.187654 -1.7620704 4288085770
7.3809757 -3.3541207 -1.8329046 4288085770
9.3184357 -4.1795373 -1.7970898 4288085770
7.1501312 -3.2959614 -1.8279085 4288085770
9.0985889 -4.1323714 -1.8140993 4288085770
6.9232864 -3.2348065 -1.8209099 4288085770
8.8287525 -4.0601783 -1.8201013 4288085770
6.7404346 -3.1916776 -1.822915 4288085770
8.5509262 -3.9809804 -1.8221002 4288085770
6.5675812 -3.1495547 -1.8269187 4288085770
8.2541046 -3.8887734 -1.8180943 4288085770
6.3807297 -3.0984259 -1.8239194 4288085770
7.9972782 -3.8115916 -1.8180907 4288085770
6.2018814 -3.0493026 -1.8219198 4288085770
7.7794342 -3.7494349 -1.8250899 4288085770
6.0380211 -3.0041885 -1.82192 4288085770
7.5386009 -3.673265 -1.825084 4288085770
5.8921642 -2.9660845 -1.8259218 4288085770
7.3127651 -3.6011066 -1.8250782 4288085770
5.7353115 -2.9199753 -1.8259202 4288085770
7.0689411 -3.5179391 -1.8190686 4288085770
5.599453 -2.8818803 -1.8289201 4288085770
6.8661041 -3.4507961 -1.8210617 4288085770
5.4526024 -2.8367791 -1.8279173 4288085770
6.6642666 -3.3816547 -1.8200535 4288085770
5.3237438 -2.7986889 -1.8309159 4288085770
6.4874249 -3.3225312 -1.8220472 4288085770
5.1978874 -2.7596011 -1.8329133 4288085770
6.3015862 -3.2564025 -1.8210382 4288085770
5.0730305 -2.7195139 -1.83491 4288085770
6.1277466 -3.1932807 -1.8210288 4288085770
4.9451752 -2.6764269 -1.8339052 4288085770
5.9689026 -3.1361704 -1.8220205 4288085770
4.8143234 -2.6293387 -1.8298984 4288085770
5.7970657 -3.0700536 -1.818009 4288085770
4.7144623 -2.5962691 -1.8338951 4288085770
5.6552162 -3.016953 -1.8210005 4288085770
4.614603 -2.5621996 -1.8378911 4288085770
5.5103703 -2.9608541 -1.8199904 4288085770
5.3775253 -2.9087615 -1.8219808 4288085770
5.254673 -2.8596754 -1.8249714 4288085770
5.1418228 -2.8145957 -1.8289628 4288085770
5.0239735 -2.7655139 -1.8309525 4288085770
4.9091206 -2.7164345 -1.8319418 4288085770
4.7952709 -2.6653576 -1.8309296 4288085770
4.6874199 -2.6172853 -1.8299181 4288085770
4.5885696 -2.5712175 -1.8309066 4288085770
4.7272625 -0.42865133 -1.8296698 4288085770
4.8143864 -0.41471815 -1.8266507 4288085770
4.9065094 -0.40178776 -1.8236318 4288085770
5.0156326 -0.38886786 -1.8246108 4288085770
5.1207485 -0.37594604 -1.8225901 4288085770
5.2298717 -0.36302757 -1.8205688 4288085770
5.3519936 -0.35111618 -1.8205467 4288085770
5.4851189 -0.33821249 -1.8225228 4288085770
5.6222401 -0.32631159 -1.8234986 4288085770
4.6923561 -0.24465704 -1.8295748 4288085770
5.7403622 -0.31340265 -1.8164767 4288085770
4.7924767 -0.23273134 -1.8275557 4288085770
5.886488 -0.30150843 -1.8164517 4288085770
4.9076004 -0.22181606 -1.827535 4288085770
6.0306091 -0.28861475 -1.8134265 4288085770
5.0307217 -0.21090508 -1.8295134 4288085770
6.1997337 -0.27673531 -1.8153985 4288085770
5.1458454 -0.19999027 -1.8274931 4288085770
6.3718548 -0.26486063 -1.8143703 4288085770
5.2689686 -0.18808174 -1.825471 4288085770
6.5619774 -0.25399542 -1.8173406 4288085770
5.4060898 -0.17718124 -1.8254478 4288085770
6.7451 -0.24212933 -1.814311 4288085770
5.536211 -0.16627789 -1.8224256 4288085770
6.9542255 -0.23027754 -1.8162783 4288085770
5.6903343 -0.15538931 -1.8234005 4288085770
7.1703453 -0.21943235 -1.8162454 4288085770
5.840456 -0.14449787 -1.8223759 4288085770
7.4024696 -0.20759773 -1.8162099 4288085770
6.0065765 -0.13461828 -1.8223499 4288085770
7.66259 -0.19778109 -1.8201721 4288085770
6.1726952 -0.12373877 -1.8203232 4288085770
7.9107094 -0.18496037 -1.8161342 4288085770
6.3628159 -0.11387396 -1.8222942 4288085770
8.1938324 -0.17416096 -1.817093 4288085770
6.5539398 -0.10301161 -1.8212647 4288085770
8.4849548 -0.16236925 -1.8150505 4288085770
6.7620583 -0.093160152 -1.8222338 4288085770
8.8290768 -0.15260935 -1.8200024 4288085770
6.976181 -0.083313942 -1.8212019 4288085770
9.2491989 -0.14289856 -1.8329448 4288085770
7.2293034 -0.073491096 -1.8271654 4288085770
9.570322 -0.1301322 -1.8238984 4288085770
7.4584236 -0.06365633 -1.8231319 4288085770
9.9414444 -0.11939764 -1.8178469 4288085770
7.7255478 -0.053845406 -1.8240938 4288085770
10.354565 -0.10769272 -1.8127896 4288085770
7.9636669 -0.044020176 -1.8150594 4288085770
10.823687 -0.09702301 -1.8117262 4288085770
8.2567863 -0.034228802 -1.8140185 4288085770
11.358812 -0.086398602 -1.8136543 4288085770
8.6089077 -0.025474548 -1.8209705 4288085770
11.932932 -0.07580328 -1.812578 4288085770
8.9780293 -0.01673317 -1.8239207 4288085770
12.548054 -0.064236641 -1.8094962 4288085770
9.3541508 -0.0079984665 -1.82487 4288085770
13.253176 -0.053730965 -1.8104039 4288085770
9.7512722 0.00072145462 -1.8238173 4288085770
14.060297 -0.044294834 -1.8132997 4288085770
10.157391 0.0094323158 -1.8187633 4288085770
14.95142 -0.03391695 -1.8161849 4288085770
10.627512 0.018101215 -1.8187015 4288085770
15.995543 -0.023644447 -1.8210512 4288085770
11.156626 0.02573061 -1.8206331 4288085770
17.129662 -0.013437748 -1.8209066 4288085770
11.722748 0.033333778 -1.8205605 4288085770
18.473782 -0.0033740997 -1.8247367 4288085770
12.340866 0.0408988 -1.8184817 4288085770
13.067986 0.048391342 -1.8213897 4288085770
13.822105 0.053861618 -1.8182958 4288085770
14.712223 0.060240746 -1.821185 4288085770
15.722346 0.065536976 -1.8240603 4288085770
16.905464 0.070715904 -1.8319148 4288085770
18.207581 0.074809074 -1.8347559 4288085770
19.333309 -5.762157 -0.22273162 4293729569
19.392513 -5.64117 -0.27366203 4293729569
19.833065 0.3018322 -1.8425111 4288085770
18.372192 0.32442617 -1.8383408 4288085770
17.136318 0.3449285 -1.8365043 4288085770
16.035442 0.36437535 -1.8338686 4288085770
15.049568 0.38277483 -1.8294034 4288085770
14.174696 0.40012884 -1.825103 4288085770
13.468813 0.41841531 -1.8300531 4288085770
12.767937 0.4346981 -1.827011 4288085770
19.387102 0.68299246 -1.8307731 4288085770
12.158054 0.45194435 -1.8271037 4288085770
18.11821 0.69550896 -1.8348899 4288085770
11.640167 0.46915412 -1.8333328 4288085770
16.90234 0.70300126 -1.8270864 4288085770
11.141289 0.48535442 -1.8335904 4288085770
15.894457 0.71341038 -1.8255906 4288085770
10.648413 0.49955225 -1.8298572 4288085770
15.004574 0.72577095 -1.8262694 4288085770
10.19054 0.5147357 -1.8261759 4288085770
14.175701 0.73510551 -1.8210394 4288085770
9.7926655 0.52889442 -1.8235836 4288085770
13.491816 0.7473824 -1.8230236 4288085770
9.4697762 0.54602432 -1.8301018 4288085770
12.787947 0.7556653 -1.814979 4288085770
9.1119003 0.5601666 -1.827569 4288085770
12.223064 0.76789308 -1.8161396 4288085770
8.7800255 0.57329822 -1.8240749 4288085770
11.715179 0.78109765 -1.8193848 4288085770
8.4881439 0.58841419 -1.8246398 4288085770
11.219301 0.79329705 -1.8186479 4288085770
8.2042675 0.60252666 -1.8222166 4288085770
10.774422 0.80547547 -1.8179864 4288085770
7.955389 0.617625 -1.8238451 4288085770
10.35054 0.81664467 -1.8153565 4288085770
7.7165089 0.63171887 -1.8234887 4288085770
9.9656639 0.82979846 -1.814784 4288085770
7.5146236 0.64879918 -1.8291867 4288085770
9.6227818 0.84293509 -1.8152736 4288085770
7.2777481 0.66089177 -1.8248336 4288085770
9.2959023 0.85606527 -1.814787 4288085770
7.1218548 0.67995381 -1.8355994 4288085770
8.9980202 0.86918354 -1.8163435 4288085770
6.9339733 0.69402719 -1.8363186 4288085770
8.7151375 0.88229585 -1.8159221 4288085770
6.7371006 0.70710325 -1.8320248 4288085770
8.4562588 0.89639831 -1.8165364 4288085770
6.5532265 0.72117424 -1.8277501 4288085770
8.1963825 0.90850067 -1.8141495 4288085770
6.3963451 0.73623514 -1.8295151 4288085770
7.9864979 0.92458344 -1.8188359 4288085770
6.2414646 0.75029492 -1.8292834 4288085770
7.7846127 0.9406631 -1.8225341 4288085770
6.1015835 0.76634884 -1.8310736 4288085770
7.5537395 0.95275331 -1.8181901 4288085770
5.965704 0.78140116 -1.8318698 4288085770
7.3518639 0.96583176 -1.8158891 4288085770
5.8338242 0.79645133 -1.831672 4288085770
7.1699829 0.97990274 -1.8166174 4288085770
5.7189426 0.81249523 -1.8344991 4288085770
7.000103 0.99496841 -1.8173634 4288085770
5.5980644 0.82754087 -1.8343177 4288085770
6.8372211 1.0100319 -1.8181195 4288085770
5.4731884 0.84158754 -1.8311305 4288085770
6.6863422 1.02509 -1.8188938 4288085770
5.3823013 0.85862255 -1.8369931 4288085770
6.5434608 1.0411451 -1.8196797 4288085770
5.2684288 0.87266493 -1.8338223 4288085770
6.404583 1.0571985 -1.8204713 4288085770
5.1805439 0.89069796 -1.8386892 4288085770
6.267704 1.0712504 -1.8192664 4288085770
5.1056557 0.90972614 -1.8455752 4288085770
6.1428242 1.0882983 -1.8200787 4288085770
5.0067806 0.92476273 -1.8424265 4288085770
6.0199471 1.1033447 -1.8198946 4288085770
5.9000683 1.1193898 -1.8177146 4288085770
5.8061867 1.1374257 -1.8225726 4288085770
5.6833134 1.1514711 -1.8173887 4288085770
5.5824356 1.1675086 -1.8162366 4288085770
5.5005531 1.1865392 -1.8211125 4288085770
5.4166718 1.2045698 -1.8219855 4288085770
5.3237953 1.2216043 -1.8208454 4288085770
5.242918 1.2396338 -1.8207228 4288085770
5.1590424 1.2556643 -1.8195964 4288085770
5.0941601 1.2756877 -1.8224972 4288085770
5.0152855 1.293716 -1.8203776 4288085770
5.0311012 3.3373089 -1.8460838 4288085770
5.1252422 3.4112687 -1.8492104 4288085770
5.2323799 3.4922242 -1.855355 4288085770
5.3215256 3.5601854 -1.8544749 4288085770
5.4406662 3.6471357 -1.8596363 4288085770
5.5738068 3.7400808 -1.867817 4288085770
5.6869545 3.821033 -1.8679702 4288085770
5.8360977 3.9229717 -1.876173 4288085770
5.9652443 4.0099177 -1.8773488 4288085770
6.1133957 4.1078563 -1.8815506 4288085770
6.2735424 4.2117906 -1.8867689 4288085770
5.003355 3.5042892 -1.8610151 4288085770
6.4566917 4.3287163 -1.8950192 4288085770
5.1264915 3.5812378 -1.8651836 4288085770
6.6208439 4.4316483 -1.8952434 4288085770
5.2396317 3.6501899 -1.8653386 4288085770
6.7989979 4.541575 -1.8974873 4288085770
5.3827724 3.7371311 -1.8715347 4288085770
6.9841576 4.6544991 -1.8977406 4288085770
5.5089207 3.8110781 -1.8707076 4288085770
7.4602852 4.9463172 -1.9683933 4288085770
5.6450653 3.8900213 -1.8718945 4288085770
7.8504295 5.1821661 -2.0129285 4282675967
5.8002071 3.9779572 -1.8761077 4288085770
8.0606003 5.3030791 -2.0082169 4282675967
5.9713516 4.0748873 -1.883343 4288085770
8.2477741 5.407001 -1.996474 4282675967
6.1434975 4.169817 -1.88758 4288085770
8.4309521 5.5049238 -1.9807261 4288085770
6.3256454 4.2687426 -1.892831 4288085770
8.6441307 5.618835 -1.9690199 4288085770
6.5207901 4.3736634 -1.9000999 4288085770
8.8783054 5.7427387 -1.9603426 4288085770
6.6889458 4.4585938 -1.896332 4288085770
9.197485 5.9156098 -1.9637821 4288085770
6.8720989 4.550518 -1.8945854 4288085770
9.5636635 6.1134639 -1.9732867 4288085770
7.1352482 4.6884136 -1.9109485 4288085770
9.9638443 6.3273053 -1.9858384 4288085770
7.7133598 5.0171943 -2.0007439 4282675967
10.410032 6.5651283 -2.0014539 4288085770
8.0055141 5.1650777 -2.0151474 4282675967
10.845226 6.7909551 -2.0090542 4288085770
8.2126789 5.2579918 -2.0064349 4282675967
11.290421 7.0167775 -2.0146694 4288085770
8.3978443 5.3339143 -1.9906927 4282675967
11.819622 7.2875681 -2.0284002 4288085770
8.5880146 5.4098339 -1.9739577 4288085770
12.41983 7.5933313 -2.0472291 4288085770
8.813179 5.5027413 -1.9642709 4288085770
13.060047 7.9170794 -2.0651138 4288085770
9.0603485 5.6056399 -1.9546149 4288085770
9.4195137 5.7694969 -1.9651133 4288085770
9.762682 5.9193597 -1.9695901 4288085770
10.147854 6.0892067 -1.9781251 4288085770
10.582024 6.280035 -1.9917281 4288085770
11.012197 6.4618645 -2.0003266 4288085770
11.486376 6.6636763 -2.0119858 4288085770
11.955559 6.8554902 -2.0186388 4288085770
12.467743 7.0632877 -2.0273523 4288085770
13.030928 7.2910657 -2.0401366 4288085770
13.638121 7.5338259 -2.0539825 4288085770
14.280315 7.7865734 -2.0678773 4288085770
19.512451 -2.237658 -1.8501954 4288085770
18.800545 -2.273387 -1.8551819 4288085770
17.983669 -2.287077 -1.8460174 4288085770
17.296776 -2.3068156 -1.8450384 4288085770
16.641888 -2.3235664 -1.8441051 4288085770
15.993002 -2.3303208 -1.8391796 4288085770
15.362122 -2.3340816 -1.8342797 4288085770
14.752253 -2.3308516 -1.8264092 4288085770
14.227365 -2.3346539 -1.8256603 4288085770
13.72748 -2.3364654 -1.824947 4288085770
13.224606 -2.3302755 -1.8202288 4288085770
12.797714 -2.3321142 -1.8236196 4288085770
19.11734 -3.5085287 -1.8197004 4288085770
12.390825 -2.3319612 -1.8260388 4288085770
18.187477 -3.4441752 -1.8193694 4288085770
11.99494 -2.3298116 -1.8284736 4288085770
17.325615 -3.3818483 -1.8191357 4288085770
11.577063 -2.3176546 -1.8248764 4288085770
16.529758 -3.3205466 -1.8169961 4288085770
11.18519 -2.3045087 -1.8213162 4288085770
15.785896 -3.2622647 -1.815931 4288085770
10.830307 -2.2953753 -1.8218091 4288085770
15.07304 -3.1999955 -1.8129098 4288085770
10.463436 -2.2792387 -1.8172845 4288085770
14.452173 -3.1497607 -1.8140205 4288085770
10.19054 -2.2791367 -1.8258946 4288085770
13.812321 -3.0885186 -1.8090993 4288085770
9.9096508 -2.2740302 -1.8324884 4288085770
13.241457 -3.0353022 -1.8082802 4288085770
9.5997734 -2.258914 -1.8310443 4288085770
12.749584 -2.9921165 -1.8115742 4288085770
9.3158894 -2.2458081 -1.8316377 4288085770
12.260714 -2.9449315 -1.811873 4288085770
9.0400124 -2.2297049 -1.8312421 4288085770
11.814844 -2.9017639 -1.8142331 4288085770
8.8091202 -2.223618 -1.8389112 4288085770
11.395967 -2.8606057 -1.8176317 4288085770
8.5672359 -2.209528 -1.8415643 4288085770
10.9821 -2.8154497 -1.8180376 4288085770
8.3123589 -2.1914339 -1.840199 4288085770
10.592232 -2.7723036 -1.8174779 4288085770
8.0824814 -2.1753488 -1.8408691 4288085770
10.239359 -2.7331715 -1.8199712 4288085770
7.8805943 -2.1632738 -1.8465794 4288085770
9.9184799 -2.6990509 -1.8255103 4288085770
7.6647167 -2.146193 -1.8472697 4288085770
9.5976086 -2.6599307 -1.8280493 4288085770
7.4438419 -2.1241126 -1.8449526 4288085770
9.294733 -2.6238174 -1.8306142 4288085770
7.2539597 -2.1090422 -1.8486801 4288085770
9.0008621 -2.5857077 -1.8321918 4288085770
7.0520859 -2.0879679 -1.8473903 4288085770
8.717989 -2.5486031 -1.8337854 4288085770
6.8552113 -2.065896 -1.8451074 4288085770
8.4521179 -2.5115037 -1.8344032 4288085770
6.6613426 -2.0418262 -1.8408288 4288085770
8.2062416 -2.4774127 -1.8370496 4288085770
6.485466 -2.0207615 -1.8405761 4288085770
7.9603748 -2.4403219 -1.8366959 4288085770
6.3105946 -1.9976983 -1.8383247 4288085770
7.7484894 -2.4112434 -1.8433912 4288085770
6.1297264 -1.9726329 -1.8330648 4288085770
7.5226192 -2.3761597 -1.8430663 4288085770
5.9928322 -1.9575825 -1.8388681 4288085770
7.2977448 -2.3380775 -1.841743 4288085770
5.8519535 -1.9395318 -1.8416656 4288085770
7.077879 -2.2989964 -1.8384266 4288085770
5.720068 -1.9234838 -1.8454759 4288085770
6.8930016 -2.2689295 -1.8421605 4288085770
5.572197 -1.9004307 -1.8432633 4288085770
6.7111263 -2.2378621 -1.8438985 4288085770
5.4473133 -1.8833866 -1.8470836 4288085770
6.5052662 -2.1967883 -1.8376023 4288085770
5.3154373 -1.8613391 -1.8468937 4288085770
6.3164005 -2.1597195 -1.8343301 4288085770
5.1715698 -1.835288 -1.8416866 4288085770
6.1545277 -2.1286607 -1.8360969 4288085770
5.0536919 -1.8152461 -1.8425168 4288085770
5.9956512 -2.0976033 -1.836868 4288085770
5.8427811 -2.0665479 -1.8366477 4288085770
5.6939068 -2.0354943 -1.837433 4288085770
5.5560322 -2.005445 -1.8382341 4288085770
5.4201584 -1.9753966 -1.839038 4288085770
5.283287 -1.9443479 -1.8378408 4288085770
5.1524181 -1.9123011 -1.8356519 4288085770
5.032547 -1.8842587 -1.8354788 4288085770
5.0246334 0.2114315 -1.8170556 4288085770
5.1427517 0.22338581 -1.816213 4288085770
5.2478848 0.23434448 -1.8083529 4288085770
5.3880005 0.24729204 -1.81154 4288085770
5.5511093 0.26023102 -1.8187584 4288085770
5.6932354 0.2721777 -1.8159479 4288085770
5.8513546 0.28511858 -1.8171591 4288085770
6.0074768 0.29706001 -1.8153676 4288085770
5.0565186 0.28639984 -1.8230792 4288085770
6.1825924 0.30899477 -1.8166015 4288085770
5.193634 0.29634809 -1.8242623 4288085770
6.3667126 0.32192612 -1.8178475 4288085770
5.3207588 0.30529976 -1.8214319 4288085770
6.5558319 0.33385563 -1.8171002 4288085770
5.4748707 0.31524229 -1.8256378 4288085770
6.7659512 0.34677839 -1.8203809 4288085770
5.6229916 0.32418633 -1.8248354 4288085770
7.0080605 0.35968971 -1.8277053 4288085770
5.7781105 0.33312798 -1.8250426 4288085770
7.2191868 0.37161136 -1.822987 4288085770
5.9432316 0.34206653 -1.824263 4288085770
7.4453087 0.38352847 -1.8212892 4288085770
6.1073456 0.35000539 -1.8224822 4288085770
7.6954269 0.39543629 -1.8196237 4288085770
6.3194523 0.35992789 -1.8307658 4288085770
7.9605465 0.40733933 -1.8189781 4288085770
6.4875793 0.36786461 -1.82499 4288085770
8.2566643 0.42023182 -1.8203743 4288085770
6.6886997 0.37579036 -1.8242587 4288085770
8.5937786 0.43410945 -1.8258253 4288085770
6.9138165 0.383708 -1.8275596 4288085770
8.9318962 0.44598651 -1.8272778 4288085770
7.1429348 0.39162374 -1.8268658 4288085770
9.3080139 0.45985079 -1.8297808 4288085770
7.374054 0.39853859 -1.8251746 4288085770
9.6741409 0.4717176 -1.8252704 4288085770
7.6241722 0.40544701 -1.8245085 4288085770
10.075262 0.48357272 -1.8238069 4288085770
7.8852959 0.41235161 -1.8218573 4288085770
10.544382 0.49740386 -1.8264346 4288085770
8.1734123 0.41824675 -1.8232425 4288085770
11.073492 0.51121402 -1.8341429 4288085770
8.4895248 0.42513227 -1.8256651 4288085770
11.579617 0.52303195 -1.8298198 4288085770
8.8266449 0.43101025 -1.8271159 4288085770
12.155739 0.53582525 -1.8285906 4288085770
9.1927586 0.43787789 -1.8306053 4288085770
12.774866 0.54860306 -1.8254189 4288085770
9.5598774 0.44174528 -1.8280959 4288085770
13.487986 0.56234837 -1.8263732 4288085770
9.968996 0.44659781 -1.8286428 4288085770
14.265106 0.57507062 -1.8264133 4288085770
10.406113 0.44944096 -1.8282272 4288085770
15.162224 0.58975101 -1.829614 4288085770
10.93121 0.4542532 -1.8379298 4288085770
16.157337 0.60439706 -1.8309463 4288085770
11.44133 0.45606995 -1.8356118 4288085770
17.305456 0.61998892 -1.8344829 4288085770
11.962454 0.45588326 -1.8293082 4288085770
18.612572 0.63552427 -1.8372327 4288085770
12.586569 0.45666027 -1.8301426 4288085770
13.288681 0.45640993 -1.8330817 4288085770
14.057796 0.45413613 -1.8341104 4288085770
14.901913 0.44983602 -1.8352393 4288085770
15.861021 0.4444952 -1.8375218 4288085770
16.970131 0.43710208 -1.8430054 4288085770
18.199238 0.42766666 -1.8466492 4288085770
19.552349 0.4131875 -1.8454586 4288085770
7.712923 -4.746181 -0.023556447 4293729569
7.7410011 -4.7181907 -0.062587567 4293729569
7.7880707 -4.7002063 -0.10264381 4293729569
17.279549 -7.8463645 -1.4949273 4293729569
16.897753 -7.5472369 -1.5044112 4293729569
16.612938 -7.2931418 -1.5190226 4293729569
16.332123 -7.0470481 -1.53064 4293729569
16.083302 -6.8159642 -1.5422993 4293729569
15.907465 -6.6189055 -1.5570543 4293729569
13.321251 -5.4550509 -1.3376688 4293729569
13.260248 -5.3110862 -0.63657695 4293729569
13.260387 -5.3260303 -1.3545765 4293729569
13.30636 -5.2261024 -0.66162413 4293729569
13.339493 -5.2540574 -1.3836666 4293729569
15.242132 -5.8706861 -1.5961273 4293729569
15.109295 -5.7016425 -1.6039398 4293729569
14.987457 -5.5396018 -1.610767 4293729569
14.916609 -5.3975806 -1.6196605 4293729569
14.822771 -5.2465501 -1.6255242 4293729569
14.752924 -5.1075282 -1.6324193 4293729569
14.672083 -4.9645047 -1.6353003 4293729569
14.620237 -4.833487 -1.6412189 4293729569
14.611383 -4.7174869 -1.6481935 4293729569
14.592533 -4.5984817 -1.653155 4293729569
19.241779 -5.8880868 -1.1651419 4293729569
14.688656 -4.513514 -1.6692648 4293729569
19.37491 -5.7811322 -1.1812952 4293729569
15.011724 -4.4946237 -1.7096673 4293729569
15.482765 -4.5137801 -1.7632598 4288085770
15.863832 -4.5019059 -1.8057352 4288085770
15.929975 -4.3969293 -1.8128051 4288085770
15.91014 -4.2689261 -1.8087641 4288085770
15.879307 -4.1389194 -1.8017092 4288085770
15.962452 -4.0379472 -1.8058007 4288085770
16.055599 -3.9389815 -1.8089049 4288085770
16.137751 -3.8370099 -1.8089948 4288085770
16.201904 -3.7290339 -1.8060615 4288085770
16.318052 -3.6330757 -1.8071947 4288085770
16.456198 -3.5401244 -1.808356 4288085770
16.688328 -3.4652033 -1.818637 4288085770
16.903463 -3.382277 -1.8248957 4288085770
17.073612 -3.2903328 -1.8240893 4288085770
17.304749 -3.2074127 -1.827371 4288085770
17.558884 -3.1265001 -1.8316818 4288085770
17.828022 -3.042592 -1.8350112 4288085770
18.116165 -2.9596906 -1.8373644 4288085770
18.398308 -2.8737869 -1.8377099 4288085770
18.740448 -2.7919035 -1.8411311 4288085770
19.088593 -2.7060223 -1.8415593 4288085770
19.50473 -2.6251636 -1.8460734 4288085770
18.845018 0.76557016 -1.8401723 4288085770
17.772146 0.80390596 -1.8388692 4288085770
16.797276 0.84021044 -1.8356851 4288085770
15.917402 0.87348485 -1.8326164 4288085770
15.163527 0.90671992 -1.8317006 4288085770
14.447653 0.93694258 -1.8288311 4288085770
13.823776 0.96713638 -1.8280729 4288085770
13.227905 0.99432087 -1.824349 4288085770
12.701031 1.0204842 -1.8217089 4288085770
18.661335 1.521611 -1.7528805 4293729569
12.234154 1.0476284 -1.8221414 4288085770
18.361393 1.5917087 -1.818511 4288085770
11.769283 1.0727718 -1.8175765 4288085770
17.556503 1.6159601 -1.8285344 4288085770
11.378405 1.0988922 -1.8191012 4288085770
16.719624 1.6292202 -1.8265202 4288085770
11.016523 1.1260033 -1.8206609 4288085770
15.740767 1.6215231 -1.8003359 4288085770
10.668646 1.1501098 -1.8192379 4288085770
15.308863 1.6626585 -1.8268095 4288085770
10.334772 1.174212 -1.817832 4288085770
14.659986 1.6758595 -1.8220232 4288085770
10.032896 1.1993041 -1.8174647 4288085770
14.06411 1.6880434 -1.816301 4288085770
9.7480183 1.2223907 -1.8171182 4288085770
13.527233 1.702209 -1.8126501 4288085770
9.490139 1.246469 -1.8168043 4288085770
13.073353 1.7213488 -1.8140992 4288085770
9.2542591 1.2715402 -1.8195168 4288085770
12.651472 1.7414787 -1.8155872 4288085770
9.0143833 1.2946129 -1.8172247 4288085770
12.255592 1.7606001 -1.8161067 4288085770
8.8034992 1.3186762 -1.8189678 4288085770
11.883711 1.7797141 -1.8146552 4288085770
8.6166191 1.3457325 -1.8227398 4288085770
11.539831 1.7998197 -1.8152375 4288085770
8.4237423 1.3697901 -1.8225046 4288085770
11.214951 1.8209186 -1.8148431 4288085770
8.2278652 1.3928485 -1.820266 4288085770
10.917074 1.8420093 -1.814481 4288085770
8.0809841 1.420892 -1.8260862 4288085770
10.643194 1.8640926 -1.816148 4288085770
7.9011078 1.4419456 -1.8228672 4288085770
10.375317 1.8851733 -1.8148226 4288085770
7.7622261 1.4699864 -1.8266972 4288085770
10.134436 1.9082465 -1.8155295 4288085770
7.6113491 1.4930308 -1.825513 4288085770
9.9105587 1.9323139 -1.8162569 4288085770
7.4664726 1.5160732 -1.8243363 4288085770
9.6886806 1.9533803 -1.8149869 4288085770
7.3655891 1.5471025 -1.831212 4288085770
9.4908028 1.9784396 -1.8157459 4288085770
7.2297153 1.570142 -1.8300461 4288085770
9.2969265 2.0004976 -1.8145099 4288085770
7.0968418 1.5921805 -1.825884 4288085770
9.1160469 2.0255513 -1.8142893 4288085770
6.9989586 1.6212087 -1.8307636 4288085770
8.9501705 2.0516005 -1.8150871 4288085770
6.8810844 1.6432424 -1.8276196 4288085770
8.7972908 2.0776458 -1.8159003 4288085770
6.7882042 1.6722689 -1.8305053 4288085770
8.6384163 2.1026926 -1.8147064 4288085770
6.686327 1.6972976 -1.8293804 4288085770
8.505537 2.1317315 -1.8165437 4288085770
6.5844555 1.7213264 -1.8262557 4288085770
8.3746624 2.1587694 -1.8173835 4288085770
6.4875813 1.7453535 -1.8241369 4288085770
8.2537823 2.1888044 -1.8182354 4288085770
6.4017048 1.7713771 -1.8230314 4288085770
8.1329079 2.2158394 -1.8180873 4288085770
6.3258286 1.7993979 -1.8239378 4288085770
8.018034 2.2448723 -1.8169466 4288085770
6.2409515 1.8244214 -1.8218335 4288085770
7.8961601 2.2709076 -1.8137976 4288085770
6.1640778 1.8504426 -1.819739 4288085770
7.8072834 2.3039324 -1.8166877 4288085770
6.1012001 1.8804591 -1.821661 4288085770
7.723402 2.3389561 -1.8195839 4288085770
6.0353241 1.9084771 -1.8205795 4288085770
7.6355286 2.3709807 -1.8194755 4288085770
5.9614506 1.9344964 -1.8174887 4288085770
7.5706501 2.4089985 -1.8233944 4288085770
5.9025745 1.9635119 -1.8164154 4288085770
7.4877758 2.4420218 -1.822292 4288085770
5.8486996 1.993526 -1.8163484 4288085770
7.4179001 2.4770408 -1.8232051 4288085770
5.8078232 2.0275362 -1.8192968 4288085770
7.3170338 2.5020685 -1.8160816 4288085770
5.7479496 2.0555515 -1.8162225 4288085770
7.2811508 2.5470777 -1.823035 4288085770
5.7130718 2.0895598 -1.8181783 4288085770
7.2112827 2.5800967 -1.8199484 4288085770
5.6522026 2.1155753 -1.813103 4288085770
7.1404076 2.6121154 -1.8168606 4288085770
5.6273251 2.1535804 -1.8170705 4288085770
7.0825386 2.6481307 -1.8147883 4288085770
5.5984459 2.1905866 -1.819033 4288085770
7.0416622 2.6901402 -1.8157359 4288085770
5.5505753 2.2195983 -1.8149734 4288085770
6.9967899 2.7291517 -1.8156791 4288085770
5.5177002 2.2536056 -1.8139315 4288085770
6.9729137 2.7761567 -1.819647 4288085770
5.4868279 2.2886126 -1.8128918 4288085770
6.9470406 2.8231623 -1.8216124 4288085770
5.4759502 2.3306131 -1.8168758 4288085770
6.9201698 2.869168 -1.8225766 4288085770
5.452076 2.3676176 -1.8168447 4288085770
6.9152946 2.9241672 -1.8285668 4288085770
5.4282055 2.4046221 -1.8158134 4288085770
6.8734245 2.962177 -1.8235139 4288085770
5.4193306 2.4476218 -1.8177996 4288085770
6.8565559 3.0121794 -1.8234898 4288085770
5.395462 2.4836264 -1.8147684 4288085770
6.8566818 3.0671773 -1.8274862 4288085770
5.4005814 2.5316224 -1.8197714 4288085770
6.8588123 3.1241741 -1.8304846 4288085770
5.3827133 2.5696249 -1.8167473 4288085770
6.8589401 3.1811717 -1.8334807 4288085770
5.3848381 2.6166217 -1.8197466 4288085770
6.8650684 3.2391672 -1.835484 4288085770
5.3799667 2.6606202 -1.8197378 4288085770
6.8822002 3.3031597 -1.8395001 4288085770
5.386095 2.7096157 -1.8217418 4288085770
6.9093285 3.3721492 -1.8455279 4288085770
5.3842258 2.7546134 -1.8207365 4288085770
6.9224606 3.4341426 -1.8465394 4288085770
5.3813553 2.7996113 -1.81873 4288085770
6.9255981 3.4921384 -1.843539 4288085770
5.3914852 2.8506055 -1.8187387 4288085770
6.9607277 3.5651257 -1.8485761 4288085770
5.4086151 2.9045975 -1.8207557 4288085770
6.9928608 3.6371133 -1.8506098 4288085770
5.450737 2.9725823 -1.8298017 4288085770
7.0359974 3.7160978 -1.8546561 4288085770
5.4578724 3.0215774 -1.826807 4288085770
7.1061268 3.8090746 -1.8647341 4288085770
5.5089989 3.0935593 -1.8358635 4288085770
7.1722603 3.8990521 -1.8718071 4288085770
5.5381298 3.1535478 -1.8378944 4288085770
7.2453976 3.9930274 -1.8788885 4288085770
5.5862579 3.2255309 -1.8449476 4288085770
7.3065338 4.0820065 -1.8819557 4288085770
5.6543846 3.307508 -1.8560238 4288085770
7.3726749 4.1739841 -1.885029 4288085770
5.7015171 3.3784909 -1.8590755 4288085770
7.4368134 4.2649617 -1.8860996 4288085770
5.7586479 3.4554713 -1.8651391 4288085770
7.5129547 4.362936 -1.8891844 4288085770
5.8017845 3.5244551 -1.8651862 4288085770
7.6030979 4.4699063 -1.8932853 4288085770
5.8309212 3.585443 -1.8602172 4288085770
7.6922436 4.5758767 -1.8953849 4288085770
5.8940582 3.6654215 -1.8632874 4288085770
7.953373 4.7817974 -1.9356844 4288085770
5.9581947 3.7463989 -1.8653591 4288085770
8.2465019 5.008709 -1.9810208 4282675967
6.0533295 3.8453679 -1.8754667 4288085770
8.3466511 5.1236753 -1.9801332 4288085770
6.1174679 3.9263458 -1.8755381 4288085770
8.4458065 5.2386427 -1.9762443 4288085770
6.1966057 4.0163188 -1.8776271 4288085770
8.5359631 5.3486123 -1.9683448 4288085770
6.2877464 4.1142893 -1.88173 4288085770
8.6481209 5.4735751 -1.9634708 4288085770
6.3868885 4.2162561 -1.885842 4288085770
8.7562828 5.5945396 -1.9545921 4288085770
6.4950294 4.3252215 -1.8909644 4288085770
8.8994465 5.7364931 -1.9517542 4288085770
6.6131725 4.4391828 -1.8960985 4288085770
9.0806065 5.9024363 -1.9549602 4288085770
6.7193184 4.5461478 -1.8972187 4288085770
9.3007717 6.0933676 -1.9622111 4288085770
6.8474655 4.6651068 -1.9013643 4288085770
9.5779343 6.3212819 -1.9785281 4288085770
7.0476036 4.833045 -1.922593 4288085770
9.8491058 6.545198 -1.9888381 4288085770
7.3937321 5.096941 -1.9779904 4282675967
10.117281 6.769115 -1.9951444 4288085770
7.6238804 5.2848701 -1.9992537 4282675967
10.409458 7.0090246 -2.0024784 4288085770
7.8090324 5.442812 -2.0074651 4282675967
10.735641 7.2709246 -2.0118518 4288085770
7.9441948 5.5667677 -1.9996189 4282675967
11.102829 7.560812 -2.0242722 4288085770
8.0713577 5.6847258 -1.9887633 4288085770
11.527023 7.8886824 -2.0417583 4288085770
8.2475224 5.8336701 -1.9859645 4288085770
8.4206886 5.9806147 -1.9791619 4288085770
8.619854 6.1435518 -1.9763898 4288085770
8.8840218 6.3504701 -1.9826921 4288085770
9.2111931 6.5993695 -1.9990674 4288085770
9.5313663 6.8422718 -2.0094347 4288085770
9.8295498 7.0681791 -2.0117767 4288085770
