# .PCD v0.7 - Point Cloud Data file format
VERSION 0.7
FIELDS x y z rgb
SIZE 4 4 4 4
TYPE F F F U
COUNT 1 1 1 1
WIDTH 1108
HEIGHT 1
VIEWPOINT 0 0 0 1 0 0 0
POINTS 1108
DATA ascii
2.5351562 -0.086137772 -1.8135934 4288085770
6.8820801 -0.27920103 -1.8416357 4288085770
2.0762939 -0.079169631 -1.8139164 4288085770
6.0293274 -0.25811064 -1.841943 4288085770
1.6454315 -0.072593689 -1.8125849 4288085770
5.2725677 -0.23826492 -1.8424346 4288085770
1.2386169 -0.064359426 -1.8095155 4288085770
4.5219269 -0.21663332 -1.8349671 4288085770
0.85780334 -0.05545783 -1.8067498 4288085770
3.8253632 -0.19376087 -1.824132 4288085770
0.52993774 -0.049182653 -1.8076711 4288085770
3.205719 -0.17385614 -1.8152807 4288085770
0.23304749 -0.041252851 -1.8119404 4288085770
2.6720123 -0.15594828 -1.8135064 4288085770
-0.056793213 -0.033464313 -1.8132963 4288085770
2.1833191 -0.13766789 -1.8092706 4288085770
-0.33563232 -0.024850488 -1.8127713 4288085770
1.7605438 -0.12214553 -1.8108826 4288085770
-0.58547974 -0.017573476 -1.8146205 4288085770
1.3508301 -0.10585785 -1.8086381 4288085770
-0.82330322 -0.0084501505 -1.8165836 4288085770
0.96809387 -0.089898467 -1.8077266 4288085770
-1.0621185 0.00063443184 -1.8155346 4288085770
0.6293335 -0.075467348 -1.8093743 4288085770
-1.2699738 0.0083912611 -1.8188846 4288085770
0.31257629 -0.060352325 -1.8092773 4288085770
-1.4598541 0.016934633 -1.8234391 4288085770
0.017791748 -0.046501279 -1.8104682 4288085770
-1.6287384 0.025243998 -1.8302526 4288085770
-0.25798035 -0.031893373 -1.8118763 4288085770
-1.8185272 0.034701824 -1.8297906 4288085770
-0.53068542 -0.01639235 -1.8093047 4288085770
-1.9803925 0.043886781 -1.8346736 4288085770
-0.77844238 -0.0031768084 -1.8090756 4288085770
-2.1641388 0.054216266 -1.831269 4288085770
-0.99224854 0.01067245 -1.8132484 4288085770
-2.3149719 0.063226342 -1.8342879 4288085770
-1.2089996 0.024508715 -1.8143845 4288085770
-2.4647827 0.073189378 -1.8353019 4288085770
-1.408783 0.037127614 -1.8157473 4288085770
-2.6055908 0.083054662 -1.8374271 4288085770
-1.5706329 0.049380541 -1.824578 4288085770
-2.7334137 0.092770219 -1.8407123 4288085770
-1.7434235 0.062670827 -1.8272569 4288085770
-2.8622284 0.10248172 -1.8429856 4288085770
-1.9131927 0.07490623 -1.8289895 4288085770
-2.9969635 0.11318433 -1.8401682 4288085770
-2.0829468 0.089106679 -1.8286886 4288085770
-2.249649 0.10323465 -1.8264248 4288085770
-2.3993988 0.11619723 -1.8273871 4288085770
-2.5301971 0.12896764 -1.831584 4288085770
-2.661972 0.14169991 -1.8327684 4288085770
-2.7986908 0.15546119 -1.8318744 4288085770
-2.921463 0.16807783 -1.8331697 4288085770
-3.0392303 0.18163073 -1.8345096 4288085770
-2.9564209 2.2338653 -1.785562 4288085770
-2.8459625 2.2553663 -1.7815523 4288085770
-2.7095184 2.2836547 -1.7847474 4288085770
-2.5880585 2.3060145 -1.7808592 4288085770
-2.462616 2.3283424 -1.7780213 4288085770
-2.3511658 2.3437281 -1.7681301 4288085770
-2.2087097 2.3678546 -1.7664716 4288085770
-2.0582428 2.3938956 -1.7658794 4288085770
-2.952774 2.143826 -1.7881997 4288085770
-1.895752 2.4208021 -1.7664204 4288085770
-2.829422 2.1622305 -1.7884049 4288085770
-1.7252808 2.4486051 -1.7670453 4288085770
-2.7181091 2.1737218 -1.7845814 4288085770
-1.569809 2.4704971 -1.7615869 4288085770
-2.5967712 2.1870842 -1.7808495 4288085770
-1.3963318 2.4952111 -1.7593026 4288085770
-2.4574432 2.2043033 -1.7822738 4288085770
-1.211853 2.520802 -1.7581394 4288085770
-2.3280945 2.2175632 -1.7786429 4288085770
-1.0293579 2.5443845 -1.7549865 4288085770
-2.2037811 2.226872 -1.7740185 4288085770
-0.84588623 2.566937 -1.7508643 4288085770
-2.0564728 2.2419715 -1.7745793 4288085770
-0.62840271 2.5951233 -1.7510655 4288085770
-1.9091339 2.2550201 -1.7721756 4288085770
-0.42489624 2.6194377 -1.7481608 4288085770
-1.7398376 2.272891 -1.7759612 4288085770
-0.20840454 2.6435685 -1.7444201 4288085770
-1.5685272 2.2887025 -1.7778075 4288085770
0.052124023 2.6762586 -1.7480769 4288085770
-1.4272156 2.2947426 -1.7704511 4288085770
0.28361511 2.6991811 -1.7435436 4288085770
-1.2588959 2.3055234 -1.7683475 4288085770
0.5381012 2.7238445 -1.7412655 4288085770
-1.0836029 2.316216 -1.7663321 4288085770
0.79760742 2.7484102 -1.7370512 4288085770
-0.90133667 2.3268361 -1.7654057 4288085770
1.0941467 2.7785721 -1.7371988 4288085770
-0.74006653 2.3296046 -1.7573545 4288085770
1.3986969 2.8076143 -1.7364655 4288085770
-0.50976562 2.3477321 -1.7638931 4288085770
1.7402344 2.8402367 -1.7391286 4288085770
-0.32151794 2.3522081 -1.7591476 4288085770
2.0787659 2.8698454 -1.738807 4288085770
-0.1292572 2.356616 -1.7534535 4288085770
2.4473267 2.9020882 -1.7398124 4288085770
0.074966431 2.3599057 -1.7499275 4288085770
2.8248901 2.9322 -1.7399666 4288085770
0.31321716 2.3688293 -1.750726 4288085770
3.2334747 2.9649334 -1.7414603 4288085770
0.5294342 2.3699493 -1.746387 4288085770
3.6930695 3.0030665 -1.7464929 4288085770
0.78167725 2.3766785 -1.746398 4288085770
4.1516571 3.0351276 -1.746619 4288085770
1.0568848 2.3841481 -1.7486813 4288085770
4.6372223 3.0668621 -1.7480862 4288085770
1.3080597 2.3828392 -1.7458196 4288085770
5.1768494 3.105958 -1.7530961 4288085770
1.5822449 2.3842549 -1.7441964 4288085770
5.7955475 3.1520972 -1.7619638 4288085770
1.8844147 2.3873639 -1.7458918 4288085770
6.3490906 3.1778793 -1.7593794 4288085770
2.2145691 2.3901515 -1.7499402 4288085770
6.9256592 3.2013335 -1.7551212 4288085770
2.5267029 2.388083 -1.7488501 4288085770
7.6082916 3.2355208 -1.7569923 4288085770
2.8758087 2.3855948 -1.7512269 4288085770
8.3829956 3.277586 -1.7628686 4288085770
3.2228851 2.3790812 -1.750649 4288085770
9.0945435 3.2992854 -1.7583182 4288085770
3.5869751 2.3713517 -1.7503037 4288085770
9.8130646 3.3148274 -1.7499623 4288085770
3.9670258 2.3624349 -1.7511785 4288085770
10.572571 3.3268127 -1.7401781 4288085770
4.3710327 2.3522305 -1.7533736 4288085770
11.533203 3.3584046 -1.742547 4288085770
4.7900238 2.3378015 -1.7538292 4288085770
5.2759705 2.327621 -1.7610431 4288085770
5.7929077 2.3150458 -1.7686841 4288085770
6.2527771 2.2890449 -1.7668519 4288085770
6.7086029 2.2560616 -1.7630918 4288085770
7.1683807 2.2169595 -1.7554886 4288085770
7.7110901 2.1809196 -1.7558634 4288085770
8.3778229 2.1514549 -1.7666647 4288085770
8.9724274 2.1057553 -1.7678552 4288085770
9.4559784 2.0442486 -1.7549434 4288085770
9.9754639 1.9762846 -1.7425914 4288085770
10.63887 1.9126574 -1.7419536 4288085770
11.445221 1.8533636 -1.7520182 4288085770
11.693909 -5.0320735 -0.73597515 4293729569
10.97525 -5.6873627 -0.88376927 4293729569
10.931274 -5.8152218 -0.91851175 4293729569
10.46698 -7.728683 -1.6661079 4293729569
9.738327 -7.5411401 -1.6697316 4293729569
9.0505371 -7.3631334 -1.6730325 4293729569
2.7451324 -4.602488 -0.54228997 4293729569
2.687912 -4.590621 -1.1245131 4293729569
2.6423798 -4.6325197 -0.57956469 4293729569
2.6387939 -4.647315 -1.1639289 4293729569
2.614151 -4.695446 -0.62135243 4293729569
2.6184998 -4.714323 -1.2068882 4293729569
2.5928497 -4.761425 -0.6652813 4293729569
2.6458435 -4.8038497 -1.255842 4293729569
6.0659485 -6.5319562 -1.6922207 4293729569
5.5270386 -6.3679338 -1.6926162 4293729569
5.0696716 -6.2348595 -1.6995771 4293729569
4.5747223 -6.076396 -1.7006164 4293729569
4.1235352 -5.9324718 -1.7034574 4293729569
3.7339935 -5.8142781 -1.7105248 4293729569
3.3425446 -5.6890607 -1.717443 4293729569
2.9819946 -5.5732355 -1.7249119 4293729569
2.7077789 -5.4983687 -1.7421863 4293729569
2.4158173 -5.4093285 -1.7559857 4293729569
6.6807556 -7.7575879 -1.6708326 4293729569
2.1814117 -5.3469319 -1.7759776 4293729569
6.0162354 -7.479835 -1.6756427 4293729569
1.9698792 -5.2927737 -1.7994008 4293729569
5.3489227 -7.1901364 -1.6752031 4293729569
1.7762299 -5.2468252 -1.8241925 4288085770
4.7194824 -6.9129524 -1.6734555 4293729569
1.5786438 -5.1948266 -1.8488278 4288085770
4.2062073 -6.6931214 -1.6811757 4293729569
1.2900238 -5.0869875 -1.8533306 4288085770
3.7426453 -6.4949055 -1.6908982 4293729569
1.0094299 -4.9782681 -1.8569176 4288085770
3.3595123 -6.3356404 -1.7063167 4293729569
0.74078369 -4.8727012 -1.860709 4288085770
3.0101776 -6.1897693 -1.7243941 4293729569
0.49897766 -4.7784395 -1.8670354 4288085770
2.6738739 -6.0471163 -1.7396894 4293729569
0.24333191 -4.6730552 -1.8699908 4288085770
2.3069153 -5.8821621 -1.7492034 4293729569
0.022460938 -4.5840597 -1.8766711 4288085770
2.0450439 -5.7743497 -1.7720466 4293729569
-0.22410583 -4.4768438 -1.8767047 4288085770
1.8516235 -5.7032843 -1.8033981 4293729569
-0.45077515 -4.3768806 -1.8771152 4288085770
1.6464081 -5.6211386 -1.830404 4288085770
-0.67440796 -4.2759728 -1.8765461 4288085770
1.4392395 -5.534986 -1.8563139 4288085770
-0.8841095 -4.1802254 -1.8772421 4288085770
1.1183319 -5.3757925 -1.8564987 4288085770
-1.0789032 -4.0896678 -1.878216 4288085770
0.81829834 -5.2238293 -1.8590727 4288085770
-1.2676849 -4.0002031 -1.8782837 4288085770
0.55200195 -5.0892773 -1.8633773 4288085770
-1.4504852 -3.9117975 -1.8794441 4288085770
0.30062866 -4.9608965 -1.8689766 4288085770
-1.6411133 -3.8153977 -1.8743634 4288085770
0.079071045 -4.8468776 -1.8762035 4288085770
-1.7971191 -3.7392979 -1.8780773 4288085770
-0.16619873 -4.7156625 -1.8768263 4288085770
-1.9649048 -3.6521535 -1.8754458 4288085770
-0.39553833 -4.5906496 -1.8777573 4288085770
-2.095047 -3.5873461 -1.8816826 4288085770
-0.62580872 -4.462678 -1.8756227 4288085770
-2.2568054 -3.4993138 -1.8771095 4288085770
-0.82339478 -4.3530512 -1.8782234 4288085770
-2.4056549 -3.4174111 -1.8748083 4288085770
-1.0287933 -4.2353964 -1.8765841 4288085770
-2.5376282 -3.3447042 -1.8738799 4288085770
-1.2173004 -4.1259542 -1.8752995 4288085770
-2.6616669 -3.2750456 -1.8761051 4288085770
-1.385025 -4.0277076 -1.8784747 4288085770
-2.7866669 -3.203445 -1.8742828 4288085770
-1.5674896 -3.9173951 -1.8742483 4288085770
-2.914566 -3.1278429 -1.8703508 4288085770
-1.7301483 -3.818265 -1.8744676 4288085770
-3.0236511 -3.0623918 -1.8718367 4288085770
-1.8779144 -3.7263241 -1.8750019 4288085770
-2.025589 -3.6324186 -1.8735006 4288085770
-2.1554718 -3.5486867 -1.8754039 4288085770
-2.2843018 -3.4640036 -1.8753018 4288085770
-2.414093 -3.3773434 -1.873152 4288085770
-2.5339203 -3.294827 -1.8701999 4288085770
-2.6468201 -3.2163639 -1.8694065 4288085770
-2.755722 -3.1389685 -1.867681 4288085770
-2.8557129 -3.066669 -1.8671582 4288085770
-2.9516602 -2.9944382 -1.8656862 4288085770
-3.045639 -2.9242501 -1.8632746 4288085770
-3.0258331 -0.80728793 -1.8558512 4288085770
-2.9495239 -0.79126084 -1.8565519 4288085770
-2.8871155 -0.77214575 -1.8520193 4288085770
-2.8167267 -0.75409579 -1.8496077 4288085770
-2.7433319 -0.73610163 -1.846236 4288085770
-2.661972 -0.71919179 -1.8439856 4288085770
-2.578598 -0.70230675 -1.8417609 4288085770
-2.4783325 -0.68856597 -1.8438103 4288085770
-2.3780212 -0.67386079 -1.8438425 4288085770
-2.2707062 -0.65924442 -1.8439665 4288085770
-2.1623993 -0.64565849 -1.8431215 4288085770
-2.0490875 -0.6311183 -1.8433239 4288085770
-3.0460205 -0.44799602 -1.854331 4288085770
-1.9347382 -0.61562645 -1.8415232 4288085770
-2.9596863 -0.43314874 -1.8521812 4288085770
-1.8173981 -0.60119009 -1.8387794 4288085770
-2.8663788 -0.41937232 -1.8511398 4288085770
-1.7099609 -0.58369875 -1.8318539 4288085770
-2.776001 -0.40359366 -1.8480248 4288085770
-1.5567474 -0.57261217 -1.8356311 4288085770
-2.6717224 -0.38993907 -1.8481274 4288085770
-1.4293518 -0.55733871 -1.831002 4288085770
-2.5823059 -0.37420106 -1.842001 4288085770
-1.292984 -0.54317915 -1.8265078 4288085770
-2.4759827 -0.36060727 -1.8401303 4288085770
-1.1366425 -0.52923775 -1.8242743 4288085770
-2.3516998 -0.34820616 -1.840512 4288085770
-0.96438599 -0.51844549 -1.8253019 4288085770
-2.2532806 -0.33259988 -1.833504 4288085770
-0.7950592 -0.505669 -1.8232567 4288085770
-2.1090393 -0.32039928 -1.8371463 4288085770
-0.61669922 -0.4920243 -1.820312 4288085770
-1.9628143 -0.30924141 -1.8398333 4288085770
-0.40844727 -0.4817065 -1.8208113 4288085770
-1.8314819 -0.29600024 -1.8362913 4288085770
-0.19915771 -0.47041941 -1.8203068 4288085770
-1.687149 -0.28288841 -1.834919 4288085770
0.025131226 -0.46032226 -1.8200164 4288085770
-1.5437927 -0.26881766 -1.8305171 4288085770
0.26939392 -0.45046127 -1.8209877 4288085770
-1.3765106 -0.2569797 -1.8304629 4288085770
0.52070618 -0.43874264 -1.8190165 4288085770
-1.2211151 -0.24307895 -1.8252189 4288085770
0.76907349 -0.42703938 -1.814008 4288085770
-1.0517883 -0.23031962 -1.8221755 4288085770
1.0613403 -0.41782296 -1.8136086 4288085770
-0.83454895 -0.22006261 -1.8257926 4288085770
1.3876038 -0.40900218 -1.8156538 4288085770
-0.64916992 -0.20656013 -1.8199422 4288085770
1.7288513 -0.40140688 -1.8159142 4288085770
-0.43287659 -0.1953615 -1.8195314 4288085770
2.1051331 -0.39325607 -1.8166149 4288085770
-0.20953369 -0.1832875 -1.8171957 4288085770
2.5103607 -0.38645482 -1.8187132 4288085770
0.023788452 -0.17135811 -1.8139913 4288085770
2.9515839 -0.38011038 -1.8212833 4288085770
0.27215576 -0.15863705 -1.8099666 4288085770
3.4328156 -0.37430918 -1.8223782 4288085770
0.57038879 -0.14944279 -1.8126471 4288085770
4.0239105 -0.37274241 -1.833962 4288085770
0.84977722 -0.13715053 -1.8070297 4288085770
4.6290894 -0.36947846 -1.8386979 4288085770
1.1890259 -0.12749434 -1.8092313 4288085770
5.2823029 -0.36585903 -1.8420463 4288085770
1.540329 -0.11702573 -1.8095713 4288085770
6.0065155 -0.36315799 -1.8453224 4288085770
1.9495544 -0.10823977 -1.8136897 4288085770
6.7718048 -0.36006653 -1.8441236 4288085770
2.3558807 -0.098522663 -1.8117545 4288085770
7.6331024 -0.35821056 -1.8431828 4288085770
2.8091736 -0.088366508 -1.812417 4288085770
8.5764465 -0.35548472 -1.8382835 4288085770
3.3424072 -0.080171585 -1.8171444 4288085770
9.6058655 -0.3539207 -1.8305135 4288085770
3.9515839 -0.073851109 -1.827884 4288085770
10.85614 -0.35707068 -1.830672 4288085770
4.600769 -0.067091703 -1.8361323 4288085770
5.322998 -0.059294462 -1.8433032 4288085770
6.0563507 -0.050796986 -1.8416057 4288085770
6.8677216 -0.042289257 -1.8409138 4288085770
7.7501526 -0.032789469 -1.8351207 4288085770
8.7575836 -0.024857163 -1.8319666 4288085770
9.9390106 -0.018168092 -1.8290777 4288085770
11.313431 -0.011927366 -1.828685 4288085770
11.328568 0.15335834 -1.8315716 4288085770
9.909668 0.1725949 -1.8322647 4288085770
8.6438446 0.19179285 -1.8290021 4288085770
7.5879517 0.20840108 -1.8315923 4288085770
6.720993 0.22370183 -1.8407309 4288085770
5.8781281 0.23955262 -1.84218 4288085770
5.0853729 0.25462663 -1.8363111 4288085770
11.623932 0.19345605 -1.8257134 4288085770
4.3506775 0.26989567 -1.8272133 4288085770
10.14418 0.22140229 -1.8224363 4288085770
3.6759796 0.28538978 -1.8179128 4288085770
8.8864136 0.24753344 -1.821157 4288085770
3.0912476 0.29880655 -1.8128526 4288085770
7.8415833 0.27205551 -1.8267519 4288085770
2.5664978 0.31246674 -1.8085895 4288085770
6.919754 0.29399168 -1.832037 4288085770
2.093689 0.32550895 -1.8070323 4288085770
6.0779572 0.3148278 -1.8334103 4288085770
1.6509705 0.33911765 -1.8028653 4288085770
5.3191986 0.33456361 -1.8329122 4288085770
1.2681885 0.35202587 -1.8025126 4288085770
4.6024933 0.35367811 -1.8279862 4288085770
0.91639709 0.36456215 -1.8035808 4288085770
3.9288483 0.37215841 -1.818646 4288085770
0.55567932 0.37708294 -1.797529 4288085770
3.3161926 0.39087045 -1.8101161 4288085770
0.26383972 0.38989985 -1.8013937 4288085770
2.783493 0.40763032 -1.8056908 4288085770
-0.0069732666 0.40243399 -1.8045442 4288085770
2.3027496 0.42377198 -1.8039708 4288085770
-0.28274536 0.41497552 -1.8046274 4288085770
1.859024 0.43941057 -1.8007545 4288085770
-0.52754211 0.42714536 -1.8061318 4288085770
1.4552917 0.45554554 -1.7980633 4288085770
-0.75436401 0.43910682 -1.8088801 4288085770
1.0995331 0.47013152 -1.7990415 4288085770
-0.96318054 0.45185983 -1.8128548 4288085770
0.77276611 0.48535144 -1.800395 4288085770
-1.1709595 0.46352637 -1.8128624 4288085770
0.45402527 0.50041592 -1.7988584 4288085770
-1.3717499 0.47612369 -1.813947 4288085770
0.16027832 0.51516545 -1.7976618 4288085770
-1.5325928 0.48830903 -1.8205729 4288085770
-0.10348511 0.5295738 -1.798872 4288085770
-1.701416 0.50053942 -1.8240912 4288085770
-0.36721802 0.54292715 -1.797101 4288085770
-1.8392639 0.5134536 -1.832011 4288085770
-0.59799194 0.55690134 -1.7977598 4288085770
-2.0189819 0.52567494 -1.8273826 4288085770
-0.80180359 0.57160914 -1.8027654 4288085770
-2.1727295 0.53764284 -1.8271058 4288085770
-1.0185394 0.58536994 -1.801615 4288085770
-2.3274689 0.54958642 -1.824816 4288085770
-1.2073059 0.59983385 -1.8038256 4288085770
-2.4612427 0.56233919 -1.8267922 4288085770
-1.3581696 0.61392963 -1.8125505 4288085770
-2.5850372 0.57396591 -1.8289223 4288085770
-1.5328979 0.62817943 -1.8129516 4288085770
-2.6898651 0.58744562 -1.836273 4288085770
-1.6866913 0.64223897 -1.817637 4288085770
-2.8186035 0.6000613 -1.8343182 4288085770
-1.8384705 0.65623701 -1.8203502 4288085770
-2.9373322 0.61155117 -1.8325174 4288085770
-1.989212 0.67016613 -1.8200779 4288085770
-3.0500793 0.62398422 -1.83178 4288085770
-2.1369476 0.68303931 -1.8188648 4288085770
-2.2736969 0.69681132 -1.8197823 4288085770
-2.3944702 0.71040022 -1.8219168 4288085770
-2.5202026 0.72501457 -1.8219659 4288085770
-2.6339722 0.73851502 -1.8241956 4288085770
-2.7417145 0.7529217 -1.8254888 4288085770
-2.8534546 0.76634133 -1.8247464 4288085770
-2.9581909 0.77969134 -1.8250988 4288085770
-3.0619049 0.79299223 -1.8234653 4288085770
-3.0282898 3.0275917 -1.7610679 4288085770
-2.9035645 3.0780697 -1.764786 4288085770
-2.7858734 3.1235442 -1.7635026 4288085770
-2.6661377 3.1689935 -1.7622457 4288085770
-2.5283661 3.2212896 -1.7651029 4288085770
-2.3996277 3.2686062 -1.7629311 4288085770
-2.2428284 3.3266988 -1.7679341 4288085770
-2.1180725 3.3679938 -1.7618191 4288085770
-1.9612885 3.4220133 -1.7628965 4288085770
-2.9819946 2.980052 -1.7665112 4288085770
-1.8175201 3.4681053 -1.7589457 4288085770
-2.8613892 3.0175099 -1.7664144 4288085770
-1.6406555 3.5278902 -1.761183 4288085770
-2.7278137 3.0588765 -1.7704186 4288085770
-1.4778442 3.5787606 -1.7583969 4288085770
-2.6042175 3.0932612 -1.7684178 4288085770
-1.3049927 3.6325054 -1.7556911 4288085770
-2.4776306 3.1276069 -1.7664571 4288085770
-1.1191254 3.6891036 -1.7541053 4288085770
-2.339035 3.1648388 -1.7666032 4288085770
-0.90718079 3.755466 -1.7576861 4288085770
-2.19841 3.2030444 -1.7667577 4288085770
-0.69224548 3.8207722 -1.7603261 4288085770
-2.0558167 3.2392077 -1.7659762 4288085770
-0.49636841 3.8741899 -1.7559307 4288085770
-1.8951721 3.281179 -1.7673273 4288085770
-0.29748535 3.9265342 -1.7495947 4288085770
-1.7325439 3.3211274 -1.7687418 4288085770
-0.06350708 3.9915271 -1.7484918 4288085770
-1.5979767 3.3472633 -1.7610366 4288085770
0.17146301 4.0544896 -1.7464392 4288085770
-1.4172974 3.3920021 -1.7636025 4288085770
0.43751526 4.1261163 -1.7476392 4288085770
-1.2427216 3.4297814 -1.7642159 4288085770
0.70355225 4.1957059 -1.7468767 4288085770
-1.0670776 3.4664917 -1.7618618 4288085770
0.99162292 4.2690372 -1.7473373 4288085770
-0.87139893 3.5100241 -1.7636483 4288085770
1.294754 4.346179 -1.7479272 4288085770
-0.71385193 3.5338721 -1.7562902 4288085770
1.6178894 4.4270859 -1.7497134 4288085770
-0.5272522 3.5684276 -1.7531214 4288085770
1.9600983 4.5127721 -1.7526641 4288085770
-0.31660461 3.6087532 -1.7541656 4288085770
2.3223572 4.6012068 -1.7558298 4288085770
-0.12600708 3.6392212 -1.7491243 4288085770
2.7186584 4.6962309 -1.7603259 4288085770
0.081588745 3.6725125 -1.7462575 4288085770
3.1079559 4.7852697 -1.7608387 4288085770
0.32025146 3.7155051 -1.7486243 4288085770
3.5433197 4.8858018 -1.7657511 4288085770
0.54885864 3.7505507 -1.7470038 4288085770
3.9947357 4.9850783 -1.7678988 4288085770
0.79249573 3.788425 -1.7465305 4288085770
4.521347 5.1095524 -1.77858 4288085770
1.0611725 3.8320217 -1.7482839 4288085770
5.1582336 5.2637863 -1.7981763 4282675967
1.3207855 3.8686957 -1.748045 4288085770
5.5964966 5.3390102 -1.7885904 4282675967
1.6044464 3.9101043 -1.7500374 4288085770
6.1972198 5.4664812 -1.7961981 4282675967
1.8940887 3.949419 -1.751148 4288085770
6.5852509 5.5110984 -1.7735083 4288085770
2.1646423 3.9778833 -1.7472048 4288085770
7.026413 5.5691404 -1.7562766 4288085770
2.4642639 4.0130172 -1.7455244 4288085770
7.6400146 5.677268 -1.75441 4288085770
2.7718658 4.0460715 -1.7449882 4288085770
8.3297882 5.8045087 -1.7572017 4288085770
3.0964661 4.0809288 -1.7456448 4288085770
9.1007385 5.9467835 -1.7637928 4288085770
3.4671173 4.1252809 -1.7507379 4288085770
9.7783661 6.0489769 -1.7558835 4288085770
3.7916412 4.1500673 -1.7475789 4288085770
10.625366 6.1932402 -1.7604458 4288085770
4.1551971 4.182436 -1.7487981 4288085770
11.495361 6.3341427 -1.761375 4288085770
4.5397644 4.2155399 -1.750283 4288085770
5.0295105 4.2745419 -1.7646871 4288085770
5.5412598 4.3332477 -1.7783883 4288085770
6.016861 4.3742995 -1.7859354 4288085770
6.4002228 4.3832932 -1.7808483 4288085770
6.7574921 4.3805242 -1.7706313 4288085770
7.0966644 4.3669462 -1.7583737 4288085770
7.4858856 4.3617945 -1.7496254 4288085770
7.9461823 4.3688769 -1.7485955 4288085770
8.5186157 4.3967133 -1.7576716 4288085770
9.0248566 4.4002376 -1.7583177 4288085770
9.5240173 4.3958154 -1.7570162 4288085770
10.041122 4.3871665 -1.7560313 4288085770
10.556168 4.3735266 -1.7541113 4288085770
11.117172 4.360364 -1.7557931 4288085770
11.724213 4.3476224 -1.759074 4288085770
11.825165 -3.6621795 -1.9005575 4288085770
11.259918 -3.6809154 -1.9024088 4288085770
10.756592 -3.7033916 -1.907151 4288085770
10.253342 -3.7198691 -1.9117835 4288085770
9.7810822 -3.7356992 -1.9188154 4288085770
9.3099213 -3.7455809 -1.9237509 4288085770
8.7950592 -3.7380071 -1.9227817 4288085770
8.2574005 -3.7172046 -1.9182646 4288085770
11.701157 -4.6712284 -1.3924792 4293729569
7.7367859 -3.6936345 -1.9129219 4288085770
11.646942 -4.7884135 -1.4549487 4293729569
7.2869415 -3.6818419 -1.9147379 4288085770
11.508057 -4.8815751 -1.5138488 4293729569
6.7824707 -3.6484942 -1.9084277 4288085770
11.490677 -5.0071111 -1.5829628 4293729569
6.2940674 -3.6123667 -1.9012785 4288085770
5.8515015 -3.5827599 -1.8978596 4288085770
11.548477 -5.2791786 -1.731811 4293729569
5.4727631 -3.5638609 -1.9004865 4288085770
10.735794 -5.1676731 -1.7359681 4293729569
5.0831299 -3.5388627 -1.9008555 4288085770
9.9850006 -5.0649428 -1.7411087 4293729569
4.6637421 -3.4985852 -1.8955455 4288085770
9.3100433 -4.9731278 -1.7494578 4293729569
4.2872314 -3.4647899 -1.893925 4288085770
8.6959381 -4.892077 -1.7588139 4293729569
3.9366608 -3.434283 -1.8947101 4288085770
8.0471497 -4.7926831 -1.7623682 4293729569
3.5434113 -3.38639 -1.8866045 4288085770
7.4064941 -4.6854486 -1.7628841 4293729569
3.1781006 -3.3418102 -1.8809314 4288085770
6.6784668 -4.5413423 -1.7495544 4293729569
2.8407135 -3.3005443 -1.8776908 4288085770
5.7875519 -4.3326025 -1.7108595 4293729569
2.5391541 -3.2686534 -1.8791001 4288085770
5.5888672 -4.3503156 -1.7515633 4293729569
2.2446594 -3.2328706 -1.8795307 4288085770
5.1904297 -4.2939339 -1.7662375 4293729569
1.970108 -3.2013373 -1.8803046 4288085770
4.7742004 -4.2264404 -1.7744682 4293729569
1.6916351 -3.1637554 -1.8809147 4288085770
4.348114 -4.1508794 -1.7794178 4293729569
1.4142303 -3.1232431 -1.8784835 4288085770
3.9380798 -4.0735197 -1.7845464 4293729569
1.1319275 -3.0776877 -1.8748932 4288085770
3.6562653 -4.0405264 -1.8052025 4293729569
0.88941956 -3.0425577 -1.8760254 4288085770
3.4937592 -4.0477691 -1.8421907 4288085770
0.6191864 -2.9931912 -1.8705239 4288085770
3.3720245 -4.06743 -1.8849516 4288085770
0.39369202 -2.9572749 -1.8718669 4288085770
3.1549683 -4.0491376 -1.9127402 4282675967
0.16427612 -2.917347 -1.871083 4288085770
2.7284546 -3.9438515 -1.9021285 4288085770
-0.073013306 -2.8713946 -1.866082 4288085770
2.3685913 -3.8592525 -1.9007864 4288085770
-0.2784729 -2.8347297 -1.8676765 4288085770
2.0316467 -3.7799408 -1.8998463 4288085770
-0.4719696 -2.7992339 -1.8684514 4288085770
1.6829071 -3.690556 -1.8945615 4288085770
-0.69419861 -2.7494895 -1.8625793 4288085770
1.3471375 -3.6023526 -1.8884704 4288085770
-0.88661194 -2.7100258 -1.8622944 4288085770
1.0343323 -3.5194368 -1.8827817 4288085770
-1.0650787 -2.6727376 -1.8622353 4288085770
0.75332642 -3.4458458 -1.8816893 4288085770
-1.2316132 -2.6395433 -1.8654106 4288085770
0.47439575 -3.3703179 -1.8785872 4288085770
-1.3881683 -2.6074555 -1.8697391 4288085770
0.22033691 -3.3020647 -1.8779509 4288085770
-1.5625153 -2.5652747 -1.8666425 4288085770
-0.029663086 -3.2309184 -1.8743141 4288085770
-1.7180176 -2.5292563 -1.8679118 4288085770
-0.26176453 -3.1659405 -1.8740294 4288085770
-1.8764038 -2.4892573 -1.8660676 4288085770
-0.50473022 -3.0929203 -1.8684506 4288085770
-2.0149536 -2.4574142 -1.8696389 4288085770
-0.71188354 -3.0322552 -1.868577 4288085770
-2.1653442 -2.4175155 -1.8679025 4288085770
-0.90907288 -2.974715 -1.8688929 4288085770
-2.2998352 -2.3827608 -1.8694732 4288085770
-1.1260529 -2.9050388 -1.8627203 4288085770
-2.4352875 -2.3460314 -1.8689942 4288085770
-1.3072662 -2.8486996 -1.8632705 4288085770
-2.5627594 -2.3103833 -1.8696411 4288085770
-1.4804993 -2.793479 -1.8629472 4288085770
-2.6901855 -2.2727542 -1.8692515 4288085770
-1.6408081 -2.7423644 -1.8658721 4288085770
-2.8165894 -2.2351565 -1.8678753 4288085770
-1.8059998 -2.6872816 -1.8636572 4288085770
-2.9261169 -2.2027152 -1.8698201 4288085770
-1.9563293 -2.6383109 -1.8657544 4288085770
-3.0395966 -2.1672618 -1.8696558 4288085770
-2.0907288 -2.5935028 -1.8701398 4288085770
-2.247879 -2.5365584 -1.8659966 4288085770
-2.3841858 -2.4878006 -1.8662825 4288085770
-2.5045929 -2.4441867 -1.8698757 4288085770
-2.6210175 -2.4026411 -1.8725595 4288085770
-2.752243 -2.3510029 -1.8698585 4288085770
-2.8596802 -2.3095703 -1.8726637 4288085770
-2.9749756 -2.2631128 -1.8712702 4288085770
-3.0961761 -2.2126377 -1.8667226 4288085770
-3.0070801 0.0028505325 -1.8391316 4288085770
-2.9058228 0.013557076 -1.8392611 4288085770
-2.7836151 0.023056984 -1.8426898 4288085770
-2.6852722 0.035707355 -1.8377435 4288085770
-2.5640259 0.045163512 -1.8381593 4288085770
-2.4636536 0.05773294 -1.8302402 4288085770
-2.3423309 0.068133235 -1.8276381 4288085770
-2.200119 0.077345252 -1.8293352 4288085770
-2.0518646 0.087481856 -1.8310938 4288085770
-2.9642029 0.16238868 -1.8436863 4288085770
-1.8966217 0.096512437 -1.831965 4288085770
-2.8698578 0.17305243 -1.8367236 4288085770
-1.7503357 0.10658062 -1.8286982 4288085770
-2.7416382 0.18145883 -1.839251 4288085770
-1.5930176 0.11651099 -1.8255782 4288085770
-2.6273499 0.19092834 -1.8355739 4288085770
-1.4237518 0.1253103 -1.8236375 4288085770
-2.5030518 0.20027268 -1.8320308 4288085770
-1.2633972 0.13612807 -1.8165402 4288085770
-2.37677 0.20859182 -1.8285329 4288085770
-1.085083 0.14477718 -1.8127203 4288085770
-2.2415009 0.21681726 -1.8261552 4288085770
-0.87086487 0.15306866 -1.8143816 4288085770
-2.0733337 0.22475994 -1.8312178 4288085770
-0.66455078 0.16136706 -1.8109367 4288085770
-1.914093 0.23272192 -1.831161 4288085770
-0.43730164 0.16943967 -1.8097725 4288085770
-1.7378845 0.23949015 -1.83235 4288085770
-0.18702698 0.17724288 -1.809916 4288085770
-1.5775757 0.24834621 -1.8272893 4288085770
0.078201294 0.18485796 -1.8102603 4288085770
-1.4132538 0.25513375 -1.8213191 4288085770
0.34449768 0.19238603 -1.8066189 4288085770
-1.2269897 0.26270139 -1.8186245 4288085770
0.64877319 0.19947541 -1.805486 4288085770
-1.0227356 0.26906288 -1.8171892 4288085770
0.96601868 0.20540249 -1.8045456 4288085770
-0.81547546 0.27534902 -1.8137944 4288085770
1.3362122 0.2117399 -1.8082952 4288085770
-0.58026123 0.28134096 -1.8137739 4288085770
1.7024994 0.21699703 -1.8050115 4288085770
-0.3469696 0.28730166 -1.8107271 4288085770
2.1496582 0.2224077 -1.8117919 4288085770
-0.082748413 0.29291141 -1.8100951 4288085770
2.6019135 0.22662508 -1.8116591 4288085770
0.1855011 0.29741538 -1.8065357 4288085770
3.104126 0.2302345 -1.8131957 4288085770
0.4747467 0.30167544 -1.8042574 4288085770
3.6912842 0.23385441 -1.8198512 4288085770
0.78604126 0.30662191 -1.8002555 4288085770
4.3474121 0.23564756 -1.8294482 4288085770
1.1461945 0.30906737 -1.8029451 4288085770
5.0495758 0.23677075 -1.8346624 4288085770
1.5433502 0.3110491 -1.8061302 4288085770
5.8267517 0.23693597 -1.8398812 4288085770
1.9745026 0.31260526 -1.8097706 4288085770
6.632019 0.23761904 -1.8384581 4288085770
2.4296875 0.31380475 -1.8107328 4288085770
7.5193024 0.23520076 -1.8341706 4288085770
2.9258575 0.31450951 -1.8132436 4288085770
8.4766846 0.23279369 -1.8248031 4288085770
3.5089569 0.3131994 -1.8209367 4288085770
9.6988831 0.22621715 -1.8270006 4288085770
4.1660309 0.31096256 -1.8296208 4288085770
11.05014 0.21893108 -1.8259082 4288085770
4.8681183 0.30814326 -1.8379076 4288085770
5.6252441 0.30354226 -1.8419502 4288085770
6.4663696 0.29685175 -1.8451366 4288085770
7.3375854 0.28863657 -1.840745 4288085770
8.3098145 0.27810013 -1.8347247 4288085770
9.4339752 0.26467907 -1.8317578 4288085770
10.76709 0.24765933 -1.832607 4288085770
11.155334 -5.8057876 -0.686535 4293729569
11.069885 -5.6428428 -0.73036742 4293729569
11.542862 -4.9438519 -0.99155402 4293729569
11.527359 -4.7980046 -1.0246238 4293729569
11.908417 0.39052498 -1.8286676 4288085770
10.38797 0.43469918 -1.8186355 4288085770
9.1863556 0.47502553 -1.8199146 4288085770
8.1257324 0.511536 -1.8201382 4288085770
7.240036 0.54492009 -1.8257456 4288085770
6.4683228 0.57688177 -1.8328941 4288085770
5.7296448 0.60631835 -1.8345273 4288085770
5.0539703 0.63395059 -1.8360305 4288085770
11.374313 0.77490461 -1.802393 4288085770
4.3863831 0.65931332 -1.8286812 4288085770
10.069595 0.80449927 -1.8014982 4288085770
3.7768097 0.68289554 -1.8191354 4288085770
8.9998016 0.83321822 -1.8067439 4288085770
3.2092285 0.70393479 -1.8091948 4288085770
8.026062 0.86064494 -1.8082883 4288085770
2.6976318 0.72529471 -1.8009923 4288085770
7.186264 0.88645589 -1.8146446 4288085770
2.2579651 0.74581277 -1.7967627 4288085770
6.4495087 0.91194427 -1.8203752 4288085770
1.8483276 0.76695645 -1.7929199 4288085770
5.7597351 0.93578923 -1.823761 4288085770
1.4896088 0.7865206 -1.7927849 4288085770
5.1479797 0.95966065 -1.8281827 4288085770
1.1659241 0.80664766 -1.7931044 4288085770
4.5003204 0.97773778 -1.8192322 4288085770
0.87417603 0.82643187 -1.7968559 4288085770
3.9216614 0.99497211 -1.8122144 4288085770
0.56752014 0.8442713 -1.793443 4288085770
3.3620148 1.0108753 -1.800473 4288085770
0.31680298 0.86452544 -1.79673 4288085770
2.8913269 1.0287806 -1.7958784 4288085770
0.077041626 0.88262308 -1.7992039 4288085770
2.4456635 1.0443178 -1.7886596 4288085770
-0.16264343 0.90064609 -1.797678 4288085770
2.0519562 1.0612625 -1.7851062 4288085770
-0.37936401 0.91843784 -1.7994623 4288085770
1.70224 1.0786763 -1.7831292 4288085770
-0.59805298 0.93516123 -1.7962399 4288085770
1.3895264 1.0966855 -1.7846329 4288085770
-0.7857666 0.95359075 -1.7983978 4288085770
1.1147614 1.1152581 -1.7886319 4288085770
-0.95550537 0.97181523 -1.8017991 4288085770
0.84004211 1.1327552 -1.78865 4288085770
-1.1082764 0.98986518 -1.8074296 4288085770
0.54438782 1.1473824 -1.7814417 4288085770
-1.2849426 1.0060643 -1.8047745 4288085770
0.30264282 1.1644682 -1.7819059 4288085770
-1.4276886 1.0249511 -1.808522 4288085770
0.087936401 1.1822356 -1.7837169 4288085770
-1.5873718 1.0409378 -1.8060968 4288085770
-0.12980652 1.1990021 -1.7835062 4288085770
-1.7141113 1.0586261 -1.8100793 4288085770
-0.33351135 1.2155942 -1.7834847 4288085770
-1.8438416 1.0763131 -1.8120215 4288085770
-0.51322937 1.2329057 -1.7847691 4288085770
-1.9735413 1.0929629 -1.8119829 4288085770
-0.68395996 1.2511235 -1.7871559 4288085770
-2.0922546 1.1104943 -1.8130739 4288085770
-0.84068298 1.2691671 -1.7897327 4288085770
-2.217926 1.1260377 -1.8101084 4288085770
-0.99739075 1.2871908 -1.7913094 4288085770
-2.324646 1.1434382 -1.8123617 4288085770
-1.130127 1.3069719 -1.7961724 4288085770
-2.4263458 1.1607574 -1.8136826 4288085770
-1.2558594 1.326666 -1.8011305 4288085770
-2.5190887 1.1790017 -1.817106 4288085770
-1.3975525 1.3434464 -1.7999291 4288085770
-2.6157837 1.1962398 -1.8174949 4288085770
-1.5621948 1.356383 -1.7914927 4288085770
-2.6975098 1.2153653 -1.8220482 4288085770
-1.6569366 1.3777274 -1.7988322 4288085770
-2.7951813 1.2305404 -1.8184614 4288085770
-1.7766266 1.3952328 -1.7979097 4288085770
-2.8858643 1.2476846 -1.8179317 4288085770
-1.8813324 1.4146267 -1.801152 4288085770
-2.963562 1.2646855 -1.8185771 4288085770
-2.0019989 1.4300889 -1.7972538 4288085770
-3.038269 1.2836674 -1.8202257 4288085770
-2.0966797 1.4493204 -1.7986319 4288085770
-2.1963806 1.466596 -1.7989798 4288085770
-2.2850494 1.4857517 -1.8004386 4288085770
-2.3607635 1.5067836 -1.8040359 4288085770
-2.4574127 1.5229458 -1.8004439 4288085770
-2.5341034 1.5419337 -1.8010654 4288085770
-2.6087646 1.5619148 -1.8026953 4288085770
-2.6774445 1.5818216 -1.8044064 4288085770
-2.7331085 1.6046032 -1.8082366 4288085770
-2.8097534 1.6225346 -1.8058772 4288085770
-2.8794098 1.6413971 -1.8045938 4288085770
-2.9430695 1.660185 -1.8033915 4288085770
-2.9996948 1.6819037 -1.8032279 4288085770
-3.0523529 1.7026109 -1.8051362 4288085770
-2.9727478 3.5000792 -1.7672756 4288085770
-2.9188843 3.5502467 -1.7590468 4288085770
-2.8279266 3.6211572 -1.7619247 4288085770
-2.7479553 3.6861115 -1.7597671 4288085770
-2.6589661 3.7539711 -1.7586753 4288085770
-2.5649567 3.8247681 -1.7575958 4288085770
-2.4618988 3.8994708 -1.7575634 4288085770
-2.3628387 3.9711671 -1.7545335 4288085770
-2.2447052 4.0537 -1.7555556 4288085770
-2.1315613 4.1312389 -1.7536042 4288085770
-2.0123901 4.2116838 -1.7506785 4288085770
-1.8620758 4.3098516 -1.7538359 4288085770
-2.9738922 3.7080712 -1.7663498 4288085770
-1.7167969 4.4040442 -1.7550013 4288085770
-2.871933 3.7727699 -1.7654917 4288085770
-1.5644531 4.5001307 -1.7552247 4288085770
-2.7669983 3.8374319 -1.7646744 4288085770
-1.3779755 4.614902 -1.7615538 4288085770
-2.6600342 3.9020305 -1.7618852 4288085770
-1.2034912 4.7227106 -1.7618523 4288085770
-2.5480347 3.967566 -1.7591453 4288085770
-1.0250244 4.8294506 -1.7612247 4288085770
-2.4079285 4.0498633 -1.7624669 4288085770
-0.83145142 4.9430037 -1.7606702 4288085770
-2.2879028 4.11728 -1.7587993 4288085770
-0.6268158 5.0624356 -1.7611532 4288085770
-2.16185 4.1866026 -1.7541764 4288085770
-0.44328308 5.1659822 -1.7536523 4288085770
-1.9996643 4.2766414 -1.7586477 4288085770
-0.2245636 5.2891831 -1.7512524 4288085770
-1.8404541 4.3636432 -1.7591357 4288085770
0.012191772 5.4191942 -1.7509658 4288085770
-1.6641846 4.4585061 -1.7637045 4288085770
0.26408386 5.5579967 -1.7497163 4288085770
-1.5009918 4.5414019 -1.7613232 4288085770
0.51699829 5.6927333 -1.7455559 4288085770
-1.321701 4.633153 -1.7619905 4288085770
0.79397583 5.8382034 -1.743516 4288085770
-1.1353912 4.7257786 -1.7607358 4288085770
1.101181 6.0003157 -1.7425666 4288085770
-0.93504333 4.8252854 -1.7625391 4288085770
1.4425201 6.1780577 -1.7447798 4288085770
-0.7427063 4.9157801 -1.7584045 4288085770
1.7919159 6.3566418 -1.7440846 4288085770
-0.52426147 5.0190039 -1.7573798 4288085770
2.2006531 6.5655756 -1.7486115 4288085770
-0.28573608 5.1330328 -1.7594211 4288085770
2.6284637 6.7812729 -1.7532666 4288085770
-0.058273315 5.235126 -1.757539 4288085770
3.0341797 6.9790592 -1.7479627 4288085770
0.18728638 5.3449736 -1.7547524 4288085770
3.4971771 7.2042036 -1.7469101 4288085770
0.43882751 5.4537473 -1.7520669 4288085770
3.9832916 7.4370613 -1.7460213 4288085770
0.70744324 5.5703263 -1.750463 4288085770
4.5317535 7.7001734 -1.7473972 4288085770
0.98912048 5.6897426 -1.7489805 4288085770
5.1013031 7.9679861 -1.7469666 4288085770
1.2707977 5.8050828 -1.7435744 4288085770
1.6167297 5.9528069 -1.7484198 4288085770
1.9566498 6.092495 -1.7473354 4288085770
2.3357391 6.2487679 -1.7504635 4288085770
2.7449188 6.4157019 -1.7557943 4288085770
3.1641388 6.5824547 -1.7582629 4288085770
3.5622101 6.730361 -1.7548034 4288085770
3.9994659 6.8947954 -1.752557 4288085770
4.4849243 7.0777044 -1.7546086 4288085770
5.0065002 7.2721577 -1.7569268 4288085770
5.5601807 7.4752321 -1.7605133 4288085770
5.9922333 7.6074724 -1.7448049 4288085770
6.6051178 7.822751 -1.7459543 4288085770
7.3083954 8.0770493 -1.7555802 4288085770
11.175964 -1.5233859 -1.890923 4288085770
10.327774 -1.550876 -1.8770361 4288085770
9.6283722 -1.584051 -1.8742611 4288085770
9.1375885 -1.6325611 -1.8885872 4288085770
8.6179962 -1.6717877 -1.8983476 4288085770
8.1184235 -1.7082648 -1.9083254 4282675967
7.5083618 -1.7206298 -1.9023552 4288085770
6.8136902 -1.7151675 -1.8829041 4288085770
6.2935944 -1.7276161 -1.8801458 4288085770
5.8962097 -1.7503865 -1.8902371 4288085770
5.4331818 -1.7575467 -1.8881457 4288085770
4.9234161 -1.7512572 -1.8781686 4288085770
11.126907 -2.8321743 -1.8891335 4288085770
4.4576111 -1.7464967 -1.8698115 4288085770
10.326157 -2.8028493 -1.8968103 4288085770
4.0098572 -1.7389612 -1.8616445 4288085770
9.6401978 -2.7828603 -1.9112101 4288085770
3.5950623 -1.7317991 -1.8559284 4288085770
8.9514465 -2.75295 -1.9193823 4288085770
3.2291565 -1.7291704 -1.8549573 4288085770
8.196106 -2.7034183 -1.9152825 4288085770
2.8683472 -1.7226622 -1.8509798 4288085770
7.4190674 -2.6387863 -1.9016018 4288085770
2.5603638 -1.7216799 -1.8548203 4288085770
6.6591339 -2.5704241 -1.8850787 4288085770
2.2265778 -1.7125087 -1.851156 4288085770
6.0627441 -2.5258908 -1.8822114 4288085770
1.9376526 -1.708802 -1.8532002 4288085770
5.5052948 -2.4828243 -1.8808966 4288085770
1.6448364 -1.7001035 -1.8520963 4288085770
4.9739075 -2.4391387 -1.8769193 4288085770
1.3769684 -1.6926594 -1.8543525 4288085770
4.4546051 -2.3916411 -1.871031 4288085770
1.1161194 -1.6843407 -1.8546863 4288085770
3.958313 -2.3434496 -1.8644395 4288085770
0.87724304 -1.6772578 -1.8573396 4288085770
3.4970093 -2.297693 -1.8583643 4288085770
0.61653137 -1.6619977 -1.8545425 4288085770
3.0875549 -2.2585073 -1.8571129 4288085770
0.39764404 -1.6551452 -1.8584688 4288085770
2.7130127 -2.2237375 -1.8574154 4288085770
0.14006042 -1.6349992 -1.8516195 4288085770
2.3485413 -2.1871116 -1.8568172 4288085770
-0.070770264 -1.6242852 -1.8535807 4288085770
1.9960785 -2.1486545 -1.855346 4288085770
-0.29246521 -1.6075113 -1.8512795 4288085770
1.6745605 -2.1145854 -1.8553572 4288085770
-0.48329163 -1.5970494 -1.8544955 4288085770
1.3650818 -2.0796642 -1.8545268 4288085770
-0.66015625 -1.586722 -1.858918 4288085770
1.0984192 -2.0521824 -1.8594153 4288085770
-0.85682678 -1.5692611 -1.8569369 4288085770
0.80895996 -2.0165489 -1.8568406 4288085770
-1.056427 -1.5488203 -1.8518593 4288085770
0.55931091 -1.9883171 -1.8599439 4288085770
-1.2241974 -1.534644 -1.8543308 4288085770
0.30778503 -1.9560992 -1.8609452 4288085770
-1.3819885 -1.5215919 -1.8569579 4288085770
0.037445068 -1.9157977 -1.8535383 4288085770
-1.5536194 -1.5024617 -1.8542819 4288085770
-0.19407654 -1.8838476 -1.8538136 4288085770
-1.7093353 -1.4854736 -1.8548622 4288085770
-0.41262817 -1.8530786 -1.8532867 4288085770
-1.8670044 -1.4664986 -1.8533776 4288085770
-0.61720276 -1.8234452 -1.8549695 4288085770
-1.99086 -1.4558129 -1.8595076 4288085770
-0.7988739 -1.7990595 -1.8590608 4288085770
-2.1434631 -1.4349385 -1.8560545 4288085770
-1.0092926 -1.7634668 -1.8545506 4288085770
-2.2881165 -1.415145 -1.85373 4288085770
-1.1908722 -1.7351387 -1.8555677 4288085770
-2.3910217 -1.4066824 -1.8621843 4288085770
-1.3803406 -1.7017876 -1.8523822 4288085770
-2.5335999 -1.3839521 -1.8578315 4288085770
-1.5349884 -1.6777573 -1.8558438 4288085770
-2.6503448 -1.3684307 -1.8599644 4288085770
-1.7075043 -1.6466178 -1.8529291 4288085770
-2.7482147 -1.3570499 -1.8674314 4288085770
-1.8571167 -1.6206689 -1.855422 4288085770
-2.8559723 -1.3416216 -1.8706872 4288085770
-2.0126648 -1.5907029 -1.8547583 4288085770
-2.976593 -1.3201272 -1.8686538 4288085770
-2.1532745 -1.564885 -1.8563745 4288085770
-3.0783386 -1.3037739 -1.8719735 4288085770
-2.3106689 -1.5309895 -1.8506098 4288085770
-2.414505 -1.5134981 -1.8598816 4288085770
-2.5470581 -1.485837 -1.8585711 4288085770
-2.670639 -1.4592689 -1.858402 4288085770
-2.7823029 -1.4357927 -1.8614533 4288085770
-2.8849792 -1.4134094 -1.8656464 4288085770
-3.0035248 -1.3849418 -1.8635092 4288085770
-3.0518341 0.57880461 -1.8257918 4288085770
-2.9376068 0.58937609 -1.8271389 4288085770
-2.8203583 0.59989107 -1.8275273 4288085770
-2.7040863 0.60939968 -1.8269212 4288085770
-2.5838013 0.61984003 -1.8253515 4288085770
-2.4674683 0.62925446 -1.819747 4288085770
-2.3302307 0.63850176 -1.8194301 4288085770
-2.1909485 0.64768708 -1.8171413 4288085770
-3.0112762 0.64538181 -1.8320918 4288085770
-2.0357056 0.6577481 -1.8190532 4288085770
-2.8960571 0.65292227 -1.8325088 4288085770
-1.8654938 0.66764128 -1.8221714 4288085770
-2.7688446 0.66031349 -1.8330917 4288085770
-1.7111969 0.67660177 -1.8180902 4288085770
-2.6316376 0.66861808 -1.8357925 4288085770
-1.5738373 0.68366206 -1.8078136 4288085770
-2.5243225 0.67408979 -1.8271399 4288085770
-1.3875885 0.69229949 -1.808172 4288085770
-2.3980713 0.67941868 -1.8237474 4288085770
-1.1983337 0.7008816 -1.8075719 4288085770
-2.2538452 0.68556082 -1.8225837 4288085770
-1.0249786 0.70853055 -1.7997723 4288085770
-2.1056366 0.69165385 -1.8214748 4288085770
-0.80274963 0.7167207 -1.8006265 4288085770
-1.9364471 0.69754159 -1.8236547 4288085770
-0.57847595 0.72482908 -1.7985094 4288085770
-1.7781982 0.70247257 -1.820703 4288085770
-0.34721375 0.73185098 -1.7965076 4288085770
-1.6219482 0.70639074 -1.815743 4288085770
-0.10093689 0.73866737 -1.7937121 4288085770
-1.4497223 0.71114743 -1.8129842 4288085770
0.17132568 0.7461971 -1.793256 4288085770
-1.2545319 0.71465528 -1.8125608 4288085770
0.4785614 0.75434792 -1.7962625 4288085770
-1.0762482 0.71826255 -1.8059049 4288085770
0.79179382 0.76136768 -1.7963715 4288085770
-0.87602234 0.7206527 -1.8025696 4288085770
1.1180878 0.76716959 -1.7936788 4288085770
-0.65083313 0.7237879 -1.8025594 4288085770
1.4822845 0.77255499 -1.7945092 4288085770
-0.40466309 0.72566164 -1.8028572 4288085770
1.8715668 0.77859199 -1.7936656 4288085770
-0.17741394 0.72664082 -1.7959139 4288085770
2.3167419 0.78400671 -1.7975924 4288085770
0.089752197 0.72723472 -1.7955201 4288085770
2.7979889 0.78995526 -1.8009968 4288085770
0.38890076 0.72746885 -1.7975662 4288085770
3.3810883 0.79678333 -1.8137667 4288085770
0.69406128 0.72757161 -1.7966964 4288085770
4.0242157 0.80286586 -1.8273633 4288085770
1.0252075 0.72636974 -1.7972033 4288085770
4.6394196 0.80609 -1.8296337 4288085770
1.3733673 0.7239188 -1.7959635 4288085770
5.3746033 0.80989587 -1.8375187 4288085770
1.7834473 0.72179019 -1.8005579 4288085770
6.1068573 0.80955207 -1.8354402 4288085770
2.1925659 0.71759951 -1.801177 4288085770
6.8432159 0.80700839 -1.8254566 4288085770
2.6416779 0.71191108 -1.802366 4288085770
7.690506 0.80310261 -1.8180022 4288085770
3.1896515 0.70614135 -1.8128982 4288085770
8.701767 0.79821241 -1.8157878 4288085770
3.7906494 0.69971216 -1.8241606 4282675967
9.7780609 0.79040015 -1.8085082 4288085770
4.4116364 0.68994009 -1.8307562 4288085770
11.150269 0.78303587 -1.8122296 4288085770
5.1525269 0.67878854 -1.8450034 4282675967
5.8295898 0.66213357 -1.8424859 4288085770
6.5476837 0.64185655 -1.8345909 4288085770
7.3367462 0.61969626 -1.827693 4288085770
8.2277374 0.59226763 -1.8222754 4288085770
9.32164 0.56138837 -1.8236723 4288085770
10.509521 0.52526605 -1.8224404 4288085770
7.5888367 -7.495297 -1.6891012 4293729569
7.2086639 -7.1893392 -1.6922395 4293729569
2.6725769 -4.8424883 -0.64480102 4293729569
6.8691406 -6.9099035 -1.6954241 4293729569
2.6126709 -4.7342405 -0.66997063 4293729569
2.6085358 -4.7443762 -1.2552557 4293729569
2.6203613 -4.6568131 -0.69763076 4293729569
2.6142578 -4.6679611 -1.2809072 4293729569
2.6996307 -4.6122551 -0.72787321 4293729569
2.6676636 -4.6100459 -1.312551 4293729569
5.9707947 -6.042695 -1.7280657 4293729569
5.698761 -5.813261 -1.7240968 4293729569
5.5210724 -5.6278882 -1.7282286 4293729569
5.3255157 -5.4373474 -1.7290215 4293729569
5.1816101 -5.2714109 -1.7329736 4293729569
5.0496216 -5.1126409 -1.7362204 4293729569
4.9524078 -4.9712653 -1.7422628 4293729569
4.8442688 -4.8258276 -1.7440813 4293729569
4.7997131 -4.7080498 -1.7542777 4293729569
4.7323151 -4.5820813 -1.7590115 4293729569
4.6768341 -4.4612603 -1.7640033 4293729569
4.6233978 -4.3415017 -1.7670414 4293729569
11.762436 -6.849133 -1.6963458 4293729569
4.6077118 -4.2371559 -1.7738791 4293729569
11.62001 -6.6442194 -1.6995909 4293729569
4.6218262 -4.1441259 -1.7843323 4293729569
5.7243347 -4.4306941 -1.216435 4293729569
4.6141205 -4.0429168 -1.7893364 4293729569
11.415741 -6.272409 -1.7068801 4293729569
4.7555695 -3.9912648 -1.8132875 4293729569
11.330032 -6.0942726 -1.707392 4293729569
5.045166 -3.9891396 -1.8571706 4288085770
11.315979 -5.9409518 -1.7133369 4293729569
5.3199158 -3.9768858 -1.8976634 4288085770
11.089966 -5.722312 -1.6981924 4293729569
5.375 -3.8904197 -1.9057927 4288085770
11.297852 -5.6405644 -1.7184782 4293729569
5.3545227 -3.7802005 -1.9024546 4288085770
11.361481 -5.5122285 -1.7249405 4293729569
5.3738251 -3.6834011 -1.9039061 4288085770
11.293747 -5.3464618 -1.7179253 4293729569
5.3971252 -3.5876884 -1.9034317 4288085770
11.512711 -5.2639451 -1.7333457 4293729569
5.4095001 -3.4888587 -1.901751 4288085770
11.66304 -5.1597042 -1.7404311 4293729569
5.4457855 -3.3963256 -1.9005117 4288085770
11.797485 -5.0493035 -1.7451861 4293729569
5.4830933 -3.3038239 -1.8982861 4288085770
5.5353088 -3.2164893 -1.8973596 4288085770
11.687103 -4.7273784 -1.7156723 4293729569
5.6234131 -3.1355641 -1.8990388 4288085770
11.815689 -4.6130338 -1.7132735 4293729569
5.6577759 -3.0430994 -1.8927736 4288085770
5.7648468 -2.9654284 -1.8937702 4288085770
5.8599854 -2.8846462 -1.8925467 4288085770
5.9780731 -2.8091302 -1.8927319 4288085770
6.1051483 -2.7327263 -1.893023 4288085770
6.2332306 -2.6573725 -1.8913467 4288085770
6.4121704 -2.5905771 -1.8945186 4288085770
6.5612793 -2.5145032 -1.8921134 4288085770
6.7253723 -2.4396162 -1.8899329 4288085770
6.9373169 -2.3732505 -1.8925595 4288085770
7.1622925 -2.3050838 -1.8933287 4288085770
7.477005 -2.249886 -1.9035559 4288085770
7.8097229 -2.1949129 -1.9140306 4288085770
8.1086426 -2.1306486 -1.9168735 4282675967
8.3020172 -2.0453312 -1.9058709 4288085770
8.5811462 -1.9719309 -1.9022675 4288085770
8.9780121 -1.9098483 -1.9084697 4288085770
9.2443085 -1.8283811 -1.8995409 4288085770
9.5825195 -1.7507725 -1.8936572 4288085770
9.97966 -1.6758606 -1.8906219 4288085770
10.470642 -1.6080055 -1.8949885 4288085770
11.040604 -1.5401162 -1.9014225 4288085770
11.667572 -1.4729178 -1.9096401 4282675967
11.637848 0.71717465 -1.8265903 4288085770
10.378693 0.77994215 -1.8145673 4288085770
9.4063568 0.83932126 -1.8164513 4288085770
8.5140076 0.89465129 -1.8164811 4288085770
7.7176056 0.94475114 -1.8158925 4288085770
7.0561066 0.9942807 -1.823123 4288085770
6.4476318 1.0410966 -1.8281133 4288085770
5.8651581 1.0835172 -1.8295317 4288085770
5.3446655 1.1251656 -1.8317952 4288085770
11.856537 1.5134894 -1.767807 4288085770
4.7922211 1.159032 -1.8237715 4288085770
10.772903 1.5482014 -1.7656581 4288085770
4.3037567 1.1941377 -1.818583 4288085770
9.8862762 1.5855521 -1.7710998 4288085770
3.8592529 1.2266966 -1.8140299 4288085770
9.1585999 1.6270331 -1.7845964 4288085770
3.4337616 1.2579833 -1.807755 4288085770
8.4409485 1.6622261 -1.7893412 4288085770
3.0462494 1.2888149 -1.8029978 4288085770
7.6623383 1.6869618 -1.7814596 4288085770
2.6567535 1.3155993 -1.7942874 4288085770
7.031723 1.7159458 -1.7804828 4288085770
2.3432312 1.346547 -1.7925193 4288085770
6.4960785 1.749838 -1.7856896 4288085770
2.0436707 1.3753027 -1.7899787 4288085770
6.0144501 1.7820584 -1.7916501 4288085770
1.7781067 1.4046713 -1.7898829 4288085770
5.5198212 1.8103322 -1.791508 4288085770
1.529541 1.4348468 -1.7910001 4288085770
4.9872437 1.8288797 -1.7800338 4288085770
1.3209381 1.4655789 -1.7956433 4288085770
4.5526428 1.8533167 -1.7757657 4288085770
1.0594025 1.4897527 -1.7876954 4288085770
4.1520081 1.8773483 -1.7729599 4288085770
0.84083557 1.5165008 -1.7862771 4288085770
3.7944183 1.9038628 -1.7716854 4288085770
0.61528015 1.5392455 -1.7798378 4288085770
3.4407959 1.9262735 -1.7675388 4288085770
0.42070007 1.5656766 -1.7777472 4288085770
3.1221924 1.9512843 -1.7658141 4288085770
0.23814392 1.5909411 -1.774838 4288085770
