# .PCD v0.7 - Point Cloud Data file format
VERSION 0.7
FIELDS x y z rgb
SIZE 4 4 4 4
TYPE F F F U
COUNT 1 1 1 1
WIDTH 1127
HEIGHT 1
VIEWPOINT 0 0 0 1 0 0 0
POINTS 1127
DATA ascii
7.8309116 0.55739117 -1.7603588 4288085770
12.538838 0.69421148 -1.7442747 4288085770
8.3110247 0.56177759 -1.7591369 4288085770
13.498924 0.70897532 -1.7378125 4288085770
8.8351498 0.5652051 -1.7597158 4288085770
14.525987 0.7217741 -1.7250487 4288085770
9.4102688 0.56867123 -1.75906 4288085770
15.779083 0.73878431 -1.7202322 4288085770
10.034385 0.57017326 -1.7571853 4288085770
17.240183 0.75696588 -1.7154559 4288085770
10.717505 0.57172728 -1.7560394 4288085770
11.496633 0.57236433 -1.7564552 4288085770
12.321745 0.57002497 -1.7526691 4288085770
13.224849 0.56574297 -1.746531 4288085770
14.260961 0.56057549 -1.7417841 4288085770
15.464077 0.55254507 -1.7372788 4288085770
16.820194 0.54163885 -1.7320797 4288085770
15.594024 -7.6702323 -1.4619652 4293729569
15.234959 -7.3814931 -1.473675 4293729569
11.267253 -5.6147141 -1.1822412 4293729569
11.207371 -5.4846921 -1.2050878 4293729569
11.317091 -5.4109273 -0.49732351 4293729569
11.26456 -5.4015546 -1.2345463 4293729569
11.357265 -5.3208089 -0.52483779 4293729569
14.207866 -6.4382081 -1.5183156 4293729569
13.984841 -6.223371 -1.5256386 4293729569
13.79083 -6.0225101 -1.5328732 4293729569
13.634836 -5.8406167 -1.5409939 4293729569
13.466829 -5.6557422 -1.5461608 4293729569
13.305811 -5.4748683 -1.5493084 4293729569
13.196827 -5.3149428 -1.5552838 4293729569
13.078825 -5.1520343 -1.5582911 4293729569
13.013865 -5.0100675 -1.5661216 4293729569
12.933879 -4.8641286 -1.5690085 4293729569
12.890917 -4.7331491 -1.5747731 4293729569
12.903983 -4.618114 -1.5833304 4293729569
12.899032 -4.4981036 -1.5889547 4293729569
13.025164 -4.4159493 -1.606096 4293729569
13.440495 -4.4134631 -1.6511585 4288085770
13.989906 -4.4428296 -1.7077037 4288085770
14.349174 -4.4124198 -1.7439337 4288085770
14.470268 -4.3162875 -1.7550517 4282675967
14.423233 -4.1753583 -1.746802 4288085770
14.424223 -4.047379 -1.7413721 4288085770
14.522274 -3.9422927 -1.7445674 4288085770
14.642328 -3.8411841 -1.7486739 4288085770
14.73335 -3.73212 -1.7468884 4288085770
14.848382 -3.6270328 -1.7460048 4288085770
14.928391 -3.5149856 -1.7412605 4288085770
15.124454 -3.4238181 -1.7450467 4288085770
15.292489 -3.3256869 -1.7439399 4288085770
15.53556 -3.2394791 -1.7475239 4288085770
15.709583 -3.13835 -1.7443789 4288085770
15.935623 -3.0431728 -1.7430122 4288085770
16.199669 -2.9519615 -1.7424821 4288085770
16.486713 -2.8627315 -1.7418516 4288085770
16.823772 -2.7754545 -1.7429953 4288085770
17.176823 -2.6871672 -1.7430612 4288085770
17.503845 -2.5909181 -1.7382215 4288085770
16.677067 0.87306666 -1.7189952 4288085770
15.59618 0.91119385 -1.7269692 4288085770
14.547248 0.94331408 -1.7248122 4288085770
13.722376 0.97965884 -1.7345837 4288085770
12.91847 1.010998 -1.737273 4288085770
12.213576 1.041424 -1.741498 4288085770
11.589686 1.0709188 -1.7463436 4288085770
10.945765 1.095371 -1.7433008 4288085770
10.451883 1.1249785 -1.7495325 4288085770
17.14933 1.6713455 -1.6970751 4288085770
9.9319725 1.1495411 -1.748904 4288085770
16.102453 1.6844938 -1.7029729 4288085770
9.4630632 1.1731458 -1.7480379 4288085770
15.187591 1.6997595 -1.7112403 4288085770
9.0361576 1.1967874 -1.7479734 4288085770
14.338703 1.7120621 -1.7142062 4288085770
8.6362524 1.219451 -1.747785 4288085770
13.580822 1.7264452 -1.7187355 4288085770
8.2883539 1.2441669 -1.7503439 4288085770
12.893933 1.7418859 -1.7229263 4288085770
7.9544573 1.2678907 -1.7518402 4288085770
12.297059 1.7594063 -1.728685 4288085770
7.6525602 1.2916405 -1.7531853 4288085770
11.735177 1.7759485 -1.7322817 4288085770
7.3686666 1.3154082 -1.7554454 4288085770
11.174267 1.7884717 -1.7298872 4288085770
7.0927715 1.3381791 -1.7566711 4288085770
10.705389 1.8070958 -1.735038 4288085770
6.8288612 1.3599501 -1.7548435 4288085770
10.266499 1.8247344 -1.7370504 4288085770
6.5869617 1.3817487 -1.7559119 4288085770
9.8526068 1.8423936 -1.7389449 4288085770
6.3590603 1.4045551 -1.755911 4288085770
9.4436989 1.8570435 -1.7368257 4288085770
6.1591702 1.4293945 -1.7587709 4288085770
9.0828028 1.8747423 -1.7374697 4288085770
5.9472618 1.4492073 -1.7567043 4288085770
8.7238894 1.8894291 -1.7341145 4288085770
5.7613678 1.4730549 -1.7585018 4288085770
8.416996 1.9091747 -1.7354968 4288085770
5.5874691 1.4969084 -1.7592423 4288085770
8.1441097 1.9309549 -1.7387116 4288085770
5.3925495 1.5147288 -1.7551022 4288085770
7.8882227 1.9527488 -1.7418462 4288085770
5.2356472 1.5375926 -1.7547659 4288085770
7.6253195 1.9715235 -1.7410239 4288085770
5.1017666 1.5634923 -1.7593106 4288085770
7.3974218 1.9933336 -1.7420262 4288085770
4.926836 1.5803187 -1.7520795 4288085770
7.1745262 2.0141475 -1.7430083 4288085770
4.8319702 1.6112664 -1.7614232 4288085770
6.9796314 2.0389874 -1.7448448 4288085770
4.6810532 1.6301224 -1.757072 4288085770
6.7607174 2.0567915 -1.7418181 4288085770
4.5721645 1.656039 -1.7604988 4288085770
6.5708179 2.0776291 -1.7416441 4288085770
4.4442539 1.6779201 -1.7580289 4288085770
6.3969193 2.1014829 -1.7423848 4288085770
4.3373585 1.7028315 -1.7594496 4288085770
6.2280102 2.1243339 -1.7411052 4288085770
4.221447 1.7247224 -1.756923 4288085770
6.0731106 2.1492035 -1.7417525 4288085770
4.1315517 1.751651 -1.7592565 4288085770
5.9121952 2.1700544 -1.7384417 4288085770
4.0376511 1.7765696 -1.7596159 4288085770
5.7692909 2.1949301 -1.7380326 4288085770
3.9477501 1.8024917 -1.7599529 4288085770
5.6363831 2.2198138 -1.737576 4288085770
3.843832 1.8223858 -1.7553763 4288085770
5.508482 2.2437017 -1.7370991 4288085770
3.7639294 1.8483157 -1.755666 4288085770
5.4095898 2.2756262 -1.7404584 4288085770
3.6800194 1.8722358 -1.7539815 4288085770
5.3066902 2.3045406 -1.7418468 4288085770
3.6141262 1.9001837 -1.7561984 4288085770
5.2087898 2.3344595 -1.7432083 4288085770
3.5382099 1.9251072 -1.7534727 4288085770
5.1258965 2.3673971 -1.7464885 4288085770
3.4783154 1.9540601 -1.7556578 4288085770
5.0099716 2.3902779 -1.7409585 4288085770
3.4164124 1.9830043 -1.7558526 4288085770
4.9290676 2.4212101 -1.742236 4288085770
3.3665142 2.0129659 -1.7579871 4288085770
4.8641701 2.4571626 -1.7454213 4288085770
3.3005981 2.0378971 -1.7552142 4288085770
4.7912674 2.4901013 -1.7466545 4288085770
3.2396832 2.0648327 -1.7524109 4288085770
4.7003441 2.516006 -1.7419962 4288085770
3.2047958 2.0988154 -1.7574612 4288085770
4.6284313 2.5479393 -1.7412279 4288085770
3.1478767 2.1247513 -1.7536424 4288085770
4.5685215 2.5828853 -1.741393 4288085770
3.0979633 2.1536992 -1.7517803 4288085770
4.506609 2.6168265 -1.7405709 4288085770
3.0660686 2.1886778 -1.754813 4288085770
4.4627056 2.6557925 -1.7426468 4288085770
3.0261574 2.2196369 -1.753897 4288085770
4.4167976 2.6937532 -1.7437354 4288085770
2.9842415 2.2485912 -1.7519971 4288085770
4.360878 2.7276926 -1.7408847 4288085770
2.9583416 2.2855718 -1.7539948 4288085770
4.3259716 2.7696657 -1.7429082 4288085770
2.9274311 2.3185415 -1.7540296 4288085770
4.2930641 2.8106406 -1.7449253 4288085770
2.9045238 2.354521 -1.7550163 4288085770
4.2581463 2.8516035 -1.7439519 4288085770
2.8706055 2.3864784 -1.7520685 4288085770
4.2242279 2.8915677 -1.7429773 4288085770
2.8516979 2.4234612 -1.7530332 4288085770
4.2083187 2.9385557 -1.7448939 4288085770
2.8357906 2.4614465 -1.7539802 4288085770
4.1954098 2.9875503 -1.7477897 4288085770
2.8218822 2.5004334 -1.7549143 4288085770
4.1794949 3.0345354 -1.7487062 4288085770
2.8089619 2.5394177 -1.7548438 4288085770
4.1815815 3.0905452 -1.7525079 4288085770
2.793047 2.5773966 -1.7537909 4288085770
4.1706657 3.1385345 -1.7533975 4288085770
2.7751198 2.6143665 -1.7507507 4288085770
4.1697445 3.1925318 -1.7542197 4288085770
2.7712078 2.6573617 -1.751624 4288085770
4.1808338 3.2515488 -1.7579683 4288085770
2.7682896 2.7003539 -1.7514929 4288085770
4.1849098 3.30755 -1.7587602 4288085770
2.7683773 2.7453523 -1.7523406 4288085770
4.1949902 3.3655593 -1.7605169 4288085770
2.7774658 2.7933609 -1.7541357 4288085770
4.2170734 3.4305851 -1.7641935 4288085770
2.7845516 2.8413644 -1.7549404 4288085770
4.2381477 3.4946036 -1.7658781 4288085770
2.7796173 2.8823423 -1.750825 4288085770
4.2612247 3.5586236 -1.767553 4288085770
2.8057175 2.9403777 -1.7565063 4288085770
4.2872925 3.6256425 -1.7682039 4288085770
2.8197918 2.991384 -1.7562677 4288085770
4.3213673 3.6966748 -1.7708033 4288085770
2.8528862 3.0514221 -1.7609088 4288085770
4.351429 3.7656939 -1.7704284 4288085770
2.8749638 3.1074381 -1.7616156 4288085770
4.3964977 3.8427348 -1.7729558 4288085770
2.888031 3.1574368 -1.7593849 4288085770
4.4585686 3.9287963 -1.7773722 4288085770
2.9341202 3.2254889 -1.7649378 4288085770
4.5046272 4.0068316 -1.7778915 4288085770
2.9712009 3.2895231 -1.7675467 4288085770
4.5726948 4.0968976 -1.7822664 4288085770
3.0222855 3.3615794 -1.7730623 4288085770
4.6427498 4.1889591 -1.7846251 4288085770
3.1094074 3.4526978 -1.788344 4288085770
4.7118015 4.2800164 -1.7859915 4288085770
3.1674843 3.5287559 -1.7928131 4288085770
4.7908573 4.378088 -1.7892873 4288085770
3.1905231 3.5847459 -1.7855148 4288085770
4.8759022 4.4791584 -1.7905446 4288085770
3.2405872 3.6557846 -1.7860386 4288085770
4.9889622 4.5962706 -1.7976158 4288085770
3.3076591 3.7368467 -1.7894481 4288085770
5.0830002 4.7033482 -1.7988101 4288085770
3.3537025 3.8048654 -1.7850008 4288085770
5.193037 4.8204417 -1.8008953 4288085770
3.4347744 3.8949456 -1.7903137 4288085770
5.3160706 4.9445486 -1.8038952 4288085770
3.5038319 3.9759994 -1.7907138 4288085770
5.4531059 5.0786743 -1.8087956 4288085770
3.5858898 4.0660706 -1.793022 4288085770
5.5941296 5.215796 -1.8116666 4288085770
3.6759434 4.1611481 -1.7952757 4288085770
5.7491493 5.3609324 -1.8154446 4288085770
3.757988 4.2502089 -1.7945871 4288085770
5.8901539 5.4980412 -1.8143156 4288085770
3.858036 4.3512945 -1.7967728 4288085770
6.1051807 5.681252 -1.8256819 4288085770
3.9780884 4.464406 -1.8018239 4288085770
6.2961788 5.8514175 -1.8292053 4288085770
4.0911255 4.5734987 -1.8029213 4288085770
6.5211811 6.0426235 -1.8364972 4288085770
4.2211666 4.692615 -1.8069046 4288085770
6.7581787 6.2408395 -1.8437085 4288085770
4.3551998 4.8147316 -1.809859 4288085770
7.0301628 6.4640942 -1.8536706 4288085770
4.5122375 4.9508767 -1.8156574 4288085770
7.3381386 6.7103839 -1.8653849 4288085770
4.675272 5.0910258 -1.8214135 4288085770
7.6150932 6.9366188 -1.8683125 4288085770
4.842289 5.2331686 -1.8241442 4288085770
7.9450397 7.1989131 -1.8758684 4288085770
5.0213089 5.3833246 -1.827791 4288085770
8.2929707 7.473218 -1.8822986 4288085770
5.2093143 5.5394845 -1.8303748 4288085770
8.692893 7.781579 -1.8923682 4288085770
5.4183216 5.7076678 -1.8348188 4288085770
5.6453209 5.8878694 -1.8401374 4288085770
5.8883133 6.078083 -1.8453462 4288085770
6.1643066 6.2893376 -1.8543282 4288085770
6.4742966 6.5236287 -1.8660718 4288085770
6.790266 6.7599115 -1.8737801 4288085770
7.1362286 7.0152254 -1.8832823 4288085770
7.4801617 7.2685175 -1.8868004 4288085770
7.8610916 7.5438499 -1.8930689 4288085770
8.3150129 7.8692636 -1.9058241 4288085770
16.860573 -1.054081 -1.729403 4288085770
15.872735 -1.0868773 -1.7352309 4288085770
14.96789 -1.1146059 -1.7406454 4288085770
14.181067 -1.1412234 -1.7504925 4288085770
13.447235 -1.1638017 -1.759073 4288085770
12.800421 -1.1852961 -1.7712345 4288085770
12.123553 -1.1978488 -1.7735094 4288085770
11.483678 -1.207375 -1.7745975 4288085770
10.899802 -1.2138519 -1.7764077 4288085770
17.578384 -1.9074793 -1.7528181 4282675967
10.359938 -1.2202873 -1.7800081 4288085770
16.38448 -1.8714504 -1.7564009 4282675967
9.8690701 -1.2256837 -1.7833707 4288085770
15.245533 -1.8304 -1.752704 4288085770
9.3801861 -1.226088 -1.783707 4288085770
14.324647 -1.801137 -1.7590052 4288085770
8.9423113 -1.2274446 -1.785803 4288085770
13.532796 -1.7807517 -1.7707199 4288085770
8.5084229 -1.2258053 -1.78587 4288085770
12.746904 -1.7513838 -1.7753757 4288085770
8.1215506 -1.2251172 -1.7887156 4288085770
12.000997 -1.720994 -1.7768373 4288085770
7.7406654 -1.2214317 -1.7895225 4288085770
11.314089 -1.6915579 -1.7780201 4288085770
7.3867779 -1.2167244 -1.790197 4288085770
10.712197 -1.6660428 -1.7818099 4288085770
7.0569019 -1.2129908 -1.7927601 4288085770
10.145308 -1.6404996 -1.7854325 4288085770
6.7440166 -1.2072473 -1.7942355 4288085770
9.6354227 -1.6169033 -1.7907892 4288085770
6.4150982 -1.1965394 -1.7887706 4288085770
9.1535339 -1.5932918 -1.7940122 4288085770
6.1262074 -1.1887798 -1.7891244 4288085770
8.6926355 -1.5676665 -1.7961282 4288085770
5.8973675 -1.1869416 -1.7982113 4288085770
8.2427187 -1.5410466 -1.7941883 4288085770
5.6134491 -1.1741943 -1.7935247 4288085770
7.863842 -1.5193419 -1.7999256 4288085770
5.3775711 -1.1673861 -1.7956285 4288085770
7.4939528 -1.4976406 -1.8026197 4282675967
5.1667061 -1.1615467 -1.800616 4288085770
7.1230392 -1.4709525 -1.8013023 4282675967
4.924799 -1.1487589 -1.7977288 4288085770
6.7581043 -1.442275 -1.7959493 4288085770
4.7309303 -1.1419067 -1.8026317 4288085770
6.4472122 -1.4205256 -1.7983615 4288085770
4.5100174 -1.1281056 -1.7986405 4288085770
6.1603279 -1.3997536 -1.8016624 4288085770
4.3341522 -1.1212382 -1.8034575 4288085770
5.8624115 -1.375011 -1.7990028 4288085770
4.1522694 -1.1103854 -1.8052899 4288085770
5.5854931 -1.3502522 -1.7962425 4288085770
3.9683743 -1.0985417 -1.8051286 4288085770
5.3245869 -1.3274727 -1.7954124 4288085770
3.8155136 -1.090652 -1.8108323 4288085770
5.0896912 -1.3066664 -1.7964646 4288085770
3.6406078 -1.076807 -1.8086212 4288085770
4.8687992 -1.2858453 -1.79845 4288085770
3.4937286 -1.0659237 -1.8112861 4288085770
4.6659203 -1.268003 -1.8023593 4288085770
3.3448353 -1.0540485 -1.8119575 4288085770
4.4480057 -1.2451925 -1.8003238 4288085770
3.1859303 -1.0391908 -1.8096666 4288085770
4.2400932 -1.2223744 -1.7982405 4288085770
3.0520458 -1.0282993 -1.8112695 4288085770
4.0551929 -1.2015309 -1.7980537 4288085770
2.9241657 -1.0164008 -1.8138403 4288085770
3.9003277 -1.1856399 -1.8047401 4288085770
2.7592125 -0.99657822 -1.8025615 4288085770
3.7454548 -1.1687555 -1.8094232 4288085770
2.6613693 -0.98863173 -1.8120022 4288085770
3.5805511 -1.1488991 -1.8081441 4288085770
3.418644 -1.1280408 -1.8068476 4288085770
3.2687416 -1.1081696 -1.8064969 4288085770
3.1308575 -1.0892782 -1.809092 4288085770
2.9849453 -1.0684099 -1.8067189 4288085770
2.8350143 -1.0455589 -1.8003582 4288085770
2.7051086 -1.0256748 -1.7989119 4288085770
2.6410446 0.90154409 -1.7745345 4288085770
2.7601452 0.91662836 -1.7729095 4288085770
2.8972664 0.93274069 -1.7751946 4288085770
3.0373783 0.94885159 -1.7764652 4288085770
3.1724796 0.96294832 -1.7747668 4288085770
3.3125706 0.9770422 -1.7710443 4288085770
3.4786949 0.9941802 -1.7741864 4288085770
3.6257801 1.0072758 -1.7694335 4288085770
2.7089577 0.91157746 -1.7801669 4288085770
3.792881 1.0223975 -1.7675776 4288085770
2.8330574 0.92166185 -1.7775351 4288085770
3.9589729 1.0365119 -1.7637299 4288085770
2.9841824 0.9347918 -1.781763 4288085770
4.156086 1.0536709 -1.765723 4288085770
3.1162834 0.9438827 -1.7790959 4288085770
4.3441792 1.068805 -1.7627661 4288085770
3.2744045 0.95501137 -1.781297 4288085770
4.5552883 1.0849681 -1.762695 4288085770
3.4134979 0.96310091 -1.7765996 4288085770
4.7924099 1.1031611 -1.7654921 4288085770
3.57761 0.97322679 -1.7767752 4288085770
5.0255165 1.1193409 -1.7653151 4288085770
3.7287025 0.9803257 -1.7720237 4288085770
5.2746296 1.1365368 -1.7660578 4288085770
3.9198303 0.9924829 -1.7750626 4288085770
5.5417423 1.1547465 -1.7667104 4288085770
4.087925 0.99959826 -1.771229 4288085770
5.8058338 1.1699395 -1.7633878 4288085770
4.2790356 1.0077419 -1.7702817 4288085770
6.1069469 1.1881759 -1.7638769 4288085770
4.4811459 1.0168941 -1.7692777 4288085770
6.3940239 1.2023771 -1.757447 4288085770
4.6942558 1.024055 -1.7682278 4288085770
6.7361355 1.2206447 -1.7577388 4288085770
4.9073563 1.0312085 -1.765178 4288085770
7.0832386 1.2369099 -1.7560134 4288085770
5.1624832 1.0414155 -1.7679154 4288085770
7.4753456 1.2572162 -1.7560577 4288085770
5.4145985 1.04861 -1.767678 4288085770
7.8674364 1.2735095 -1.7521157 4288085770
5.6677017 1.0537949 -1.7644424 4288085770
8.312542 1.2918539 -1.7509121 4288085770
5.9548206 1.0610199 -1.7650363 4288085770
8.8036575 1.3132443 -1.7524767 4288085770
6.2319126 1.0652196 -1.7606888 4288085770
9.3257599 1.3326526 -1.751899 4288085770
6.5500278 1.0714653 -1.7601372 4288085770
9.8828516 1.3520768 -1.7481531 4288085770
6.8721313 1.0747035 -1.7565764 4288085770
10.502961 1.3745639 -1.7480935 4288085770
7.2362576 1.0799921 -1.7578068 4288085770
11.152054 1.39306 -1.7439082 4288085770
7.6153708 1.0822811 -1.7559751 4288085770
11.881152 1.4146249 -1.7413278 4288085770
8.0114784 1.0845807 -1.753062 4288085770
12.67424 1.436233 -1.7364395 4288085770
8.4526005 1.0859251 -1.7529355 4288085770
13.556331 1.4579132 -1.7321229 4288085770
8.9327221 1.0872996 -1.7526214 4288085770
14.52341 1.4786491 -1.7244009 4288085770
9.4578543 1.088716 -1.7540909 4288085770
15.575482 1.4994478 -1.71527 4288085770
9.9799604 1.0841095 -1.7495954 4288085770
16.831579 1.5264287 -1.7121367 4288085770
10.586083 1.0815821 -1.7486888 4288085770
11.235209 1.0770876 -1.7475822 4288085770
11.934331 1.069629 -1.7452452 4288085770
12.687446 1.0592048 -1.7406589 4288085770
13.51156 1.0458362 -1.7357413 4288085770
14.38766 1.027494 -1.7265905 4288085770
15.442803 1.0103209 -1.7255752 4288085770
16.640959 0.9902699 -1.7268821 4288085770
8.8990889 -7.5987229 -1.4688743 4293729569
8.5390358 -7.3089681 -1.4795983 4293729569
8.2390299 -7.059155 -1.4941723 4293729569
7.9299965 -6.8043656 -1.5037723 4293729569
5.2716999 -4.9692616 -0.68815827 4293729569
5.3081589 -5.0415435 -1.1742437 4293729569
5.2539463 -4.9151597 -0.72305584 4293729569
5.2783833 -4.9814601 -1.2061782 4293729569
5.2702122 -4.88203 -0.75886267 4293729569
5.2826443 -4.9403377 -1.2420151 4293729569
5.3014889 -4.8568816 -0.79562509 4293729569
5.2969093 -4.9062066 -1.277828 4293729569
5.362793 -4.8487029 -0.83530211 4293729569
5.3382053 -4.8860431 -1.3175597 4293729569
5.3855019 -4.8678746 -1.3572693 4293729569
10.393312 -7.8246865 -1.4504699 4293729569
6.4551277 -5.4793086 -1.5712552 4293729569
10.064267 -7.5419078 -1.4620684 4293729569
6.3041687 -5.3294024 -1.5794595 4293729569
9.7912664 -7.2960744 -1.4765259 4293729569
6.1351757 -5.16853 -1.5817122 4293729569
9.5252542 -7.0572448 -1.487974 4293729569
5.9621601 -5.0076747 -1.5799842 4293729569
9.2702408 -6.8264146 -1.4973971 4293729569
5.8051567 -4.8568044 -1.5792139 4293729569
9.0242214 -6.6025834 -1.5048013 4293729569
5.7132378 -4.7458444 -1.5892696 4293729569
8.8402548 -6.415688 -1.5170354 4293729569
5.5922642 -4.6169362 -1.5914024 4293729569
8.6682825 -6.2367864 -1.5282395 4293729569
5.5003262 -4.504992 -1.5974545 4293729569
8.5203295 -6.0738664 -1.5393838 4293729569
5.4374199 -4.4110112 -1.6074296 4293729569
8.3673592 -5.9079633 -1.5475416 4293729569
5.3654957 -4.3120475 -1.6144308 4293729569
8.2223902 -5.7500548 -1.5546888 4293729569
5.3065777 -4.2200732 -1.6213937 4293729569
8.0984335 -5.603128 -1.5627732 4293729569
5.267683 -4.1400743 -1.6313018 4293729569
7.9824839 -5.4621949 -1.5708399 4293729569
5.1927338 -4.0401311 -1.6333138 4293729569
7.8775282 -5.3272605 -1.5768745 4293729569
5.2469578 -4.0080009 -1.6599408 4293729569
7.8015985 -5.2092929 -1.5858283 4293729569
5.3802834 -4.0167594 -1.7013299 4288085770
7.7186537 -5.0883431 -1.5918057 4293729569
5.5015984 -4.0165305 -1.7417454 4288085770
7.6497183 -4.9743762 -1.5987399 4293729569
5.6399231 -4.0232835 -1.7831033 4282675967
7.5857754 -4.8644128 -1.6036639 4293729569
5.6841068 -3.9801841 -1.8037401 4282675967
7.506813 -4.7464728 -1.6056322 4293729569
5.6031113 -3.8742776 -1.7967603 4282675967
7.4428625 -4.636518 -1.6085563 4293729569
5.516098 -3.7663836 -1.7868023 4282675967
7.3929214 -4.5345483 -1.6124406 4293729569
5.4471073 -3.6684661 -1.7797923 4282675967
7.3519783 -4.4375768 -1.615299 4293729569
5.3951359 -3.5805306 -1.7747352 4288085770
7.3360615 -4.352572 -1.6210788 4293729569
5.3671875 -3.5035567 -1.7746009 4288085770
7.3321457 -4.2725577 -1.6278181 4293729569
5.3652744 -3.437551 -1.7783793 4288085770
7.3142109 -4.1855664 -1.6306005 4293729569
5.3583508 -3.3705554 -1.7801784 4288085770
7.3753614 -4.1334748 -1.6451238 4293729569
5.3384037 -3.2975831 -1.7780194 4288085770
7.5356188 -4.122252 -1.675313 4288085770
5.3124447 -3.2216229 -1.7738786 4288085770
7.7489176 -4.1289668 -1.7113092 4288085770
5.3355446 -3.166595 -1.7785749 4288085770
7.9872408 -4.1436496 -1.7512128 4288085770
5.3336086 -3.1026053 -1.7773606 4288085770
8.1704941 -4.1324134 -1.7802908 4282675967
5.3316669 -3.0376201 -1.7751424 4288085770
8.1615324 -4.0454364 -1.7770298 4282675967
5.3497467 -2.979609 -1.7758522 4288085770
8.1235294 -3.9465032 -1.7678665 4282675967
5.3698235 -2.9245968 -1.776563 4288085770
8.1075449 -3.8565478 -1.7606288 4288085770
5.4089241 -2.8755589 -1.780203 4288085770
8.1296024 -3.7825389 -1.7592636 4288085770
5.4319954 -2.8195515 -1.7788957 4288085770
8.1486464 -3.7055421 -1.7559023 4288085770
5.4660778 -2.7675285 -1.7795492 4288085770
8.2057199 -3.6425023 -1.7564065 4288085770
5.5031643 -2.7175026 -1.7801955 4288085770
8.2647953 -3.5804601 -1.7569046 4288085770
5.5402374 -2.6664844 -1.778838 4288085770
8.3288641 -3.5184188 -1.7563785 4288085770
5.5883236 -2.6184506 -1.7794381 4288085770
8.3979359 -3.4573731 -1.755832 4288085770
5.6484165 -2.573401 -1.7819908 4288085770
8.4940224 -3.4042964 -1.758183 4288085770
5.698494 -2.5263724 -1.7805846 4288085770
8.5650787 -3.3432593 -1.7546268 4288085770
5.7745972 -2.4853067 -1.7840739 4288085770
8.6621599 -3.2891889 -1.7549696 4288085770
5.8426876 -2.4402585 -1.7845879 4288085770
8.8012686 -3.2460732 -1.759148 4288085770
5.9227829 -2.3991976 -1.7860578 4288085770
8.9073324 -3.1910062 -1.7564437 4288085770
5.9958725 -2.3561449 -1.7865547 4288085770
9.057435 -3.1478853 -1.7595692 4288085770
6.0709496 -2.3110976 -1.7850348 4288085770
9.2265444 -3.1077471 -1.7636132 4288085770
6.1850662 -2.2770004 -1.7893653 4288085770
9.3786306 -3.061635 -1.7637186 4288085770
6.2511196 -2.2289743 -1.7838783 4288085770
9.5647354 -3.0214868 -1.7666808 4288085770
6.350214 -2.187902 -1.7842567 4288085770
9.7198 -2.9723873 -1.7627611 4288085770
6.4562988 -2.1478281 -1.7836047 4288085770
9.9269075 -2.9352241 -1.7656325 4288085770
6.571394 -2.110744 -1.7839198 4288085770
10.144011 -2.8990555 -1.7674589 4288085770
6.6964931 -2.0736485 -1.7851865 4288085770
10.329076 -2.851933 -1.7634014 4288085770
6.8556175 -2.0435109 -1.7913138 4288085770
10.584179 -2.8177371 -1.7650516 4288085770
6.943655 -1.9954815 -1.7817208 4288085770
10.837277 -2.7825456 -1.7657081 4288085770
7.1247902 -1.9673228 -1.7887486 4288085770
11.11037 -2.7463427 -1.7652643 4288085770
7.2718754 -1.9292188 -1.7879057 4288085770
11.377443 -2.7061553 -1.7618357 4288085770
7.4399748 -1.8940911 -1.788972 4288085770
11.674531 -2.6699381 -1.7602763 4288085770
7.6330872 -1.8629375 -1.7919316 4288085770
12.012632 -2.6386828 -1.7605366 4288085770
7.834197 -1.8297791 -1.7948457 4288085770
12.36272 -2.6044264 -1.7587283 4288085770
8.0272856 -1.7936392 -1.793788 4288085770
12.725802 -2.5691633 -1.755854 4288085770
8.2483902 -1.7604685 -1.7956052 4288085770
13.125886 -2.5358715 -1.7528081 4288085770
8.4694824 -1.7243047 -1.7954123 4288085770
13.534953 -2.4995847 -1.7467083 4288085770
8.7305984 -1.6930976 -1.7990438 4288085770
14.019049 -2.4712234 -1.7452744 4288085770
8.9826927 -1.6579099 -1.7987047 4288085770
14.532141 -2.4428439 -1.7427008 4288085770
9.2657967 -1.6246929 -1.8002229 4288085770
15.111238 -2.4164109 -1.7408156 4288085770
9.5318727 -1.585506 -1.7968022 4288085770
15.767349 -2.3949103 -1.7415766 4288085770
9.8079386 -1.5453191 -1.7913299 4288085770
16.434441 -2.3674154 -1.7382634 4288085770
10.106009 -1.5051112 -1.7867512 4288085770
17.234562 -2.349803 -1.7393434 4288085770
10.474112 -1.4708304 -1.7878557 4288085770
10.823186 -1.4315815 -1.7840346 4288085770
11.221275 -1.3932853 -1.7829804 4288085770
11.668362 -1.3549523 -1.7816898 4288085770
12.203492 -1.3215246 -1.787992 4282675967
12.70657 -1.2801571 -1.7844206 4282675967
13.231631 -1.2347798 -1.7787291 4282675967
13.741653 -1.1834412 -1.7650889 4288085770
14.325694 -1.1330338 -1.7550952 4288085770
14.994742 -1.0825558 -1.7466913 4288085770
15.798813 -1.0339584 -1.742643 4288085770
16.694893 -0.9832859 -1.7401435 4288085770
17.594929 -0.92463779 -1.7295971 4288085770
17.47423 1.5772884 -1.7101523 4288085770
16.634293 1.6346571 -1.7090044 4288085770
15.899366 1.691112 -1.7103528 4288085770
15.261459 1.7486515 -1.7152292 4288085770
14.621531 1.7991683 -1.7141397 4288085770
14.092623 1.8547866 -1.7184964 4288085770
13.587713 1.9064186 -1.7217513 4288085770
13.1218 1.9570754 -1.7238214 4288085770
12.680876 2.0057435 -1.7237778 4288085770
12.326986 2.0605021 -1.7312925 4288085770
11.944072 2.1082153 -1.7319722 4288085770
11.595156 2.1549537 -1.7324911 4288085770
11.260235 2.2006981 -1.731946 4288085770
10.943315 2.2444558 -1.731321 4288085770
10.67941 2.2942657 -1.7344186 4288085770
10.417493 2.3410664 -1.7345172 4288085770
10.152569 2.3848581 -1.7326411 4288085770
9.9376631 2.4347036 -1.735502 4288085770
17.191875 3.7840705 -1.7427039 4288085770
9.7117367 2.4785233 -1.7334373 4288085770
16.675949 3.8216741 -1.7400613 4288085770
9.504818 2.5253637 -1.7332702 4288085770
16.258045 3.8733728 -1.7438958 4288085770
9.3058987 2.5702066 -1.7320715 4288085770
15.861134 3.9230797 -1.745636 4288085770
9.1479921 2.6220932 -1.7346501 4288085770
15.451195 3.9657559 -1.7414635 4288085770
8.9720678 2.6679528 -1.7333368 4288085770
15.113279 4.0195055 -1.7429044 4288085770
8.8561687 2.7258799 -1.738691 4288085770
14.83637 4.0823092 -1.7470188 4288085770
8.7032413 2.7737563 -1.7372596 4288085770
14.531439 4.1370754 -1.7462968 4288085770
8.5783291 2.8256631 -1.7386788 4288085770
14.31253 4.2069244 -1.7511061 4288085770
8.4814253 2.8846006 -1.7429378 4288085770
14.130624 4.2858109 -1.758705 4288085770
8.364502 2.9375057 -1.7423145 4288085770
13.964716 4.3637018 -1.76423 4288085770
8.2825994 2.9964542 -1.7465011 4288085770
13.793797 4.4405851 -1.7687827 4288085770
8.204689 3.0574017 -1.7496613 4288085770
13.61987 4.5144558 -1.7703606 4288085770
8.1277733 3.1173465 -1.7518201 4288085770
13.517956 4.6053996 -1.7775306 4288085770
8.0678616 3.1813071 -1.7548826 4288085770
13.374025 4.6842923 -1.7789457 4288085770
7.9919386 3.2402458 -1.7550402 4288085770
13.264095 4.7722158 -1.7821649 4288085770
7.9480276 3.3082211 -1.7590111 4288085770
13.142151 4.8541174 -1.7814633 4288085770
7.894105 3.373179 -1.7600412 4288085770
13.062218 4.9470625 -1.7845198 4288085770
7.8521833 3.4411488 -1.7620028 4288085770
13.008285 5.0510335 -1.7894118 4288085770
7.833272 3.5161459 -1.7668283 4288085770
12.975347 5.1580162 -1.7931919 4288085770
7.7823362 3.5800951 -1.7648474 4288085770
12.931399 5.2629838 -1.795032 4288085770
7.7754116 3.6591015 -1.768599 4288085770
12.892447 5.3669596 -1.7968502 4288085770
7.7544861 3.7320862 -1.7704417 4288085770
12.872491 5.47894 -1.7975502 4288085770
7.7595606 3.8160975 -1.7741196 4288085770
12.894537 5.6059656 -1.8019941 4288085770
7.7566309 3.8960953 -1.7758504 4288085770
12.976594 5.7550516 -1.81107 4288085770
7.7636976 3.9801004 -1.7775187 4288085770
12.990626 5.8800569 -1.8115593 4288085770
7.7777672 4.0671139 -1.7801425 4288085770
13.074673 6.0321369 -1.8186151 4288085770
7.7918272 4.1541204 -1.7807664 4288085770
13.182711 6.1952333 -1.8255157 4288085770
7.8418999 4.2561698 -1.7861629 4288085770
13.293736 6.3613257 -1.8303914 4288085770
7.8469429 4.3411555 -1.7828372 4288085770
13.396751 6.5274048 -1.8333057 4288085770
7.8930016 4.4441924 -1.7852495 4288085770
13.541769 6.711524 -1.8389531 4288085770
7.9930811 4.568295 -1.7953267 4288085770
13.701783 6.9026546 -1.8445034 4288085770
8.0541344 4.6783414 -1.7976416 4288085770
13.86778 7.099782 -1.8480033 4288085770
8.1361895 4.7994108 -1.8018162 4288085770
14.079776 7.3189526 -1.8542031 4288085770
8.2242422 4.921484 -1.8059584 4288085770
14.34677 7.565177 -1.8640414 4288085770
8.3112831 5.0465488 -1.8080946 4288085770
14.616747 7.8173914 -1.8708442 4288085770
8.4253254 5.1846404 -1.8120543 4288085770
14.934719 8.0946522 -1.8803266 4288085770
8.549367 5.3287425 -1.8169444 4288085770
8.6793947 5.4768419 -1.8197914 4288085770
8.8254223 5.6359601 -1.824522 4288085770
8.9924507 5.8050961 -1.8301157 4288085770
9.150465 5.9732151 -1.8327564 4288085770
9.3924952 6.1844282 -1.844839 4288085770
9.6145058 6.3896103 -1.8520393 4288085770
9.8775129 6.6198316 -1.8619531 4288085770
10.142507 6.8530478 -1.8698467 4288085770
10.386476 7.0772238 -1.8708731 4288085770
10.700451 7.3434772 -1.879413 4288085770
11.040409 7.6267452 -1.8867668 4288085770
11.357346 7.8999758 -1.8882672 4288085770
17.136852 -0.47680235 -1.7234396 4288085770
15.908009 -0.49964237 -1.7314309 4288085770
14.696105 -0.51451349 -1.7273118 4288085770
13.72225 -0.53017807 -1.7340511 4288085770
12.833386 -0.54179239 -1.7383672 4288085770
12.05954 -0.55331278 -1.7461301 4288085770
11.365692 -0.5617795 -1.7534972 4288085770
10.680806 -0.56526423 -1.7538033 4288085770
16.957012 -0.90000248 -1.7208453 4288085770
10.050924 -0.56870794 -1.7548442 4288085770
15.718154 -0.88283682 -1.7317399 4288085770
9.4710398 -0.570117 -1.7556376 4288085770
14.504248 -0.86169004 -1.7324998 4288085770
8.9371538 -0.56949472 -1.7562027 4288085770
13.503367 -0.84337616 -1.738246 4288085770
8.4482727 -0.5688386 -1.757551 4288085770
12.676528 -0.83090687 -1.7511714 4288085770
8.015399 -0.56912899 -1.7606277 4288085770
11.842632 -0.81248903 -1.7531126 4288085770
7.589509 -0.56543255 -1.7606612 4288085770
11.092743 -0.79501104 -1.7556535 4288085770
7.2066288 -0.56269932 -1.7624916 4288085770
10.434862 -0.77846241 -1.7597556 4288085770
6.8457451 -0.55895519 -1.7632122 4288085770
9.8109665 -0.76190138 -1.7606943 4288085770
6.4968491 -0.55321026 -1.7618682 4288085770
9.2360649 -0.74431038 -1.7603937 4288085770
6.1699524 -0.54744959 -1.7604185 4288085770
8.692152 -0.72570467 -1.7579406 4288085770
5.87607 -0.54165554 -1.7618099 4288085770
8.2262659 -0.71102762 -1.7601267 4288085770
5.6081963 -0.53683615 -1.7650801 4288085770
7.8224096 -0.69828367 -1.7690217 4288085770
5.3623333 -0.5319953 -1.7702441 4288085770
7.3834877 -0.68061352 -1.7640674 4288085770
5.107439 -0.52518177 -1.7694446 4288085770
7.0096016 -0.66587496 -1.7658111 4288085770
4.8475304 -0.51538277 -1.7656584 4288085770
6.6396961 -0.64914274 -1.7645285 4288085770
4.6426601 -0.50951672 -1.7696218 4288085770
6.3068047 -0.63437843 -1.7650751 4288085770
4.4267731 -0.50167322 -1.7696309 4288085770
5.9929008 -0.61860895 -1.7635268 4288085770
4.2338924 -0.49380589 -1.7715296 4288085770
5.7130184 -0.60480165 -1.7658219 4288085770
4.0490131 -0.48593378 -1.7733896 4288085770
5.4431248 -0.58999443 -1.7660658 4288085770
3.8701305 -0.4780612 -1.7742209 4288085770
5.1882362 -0.57517338 -1.7672371 4288085770
3.703249 -0.4701767 -1.7759944 4288085770
4.9433365 -0.56035328 -1.7663605 4288085770
3.5423679 -0.46128798 -1.7777355 4288085770
4.7194481 -0.54651117 -1.7673864 4288085770
3.3884869 -0.45239401 -1.7794429 4288085770
4.5045567 -0.53266621 -1.7673693 4288085770
3.2375965 -0.44350576 -1.7791359 4288085770
4.3156872 -0.5197854 -1.7722304 4288085770
3.0876999 -0.43361998 -1.7778206 4288085770
4.1267986 -0.50591946 -1.7730882 4288085770
2.9788589 -0.42666674 -1.7873187 4288085770
3.9358959 -0.49206591 -1.7709556 4288085770
2.8109112 -0.4128294 -1.7760756 4288085770
3.7579994 -0.47719574 -1.7707567 4288085770
2.701046 -0.40489149 -1.7815748 4288085770
3.6061211 -0.464293 -1.7744399 4288085770
3.4472332 -0.45040655 -1.7751534 4288085770
3.2943382 -0.43651962 -1.774838 4288085770
3.1544495 -0.42361975 -1.7754635 4288085770
3.0175591 -0.40971756 -1.7760711 4288085770
2.8846664 -0.39581728 -1.7756593 4288085770
2.7627773 -0.38190508 -1.7761948 4288085770
2.6428833 -0.36899567 -1.7757243 4288085770
2.6036968 1.5392869 -1.7668824 4288085770
2.7137909 1.559345 -1.7642783 4288085770
2.8168716 1.5753877 -1.7587227 4288085770
2.9359646 1.5964522 -1.7560714 4288085770
3.0690727 1.6185365 -1.7563493 4288085770
3.2061768 1.6416197 -1.7556041 4288085770
3.3532867 1.6647167 -1.7568109 4288085770
3.4883766 1.6847873 -1.7530864 4288085770
2.6396275 1.4992785 -1.7698497 4288085770
3.6464825 1.7078874 -1.7532403 4288085770
2.7497234 1.5123332 -1.7662714 4288085770
3.8165989 1.7340033 -1.7553253 4288085770
2.8688221 1.5263977 -1.7636459 4288085770
3.9927082 1.7591186 -1.756385 4288085770
2.9869213 1.5394611 -1.761029 4288085770
4.1578026 1.7802124 -1.7535125 4288085770
3.1210346 1.5545456 -1.7613277 4288085770
4.3489113 1.8053374 -1.7545002 4288085770
3.2671547 1.5716455 -1.7635614 4288085770
4.564043 1.8354964 -1.7603538 4288085770
3.39324 1.5817029 -1.757917 4288085770
4.7651367 1.8596168 -1.7582968 4288085770
3.5573692 1.5998218 -1.7620603 4288085770
4.9572182 1.8797169 -1.7522981 4288085770
3.6994667 1.6118968 -1.7583317 4288085770
5.1703148 1.9028447 -1.7501873 4288085770
3.8595791 1.625998 -1.7585088 4288085770
5.4014149 1.9279878 -1.7489823 4288085770
4.0477047 1.6441324 -1.7625365 4288085770
5.6405067 1.9521329 -1.7467427 4288085770
4.250845 1.6642876 -1.7694848 4288085770
5.9046097 1.9803009 -1.7463681 4288085770
4.4219475 1.6753848 -1.7666203 4288085770
6.1937256 2.0104961 -1.7488656 4288085770
4.5730171 1.6814432 -1.7568705 4288085770
6.4948349 2.0406952 -1.7503054 4288085770
4.7721291 1.6945696 -1.7568638 4288085770
6.8029423 2.0688956 -1.750719 4288085770
4.9672298 1.7046819 -1.7538875 4288085770
7.1130257 2.095078 -1.7461303 4288085770
5.1873474 1.7178254 -1.7547797 4288085770
7.4521275 2.1232944 -1.7453947 4288085770
5.4074535 1.7289574 -1.7526795 4288085770
7.8112221 2.1525195 -1.7435594 4288085770
5.6425667 1.741107 -1.7525032 4288085770
8.187315 2.1797516 -1.7406495 4288085770
5.8846741 1.7512569 -1.7513008 4288085770
8.5994129 2.2120144 -1.739548 4288085770
6.160799 1.7654433 -1.75392 4288085770
9.0545235 2.2463155 -1.741232 4288085770
6.4369183 1.7756226 -1.754554 4288085770
9.5376253 2.280628 -1.7407817 4288085770
6.7270317 1.7868068 -1.7541169 4288085770
10.037722 2.3129466 -1.7392567 4288085770
7.0281525 1.7950017 -1.7546382 4288085770
10.573813 2.3462851 -1.7365551 4288085770
7.3252525 1.8001757 -1.7501894 4288085770
11.140903 2.3796432 -1.7337042 4288085770
7.673378 1.8104081 -1.752477 4288085770
11.753993 2.4140303 -1.7306284 4288085770
7.998476 1.8135998 -1.7479013 4288085770
12.41908 2.4494512 -1.7272989 4288085770
8.3605938 1.8178296 -1.7471439 4288085770
13.15418 2.4889276 -1.7266177 4288085770
8.7336979 1.8200562 -1.7433407 4288085770
13.97728 2.5324643 -1.7264985 4288085770
9.1618261 1.8253393 -1.7452621 4288085770
14.807357 2.5689833 -1.7203715 4288085770
9.612958 1.8296373 -1.7470766 4288085770
15.737435 2.6085694 -1.7147524 4288085770
10.08108 1.8309391 -1.7468202 4288085770
16.854549 2.6633129 -1.7181782 4288085770
10.554193 1.8272324 -1.7435584 4288085770
11.0463 1.8215342 -1.7392126 4288085770
11.616434 1.8179078 -1.7404844 4288085770
12.190549 1.8082654 -1.7367591 4288085770
12.78466 1.7956326 -1.7319486 4288085770
13.428773 1.7800307 -1.7269088 4288085770
14.095889 1.7604442 -1.7217733 4288085770
14.839003 1.7389057 -1.7162795 4288085770
15.67314 1.71544 -1.7143555 4288085770
16.499249 1.6819537 -1.7065065 4288085770
17.507397 1.6526101 -1.7067655 4288085770
5.3756294 -4.8482413 -0.87032682 4293729569
5.3406639 -4.8348393 -0.4524377 4293729569
5.3199368 -4.8501363 -0.90960473 4293729569
5.2979851 -4.8417192 -0.49367166 4293729569
5.3142986 -4.8839726 -0.95576173 4293729569
5.273325 -4.8585753 -0.5378564 4293729569
5.2816277 -4.8978419 -0.99797374 4293729569
5.2656727 -4.8844209 -0.58199304 4293729569
5.2880058 -4.9356599 -1.047088 4293729569
5.2600269 -4.9092584 -0.62811631 4293729569
5.2843723 -4.965488 -1.0952203 4293729569
5.2593842 -4.9350924 -0.67421919 4293729569
5.2837372 -4.9943175 -1.1423346 4293729569
5.260746 -4.9619203 -0.72131622 4293729569
5.3091412 -5.0401101 -1.1953874 4293729569
5.2761154 -4.9947381 -0.76936829 4293729569
7.1266384 -6.2707191 -1.5282717 4293729569
6.8146896 -6.0938849 -1.5381113 4293729569
6.5107384 -5.9180493 -1.5469161 4293729569
6.21978 -5.7462144 -1.553673 4293729569
9.3806562 -7.8036094 -1.4531909 4293729569
5.9398193 -5.5783753 -1.5593919 4293729569
8.8886328 -7.494884 -1.4644018 4293729569
5.6678543 -5.4125352 -1.5640795 4293729569
8.4456301 -7.2151256 -1.4764853 4293729569
5.441925 -5.2746511 -1.5726507 4293729569
8.0466452 -6.9603362 -1.4884505 4293729569
5.1789303 -5.1078277 -1.5712911 4293729569
7.6856833 -6.728519 -1.502319 4293729569
4.9730015 -4.9779353 -1.5787956 4293729569
7.3497181 -6.5086913 -1.5141119 4293729569
4.7350121 -4.8231006 -1.5763606 4293729569
7.0277538 -6.2958598 -1.5248635 4293729569
4.5731163 -4.7171655 -1.5877432 4293729569
6.7548141 -6.1119905 -1.5374879 4293729569
4.4172173 -4.6142335 -1.5971081 4293729569
6.4708481 -5.9191461 -1.5451313 4293729569
4.279335 -4.5212798 -1.6094236 4293729569
6.200882 -5.7322974 -1.5517297 4293729569
4.1053829 -4.4013906 -1.6108114 4293729569
5.9449139 -5.5544419 -1.5572945 4293729569
3.9804955 -4.3124347 -1.6210792 4293729569
5.6959305 -5.3785958 -1.5598329 4293729569
3.8315639 -4.2065225 -1.6243989 4293729569
5.4649639 -5.2127328 -1.5633221 4293729569
3.6966362 -4.1075959 -1.6286772 4293729569
5.2089367 -5.0289197 -1.5578638 4293729569
3.5727119 -4.0156674 -1.631929 4293729569
5.0580406 -4.9139752 -1.5701593 4293729569
3.4568005 -3.9277253 -1.637157 4293729569
4.9201508 -4.8060203 -1.5824181 4293729569
3.442049 -3.9056268 -1.6671466 4293729569
4.7632275 -4.6840978 -1.5897157 4293729569
3.4723797 -3.9124532 -1.7100281 4288085770
4.5972767 -4.5551991 -1.5920304 4293729569
3.5157299 -3.927259 -1.755877 4288085770
4.4763756 -4.454246 -1.6012335 4293729569
3.5180016 -3.9121356 -1.7898107 4288085770
4.367485 -4.3602815 -1.611405 4293729569
3.4391193 -3.8401561 -1.7989203 4282675967
4.238554 -4.2533526 -1.615624 4293729569
3.3261642 -3.7452435 -1.7961073 4288085770
4.1366558 -4.1613908 -1.6237692 4293729569
3.223217 -3.6563191 -1.7942686 4288085770
4.0357513 -4.0704312 -1.630913 4293729569
3.1162548 -3.5634093 -1.7894341 4288085770
3.9178066 -3.9665103 -1.6310899 4293729569
3.0353298 -3.4874606 -1.7905383 4288085770
3.9230537 -3.941401 -1.6609715 4293729569
2.9423733 -3.4025445 -1.7856662 4288085770
3.9563427 -3.9322457 -1.697778 4288085770
2.8674469 -3.3285947 -1.7857487 4288085770
4.0226746 -3.9410501 -1.7404933 4288085770
2.8065376 -3.2636275 -1.7887977 4288085770
4.0739822 -3.9388728 -1.7802396 4282675967
2.7396107 -3.1946783 -1.7878605 4288085770
4.0451508 -3.8868327 -1.797183 4282675967
2.6886997 -3.1337004 -1.791876 4288085770
3.9411755 -3.786921 -1.7923073 4282675967
2.6337814 -3.0707402 -1.7919034 4288085770
3.8432102 -3.6910071 -1.7874177 4288085770
3.7352161 -3.590117 -1.7775573 4288085770
3.6592751 -3.5071769 -1.7756104 4288085770
3.6123791 -3.4421935 -1.7805916 4288085770
3.5604591 -3.3732276 -1.7815816 4288085770
3.519558 -3.3102441 -1.7855413 4288085770
3.4776459 -3.2462673 -1.7875018 4288085770
3.4257126 -3.1773129 -1.7854918 4288085770
3.377779 -3.1093564 -1.7834661 4288085770
3.3468704 -3.051374 -1.7853962 4288085770
3.3219643 -2.9963875 -1.7873087 4288085770
3.2960529 -2.9404058 -1.7882218 4288085770
3.2601185 -2.8794456 -1.7851648 4288085770
3.241209 -2.8264589 -1.7860554 4288085770
3.2313118 -2.77846 -1.7889218 4288085770
3.2344284 -2.7374411 -1.7947518 4288085770
3.2074852 -2.6794829 -1.7896622 4288085770
3.20158 -2.6334891 -1.7905165 4288085770
3.1976757 -2.5874939 -1.7913612 4288085770
3.1957684 -2.5435009 -1.7912039 4288085770
3.1988697 -2.5004973 -1.793026 4288085770
3.1979542 -2.4565082 -1.7918636 4288085770
3.2030411 -2.4145155 -1.7906801 4288085770
3.211134 -2.3735166 -1.7904855 4288085770
3.2302456 -2.3375001 -1.7932566 4288085770
3.241333 -2.2965031 -1.7920476 4288085770
3.253418 -2.2575097 -1.7898412 4288085770
3.283535 -2.2244821 -1.7935705 4288085770
3.300621 -2.1874862 -1.7913476 4288085770
3.3227119 -2.1504827 -1.7901003 4288085770
3.3518066 -2.1164713 -1.7898306 4288085770
3.3819008 -2.082459 -1.7895559 4288085770
3.4159985 -2.0504446 -1.7892697 4288085770
3.4500999 -2.0174303 -1.7889794 4288085770
3.503212 -1.9903932 -1.7916203 4288085770
3.548317 -1.9603682 -1.7922882 4288085770
3.5944176 -1.930347 -1.7919513 4288085770
3.6525345 -1.9043069 -1.7945716 4288085770
3.7136421 -1.8772693 -1.7961735 4288085770
2.6195278 -1.5399146 -1.8041732 4288085770
3.7757549 -1.8512306 -1.7977742 4288085770
2.661623 -1.5138998 -1.8028708 4288085770
3.8448734 -1.8271837 -1.8003489 4288085770
2.709734 -1.4898729 -1.8035467 4288085770
3.9149799 -1.8011441 -1.8009109 4288085770
2.7678509 -1.4668331 -1.8061782 4288085770
3.9840851 -1.7751055 -1.8014778 4288085770
2.8299751 -1.445786 -1.8097979 4288085770
4.0551872 -1.7490692 -1.801035 4288085770
2.8880825 -1.4227533 -1.8104292 4288085770
4.1352959 -1.7250233 -1.8015563 4288085770
2.9702301 -1.4056797 -1.8179673 4288085770
4.2063866 -1.6979947 -1.7991097 4288085770
3.0253277 -1.3816562 -1.8166095 4288085770
4.2794762 -1.670969 -1.7956532 4288085770
3.0944366 -1.3596177 -1.8171912 4288085770
4.3575649 -1.6439366 -1.7931727 4288085770
3.1585407 -1.336586 -1.8167934 4288085770
4.4626846 -1.6238685 -1.795588 4288085770
3.2266407 -1.3135548 -1.8153764 4288085770
4.5657978 -1.6018057 -1.7970054 4288085770
3.2997494 -1.2915134 -1.8159388 4288085770
4.658886 -1.5767674 -1.7934598 4288085770
3.3788586 -1.2704682 -1.816476 4288085770
4.782011 -1.5576854 -1.7967919 4288085770
3.4529533 -1.247438 -1.8140299 4288085770
4.9001217 -1.5366182 -1.7971405 4288085770
3.552084 -1.2293653 -1.8184816 4288085770
5.0282364 -1.5165401 -1.7984445 4288085770
3.6632195 -1.2132831 -1.8238828 4282675967
5.1403179 -1.4924951 -1.7938106 4288085770
3.7112617 -1.1833062 -1.8115358 4288085770
5.2884445 -1.4743977 -1.7970253 4288085770
3.7923374 -1.1592779 -1.806054 4288085770
5.4545727 -1.4592814 -1.8011663 4288085770
3.8994541 -1.1392121 -1.8074588 4288085770
5.587656 -1.4342237 -1.7964265 4288085770
4.0145683 -1.120142 -1.8088288 4288085770
5.7367554 -1.4131451 -1.7946242 4288085770
4.1316833 -1.1010714 -1.8101891 4288085770
5.9238815 -1.3970246 -1.7976574 4288085770
4.2247601 -1.0770445 -1.8036463 4288085770
6.093977 -1.3769379 -1.7947572 4288085770
4.3398533 -1.0559902 -1.8010086 4288085770
6.2961025 -1.3608093 -1.7977175 4288085770
4.4679585 -1.0359201 -1.8003117 4288085770
6.4511604 -1.3347588 -1.7878671 4288085770
4.6140766 -1.0188274 -1.802539 4288085770
6.6692734 -1.3186278 -1.7887498 4288085770
4.7471714 -0.99776316 -1.799814 4288085770
6.8983822 -1.3014941 -1.7885753 4288085770
4.9223118 -0.98263836 -1.8059086 4288085770
7.145504 -1.2853427 -1.7903175 4288085770
5.0493774 -0.95860004 -1.7972009 4288085770
7.3926001 -1.2672105 -1.7870522 4288085770
5.178442 -0.9345603 -1.7884836 4288085770
7.6797256 -1.2530322 -1.7896082 4288085770
5.3215103 -0.91150808 -1.7807022 4288085770
7.9498148 -1.2338905 -1.7852274 4288085770
5.5226421 -0.89537621 -1.7846669 4288085770
8.2619247 -1.2177081 -1.7846547 4288085770
5.7017326 -0.87428856 -1.7807187 4288085770
8.6040421 -1.203505 -1.7849444 4288085770
5.9018307 -0.85418034 -1.7786726 4288085770
8.960145 -1.1873007 -1.7831584 4288085770
6.1029167 -0.83308268 -1.7736179 4288085770
9.3502522 -1.1720777 -1.7812116 4288085770
6.3400249 -0.81494474 -1.7734003 4288085770
9.7663622 -1.1568351 -1.7801391 4288085770
6.5951405 -0.79679298 -1.7740955 4288085770
10.220466 -1.1415744 -1.7778822 4288085770
6.8582458 -0.77664471 -1.7727442 4288085770
10.725586 -1.1282716 -1.7783862 4288085770
7.1473522 -0.75847673 -1.7722745 4288085770
11.236674 -1.1119881 -1.7728494 4288085770
7.4514618 -0.73829985 -1.7717245 4288085770
11.806763 -1.0956702 -1.7670269 4288085770
7.7685604 -0.71812344 -1.7691114 4288085770
12.445865 -1.0813007 -1.7638777 4288085770
8.0916376 -0.6959548 -1.7634618 4288085770
13.120948 -1.0659223 -1.7575504 4288085770
8.4617348 -0.67474747 -1.760588 4288085770
13.867026 -1.049509 -1.7488754 4288085770
8.8728418 -0.65450811 -1.7595196 4288085770
14.673086 -1.0320725 -1.7369057 4288085770
9.3029385 -0.6332655 -1.756355 4288085770
15.642187 -1.0205097 -1.7321696 4288085770
9.799058 -0.61296463 -1.7578747 4288085770
16.734291 -1.0098705 -1.7278415 4288085770
10.331168 -0.59165096 -1.7572159 4288085770
10.912282 -0.57030439 -1.7573197 4288085770
11.532375 -0.54595089 -1.7532231 4288085770
12.227471 -0.5215497 -1.749763 4288085770
12.975555 -0.49412537 -1.7440346 4288085770
13.797628 -0.46566582 -1.7359436 4288085770
14.768724 -0.43709946 -1.7321308 4288085770
15.958872 -0.40936279 -1.7382606 4288085770
17.245972 -0.37760353 -1.7349052 4288085770
17.168047 -0.092579365 -1.7362852 4288085770
15.835205 -0.099230289 -1.7468867 4288085770
14.429229 -0.1010251 -1.7318285 4288085770
13.404375 -0.10352659 -1.7398934 4288085770
12.432482 -0.1040349 -1.739689 4288085770
11.60062 -0.10344505 -1.7457895 4288085770
10.858743 -0.1018219 -1.7484416 4288085770
17.410797 -0.1975708 -1.7215137 4288085770
10.153843 -0.099198341 -1.7469071 4288085770
16.109991 -0.18616629 -1.7408828 4288085770
9.5369625 -0.095512867 -1.7489343 4288085770
14.703034 -0.17093945 -1.7307591 4288085770
8.945056 -0.090837002 -1.7458341 4288085770
13.571135 -0.15752649 -1.7312862 4288085770
8.4381742 -0.086097717 -1.7473141 4288085770
12.60926 -0.14500761 -1.7359786 4288085770
7.9763021 -0.080327511 -1.7505679 4288085770
11.788397 -0.13340712 -1.7429792 4288085770
7.5444174 -0.074550629 -1.7516738 4288085770
11.025514 -0.1207943 -1.7456896 4288085770
7.1535378 -0.068749905 -1.7535772 4288085770
10.32162 -0.10816002 -1.7461089 4288085770
6.7736435 -0.061955452 -1.7524225 4288085770
9.6607094 -0.095517635 -1.7433159 4288085770
6.4437714 -0.0551157 -1.7560208 4288085770
9.0898199 -0.082813263 -1.7440788 4288085770
6.1208801 -0.048289299 -1.7555846 4288085770
8.5769348 -0.07107687 -1.7455595 4288085770
5.8139839 -0.040458679 -1.7540654 4288085770
8.1070528 -0.059314728 -1.747828 4288085770
5.5230865 -0.032619953 -1.7524674 4288085770
7.6801691 -0.048530102 -1.7498885 4288085770
5.2752171 -0.024735451 -1.7566568 4288085770
7.2612705 -0.035754681 -1.7489014 4288085770
5.0223236 -0.016878128 -1.754871 4288085770
6.8963928 -0.023936272 -1.7516515 4288085770
4.7964439 -0.0089898109 -1.7569519 4288085770
6.5545044 -0.013114452 -1.7522926 4288085770
4.5885715 -9.0122223e-05 -1.7599397 4288085770
6.231617 -0.0012836456 -1.7528355 4288085770
4.3856926 0.0088090897 -1.761903 4288085770
5.9237194 0.010547638 -1.7513046 4288085770
4.1908092 0.017707348 -1.7628268 4288085770
5.6328182 0.022386074 -1.7496898 4288085770
4.0019169 0.026600361 -1.7617211 4288085770
5.3699322 0.034246922 -1.7499367 4288085770
3.8250294 0.035504341 -1.761556 4288085770
5.1300526 0.046127796 -1.75207 4288085770
3.6871777 0.04445982 -1.7691982 4288085770
4.8971596 0.056999207 -1.7511729 4288085770
3.5092659 0.05434227 -1.7640342 4288085770
4.6862869 0.068898678 -1.7541631 4288085770
3.3603878 0.063268185 -1.7657307 4288085770
4.4944096 0.080806732 -1.7570595 4288085770
3.232523 0.073216915 -1.7703195 4288085770
4.2865047 0.092682838 -1.7540349 4288085770
3.0986385 0.082146168 -1.7709422 4288085770
4.11763 0.10360289 -1.7568219 4288085770
2.9767704 0.092092991 -1.7745016 4288085770
3.9497528 0.11551952 -1.7585999 4288085770
2.8478737 0.10201597 -1.7730953 4288085770
3.7648373 0.12739801 -1.7534618 4288085770
2.7309933 0.11295795 -1.7746257 4288085770
3.6389885 0.13936472 -1.7620322 4288085770
2.6211128 0.12290335 -1.7761257 4288085770
3.493103 0.1492877 -1.7627099 4288085770
3.350214 0.16120815 -1.7623644 4288085770
3.2193336 0.17314243 -1.7639596 4288085770
3.0924473 0.18507624 -1.7645352 4288085770
2.9785709 0.19702291 -1.7670465 4288085770
2.853672 0.20894337 -1.7646121 4288085770
2.7427864 0.22088432 -1.7651086 4288085770
2.6318932 0.23382092 -1.7646008 4288085770
2.6352596 2.2922249 -1.7547029 4288085770
2.7343426 2.322247 -1.7500826 4288085770
2.8594608 2.3613155 -1.7532948 4288085770
2.9755573 2.3963587 -1.7515688 4288085770
3.096653 2.4314036 -1.749818 4288085770
