# .PCD v0.7 - Point Cloud Data file format
VERSION 0.7
FIELDS x y z rgb
SIZE 4 4 4 4
TYPE F F F U
COUNT 1 1 1 1
WIDTH 1121
HEIGHT 1
VIEWPOINT 0 0 0 1 0 0 0
POINTS 1121
DATA ascii
4.4284477 -1.6180184 -1.8090619 4288085770
5.7317276 -1.9480393 -1.7907238 4288085770
4.4886131 -1.5941634 -1.809992 4288085770
5.8178978 -1.9232447 -1.7926254 4288085770
4.5417938 -1.5672927 -1.807929 4288085770
5.8990746 -1.8964388 -1.791532 4288085770
4.6059647 -1.5424469 -1.8088548 4288085770
5.9912453 -1.8716578 -1.7924269 4288085770
4.6661415 -1.516592 -1.8067844 4288085770
6.091423 -1.8468959 -1.7933134 4288085770
4.7363052 -1.4927604 -1.8067036 4288085770
6.1905899 -1.8231316 -1.7932007 4288085770
4.8114777 -1.4709401 -1.8076173 4288085770
6.3007622 -1.8003926 -1.7940766 4288085770
4.8866463 -1.4471202 -1.8065311 4288085770
6.429924 -1.781698 -1.7989323 4288085770
4.9658165 -1.4243093 -1.8064405 4288085770
6.5640907 -1.7620144 -1.8017828 4288085770
5.0389786 -1.3984847 -1.8033559 4288085770
6.6892548 -1.7393098 -1.8026422 4288085770
5.137146 -1.3787179 -1.8062454 4288085770
6.8194237 -1.7166176 -1.8024961 4288085770
5.2313156 -1.3569419 -1.8061385 4288085770
6.9605904 -1.6949506 -1.8023381 4288085770
5.3234749 -1.3341615 -1.8040334 4288085770
7.1127548 -1.6743095 -1.8031685 4288085770
5.4356422 -1.3144269 -1.8069074 4288085770
7.2619209 -1.6516612 -1.8020014 4288085770
5.5338097 -1.2906604 -1.8037957 4288085770
7.4270782 -1.6320503 -1.8018174 4288085770
5.6349716 -1.2679009 -1.8016807 4288085770
7.5872498 -1.608428 -1.7986381 4288085770
5.75214 -1.2471783 -1.8015487 4288085770
7.7604141 -1.5868354 -1.7964448 4288085770
5.8872986 -1.2274976 -1.8033974 4288085770
7.947567 -1.5662661 -1.7952355 4288085770
5.9974594 -1.2037499 -1.7982718 4288085770
8.1657257 -1.5487778 -1.7969962 4288085770
6.1256256 -1.1820529 -1.796129 4288085770
8.3698883 -1.5272577 -1.793771 4288085770
6.2737846 -1.1614022 -1.7959648 4288085770
8.5870476 -1.506767 -1.790532 4288085770
6.4179497 -1.1397424 -1.7938046 4288085770
8.8312073 -1.4883399 -1.7902639 4288085770
6.5591164 -1.1170759 -1.7896472 4288085770
9.0963593 -1.4709606 -1.7889733 4288085770
6.7362747 -1.0984921 -1.7914517 4288085770
9.3815193 -1.4536281 -1.789661 4288085770
6.8944359 -1.0758655 -1.7862757 4288085770
9.6176796 -1.4281826 -1.7783998 4288085770
7.0775986 -1.0552962 -1.785073 4288085770
9.9178352 -1.4088855 -1.7740704 4288085770
7.2757607 -1.0347617 -1.7848542 4288085770
10.233994 -1.3886254 -1.7697238 4288085770
7.4659271 -1.0122092 -1.7796432 4288085770
10.601143 -1.3724833 -1.7683221 4288085770
7.7130852 -0.99478817 -1.7843717 4288085770
10.991295 -1.3573949 -1.7668957 4288085770
7.936245 -0.97431183 -1.7811251 4288085770
11.419445 -1.3413947 -1.7654279 4288085770
8.1884041 -0.95390296 -1.7798471 4288085770
11.836601 -1.3213694 -1.7569709 4288085770
8.4285736 -0.92946649 -1.7735814 4288085770
12.352749 -1.3085737 -1.7564079 4288085770
8.7097321 -0.90912533 -1.7712717 4288085770
12.895897 -1.2938406 -1.7538152 4288085770
9.0148964 -0.88883972 -1.7709357 4288085770
13.47504 -1.2781916 -1.7481829 4288085770
9.3230629 -0.86556101 -1.7655959 4288085770
14.127186 -1.2647116 -1.7454715 4288085770
9.6912231 -0.84642172 -1.7671916 4288085770
14.866333 -1.2524338 -1.7436658 4288085770
10.043392 -0.82224536 -1.7608035 4288085770
15.627476 -1.2362077 -1.7348353 4288085770
10.438553 -0.7991693 -1.7563688 4288085770
16.470623 -1.2201722 -1.7249155 4288085770
10.880722 -0.7762022 -1.7538829 4288085770
17.415768 -1.2053738 -1.7158847 4288085770
11.385883 -0.75538158 -1.7553288 4288085770
18.537903 -1.1939862 -1.7096623 4288085770
11.931053 -0.73265314 -1.7547306 4288085770
12.523232 -0.70903468 -1.7540808 4288085770
13.224403 -0.68666911 -1.7583127 4288085770
13.887577 -0.65921569 -1.7515841 4288085770
14.628754 -0.63094401 -1.7437702 4288085770
15.480934 -0.60093045 -1.7378353 4288085770
16.56012 -0.57444334 -1.7426537 4288085770
17.573307 -0.53880453 -1.7285413 4288085770
18.940506 -0.50698686 -1.7330443 4288085770
18.146038 -0.24868369 -1.7313534 4288085770
16.714134 -0.25326991 -1.7283052 4288085770
15.613239 -0.25864482 -1.7388057 4288085770
14.610355 -0.26125383 -1.7471722 4288085770
13.730473 -0.26315665 -1.7543712 4288085770
12.89859 -0.26217461 -1.7565045 4288085770
12.075699 -0.25821543 -1.7486255 4288085770
18.414398 -0.39937711 -1.7149704 4288085770
11.357811 -0.25450683 -1.7436035 4288085770
17.019554 -0.38304949 -1.7208712 4288085770
10.788944 -0.25115204 -1.7503779 4288085770
15.867718 -0.36830091 -1.7324405 4288085770
10.255066 -0.24788141 -1.7551048 4288085770
14.801861 -0.35375857 -1.7368927 4288085770
9.7631912 -0.24271083 -1.7577741 4288085770
13.89502 -0.33959603 -1.7461278 4288085770
9.2973175 -0.23760319 -1.7594081 4288085770
13.051167 -0.32458448 -1.749277 4288085770
8.8724442 -0.23259306 -1.7609864 4288085770
12.256313 -0.30969071 -1.7473596 4288085770
8.4755745 -0.22564983 -1.7615262 4288085770
11.552456 -0.29501438 -1.7453179 4288085770
8.1217041 -0.21980906 -1.7650074 4288085770
10.937603 -0.28154969 -1.748155 4288085770
7.8118439 -0.2140727 -1.7724284 4288085770
10.362747 -0.26818132 -1.7479376 4288085770
7.4549713 -0.20522594 -1.7659137 4288085770
9.8718948 -0.25501275 -1.7536051 4288085770
7.1771049 -0.19856644 -1.7712913 4288085770
9.40205 -0.24189448 -1.7552443 4288085770
6.8972397 -0.19090259 -1.7726715 4288085770
8.972187 -0.22987223 -1.7568289 4288085770
6.6473694 -0.18331003 -1.7750107 4288085770
8.5783386 -0.2169354 -1.7593645 4288085770
6.3985023 -0.17472053 -1.7743485 4288085770
8.2324829 -0.20511317 -1.7648344 4288085770
6.1506386 -0.1651336 -1.771685 4288085770
7.8976288 -0.19231772 -1.7662894 4288085770
5.9437752 -0.1576438 -1.7749658 4288085770
7.577774 -0.17955804 -1.7677239 4288085770
5.7399101 -0.14916146 -1.7762423 4288085770
7.282917 -0.167858 -1.7691244 4288085770
5.5340385 -0.13967478 -1.7745214 4288085770
6.9990616 -0.15518439 -1.7695099 4288085770
5.3621788 -0.13026786 -1.778754 4288085770
6.7301979 -0.14254642 -1.7698749 4288085770
5.1703072 -0.1208148 -1.7750143 4288085770
6.4873428 -0.12997079 -1.7702044 4288085770
5.02145 -0.11246312 -1.7802157 4288085770
6.2584839 -0.11842871 -1.7715149 4288085770
4.8535843 -0.10206711 -1.778443 4288085770
6.034626 -0.10589874 -1.7698184 4288085770
4.7027206 -0.092711687 -1.777647 4288085770
5.8287697 -0.093411326 -1.7710973 4288085770
4.5598564 -0.083375096 -1.7788403 4288085770
5.6469193 -0.080980897 -1.7743434 4288085770
4.4400024 -0.07409215 -1.785002 4288085770
5.462059 -0.069543719 -1.7755939 4288085770
4.3051376 -0.063774943 -1.7851841 4288085770
5.2641907 -0.057076573 -1.768862 4288085770
4.1752777 -0.053469658 -1.7833595 4288085770
5.118351 -0.044731736 -1.7750589 4288085770
4.9724922 -0.032387733 -1.7782559 4288085770
4.8106308 -0.02000618 -1.7744749 4288085770
4.6537666 -0.0086365938 -1.7706873 4288085770
4.542923 0.0036249161 -1.7778362 4288085770
4.4070625 0.015944481 -1.7760197 4288085770
4.3022156 0.028191447 -1.7821605 4288085770
4.1813583 0.040475607 -1.7823235 4288085770
4.1470757 2.1409543 -1.768778 4288085770
4.2532501 2.1686914 -1.7646204 4288085770
4.3864594 2.2053647 -1.7674229 4288085770
4.527668 2.2440188 -1.7712135 4288085770
4.6448479 2.271729 -1.7660402 4288085770
4.7820435 2.3053918 -1.7648373 4288085770
4.9292412 2.3410306 -1.7656198 4288085770
5.0834465 2.3776522 -1.7653919 4288085770
4.1517601 2.0669019 -1.7747691 4288085770
5.2396507 2.413269 -1.7651615 4288085770
4.2609253 2.0876319 -1.7716084 4288085770
5.4088631 2.4518547 -1.7669117 4288085770
4.3870964 2.1123216 -1.7724228 4288085770
5.5630417 2.4834752 -1.7616848 4288085770
4.5152702 2.1360061 -1.7722344 4288085770
5.7412529 2.5210385 -1.7614224 4288085770
4.6464424 2.159683 -1.7710418 4288085770
5.919445 2.5566015 -1.7591604 4288085770
4.7866211 2.1853387 -1.7718359 4288085770
6.1046524 2.5931475 -1.7568879 4288085770
4.928791 2.2089894 -1.7716274 4288085770
6.3178749 2.6366267 -1.7595745 4288085770
5.0709572 2.2316396 -1.7704191 4288085770
6.5391006 2.6810861 -1.7612493 4288085770
5.2231331 2.255266 -1.7701963 4288085770
6.7643166 2.7225356 -1.7609189 4288085770
5.3823051 2.2798753 -1.7699635 4288085770
6.9945297 2.7649724 -1.760581 4288085770
5.5254517 2.2965221 -1.7637547 4288085770
7.2367516 2.8073807 -1.7602261 4288085770
5.7086372 2.325074 -1.7674866 4288085770
7.5069847 2.8567216 -1.76183 4288085770
5.8788071 2.3466558 -1.7652382 4288085770
7.7812157 2.9030523 -1.7634286 4288085770
6.0759964 2.3751738 -1.7689501 4288085770
8.0684509 2.9513514 -1.7640079 4288085770
6.2551613 2.3957341 -1.7666889 4288085770
8.3696823 2.9996164 -1.7645675 4288085770
6.4343109 2.4132938 -1.7624284 4288085770
8.691925 3.0508306 -1.7660961 4288085770
6.6334763 2.4348056 -1.7611384 4288085770
9.0571976 3.1119418 -1.7725617 4288085770
6.8556557 2.4612622 -1.7628149 4288085770
9.4334641 3.1710255 -1.7760118 4288085770
7.0538063 2.4767759 -1.7585273 4288085770
9.8567581 3.2389965 -1.7843931 4288085770
7.29599 2.5041838 -1.7611748 4288085770
10.348099 3.322804 -1.8006743 4288085770
7.5041313 2.517673 -1.7558731 4288085770
10.925495 3.4234049 -1.8248297 4288085770
7.7492981 2.539073 -1.7555172 4288085770
11.456825 3.5041142 -1.8360538 4288085770
8.0014648 2.5594566 -1.7551515 4288085770
11.836006 3.5391867 -1.8225031 4288085770
8.2566185 2.5758319 -1.7527821 4288085770
12.429344 3.6247461 -1.8346378 4288085770
8.5297737 2.5951638 -1.7513863 4288085770
13.033672 3.7062774 -1.8427571 4288085770
8.8289528 2.6174338 -1.7539529 4288085770
13.557915 3.7599998 -1.8369956 4288085770
9.1351089 2.6366863 -1.75451 4288085770
13.971039 3.7789869 -1.8123989 4288085770
9.4682846 2.6598735 -1.7570276 4288085770
14.529263 3.8296258 -1.8035889 4288085770
9.8244667 2.6850052 -1.7625121 4288085770
15.181538 3.894038 -1.8006421 4288085770
10.199646 2.7080908 -1.7669693 4288085770
16.06094 4.0019035 -1.8153628 4288085770
10.601833 2.7331109 -1.7733878 4288085770
16.957314 4.1037269 -1.8260599 4288085770
10.98299 2.7491813 -1.7748377 4288085770
18.387016 4.309267 -1.8809762 4282675967
11.472206 2.781992 -1.78813 4288085770
11.991425 2.8147297 -1.8013796 4288085770
12.458584 2.8305917 -1.8057061 4288085770
12.861687 2.8286061 -1.7991275 4288085770
13.339817 2.83444 -1.7984399 4288085770
13.753895 2.823427 -1.7888469 4288085770
14.133926 2.7994947 -1.772305 4288085770
14.549969 2.7764759 -1.7587112 4288085770
15.083065 2.7691755 -1.7559471 4288085770
15.697178 2.7656789 -1.7580661 4288085770
16.358292 2.762069 -1.762118 4288085770
17.239487 2.781929 -1.7838504 4288085770
18.070625 2.7829082 -1.796658 4288085770
19.045803 2.7935395 -1.8192573 4288085770
17.175117 -5.6368742 -0.076448694 4293729569
17.154427 -5.6636162 -0.99048388 4293729569
17.137993 -5.7577839 -0.11952639 4293729569
17.110321 -5.7795067 -1.0335705 4293729569
15.727505 -5.9063358 -0.33758509 4293729569
15.589825 -5.8898058 -1.18378 4293729569
15.553547 -5.9629087 -0.38484699 4293729569
15.51778 -5.9826279 -1.2309027 4293729569
15.517475 -6.0678167 -0.43592036 4293729569
15.532661 -6.1086588 -1.2869072 4293729569
17.940639 -7.1374855 -1.5326527 4293729569
17.210114 -6.9917097 -1.5396744 4293729569
16.434647 -6.8158264 -1.5377544 4293729569
15.600254 -6.6068001 -1.5289128 4293729569
14.992691 -6.4763222 -1.5357606 4293729569
14.407131 -6.3448992 -1.5415767 4293729569
13.868542 -6.2255907 -1.5493277 4293729569
17.365063 -7.7712612 -1.0136125 4293729569
13.329971 -6.0982828 -1.554077 4293729569
17.083256 -7.7735662 -1.0720189 4293729569
12.832382 -5.9810734 -1.5617695 4293729569
16.788471 -7.7658405 -1.1314421 4293729569
12.378769 -5.8749704 -1.5714008 4293729569
16.501694 -7.7551355 -1.1888531 4293729569
11.953136 -5.7749357 -1.5809933 4293729569
16.249893 -7.7545166 -1.2482158 4293729569
11.508537 -5.6588564 -1.5866097 4293729569
16.018078 -7.7609425 -1.3095514 4293729569
11.038971 -5.5267162 -1.5862586 4293729569
10.638355 -5.4187393 -1.5908091 4293729569
10.281704 -5.3258715 -1.5993003 4293729569
15.401611 -7.7914095 -1.4974339 4293729569
9.9680252 -5.2481079 -1.6127329 4293729569
14.58445 -7.4984169 -1.5025458 4293729569
9.5914192 -5.1351938 -1.6142491 4293729569
13.884178 -7.2507105 -1.5124991 4293729569
9.2767601 -5.0474272 -1.6226815 4293729569
13.257847 -7.0291843 -1.5233518 4293729569
8.9840889 -4.9647169 -1.6320833 4293729569
12.630531 -6.7986546 -1.5302042 4293729569
8.6804314 -4.8729792 -1.6374993 4293729569
12.050175 -6.5842409 -1.5379927 4293729569
8.3957634 -4.7862883 -1.6438893 4293729569
11.52877 -6.3909721 -1.5457009 4293729569
8.1091042 -4.6935921 -1.6472808 4293729569
10.996387 -6.1856756 -1.5484228 4293729569
7.9053726 -4.6400957 -1.6645609 4293729569
10.540936 -6.0125666 -1.5570406 4293729569
7.7665787 -4.6187553 -1.6917542 4293729569
9.3163261 -5.4276037 -1.4556829 4293729569
7.6717453 -4.6175213 -1.7258885 4293729569
9.2254944 -5.4333763 -1.5028123 4293729569
7.5709267 -4.6112728 -1.7600302 4288085770
9.1746292 -5.4572449 -1.5558876 4293729569
7.4910889 -4.6140738 -1.7971436 4288085770
9.1117783 -5.4730844 -1.6079787 4293729569
7.3433266 -4.577713 -1.820347 4288085770
8.7502594 -5.3242054 -1.6114668 4293729569
7.1166458 -4.4941635 -1.8246546 4288085770
8.4436913 -5.19946 -1.6198808 4293729569
6.8829803 -4.4045973 -1.8249712 4288085770
8.181076 -5.0958204 -1.6342359 4293729569
6.6413307 -4.3070126 -1.8222978 4288085770
7.8875008 -4.9711065 -1.6406314 4293729569
6.4256592 -4.219491 -1.8225889 4288085770
7.6388855 -4.8675022 -1.6509665 4293729569
6.2199783 -4.1349936 -1.8228664 4288085770
7.3842773 -4.7568827 -1.6583089 4293729569
6.0202942 -4.0515108 -1.8231356 4288085770
7.1296768 -4.6432648 -1.6626508 4293729569
5.8116264 -3.9590075 -1.817416 4288085770
6.974968 -4.5838871 -1.6838596 4293729569
5.6329231 -3.8825758 -1.8186566 4288085770
6.9261475 -4.5817623 -1.7269272 4293729569
5.4612236 -3.8061612 -1.8178869 4288085770
6.8853149 -4.5846577 -1.7709842 4288085770
5.2945251 -3.7307584 -1.8181103 4288085770
6.8335075 -4.577527 -1.8120551 4288085770
5.1388168 -3.6593831 -1.8193188 4288085770
6.6798134 -4.5091515 -1.8282605 4288085770
4.9880981 -3.5890195 -1.8195204 4288085770
6.4302254 -4.3825493 -1.821593 4288085770
4.8383865 -3.5166595 -1.8177201 4288085770
6.2186012 -4.2740364 -1.8198744 4288085770
4.6986656 -3.4493229 -1.8179064 4288085770
6.0269585 -4.1755733 -1.821129 4288085770
4.5609436 -3.3799922 -1.8160895 4288085770
5.8363152 -4.0751133 -1.8183817 4288085770
4.4412079 -3.3197038 -1.8182485 4288085770
5.6556587 -3.9776781 -1.8166207 4288085770
4.3154831 -3.253402 -1.8164148 4288085770
5.5029831 -3.8953087 -1.8198223 4288085770
4.2057419 -3.1961381 -1.8185601 4288085770
5.3403168 -3.8049161 -1.8190371 4288085770
5.1826439 -3.7155359 -1.8172445 4288085770
5.0369606 -3.6321857 -1.8154359 4288085770
4.8922768 -3.5478375 -1.812626 4288085770
4.7735672 -3.4765522 -1.8147811 4288085770
4.6428719 -3.3972385 -1.8119519 4288085770
4.5311546 -3.3279703 -1.8120972 4288085770
4.4044571 -3.2486665 -1.8072623 4288085770
4.3207169 -3.1924655 -1.8133698 4288085770
4.2319794 -3.1332529 -1.816484 4288085770
4.1402473 -3.0710332 -1.8166019 4288085770
4.1392136 -0.93338919 -1.790899 4288085770
4.2093658 -0.91656756 -1.7867857 4288085770
4.2905235 -0.90077138 -1.7876559 4288085770
4.3616714 -0.88295245 -1.7825408 4288085770
4.4618225 -0.8702023 -1.7853829 4288085770
4.5609741 -0.85545087 -1.7862258 4288085770
4.6641235 -0.84170866 -1.787063 4288085770
4.7502747 -0.82392669 -1.7819246 4288085770
4.8534241 -0.8091855 -1.7797612 4288085770
4.9725761 -0.7954824 -1.7815735 4288085770
5.088726 -0.78077292 -1.7803904 4288085770
4.109169 -0.63036942 -1.7938378 4288085770
5.2228737 -0.7681067 -1.7821798 4288085770
4.1953163 -0.615587 -1.7907004 4288085770
5.3500214 -0.75442386 -1.7809798 4288085770
4.2824554 -0.60080695 -1.7865613 4288085770
5.4901657 -0.74077344 -1.7807597 4288085770
4.3816032 -0.58705544 -1.785404 4288085770
5.6313171 -0.72712517 -1.7795379 4288085770
4.5117569 -0.57637858 -1.7912004 4288085770
5.7834663 -0.71350384 -1.7782995 4288085770
4.5958939 -0.55959249 -1.7820649 4288085770
5.9376068 -0.69988799 -1.7760575 4288085770
4.7090454 -0.54587603 -1.779886 4288085770
6.1197548 -0.68833947 -1.7787735 4288085770
4.8391914 -0.53320026 -1.7806815 4288085770
6.3008995 -0.67578936 -1.7784905 4288085770
4.9703407 -0.52052689 -1.7814752 4288085770
6.4900436 -0.66325903 -1.7771951 4288085770
5.11549 -0.50788808 -1.7822475 4288085770
6.6981926 -0.65177464 -1.7788706 4288085770
5.261631 -0.49625158 -1.7830184 4288085770
6.9133415 -0.63930821 -1.7785352 4288085770
5.3927765 -0.48158026 -1.7778111 4288085770
7.1494827 -0.62789226 -1.7801677 4288085770
5.5679207 -0.47101426 -1.7815377 4288085770
7.3746223 -0.61545157 -1.7758166 4288085770
5.7420654 -0.4584465 -1.7822651 4288085770
7.6127625 -0.60204244 -1.770445 4288085770
5.9382172 -0.44693208 -1.7869589 4288085770
7.9049072 -0.59076405 -1.7729914 4288085770
6.1093559 -0.43335843 -1.7826902 4288085770
8.1960487 -0.5794847 -1.7705389 4288085770
6.3105011 -0.42185712 -1.7823761 4288085770
8.4931908 -0.56722021 -1.7670765 4288085770
6.5276451 -0.41039538 -1.7840371 4288085770
8.8173256 -0.55502272 -1.7625725 4288085770
6.7437897 -0.39693213 -1.7806991 4288085770
9.1724701 -0.54390001 -1.7610214 4288085770
6.9719315 -0.38449788 -1.7783425 4288085770
9.5636063 -0.53286672 -1.7584146 4288085770
7.2030754 -0.37107205 -1.7729809 4288085770
9.9917488 -0.52192307 -1.7567507 4288085770
7.4742165 -0.35974312 -1.7725585 4288085770
10.450882 -0.51105666 -1.753039 4288085770
7.7573624 -0.34644413 -1.7701169 4288085770
10.951023 -0.50029087 -1.749264 4288085770
8.0825119 -0.33524704 -1.7716111 4288085770
11.526165 -0.49170828 -1.7503742 4288085770
8.395649 -0.32202315 -1.7661228 4288085770
12.171303 -0.48329711 -1.7513765 4288085770
8.7447891 -0.31088567 -1.7645797 4288085770
12.893448 -0.47507501 -1.7542599 4288085770
9.1429329 -0.29886889 -1.7649605 4288085770
13.665585 -0.46597695 -1.7520658 4288085770
9.5680809 -0.28691816 -1.7642996 4288085770
14.455711 -0.4549253 -1.7418426 4288085770
10.017223 -0.27502728 -1.7616017 4288085770
15.38184 -0.44620681 -1.7344104 4288085770
10.47636 -0.26216197 -1.7538875 4288085770
16.501972 -0.43996263 -1.7336804 4288085770
11.079514 -0.25164628 -1.7619523 4288085770
17.717106 -0.43195391 -1.7278026 4288085770
11.664654 -0.23908997 -1.7570436 4288085770
12.391808 -0.22887897 -1.7639166 4288085770
13.187962 -0.21683908 -1.7666821 4288085770
14.010098 -0.20486474 -1.7624069 4288085770
14.889236 -0.19103193 -1.7530427 4288085770
15.940384 -0.17861986 -1.7504132 4288085770
17.112526 -0.16550648 -1.742596 4288085770
18.567677 -0.15308607 -1.7423421 4288085770
18.733345 0.07090652 -1.7309147 4288085770
17.319496 0.082455635 -1.7397188 4288085770
16.070644 0.094588995 -1.7431954 4288085770
14.966789 0.10635781 -1.7453847 4288085770
14.087955 0.11856377 -1.7571249 4288085770
13.227093 0.12972176 -1.7588316 4288085770
12.476246 0.14160407 -1.763319 4288085770
11.708374 0.15352654 -1.7568424 4288085770
17.689602 0.23047447 -1.7288074 4288085770
11.091518 0.16507173 -1.7590643 4288085770
16.42675 0.24364424 -1.7333205 4288085770
10.529659 0.17647815 -1.7591771 4288085770
15.294895 0.25648391 -1.7345729 4288085770
10.034809 0.1877172 -1.7631563 4288085770
14.37706 0.27078819 -1.7443969 4288085770
9.5639496 0.1988951 -1.7640883 4288085770
13.481201 0.28303373 -1.7431792 4288085770
9.1270905 0.2099874 -1.763953 4288085770
12.736359 0.29590237 -1.7496593 4288085770
8.7432404 0.22194755 -1.7677116 4288085770
12.062511 0.30859184 -1.7549982 4288085770
8.396389 0.23281503 -1.7723969 4288085770
11.413651 0.32021713 -1.7532884 4288085770
8.0595398 0.24465656 -1.7740625 4288085770
10.857796 0.33260965 -1.7573923 4288085770
7.7406769 0.25545239 -1.7736927 4288085770
10.322937 0.34494817 -1.7554549 4288085770
7.4558258 0.26716363 -1.7762549 4288085770
9.8570862 0.35711455 -1.7583796 4288085770
7.1749725 0.27886379 -1.7768095 4288085770
9.4212341 0.36920512 -1.7602446 4288085770
6.919117 0.29050207 -1.7783142 4288085770
9.0263863 0.38219273 -1.7630275 4288085770
6.7032776 0.30204058 -1.7847388 4288085770
8.6555328 0.3941195 -1.7627631 4288085770
6.4894295 0.31457376 -1.7891595 4288085770
8.3196831 0.40595913 -1.7654288 4288085770
6.2645683 0.32613337 -1.7876031 4288085770
8.0328445 0.41967666 -1.7729954 4288085770
6.0336952 0.33570635 -1.7810599 4288085770
7.7169876 0.43146467 -1.770622 4288085770
5.8498344 0.34816444 -1.7844219 4288085770
7.4381218 0.44416142 -1.7721747 4288085770
5.6759911 0.36059654 -1.7867633 4288085770
7.184269 0.45579422 -1.7736769 4288085770
5.5011292 0.37203038 -1.7861074 4288085770
6.9694328 0.47033095 -1.7810999 4288085770
5.3292694 0.38345659 -1.7844459 4288085770
6.7445831 0.48289108 -1.7825439 4288085770
5.1734123 0.39484298 -1.7847522 4288085770
6.5167198 0.49445808 -1.780995 4288085770
5.0335655 0.40718973 -1.7870262 4288085770
6.3028564 0.50598955 -1.7784181 4288085770
4.8756981 0.41857982 -1.7823373 4288085770
6.1070061 0.51847661 -1.7788047 4288085770
4.7408447 0.4299134 -1.782602 4288085770
5.9281616 0.53192127 -1.7801571 4288085770
4.6310043 0.44318557 -1.7878156 4288085770
5.765316 0.54532611 -1.7834773 4288085770
4.5191536 0.45646226 -1.7910334 4288085770
5.5874481 0.55676699 -1.7798288 4288085770
4.3902931 0.46777976 -1.7872865 4288085770
5.4355965 0.5691433 -1.7801276 4288085770
4.2904472 0.48102641 -1.7914807 4288085770
5.2857437 0.58251476 -1.7804222 4288085770
4.1875992 0.49328005 -1.7926811 4288085770
5.1408882 0.59487307 -1.7787075 4288085770
5.0090332 0.60819924 -1.7789662 4288085770
4.8791847 0.62052011 -1.7782212 4288085770
4.7633286 0.63380635 -1.7794479 4288085770
4.6614914 0.6490587 -1.7846459 4288085770
4.5566406 0.66231728 -1.7858505 4288085770
4.4417801 0.67459989 -1.7830762 4288085770
4.3509407 0.68982375 -1.786252 4288085770
4.2580872 0.70305192 -1.7874327 4288085770
4.1652412 0.71728003 -1.7876133 4288085770
4.1865005 2.9377382 -1.7635223 4288085770
4.2957573 2.992456 -1.7632689 4288085770
4.4230461 3.0561299 -1.7679745 4288085770
4.5423088 3.1138229 -1.7686987 4288085770
4.683609 3.1814613 -1.7733728 4288085770
4.8248978 3.2490988 -1.7760464 4288085770
4.9752007 3.3177142 -1.7797003 4288085770
5.133503 3.3903093 -1.783336 4288085770
5.2917976 3.4599037 -1.784972 4288085770
4.1754417 2.916718 -1.7665073 4288085770
5.4711304 3.5394459 -1.7905596 4288085770
4.301693 2.9683938 -1.7692174 4288085770
5.6724892 3.6279333 -1.7990973 4288085770
4.4249306 3.0170765 -1.7689345 4288085770
5.8718376 3.7134247 -1.8056399 4288085770
4.5671997 3.0747118 -1.7736081 4288085770
6.0551414 3.7879553 -1.8042194 4288085770
4.7004471 3.1243691 -1.7743028 4288085770
6.2644806 3.8734205 -1.8077396 4288085770
4.8467102 3.1799941 -1.7759678 4288085770
6.4808235 3.959868 -1.810244 4288085770
5.0270271 3.250535 -1.7875553 4288085770
6.7071762 4.0492902 -1.8127257 4288085770
5.193306 3.31111 -1.7911751 4288085770
6.942524 4.1396894 -1.8151871 4288085770
5.3255157 3.3527677 -1.7848732 4288085770
7.1898842 4.2340589 -1.8176214 4288085770
5.5288467 3.4282503 -1.7954087 4288085770
7.4793015 4.3453226 -1.82496 4288085770
5.6850815 3.4768486 -1.7920526 4288085770
7.7516708 4.4446273 -1.8253378 4288085770
5.8813705 3.5433471 -1.7966049 4288085770
8.0210228 4.5379391 -1.8237231 4288085770
6.0856705 3.6118257 -1.8011389 4288085770
8.3274193 4.6471581 -1.8250238 4288085770
6.2789383 3.6703305 -1.8006989 4288085770
8.6588402 4.7643147 -1.8292676 4288085770
6.4822121 3.7328105 -1.8022361 4288085770
9.0142822 4.8884106 -1.8334574 4288085770
6.7045059 3.8002424 -1.8047304 4288085770
9.400753 5.0224285 -1.8405765 4288085770
6.9318047 3.8676624 -1.8072133 4288085770
9.8252678 5.1703501 -1.849609 4288085770
7.1851273 3.9440165 -1.8126371 4288085770
10.329876 5.3480716 -1.8674594 4288085770
7.4163933 4.0064249 -1.8111118 4288085770
10.871517 5.5376997 -1.8872254 4288085770
7.6596756 4.0708027 -1.8105594 4288085770
11.38308 5.7054009 -1.8960613 4288085770
7.9299812 4.1431131 -1.812946 4288085770
11.932674 5.885006 -1.9058105 4288085770
8.1942635 4.2094374 -1.8123465 4288085770
12.513287 6.0705328 -1.9154896 4288085770
8.4815712 4.2837048 -1.8136945 4288085770
13.013756 6.2132568 -1.9093527 4288085770
8.8099289 4.3698692 -1.8209498 4288085770
13.529213 6.3559437 -1.9011822 4288085770
9.1202278 4.4440646 -1.8212481 4288085770
14.155796 6.5383387 -1.9027635 4288085770
9.4836044 4.5371399 -1.8294275 4288085770
14.860458 6.7445469 -1.9081682 4288085770
9.8399391 4.621232 -1.832624 4288085770
15.62516 6.968606 -1.9154369 4288085770
10.264362 4.730154 -1.8466654 4288085770
16.469917 7.2124624 -1.9245251 4288085770
10.717796 4.8440027 -1.859642 4288085770
17.419773 7.4890528 -1.9393754 4288085770
11.105118 4.9240141 -1.8597703 4288085770
18.285473 7.7178516 -1.9374195 4288085770
11.557514 5.0258636 -1.8687513 4288085770
12.010883 5.1207094 -1.8737309 4288085770
12.509285 5.2264423 -1.881609 4288085770
12.936573 5.2973509 -1.8766502 4288085770
13.374859 5.3672318 -1.8716671 4288085770
13.833145 5.4380617 -1.8666394 4288085770
14.294415 5.5028839 -1.8606063 4288085770
14.84977 5.5934696 -1.8613602 4288085770
15.471172 5.6988888 -1.8679657 4288085770
16.120571 5.8052378 -1.8745087 4288085770
16.859032 5.9293604 -1.8858517 4288085770
17.691574 6.078248 -1.9049819 4288085770
18.443985 6.187335 -1.9122958 4288085770
18.540176 -3.4905922 -1.6904101 4288085770
18.004246 -3.5172331 -1.7016025 4288085770
17.489323 -3.5409276 -1.7137477 4288085770
16.947418 -3.5535543 -1.7219518 4288085770
16.389542 -3.5551403 -1.7271899 4288085770
15.893654 -3.5608833 -1.7352908 4288085770
15.370789 -3.555558 -1.7404503 4288085770
14.876926 -3.5493066 -1.7455453 4288085770
14.394077 -3.5390832 -1.7506151 4288085770
13.938221 -3.5289285 -1.755625 4288085770
13.479393 -3.5107658 -1.7596406 4288085770
13.022568 -3.4876091 -1.7606512 4288085770
12.585743 -3.4635026 -1.7626175 4288085770
12.167915 -3.4384458 -1.7635412 4288085770
18.447491 -5.1634693 -1.7078013 4288085770
11.773102 -3.4124463 -1.7664135 4288085770
17.705853 -5.0775833 -1.7214357 4288085770
11.412277 -3.3915327 -1.7712109 4288085770
17.040188 -5.0048914 -1.7389032 4288085770
11.037472 -3.3615844 -1.7720383 4288085770
16.289577 -4.8989849 -1.7445555 4288085770
10.694653 -3.3367169 -1.7757957 4288085770
15.613945 -4.8032684 -1.7510422 4288085770
10.345852 -3.3038347 -1.7765648 4288085770
14.984303 -4.7146692 -1.7594281 4288085770
10.023041 -3.275018 -1.7782769 4288085770
14.36467 -4.6190958 -1.7637907 4288085770
9.6992455 -3.2412002 -1.7789906 4288085770
13.776024 -4.5266027 -1.767085 4288085770
9.3664551 -3.2003591 -1.7757235 4288085770
13.190392 -4.4261169 -1.7673714 4288085770
9.0946426 -3.1746714 -1.7813226 4288085770
12.667728 -4.3397903 -1.77052 4288085770
8.81884 -3.1439745 -1.7839302 4288085770
12.180058 -4.2575531 -1.7755915 4288085770
8.5460396 -3.111285 -1.7855309 4288085770
11.70739 -4.1743536 -1.7786293 4288085770
8.2682457 -3.0735843 -1.7841421 4288085770
11.257713 -4.0922136 -1.7806163 4288085770
8.0144501 -3.0389431 -1.7857002 4288085770
10.815037 -4.0080919 -1.7795876 4288085770
7.7826462 -3.0093582 -1.7892102 4288085770
10.38937 -3.9230139 -1.7795212 4288085770
7.5538406 -2.9777801 -1.7917136 4288085770
10.030651 -3.8571041 -1.7843086 4288085770
7.315052 -2.9391773 -1.7912382 4288085770
9.6479645 -3.7781351 -1.7841475 4288085770
7.1092491 -2.9096582 -1.7956902 4288085770
9.2992668 -3.7062514 -1.7859114 4288085770
6.8894539 -2.8731039 -1.7951729 4288085770
8.9885445 -3.6434648 -1.7895923 4288085770
6.6946526 -2.8416126 -1.7986003 4288085770
8.6628418 -3.5716412 -1.7893053 4288085770
6.4788704 -2.8000696 -1.7940732 4288085770
8.3681221 -3.5078948 -1.7919507 4288085770
6.2940674 -2.7666032 -1.7964783 4288085770
8.0853996 -3.4451802 -1.7935692 4288085770
6.1142693 -2.7341506 -1.7988725 4288085770
7.8176689 -3.3835027 -1.7941548 4288085770
5.9384727 -2.7007086 -1.7992576 4288085770
7.5619431 -3.3238561 -1.7967138 4288085770
5.7596779 -2.6632588 -1.7986488 4288085770
7.321209 -3.266248 -1.7992399 4288085770
5.6088753 -2.6348789 -1.802979 4288085770
7.0724754 -3.2036197 -1.7977833 4288085770
5.429081 -2.5924275 -1.797372 4288085770
6.8387413 -3.1440299 -1.7972935 4288085770
5.2882843 -2.5640728 -1.8026798 4288085770
6.6110077 -3.0834553 -1.7957906 4288085770
5.1264915 -2.524667 -1.8000331 4288085770
6.4072571 -3.0309412 -1.797235 4288085770
4.9766922 -2.4882905 -1.7983601 4288085770
6.2075081 -2.9764378 -1.7966706 4288085770
4.8398933 -2.4559476 -1.7996587 4288085770
6.0157547 -2.9239542 -1.7970885 4288085770
4.7090912 -2.4246194 -1.800944 4288085770
5.8469963 -2.8785284 -1.8014561 4288085770
4.5872917 -2.3943145 -1.8042094 4288085770
5.6612511 -2.8230612 -1.7988602 4288085770
4.448494 -2.3559668 -1.800512 4288085770
5.4924889 -2.7736366 -1.8002275 4288085770
4.3326874 -2.3256762 -1.8027639 4288085770
5.3417168 -2.7302577 -1.8025556 4288085770
4.2218857 -2.2953985 -1.805005 4288085770
5.1809578 -2.6798532 -1.8009048 4288085770
4.1100807 -2.2641199 -1.805248 4288085770
5.0331917 -2.6324818 -1.8002255 4288085770
4.8844261 -2.5841091 -1.7985485 4288085770
4.7446556 -2.5377581 -1.7978517 4288085770
4.6268806 -2.4994624 -1.8021067 4288085770
4.504097 -2.4581544 -1.8033726 4288085770
4.3623352 -2.4057996 -1.7966797 4288085770
4.2425499 -2.3625004 -1.7949388 4288085770
4.1477623 -2.3292625 -1.8001432 4288085770
4.1075211 -0.18674922 -1.7764112 4288085770
4.216671 -0.17603457 -1.7791499 4288085770
4.3308182 -0.16433251 -1.7808765 4288085770
4.4359627 -0.15160871 -1.7786238 4288085770
4.5451012 -0.1398952 -1.7753619 4288085770
4.667244 -0.12821472 -1.7740694 4288085770
4.7773743 -0.1155045 -1.7678047 4288085770
4.9155197 -0.10486472 -1.7684745 4288085770
5.0686722 -0.093262792 -1.7711086 4288085770
4.1518707 -0.042909861 -1.7792556 4288085770
5.2148132 -0.081644058 -1.7697591 4288085770
4.2640076 -0.03320384 -1.7779869 4288085770
5.3809586 -0.070075989 -1.7713622 4288085770
4.3941574 -0.022542953 -1.7806756 4288085770
5.527092 -0.059458137 -1.7660127 4288085770
4.517292 -0.012864947 -1.7793808 4288085770
5.7112427 -0.047936082 -1.7685732 4288085770
4.6414337 -0.0031899214 -1.7780836 4288085770
5.9043922 -0.037437797 -1.7701124 4288085770
4.7845726 0.0064370632 -1.7787416 4288085770
6.1015358 -0.025949836 -1.7696419 4288085770
4.9327126 0.016051054 -1.7793874 4288085770
6.3486938 -0.015588522 -1.7780534 4288085770
5.0778503 0.025672317 -1.7770402 4288085770
6.5528336 -0.0041191578 -1.7745661 4288085770
5.228981 0.035277843 -1.7736789 4288085770
6.778965 0.0062935352 -1.7710268 4288085770
5.411129 0.044805169 -1.7782441 4288085770
7.0191078 0.017670393 -1.7684541 4288085770
5.5922699 0.053334236 -1.7778118 4288085770
7.2952499 0.027955532 -1.7697965 4288085770
5.8174286 0.061752081 -1.7872754 4288085770
7.5683899 0.039247513 -1.7671452 4288085770
5.9785423 0.070330501 -1.7778901 4288085770
7.8775291 0.04844749 -1.7664092 4288085770
6.1946793 0.078769803 -1.7783746 4288085770
8.1976662 0.058618903 -1.7656468 4288085770
6.4358292 0.087145567 -1.7827998 4288085770
8.5478096 0.069712996 -1.7628131 4288085770
6.6549568 0.09557569 -1.7782769 4288085770
8.9229469 0.079742908 -1.76092 4288085770
6.88908 0.10396719 -1.7727183 4288085770
9.3270836 0.089697838 -1.7579583 4288085770
7.1532135 0.11128271 -1.7710887 4288085770
9.7642212 0.10056865 -1.7559179 4288085770
7.448349 0.11951864 -1.7723856 4288085770
10.244362 0.1103282 -1.7527755 4288085770
7.7624893 0.126706 -1.7736374 4288085770
10.786503 0.12092924 -1.7524861 4288085770
8.0776176 0.13388956 -1.7698864 4288085770
11.38464 0.13038623 -1.7520639 4288085770
8.4257431 0.13998866 -1.7680573 4288085770
12.039787 0.14069617 -1.750506 4288085770
8.8118782 0.1469903 -1.7671379 4288085770
12.78994 0.15076292 -1.7527226 4288085770
9.2040024 0.15297604 -1.7632041 4288085770
13.598072 0.15967929 -1.7498019 4288085770
9.6471291 0.15883052 -1.7601491 4288085770
14.469204 0.16943288 -1.7427309 4288085770
10.140255 0.16355741 -1.7599757 4288085770
15.426319 0.17796457 -1.7324557 4288085770
10.678387 0.16816819 -1.7596952 4288085770
16.591461 0.18696356 -1.7306867 4288085770
11.236504 0.17172682 -1.7553672 4288085770
17.922596 0.19553518 -1.7265239 4288085770
11.871624 0.17508781 -1.7528563 4288085770
12.658772 0.17806005 -1.7599845 4288085770
13.410873 0.17911935 -1.7531953 4288085770
14.305992 0.17981184 -1.7510666 4288085770
15.228088 0.17843294 -1.7398735 4288085770
16.374195 0.17548001 -1.7391486 4288085770
17.6633 0.17115891 -1.7340839 4288085770
15.517399 -6.042696 -0.33508095 4293729569
15.566887 -5.9428205 -0.38193929 4293729569
17.221237 -5.8890629 -0.63986921 4293729569
17.129848 -5.7288246 -0.67606133 4293729569
17.243313 -5.6321154 -0.71676356 4293729569
17.866695 0.43105376 -1.7155006 4288085770
16.678898 0.462111 -1.7234461 4288085770
15.623085 0.48982751 -1.7260643 4288085770
14.690269 0.51622725 -1.7303776 4288085770
13.834446 0.54042816 -1.7314997 4288085770
13.063614 0.56340957 -1.731411 4288085770
12.418793 0.58606708 -1.7360095 4288085770
11.891003 0.61142409 -1.7493168 4288085770
18.356895 0.93575436 -1.7312069 4288085770
11.316166 0.6309005 -1.7487419 4288085770
16.999981 0.94024497 -1.718577 4288085770
10.801323 0.65022254 -1.7490182 4288085770
15.923115 0.95101529 -1.7182506 4288085770
10.323479 0.66944885 -1.7482024 4288085770
15.037273 0.96529412 -1.7234492 4288085770
9.9016457 0.68853128 -1.7502477 4288085770
14.166397 0.97553325 -1.7196112 4288085770
9.5098076 0.70753622 -1.7512184 4288085770
13.566605 0.99607623 -1.7370985 4288085770
9.1359634 0.7244947 -1.7501448 4288085770
12.918758 1.0107414 -1.740706 4288085770
8.8661613 0.74718654 -1.762812 4288085770
12.247875 1.0204648 -1.7343713 4288085770
8.5183029 0.7630775 -1.758674 4288085770
11.762058 1.038713 -1.7435759 4288085770
8.2384758 0.78179419 -1.7623667 4288085770
11.260208 1.0530016 -1.7458208 4288085770
7.9786491 0.80145937 -1.7670099 4288085770
10.79636 1.0671921 -1.7469714 4288085770
7.714798 0.81813419 -1.765663 4288085770
10.355495 1.0793231 -1.7450651 4288085770
7.4819603 0.83572948 -1.7672393 4288085770
9.9656448 1.0933231 -1.746032 4288085770
7.2601204 0.85229629 -1.7687883 4288085770
9.6168022 1.1092174 -1.7478968 4288085770
7.0352669 0.86887091 -1.7673448 4288085770
9.2639427 1.1221218 -1.7467719 4288085770
6.836422 0.88637835 -1.7678366 4288085770
8.9671021 1.1378821 -1.7495074 4288085770
6.6355743 0.9018907 -1.7663337 4288085770
8.6702499 1.1526423 -1.7492431 4288085770
6.4617348 0.91933388 -1.7677635 4288085770
8.3973961 1.1673403 -1.7489192 4288085770
6.2998962 0.93674624 -1.7701634 4288085770
8.1595688 1.1849489 -1.7535081 4288085770
6.1520729 0.9561227 -1.7735283 4288085770
7.9347305 1.2015237 -1.7570648 4288085770
6.0072365 0.97349125 -1.7758862 4288085770
7.7158928 1.2190828 -1.7586064 4288085770
5.8533859 0.98988229 -1.7742664 4288085770
7.5220642 1.2375779 -1.7630858 4288085770
5.7055321 1.0052581 -1.771632 4288085770
7.3182182 1.2530982 -1.7625904 4288085770
5.5736885 1.0225928 -1.7719575 4288085770
7.1293716 1.2695799 -1.7630578 4288085770
5.4568558 1.0408893 -1.7742455 4288085770
6.9435158 1.2840536 -1.761518 4288085770
5.3240013 1.0562243 -1.7715728 4288085770
6.7816811 1.301464 -1.7629166 4288085770
5.212162 1.0735073 -1.7718481 4288085770
6.620842 1.3188733 -1.7633135 4288085770
5.1103249 1.0917648 -1.7730985 4288085770
6.4740028 1.3362466 -1.7646757 4288085770
5.0225029 1.1119862 -1.7783138 4288085770
6.3301659 1.3546121 -1.7650304 4288085770
4.8976326 1.1253018 -1.7706221 4288085770
6.203331 1.3739339 -1.7673428 4288085770
4.819809 1.146498 -1.7758125 4288085770
6.0604706 1.3892965 -1.7636957 4288085770
4.7179604 1.162755 -1.7730634 4288085770
5.9436378 1.4085926 -1.7659832 4288085770
4.64814 1.1839302 -1.7782341 4288085770
5.8338051 1.4278706 -1.7672536 4288085770
4.5552864 1.2001636 -1.7744626 4288085770
5.7129555 1.4451764 -1.7645515 4288085770
4.4904671 1.2213259 -1.7796209 4288085770
5.6061172 1.4634464 -1.7648145 4288085770
4.4096184 1.2395288 -1.7778194 4288085770
5.49226 1.4797341 -1.7610952 4288085770
4.3538094 1.261668 -1.7839552 4288085770
5.4024353 1.5009604 -1.7623159 4288085770
4.2819672 1.2808478 -1.7831314 4288085770
5.309597 1.5201943 -1.762544 4288085770
4.204113 1.2970424 -1.7783227 4288085770
5.2257652 1.540405 -1.7627498 4288085770
4.1482887 1.3191814 -1.7814586 4288085770
5.1549454 1.5635827 -1.7669227 4288085770
5.0991478 1.5907221 -1.7730581 4288085770
4.9882622 1.6020012 -1.7623322 4288085770
4.9394608 1.6291225 -1.7684501 4288085770
4.8786392 1.652274 -1.7705985 4288085770
4.8198242 1.6764206 -1.7727418 4288085770
4.7359619 1.6936306 -1.7659483 4288085770
4.6791306 1.7167718 -1.7650869 4288085770
4.6363258 1.7438773 -1.76919 4288085770
4.5734825 1.7650336 -1.7663437 4288085770
4.5286674 1.790144 -1.7674522 4288085770
4.4818459 1.8152593 -1.7675657 4288085770
4.4380226 1.8403667 -1.7666718 4288085770
4.3992081 1.8674617 -1.7677652 4288085770
4.3553772 1.8915691 -1.7658714 4288085770
4.3275719 1.9206357 -1.7679372 4288085770
4.2867432 1.9457352 -1.7650359 4288085770
4.264946 1.9767865 -1.7680866 4288085770
4.2301178 2.0028706 -1.7651702 4288085770
4.2073135 2.0329242 -1.7662235 4288085770
4.1654701 2.0550261 -1.7603252 4288085770
4.1667023 2.0940185 -1.7673178 4288085770
4.1258545 2.1171176 -1.7604169 4288085770
4.1240768 2.1551178 -1.7654169 4288085770
4.1112747 2.1871455 -1.7654454 4288085770
4.1392288 2.724998 -1.7533175 4288085770
4.1624565 2.7719328 -1.7522544 4288085770
4.1977196 2.8258369 -1.7551608 4288085770
4.229969 2.8767488 -1.756075 4288085770
4.2642174 2.9296551 -1.7559841 4288085770
4.3245201 2.9964952 -1.7638266 4288085770
4.3597679 3.0493989 -1.7617332 4288085770
4.4060364 3.1082745 -1.7616116 4288085770
4.4673309 3.1751118 -1.7654518 4288085770
4.5186043 3.2359743 -1.7653176 4288085770
4.5879097 3.3067908 -1.7691371 4288085770
4.6642303 3.3825891 -1.7739389 4288085770
4.7495651 3.4623649 -1.7797176 4288085770
4.8188591 3.5331807 -1.7795374 4288085770
4.9061966 3.6139507 -1.7833111 4288085770
5.0095558 3.70368 -1.7900438 4288085770
5.1028938 3.7874346 -1.7918023 4288085770
5.216259 3.8821378 -1.7975094 4288085770
5.3175964 3.9698713 -1.7972474 4288085770
5.4419861 4.0715456 -1.8029265 4288085770
4.1872025 3.3817744 -1.7811338 4288085770
5.5793991 4.1801872 -1.8095723 4288085770
4.27351 3.4535468 -1.7819108 4288085770
5.7097931 4.2838469 -1.8122362 4288085770
4.3618126 3.5263138 -1.7836831 4288085770
5.8592148 4.3984566 -1.8168513 4288085770
4.4691544 3.6090324 -1.7884067 4288085770
6.0206528 4.5190353 -1.8224359 4288085770
4.581501 3.6947379 -1.7921174 4288085770
6.1911087 4.6455917 -1.8279971 4288085770
4.7038689 3.785418 -1.7988025 4288085770
6.3685722 4.7761297 -1.8325405 4288085770
4.844265 3.888052 -1.8084415 4288085770
6.551033 4.9076548 -1.8350714 4288085770
4.9385452 3.9578028 -1.802199 4288085770
6.7385025 5.0411663 -1.8375895 4288085770
5.0729141 4.0534515 -1.8048538 4288085770
6.9309616 5.1756654 -1.8370951 4288085770
5.232338 4.1630363 -1.8144443 4288085770
7.1514816 5.3280921 -1.8415287 4288085770
5.3566666 4.2487106 -1.811125 4288085770
7.395031 5.4924598 -1.8459033 4288085770
5.5250893 4.3612714 -1.8176929 4288085770
7.6686363 5.6747503 -1.8542013 4288085770
5.7165527 4.4877739 -1.8272017 4288085770
7.9953461 5.889904 -1.869363 4288085770
5.9059982 4.610281 -1.834716 4288085770
8.3911896 6.1478815 -1.8943475 4288085770
6.0894165 4.7278032 -1.8362458 4288085770
8.7759895 6.3968859 -1.9113607 4288085770
6.2768478 4.845315 -1.8387655 4288085770
9.1367149 6.6249523 -1.920436 4288085770
6.4832916 4.9717779 -1.8412367 4288085770
9.4633484 6.8291054 -1.9165988 4288085770
6.6997566 5.1042156 -1.8436823 4288085770
9.8601112 7.0740776 -1.9215822 4288085770
6.924221 5.2376318 -1.8451077 4288085770
10.366085 7.3877707 -1.9402857 4288085770
7.1606941 5.3760176 -1.8465024 4288085770
10.883049 7.703434 -1.9529614 4288085770
7.4452629 5.5432796 -1.8547742 4288085770
11.371918 7.9951696 -1.9547095 4288085770
7.7508621 5.721488 -1.864992 4288085770
8.087513 5.915616 -1.8771306 4288085770
8.5053139 6.1575356 -1.9010615 4288085770
8.8880196 6.3735456 -1.9140828 4288085770
9.2546692 6.573596 -1.9201454 4288085770
9.6172791 6.7656565 -1.9202191 4288085770
10.057018 7.0005178 -1.9280952 4288085770
10.575905 7.2801771 -1.9457691 4288085770
11.163891 7.5976591 -1.9692663 4288085770
11.646637 7.8404102 -1.9700336 4288085770
18.415413 -1.6936753 -1.7123111 4288085770
17.502449 -1.7173269 -1.707619 4288085770
16.825493 -1.7555861 -1.7203298 4288085770
16.209549 -1.7890027 -1.7338859 4288085770
15.49662 -1.8041689 -1.7336879 4288085770
14.91769 -1.8286815 -1.7431508 4288085770
14.290771 -1.8380697 -1.7437354 4288085770
13.730862 -1.8486316 -1.7461503 4288085770
13.204956 -1.8582802 -1.7504792 4288085770
12.707062 -1.8640015 -1.7537372 4288085770
12.218174 -1.8657465 -1.7549728 4288085770
18.145782 -2.7720435 -1.6949528 4288085770
11.774288 -1.8686068 -1.7580943 4288085770
17.25901 -2.7357614 -1.706195 4288085770
11.347401 -1.8695109 -1.761173 4288085770
16.429245 -2.6976259 -1.7152932 4288085770
10.933521 -1.8664486 -1.7622188 4288085770
15.67347 -2.6626818 -1.725204 4288085770
10.553646 -1.8644743 -1.7651786 4288085770
14.938686 -2.622792 -1.730062 4288085770
10.187775 -1.8605366 -1.7671028 4288085770
14.244915 -2.5810072 -1.7328165 4288085770
9.8569069 -1.8576884 -1.7719388 4288085770
13.626133 -2.5454171 -1.739381 4288085770
9.5720367 -1.8609588 -1.7826581 4288085770
13.04335 -2.5099185 -1.7458545 4288085770
9.2841721 -1.8602211 -1.790385 4288085770
12.484566 -2.4724829 -1.7492673 4288085770
8.9943085 -1.8544791 -1.7951173 4288085770
11.975777 -2.4381754 -1.7545536 4288085770
8.6824532 -1.8416803 -1.7939051 4288085770
11.465996 -2.397866 -1.7548429 4288085770
8.403595 -1.8309662 -1.7946095 4288085770
11.020203 -2.3647215 -1.7589699 4288085770
8.1307335 -1.8192677 -1.7952993 4288085770
10.595406 -2.3316309 -1.7630441 4288085770
7.872879 -1.8076081 -1.7969508 4288085770
10.179611 -2.2955635 -1.7640954 4288085770
7.6210289 -1.7939639 -1.797587 4288085770
9.7998123 -2.2635901 -1.7680556 4288085770
7.3651772 -1.7773101 -1.7952335 4288085770
9.4520149 -2.2336977 -1.7729348 4288085770
7.1613274 -1.7687895 -1.8007482 4288085770
9.1312103 -2.2058756 -1.7777455 4288085770
6.9214783 -1.7501764 -1.7963544 4288085770
8.8104095 -2.1760535 -1.7815567 4288085770
6.7156296 -1.7366507 -1.7988743 4288085770
8.5076065 -2.1462774 -1.785322 4288085770
6.5327873 -1.7261844 -1.804336 4288085770
8.2218056 -2.1175458 -1.7890445 4288085770
6.3139381 -1.705626 -1.7988892 4288085770
7.9410019 -2.086827 -1.7907544 4288085770
6.1240959 -1.6881418 -1.7983687 4288085770
7.6691971 -2.0541313 -1.7904416 4288085770
5.9452515 -1.6726859 -1.7988206 4288085770
7.4253922 -2.0265081 -1.7940576 4288085770
5.7744064 -1.6572506 -1.8002522 4288085770
7.1555824 -1.9908175 -1.7897401 4288085770
5.6235619 -1.6448669 -1.804633 4288085770
6.940773 -1.9652691 -1.794283 4288085770
5.4447174 -1.6234114 -1.8000851 4288085770
6.7259636 -1.9377198 -1.796826 4288085770
5.2898712 -1.6060176 -1.799476 4288085770
6.4691582 -1.8970635 -1.7864758 4288085770
5.1490364 -1.5916593 -1.8028318 4288085770
6.2723427 -1.8695614 -1.7879733 4288085770
5.013195 -1.5763144 -1.8051748 4288085770
6.0905304 -1.8450978 -1.7914327 4288085770
4.8693504 -1.5569491 -1.8035382 4288085770
5.8927193 -1.8135929 -1.7879329 4288085770
4.7295151 -1.5375943 -1.8018914 4288085770
5.7219048 -1.7871583 -1.7903647 4288085770
4.6026726 -1.5212724 -1.8022119 4288085770
5.5520859 -1.760725 -1.789794 4288085770
4.4908295 -1.5069892 -1.8064942 4288085770
5.401268 -1.736342 -1.7931749 4288085770
4.3739891 -1.4906933 -1.8077893 4288085770
5.2684517 -1.7170041 -1.8005103 4288085770
4.2481499 -1.4693742 -1.8051072 4288085770
5.1346321 -1.6946645 -1.8048484 4288085770
4.9828148 -1.6672785 -1.8032322 4288085770
4.8319969 -1.6368947 -1.7996137 4288085770
4.7091789 -1.6145835 -1.802924 4288085770
4.5843506 -1.5902672 -1.8032393 4288085770
4.457531 -1.5639453 -1.8015599 4288085770
4.3186989 -1.5335929 -1.7939113 4288085770
4.2338829 -1.5173795 -1.8041252 4288085770
4.172905 0.40715051 -1.7800269 4288085770
4.2790413 0.41887116 -1.7777492 4288085770
4.423214 0.43349338 -1.7863721 4288085770
4.5483665 0.44616497 -1.7870445 4288085770
4.6585007 0.45787561 -1.7817559 4288085770
4.7756271 0.46856785 -1.776449 4288085770
4.9257851 0.48217487 -1.779056 4288085770
4.1097908 0.45327747 -1.7901812 4288085770
5.0919533 0.49574053 -1.784621 4288085770
4.2059097 0.46202421 -1.7829291 4288085770
5.2340889 0.50836837 -1.7812488 4288085770
4.3220444 0.47071898 -1.7816247 4288085770
5.3912277 0.51995754 -1.778837 4288085770
4.4461861 0.48039317 -1.7822994 4288085770
5.5573692 0.53252316 -1.7774019 4288085770
4.6093559 0.49196649 -1.7928723 4288085770
5.7475319 0.54602706 -1.7809039 4288085770
4.7144661 0.49869001 -1.7835963 4288085770
5.936676 0.55853343 -1.7804085 4288085770
4.8515968 0.50733066 -1.7812368 4288085770
6.1208115 0.57005286 -1.775926 4288085770
4.9987335 0.51594543 -1.780851 4288085770
6.3439713 0.58347154 -1.7793415 4288085770
5.1718903 0.52649319 -1.7863973 4288085770
6.560112 0.5959084 -1.7767751 4288085770
5.3400269 0.53505397 -1.7869567 4288085770
6.7952538 0.60829628 -1.7761589 4288085770
5.4921494 0.54265594 -1.7815576 4288085770
7.0333939 0.62067628 -1.7735348 4288085770
5.708313 0.55309248 -1.7909911 4288085770
7.2885323 0.63201261 -1.770866 4288085770
5.8544121 0.55771029 -1.7796073 4288085770
7.55867 0.64431 -1.7671579 4288085770
6.0605545 0.56517279 -1.7810668 4288085770
7.853817 0.65654314 -1.7643842 4288085770
6.2786942 0.57360423 -1.7824947 4288085770
8.1709557 0.66871905 -1.762553 4288085770
6.511837 0.58099723 -1.7848833 4288085770
8.5141068 0.68182814 -1.7616534 4288085770
6.7439613 0.58739269 -1.7832741 4288085770
8.9332809 0.69774055 -1.7695549 4288085770
6.9660759 0.59181416 -1.7776909 4288085770
9.2443733 0.70493281 -1.7527384 4288085770
7.2011833 0.59620202 -1.7710737 4288085770
9.7095451 0.7197268 -1.757519 4288085770
7.4763145 0.6014868 -1.7703515 4288085770
10.145679 0.73159599 -1.7523751 4288085770
7.767437 0.60672987 -1.7685874 4288085770
10.652821 0.74428189 -1.7500453 4288085770
8.0855637 0.61090326 -1.7677524 4288085770
11.202969 0.75785661 -1.7476026 4288085770
8.4076805 0.61406672 -1.7639066 4288085770
11.831131 0.77222991 -1.7499553 4288085770
8.7667999 0.61713445 -1.7629638 4288085770
12.419239 0.78070712 -1.7364123 4288085770
9.1549225 0.62012744 -1.7619447 4288085770
13.282444 0.80147356 -1.750149 4288085770
9.5760422 0.62203515 -1.761839 4288085770
13.918518 0.8058275 -1.7274793 4288085770
9.9891396 0.62096381 -1.7557538 4288085770
14.878689 0.82234383 -1.730961 4288085770
10.479259 0.62169349 -1.7554667 4288085770
15.909843 0.83667725 -1.7282559 4288085770
11.00737 0.62032521 -1.7530797 4288085770
17.133018 0.85451514 -1.7310475 4288085770
11.573471 0.61785877 -1.7505925 4288085770
18.665241 0.87755477 -1.746029 4288085770
12.200581 0.61423492 -1.7499452 4288085770
12.777634 0.6047405 -1.7344282 4288085770
13.547733 0.59774756 -1.7344049 4288085770
14.364819 0.58763337 -1.7302579 4288085770
15.304905 0.5762018 -1.7297879 4288085770
16.327984 0.56155598 -1.7260993 4288085770
17.537064 0.54343009 -1.7259222 4288085770
19.05117 0.52451611 -1.7389442 4288085770
10.826256 -7.6684399 -0.11995026 4293729569
10.883457 -7.6614103 -0.1848567 4293729569
10.936672 -7.6493711 -0.25075686 4293729569
11.026848 -7.6564026 -0.31665549 4293729569
10.926247 -7.5380869 -0.37750411 4293729569
10.995453 -7.5280828 -0.44139019 4293729569
11.148575 -7.5652256 -0.50928098 4293729569
11.229778 -7.5562449 -0.57215518 4293729569
11.290016 -7.5292273 -0.63501465 4293729569
11.370232 -7.5122452 -0.69787264 4293729569
11.468433 -7.5032949 -0.76172698 4293729569
11.579628 -7.4993715 -0.82457697 4293729569
11.880634 -7.6067705 -0.90144646 4293729569
11.893944 -7.5376816 -0.95626944 4293729569
12.046112 -7.5468292 -1.0220995 4293729569
12.232258 -7.5730305 -1.0909266 4293729569
13.257038 -7.9442587 -0.47951233 4293729569
13.246956 -7.979517 -1.2835944 4293729569
