# .PCD v0.7 - Point Cloud Data file format
VERSION 0.7
FIELDS x y z rgb
SIZE 4 4 4 4
TYPE F F F U
COUNT 1 1 1 1
WIDTH 1121
HEIGHT 1
VIEWPOINT 0 0 0 1 0 0 0
POINTS 1121
DATA ascii
4.4297485 -0.38220119 -1.7940574 4288085770
2.7749023 -0.29602671 -1.7911229 4288085770
4.1529236 -0.36801243 -1.7922382 4288085770
2.5840454 -0.28590488 -1.7875576 4288085770
3.8980713 -0.3548398 -1.790484 4288085770
2.4131775 -0.27778912 -1.7870545 4288085770
3.6571655 -0.34067869 -1.7877676 4288085770
2.2722778 -0.27068043 -1.7926393 4288085770
3.4463196 -0.32852602 -1.791141 4288085770
2.0944214 -0.25957441 -1.7861085 4288085770
3.2154846 -0.31437922 -1.7854517 4288085770
1.9475708 -0.25047302 -1.7866707 4288085770
3.0245972 -0.30124617 -1.7868795 4288085770
1.8156738 -0.24138021 -1.7882755 4288085770
2.8447266 -0.28911972 -1.7883403 4288085770
1.6818237 -0.23228979 -1.7888746 4288085770
2.6418762 -0.27399492 -1.7817285 4288085770
1.5499573 -0.22220325 -1.787477 4288085770
2.4859924 -0.2618804 -1.7852578 4288085770
2.3321228 -0.24977255 -1.7867928 4288085770
2.1792603 -0.23666716 -1.7873278 4288085770
2.0213928 -0.22256804 -1.7838459 4288085770
1.8765564 -0.20947504 -1.7814038 4288085770
1.7456665 -0.19738579 -1.7820036 4288085770
1.6228333 -0.18430281 -1.7826238 4288085770
1.5019531 -0.17122221 -1.7822492 4288085770
1.5314941 1.8079967 -1.7351344 4288085770
1.6366577 1.8259029 -1.7294097 4288085770
1.7887573 1.8578091 -1.737793 4288085770
1.914917 1.8797092 -1.7361221 4288085770
2.0500488 1.9036031 -1.7344739 4288085770
2.2041931 1.9314947 -1.7378733 4288085770
2.352356 1.95538 -1.7362642 4288085770
1.4582214 1.7290354 -1.744127 4288085770
2.5164795 1.9822621 -1.7386966 4288085770
1.570343 1.7439432 -1.7414312 4288085770
2.6806335 2.00914 -1.7391286 4288085770
1.6904907 1.7588501 -1.7407589 4288085770
2.8447876 2.0330138 -1.7375684 4288085770
1.8116455 1.7727523 -1.7380927 4288085770
3.0269165 2.0598793 -1.7380548 4288085770
1.9588013 1.7926512 -1.7424905 4288085770
3.2190552 2.0877395 -1.7395699 4288085770
2.0979004 1.8095498 -1.7438717 4288085770
3.4491577 2.1245923 -1.7491779 4288085770
2.2320557 1.8224401 -1.7402475 4288085770
3.636322 2.1474423 -1.7446904 4288085770
2.3822021 1.8393302 -1.7416623 4288085770
3.8474731 2.1732821 -1.743268 4288085770
2.537323 1.8542142 -1.7420967 4288085770
4.0636292 2.1991158 -1.7408612 4288085770
2.7014771 1.8700924 -1.7425563 4288085770
4.3007812 2.227942 -1.7415106 4288085770
2.8796082 1.8879657 -1.7450535 4288085770
4.5359192 2.2537618 -1.739162 4288085770
3.0357361 1.8988385 -1.7415016 4288085770
4.8120728 2.2865677 -1.7429197 4288085770
3.2538452 1.9226999 -1.7511053 4288085770
5.0871887 2.3173647 -1.7426801 4288085770
3.446991 1.9375601 -1.7526557 4288085770
5.3893433 2.3511467 -1.7455108 4288085770
3.624115 1.9474149 -1.748167 4288085770
5.7054749 2.3839188 -1.7473927 4288085770
3.8232422 1.9602642 -1.7477427 4288085770
6.0336304 2.4166803 -1.7483115 4288085770
4.0253906 1.971108 -1.7453325 4288085770
6.3527832 2.4434366 -1.7452183 4288085770
4.2385254 1.981946 -1.7439561 4288085770
6.7269592 2.4791708 -1.7482696 4288085770
4.4786377 1.9957743 -1.746654 4288085770
7.1380615 2.5178785 -1.7524264 4288085770
4.7247925 2.0085926 -1.7473731 4288085770
7.5362244 2.5505877 -1.7525592 4288085770
4.9789124 2.0204091 -1.7491188 4288085770
7.9743958 2.5862694 -1.7538064 4288085770
5.243042 2.0312147 -1.7498982 4288085770
8.4135132 2.6179428 -1.7510669 4288085770
5.525177 2.0430121 -1.7517295 4288085770
8.910675 2.6555853 -1.7534893 4288085770
5.827301 2.0547972 -1.7556224 4288085770
9.4448242 2.6952009 -1.7560196 4288085770
6.1214294 2.0615768 -1.754503 4288085770
10.007996 2.7337942 -1.7576411 4288085770
6.437561 2.0693469 -1.7554491 4288085770
10.647125 2.7783403 -1.7624791 4288085770
6.771698 2.0761032 -1.7564523 4288085770
11.315247 2.8218613 -1.7654088 4288085770
7.1297913 2.0828443 -1.7585287 4288085770
12.074432 2.8733282 -1.7725954 4288085770
7.5079346 2.0885749 -1.7616684 4288085770
12.892548 2.9257536 -1.7809601 4288085770
7.9140625 2.0952849 -1.7648916 4288085770
13.710724 2.9691629 -1.7823482 4288085770
8.334198 2.0989847 -1.7681653 4288085770
14.650848 3.0214949 -1.7880857 4288085770
8.7952576 2.103662 -1.7745616 4288085770
15.747986 3.086729 -1.8002696 4288085770
9.2284241 2.09934 -1.7728953 4288085770
9.7115479 2.0959907 -1.7743793 4288085770
10.251648 2.0946088 -1.7800322 4288085770
10.808746 2.0892119 -1.7837462 4288085770
11.398865 2.0797882 -1.786572 4288085770
12.047974 2.0703297 -1.792578 4288085770
12.722076 2.0568509 -1.7976706 4288085770
13.496124 2.0453119 -1.808064 4288085770
14.247284 2.0217729 -1.8114171 4288085770
15.110352 1.999167 -1.8201101 4288085770
15.893463 1.959589 -1.8166022 4288085770
7.5715027 -4.9971509 -0.46476895 4293729569
7.503479 -5.0480251 -0.49968952 4293729569
7.5004578 -5.1279368 -0.53888184 4293729569
5.0041199 -4.780221 -0.95738035 4293729569
4.9865723 -4.7932796 -0.50735754 4293729569
4.9431152 -4.7980914 -0.99624044 4293729569
4.9155884 -4.8021374 -0.5481649 4293729569
4.8911133 -4.8199625 -1.0371382 4293729569
4.890564 -4.8370228 -0.59117824 4293729569
4.8740234 -4.8598504 -1.0821888 4293729569
4.8575134 -4.8639016 -0.63514763 4293729569
4.8659973 -4.9047408 -1.1282792 4293729569
4.852478 -4.9067922 -0.68224269 4293729569
4.8699036 -4.9556293 -1.1794219 4293729569
4.8314514 -4.9376764 -0.72725934 4293729569
8.4577026 -7.1609097 -1.7419748 4293729569
8.0729065 -6.9926043 -1.7553759 4293729569
9.4649048 -7.8307676 -1.2717566 4293729569
7.6721497 -6.8072953 -1.7656851 4293729569
7.2963562 -6.6320109 -1.7730961 4293729569
6.8856201 -6.42872 -1.7723289 4293729569
9.2026062 -7.8431168 -1.4740021 4293729569
6.506897 -6.2404494 -1.7726977 4293729569
9.0446167 -7.7968693 -1.532408 4293729569
6.1041565 -6.0321794 -1.7659426 4293729569
8.870575 -7.737618 -1.5877323 4293729569
5.7154541 -5.8269253 -1.756238 4293729569
8.7325439 -7.696383 -1.6472123 4293729569
5.3387756 -5.6246848 -1.7445774 4293729569
8.5515747 -7.623136 -1.6984804 4293729569
5.0280151 -5.4594707 -1.7422128 4293729569
8.3146362 -7.5108705 -1.7404785 4293729569
4.7292786 -5.2972698 -1.7378924 4293729569
7.9458618 -7.3095632 -1.7598474 4293729569
4.4405518 -5.1380806 -1.7316096 4293729569
7.5430908 -7.0822515 -1.7700462 4293729569
4.1977234 -5.0049081 -1.7325339 4293729569
7.1453552 -6.8529534 -1.7762554 4293729569
4.0538635 -4.9337583 -1.7539182 4293729569
6.758667 -6.6266704 -1.7795053 4293729569
3.8260803 -4.8045979 -1.7538981 4293729569
6.3739624 -6.3974004 -1.7777536 4293729569
3.6052856 -4.6774483 -1.7519045 4293729569
5.9812317 -6.1591372 -1.7709544 4293729569
3.4065247 -4.561307 -1.7530065 4293729569
5.5955505 -5.9208884 -1.7601767 4293729569
3.1887207 -4.4291706 -1.7460098 4293729569
5.2509155 -5.7066627 -1.7515848 4293729569
3.0049438 -4.3180456 -1.7451704 4293729569
4.9042053 -5.4874444 -1.739974 4293729569
2.8231812 -4.2059259 -1.7423341 4293729569
4.6294556 -5.3132577 -1.7366979 4293729569
2.6833496 -4.1188173 -1.7476902 4293729569
4.3487549 -5.1320791 -1.7283852 4293729569
2.6443787 -4.0987158 -1.7805254 4293729569
4.1579285 -5.0069265 -1.7364907 4293729569
2.6443787 -4.100625 -1.821537 4288085770
3.9980774 -4.9017873 -1.7487416 4293729569
2.6433716 -4.1015306 -1.8635426 4288085770
3.8003235 -4.7676444 -1.7508028 4293729569
2.5774536 -4.0564375 -1.8852329 4288085770
3.6225281 -4.645515 -1.7529557 4293729569
2.4206543 -3.9493451 -1.8784866 4288085770
3.4237366 -4.5083885 -1.7480056 4293729569
2.2858887 -3.8552585 -1.8758404 4288085770
3.2299805 -4.3722677 -1.7420733 4293729569
2.1390991 -3.7511787 -1.8671324 4288085770
3.064209 -4.2531571 -1.7402701 4293729569
2.0033264 -3.6531031 -1.8594732 4288085770
2.9074097 -4.1390548 -1.7375071 4293729569
1.8894958 -3.5680342 -1.8559146 4288085770
2.8694763 -4.1009693 -1.7643025 4293729569
1.7807007 -3.4849672 -1.8533764 4288085770
2.90448 -4.1068916 -1.8104353 4293729569
1.6738892 -3.4029033 -1.8498466 4288085770
2.9354553 -4.1088176 -1.8535454 4288085770
1.5850525 -3.3308434 -1.8503981 4288085770
2.8845215 -4.0567374 -1.8742666 4288085770
1.4922485 -3.2547894 -1.8469267 4288085770
2.7677307 -3.9616568 -1.874675 4288085770
2.6659241 -3.8745828 -1.8771501 4288085770
2.5091858 -3.7515118 -1.8613639 4288085770
2.3873901 -3.6514466 -1.8537436 4288085770
2.2865906 -3.56339 -1.8492191 4288085770
2.2017517 -3.4843328 -1.8497663 4288085770
2.1219177 -3.4082811 -1.8493366 4288085770
2.0401611 -3.330235 -1.8458953 4288085770
1.9663086 -3.2561905 -1.8444893 4288085770
1.885498 -3.1781502 -1.839051 4288085770
1.8226929 -3.1101141 -1.8376939 4288085770
1.7738647 -3.0500798 -1.8394003 4288085770
1.7330017 -2.9940469 -1.843142 4288085770
1.6881714 -2.9350209 -1.8428636 4288085770
1.6513367 -2.8809922 -1.8456225 4288085770
1.60849 -2.8229704 -1.8443527 4288085770
1.5617065 -2.7619503 -1.8410625 4288085770
1.5318298 -2.710932 -1.8418512 4288085770
1.4950256 -2.6559167 -1.8396072 4288085770
1.4671936 -2.6049011 -1.8394012 4288085770
1.4592896 -1.8170419 -1.8265967 4288085770
1.4963989 -1.7920659 -1.8306603 4288085770
1.5155945 -1.7590957 -1.8266466 4288085770
1.5307617 -1.7251244 -1.8216176 4288085770
1.5778809 -1.7011557 -1.8257158 4288085770
1.6040039 -1.6711879 -1.8227324 4288085770
1.6461487 -1.6452217 -1.8238101 4288085770
1.6902771 -1.6202579 -1.8248966 4288085770
1.7304382 -1.5932984 -1.8229656 4288085770
1.7765808 -1.567338 -1.8230562 4288085770
1.837738 -1.5463791 -1.8272076 4288085770
1.8838806 -1.5194254 -1.824296 4288085770
1.9300232 -1.4924717 -1.8213847 4288085770
1.985199 -1.4685216 -1.8205097 4288085770
2.0483398 -1.4455733 -1.820663 4288085770
2.0785217 -1.4136257 -1.8106883 4288085770
2.1556396 -1.3936801 -1.8138943 4288085770
2.2127991 -1.3677406 -1.8090212 4288085770
2.2879333 -1.3468003 -1.8092189 4288085770
2.3660889 -1.3268642 -1.8094282 4288085770
2.4402161 -1.3029313 -1.8066156 4288085770
2.5323792 -1.2840018 -1.8078735 4288085770
1.4595947 -1.0322175 -1.8077939 4288085770
2.6294861 -1.2660742 -1.8101499 4288085770
1.5277405 -1.0132761 -1.806973 4288085770
2.7206726 -1.245151 -1.8083997 4288085770
1.6029053 -0.99433422 -1.8081751 4288085770
2.8137817 -1.2242293 -1.8066566 4288085770
1.678009 -0.97539568 -1.8083773 4288085770
2.9268799 -1.206315 -1.8089857 4288085770
1.7351685 -0.9524622 -1.8005114 4288085770
3.0370483 -1.1874003 -1.8093026 4288085770
1.8213196 -0.93452978 -1.8017519 4288085770
3.1551819 -1.1694922 -1.8096478 4288085770
1.9134521 -0.91759682 -1.8040142 4288085770
3.2763062 -1.1515894 -1.8090036 4288085770
2.0085754 -0.90066719 -1.8062866 4288085770
3.4074402 -1.133688 -1.8103917 4288085770
2.1087036 -0.88474464 -1.8075778 4288085770
3.5415955 -1.1157942 -1.8097899 4288085770
2.2068787 -0.86682224 -1.8078578 4288085770
3.6937256 -1.0999064 -1.8122516 4288085770
2.2990112 -0.84690475 -1.8041139 4288085770
3.862854 -1.0860262 -1.8167737 4288085770
2.3971252 -0.82799006 -1.8013918 4288085770
4.006012 -1.0661473 -1.8131969 4288085770
2.5682373 -0.82008266 -1.8179338 4288085770
4.170166 -1.0482774 -1.8116937 4288085770
2.6334229 -0.79417372 -1.802088 4288085770
4.3352966 -1.0304084 -1.8101935 4288085770
2.7675476 -0.77827072 -1.805491 4288085770
4.5124512 -1.0135503 -1.8077357 4288085770
2.8786926 -0.75937176 -1.7998118 4288085770
4.7125854 -0.9977026 -1.8083553 4288085770
3.0588074 -0.74748373 -1.8113747 4288085770
4.9417114 -0.98386908 -1.8120742 4288085770
3.2089233 -0.7315979 -1.8128302 4288085770
5.1568604 -0.9670372 -1.8107412 4288085770
3.3401184 -0.71171379 -1.8072147 4288085770
5.3779907 -0.95021486 -1.8074279 4288085770
3.4912415 -0.69383621 -1.8046691 4288085770
5.6351013 -0.93540716 -1.8082371 4288085770
3.6643677 -0.67796612 -1.8062007 4288085770
5.9152832 -0.9216156 -1.8101237 4288085770
3.8445129 -0.66210365 -1.8067553 4288085770
6.2073975 -0.90783501 -1.8110507 4288085770
4.0186462 -0.64424562 -1.8032854 4288085770
6.51651 -0.89306879 -1.8110301 4288085770
4.2388 -0.62940264 -1.8079731 4288085770
6.8476868 -0.87831974 -1.8110824 4288085770
4.4139404 -0.60855865 -1.7995005 4288085770
7.2417603 -0.8676033 -1.8163509 4288085770
4.6510925 -0.59273291 -1.8022423 4288085770
7.6249084 -0.8538909 -1.8165765 4288085770
4.8832397 -0.57591581 -1.7999656 4288085770
8.0550537 -0.84120893 -1.8189585 4288085770
5.1433716 -0.56010962 -1.8017833 4288085770
8.5591736 -0.83157063 -1.8255904 4288085770
5.4045105 -0.54231405 -1.7995999 4288085770
9.057312 -0.81794262 -1.8261938 4288085770
5.6876526 -0.52552938 -1.7994912 4288085770
9.6064453 -0.80634975 -1.8279696 4288085770
6.0137939 -0.50877094 -1.8015232 4288085770
10.256561 -0.79781818 -1.8350835 4288085770
6.3589172 -0.49302673 -1.8036206 4288085770
10.970642 -0.78833389 -1.8424056 4288085770
6.7190247 -0.4752984 -1.8037627 4288085770
11.736786 -0.77889299 -1.8478985 4288085770
7.1121826 -0.45858908 -1.8060157 4288085770
12.575897 -0.7685113 -1.8506296 4288085770
7.5663147 -0.44191933 -1.8104692 4288085770
13.541016 -0.76021624 -1.8567789 4288085770
8.0334167 -0.42426729 -1.8119631 4288085770
14.575134 -0.748981 -1.8581481 4288085770
8.5525818 -0.40665007 -1.8146279 4288085770
15.773315 -0.73986435 -1.8610611 4288085770
9.1197205 -0.38806534 -1.818449 4288085770
9.7438354 -0.36952543 -1.8214571 4288085770
10.454987 -0.35004473 -1.8267488 4288085770
11.2771 -0.33163404 -1.8364081 4288085770
12.147217 -0.31126976 -1.842221 4288085770
13.102356 -0.28797388 -1.8453069 4288085770
14.208466 -0.26478434 -1.8508897 4288085770
15.505585 -0.23972654 -1.8600957 4288085770
15.700592 0.032902241 -1.867686 4288085770
14.190765 0.03499794 -1.8466401 4288085770
12.982941 0.035897732 -1.8406045 4288085770
11.914093 0.039686203 -1.8320265 4288085770
10.956207 0.043390751 -1.8238194 4288085770
10.112396 0.048009872 -1.8159904 4288085770
9.3925171 0.052549362 -1.8145752 4288085770
16.026398 0.012607574 -1.862757 4288085770
8.7006531 0.05905056 -1.8062499 4288085770
14.508636 0.02671814 -1.8456604 4288085770
8.0838318 0.065505505 -1.8021743 4288085770
13.258759 0.040649891 -1.8394578 4288085770
7.545929 0.071905136 -1.8003631 4288085770
12.167877 0.053459644 -1.8327889 4288085770
7.0390625 0.079276562 -1.796653 4288085770
11.16806 0.06718874 -1.8214211 4288085770
6.5662231 0.086621284 -1.7920561 4288085770
10.321228 0.079816818 -1.8165658 4288085770
6.1513672 0.09392786 -1.790653 4288085770
9.5293884 0.092391491 -1.8068948 4288085770
5.7854919 0.10120535 -1.7924135 4288085770
8.8675232 0.10388708 -1.8056591 4288085770
5.4246216 0.10947084 -1.791189 4288085770
8.245697 0.11634302 -1.8005548 4288085770
5.0987549 0.11771345 -1.7910805 4288085770
7.6758118 0.12875605 -1.7946243 4288085770
4.7809143 0.12594509 -1.7889993 4288085770
7.1639404 0.14013243 -1.7908895 4288085770
4.507019 0.13414907 -1.7900651 4288085770
6.716095 0.15146446 -1.7893682 4288085770
4.2351685 0.14334869 -1.789135 4288085770
6.2992249 0.16377449 -1.7889478 4288085770
3.9822693 0.15253544 -1.7892685 4288085770
5.9073792 0.17506218 -1.7866135 4288085770
3.7454224 0.16170835 -1.7884552 4288085770
5.555542 0.18632412 -1.7864122 4288085770
3.5145874 0.17087173 -1.7856622 4288085770
5.2486572 0.19756079 -1.7903614 4288085770
3.3127136 0.18002224 -1.7869661 4288085770
4.9378052 0.20878935 -1.7892973 4288085770
3.1088257 0.18917036 -1.7862632 4288085770
4.6339417 0.22100353 -1.7842546 4288085770
2.9069519 0.19830751 -1.7815673 4288085770
4.3630676 0.2322011 -1.783324 4288085770
2.723114 0.20843601 -1.7789292 4288085770
4.1131897 0.24438334 -1.7824612 4288085770
2.5592346 0.21755838 -1.78036 4288085770
3.8693542 0.25555944 -1.7806208 4288085770
2.4093628 0.22767448 -1.7838349 4288085770
3.6474915 0.26772118 -1.7798514 4288085770
2.2544861 0.23778391 -1.7822936 4288085770
3.4316101 0.27887535 -1.7781045 4288085770
2.1076355 0.24788761 -1.7817788 4288085770
3.2347717 0.29101753 -1.7774186 4288085770
1.9797974 0.258986 -1.7843246 4288085770
3.0518799 0.30215263 -1.7777817 4288085770
1.8449097 0.26907873 -1.7828503 4288085770
2.8630371 0.31428099 -1.7741227 4288085770
1.7190552 0.27916956 -1.7834055 4288085770
2.6972046 0.32540131 -1.7735424 4288085770
1.597168 0.29025412 -1.7819722 4288085770
2.5483093 0.33751392 -1.7760165 4288085770
1.4613342 0.30033493 -1.7744944 4288085770
2.3994446 0.3496213 -1.7764909 4288085770
2.2565918 0.36172438 -1.7759852 4288085770
2.1117249 0.37382078 -1.7724729 4288085770
1.9729004 0.38491488 -1.7699831 4288085770
1.8589783 0.39800119 -1.7725716 4288085770
1.7391357 0.41008329 -1.7711427 4288085770
1.6292725 0.42216301 -1.7717469 4288085770
1.5134277 0.43423939 -1.7693317 4288085770
1.5202332 2.5915136 -1.7189734 4288085770
1.6453857 2.6354198 -1.7222757 4288085770
1.7685242 2.6783228 -1.7235739 4288085770
1.9006653 2.7232199 -1.7248962 4288085770
2.033844 2.7661133 -1.7252266 4288085770
2.1679993 2.8090038 -1.7245598 4288085770
1.8964539 2.6689301 -1.6049948 4293729569
1.678772 2.5538568 -1.5045481 4293729569
1.4900818 2.5115051 -1.7250323 4288085770
1.6740112 2.5327682 -1.4665768 4293729569
1.6152344 2.5464115 -1.7283547 4288085770
1.6972351 2.5226717 -1.4356716 4293729569
1.7403564 2.5793114 -1.7286818 4288085770
1.7444458 2.5225763 -1.4118214 4293729569
1.858551 2.6082125 -1.726995 4288085770
1.7956543 2.5234756 -1.3879817 4293729569
1.975708 2.6341076 -1.7233121 4288085770
1.8578186 2.5273752 -1.3671706 4293729569
2.1158447 2.6689987 -1.7246826 4288085770
1.907074 2.5252743 -1.3423309 4293729569
2.2719727 2.7088861 -1.730094 4288085770
1.9432678 2.5161762 -1.3144655 4293729569
2.4191589 2.7427692 -1.7304893 4288085770
1.9944763 2.5130749 -1.2896347 4293729569
2.5703125 2.7756481 -1.7308998 4288085770
2.0437012 2.5069723 -1.263804 4293729569
2.7174683 2.8055267 -1.7293043 4288085770
2.098877 2.5028667 -1.2389884 4293729569
2.1560974 2.4987631 -1.2151792 4293729569
2.2351685 2.5484009 -1.5203218 4293729569
2.209259 2.4906569 -1.1893661 4293729569
2.2893982 2.5382948 -1.4945166 4293729569
2.2764587 2.4875469 -1.1665869 4293729569
2.3196106 2.5191965 -1.464654 4293729569
2.3427124 2.4834394 -1.1438062 4293729569
2.355835 2.5010996 -1.4368083 4293729569
2.4118958 2.4793272 -1.1210358 4293729569
2.4259949 2.4959908 -1.4150434 4293729569
2.4870911 2.4762144 -1.0992823 4293729569
2.5061646 2.4918814 -1.3973083 4293729569
2.5622864 2.4721003 -1.0775309 4293729569
2.6033936 2.4937658 -1.3816142 4293729569
2.6554565 2.4719763 -1.0568285 4293729569
2.713501 2.4986467 -1.3689559 4293729569
2.745636 2.4708567 -1.0371192 4293729569
2.8067322 2.4955301 -1.3512599 4293729569
2.8418274 2.4697304 -1.0164285 4293729569
2.9078979 2.4944115 -1.3355858 4293729569
2.9460754 2.4696026 -0.99776131 4293729569
3.0080872 2.4912901 -1.3189123 4293729569
3.0522156 2.4684696 -0.9781031 4293729569
3.1052551 2.4851694 -1.3012364 4293729569
3.1604309 2.4673357 -0.95845097 4293729569
3.1944275 2.4750519 -1.2825437 4293729569
3.2696228 2.4642029 -0.93880659 4293729569
3.2686157 2.4589376 -1.2598155 4293729569
3.4067993 2.468051 -0.92123681 4293729569
3.4308167 2.4687939 -1.2533126 4293729569
3.5540161 2.4738979 -0.90569419 4293729569
3.8009033 2.5425673 -1.2803352 4293729569
3.7261353 2.4847288 -0.89122134 4293729569
3.703125 2.467515 -1.2271864 4293729569
3.8933411 2.4925575 -0.8757388 4293729569
3.8143005 2.4563828 -1.2095664 4293729569
4.1155396 2.51336 -0.86540395 4293729569
4.0294495 2.4742088 -1.2082155 4293729569
4.3947144 2.5481291 -0.86022097 4293729569
4.3585815 2.5219879 -1.2231643 4293729569
13.70285 5.1701498 -1.7802768 4288085770
8.1498108 3.5523062 -1.7500455 4288085770
14.512085 5.2925415 -1.7855995 4288085770
8.5099487 3.578023 -1.7491424 4288085770
15.398315 5.4228706 -1.7901516 4288085770
8.9260559 3.6157131 -1.7553926 4288085770
16.309509 5.5501757 -1.7927909 4288085770
9.3352356 3.6443987 -1.75664 4288085770
9.8033447 3.6830568 -1.7650547 4288085770
10.241516 3.7087183 -1.7664018 4288085770
10.738647 3.7413464 -1.7719228 4288085770
11.258789 3.773962 -1.7795174 4288085770
11.746918 3.791585 -1.7800424 4288085770
12.304047 3.8181696 -1.7867694 4288085770
12.844208 3.8337584 -1.7894657 4288085770
13.447296 3.8553057 -1.795351 4288085770
14.038422 3.8658552 -1.7982218 4288085770
14.669556 3.8763781 -1.8022213 4288085770
15.331696 3.8848782 -1.8073244 4288085770
16.055817 3.8943396 -1.8156242 4288085770
15.278992 -2.6244493 -0.91344696 4293729569
15.132996 -2.7353067 -0.93022174 4293729569
14.478119 -2.7598319 -0.92217463 4293729569
14.403076 -2.8737304 -0.94418377 4293729569
14.413025 -3.0026815 -0.97149795 4293729569
15.895599 -5.4470639 -1.785682 4293729569
15.129852 -5.3575082 -1.7760315 4293729569
14.549957 -5.3120594 -1.7810743 4293729569
13.995148 -5.2636309 -1.7861903 4293729569
13.362305 -5.1851654 -1.7809899 4293729569
12.834503 -5.1307592 -1.7851787 4293729569
13.073822 -5.2746654 -1.0312607 4293729569
12.1987 -5.0343013 -1.7759285 4293729569
13.04071 -5.3755116 -1.090379 4293729569
11.606934 -4.9418736 -1.7678277 4293729569
11.113098 -4.876503 -1.768101 4293729569
10.634308 -4.8081417 -1.7684152 4293729569
10.162476 -4.7337914 -1.7667384 4293729569
9.705658 -4.6594524 -1.7651098 4293729569
9.2588196 -4.5831251 -1.7615089 4293729569
16.026001 -7.1413059 -1.7608714 4293729569
8.8540039 -4.5158215 -1.7620623 4293729569
15.113312 -6.9216118 -1.7624593 4293729569
8.4362183 -4.4385161 -1.7585518 4293729569
14.24057 -6.703958 -1.7591796 4293729569
8.0723877 -4.374238 -1.7612429 4293729569
13.44986 -6.5073557 -1.7612097 4293729569
7.7344971 -4.3179779 -1.7650354 4293729569
12.653137 -6.2967668 -1.7551887 4293729569
7.4936523 -4.2927599 -1.782207 4293729569
11.958405 -6.1162429 -1.7545614 4293729569
7.2767029 -4.2745571 -1.8014712 4293729569
11.271698 -5.9297347 -1.7499461 4293729569
7.1037292 -4.2713709 -1.8279097 4293729569
10.666931 -5.7672796 -1.7496471 4293729569
6.9317932 -4.2661848 -1.8543468 4288085770
10.114136 -5.6208568 -1.7525501 4293729569
6.7538757 -4.2550001 -1.878751 4288085770
9.5664062 -5.465446 -1.7514486 4293729569
6.5209961 -4.2178006 -1.8909216 4288085770
9.0466614 -5.3170614 -1.7484529 4293729569
6.2391357 -4.1545839 -1.8938773 4288085770
8.5738525 -5.1817036 -1.7496364 4293729569
5.9403381 -4.0813689 -1.8907564 4288085770
8.1490784 -5.0633745 -1.7540116 4293729569
5.6665039 -4.0151649 -1.8907309 4288085770
7.7492981 -4.9470668 -1.7574711 4293729569
5.3337402 -3.9159522 -1.8754432 4288085770
7.3175049 -4.8127537 -1.7527881 4293729569
5.0579224 -3.839762 -1.8693893 4288085770
6.8588257 -4.6594405 -1.7389762 4293729569
4.7961426 -3.7665787 -1.8643866 4288085770
6.5020447 -4.5481715 -1.7395844 4293729569
4.5523376 -3.6984053 -1.8614528 4288085770
6.1871948 -4.4519267 -1.7443609 4293729569
4.338501 -3.640244 -1.8626373 4288085770
5.8893738 -4.3606939 -1.7492027 4293729569
4.093689 -3.5650792 -1.8556848 4288085770
5.6185608 -4.2764788 -1.7551463 4293729569
3.9008484 -3.5109298 -1.8589454 4288085770
5.4056702 -4.2182856 -1.7713337 4293729569
3.6940613 -3.4477856 -1.8551407 4288085770
5.2937012 -4.2051287 -1.8049443 4293729569
3.5052185 -3.3896472 -1.8554056 4288085770
5.2167053 -4.2069831 -1.8457003 4288085770
3.3014221 -3.32251 -1.8496017 4288085770
5.0977173 -4.1868262 -1.8772728 4288085770
3.133606 -3.2693849 -1.8509445 4288085770
4.8869019 -4.11765 -1.8864417 4288085770
2.9637451 -3.2132649 -1.8492742 4288085770
4.6161194 -4.0154657 -1.8793454 4288085770
2.7929077 -3.1551466 -1.8465962 4288085770
4.3852844 -3.9292929 -1.8804128 4288085770
2.6331177 -3.0990331 -1.8449578 4288085770
4.1055603 -3.8161163 -1.8662629 4288085770
2.4952393 -3.0539265 -1.8484144 4288085770
3.8697815 -3.7219582 -1.8592966 4288085770
2.3453979 -2.9988213 -1.8468103 4288085770
3.6589661 -3.6378062 -1.8574324 4288085770
2.199585 -2.9447224 -1.8442211 4288085770
3.460144 -3.557667 -1.8546154 4288085770
2.0637512 -2.8926265 -1.8426685 4288085770
3.2673645 -3.4775319 -1.8518178 4288085770
1.9529114 -2.8525355 -1.8482225 4288085770
3.0905457 -3.4044061 -1.8500867 4288085770
1.8350525 -2.8074484 -1.8497431 4288085770
2.915741 -3.3292847 -1.847358 4288085770
1.7112427 -2.7573619 -1.8482332 4288085770
2.7519226 -3.2581685 -1.8456731 4288085770
1.5854187 -2.7042811 -1.8437104 4288085770
2.6021118 -3.1920609 -1.8450441 4288085770
1.4715576 -2.6562045 -1.8422375 4288085770
2.4502869 -3.1239564 -1.8424044 4288085770
2.3244629 -3.0678585 -1.8458743 4288085770
2.1965942 -3.0087662 -1.8463316 4288085770
2.0597839 -2.9426727 -1.843744 4288085770
1.9439697 -2.8865867 -1.8452463 4288085770
1.8311462 -2.831507 -1.8447604 4288085770
1.7232971 -2.7764294 -1.8452902 4288085770
1.6124878 -2.7193532 -1.8438063 4288085770
1.5116577 -2.6662829 -1.8433626 4288085770
1.5219116 -0.46089983 -1.7901535 4288085770
1.5900574 -0.44497633 -1.7823288 4288085770
1.703186 -0.43305349 -1.7886543 4288085770
1.7903137 -0.4181366 -1.7848918 4288085770
1.8964844 -0.40522051 -1.7861929 4288085770
2.0085754 -0.39231253 -1.7865133 4288085770
2.1117554 -0.37940073 -1.7848053 4288085770
2.230896 -0.36649847 -1.7851472 4288085770
2.3590088 -0.35360003 -1.7865176 4288085770
2.4881592 -0.34070635 -1.7858911 4288085770
1.5112915 -0.23596573 -1.7825849 4288085770
2.6123047 -0.32781649 -1.782249 4288085770
1.6284485 -0.22505045 -1.7869251 4288085770
2.7614441 -0.3159337 -1.7836869 4288085770
1.7295837 -0.21214104 -1.7842107 4288085770
2.9145508 -0.30305481 -1.7851355 4288085770
1.8526917 -0.20123434 -1.7875698 4288085770
3.0777283 -0.2911849 -1.7856174 4288085770
1.9558716 -0.18833208 -1.7818615 4288085770
3.2488403 -0.27932167 -1.7861245 4288085770
2.0840149 -0.17743444 -1.7832363 4288085770
3.4169922 -0.26746082 -1.7846222 4288085770
2.2201538 -0.16653967 -1.7856359 4288085770
3.6161194 -0.2556138 -1.7872171 4288085770
2.3442688 -0.15365219 -1.7809935 4288085770
3.8122864 -0.24377203 -1.7868021 4288085770
2.5073853 -0.14376926 -1.7874799 4288085770
4.0293884 -0.23293877 -1.7894559 4288085770
2.6535339 -0.13189077 -1.7859087 4288085770
4.25354 -0.22111797 -1.7891285 4288085770
2.811676 -0.12101698 -1.7863772 4288085770
4.5016479 -0.20931005 -1.7918766 4288085770
2.9898071 -0.11015511 -1.788908 4288085770
4.7538147 -0.19850874 -1.7916398 4288085770
3.1708984 -0.099298954 -1.7894487 4288085770
5.0329285 -0.18672609 -1.7934847 4288085770
3.3540649 -0.08844614 -1.7889953 4288085770
5.3190613 -0.17495489 -1.7923517 4288085770
3.5571899 -0.077609062 -1.7896044 4288085770
5.6212158 -0.16419888 -1.7902708 4288085770
3.7803345 -0.066778183 -1.7932765 4288085770
5.9593201 -0.15246391 -1.7913005 4288085770
3.9934692 -0.055953503 -1.7909167 4288085770
6.32547 -0.14175129 -1.7914202 4288085770
4.2326355 -0.045146465 -1.7896385 4288085770
6.7316284 -0.13106537 -1.7936647 4288085770
4.5047302 -0.034350872 -1.7944636 4288085770
7.1567383 -0.11939573 -1.7949667 4288085770
4.7558899 -0.023560047 -1.7902226 4288085770
7.6608582 -0.10977507 -1.8015206 4288085770
5.0320129 -0.012784004 -1.7880599 4288085770
8.178009 -0.099174023 -1.8041124 4288085770
5.361145 -0.0030345917 -1.7920659 4288085770
8.7221069 -0.08860302 -1.8027892 4288085770
5.6693115 0.0077147484 -1.7890029 4288085770
9.3762207 -0.07909441 -1.8108122 4288085770
6.0314026 0.01743269 -1.7901118 4288085770
10.088379 -0.068640232 -1.8150144 4288085770
6.4285583 0.027125359 -1.79233 4288085770
10.874481 -0.059241772 -1.8194504 4288085770
6.8666687 0.036789417 -1.7956762 4288085770
11.779602 -0.049926281 -1.828259 4288085770
7.3258057 0.046434879 -1.7980883 4288085770
12.765717 -0.040682793 -1.8323207 4288085770
7.8549194 0.0550313 -1.8027215 4288085770
13.901825 -0.030549526 -1.83885 4288085770
8.4280701 0.064592361 -1.8064902 4288085770
15.234924 -0.021562099 -1.8479974 4288085770
9.0441895 0.074115276 -1.8083932 4288085770
9.7643127 0.083570004 -1.8156216 4288085770
10.525421 0.091984272 -1.8189802 4288085770
11.429535 0.10030365 -1.8287861 4288085770
12.449677 0.10853195 -1.837955 4288085770
13.576782 0.11667156 -1.8444579 4288085770
14.863861 0.12469053 -1.8524616 4288085770
15.225922 -2.9845774 -0.58373708 4293729569
15.217072 -2.8505139 -0.61041659 4293729569
15.243195 -2.7224813 -0.63622206 4293729569
16.032166 -2.7069736 -0.68772465 4293729569
15.534485 0.38156509 -1.8538554 4288085770
14.120697 0.39761162 -1.8380134 4288085770
12.925842 0.41350126 -1.8279164 4288085770
11.916992 0.42825699 -1.8214548 4288085770
10.998138 0.44294024 -1.8132982 4288085770
10.18631 0.45754147 -1.8055053 4288085770
9.4794922 0.47207117 -1.8020699 4288085770
16.283569 0.6659193 -1.8448608 4288085770
8.8495789 0.48554659 -1.7998977 4288085770
14.842712 0.67399359 -1.8319368 4288085770
8.2547913 0.49898386 -1.7938447 4288085770
13.605896 0.68392134 -1.8237038 4288085770
7.7219238 0.51238012 -1.7900028 4288085770
12.514069 0.69273424 -1.8139665 4288085770
7.2370605 0.52573824 -1.7863238 4288085770
11.581177 0.7024312 -1.8067689 4288085770
6.8021851 0.5390625 -1.7838151 4288085770
10.723358 0.71206522 -1.7978263 4288085770
6.386322 0.55236864 -1.7803705 4288085770
10.009491 0.72360659 -1.7963698 4288085770
6.0264893 0.5656395 -1.780117 4288085770
9.3106689 0.7331171 -1.786968 4288085770
5.6826477 0.57789373 -1.7779198 4288085770
8.7187805 0.74356031 -1.7839293 4288085770
5.3667603 0.59113026 -1.7778156 4288085770
8.1829224 0.75496006 -1.7810791 4288085770
5.0638733 0.60435295 -1.7757554 4288085770
7.7130432 0.76732063 -1.7824514 4288085770
4.8000183 0.61755037 -1.7758281 4288085770
7.2452393 0.7776618 -1.7768342 4288085770
4.5441589 0.63074207 -1.7759275 4288085770
6.8303223 0.78896999 -1.7743957 4288085770
4.2992859 0.64292145 -1.7740669 4288085770
6.4354858 0.79925871 -1.7700274 4288085770
4.0924072 0.65708447 -1.7783315 4288085770
6.0976257 0.81251431 -1.7708466 4288085770
3.8515625 0.66824627 -1.7704859 4288085770
5.7677307 0.82375622 -1.7676976 4288085770
3.6826782 0.68338776 -1.7778776 4288085770
5.460907 0.83598518 -1.7666245 4288085770
3.4888 0.69652939 -1.7771876 4288085770
5.1950378 0.84918928 -1.7686887 4288085770
3.2859497 0.70766401 -1.7704713 4288085770
4.9241943 0.86138773 -1.7667379 4288085770
3.1230774 0.72178888 -1.7718849 4288085770
4.7022705 0.87556124 -1.7709506 4288085770
2.9592285 0.73490715 -1.7712972 4288085770
4.4674377 0.88873482 -1.7701204 4288085770
2.8003845 0.74701786 -1.7687285 4288085770
4.2685547 0.90289021 -1.7734108 4288085770
2.6545105 0.76112318 -1.7681999 4288085770
4.0487061 0.91404486 -1.7696359 4288085770
2.5096741 0.7732234 -1.7656784 4288085770
3.8408508 0.92619133 -1.7658994 4288085770
2.3757629 0.78631973 -1.765193 4288085770
3.6569824 0.93932343 -1.7642431 4288085770
2.2489319 0.79940844 -1.763731 4288085770
3.4721069 0.95145416 -1.761585 4288085770
2.1340637 0.81349421 -1.7653074 4288085770
3.307251 0.96457195 -1.7599931 4288085770
2.0141907 0.82657528 -1.7628694 4288085770
3.1583862 0.97868443 -1.7614536 4288085770
1.9033508 0.84065485 -1.7624593 4288085770
3.0125122 0.9927907 -1.7609243 4288085770
1.7904968 0.85272837 -1.759047 4288085770
2.8746948 1.0068898 -1.760422 4288085770
1.7075806 0.86879683 -1.7637284 4288085770
2.7348328 1.0189848 -1.7579176 4288085770
1.5967407 0.88086176 -1.7573228 4288085770
2.5949402 1.0310769 -1.7534125 4288085770
1.5088806 0.89492512 -1.7579913 4288085770
2.4851074 1.0471597 -1.7550015 4288085770
2.3832092 1.063242 -1.7586176 4288085770
2.2583618 1.0753179 -1.7531641 4288085770
2.1594849 1.0903935 -1.7547925 4288085770
2.0646667 1.106461 -1.7544322 4288085770
1.9657593 1.1205268 -1.753063 4288085770
1.8779297 1.1355891 -1.7527287 4288085770
1.7970581 1.151649 -1.7544165 4288085770
1.7081909 1.1667061 -1.7520788 4288085770
1.6323242 1.1827602 -1.7527835 4288085770
1.5544739 1.1978121 -1.7514837 4288085770
1.4756165 1.212862 -1.7491796 4288085770
1.5349426 2.7284212 -0.55419499 4293729569
1.6881104 2.7732697 -0.5426361 4293729569
1.6793213 2.7382059 -0.51568907 4293729569
1.7575073 2.7440958 -0.49695522 4293729569
1.8397522 2.7499819 -0.47823554 4293729569
1.8959045 2.7428827 -0.45745403 4293729569
1.9841309 2.7497635 -0.43875366 4293729569
2.0733032 2.7546425 -0.42006165 4293729569
2.1985168 2.7744999 -0.40346259 4293729569
2.2607422 2.7653971 -0.3827073 4293729569
2.0287781 2.6431704 -0.63817245 4293729569
2.3739014 2.7762613 -0.36508685 4293729569
2.1329346 2.6510515 -0.62552696 4293729569
2.4880981 2.7851248 -0.34747505 4293729569
2.2181396 2.6479454 -0.61083955 4293729569
2.6153259 2.7999773 -0.32989514 4293729569
2.3193054 2.6518307 -0.59819299 4293729569
2.7515259 2.8148251 -0.31234789 4293729569
2.4584656 2.6686916 -0.58865124 4293729569
2.5926514 2.6815557 -0.57810134 4293729569
2.6907959 2.6774387 -0.56346291 4293729569
2.8240051 2.6863041 -0.55291885 4293729569
2.933197 2.6831799 -0.53931779 4293729569
3.0743408 2.6900387 -0.52880734 4293729569
3.2135315 2.6948957 -0.51729435 4293729569
3.3666687 2.7027454 -0.50682491 4293729569
16.010864 -2.5715106 -1.902005 4288085770
15.741089 -2.5963624 -1.013088 4293729569
15.354919 -2.5979917 -1.904712 4288085770
15.874817 -2.7372975 -1.0899112 4293729569
14.671051 -2.6114655 -1.9012871 4288085770
15.300812 -2.7677691 -1.1249225 4293729569
14.005188 -2.6179571 -1.89591 4288085770
14.893707 -2.8183503 -1.1695831 4293729569
13.401306 -2.6284871 -1.8957653 4288085770
14.884521 -2.9281898 -1.2388172 4293729569
12.827423 -2.6330438 -1.893714 4288085770
15.023224 -3.0651202 -1.3196492 4293729569
12.249573 -2.6306026 -1.8896313 4288085770
11.713715 -2.628191 -1.8866997 4288085770
11.181854 -2.6187894 -1.8807652 4288085770
10.630035 -2.6013801 -1.8717399 4288085770
10.138214 -2.5860121 -1.8649344 4288085770
9.7073364 -2.5786788 -1.8643682 4288085770
9.2824402 -2.5663555 -1.8618112 4288085770
15.698181 -3.9822836 -1.9343104 4288085770
8.8785706 -2.5520449 -1.8603251 4288085770
14.834381 -3.9006128 -1.9310081 4288085770
8.4907227 -2.53775 -1.8578966 4288085770
14.002594 -3.8169742 -1.9248161 4288085770
8.1068726 -2.5184598 -1.85447 4288085770
13.264801 -3.7444 -1.9229884 4288085770
7.7070923 -2.4901707 -1.8449638 4288085770
12.506012 -3.6568298 -1.9120491 4288085770
7.3702087 -2.4739127 -1.8437135 4288085770
11.791199 -3.5712924 -1.9022729 4288085770
7.0583496 -2.4586699 -1.8445556 4288085770
11.121429 -3.4887903 -1.8926651 4288085770
6.7434692 -2.4374294 -1.8433726 4288085770
10.480682 -3.4053171 -1.8801596 4288085770
6.4386292 -2.4162021 -1.840225 4288085770
9.9308472 -3.3368974 -1.8760178 4288085770
6.1697693 -2.4009893 -1.8422215 4288085770
9.4130554 -3.2715015 -1.8719981 4288085770
5.9178772 -2.3847892 -1.8452771 4288085770
8.9182739 -3.2061315 -1.8650608 4288085770
5.6650085 -2.3665929 -1.846324 4288085770
8.4534302 -3.1417782 -1.8612344 4288085770
5.4131775 -2.3463969 -1.8473694 4288085770
8.0246582 -3.083452 -1.8575513 4288085770
5.162323 -2.3222098 -1.8444088 4288085770
7.6058044 -3.0221393 -1.8518977 4288085770
4.9264526 -2.2990324 -1.8435051 4288085770
7.2249756 -2.9678469 -1.8503969 4288085770
4.7046204 -2.2768621 -1.8436534 4288085770
6.874176 -2.9165778 -1.8490117 4288085770
4.4777527 -2.2506945 -1.8407745 4288085770
6.5412903 -2.867321 -1.848696 4288085770
4.2698975 -2.2275348 -1.8409708 4288085770
6.2174988 -2.8160748 -1.8464079 4288085770
4.0760498 -2.2063844 -1.8422229 4288085770
5.9126587 -2.767843 -1.8451951 4288085770
3.8881531 -2.1842415 -1.8424938 4288085770
5.6488037 -2.7276316 -1.8481493 4288085770
3.6873169 -2.1560967 -1.8387032 4288085770
5.3549805 -2.676414 -1.8439689 4288085770
3.4974976 -2.1279578 -1.8359523 4288085770
5.1011353 -2.6332192 -1.8439519 4288085770
3.337616 -2.1088293 -1.8393314 4288085770
4.8522949 -2.590028 -1.8439524 4288085770
3.1747742 -2.0857055 -1.8396895 4288085770
4.6114502 -2.545845 -1.8429797 4288085770
3.013916 -2.0615833 -1.8400528 4288085770
4.3736267 -2.4996686 -1.8400128 4288085770
2.8670349 -2.0404692 -1.8414736 4288085770
4.1607971 -2.4595053 -1.8401506 4288085770
2.7201843 -2.0173554 -1.8428895 4288085770
3.9559631 -2.4203479 -1.8403194 4288085770
2.5603333 -1.9872453 -1.8382421 4288085770
3.7540894 -2.3791959 -1.8394942 4288085770
2.4184875 -1.9631395 -1.8376732 4288085770
3.5592346 -2.3380516 -1.8376942 4288085770
2.2896118 -1.9410377 -1.8401566 4288085770
3.3834229 -2.3019149 -1.8389745 4288085770
2.1627502 -1.9179425 -1.8406446 4288085770
3.1875916 -2.2567787 -1.8331611 4288085770
2.0129395 -1.8848462 -1.8330252 4288085770
3.047699 -2.2296576 -1.8405929 4288085770
1.8800964 -1.8567553 -1.8294795 4288085770
2.8918457 -2.1945353 -1.8419476 4288085770
1.7722168 -1.8356678 -1.8330407 4288085770
2.7349854 -2.1574187 -1.8412941 4288085770
1.6583557 -1.8115847 -1.8325732 4288085770
2.5811768 -2.1203086 -1.8386509 4288085770
1.5644836 -1.7935007 -1.8391919 4288085770
2.4353333 -2.0841997 -1.8380392 4288085770
2.3004456 -2.0500963 -1.8394723 4288085770
2.1706238 -2.0169973 -1.8399248 4288085770
2.0387878 -1.9809039 -1.837364 4288085770
1.8909607 -1.9378119 -1.828728 4288085770
1.775116 -1.9057252 -1.8292341 4288085770
1.6752319 -1.8796418 -1.833812 4288085770
1.550415 -1.8405628 -1.8272686 4288085770
1.4535522 -1.8114855 -1.8298507 4288085770
1.5006104 0.19169664 -1.7724364 4288085770
1.6027222 0.20360756 -1.771785 4288085770
1.7218628 0.21651125 -1.7741938 4288085770
1.8360291 0.22841406 -1.7745864 4288085770
1.960144 0.24030972 -1.7750161 4288085770
2.0802612 0.25220346 -1.7734313 4288085770
2.2054138 0.26409245 -1.7718647 4288085770
2.3475647 0.27497625 -1.7733631 4288085770
1.4945984 0.28966904 -1.7781885 4288085770
2.4996948 0.28685236 -1.7748961 4288085770
1.5987244 0.29957056 -1.7745492 4288085770
2.658783 0.29872322 -1.7774553 4288085770
1.7118835 0.30947018 -1.772943 4288085770
2.7959595 0.31058931 -1.7699332 4288085770
1.8460083 0.31936598 -1.7774143 4288085770
2.9820862 0.32244539 -1.7745914 4288085770
1.9741516 0.32825565 -1.7768657 4288085770
3.1592407 0.3342967 -1.7742171 4288085770
2.0993042 0.33814144 -1.773304 4288085770
3.3413696 0.34514046 -1.7728634 4288085770
2.2414246 0.34702158 -1.7738073 4288085770
3.542511 0.35697412 -1.7735777 4288085770
2.391571 0.35589838 -1.7753401 4288085770
3.7756348 0.36879444 -1.7794096 4288085770
2.5407104 0.36476994 -1.7738693 4288085770
3.9817505 0.38061285 -1.7751424 4288085770
2.7108459 0.37363195 -1.7764759 4288085770
4.2328796 0.39241123 -1.7780409 4288085770
2.8889465 0.38249016 -1.7791121 4288085770
4.48703 0.40420341 -1.7789507 4288085770
3.065094 0.39133883 -1.777741 4288085770
4.7521973 0.41498423 -1.7789035 4288085770
3.2582397 0.40017843 -1.7784328 4288085770
5.0293274 0.42675066 -1.7768986 4288085770
3.4893188 0.40900564 -1.7862644 4288085770
5.3454285 0.43849421 -1.7790372 4288085770
3.6754761 0.41583681 -1.7809353 4288085770
5.6705933 0.44922543 -1.7782116 4288085770
3.8866272 0.4226532 -1.7776983 4288085770
6.0467224 0.46192789 -1.7825694 4288085770
4.1317444 0.43045521 -1.7795842 4288085770
6.4238281 0.47361422 -1.7809336 4288085770
4.3778992 0.43824625 -1.7774739 4288085770
6.8589478 0.48526907 -1.785512 4288085770
4.6600342 0.4450202 -1.780499 4288085770
7.3231201 0.49789476 -1.787195 4288085770
4.9321594 0.45078611 -1.7764897 4288085770
7.8272705 0.50948763 -1.7890277 4288085770
5.2522888 0.45853233 -1.7806528 4288085770
8.3933716 0.52203512 -1.7930875 4288085770
5.5904236 0.46425772 -1.7818866 4288085770
9.0014954 0.53454781 -1.7963023 4288085770
5.9445496 0.4699688 -1.7831802 4288085770
9.6886292 0.54700184 -1.8018086 4288085770
6.3296814 0.47465515 -1.7835906 4288085770
10.428772 0.5594058 -1.8035107 4288085770
6.7507935 0.47931576 -1.7861338 4288085770
11.30188 0.57272053 -1.8137019 4288085770
7.2229309 0.48394108 -1.7908649 4288085770
12.309937 0.58793116 -1.8253868 4288085770
7.7250366 0.48854017 -1.7947075 4288085770
13.369049 0.60108519 -1.8302648 4288085770
8.2861328 0.49209499 -1.7997701 4288085770
14.661224 0.61607027 -1.842998 4288085770
8.8862915 0.49461555 -1.8039792 4288085770
16.142303 0.63090181 -1.8554296 4288085770
9.536377 0.49509001 -1.8053777 4288085770
10.27948 0.49549961 -1.8111196 4288085770
11.104614 0.49484634 -1.8181665 4288085770
12.051666 0.49310064 -1.8276665 4288085770
13.115814 0.49026251 -1.8376009 4288085770
14.307892 0.48431587 -1.8460155 4288085770
15.825897 0.47714567 -1.8706357 4288085770
7.5038757 -5.0955648 -0.39513141 4293729569
7.5320129 -5.0316601 -0.43426424 4293729569
16.585754 -7.8295145 -0.29365212 4293729569
16.502167 -7.8074198 -1.3396392 4293729569
16.799255 -7.775713 -1.4038761 4293729569
13.028503 -5.4315491 -1.3468523 4293729569
13.032135 -5.303021 -0.52308983 4293729569
13.093658 -5.3286433 -1.3740785 4293729569
16.783203 -6.2473679 -1.7216384 4293729569
16.610413 -6.0402884 -1.7269104 4293729569
16.424683 -5.8321972 -1.7301757 4293729569
16.245911 -5.6311026 -1.7294323 4293729569
16.120148 -5.4470444 -1.7316902 4293729569
16.014374 -5.2689939 -1.7329493 4293729569
15.923584 -5.0979548 -1.7352047 4293729569
15.857788 -4.9349279 -1.7364607 4293729569
15.860016 -4.7909479 -1.7427227 4293729569
16.111176 -4.7081428 -1.7680247 4293729569
16.542297 -4.6664672 -1.8083603 4293729569
15.427063 -3.0398715 -0.71363539 4293729569
14.854675 -2.9131665 -1.579519 4293729569
15.3573 -2.8928082 -0.6968593 4293729569
14.992889 -2.8032422 -1.5748012 4293729569
15.467499 -2.7758534 -0.68413752 4293729569
15.516022 -2.7505882 -1.5992124 4293729569
16.238647 -2.7573092 -0.69263631 4293729569
16.602417 0.75240993 -1.8252757 4288085770
15.242554 0.7862258 -1.8126993 4288085770
14.077698 0.81692123 -1.8042088 4288085770
13.050842 0.84653378 -1.7957807 4288085770
12.223999 0.87800932 -1.798449 4288085770
11.375153 0.90252161 -1.7880957 4288085770
10.64328 0.92695761 -1.7817965 4288085770
10.024445 0.95231819 -1.7805517 4288085770
9.4245605 0.97467375 -1.7753105 4288085770
16.257904 1.4576197 -1.7903113 4288085770
8.90271 0.99897814 -1.7741094 4288085770
15.171051 1.4702506 -1.7918272 4288085770
8.4188538 1.0212607 -1.7719223 4288085770
14.147186 1.480854 -1.7883697 4288085770
7.9849854 1.0435119 -1.7707584 4288085770
13.24234 1.4923868 -1.7849689 4288085770
7.5871277 1.066741 -1.7706134 4288085770
12.407471 1.5018821 -1.779597 4288085770
7.2133179 1.0879569 -1.7694755 4288085770
11.668579 1.5133147 -1.7772732 4288085770
6.8614197 1.1081624 -1.7673466 4288085770
10.983734 1.5237217 -1.7719729 4288085770
6.5445862 1.1293426 -1.7672355 4288085770
10.367859 1.5350871 -1.7667065 4288085770
6.2366943 1.1495237 -1.7641273 4288085770
9.8179932 1.5484099 -1.7644739 4288085770
5.9598389 1.17068 -1.764035 4288085770
9.3011169 1.5597157 -1.7602534 4288085770
5.7259827 1.1938038 -1.768966 4288085770
8.8482666 1.5749784 -1.7590694 4288085770
5.4901428 1.2149353 -1.7698927 4288085770
8.4544067 1.5932012 -1.7609179 4288085770
5.2582397 1.2350674 -1.7688198 4288085770
8.0835266 1.6094127 -1.7617736 4288085770
5.0203857 1.2522111 -1.7637389 4288085770
7.7097168 1.6236324 -1.7586246 4288085770
4.825531 1.2733183 -1.7646847 4288085770
7.362793 1.6388369 -1.7554903 4288085770
4.6176758 1.2914405 -1.7616196 4288085770
7.0459595 1.6540217 -1.7533693 4288085770
4.4468384 1.3135319 -1.7635784 4288085770
6.7710876 1.6731739 -1.7552748 4288085770
4.2799377 1.3346243 -1.7635376 4288085770
6.5072327 1.6913242 -1.7551839 4288085770
4.1090698 1.3527236 -1.7614894 4288085770
6.2573547 1.7084675 -1.7540977 4288085770
3.9702454 1.3747954 -1.763463 4288085770
6.0395508 1.7305846 -1.7570348 4288085770
3.8213501 1.3948789 -1.7624288 4288085770
5.8176575 1.7487116 -1.7559636 4288085770
3.6775208 1.41396 -1.7613952 4288085770
5.6188049 1.7688193 -1.757906 4288085770
3.5486755 1.4350324 -1.7603719 4288085770
5.4309387 1.7899241 -1.7578559 4288085770
3.4247742 1.4560995 -1.7603509 4288085770
5.2240601 1.8050475 -1.7537861 4288085770
3.3159485 1.4781547 -1.7623386 4288085770
5.0451965 1.8241491 -1.7527361 4288085770
3.2020874 1.4992151 -1.7623224 4288085770
4.8693542 1.8432522 -1.7496879 4288085770
3.0862122 1.5192823 -1.7603037 4288085770
4.73349 1.8683195 -1.7536688 4288085770
2.9803467 1.5393429 -1.7582893 4288085770
4.5996399 1.8923883 -1.7556486 4288085770
2.8764954 1.5604029 -1.756278 4288085770
4.4607849 1.913465 -1.755621 4288085770
2.798645 1.5854344 -1.7602854 4288085770
4.3209229 1.934545 -1.7535925 4288085770
2.7027588 1.6054897 -1.7582757 4288085770
4.1830444 1.9536276 -1.749562 4288085770
2.6199036 1.6275325 -1.758276 4288085770
4.0551758 1.9737029 -1.7465377 4288085770
2.546051 1.6515684 -1.7592835 4288085770
3.951355 1.998755 -1.7485332 4288085770
2.4612122 1.6726179 -1.7562809 4288085770
3.8434753 2.0218177 -1.7465234 4288085770
2.3783569 1.692667 -1.7532771 4288085770
3.7416077 2.0448713 -1.7465165 4288085770
2.3154602 1.7176957 -1.754292 4288085770
3.6557312 2.0729117 -1.7485259 4288085770
2.2306213 1.7357516 -1.7482841 4288085770
3.5618896 2.0959644 -1.7465222 4288085770
2.1817627 1.7637672 -1.7523103 4288085770
3.4810486 2.1230054 -1.7475321 4288085770
2.1358948 1.7917829 -1.7553377 4288085770
3.3891907 2.1460614 -1.7435296 4288085770
2.0860291 1.8188019 -1.7583618 4288085770
3.3073425 2.1711054 -1.7425356 4288085770
2.0281982 1.8428335 -1.756377 4288085770
3.2524719 2.2041254 -1.7465675 4288085770
1.9773254 1.8688574 -1.7563989 4288085770
3.1796265 2.2301679 -1.7435796 4288085770
3.1087646 2.2572074 -1.7415938 4288085770
3.0559082 2.2872295 -1.7436213 4288085770
2.9940491 2.3152657 -1.7406421 4288085770
2.9342041 2.3432989 -1.7386632 4288085770
2.8963623 2.3783102 -1.7417066 4288085770
2.8504944 2.4103327 -1.7407413 4288085770
2.8166199 2.4463434 -1.7427886 4288085770
2.7667542 2.4753733 -1.7388163 4288085770
2.7369385 2.5123825 -1.7408667 4288085770
2.704071 2.5473976 -1.7399127 4288085770
2.6732178 2.5824118 -1.7389596 4288085770
2.6503601 2.6204166 -1.740015 4288085770
2.6225281 2.6574326 -1.7380667 4288085770
2.6046753 2.6964378 -1.7381265 4288085770
2.5838318 2.7354469 -1.7361848 4288085770
2.5639954 2.7734566 -1.7342415 4288085770
2.473114 2.7805471 -1.7112122 4288085770
2.0301819 3.4580126 -0.27698469 4293729569
16.007324 -1.2498455 -1.8467989 4288085770
15.084412 -1.2802987 -1.8484273 4288085770
14.242523 -1.3068004 -1.8500905 4288085770
13.437653 -1.3263187 -1.8487792 4288085770
12.684784 -1.3408647 -1.845495 4288085770
12.038879 -1.3594899 -1.8502398 4288085770
11.391022 -1.3701029 -1.8489988 4288085770
10.719116 -1.3706841 -1.8387682 4288085770
10.115295 -1.3713145 -1.8325613 4288085770
9.5783997 -1.373992 -1.8293731 4288085770
15.960968 -2.1509161 -1.8690805 4288085770
9.04953 -1.3716664 -1.8231966 4288085770
14.894135 -2.1092727 -1.8657949 4288085770
8.6096497 -1.3754139 -1.8260393 4288085770
13.913269 -2.0676787 -1.8615386 4288085770
8.1528015 -1.372138 -1.8228893 4288085770
13.015442 -2.0271361 -1.8573086 4288085770
7.7219238 -1.3668737 -1.8177516 4288085770
12.248596 -1.9966846 -1.8601043 4288085770
7.3100281 -1.3606257 -1.8146226 4288085770
11.455719 -1.9541972 -1.8519137 4288085770
6.9391785 -1.354404 -1.8125072 4288085770
10.756866 -1.9167724 -1.8467455 4288085770
6.5892944 -1.3481936 -1.8093994 4288085770
10.082031 -1.8753543 -1.8375926 4288085770
6.2724304 -1.3430099 -1.8103006 4288085770
9.5021667 -1.8430042 -1.8344557 4288085770
5.9655457 -1.3358302 -1.810209 4288085770
8.9633484 -1.8106818 -1.8323317 4288085770
5.6686707 -1.3276539 -1.8091223 4288085770
8.457489 -1.7783773 -1.8292196 4288085770
5.3878479 -1.3194885 -1.8080413 4288085770
7.9926147 -1.7491004 -1.8281157 4288085770
5.1299744 -1.3113432 -1.8099682 4288085770
7.5207825 -1.7138057 -1.8200204 4288085770
4.8840637 -1.3032002 -1.8098991 4288085770
7.1329041 -1.6885796 -1.820935 4288085770
4.6472473 -1.2940636 -1.8108346 4288085770
6.7460632 -1.659348 -1.8188572 4288085770
4.4313354 -1.2869449 -1.8137739 4288085770
6.3891907 -1.6321363 -1.8177862 4288085770
4.1994934 -1.273807 -1.8117185 4288085770
6.0513611 -1.6059365 -1.8167195 4288085770
4.0056152 -1.2667027 -1.8156652 4288085770
5.7254944 -1.5777397 -1.8136609 4288085770
3.7787476 -1.2505584 -1.8086176 4288085770
5.4296265 -1.5535665 -1.8136046 4288085770
3.5928955 -1.2394552 -1.8105741 4288085770
5.1447754 -1.5283985 -1.8125541 4288085770
3.4150391 -1.2283564 -1.8125339 4288085770
4.8948975 -1.5062571 -1.8145096 4288085770
3.242157 -1.2172589 -1.812495 4288085770
4.6370239 -1.4811058 -1.8134682 4288085770
3.0703125 -1.2041602 -1.8124602 4288085770
4.4211731 -1.4619904 -1.8184297 4288085770
