# .PCD v0.7 - Point Cloud Data file format
VERSION 0.7
FIELDS x y z rgb
SIZE 4 4 4 4
TYPE F F F U
COUNT 1 1 1 1
WIDTH 1128
HEIGHT 1
VIEWPOINT 0 0 0 1 0 0 0
POINTS 1128
DATA ascii
15.691223 -5.7227917 -0.3187871 4293729569
15.763245 -5.7462082 -1.2066219 4293729569
15.766602 -5.620923 -0.34865475 4293729569
15.811584 -5.6342974 -1.2355533 4293729569
17.909393 0.63844872 -1.8070869 4288085770
16.686554 0.67334032 -1.808804 4288085770
15.610748 0.70600367 -1.810195 4288085770
14.759918 0.74031544 -1.8210893 4288085770
13.887115 0.76766491 -1.8190293 4288085770
13.056213 0.79095078 -1.8108754 4288085770
12.359406 0.81702805 -1.8104258 4288085770
11.716583 0.84002066 -1.8068552 4288085770
18.454193 1.2625971 -1.7660923 4288085770
11.123718 0.86093664 -1.8021741 4288085770
17.23233 1.2724867 -1.7667985 4288085770
10.589844 0.88176107 -1.7983618 4288085770
16.252502 1.2889977 -1.774972 4288085770
10.128998 0.9044714 -1.798389 4288085770
15.32666 1.3024282 -1.7770243 4288085770
9.6901855 0.92414808 -1.7973661 4288085770
14.525848 1.3186631 -1.7838011 4288085770
9.2893372 0.94576597 -1.7972603 4288085770
13.712006 1.3279219 -1.7796049 4288085770
8.943512 0.96829653 -1.8010325 4288085770
12.987091 1.3390417 -1.7762117 4288085770
8.5946655 0.98783302 -1.798811 4288085770
12.361237 1.3520069 -1.7756009 4288085770
8.2467957 1.0053687 -1.7935863 4288085770
11.816406 1.3688459 -1.7798114 4288085770
7.947937 1.0248294 -1.7932534 4288085770
11.311584 1.3836231 -1.7809329 4288085770
7.6951294 1.047215 -1.7978201 4288085770
10.808685 1.3964 -1.7780495 4288085770
7.4022827 1.0636668 -1.7914734 4288085770
10.377838 1.4110632 -1.7790074 4288085770
7.187439 1.0849948 -1.7959557 4288085770
9.9700012 1.4256911 -1.777914 4288085770
6.9645691 1.1053352 -1.7964554 4288085770
9.5951538 1.441268 -1.778748 4288085770
6.7477417 1.1246667 -1.7969413 4288085770
9.2593079 1.4587827 -1.7804971 4288085770
6.5328674 1.1429958 -1.7944221 4288085770
8.9234314 1.4733 -1.7782445 4288085770
6.3310547 1.160306 -1.7918744 4288085770
8.6376038 1.4917388 -1.7808828 4288085770
6.156189 1.1805725 -1.7922678 4288085770
8.3417664 1.5061932 -1.7775416 4288085770
5.9793396 1.1978431 -1.7896643 4288085770
8.0839233 1.5225892 -1.7781172 4288085770
5.8275452 1.2180738 -1.792007 4288085770
7.8470764 1.5409513 -1.7796469 4288085770
5.6716614 1.2373109 -1.7903576 4288085770
7.604187 1.5563235 -1.7771893 4288085770
5.5298462 1.256526 -1.791678 4288085770
7.3873901 1.5746555 -1.7766743 4288085770
5.3869934 1.2747431 -1.7899995 4288085770
7.2095337 1.5969248 -1.7820754 4288085770
5.2591553 1.2949381 -1.7902889 4288085770
7.0136719 1.6142244 -1.7805138 4288085770
5.1253052 1.3131418 -1.7875905 4288085770
6.8248596 1.6315141 -1.7789369 4288085770
5.0054321 1.3323226 -1.7868619 4288085770
6.6620178 1.652761 -1.780304 4288085770
4.9006348 1.3534818 -1.7881002 4288085770
6.4751282 1.6670475 -1.7757215 4288085770
4.7957764 1.374639 -1.7893391 4288085770
6.3272705 1.6882725 -1.7760553 4288085770
4.7009277 1.3957815 -1.7905555 4288085770
6.1944885 1.7094736 -1.7783561 4288085770
4.5990906 1.4149342 -1.7887869 4288085770
6.0526123 1.7286901 -1.7766757 4288085770
4.505249 1.4350767 -1.7880011 4288085770
5.9258118 1.7498817 -1.7769632 4288085770
4.4194031 1.4562058 -1.7891974 4288085770
5.8009338 1.7710705 -1.7762461 4288085770
4.3135376 1.4723678 -1.7814369 4288085770
5.6940918 1.7942314 -1.7784896 4288085770
4.245697 1.4964666 -1.7855945 4288085770
5.5682373 1.8124237 -1.7747736 4288085770
4.164856 1.5165887 -1.7837796 4288085770
5.4653931 1.8345795 -1.7740083 4288085770
4.1040344 1.5406775 -1.7869215 4288085770
5.3616028 1.8567352 -1.7732444 4288085770
4.0342102 1.5637822 -1.7870836 4288085770
5.2627258 1.8778849 -1.7714701 4288085770
3.9623718 1.5838895 -1.7852488 4288085770
5.1838989 1.9040022 -1.7736526 4288085770
3.9085388 1.6089678 -1.7873759 4288085770
5.1120605 1.9311085 -1.7768202 4288085770
3.8497009 1.6330543 -1.7885137 4288085770
5.025238 1.9542398 -1.7750201 4288085770
3.7848511 1.653152 -1.7846637 4288085770
4.9594116 1.9813375 -1.777174 4288085770
3.7250366 1.6752405 -1.7828026 4288085770
4.8845825 2.0054493 -1.7753472 4288085770
3.6871948 1.7022943 -1.7868948 4288085770
4.81073 2.0295601 -1.7735181 4288085770
3.6213684 1.7213936 -1.7810464 4288085770
4.7458801 2.0556564 -1.7736692 4288085770
3.5865173 1.7494411 -1.7851324 4288085770
4.6990967 2.0867243 -1.776783 4288085770
3.5436707 1.7755032 -1.7852359 4288085770
4.6382446 2.1128149 -1.7749257 4288085770
3.4968262 1.7985725 -1.7833467 4288085770
4.5734253 2.1379128 -1.7720766 4288085770
3.4650269 1.8266182 -1.7854252 4288085770
4.5306091 2.1689739 -1.7731814 4288085770
4.4707031 2.1950626 -1.7693224 4288085770
4.4299316 2.2261219 -1.770422 4288085770
4.3881226 2.2551823 -1.7695236 4288085770
4.3432617 2.2842493 -1.7666321 4288085770
4.3044128 2.3143063 -1.7647276 4288085770
4.2735901 2.3483496 -1.7648067 4288085770
4.2387695 2.3804007 -1.7628932 4288085770
4.2209778 2.4174223 -1.7649446 4288085770
4.1921387 2.4504633 -1.7630186 4288085770
4.1723328 2.4874907 -1.7630739 4288085770
4.1464844 2.5205278 -1.7591419 4288085770
4.1387024 2.5615339 -1.7611723 4288085770
4.1368713 2.6045332 -1.7631898 4288085770
4.125061 2.6435461 -1.7622285 4288085770
4.1202393 2.6855497 -1.7622523 4288085770
4.1204529 2.7295475 -1.7622657 4288085770
4.1266785 2.7755327 -1.7642665 4288085770
4.1078186 2.8105593 -1.757319 4288085770
4.1070251 2.8535585 -1.7543344 4288085770
4.1072083 2.8955555 -1.7513471 4288085770
4.1233826 2.9465256 -1.7523279 4288085770
4.133606 2.9945059 -1.7503204 4288085770
4.1488342 3.0434799 -1.7483025 4288085770
4.1719971 3.0974398 -1.7482681 4288085770
4.1932373 3.150404 -1.7472377 4288085770
4.2404785 3.2173252 -1.7511549 4288085770
4.2676697 3.2732801 -1.7491126 4288085770
4.2958984 3.3292341 -1.7460675 4288085770
4.3401184 3.3941612 -1.7459908 4288085770
4.4073792 3.4720516 -1.7518668 4288085770
4.4365845 3.5290041 -1.74582 4288085770
4.494812 3.6019115 -1.7467146 4288085770
4.5620728 3.6798029 -1.7485909 4288085770
4.6263123 3.7557001 -1.7474728 4288085770
4.7055969 3.8405724 -1.7493243 4288085770
3.5097046 3.229413 -1.7567701 4288085770
4.7948303 3.9304295 -1.7531557 4288085770
3.5539246 3.2863417 -1.7526903 4288085770
4.8600769 4.0073271 -1.7480359 4288085770
3.604126 3.346261 -1.7495985 4288085770
4.951355 4.0991831 -1.7488632 4288085770
3.6853638 3.4261284 -1.7564445 4288085770
5.0486145 4.1930285 -1.7486787 4288085770
3.7696533 3.5059948 -1.7612834 4288085770
5.1448975 4.2878771 -1.7474957 4288085770
3.8208313 3.5659132 -1.7551889 4288085770
5.2531738 4.3887062 -1.7462878 4288085770
3.8910828 3.6368017 -1.753056 4288085770
5.3654785 4.4925308 -1.7450728 4288085770
3.9953613 3.7286367 -1.7598543 4288085770
5.4847717 4.5993433 -1.7428432 4288085770
4.0936279 3.8164797 -1.7626653 4288085770
5.6160278 4.714138 -1.7415891 4288085770
4.1638794 3.8843699 -1.7565312 4288085770
5.7483521 4.8279324 -1.7383327 4288085770
4.2611389 3.9702168 -1.755343 4288085770
5.9126587 4.9626741 -1.7400122 4288085770
4.3553772 4.0530672 -1.752161 4288085770
6.0740051 5.0944223 -1.7386975 4288085770
4.4686279 4.1468897 -1.7529407 4288085770
6.2463379 5.2331533 -1.7363601 4288085770
4.5879211 4.2447023 -1.7517076 4288085770
6.4286804 5.3768702 -1.7340031 4288085770
4.7171936 4.3474989 -1.7534547 4288085770
6.6290588 5.531558 -1.7336092 4288085770
4.845459 4.4482975 -1.7512031 4288085770
6.8484192 5.6982155 -1.7321773 4288085770
4.9827881 4.5540829 -1.7499328 4288085770
7.0848389 5.8748474 -1.7317109 4288085770
5.1230469 4.6598635 -1.7466559 4288085770
7.3292236 6.0554676 -1.729228 4288085770
5.2843628 4.7796125 -1.7463374 4288085770
7.6026611 6.2540417 -1.7276869 4288085770
5.4556885 4.9043436 -1.7459984 4288085770
7.9131775 6.4745626 -1.7300701 4288085770
5.618988 5.0210896 -1.7416744 4288085770
8.2256165 6.6960773 -1.7284503 4288085770
5.8213196 5.1637735 -1.7432723 4288085770
8.5670776 6.933547 -1.7267709 4288085770
6.0176697 5.299469 -1.7408814 4288085770
8.9336243 7.1869793 -1.7250419 4288085770
6.223999 5.4401484 -1.7374701 4288085770
9.3421936 7.4653473 -1.7252269 4288085770
6.4653931 5.6017723 -1.7389879 4288085770
9.7937927 7.7696466 -1.7243257 4288085770
6.7087708 5.7623949 -1.7375011 4288085770
6.9681702 5.9319916 -1.7359815 4288085770
7.2515564 6.1145525 -1.7354131 4288085770
7.5549927 6.3070803 -1.7348042 4288085770
7.9084473 6.53053 -1.7390943 4288085770
8.2409058 6.7350159 -1.7354245 4288085770
8.6123657 6.9624414 -1.7346759 4288085770
9.0028687 7.1978359 -1.7328877 4288085770
9.438385 7.4581614 -1.7320089 4288085770
9.8979492 7.7294512 -1.7290797 4288085770
10.420532 8.036643 -1.7310233 4288085770
18.427551 -1.4280806 -1.8549271 4288085770
17.628662 -1.4718623 -1.8706613 4288085770
16.751709 -1.49752 -1.8715711 4288085770
15.920837 -1.5162482 -1.8703818 4288085770
15.052917 -1.5239162 -1.8602762 4288085770
14.326019 -1.5358038 -1.8588614 4288085770
13.673126 -1.5478067 -1.8602853 4288085770
13.06723 -1.5558805 -1.8606071 4288085770
12.514374 -1.5650363 -1.8648129 4288085770
12.010498 -1.5742683 -1.8699112 4288085770
11.483612 -1.573463 -1.8670635 4288085770
17.440491 -2.366601 -1.8638635 4288085770
11.000732 -1.5737257 -1.8681183 4288085770
16.431671 -2.3220568 -1.8630786 4288085770
10.556854 -1.5740476 -1.8690882 4288085770
15.526825 -2.281672 -1.8640656 4288085770
10.106964 -1.5673618 -1.8660736 4288085770
14.708038 -2.2424207 -1.8658648 4288085770
9.7201233 -1.5657725 -1.8689194 4288085770
13.974213 -2.2082992 -1.8694763 4288085770
9.3562927 -1.5632181 -1.8717151 4288085770
13.260406 -2.1692066 -1.8680453 4288085770
8.9873962 -1.5556555 -1.869523 4288085770
12.596588 -2.1301923 -1.8665056 4288085770
8.6185303 -1.5450926 -1.8653321 4288085770
12.022766 -2.1003175 -1.8717666 4288085770
8.2986755 -1.5376058 -1.8660331 4288085770
11.466919 -2.0674686 -1.8719893 4288085770
8.0018311 -1.5311556 -1.8676834 4288085770
10.941132 -2.0326643 -1.8711467 4288085770
7.6869202 -1.5176744 -1.8633752 4288085770
10.465302 -2.0019393 -1.8731942 4288085770
7.3990784 -1.5062361 -1.8620067 4288085770
10.015472 -1.9712529 -1.8741846 4288085770
7.1262512 -1.4948215 -1.8606062 4288085770
9.5856628 -1.9405985 -1.8751311 4288085770
6.8703918 -1.4834318 -1.860168 4288085770
9.1858215 -1.9099884 -1.8740129 4288085770
6.6585083 -1.4771132 -1.8666329 4288085770
8.8210144 -1.8824334 -1.8768167 4288085770
6.3956604 -1.459712 -1.8592119 4288085770
8.4651489 -1.852891 -1.8766017 4288085770
6.1808167 -1.4483857 -1.8596845 4288085770
8.1113281 -1.8203511 -1.8723831 4288085770
5.960968 -1.4330521 -1.8571692 4288085770
7.8095093 -1.7948918 -1.8750486 4288085770
5.756134 -1.4197421 -1.8576198 4288085770
7.4896851 -1.7634048 -1.8717556 4288085770
5.5582581 -1.4054422 -1.8560562 4288085770
7.1958618 -1.7339573 -1.8694048 4288085770
5.3943787 -1.3971958 -1.8614163 4288085770
6.90802 -1.7035184 -1.8650413 4288085770
5.1915588 -1.3778868 -1.8558645 4288085770
6.650177 -1.6761274 -1.8646116 4288085770
5.0367126 -1.3676538 -1.8602052 4288085770
6.3983154 -1.6477451 -1.8621688 4288085770
4.8388367 -1.3463531 -1.8506432 4288085770
6.1684875 -1.622396 -1.8626776 4288085770
4.6849976 -1.3321209 -1.8519831 4288085770
5.9586792 -1.5990791 -1.8651419 4288085770
4.5411682 -1.3199039 -1.8543005 4288085770
5.7278442 -1.568727 -1.8586535 4288085770
4.3732605 -1.3006501 -1.8476725 4288085770
5.5149841 -1.5404043 -1.8551259 4288085770
4.2424316 -1.2874546 -1.8509617 4288085770
5.3201294 -1.5151086 -1.8535581 4288085770
4.0875854 -1.2672181 -1.844305 4288085770
5.1633301 -1.4968729 -1.8589053 4288085770
3.9637146 -1.2540326 -1.8455796 4288085770
4.9704895 -1.4685798 -1.853334 4288085770
3.8439026 -1.2398534 -1.8468451 4288085770
4.8076477 -1.445334 -1.8536954 4288085770
3.7270508 -1.2256789 -1.848104 4288085770
4.639801 -1.4200802 -1.8510685 4288085770
3.6281738 -1.2155328 -1.8543229 4288085770
4.4729919 -1.393827 -1.8464398 4288085770
4.3301392 -1.3716121 -1.8467579 4288085770
4.1893005 -1.3484001 -1.8460708 4288085770
4.0524597 -1.3261938 -1.8443751 4288085770
3.916626 -1.3019891 -1.8426785 4288085770
3.7907715 -1.2797995 -1.8409591 4288085770
3.6829529 -1.2606382 -1.8441992 4288085770
3.4947815 0.63120508 -1.7961631 4288085770
3.6209106 0.64600706 -1.8008957 4288085770
3.7380981 0.65982533 -1.8006463 4288085770
3.8602295 0.67263508 -1.8003869 4288085770
3.977356 0.68545246 -1.7971382 4288085770
4.1185303 0.69923306 -1.7998381 4288085770
4.2566833 0.71301889 -1.7985439 4288085770
4.4048462 0.72678995 -1.7982287 4288085770
3.5518188 0.66708755 -1.8030524 4288085770
4.5589905 0.74055099 -1.7989001 4288085770
3.6709595 0.67690134 -1.8037987 4288085770
4.7241211 0.7542944 -1.7995486 4288085770
3.7910767 0.68571472 -1.8015432 4288085770
4.8963013 0.76802731 -1.8001819 4288085770
3.9302368 0.69649792 -1.8042464 4288085770
5.0764465 0.78174925 -1.7997975 4288085770
4.0403748 0.70332813 -1.7970114 4288085770
5.2645874 0.79545832 -1.7993965 4288085770
4.1885071 0.713099 -1.7986951 4288085770
5.4637146 0.80915117 -1.7989717 4288085770
5.6853027 0.81182623 -1.8120155 4288085770
4.5012207 0.71946907 -1.8138828 4288085770
5.9205017 0.82749033 -1.8152432 4288085770
4.6533813 0.72726011 -1.810379 4288085770
6.1485901 0.84117413 -1.8124919 4288085770
4.8735657 0.74092913 -1.8246546 4288085770
6.3847046 0.8538475 -1.8087125 4288085770
5.0066528 0.74476051 -1.8112092 4288085770
6.6578979 0.86846209 -1.8098097 4288085770
5.1958008 0.75349331 -1.8115821 4288085770
6.9240112 0.88209486 -1.8059301 4288085770
5.4109497 0.76318359 -1.8158689 4288085770
7.2261963 0.8966713 -1.8059301 4288085770
5.6151123 0.76989794 -1.8151879 4288085770
7.5363464 0.91024113 -1.8029017 4288085770
5.8252258 0.77660799 -1.8114872 4288085770
7.8834839 0.9257555 -1.8027511 4288085770
6.0783691 0.78524446 -1.8166442 4288085770
8.2395935 0.93926001 -1.8005672 4288085770
6.3135071 0.7909193 -1.8138571 4288085770
8.6668091 0.95765686 -1.8041506 4288085770
6.5626526 0.79657173 -1.8120232 4288085770
9.0899353 0.97206593 -1.8037419 4288085770
6.8227539 0.80121326 -1.8081503 4288085770
9.5300598 0.98645782 -1.7992759 4288085770
7.1188965 0.80779552 -1.8091593 4288085770
9.9971619 0.99981165 -1.7947173 4288085770
7.4310608 0.81235743 -1.8101106 4288085770
10.55838 1.0170259 -1.7968464 4288085770
7.7501526 0.81591272 -1.8080373 4288085770
11.142517 1.0322146 -1.7928953 4288085770
8.1052856 0.81941605 -1.8078423 4288085770
11.781647 1.0493255 -1.7917614 4288085770
8.4854126 0.82288551 -1.8075628 4288085770
12.456787 1.0633931 -1.7855015 4288085770
8.8935547 0.82531548 -1.8071871 4288085770
13.266937 1.0812626 -1.7857909 4288085770
9.3437195 0.82768488 -1.8086696 4288085770
14.230103 1.104908 -1.7935729 4288085770
9.7808228 0.82608032 -1.8041906 4288085770
15.115265 1.117692 -1.7826023 4288085770
10.313965 0.82733107 -1.8073912 4288085770
16.149353 1.1332645 -1.7741327 4288085770
10.861084 0.82456779 -1.8065391 4288085770
17.375519 1.1515646 -1.7690187 4288085770
11.477234 0.82270575 -1.808455 4288085770
18.744659 1.1696682 -1.7624221 4288085770
12.155365 0.81875753 -1.8101587 4288085770
12.906464 0.81270695 -1.812613 4288085770
13.752594 0.80651903 -1.8177462 4288085770
14.643768 0.79428053 -1.8167191 4288085770
15.507812 0.77509737 -1.802773 4288085770
16.553864 0.75465059 -1.7962103 4288085770
17.76297 0.73197365 -1.7920947 4288085770
11.763702 -7.9229832 -1.7056804 4293729569
11.381317 -7.6084619 -1.7074261 4293729569
11.050842 -7.3270178 -1.7129498 4293729569
10.780304 -7.0846601 -1.7212143 4293729569
10.463806 -6.8182282 -1.7216682 4293729569
10.199249 -6.5828691 -1.7229023 4293729569
9.949707 -6.3595314 -1.7250681 4293729569
9.7460938 -6.1632614 -1.7300406 4293729569
9.556488 -5.9780087 -1.7339487 4293729569
9.3948669 -5.8087988 -1.7397404 4293729569
9.2012329 -5.6245322 -1.7376604 4293729569
9.0426025 -5.4603205 -1.7404342 4293729569
13.763214 -7.7616634 -1.6402326 4293729569
8.921936 -5.3191648 -1.7450466 4293729569
13.740662 -7.6366816 -1.6724939 4293729569
8.8042908 -5.1790104 -1.7486472 4293729569
13.624084 -7.4615541 -1.6931434 4293729569
8.6946106 -5.0448661 -1.7512126 4293729569
13.391541 -7.2322459 -1.6992612 4293729569
8.5839233 -4.9117188 -1.7527795 4293729569
13.134979 -6.9938946 -1.6984725 4293729569
8.4702454 -4.7765651 -1.7523594 4293729569
9.9631958 -5.3660545 -1.3674893 4293729569
8.3615112 -4.6454153 -1.7499166 4293729569
9.963501 -5.2780857 -1.3866177 4293729569
8.2958069 -4.537333 -1.7532959 4293729569
10.023804 -5.2172079 -1.4115062 4293729569
8.2710876 -4.4493151 -1.7625084 4293729569
12.448578 -6.2289786 -1.7109008 4293729569
8.2853394 -4.3783598 -1.7775655 4293729569
12.341949 -6.0728426 -1.7164879 4293729569
8.3606262 -4.3345013 -1.8013783 4293729569
12.229309 -5.9146938 -1.7190986 4293729569
8.5689087 -4.3478575 -1.8476615 4288085770
12.109619 -5.7555318 -1.7187338 4293729569
8.775177 -4.3572092 -1.8929577 4288085770
12.033966 -5.6164336 -1.7211924 4293729569
8.9144592 -4.3344517 -1.9255252 4288085770
11.965271 -5.4833465 -1.723619 4293729569
8.8536987 -4.2263641 -1.9208879 4288085770
11.919586 -5.3592906 -1.7269554 4293729569
8.8059387 -4.1242962 -1.9171977 4288085770
11.872864 -5.2362294 -1.7272935 4293729569
8.7242126 -4.010169 -1.9056387 4288085770
11.860168 -5.1262207 -1.7314982 4293729569
8.6854553 -3.912113 -1.9019127 4288085770
11.850433 -5.0182142 -1.7346897 4293729569
8.6846924 -3.830116 -1.9030361 4288085770
11.846741 -4.9122128 -1.7358589 4293729569
8.6488953 -3.7350607 -1.8962951 4288085770
11.830017 -4.8031912 -1.7350755 4293729569
8.6501465 -3.6560619 -1.8944073 4288085770
11.874268 -4.7152619 -1.740057 4293729569
8.6623535 -3.5810821 -1.8944764 4288085770
11.929535 -4.6333456 -1.7439928 4293729569
8.6756287 -3.5060999 -1.8925419 4288085770
12.005798 -4.5554614 -1.7498522 4293729569
8.6928406 -3.4311249 -1.8915949 4288085770
12.207031 -4.5197692 -1.7702317 4293729569
8.7060242 -3.3561404 -1.8876605 4288085770
12.50528 -4.5132232 -1.7992435 4293729569
8.7432556 -3.2891939 -1.8876343 4288085770
12.877502 -4.5267906 -1.8369784 4293729569
8.7724915 -3.220232 -1.8846374 4288085770
13.264771 -4.5393796 -1.8746648 4288085770
8.8096924 -3.1512816 -1.8816137 4288085770
13.544983 -4.5147982 -1.8967638 4288085770
8.8739014 -3.0913734 -1.8824868 4288085770
13.702209 -4.4470248 -1.902338 4288085770
8.9301453 -3.0294516 -1.8813896 4288085770
13.83844 -4.3732142 -1.9029908 4288085770
9.0013428 -2.9705505 -1.8802371 4288085770
13.965668 -4.2963886 -1.9016781 4288085770
9.0865173 -2.9146712 -1.8810349 4288085770
14.022919 -4.1964521 -1.8896341 4288085770
9.1607361 -2.8547728 -1.8788738 4288085770
14.165161 -4.1206427 -1.8852696 4288085770
9.2629395 -2.8019173 -1.880609 4288085770
14.351349 -4.0549006 -1.8857436 4288085770
9.3330994 -2.7400081 -1.8744655 4288085770
14.517517 -3.9821229 -1.8802953 4288085770
9.4663696 -2.6941979 -1.8780866 4288085770
14.733765 -3.9194205 -1.8796644 4288085770
9.5805359 -2.6413577 -1.8777819 4288085770
14.916962 -3.846664 -1.8731585 4288085770
9.6937256 -2.5885115 -1.8754802 4288085770
15.178162 -3.7910228 -1.8723669 4288085770
9.8459473 -2.5417249 -1.8770394 4288085770
15.395386 -3.7203114 -1.8647442 4288085770
9.9841003 -2.4899149 -1.8756533 4288085770
15.723572 -3.6737654 -1.8667145 4288085770
10.147308 -2.4441442 -1.8771744 4288085770
16.087799 -3.6292689 -1.8685622 4288085770
10.286499 -2.3903286 -1.8717875 4288085770
16.44696 -3.5797629 -1.868434 4288085770
10.453705 -2.3405583 -1.8703008 4288085770
16.76416 -3.518187 -1.8604636 4288085770
10.635895 -2.2918077 -1.8687625 4288085770
17.164337 -3.469734 -1.8581967 4288085770
10.843079 -2.2460942 -1.8691363 4288085770
17.600525 -3.4213264 -1.8538089 4288085770
11.085236 -2.204433 -1.8723874 4288085770
18.117737 -3.383038 -1.8551359 4288085770
11.316467 -2.158752 -1.8716807 4288085770
18.579895 -3.3306606 -1.8466673 4288085770
11.56665 -2.1120949 -1.8709121 4288085770
11.858856 -2.0695014 -1.8729973 4288085770
12.144012 -2.022893 -1.8721113 4288085770
12.416199 -1.9712591 -1.8672767 4288085770
12.758423 -1.9277325 -1.868196 4288085770
13.115601 -1.883224 -1.8690662 4288085770
13.480774 -1.8337221 -1.8659177 4288085770
13.912018 -1.7893171 -1.8675404 4288085770
14.327179 -1.7388816 -1.8642263 4288085770
14.805359 -1.6895366 -1.8626995 4288085770
15.351562 -1.6432886 -1.8649411 4288085770
15.960785 -1.596128 -1.8679733 4288085770
16.663025 -1.5501008 -1.8746924 4288085770
17.33017 -1.4940104 -1.8715444 4288085770
17.930359 -1.4268112 -1.856636 4288085770
18.623566 -1.3587422 -1.844418 4288085770
18.879242 1.1457815 -1.7668262 4288085770
17.896423 1.2020802 -1.7691898 4288085770
17.01062 1.2552519 -1.771224 4288085770
16.263824 1.3092303 -1.7787952 4288085770
15.584045 1.3591232 -1.7841363 4288085770
14.907227 1.4040198 -1.7834606 4288085770
14.301392 1.4488187 -1.7855482 4288085770
13.712585 1.4886022 -1.7825708 4288085770
13.164764 1.5273318 -1.7794552 4288085770
12.715942 1.5699201 -1.7830143 4288085770
12.317139 1.6134386 -1.7884078 4288085770
11.925323 1.6519532 -1.7897711 4288085770
11.565521 1.6914253 -1.792028 4288085770
18.46463 2.5833654 -1.7412543 4288085770
11.207672 1.7268991 -1.7902732 4288085770
17.647766 2.6004486 -1.7390065 4288085770
10.888855 1.7643185 -1.7913904 4288085770
16.864868 2.6124964 -1.7316384 4288085770
10.559021 1.7977581 -1.7875395 4288085770
16.225037 2.636342 -1.7318087 4288085770
10.285187 1.8341188 -1.7885046 4288085770
15.733246 2.6759787 -1.7405076 4288085770
10.028381 1.8714552 -1.7894149 4288085770
15.278442 2.716568 -1.7490835 4288085770
9.7645264 1.9048052 -1.787343 4288085770
14.82962 2.7521534 -1.753633 4288085770
9.5136719 1.9371405 -1.783226 4288085770
14.354767 2.7787819 -1.7522569 4288085770
9.2868652 1.9714394 -1.7820315 4288085770
13.914948 2.806365 -1.7507644 4288085770
9.0990295 2.0116816 -1.7847152 4288085770
13.561096 2.8448257 -1.7550006 4288085770
8.913208 2.0489254 -1.785388 4288085770
13.171295 2.8723459 -1.7513404 4288085770
8.7254028 2.0841722 -1.7840643 4288085770
12.836426 2.9047871 -1.7505045 4288085770
8.5275269 2.1144361 -1.7797675 4288085770
12.541595 2.9431725 -1.7525434 4288085770
8.3887329 2.1556149 -1.7822886 4288085770
12.263824 2.9825344 -1.7545266 4288085770
8.2199097 2.1888409 -1.7788992 4288085770
11.988953 3.0178986 -1.7534943 4288085770
8.1080933 2.2329779 -1.7843347 4288085770
11.738129 3.0542297 -1.7523828 4288085770
7.965271 2.267168 -1.7818589 4288085770
11.506348 3.0935345 -1.752212 4288085770
7.8274231 2.3033524 -1.7783699 4288085770
11.290527 3.1338177 -1.7519898 4288085770
7.7135925 2.3435011 -1.7788062 4288085770
11.085693 3.1740885 -1.7507305 4288085770
7.5957642 2.3806562 -1.7772522 4288085770
10.918854 3.2223034 -1.7533555 4288085770
7.5009766 2.4227753 -1.7786279 4288085770
10.768066 3.2724972 -1.7559299 4288085770
7.3971252 2.4609127 -1.7770276 4288085770
10.612244 3.3177004 -1.7555141 4288085770
7.3033142 2.5000362 -1.7753954 4288085770
10.472443 3.3678818 -1.7570515 4288085770
7.2324829 2.5461245 -1.7776976 4288085770
10.319672 3.4120836 -1.7546239 4288085770
7.1436768 2.5862417 -1.7760496 4288085770
10.207855 3.4672279 -1.7560754 4288085770
7.0738525 2.6313314 -1.7763462 4288085770
10.105072 3.5233603 -1.7574978 4288085770
6.9960327 2.6724339 -1.773664 4288085770
9.979248 3.5715284 -1.7549858 4288085770
6.9111938 2.7105532 -1.7680006 4288085770
9.8934326 3.6296368 -1.7553544 4288085770
6.8563843 2.7576208 -1.7682495 4288085770
9.8206482 3.692729 -1.7576866 4288085770
6.8085632 2.8056812 -1.768477 4288085770
9.7388611 3.7518349 -1.7570434 4288085770
6.7397461 2.8477755 -1.7637658 4288085770
9.6620483 3.8109369 -1.755383 4288085770
6.6839294 2.8918505 -1.761014 4288085770
9.623291 3.8819809 -1.7586136 4288085770
6.663147 2.9488716 -1.7641635 4288085770
9.5775146 3.9520388 -1.7588658 4288085770
6.6313171 3.0009127 -1.7633433 4288085770
9.5147095 4.014123 -1.7561631 4288085770
6.5994873 3.0529518 -1.7625232 4288085770
9.4879456 4.0871563 -1.7573557 4288085770
6.5697021 3.1049919 -1.7606955 4288085770
9.4551086 4.1602001 -1.755569 4288085770
6.5709534 3.169982 -1.7647834 4288085770
9.4543762 4.2451954 -1.7576919 4288085770
6.5421143 3.2230215 -1.7609544 4288085770
9.417572 4.316246 -1.7539153 4288085770
6.5152893 3.2760611 -1.7571182 4288085770
9.4258423 4.4032326 -1.7550111 4288085770
6.510498 3.3380642 -1.7562218 4288085770
9.414093 4.4832497 -1.7521639 4288085770
6.5106812 3.401063 -1.7563105 4288085770
9.4293213 4.5752287 -1.7522435 4288085770
6.519928 3.4690456 -1.7573757 4288085770
9.4495544 4.6691999 -1.7513094 4288085770
6.5341492 3.5390253 -1.7574272 4288085770
9.4797974 4.76616 -1.7503462 4288085770
6.5443726 3.6070099 -1.7564888 4288085770
9.5240784 4.8721008 -1.7503486 4288085770
6.5765991 3.6859608 -1.7584929 4288085770
9.5553284 4.9720612 -1.7473865 4288085770
6.6268616 3.7728863 -1.7634487 4288085770
9.6065674 5.081995 -1.7453718 4288085770
6.6560669 3.8508453 -1.7624617 4288085770
9.6828918 5.2018909 -1.7462873 4288085770
6.6852722 3.9288082 -1.7604747 4288085770
9.7471313 5.3188086 -1.7432389 4288085770
6.7335205 4.0167408 -1.7614379 4288085770
9.832428 5.4456978 -1.7411346 4288085770
6.7898254 4.1096621 -1.7633815 4288085770
9.9237366 5.5785789 -1.7390189 4288085770
6.8440247 4.2015905 -1.762331 4288085770
10.05304 5.7294073 -1.7398024 4288085770
6.913269 4.3004951 -1.7632403 4288085770
10.161377 5.8722668 -1.7366438 4288085770
6.9605408 4.3904362 -1.7592096 4288085770
10.342743 6.0530195 -1.7412963 4288085770
7.0368042 4.4943323 -1.7591028 4288085770
10.468018 6.205862 -1.7360954 4288085770
7.124054 4.6042175 -1.7589679 4288085770
10.668427 6.3995943 -1.7377028 4288085770
7.2023315 4.7121153 -1.7558594 4288085770
10.85379 6.5893517 -1.7353544 4288085770
7.3046265 4.8329792 -1.75669 4288085770
11.055176 6.7880888 -1.7339654 4288085770
7.4038696 4.9518499 -1.7535276 4288085770
11.27359 6.9988041 -1.7315373 4288085770
7.5181885 5.0816994 -1.7523308 4288085770
11.502991 7.2175093 -1.7260828 4288085770
7.6274414 5.2075596 -1.7481446 4288085770
11.813446 7.4850998 -1.7284288 4288085770
7.7747803 5.3563633 -1.7488651 4288085770
12.086884 7.7337437 -1.7228708 4288085770
7.9301147 5.5121574 -1.7495675 4288085770
12.394379 8.0043497 -1.7172308 4288085770
8.0734253 5.6599703 -1.7453003 4288085770
8.2637634 5.8377199 -1.7459178 4288085770
8.4691772 6.0264463 -1.7465005 4288085770
8.6705627 6.2141838 -1.7440958 4288085770
8.9118958 6.4248638 -1.7455912 4288085770
9.1713562 6.649519 -1.7460451 4288085770
9.4347839 6.879179 -1.7434936 4288085770
9.7192078 7.1228075 -1.7408915 4288085770
10.012634 7.3734293 -1.7352695 4288085770
10.362152 7.6609726 -1.7335134 4288085770
10.745667 7.9724693 -1.731678 4288085770
17.994568 -0.72728825 -1.8135271 4288085770
16.946716 -0.75396347 -1.8269973 4288085770
15.838806 -0.7695365 -1.8226848 4288085770
14.895905 -0.78433228 -1.8258204 4288085770
13.994049 -0.79317236 -1.8228273 4288085770
13.244171 -0.80321884 -1.827323 4288085770
12.516235 -0.80928564 -1.8267512 4288085770
11.881378 -0.81447887 -1.8298693 4288085770
18.442902 -1.2638955 -1.8282323 4288085770
11.324524 -0.81977415 -1.8357253 4288085770
17.324097 -1.2494869 -1.8459997 4288085770
10.779633 -0.82208061 -1.8375459 4288085770
16.125244 -1.2199464 -1.8430572 4288085770
10.268768 -0.8224268 -1.8372545 4288085770
15.075439 -1.1925983 -1.8406124 4288085770
9.783905 -0.82080793 -1.8368797 4288085770
14.139526 -1.1673985 -1.8397827 4288085770
9.3540344 -0.8192625 -1.8393207 4288085770
13.304688 -1.14433 -1.8396115 4288085770
8.946167 -0.81774473 -1.8406878 4288085770
12.570862 -1.1233945 -1.8420982 4288085770
8.5662842 -0.81426287 -1.8419638 4288085770
11.894012 -1.1025319 -1.8433948 4288085770
8.2154236 -0.8108182 -1.8441424 4288085770
11.282166 -1.0827522 -1.8454714 4288085770
7.8565369 -0.80435705 -1.841352 4288085770
10.690308 -1.0609937 -1.8434844 4288085770
7.5437012 -0.79896164 -1.8434062 4288085770
10.171478 -1.0413342 -1.8452492 4288085770
7.2408447 -0.79257441 -1.8424282 4288085770
9.6976318 -1.0227294 -1.8458619 4288085770
6.9579773 -0.78621483 -1.8423839 4288085770
9.2547913 -1.0051689 -1.8483691 4288085770
6.6921387 -0.77887869 -1.8432832 4288085770
8.8479309 -0.98765326 -1.8507562 4288085770
6.4612427 -0.7735939 -1.8480625 4288085770
8.4520874 -0.96914816 -1.8501072 4288085770
6.2183838 -0.76628494 -1.8478851 4288085770
8.0672302 -0.94865179 -1.8464246 4288085770
5.9874878 -0.75699091 -1.8466706 4288085770
7.7203674 -0.93021059 -1.845612 4288085770
5.7536621 -0.74669027 -1.8434677 4288085770
7.4104919 -0.91281796 -1.8466735 4288085770
5.5507812 -0.73843479 -1.8441572 4288085770
7.1156616 -0.89644575 -1.8476834 4288085770
5.3648987 -0.7302022 -1.8457904 4288085770
6.8228149 -0.87806749 -1.8446894 4288085770
5.1790466 -0.72096825 -1.8464246 4288085770
6.5739441 -0.86275721 -1.8475437 4288085770
4.9962158 -0.71073484 -1.8450503 4288085770
6.334137 -0.84745693 -1.8503675 4288085770
4.820343 -0.6995101 -1.8426538 4288085770
6.097229 -0.83015537 -1.8491845 4288085770
4.6574402 -0.69030476 -1.8422117 4288085770
5.8604126 -0.81285238 -1.8470016 4288085770
4.5136108 -0.6811285 -1.845705 4288085770
5.6485596 -0.79658365 -1.8457332 4288085770
4.3487244 -0.66891336 -1.8402734 4288085770
5.4306946 -0.77830076 -1.8414879 4288085770
4.2089233 -0.65873861 -1.8407545 4288085770
5.2438354 -0.76206589 -1.8421354 4288085770
4.0700378 -0.64756298 -1.8402343 4288085770
5.0759583 -0.74885845 -1.8447151 4288085770
3.9651794 -0.64044333 -1.8475947 4288085770
4.8901062 -0.73061705 -1.8403625 4288085770
4.7252808 -0.7154088 -1.8399348 4288085770
4.5624084 -0.69920254 -1.8385029 4288085770
4.4135742 -0.68301439 -1.8380232 4288085770
4.2606812 -0.66681719 -1.8345571 4288085770
4.125824 -0.65164948 -1.8350296 4288085770
4.0100098 -0.63851118 -1.8394346 4288085770
3.9892883 1.2951455 -1.7970381 4288085770
4.1144104 1.3129864 -1.7956409 4288085770
4.2505493 1.3328104 -1.7952099 4288085770
4.3937378 1.3526254 -1.7967553 4288085770
4.5408936 1.3714371 -1.7962856 4288085770
4.6920166 1.3912416 -1.796804 4288085770
4.8331604 1.4070687 -1.7913499 4288085770
4.9953003 1.4258633 -1.7898297 4288085770
4.0472107 1.2550402 -1.8007693 4288085770
5.1794739 1.4476247 -1.7922397 4288085770
4.1653137 1.2648945 -1.7963848 4288085770
5.3616028 1.4683905 -1.7926555 4288085770
4.3084717 1.2787075 -1.7979212 4288085770
5.5447388 1.4871602 -1.7900643 4288085770
4.4626465 1.2935066 -1.8014221 4288085770
5.7459106 1.5079041 -1.7904158 4288085770
4.5967407 1.3023396 -1.7969818 4288085770
5.9470825 1.5266509 -1.7877641 4288085770
4.7658997 1.3171172 -1.8014321 4288085770
6.1732178 1.5483608 -1.7890329 4288085770
4.9190674 1.3279214 -1.7999306 4288085770
6.4143982 1.5710526 -1.7902522 4288085770
5.0741577 1.336729 -1.7964201 4288085770
6.6625671 1.5927367 -1.7904468 4288085770
5.2513428 1.3485031 -1.7968388 4288085770
6.9317017 1.6163926 -1.791574 4288085770
5.4354858 1.3592668 -1.7972326 4288085770
7.1888428 1.6360717 -1.7877355 4288085770
5.6145935 1.3690405 -1.7946429 4288085770
7.4880066 1.6596904 -1.7887611 4288085770
5.8097229 1.3777938 -1.7929974 4288085770
7.7931519 1.6823044 -1.7877655 4288085770
6.0368958 1.3914986 -1.7972507 4288085770
8.1303406 1.7068748 -1.7896647 4288085770
6.2320251 1.3972569 -1.7926006 4288085770
8.4685059 1.7294493 -1.7875576 4288085770
6.4821777 1.4099336 -1.7967753 4288085770
8.8566895 1.7559538 -1.790288 4288085770
6.7093201 1.4166474 -1.7950191 4288085770
9.2398376 1.7794724 -1.7880306 4288085770
6.9524536 1.4243402 -1.79321 4288085770
9.67099 1.8059244 -1.7896166 4288085770
7.2095642 1.4310169 -1.7913527 4288085770
10.117126 1.8303623 -1.7891493 4288085770
7.4827271 1.4376712 -1.7904415 4288085770
10.611298 1.8577385 -1.7885242 4288085770
7.7738342 1.4443016 -1.7904696 4288085770
11.145508 1.8870611 -1.7907672 4288085770
8.0839539 1.4499087 -1.7904325 4288085770
11.728638 1.9163237 -1.7918458 4288085770
8.4050903 1.4545035 -1.7893567 4288085770
12.298828 1.9386129 -1.7859573 4288085770
8.7652588 1.4600439 -1.792151 4288085770
12.912903 1.9618473 -1.779923 4288085770
9.1453857 1.4655604 -1.7938781 4288085770
13.615082 1.9889679 -1.7755976 4288085770
9.51651 1.4650974 -1.7896266 4288085770
14.411224 2.0209646 -1.7759633 4288085770
9.9316711 1.4665718 -1.7902298 4288085770
15.245422 2.0509186 -1.7731977 4288085770
10.369751 1.4660168 -1.7907534 4288085770
16.241608 2.0886602 -1.7758989 4288085770
10.822876 1.463449 -1.7882233 4288085770
17.18573 2.1114874 -1.7647533 4288085770
11.344055 1.4627876 -1.7914662 4288085770
18.365936 2.1500015 -1.7658358 4288085770
11.864166 1.4561338 -1.7897048 4288085770
12.414276 1.4474435 -1.7868395 4288085770
13.006348 1.4357023 -1.7828283 4288085770
13.684479 1.4268451 -1.785532 4288085770
14.433624 1.4148989 -1.7879915 4288085770
15.158722 1.3939929 -1.7835197 4288085770
16.017822 1.37391 -1.7845979 4288085770
16.864899 1.343853 -1.7777019 4288085770
17.793976 1.3096952 -1.770524 4288085770
18.841034 1.2713857 -1.7659435 4288085770
9.9907532 -7.8167734 -1.7113938 4293729569
9.5452576 -7.5222292 -1.7153158 4293729569
9.1177673 -7.235702 -1.716166 4293729569
8.7332153 -6.975235 -1.7198353 4293729569
8.383667 -6.7358084 -1.7233548 4293729569
8.0340881 -6.4933772 -1.7228794 4293729569
7.7414856 -6.2880235 -1.7281575 4293729569
7.4688721 -6.0936956 -1.7333531 4293729569
7.2192078 -5.912395 -1.7384524 4293729569
6.9805908 -5.7371092 -1.7435064 4293729569
10.097046 -7.7769256 -1.7070684 4293729569
6.7489319 -5.5648279 -1.7455325 4293729569
9.6715088 -7.4644017 -1.7079492 4293729569
6.5392761 -5.4065747 -1.7484646 4293729569
9.2900391 -7.1799359 -1.7116408 4293729569
6.3605957 -5.2673674 -1.7562642 4293729569
8.9324646 -6.9114971 -1.7132292 4293729569
6.1719055 -5.1201391 -1.7581091 4293729569
8.6119385 -6.6661077 -1.7166595 4293729569
6.0302124 -5.0039802 -1.7677517 4293729569
8.3213806 -6.439754 -1.7199616 4293729569
5.8595276 -4.8667741 -1.7695212 4293729569
8.0527344 -6.2284284 -1.7231688 4293729569
5.6898193 -4.7285633 -1.7672901 4293729569
7.8051453 -6.0301299 -1.7272854 4293729569
5.5310669 -4.5973678 -1.7660108 4293729569
7.6004944 -5.8588896 -1.7352185 4293729569
5.4183655 -4.4952416 -1.7735353 4293729569
7.3968811 -5.6886458 -1.7391472 4293729569
5.3016357 -4.3911052 -1.7770758 4293729569
7.2171936 -5.5334358 -1.7459731 4293729569
5.1608887 -4.2689276 -1.7727237 4293729569
7.036499 -5.3772173 -1.7478046 4293729569
5.0961609 -4.1978693 -1.7860413 4293729569
6.8588562 -5.2240033 -1.7496214 4293729569
5.1384583 -4.1959834 -1.8268995 4293729569
6.7051697 -5.0838194 -1.7523379 4293729569
5.1966858 -4.2021227 -1.8716922 4288085770
6.5584412 -4.9496441 -1.755023 4293729569
5.22995 -4.1902213 -1.909595 4288085770
6.4197693 -4.8194771 -1.7566748 4293729569
5.1712341 -4.1171665 -1.9198956 4288085770
6.3120422 -4.7083569 -1.7631955 4293729569
5.0544739 -4.0060139 -1.9124465 4288085770
6.1863098 -4.5872045 -1.7637906 4293729569
4.9377136 -3.8948591 -1.9029975 4288085770
6.0785828 -4.4760761 -1.7653112 4293729569
4.8319092 -3.7917197 -1.8945003 4288085770
5.9928589 -4.3789816 -1.7707376 4293729569
4.7611389 -3.7086358 -1.8948555 4288085770
5.9051514 -4.2788801 -1.7741742 4293729569
4.6853943 -3.6235406 -1.8922305 4288085770
5.9073792 -4.2339191 -1.7972288 4293729569
4.6376038 -3.5544913 -1.8964891 4288085770
5.9796448 -4.2290668 -1.8359895 4288085770
4.5658264 -3.4713988 -1.8918476 4288085770
6.0789185 -4.2372541 -1.8796406 4288085770
4.4910583 -3.3862996 -1.8852196 4288085770
6.124176 -4.2123556 -1.9095216 4288085770
4.4502563 -3.3222558 -1.8874469 4288085770
6.050415 -4.118268 -1.9099026 4288085770
4.3944397 -3.2481833 -1.8827391 4288085770
5.9626465 -4.0171537 -1.9033413 4288085770
4.3486633 -3.1801274 -1.8809886 4288085770
5.8618774 -3.9100177 -1.8938322 4288085770
4.3218689 -3.1231017 -1.8841586 4288085770
5.8041382 -3.8259473 -1.8921452 4288085770
4.2860718 -3.0610597 -1.8833656 4288085770
5.7443237 -3.7408738 -1.8904662 4288085770
4.2392578 -2.9919956 -1.8766208 4288085770
5.7015381 -3.6648231 -1.8897176 4288085770
4.2234497 -2.9409842 -1.879745 4288085770
5.6467896 -3.5837529 -1.8860159 4288085770
4.2066345 -2.8879695 -1.881875 4288085770
5.5959778 -3.5046871 -1.8812981 4288085770
4.1728516 -2.8269241 -1.8770742 4288085770
5.5551758 -3.4306338 -1.8775401 4288085770
4.1620483 -2.7769167 -1.8791804 4288085770
5.5364075 -3.3686166 -1.8796897 4288085770
4.1382141 -2.7208862 -1.8753386 4288085770
5.5215759 -3.3076029 -1.8808246 4288085770
4.1374207 -2.6768904 -1.8774018 4288085770
5.5028076 -3.2455814 -1.8799744 4288085770
4.1256104 -2.6268771 -1.8765116 4288085770
5.4890137 -3.1855681 -1.8801041 4288085770
4.1227722 -2.5808783 -1.8765845 4288085770
5.4832153 -3.1285639 -1.8802032 4288085770
4.131012 -2.5408964 -1.8806119 4288085770
5.464386 -3.0665367 -1.8753533 4288085770
4.1161499 -2.4888742 -1.8747339 4288085770
5.4515991 -3.0075197 -1.872478 4288085770
4.1283264 -2.4488962 -1.877748 4288085770
5.4667969 -2.9605455 -1.8754921 4288085770
4.1264954 -2.4038932 -1.8748164 4288085770
5.4759827 -2.9115603 -1.8755283 4288085770
4.1456909 -2.366925 -1.8778019 4288085770
5.4931335 -2.8645873 -1.8775353 4288085770
4.1368713 -2.3189063 -1.8708982 4288085770
5.5023499 -2.8155987 -1.8755717 4288085770
4.1690674 -2.2879572 -1.8768315 4288085770
5.5175171 -2.767621 -1.875587 4288085770
4.1781921 -2.2459698 -1.8748589 4288085770
5.5387268 -2.7226481 -1.874577 4288085770
4.201416 -2.2110028 -1.8758278 4288085770
5.5568848 -2.6756711 -1.872581 4288085770
4.2165833 -2.1720223 -1.8738298 4288085770
5.5900574 -2.634716 -1.8735247 4288085770
4.2407532 -2.1360545 -1.8737974 4288085770
5.6242371 -2.5937614 -1.8734655 4288085770
4.269928 -2.1020951 -1.8747454 4288085770
5.6584167 -2.5528052 -1.872406 4288085770
4.2930603 -2.0661225 -1.8717165 4288085770
5.7076111 -2.5168722 -1.875289 4288085770
4.3292236 -2.034174 -1.8736377 4288085770
5.7537537 -2.479933 -1.8751831 4288085770
4.3553772 -1.9982052 -1.8705983 4288085770
5.7899475 -2.4379747 -1.8721185 4288085770
4.3985901 -1.9682636 -1.8724928 4288085770
5.8381348 -2.4000359 -1.8710074 4288085770
4.4497681 -1.9413352 -1.8753562 4288085770
5.8973083 -2.3661139 -1.8718538 4288085770
4.4809265 -1.9063716 -1.8722987 4288085770
5.9534607 -2.330183 -1.8707128 4288085770
4.5210876 -1.8744211 -1.8702064 4288085770
6.022644 -2.2982726 -1.8715219 4288085770
4.5712585 -1.8444877 -1.8710771 4288085770
6.08078 -2.2623448 -1.8693748 4288085770
4.628418 -1.8175631 -1.87292 4288085770
6.1669617 -2.2334571 -1.8721223 4288085770
4.6945801 -1.7916517 -1.8757315 4288085770
6.242157 -2.2005506 -1.8709126 4288085770
4.751709 -1.7637262 -1.8755755 4288085770
6.3183289 -2.1686449 -1.8686981 4288085770
4.8059082 -1.7337923 -1.8734326 4288085770
6.4174805 -2.1417727 -1.8713984 4288085770
4.8690491 -1.7058711 -1.8722572 4288085770
6.5086365 -2.111886 -1.8701305 4288085770
4.946228 -1.6819749 -1.8760281 4288085770
6.6068115 -2.0820098 -1.8698387 4288085770
5.0064087 -1.6520457 -1.8718648 4288085770
6.6969604 -2.0501189 -1.8665771 4288085770
5.0664978 -1.6221175 -1.867702 4288085770
6.821106 -2.0262771 -1.8681889 4288085770
5.1546936 -1.5992322 -1.8704343 4288085770
6.9362793 -1.9994211 -1.8678355 4288085770
5.2388611 -1.5743394 -1.870183 4288085770
7.062439 -1.9735794 -1.868443 4288085770
5.3059998 -1.5444169 -1.8649964 4288085770
7.200592 -1.9497523 -1.8690076 4288085770
5.394165 -1.5185266 -1.8637328 4288085770
7.3647766 -1.929966 -1.8744779 4288085770
5.4863281 -1.4936428 -1.8634543 4288085770
7.5079651 -1.9041414 -1.8730278 4288085770
5.5764465 -1.4667516 -1.8601851 4288085770
7.677063 -1.8833561 -1.8754835 4288085770
5.7066345 -1.4479227 -1.8657694 4288085770
7.8362427 -1.8575501 -1.8729792 4288085770
5.8027954 -1.4210377 -1.8614802 4288085770
8.0184021 -1.8357782 -1.8743916 4288085770
5.9439697 -1.4032211 -1.8670254 4288085770
8.2145691 -1.8150249 -1.8757544 4288085770
6.0830994 -1.3834009 -1.8705816 4288085770
8.4187012 -1.7932787 -1.8760929 4288085770
6.1972656 -1.3565373 -1.866231 4288085770
8.6118774 -1.7685127 -1.8724718 4288085770
6.3354492 -1.3337111 -1.8667936 4288085770
8.8280029 -1.7457776 -1.8707705 4288085770
6.4715881 -1.308877 -1.8643661 4288085770
9.0691528 -1.7250772 -1.8709812 4288085770
6.6037292 -1.2830362 -1.8599534 4288085770
9.3233337 -1.7053905 -1.8701468 4288085770
6.7558899 -1.260222 -1.8574686 4288085770
9.5664673 -1.6806846 -1.8653564 4288085770
6.927002 -1.2374344 -1.8569198 4288085770
9.8726196 -1.6630645 -1.8673429 4288085770
7.1141968 -1.2166686 -1.8583136 4288085770
10.160767 -1.6404142 -1.8623977 4288085770
7.294342 -1.1928902 -1.8567357 4288085770
10.522919 -1.6268659 -1.866189 4288085770
7.5024719 -1.1721497 -1.857058 4288085770
10.895081 -1.6103272 -1.8679504 4288085770
7.719635 -1.1504188 -1.8573523 4288085770
11.256226 -1.5897655 -1.8637547 4288085770
7.9447937 -1.1276979 -1.8576202 4288085770
11.713409 -1.5773354 -1.8682222 4288085770
8.1959534 -1.1070094 -1.8587966 4288085770
12.129517 -1.556839 -1.8628402 4288085770
8.4651184 -1.0863438 -1.8599129 4288085770
12.635651 -1.5424633 -1.8641453 4288085770
8.7382812 -1.0636802 -1.8590178 4288085770
13.077789 -1.5169888 -1.8516817 4288085770
9.0124512 -1.0400143 -1.8561215 4288085770
13.654938 -1.5036993 -1.8517442 4288085770
9.2945557 -1.0133548 -1.8502021 4288085770
14.299103 -1.48949 -1.8515811 4288085770
9.6287231 -0.99076557 -1.8501005 4288085770
15.032227 -1.4793916 -1.8531108 4288085770
9.9688721 -0.96617937 -1.8459811 4288085770
15.83139 -1.4683733 -1.8544178 4288085770
10.366058 -0.94266796 -1.8456674 4288085770
16.818573 -1.4655967 -1.8630772 4288085770
10.758179 -0.91614246 -1.8403754 4288085770
17.663666 -1.4456162 -1.8512416 4288085770
11.207306 -0.89169312 -1.8388872 4288085770
18.586792 -1.4227228 -1.8341455 4288085770
11.676483 -0.86526394 -1.8353338 4288085770
12.220642 -0.84093285 -1.8355231 4288085770
12.790802 -0.8136282 -1.8326287 4288085770
13.403961 -0.78537369 -1.82759 4288085770
14.108124 -0.75723457 -1.8262434 4288085770
14.896271 -0.7271986 -1.824614 4288085770
15.834442 -0.69835281 -1.8274755 4288085770
16.894623 -0.66765547 -1.8309264 4288085770
17.9198 -0.62989759 -1.8215055 4288085770
18.90509 2.8085785 -1.7415595 4288085770
18.582336 2.9069557 -1.7447915 4288085770
18.255585 2.9993429 -1.7450294 4288085770
17.935822 3.088726 -1.742239 4288085770
17.672028 3.1840363 -1.7432675 4288085770
17.470306 3.2882681 -1.747098 4288085770
17.29657 3.3934669 -1.7518353 4288085770
17.152832 3.5026293 -1.7564759 4288085770
17.016113 3.6107826 -1.7610922 4288085770
16.749268 3.6911144 -1.7501092 4288085770
16.553528 3.7823524 -1.7449012 4288085770
16.444763 3.8914785 -1.7454238 4288085770
16.343018 3.9995985 -1.7449207 4288085770
16.271301 4.1146812 -1.745326 4288085770
16.219543 4.2337379 -1.7466693 4288085770
16.193817 4.3597641 -1.7489343 4288085770
16.151123 4.4778156 -1.7472453 4288085770
16.198425 4.6217499 -1.7522879 4288085770
16.120636 4.732851 -1.7437081 4288085770
16.165955 4.8757935 -1.7457566 4288085770
16.216278 5.02073 -1.7467904 4288085770
16.23053 5.1557198 -1.7409325 4288085770
16.369873 5.3305426 -1.7467074 4288085770
16.411163 5.4775 -1.7407751 4288085770
16.553497 5.6573267 -1.7425466 4288085770
16.692841 5.8381624 -1.7413297 4288085770
16.910248 6.0468941 -1.7448878 4288085770
17.116638 6.2546453 -1.7464824 4288085770
17.314972 6.462409 -1.7441044 4288085770
17.543335 6.6831388 -1.7426434 4288085770
17.811768 6.9238214 -1.7410746 4288085770
18.018127 7.1435862 -1.7316866 4288085770
18.38559 7.4291458 -1.7328463 4288085770
18.853119 7.7545795 -1.7387238 4288085770
18.390747 -0.28847265 -1.8127789 4288085770
17.176941 -0.30007553 -1.8298616 4288085770
15.77298 -0.30240917 -1.8135991 4288085770
14.697113 -0.30615139 -1.8142262 4288085770
13.706207 -0.3069849 -1.8085709 4288085770
12.866333 -0.30700588 -1.8104062 4288085770
12.087433 -0.30609131 -1.8080368 4288085770
18.754272 -0.48288822 -1.7932758 4288085770
11.449585 -0.30535603 -1.8151932 4288085770
17.499512 -0.47144794 -1.8145289 4288085770
10.822693 -0.30262041 -1.813313 4288085770
16.144623 -0.45185328 -1.8091311 4288085770
10.273865 -0.29998493 -1.8171692 4288085770
15.01178 -0.43552971 -1.8099794 4288085770
9.7609863 -0.29638863 -1.8189054 4288085770
13.974884 -0.41731024 -1.8065057 4288085770
9.3071289 -0.29186487 -1.8224435 4288085770
13.090027 -0.40227699 -1.8075142 4288085770
8.8652649 -0.2873497 -1.8229408 4288085770
12.305206 -0.38736057 -1.8081841 4288085770
8.4733887 -0.28189754 -1.8252711 4288085770
11.633362 -0.37358236 -1.8134713 4288085770
8.0765076 -0.27443171 -1.8226204 4288085770
10.994476 -0.35983944 -1.8146472 4288085770
7.7476807 -0.26905441 -1.8267369 4288085770
10.423645 -0.34617329 -1.8155932 4288085770
7.4178162 -0.26166964 -1.82586 4288085770
9.9037781 -0.3325696 -1.8173666 4288085770
7.1429443 -0.25636101 -1.8327947 4288085770
9.4299316 -0.31902122 -1.8199844 4288085770
6.8520813 -0.2480197 -1.8307872 4288085770
8.9920654 -0.30651236 -1.8214793 4288085770
6.5612183 -0.23967505 -1.8257799 4288085770
8.5932312 -0.29305267 -1.8248444 4288085770
6.3243408 -0.23240805 -1.8305888 4288085770
8.195343 -0.27958632 -1.8222055 4288085770
6.0664978 -0.22310162 -1.8254709 4288085770
7.8674927 -0.26821518 -1.8283272 4288085770
5.8496094 -0.21485519 -1.8282142 4288085770
7.5236511 -0.25381041 -1.8255076 4288085770
5.6407471 -0.20661354 -1.82793 4288085770
7.217804 -0.24145699 -1.8265562 4288085770
5.4338989 -0.19737339 -1.8276396 4288085770
6.9269104 -0.22811842 -1.8255558 4288085770
5.2470093 -0.18915844 -1.8282814 4288085770
6.6500549 -0.21579552 -1.8245068 4288085770
5.077179 -0.1799674 -1.8308659 4288085770
6.4002075 -0.20350695 -1.8253665 4288085770
4.9103088 -0.17177725 -1.8324394 4288085770
6.1603394 -0.19023085 -1.8261938 4288085770
4.747467 -0.16158915 -1.8320026 4288085770
5.9394836 -0.17797613 -1.8259554 4288085770
4.5786133 -0.15239 -1.8285842 4288085770
5.7226257 -0.16472197 -1.8237047 4288085770
4.4417419 -0.14323759 -1.831058 4288085770
5.5147705 -0.15248013 -1.8224225 4288085770
4.3018799 -0.1330781 -1.8325429 4288085770
5.3378906 -0.14028025 -1.8250356 4288085770
4.1640015 -0.12291718 -1.8300214 4288085770
5.1560364 -0.12807035 -1.8246655 4288085770
4.032135 -0.11276627 -1.8294792 4288085770
4.9861755 -0.11587572 -1.8242545 4288085770
4.8353271 -0.10370541 -1.8267794 4288085770
4.6724854 -0.090514183 -1.8243461 4288085770
4.5205994 -0.078337669 -1.8218751 4288085770
4.3867493 -0.066186428 -1.8233428 4288085770
4.2588806 -0.054040909 -1.82479 4288085770
4.1360168 -0.041903496 -1.8252206 4288085770
4.0091553 -0.028756142 -1.8236661 4288085770
4.0229492 2.0339136 -1.7833691 4288085770
4.1481018 2.064765 -1.7849898 4288085770
4.2833252 2.0986042 -1.7865806 4288085770
4.4114685 2.1284552 -1.7851896 4288085770
4.5536194 2.1612883 -1.7857566 4288085770
4.6967773 2.1931219 -1.7853179 4288085770
4.8489685 2.226943 -1.7858515 4288085770
5.0041199 2.2597618 -1.7853742 4288085770
4.0298157 1.9538755 -1.7872229 4288085770
5.1672974 2.2935724 -1.7848711 4288085770
4.1609802 1.9777193 -1.7888141 4288085770
5.3154297 2.3194094 -1.7784076 4288085770
4.2941589 2.0025606 -1.7903991 4288085770
5.4945984 2.3551989 -1.7788534 4288085770
4.4202881 2.0224152 -1.789001 4288085770
5.7158203 2.4029303 -1.7881742 4288085770
4.5554504 2.0442572 -1.7885756 4288085770
5.8869324 2.4307384 -1.7826362 4288085770
4.6885986 2.0631056 -1.7861528 4288085770
6.0870972 2.4665079 -1.7810116 4288085770
4.8447266 2.0879202 -1.7876606 4288085770
6.3252869 2.5122242 -1.7862725 4288085770
5.0139465 2.1147175 -1.7921271 4288085770
6.5304565 2.5449915 -1.7826276 4288085770
5.157074 2.1315565 -1.7876682 4288085770
6.7376099 2.5757599 -1.7759719 4288085770
5.3192139 2.153368 -1.7871513 4288085770
6.9777832 2.6144829 -1.7752166 4288085770
5.4713135 2.1691961 -1.7826605 4288085770
7.236969 2.6561823 -1.776402 4288085770
5.6595154 2.194973 -1.7860622 4288085770
7.4771118 2.6889105 -1.7716389 4288085770
5.8616943 2.2217321 -1.7904181 4288085770
7.7422791 2.7266111 -1.7667985 4288085770
6.0388489 2.238533 -1.7868443 4288085770
8.0304565 2.7672796 -1.7658844 4288085770
6.2269592 2.2573166 -1.7852368 4288085770
