# .PCD v0.7 - Point Cloud Data file format
VERSION 0.7
FIELDS x y z rgb
SIZE 4 4 4 4
TYPE F F F U
COUNT 1 1 1 1
WIDTH 1122
HEIGHT 1
VIEWPOINT 0 0 0 1 0 0 0
POINTS 1122
DATA ascii
7.5966949 4.1788273 -1.6716857 4288085770
5.7037811 3.3398817 -1.6870086 4288085770
7.6378021 4.2638083 -1.6690619 4288085770
5.7348785 3.405875 -1.6865267 4288085770
7.6979065 4.3578072 -1.669331 4288085770
5.7639771 3.4718628 -1.6850502 4288085770
7.7559967 4.4527941 -1.6675996 4288085770
5.8070984 3.5448618 -1.6854924 4288085770
7.8301086 4.5547857 -1.6667813 4288085770
5.864212 3.6258779 -1.6888478 4288085770
7.8311768 4.6206903 -1.6513833 4288085770
5.9173126 3.7058768 -1.68922 4288085770
7.6561279 4.589385 -1.601059 4293729569
5.9744263 3.7878754 -1.6895691 4288085770
7.5511475 4.5931549 -1.5633289 4293729569
6.0415344 3.8768802 -1.6908487 4288085770
7.4671478 4.6069498 -1.52948 4293729569
6.0886383 3.9528491 -1.6862618 4288085770
7.364151 4.607708 -1.4897624 4293729569
6.1787567 4.0538764 -1.6914043 4288085770
7.3201599 4.6405306 -1.4606876 4293729569
6.2628784 4.1528811 -1.6925761 4288085770
7.1911469 4.6222601 -1.4161565 4293729569
6.3449707 4.2498674 -1.6907653 4288085770
7.1051636 4.6260309 -1.378373 4293729569
6.4520874 4.3628888 -1.6947886 4288085770
7.006134 4.6207838 -1.3376799 4293729569
6.5501862 4.4708805 -1.693867 4288085770
6.9341431 4.6285601 -1.300833 4293729569
6.652298 4.5808725 -1.6929221 4288085770
6.8441315 4.6243124 -1.2601085 4293729569
6.7563934 4.6928525 -1.6899595 4288085770
6.7711334 4.6280823 -1.2222885 4293729569
6.8795013 4.8178501 -1.6898659 4288085770
6.7101288 4.6368585 -1.1854049 4293729569
6.9986115 4.9378309 -1.6868135 4288085770
6.6411285 4.6396174 -1.1455798 4293729569
7.1187134 5.0597978 -1.681746 4288085770
6.5801086 4.6443882 -1.1077199 4293729569
7.2387848 5.1827478 -1.6736723 4288085770
6.5221252 4.6491575 -1.0698515 4293729569
6.9556274 5.0421915 -1.5813025 4293729569
6.4581146 4.6489162 -1.03003 4293729569
6.3342896 4.6752439 -1.4242327 4293729569
6.3950958 4.645669 -0.98922336 4293729569
6.2542572 4.6569557 -1.3765635 4293729569
6.3390961 4.6464329 -0.95037329 4293729569
6.20224 4.6566963 -1.3337083 4293729569
6.2810822 4.6431918 -0.91055262 4293729569
6.1672363 4.6644602 -1.294757 4293729569
6.2360992 4.6459556 -0.8716594 4293729569
6.12323 4.6642065 -1.2528789 4293729569
6.1900787 4.646719 -0.83278108 4293729569
6.0782166 4.6619473 -1.2100155 4293729569
6.1530914 4.651484 -0.79385328 4293729569
6.0451965 4.6647005 -1.1690886 4293729569
6.1350861 4.6672592 -0.75680649 4293729569
6.0151978 4.6684585 -1.1291468 4293729569
6.1420898 4.6980524 -0.72259963 4293729569
5.979187 4.6662049 -1.087258 4293729569
6.0750732 4.6757932 -0.67991734 4293729569
5.9601746 4.6729622 -1.0472674 4293729569
5.75 4.4753914 -0.61402386 4293729569
5.9241638 4.6657038 -1.0044082 4293729569
5.8040161 4.5322075 -0.58352935 4293729569
5.9071655 4.6704674 -0.96542382 4293729569
6.3851471 4.9512725 -0.59338987 4293729569
5.8831329 4.6682138 -0.9235009 4293729569
6.1590729 4.8119226 -0.53585356 4293729569
5.8711395 4.6709719 -0.88351417 4293729569
6.1790924 4.8406978 -0.49862143 4293729569
5.8691101 4.6807351 -0.84445739 4293729569
6.1920776 4.8634605 -0.45944479 4293729569
5.8641205 4.685493 -0.80443883 4293729569
6.2210693 4.8942242 -0.42017522 4293729569
5.8681183 4.6942563 -0.76537085 4293729569
6.1690674 4.8669586 -0.37647998 4293729569
5.6800537 4.5658941 -0.70566189 4293729569
6.1810455 4.8827162 -0.33634767 4293729569
5.6570282 4.5526466 -0.6648013 4293729569
6.2150421 4.911479 -0.29707557 4293729569
5.6620331 4.5564165 -0.62676024 4293729569
6.2550354 4.9422359 -0.25677451 4293729569
5.7100525 4.5882087 -0.59243059 4293729569
6.4600525 5.0880256 -0.22132167 4293729569
5.7560425 4.6179953 -0.55711842 4293729569
6.7240448 5.2718072 -0.18447532 4293729569
6.1341248 4.8789349 -0.54649055 4293729569
6.1781311 4.9027033 -0.50821948 4293729569
6.173111 4.8894491 -0.46630725 4293729569
6.2111206 4.904213 -0.42710647 4293729569
6.1860962 4.8729544 -0.38435799 4293729569
6.2350922 4.891717 -0.34510201 4293729569
6.2690735 4.897481 -0.3059659 4293729569
6.3520813 4.9352489 -0.26750016 4293729569
6.4680786 4.993022 -0.22982155 4293729569
6.7920837 5.1908207 -0.19571915 4293729569
18.960587 -0.89985085 -1.7239532 4288085770
17.892715 -0.93280983 -1.7322552 4288085770
16.918839 -0.96077061 -1.7402542 4288085770
16.002945 -0.98275566 -1.7440492 4288085770
15.224091 -1.0047131 -1.7524453 4288085770
14.47319 -1.02069 -1.7577246 4288085770
13.780304 -1.0336714 -1.7618178 4288085770
13.117416 -1.0426722 -1.7628 4288085770
12.570541 -1.0546217 -1.7724619 4288085770
18.881561 -1.5927858 -1.746251 4288085770
11.970642 -1.056653 -1.7682197 4288085770
17.737671 -1.5697384 -1.7554451 4288085770
11.40274 -1.0566902 -1.7628728 4288085770
16.666794 -1.5437269 -1.7584091 4288085770
10.937836 -1.0596714 -1.7672433 4288085770
15.782913 -1.5256653 -1.7698756 4288085770
10.475937 -1.05968 -1.7665877 4288085770
14.95903 -1.5046215 -1.7781501 4288085770
10.099075 -1.0636387 -1.7747079 4288085770
14.12413 -1.4776382 -1.7764213 4288085770
9.6851807 -1.0606489 -1.7738949 4288085770
13.456268 -1.4595966 -1.7842592 4288085770
9.3152924 -1.0586481 -1.7749596 4288085770
12.861404 -1.4445353 -1.7959021 4288085770
8.991394 -1.0576258 -1.779896 4288085770
12.189484 -1.414588 -1.7876816 4288085770
8.6775208 -1.0556068 -1.7837977 4288085770
11.54657 -1.3836479 -1.7783706 4288085770
8.373642 -1.0515947 -1.7866585 4288085770
11.016663 -1.3596582 -1.7777717 4288085770
8.0967712 -1.0485716 -1.7914464 4288085770
10.525772 -1.3376656 -1.7770712 4288085770
7.8238525 -1.0435677 -1.7932111 4288085770
10.078888 -1.3166647 -1.7782483 4288085770
7.5309448 -1.032609 -1.7869991 4288085770
9.6869965 -1.2996397 -1.7832886 4288085770
7.2900696 -1.0265923 -1.7906647 4288085770
9.2840881 -1.2766562 -1.7813261 4288085770
7.0691833 -1.0215702 -1.7952778 4288085770
8.9472046 -1.2606335 -1.7862122 4288085770
6.8432922 -1.0145664 -1.7968942 4288085770
8.6203461 -1.2436152 -1.7900635 4288085770
6.6253967 -1.0055685 -1.7974752 4288085770
8.3074493 -1.2256098 -1.791868 4288085770
6.4355164 -0.99855232 -1.8009865 4288085770
8.0325623 -1.2095814 -1.7975738 4288085770
6.2736511 -0.99450111 -1.8104336 4288085770
7.7356567 -1.1885986 -1.7953144 4288085770
6.0777435 -0.98451519 -1.8089449 4288085770
7.4517517 -1.1676302 -1.7910172 4288085770
5.9288788 -0.97947025 -1.8173485 4288085770
7.2188721 -1.1526012 -1.7966064 4288085770
5.7249603 -0.9645195 -1.8098538 4288085770
6.9980011 -1.1365786 -1.8011549 4288085770
5.5420532 -0.95155144 -1.8053095 4288085770
6.7510834 -1.1156044 -1.7977499 4288085770
5.4151917 -0.94550133 -1.8146431 4288085770
6.5442047 -1.0995932 -1.8002577 4288085770
5.2432709 -0.93153858 -1.8090611 4288085770
6.3433228 -1.0815945 -1.8007364 4288085770
5.1013794 -0.92153645 -1.8104149 4288085770
6.165451 -1.0675688 -1.8061714 4288085770
4.9835205 -0.91449833 -1.8177165 4288085770
5.9905396 -1.0515518 -1.809586 4288085770
4.825592 -0.89854717 -1.8100821 4288085770
5.834671 -1.0385199 -1.8159628 4288085770
4.7167358 -0.89051056 -1.8173515 4288085770
5.613739 -1.01161 -1.8014472 4288085770
5.4378357 -0.99263668 -1.7978473 4288085770
5.3279724 -0.98256207 -1.8111075 4288085770
5.1940918 -0.96854115 -1.8154144 4288085770
5.0361938 -0.94857407 -1.8107563 4288085770
4.9093018 -0.93356609 -1.813037 4288085770
4.7713928 -0.91558647 -1.8103324 4288085770
4.6394958 -0.89760017 -1.8086101 4288085770
4.6035614 1.0126643 -1.7881904 4288085770
4.7516937 1.0337019 -1.795628 4288085770
4.8347626 1.0426054 -1.7803296 4288085770
4.9378357 1.0545435 -1.7709541 4288085770
5.0839386 1.0725517 -1.7734156 4288085770
5.2240448 1.0885305 -1.7709068 4288085770
5.3591309 1.1024919 -1.7654248 4288085770
5.4972229 1.1164532 -1.7599341 4288085770
4.7144165 1.011744 -1.8078727 4282675967
5.6823425 1.1364779 -1.7652682 4288085770
4.8205109 1.0196886 -1.7995124 4288085770
5.8124237 1.1463971 -1.7528251 4288085770
4.9085541 1.0225978 -1.7852349 4288085770
5.9855347 1.1623759 -1.7502191 4288085770
5.0376587 1.0325708 -1.7817945 4288085770
6.1475983 1.175324 -1.7426634 4288085770
5.1747589 1.0425501 -1.7793306 4288085770
6.3056946 1.1872611 -1.7331256 4288085770
5.3238678 1.0535464 -1.7798249 4288085770
6.4907684 1.20122 -1.7274961 4288085770
5.4489441 1.0584846 -1.7704264 4288085770
6.7038574 1.2182026 -1.7257658 4288085770
5.6290588 1.0715036 -1.7748172 4288085770
6.9219818 1.2341728 -1.7220271 4288085770
5.7811584 1.0794706 -1.7703209 4288085770
7.1560822 1.2501554 -1.7202408 4288085770
5.9182281 1.083396 -1.7588931 4288085770
7.3951721 1.2661252 -1.7164401 4288085770
6.0623169 1.0863271 -1.7484505 4288085770
7.6582642 1.2831006 -1.7135624 4288085770
6.2373962 1.0932937 -1.7438922 4288085770
7.9563904 1.3041043 -1.7155575 4288085770
6.4284973 1.1002712 -1.7412868 4288085770
8.223465 1.3170495 -1.7076919 4288085770
6.6165924 1.1062307 -1.7356961 4288085770
8.571579 1.3400574 -1.7105275 4288085770
6.8286896 1.1132135 -1.7340287 4288085770
8.8686523 1.3529959 -1.7015735 4288085770
7.0558014 1.1202021 -1.7333171 4288085770
9.2097473 1.3689566 -1.6964719 4288085770
7.2919006 1.1271777 -1.7305789 4288085770
9.6028595 1.3889399 -1.6951927 4288085770
7.5309906 1.1311479 -1.7268497 4288085770
10.004959 1.4069109 -1.6918988 4288085770
7.7720795 1.1341057 -1.7211208 4288085770
10.45105 1.4258862 -1.6894695 4288085770
8.051178 1.1390872 -1.7192677 4288085770
10.900146 1.4428382 -1.6830431 4288085770
8.3703003 1.1470966 -1.7222785 4288085770
11.423233 1.4638176 -1.6813744 4288085770
8.6443634 1.1460357 -1.7134762 4288085770
12.026367 1.4898243 -1.6844397 4288085770
8.9604797 1.1480031 -1.7095319 4288085770
12.663483 1.5138116 -1.6844167 4288085770
9.3135834 1.1499877 -1.7084785 4288085770
13.34259 1.5367913 -1.6832758 4288085770
9.6776886 1.1509609 -1.7053986 4288085770
14.089676 1.5607643 -1.6809283 4288085770
10.072769 1.1499372 -1.7032392 4288085770
14.882797 1.5837231 -1.6764511 4288085770
10.479858 1.147903 -1.6990504 4288085770
15.788895 1.6086974 -1.6746285 4288085770
10.922974 1.143867 -1.6947674 4288085770
16.760971 1.6316442 -1.6686234 4288085770
11.43309 1.1428652 -1.6962687 4288085770
17.827072 1.6555834 -1.6613351 4288085770
11.980194 1.1398621 -1.6976728 4288085770
19.088181 1.6845469 -1.6584412 4288085770
12.571289 1.1348577 -1.6989589 4288085770
13.209412 1.1278458 -1.6991186 4288085770
13.86351 1.1158156 -1.6962609 4288085770
14.610611 1.1038003 -1.6961288 4288085770
15.360703 1.084744 -1.6890301 4288085770
16.234802 1.0647135 -1.6865714 4288085770
17.163895 1.0396695 -1.6819804 4288085770
18.212997 1.010633 -1.6790594 4288085770
19.332092 0.97356558 -1.6709799 4288085770
10.430817 -7.7129469 -1.6954 4293729569
10.063965 -7.4329042 -1.7018038 4293729569
9.7460938 -7.1858521 -1.710261 4293729569
9.4141998 -6.9278393 -1.7116934 4293729569
9.0723114 -6.6628542 -1.7081133 4293729569
8.7914276 -6.4378366 -1.7105933 4293729569
8.5505371 -6.2408085 -1.7151234 4293729569
8.3096619 -6.0417976 -1.7166413 4293729569
8.0697784 -5.8427992 -1.7161564 4293729569
7.8618774 -5.6657944 -1.7167089 4293729569
11.210815 -7.7420359 -1.6893098 4293729569
7.6679993 -5.498785 -1.7182802 4293729569
10.827927 -7.4340343 -1.6885924 4293729569
7.5361328 -5.3707209 -1.7289028 4293729569
10.503036 -7.165019 -1.6909379 4293729569
7.3942719 -5.2366829 -1.7355188 4293729569
10.220169 -6.9249878 -1.6953337 4293729569
7.2603912 -5.1066446 -1.742135 4293729569
9.9642792 -6.7019596 -1.699752 4293729569
7.118515 -4.9716349 -1.743745 4293729569
9.7194061 -6.4869366 -1.7031856 4293729569
6.9826202 -4.8406315 -1.7443612 4293729569
9.4895325 -6.2829323 -1.7036411 4293729569
6.8547211 -4.7146301 -1.7449838 4293729569
7.69487 -5.1154814 -1.4389129 4293729569
6.7418518 -4.5986204 -1.7466221 4293729569
7.6880646 -5.0593128 -1.467599 4293729569
6.6329651 -4.4856129 -1.7482667 4293729569
7.7032623 -5.0151272 -1.4992925 4293729569
6.5690765 -4.3995628 -1.7569408 4293729569
7.7264557 -4.974946 -1.5299865 4293729569
6.6103058 -4.3773651 -1.7906893 4293729569
7.7766724 -4.9487381 -1.5656848 4293729569
6.7015228 -4.3831034 -1.8354586 4288085770
7.953949 -4.9944067 -1.6224415 4293729569
6.7777557 -4.3778639 -1.8762064 4288085770
8.3603516 -5.1688137 -1.7232981 4293729569
6.763916 -4.316761 -1.8938831 4288085770
8.2564545 -5.0467968 -1.7278696 4293729569
6.6820068 -4.2167854 -1.8915228 4288085770
8.1475677 -4.9217873 -1.7294451 4293729569
6.6021118 -4.1188011 -1.8891742 4288085770
8.0686951 -4.8157625 -1.7340466 4293729569
6.5131836 -4.0138397 -1.8828104 4288085770
7.9908295 -4.7077417 -1.7376328 4293729569
6.4453125 -3.9228573 -1.8804685 4288085770
7.9189301 -4.604722 -1.7412314 4293729569
6.3784027 -3.8318853 -1.8761235 4288085770
7.8560486 -4.5077028 -1.7448393 4293729569
6.3305054 -3.7528849 -1.8767947 4288085770
7.8511963 -4.4416246 -1.7584631 4293729569
6.2816162 -3.6729012 -1.874463 4288085770
7.9754028 -4.4413996 -1.7971032 4293729569
6.2327118 -3.5939178 -1.872137 4288085770
8.1126556 -4.4451609 -1.8377295 4288085770
6.1847839 -3.514946 -1.8678082 4288085770
8.2328491 -4.4389553 -1.8733459 4288085770
6.1519012 -3.4449568 -1.8664891 4288085770
8.2440186 -4.3768778 -1.8869468 4288085770
6.128006 -3.3779554 -1.8671612 4288085770
8.1860809 -4.2788992 -1.883534 4288085770
6.0930939 -3.3069792 -1.8638419 4288085770
8.1331787 -4.1829271 -1.8791187 4288085770
6.0751953 -3.243989 -1.8625207 4288085770
8.096283 -4.0979376 -1.8777225 4288085770
6.0562897 -3.1800013 -1.8611965 4288085770
8.0443573 -4.0049782 -1.8713223 4288085770
6.037384 -3.1160183 -1.8588723 4288085770
8.0014648 -3.9170074 -1.8669257 4288085770
6.0115051 -3.0500526 -1.8535566 4288085770
7.9725647 -3.8360376 -1.8625299 4288085770
6.0196075 -3.000041 -1.8562372 4288085770
7.9706726 -3.7670317 -1.8641269 4288085770
6.0007019 -2.9370823 -1.849919 4288085770
7.9497681 -3.6900606 -1.8597317 4288085770
6.0018158 -2.8830872 -1.849596 4288085770
7.9638977 -3.6280537 -1.8613238 4288085770
5.9969025 -2.8271132 -1.8462787 4288085770
7.9489594 -3.5540895 -1.8559291 4288085770
6.0099945 -2.7791176 -1.8459566 4288085770
7.954071 -3.4881077 -1.8535236 4288085770
6.0231171 -2.7301226 -1.8456287 4288085770
7.973175 -3.4281139 -1.8531131 4288085770
6.0352173 -2.6811409 -1.8433034 4288085770
7.9862823 -3.3661308 -1.8507084 4288085770
6.0473022 -2.6311588 -1.8409725 4288085770
8.0093689 -3.3081446 -1.8492982 4288085770
6.0694122 -2.5861645 -1.840642 4288085770
8.0254822 -3.2471733 -1.8448907 4288085770
6.0965118 -2.5421705 -1.8403031 4288085770
8.0425568 -3.1852102 -1.8394742 4288085770
6.1066132 -2.4922132 -1.8339779 4288085770
8.0996857 -3.1381989 -1.8420306 4288085770
6.1377106 -2.4492245 -1.8326334 4288085770
8.1467896 -3.0872126 -1.8405925 4288085770
6.1818237 -2.4102192 -1.8342748 4288085770
8.1818695 -3.0322428 -1.8361655 4288085770
6.2169342 -2.3682318 -1.8329246 4288085770
8.2359772 -2.9832544 -1.8347189 4288085770
6.2560272 -2.3282442 -1.8315746 4288085770
8.3030701 -2.9392633 -1.8342645 4288085770
6.3011322 -2.289257 -1.8302133 4288085770
8.3681793 -2.8922749 -1.832798 4288085770
6.3402252 -2.2482824 -1.8268577 4288085770
8.4332733 -2.8453007 -1.8293318 4288085770
6.3963318 -2.2122879 -1.8264822 4288085770
8.5033722 -2.7993259 -1.8258568 4288085770
6.4364166 -2.1703243 -1.8211178 4288085770
8.5834808 -2.7553453 -1.8233647 4288085770
6.496521 -2.1333313 -1.8207248 4288085770
8.6775818 -2.7143593 -1.8218498 4288085770
6.5856628 -2.1063023 -1.8263073 4288085770
8.7706757 -2.6723785 -1.8193322 4288085770
6.6687622 -2.0752916 -1.8288834 4288085770
8.8647766 -2.6313992 -1.8168175 4288085770
6.7458649 -2.0422993 -1.8284651 4288085770
8.9728546 -2.5924253 -1.8132743 4288085770
6.7919464 -2.0003548 -1.8200835 4288085770
9.0929718 -2.5554342 -1.812708 4288085770
6.8700409 -1.965374 -1.8176504 4288085770
9.2180634 -2.5174532 -1.8101213 4288085770
6.9721527 -1.9373636 -1.8201896 4288085770
9.3701782 -2.4864578 -1.8104982 4288085770
7.0722656 -1.9073591 -1.8217224 4288085770
9.4992676 -2.4474888 -1.805894 4288085770
7.1283569 -1.8644314 -1.8103058 4288085770
9.6493683 -2.4125109 -1.8032529 4288085770
7.2494659 -1.8384161 -1.813802 4288085770
9.7984619 -2.3755436 -1.7986032 4288085770
7.3515625 -1.8054361 -1.8113115 4288085770
9.9975891 -2.3495359 -1.8008738 4288085770
7.4466553 -1.7714748 -1.8058356 4288085770
10.164673 -2.31357 -1.7961777 4288085770
7.5607452 -1.7404881 -1.8043225 4288085770
10.381775 -2.2865744 -1.7963904 4288085770
7.7038574 -1.7134857 -1.8057489 4288085770
10.572876 -2.2526093 -1.7916369 4288085770
7.8249664 -1.6805105 -1.8022038 4288085770
10.783966 -2.2196436 -1.7868316 4288085770
7.9660645 -1.6515265 -1.8006245 4288085770
11.062073 -2.1976385 -1.7888975 4288085770
8.117157 -1.6225357 -1.8000162 4288085770
11.329193 -2.1706438 -1.7889656 4288085770
8.2762756 -1.5935507 -1.7983847 4288085770
11.617294 -2.1456623 -1.7869853 4288085770
8.4353638 -1.563571 -1.7957476 4288085770
11.935394 -2.1226625 -1.7879297 4288085770
8.6114655 -1.5345936 -1.7930672 4288085770
12.269501 -2.0976772 -1.786816 4288085770
8.7995605 -1.5056095 -1.7913522 4288085770
12.614594 -2.0726967 -1.7846708 4288085770
8.9946747 -1.4776201 -1.7906229 4288085770
12.991699 -2.0487185 -1.7824392 4288085770
9.201767 -1.4476423 -1.787847 4288085770
13.44281 -2.0327044 -1.7860408 4288085770
9.4098511 -1.4176702 -1.7840683 4288085770
13.859909 -2.0067387 -1.7816814 4288085770
9.657959 -1.3906822 -1.7831919 4288085770
14.351013 -1.9857502 -1.7811381 4288085770
9.9100647 -1.3617001 -1.781292 4288085770
14.863113 -1.9637804 -1.777528 4288085770
10.184174 -1.3327188 -1.7793287 4288085770
15.445221 -1.9428005 -1.7757215 4288085770
10.47728 -1.303731 -1.7783104 4288085770
16.050323 -1.9208326 -1.771843 4288085770
10.789383 -1.2747498 -1.7762374 4288085770
16.694412 -1.8978777 -1.765846 4288085770
11.110474 -1.2437763 -1.7731265 4288085770
17.458527 -1.8818979 -1.7645435 4288085770
11.469559 -1.2138033 -1.7699119 4288085770
18.228592 -1.8569698 -1.7541708 4288085770
11.950714 -1.1917486 -1.7803916 4288085770
19.163696 -1.8409977 -1.7513742 4288085770
12.375824 -1.1617641 -1.7789863 4288085770
12.822906 -1.1287918 -1.7754998 4288085770
13.283997 -1.0938396 -1.7689613 4288085770
13.794098 -1.0578814 -1.7632754 4288085770
14.352173 -1.0209312 -1.7564449 4288085770
14.991272 -0.9849577 -1.7533863 4288085770
15.684372 -0.94600487 -1.7471541 4288085770
16.42746 -0.90505886 -1.7397656 4288085770
17.239532 -0.86013317 -1.7291547 4288085770
18.202637 -0.81518078 -1.7231072 4288085770
19.319733 -0.76821423 -1.7196033 4288085770
19.439346 1.7300549 -1.6492655 4288085770
18.828461 1.8070889 -1.6544968 4288085770
18.205566 1.8760924 -1.654808 4288085770
17.65567 1.9420948 -1.6549358 4288085770
17.178802 2.0121193 -1.6588387 4288085770
16.738922 2.0821428 -1.6626395 4288085770
16.241013 2.138114 -1.6576827 4288085770
15.861115 2.2041235 -1.6593416 4288085770
15.447205 2.2610984 -1.6551472 4288085770
15.134323 2.3271184 -1.6586214 4288085770
14.841431 2.3921313 -1.6610463 4288085770
14.543533 2.4531269 -1.6605084 4288085770
14.196625 2.5020766 -1.6521766 4288085770
13.94873 2.5640759 -1.6524953 4288085770
13.711838 2.6250701 -1.6517892 4288085770
13.473923 2.6820469 -1.6481098 4288085770
13.263031 2.7420335 -1.6463382 4288085770
13.080139 2.8070326 -1.6464597 4288085770
12.890228 2.867013 -1.6436301 4288085770
12.73233 2.9310045 -1.6426888 4288085770
12.593445 2.999002 -1.6426712 4288085770
12.439529 3.0619812 -1.6397246 4288085770
12.329636 3.1319776 -1.6396155 4288085770
12.211746 3.1999679 -1.6385403 4288085770
12.127869 3.2749689 -1.63933 4288085770
12.054977 3.35097 -1.6400837 4288085770
11.970078 3.4239593 -1.6388879 4288085770
11.925186 3.5069597 -1.6395231 4288085770
11.856293 3.5809424 -1.6372778 4288085770
11.819397 3.6659422 -1.637879 4288085770
11.790497 3.7519417 -1.6384523 4288085770
11.738586 3.8319125 -1.6341245 4288085770
11.752716 3.9309285 -1.6375028 4288085770
11.739822 4.020915 -1.6360087 4288085770
19.537872 6.5096149 -1.5968711 4282675967
11.777924 4.1289301 -1.639268 4288085770
11.780029 4.2259169 -1.637691 4288085770
11.780136 4.3218851 -1.6331259 4288085770
11.896271 4.45994 -1.6429933 4288085770
11.915375 4.5639076 -1.6383287 4288085770
11.961456 4.6778917 -1.6365306 4288085770
11.997543 4.7898531 -1.630772 4288085770
12.066666 4.9148374 -1.6288459 4288085770
12.149765 5.0458202 -1.6268461 4288085770
12.261871 5.1908083 -1.6256834 4288085770
12.36998 5.3337913 -1.6235442 4288085770
12.528076 5.5007954 -1.6251254 4288085770
12.701202 5.674799 -1.6266239 4288085770
12.870316 5.8517847 -1.6251161 4288085770
13.049408 6.0337706 -1.6235515 4288085770
13.261536 6.2347603 -1.622784 4288085770
13.482635 6.4407377 -1.6199626 4288085770
13.751755 6.6727371 -1.6208556 4288085770
14.014847 6.9057074 -1.6167595 4288085770
14.283951 7.144671 -1.6116117 4288085770
14.581055 7.3986278 -1.6052988 4288085770
14.896133 7.6685772 -1.5978417 4288085770
15.241241 7.9555254 -1.5902023 4288085770
8.0023346 4.6564803 -0.74156177 4293729569
7.8863373 4.6532393 -0.70190072 4293729569
7.7873383 4.6580048 -0.6631459 4293729569
7.7313385 4.6837912 -0.62814879 4293729569
7.6863556 4.7145715 -0.59209228 4293729569
7.6233521 4.7333469 -0.55515587 4293729569
7.550354 4.7441168 -0.51729441 4293729569
7.5133514 4.7738857 -0.47922185 4293729569
7.4813843 4.8066587 -0.44211075 4293729569
7.4233704 4.8204231 -0.40318912 4293729569
7.3833771 4.8441858 -0.36415908 4293729569
7.3273621 4.8569431 -0.32423797 4293729569
7.2983704 4.8827062 -0.2851662 4293729569
7.3093567 4.9324675 -0.24584296 4293729569
18.744278 -0.41987181 -1.7051792 4288085770
17.498413 -0.43879747 -1.7155883 4288085770
16.368515 -0.45275593 -1.7206607 4288085770
15.345627 -0.46372366 -1.724432 4288085770
14.48877 -0.4746542 -1.7347646 4288085770
13.649857 -0.47965145 -1.7340133 4288085770
12.913971 -0.48461628 -1.7389897 4288085770
12.219086 -0.48661232 -1.7388397 4288085770
18.166077 -0.72286844 -1.7115669 4288085770
11.593185 -0.48761034 -1.7385012 4288085770
16.925201 -0.70781898 -1.7177565 4288085770
11.036301 -0.48759842 -1.7399744 4288085770
15.84433 -0.69375515 -1.7265295 4288085770
10.5224 -0.48658228 -1.7423278 4288085770
14.888443 -0.67871428 -1.7319664 4288085770
10.069519 -0.48555613 -1.74652 4288085770
14.029556 -0.66466856 -1.7381524 4288085770
9.6456146 -0.48353672 -1.7496295 4288085770
13.233658 -0.6496563 -1.7391663 4288085770
9.2427368 -0.48052359 -1.7516773 4288085770
12.51178 -0.63463402 -1.7419845 4288085770
8.8908539 -0.47848749 -1.7575966 4288085770
11.84787 -0.61963749 -1.7406495 4288085770
8.5509644 -0.47446489 -1.761472 4288085770
11.259995 -0.60461807 -1.7431138 4288085770
8.2430878 -0.47043753 -1.7662628 4288085770
10.740097 -0.59258986 -1.7474161 4288085770
7.9532013 -0.46641016 -1.771006 4288085770
10.233185 -0.57759809 -1.7456663 4288085770
7.6392975 -0.45843458 -1.7667885 4288085770
9.7942963 -0.56457233 -1.7497489 4288085770
7.3664093 -0.45243168 -1.7674748 4288085770
9.3804169 -0.55155373 -1.7527653 4288085770
7.1255035 -0.44640589 -1.7720765 4288085770
9.0285339 -0.54051876 -1.75863 4288085770
6.8966217 -0.44039249 -1.7746464 4288085770
8.6836548 -0.52748919 -1.7634643 4288085770
6.659729 -0.43240356 -1.7732255 4288085770
8.350769 -0.51447821 -1.7652667 4288085770
6.4598541 -0.4253788 -1.7777128 4288085770
8.0378723 -0.50146341 -1.7680163 4288085770
6.2829742 -0.420331 -1.7861513 4288085770
7.7329712 -0.48847103 -1.7667445 4288085770
6.0890808 -0.41232443 -1.7876166 4288085770
7.4370728 -0.47349072 -1.7634372 4288085770
5.9412231 -0.40626001 -1.7989726 4288085770
7.1821747 -0.461483 -1.7650393 4288085770
5.7162781 -0.39434004 -1.7854955 4288085770
6.9472961 -0.44847441 -1.7665828 4288085770
5.5443726 -0.38534737 -1.7848966 4288085770
6.7344055 -0.43644428 -1.7720743 4288085770
5.3914948 -0.37733603 -1.7872537 4288085770
6.5235138 -0.42443705 -1.7735605 4288085770
5.2425995 -0.36833048 -1.7885942 4288085770
6.3366394 -0.41240788 -1.7789832 4288085770
5.1077271 -0.35930824 -1.7928976 4288085770
6.1737671 -0.40235376 -1.7883546 4288085770
4.9688263 -0.35030985 -1.7932117 4288085770
5.9988861 -0.39033699 -1.7917458 4288085770
4.8319244 -0.3403163 -1.7925143 4288085770
5.815979 -0.37634706 -1.7901459 4288085770
4.6930237 -0.33034086 -1.7888222 4288085770
5.6070709 -0.36141253 -1.7796084 4288085770
5.4551849 -0.34840107 -1.7819326 4288085770
5.3222809 -0.33737373 -1.7872188 4288085770
5.1713867 -0.32438564 -1.7855402 4288085770
5.0415039 -0.31136942 -1.7888064 4288085770
4.910614 -0.29937696 -1.7880813 4288085770
4.7837219 -0.28637791 -1.7883395 4288085770
4.6438141 -0.27242565 -1.7816169 4288085770
4.6421814 1.6997566 -1.734074 4288085770
4.7532959 1.7217312 -1.7306559 4288085770
4.8713837 1.7447114 -1.7282138 4288085770
5.0164948 1.7747316 -1.7326598 4288085770
5.1355896 1.7956882 -1.726227 4288085770
5.2586823 1.8166509 -1.7207839 4288085770
5.3997803 1.8406358 -1.7192761 4288085770
5.5318756 1.8615985 -1.7138095 4288085770
4.6779938 1.6387563 -1.7403523 4288085770
5.6809692 1.885572 -1.7102811 4288085770
4.7990875 1.6567478 -1.7399319 4288085770
5.8430786 1.9115572 -1.708707 4288085770
4.9282074 1.674746 -1.7404908 4288085770
5.9871521 1.9305015 -1.7002213 4288085770
5.054306 1.6907258 -1.7380694 4288085770
6.1652679 1.9584913 -1.6995937 4288085770
5.1583862 1.6986651 -1.7287527 4288085770
6.3423615 1.98347 -1.6969866 4288085770
5.3085022 1.7196746 -1.7312393 4288085770
6.5394745 2.0124612 -1.6963037 4288085770
5.4375916 1.7316427 -1.7268339 4288085770
6.746582 2.0424566 -1.6965891 4288085770
5.5786896 1.7466168 -1.7233797 4288085770
6.9436798 2.0664291 -1.6929362 4288085770
5.7157745 1.757585 -1.7189595 4288085770
7.1727753 2.0984244 -1.6931527 4288085770
5.869873 1.7725644 -1.7164716 4288085770
7.4078827 2.1274137 -1.6923712 4288085770
6.01297 1.7825212 -1.7100418 4288085770
7.6389771 2.1543794 -1.6876122 4288085770
6.1810608 1.7965002 -1.7075233 4288085770
7.8940735 2.1843624 -1.6857733 4288085770
6.3361664 1.8064623 -1.7020625 4288085770
8.1361847 2.2093229 -1.6799978 4288085770
6.5212708 1.8214526 -1.701494 4288085770
8.4262848 2.2423167 -1.6800499 4288085770
6.7233734 1.8384604 -1.7038696 4288085770
8.7153778 2.2722926 -1.6771228 4288085770
6.9154816 1.8514338 -1.700295 4288085770
9.0114899 2.3002639 -1.6731893 4288085770
7.1365967 1.8684416 -1.702621 4288085770
9.321579 2.3282218 -1.6672195 4288085770
7.3586884 1.8824315 -1.7019626 4288085770
9.7006683 2.3672256 -1.6690053 4288085770
7.5827942 1.8944154 -1.7003107 4288085770
10.048767 2.3961887 -1.6639311 4288085770
7.776886 1.8973532 -1.6907904 4288085770
10.41687 2.4261518 -1.6587989 4288085770
8.0419922 1.9143662 -1.6940023 4288085770
10.816956 2.4581199 -1.6545718 4288085770
8.2810822 1.9213386 -1.6903414 4288085770
11.282059 2.4991159 -1.6551226 4288085770
8.5171814 1.9252934 -1.6837062 4288085770
11.75119 2.5360942 -1.6526871 4288085770
8.8112946 1.9392934 -1.6848607 4288085770
12.274292 2.5770841 -1.6520876 4288085770
9.1103973 1.9492874 -1.6850262 4288085770
12.852402 2.6240945 -1.6553096 4288085770
9.3924866 1.9522529 -1.6802776 4288085770
13.461517 2.670094 -1.6564571 4288085770
9.7135925 1.9602408 -1.6793978 4288085770
14.11261 2.7170858 -1.65649 4288085770
10.032684 1.9632063 -1.6745532 4288085770
14.858749 2.7721052 -1.6612288 4288085770
10.393784 1.9701986 -1.6745756 4288085770
15.589828 2.8160772 -1.6580718 4288085770
10.746902 1.9711747 -1.6716545 4288085770
16.343933 2.8560328 -1.6518793 4288085770
11.124985 1.9711442 -1.6676745 4288085770
17.167023 2.8979797 -1.6444957 4288085770
11.571106 1.9791651 -1.6724706 4288085770
18.110123 2.9479537 -1.6417534 4288085770
12.045227 1.9841795 -1.6762117 4288085770
19.036209 2.9868813 -1.6311207 4288085770
12.488327 1.9791474 -1.6720928 4288085770
12.995438 1.9781494 -1.673784 4288085770
13.545547 1.9771571 -1.6763636 4288085770
14.078644 1.966135 -1.6740468 4288085770
14.658752 1.9561181 -1.6726022 4288085770
15.270859 1.9411011 -1.6711042 4288085770
15.917953 1.9230828 -1.6695333 4288085770
16.644058 1.9060869 -1.6717511 4288085770
17.316177 1.8740335 -1.6641986 4288085770
18.128281 1.8480291 -1.6652471 4288085770
18.910355 1.8069739 -1.6574626 4288085770
18.002441 -5.8868036 -0.070227191 4293729569
17.87561 -5.9846563 -0.096130505 4293729569
17.932785 -6.1405001 -0.1238983 4293729569
11.896896 -5.6955547 -0.63090622 4293729569
11.878311 -5.7662296 -0.0083568096 4293729569
11.788101 -5.7343321 -0.66941559 4293729569
11.839539 -5.8359785 -0.051866964 4293729569
11.785309 -5.8210707 -0.71493244 4293729569
9.2042236 -5.0064907 -0.81382692 4293729569
9.1559753 -5.0294094 -0.31907591 4293729569
9.0664062 -5.0003033 -0.84614718 4293729569
9.0182037 -5.0201826 -0.35837847 4293729569
8.9386139 -4.998106 -0.88046503 4293729569
8.8383942 -4.9859657 -0.39564288 4293729569
8.8257904 -4.9989023 -0.91576171 4293729569
8.7206116 -4.9807386 -0.43491703 4293729569
8.6839905 -4.983716 -0.94803953 4293729569
8.6398163 -4.9944992 -0.47620693 4293729569
8.5762024 -4.9835129 -0.98331726 4293729569
8.5400238 -4.9952669 -0.51646972 4293729569
8.4863739 -4.9912987 -1.0205952 4293729569
8.4602509 -5.0050287 -0.55773354 4293729569
8.4756165 -5.0410299 -1.0669152 4293729569
8.4594727 -5.0567608 -0.60403925 4293729569
8.4738464 -5.0947504 -1.1152353 4293729569
8.4566956 -5.1064882 -0.65133834 4293729569
8.463089 -5.143466 -1.1645492 4293729569
8.4459229 -5.1492147 -0.69861698 4293729569
8.464325 -5.1961813 -1.2138555 4293729569
8.4531555 -5.20193 -0.74790764 4293729569
8.463562 -5.2458858 -1.2651492 4293729569
8.4593811 -5.2526388 -0.79818916 4293729569
7.9185791 -4.976037 -1.2389745 4293729569
8.4646301 -5.3013372 -0.85046136 4293729569
7.7947998 -4.9478521 -1.2711293 4293729569
7.8106995 -4.957406 -0.83813405 4293729569
7.7429962 -4.9606075 -1.3133379 4293729569
7.7589264 -4.966156 -0.88131928 4293729569
7.7312317 -4.9953289 -1.3615723 4293729569
7.7321472 -4.9878883 -0.92751598 4293729569
7.7174683 -5.0280447 -1.4107997 4293729569
7.708374 -5.0096226 -0.97370481 4293729569
7.7017059 -5.0577602 -1.4600149 4293729569
7.7036133 -5.0423374 -1.0229089 4293729569
7.6979523 -5.0934639 -1.511234 4293729569
7.711853 -5.0790415 -1.0741028 4293729569
7.7292023 -5.1491222 -1.5704798 4293729569
7.6950836 -5.1007576 -1.1232733 4293729569
8.2467041 -5.5082283 -1.7242491 4293729569
7.7053375 -5.1364489 -1.1764559 4293729569
7.9738312 -5.3712072 -1.7281505 4293729569
7.7615967 -5.2001066 -1.2356836 4293729569
7.7049255 -5.2322102 -1.7280295 4293729569
10.470886 -6.9324255 -1.698841 4293729569
7.4850616 -5.1211643 -1.7359459 4293729569
10.093018 -6.7253675 -1.7086028 4293729569
7.2761841 -5.013114 -1.7448517 4293729569
9.6961365 -6.5013571 -1.7103139 4293729569
7.0542908 -4.8950987 -1.7477325 4293729569
9.3342438 -6.2943354 -1.7140346 4293729569
6.8374176 -4.7751026 -1.7475886 4293729569
8.9703522 -6.0833416 -1.7127368 4293729569
6.6215057 -4.6541166 -1.7454365 4293729569
8.6564636 -5.9003258 -1.7154742 4293729569
6.4466248 -4.557085 -1.7513188 4293729569
8.367569 -5.7303047 -1.7192231 4293729569
6.267746 -4.4550753 -1.7531824 4293729569
8.1157227 -5.580267 -1.7259935 4293729569
6.1128693 -4.3650446 -1.7590542 4293729569
7.8518372 -5.4192572 -1.7277305 4293729569
6.0740509 -4.349843 -1.7940648 4293729569
7.6019287 -5.265254 -1.7284727 4293729569
6.0622864 -4.350606 -1.8350993 4293729569
7.3970642 -5.1372099 -1.7362505 4293729569
6.0494843 -4.34937 -1.8761244 4288085770
7.2051849 -5.015172 -1.7430301 4293729569
5.9896698 -4.3142157 -1.9030724 4288085770
6.9812927 -4.8701868 -1.7407577 4293729569
5.8227539 -4.2072468 -1.8978757 4288085770
6.7713928 -4.7331963 -1.7394961 4293729569
5.6778717 -4.112258 -1.8966924 4288085770
6.5935059 -4.6141872 -1.7412573 4293729569
5.5169373 -4.0043087 -1.8884743 4288085770
6.4336243 -4.5061684 -1.7450364 4293729569
5.3880463 -3.9163179 -1.8872908 4288085770
6.2877502 -4.4041424 -1.7498143 4293729569
5.2711792 -3.8353157 -1.8881172 4288085770
6.2319183 -4.3590002 -1.7746929 4293729569
5.1472473 -3.7483444 -1.8839266 4288085770
6.2531433 -4.361742 -1.8196528 4293729569
5.0283508 -3.6613655 -1.8807232 4288085770
6.2693481 -4.3604927 -1.8626025 4288085770
4.9304657 -3.5883646 -1.8815473 4288085770
6.2405396 -4.3273153 -1.8934813 4288085770
4.8305664 -3.5123816 -1.8793591 4288085770
6.1236725 -4.2362967 -1.8972486 4288085770
4.7256775 -3.432415 -1.8741605 4288085770
5.9877625 -4.1323175 -1.8939893 4288085770
4.6337738 -3.3604317 -1.8719752 4288085770
5.8478546 -4.0253572 -1.8877227 4288085770
5.723938 -3.9263849 -1.8834616 4288085770
5.621048 -3.8413897 -1.8832283 4288085770
5.5111389 -3.7504177 -1.8789779 4288085770
5.4102631 -3.6644392 -1.8757335 4288085770
5.3283691 -3.588438 -1.8764985 4288085770
5.2424622 -3.5114498 -1.875268 4288085770
5.1585693 -3.4334717 -1.8720268 4288085770
5.0736542 -3.3545055 -1.8667822 4288085770
5.0047607 -3.2855167 -1.8655547 4288085770
4.9348602 -3.2145386 -1.862318 4288085770
4.8789673 -3.1515446 -1.8620919 4288085770
4.8190613 -3.0875597 -1.8598704 4288085770
4.7621613 -3.0235834 -1.8566413 4288085770
4.7092743 -2.9606066 -1.8534077 4288085770
4.6693726 -2.9066114 -1.8531929 4288085770
4.6324768 -2.8536167 -1.8529763 4288085770
4.5905914 -2.7966337 -1.8507493 4288085770
4.5822906 -1.8018932 -1.8258947 4288085770
4.6123962 -1.7739038 -1.8246508 4288085770
4.6394958 -1.7449284 -1.8214086 4288085770
4.6585846 -1.7129755 -1.8141698 4288085770
4.6936798 -1.6849928 -1.8119125 4288085770
4.7337952 -1.6600056 -1.81066 4288085770
4.7718811 -1.633029 -1.8074007 4288085770
4.7969666 -1.6020823 -1.799152 4288085770
4.858078 -1.5820646 -1.8028738 4288085770
4.9021759 -1.5560884 -1.7996049 4288085770
4.9943085 -1.5440311 -1.8102922 4288085770
5.0604248 -1.5230265 -1.8119949 4288085770
5.1175385 -1.5000439 -1.8097095 4288085770
5.1756287 -1.4760675 -1.8064156 4288085770
5.241745 -1.4540758 -1.8061123 4288085770
5.3168488 -1.4330826 -1.8057915 4288085770
5.3839417 -1.4111052 -1.8024857 4288085770
5.4550323 -1.3891296 -1.7991694 4288085770
5.5791779 -1.378067 -1.8107787 4288085770
5.6912994 -1.3640337 -1.8174019 4288085770
4.6903992 -1.1378918 -1.8406942 4288085770
5.7894135 -1.346035 -1.8180382 4288085770
4.743515 -1.114933 -1.8344193 4288085770
5.8734894 -1.3240643 -1.813688 4288085770
4.802597 -1.0929756 -1.8281348 4288085770
5.9665985 -1.3040895 -1.8103257 4288085770
4.8877106 -1.0769711 -1.8298171 4288085770
6.0596924 -1.2821207 -1.8059518 4288085770
4.9247894 -1.0500584 -1.8155606 4288085770
6.165802 -1.2631397 -1.8035613 4288085770
5.0148926 -1.0320597 -1.8162184 4288085770
6.2729034 -1.2431698 -1.7991624 4288085770
5.1009827 -1.0140724 -1.8148863 4288085770
6.404007 -1.2261658 -1.8007181 4288085770
5.184082 -0.99509716 -1.8115563 4288085770
6.5641327 -1.2141323 -1.807227 4288085770
5.2861938 -0.97909832 -1.8121941 4288085770
6.6812286 -1.19417 -1.8018017 4288085770
5.3852997 -0.96110535 -1.8118279 4288085770
6.846344 -1.1801538 -1.8052859 4288085770
5.4864044 -0.94312477 -1.8094566 4288085770
6.9664154 -1.1582088 -1.7968411 4288085770
5.5844879 -0.92415524 -1.8050871 4288085770
7.1125183 -1.1392403 -1.7923458 4288085770
5.7276154 -0.9121151 -1.8126405 4288085770
7.3056335 -1.1272211 -1.7967678 4288085770
5.8647308 -0.8980999 -1.8161983 4288085770
7.4877319 -1.1112289 -1.7961956 4288085770
5.9728241 -0.8781414 -1.8097967 4288085770
7.6678467 -1.0942554 -1.7926228 4288085770
6.0939178 -0.86017323 -1.805373 4288085770
7.8979492 -1.0822287 -1.7979478 4288085770
6.2190247 -0.84120369 -1.8009325 4288085770
8.0860596 -1.0642738 -1.791348 4288085770
6.3641205 -0.8242197 -1.7994515 4288085770
8.321167 -1.049283 -1.7906424 4288085770
6.524231 -0.80922604 -1.7989428 4288085770
8.5502472 -1.0323095 -1.7869407 4288085770
6.6633148 -0.78926945 -1.7924598 4288085770
8.7883453 -1.0153437 -1.7822154 4288085770
6.8384247 -0.77328396 -1.790906 4288085770
9.0584412 -1.0003653 -1.7794179 4288085770
7.0255127 -0.75828743 -1.7913263 4288085770
9.331543 -0.9843998 -1.7746066 4288085770
7.2146301 -0.74130106 -1.7897297 4288085770
9.6236267 -0.96843338 -1.7697455 4288085770
7.3777008 -0.72236156 -1.7801896 4288085770
9.9377136 -0.95246792 -1.7648264 4288085770
7.593811 -0.70637131 -1.7795278 4288085770
10.314819 -0.93947411 -1.7647599 4288085770
7.8329163 -0.6903758 -1.7798058 4288085770
10.695938 -0.92549801 -1.7616765 4288085770
8.0660095 -0.67339659 -1.7770935 4288085770
11.140045 -0.91350651 -1.7614398 4288085770
8.3401337 -0.65839624 -1.7782855 4288085770
11.59314 -0.90052509 -1.7591733 4288085770
8.5992279 -0.64042997 -1.773499 4288085770
12.126251 -0.8895216 -1.7607086 4288085770
8.8773193 -0.62346315 -1.7686687 4288085770
12.716385 -0.88050938 -1.7641058 4288085770
9.181427 -0.60649204 -1.7647698 4288085770
13.290451 -0.86556053 -1.7565098 4288085770
9.4955139 -0.58753252 -1.7588329 4288085770
13.941544 -0.85259438 -1.7517234 4288085770
9.8696289 -0.57154417 -1.7577562 4288085770
14.698654 -0.84161472 -1.7496703 4288085770
10.242706 -0.55357981 -1.7526703 4288085770
15.498764 -0.82965279 -1.7444984 4288085770
10.683807 -0.53758764 -1.7524174 4288085770
16.388855 -0.81670284 -1.7370842 4288085770
11.143921 -0.51960564 -1.7501029 4288085770
17.417938 -0.80475044 -1.7303106 4288085770
11.670029 -0.50162172 -1.7486149 4288085770
18.566025 -0.7928257 -1.7212249 4288085770
12.230118 -0.482656 -1.7460313 4288085770
12.885239 -0.46564436 -1.7492086 4288085770
13.566345 -0.44567299 -1.7452993 4288085770
14.343445 -0.42568636 -1.7441376 4288085770
15.173523 -0.40372944 -1.7378247 4288085770
16.142624 -0.38175106 -1.735146 4288085770
17.276733 -0.35876465 -1.7340276 4288085770
18.431824 -0.33084917 -1.7208245 4288085770
18.794724 -0.075388908 -1.7030131 4288085770
17.456879 -0.076334953 -1.7136402 4288085770
16.280991 -0.076298714 -1.7208233 4288085770
15.195084 -0.073300362 -1.7217457 4288085770
14.28421 -0.071257114 -1.7302002 4288085770
13.445328 -0.067249775 -1.7324483 4288085770
12.71344 -0.062232971 -1.7364013 4288085770
19.071396 -0.083491325 -1.6933316 4288085770
11.959518 -0.056277275 -1.7294079 4288085770
17.68251 -0.071446896 -1.7020215 4288085770
11.356628 -0.051269054 -1.7320118 4288085770
16.534653 -0.060366154 -1.7170651 4288085770
10.808746 -0.04525423 -1.735461 4288085770
15.38176 -0.048381329 -1.7151166 4288085770
10.323853 -0.038235188 -1.7397341 4288085770
14.46489 -0.037332058 -1.7245352 4288085770
9.8379517 -0.031244278 -1.7390096 4288085770
13.645996 -0.026308537 -1.7296888 4288085770
9.4310608 -0.024226665 -1.7430718 4288085770
12.887115 -0.014296532 -1.7326744 4288085770
9.0441895 -0.016215324 -1.746074 4288085770
12.131195 -0.0033354759 -1.7266575 4288085770
8.6983032 -0.0091977119 -1.7499709 4288085770
11.509293 0.0086569786 -1.7262725 4288085770
8.3904266 -0.00116539 -1.756759 4288085770
10.97142 0.019682884 -1.7316658 4288085770
8.0705261 0.0078344345 -1.7575743 4288085770
10.459518 0.030679703 -1.731989 4288085770
7.7836456 0.015845299 -1.7603059 4288085770
9.9936371 0.041681767 -1.7331877 4288085770
7.4837341 0.024821281 -1.7570668 4288085770
9.6057587 0.051728249 -1.7421808 4288085770
7.2558746 0.033853054 -1.7636334 4288085770
9.220871 0.062739372 -1.7451602 4288085770
7.0079651 0.041846752 -1.7632593 4288085770
8.8509827 0.07474041 -1.7460934 4288085770
6.779068 0.050843239 -1.7638282 4288085770
8.5270996 0.085761547 -1.7509079 4288085770
6.6062012 0.059903622 -1.7752457 4288085770
8.2202148 0.096767902 -1.7526764 4288085770
6.3963165 0.069895267 -1.7747574 4288085770
7.9443359 0.10879517 -1.7583554 4288085770
6.234436 0.079937935 -1.7831393 4288085770
7.6404114 0.11976004 -1.7531158 4288085770
6.0675659 0.088963509 -1.7885406 4288085770
7.368515 0.1307416 -1.7507895 4288085770
5.9537048 0.10005474 -1.8057868 4288085770
7.1456299 0.14276886 -1.756325 4288085770
5.7938232 0.11006927 -1.8091636 4288085770
6.9387665 0.15378952 -1.760823 4288085770
5.5668793 0.11895466 -1.7897271 4288085770
6.7058563 0.16576385 -1.7573856 4288085770
5.4249878 0.12996244 -1.7920493 4288085770
6.5569916 0.17784119 -1.7717211 4288085770
5.3071136 0.14100409 -1.8003067 4288085770
6.391098 0.19087696 -1.7790968 4288085770
5.2062531 0.15206814 -1.8125179 4288085770
6.228241 0.20290232 -1.7844701 4288085770
5.1094055 0.16312647 -1.8237184 4288085770
6.070343 0.21492243 -1.78883 4288085770
4.9824982 0.17411709 -1.8230002 4288085770
5.9424744 0.22798061 -1.8001029 4288085770
4.860611 0.18511343 -1.8232683 4288085770
5.7956085 0.23999453 -1.8034331 4288085770
4.7737427 0.19716501 -1.8334361 4282675967
5.5906677 0.2509017 -1.7879257 4288085770
4.6568298 0.20815134 -1.8316905 4282675967
5.4497833 0.26189804 -1.7882453 4288085770
5.3368988 0.27492905 -1.7944777 4288085770
5.2480316 0.28899813 -1.8076397 4288085770
5.1641846 0.30406141 -1.8197824 4288085770
5.0853119 0.31813097 -1.8329172 4282675967
4.9063721 0.32700396 -1.8113511 4288085770
4.8044739 0.3400116 -1.8135538 4288085770
4.7346191 0.35507441 -1.8256587 4282675967
4.6757507 0.37014961 -1.8397341 4282675967
4.5918732 0.38416719 -1.8438823 4282675967
4.5907135 2.4629278 -1.7153906 4288085770
4.6898041 2.4988966 -1.7109277 4288085770
4.7899017 2.5328598 -1.7054735 4288085770
4.9140167 2.5778556 -1.7058935 4288085770
5.049118 2.6258621 -1.7082673 4288085770
5.1792145 2.6698523 -1.7076771 4288085770
5.2833099 2.7007885 -1.6972297 4288085770
5.4104004 2.7397561 -1.6926762 4288085770
5.5575104 2.787746 -1.6920186 4288085770
4.6726379 2.4279251 -1.7234035 4288085770
5.6996155 2.8297195 -1.6884083 4288085770
4.7617035 2.4478669 -1.7140578 4288085770
5.8457031 2.8736863 -1.6837763 4288085770
4.8598022 2.470819 -1.706671 4288085770
5.9987946 2.9166536 -1.6791314 4288085770
4.9979095 2.5098262 -1.7090878 4288085770
6.1529083 2.9586148 -1.6734897 4288085770
5.138031 2.547833 -1.7115052 4288085770
6.3320007 3.0095983 -1.6717308 4288085770
5.2611237 2.5768013 -1.7070186 4288085770
6.5281067 3.0665927 -1.6718932 4288085770
5.3912354 2.6077809 -1.7045021 4288085770
6.7272186 3.1215863 -1.6720588 4288085770
5.5303345 2.6397591 -1.7019563 4288085770
6.9283142 3.1745687 -1.6702307 4288085770
5.6764374 2.6737437 -1.7003807 4288085770
7.1444244 3.2325506 -1.6683348 4288085770
5.8075104 2.6987062 -1.6948957 4288085770
7.3735352 3.2925427 -1.6683935 4288085770
5.9446106 2.7246571 -1.6873894 4288085770
7.6136322 3.3535354 -1.6684171 4288085770
6.0926971 2.7526245 -1.6828429 4288085770
7.8377228 3.4054949 -1.6625344 4288085770
6.2447815 2.7805924 -1.6782854 4288085770
8.0908203 3.4644647 -1.6585355 4288085770
6.4149017 2.8135648 -1.6746522 4288085770
8.3719177 3.5334613 -1.6594061 4288085770
6.6240082 2.859592 -1.6808424 4288085770
8.6480255 3.5954356 -1.6563294 4288085770
6.7911072 2.8865476 -1.6742513 4288085770
8.9481354 3.6644201 -1.6551501 4288085770
6.9812164 2.9195309 -1.6725653 4288085770
9.2562408 3.7323937 -1.6519552 4288085770
7.2043152 2.9635463 -1.6767303 4288085770
9.5983582 3.8073885 -1.652631 4288085770
7.3904266 2.9895015 -1.6700947 4288085770
9.9504547 3.8833718 -1.651275 4288085770
7.5825043 3.0154624 -1.6644434 4288085770
10.283539 3.9473221 -1.6440372 4288085770
7.8306122 3.0594716 -1.667542 4288085770
10.639618 4.0152779 -1.6377157 4288085770
8.047699 3.089437 -1.6628021 4288085770
11.051727 4.0982647 -1.637162 4288085770
8.2748108 3.1194081 -1.6590359 4288085770
11.519852 4.1952658 -1.6393812 4288085770
8.5239105 3.1533885 -1.657189 4288085770
12.106995 4.3243303 -1.653105 4288085770
8.7730255 3.1843648 -1.6543591 4288085770
12.573105 4.4082942 -1.6484036 4288085770
9.0581207 3.2233558 -1.6543889 4288085770
13.099213 4.5052776 -1.6474701 4288085770
9.3052063 3.2463095 -1.6476096 4288085770
13.679321 4.6122642 -1.6473379 4288085770
9.5953064 3.2792897 -1.6456603 4288085770
14.298431 4.72225 -1.6470858 4288085770
9.8814087 3.3072531 -1.6407499 4288085770
14.997543 4.8502617 -1.6515207 4288085770
10.206512 3.3432429 -1.6406914 4288085770
15.655655 4.9572291 -1.6481831 4288085770
10.529617 3.3732224 -1.638672 4288085770
16.252716 5.0371323 -1.6331595 4288085770
10.895737 3.4132218 -1.6404827 4288085770
17.001831 5.152092 -1.6285366 4288085770
11.253845 3.4452057 -1.6393597 4288085770
17.879944 5.2960916 -1.6314096 4282675967
11.629944 3.4771943 -1.6391894 4288085770
18.785049 5.4340625 -1.6292455 4282675967
12.101074 3.5302298 -1.6476495 4288085770
12.528183 3.5662336 -1.6503221 4288085770
12.932281 3.5901992 -1.6461235 4288085770
13.372391 3.6171856 -1.6458129 4288085770
13.905518 3.6612139 -1.6531605 4288085770
14.434647 3.6982257 -1.6575586 4288085770
14.911728 3.7141888 -1.6532124 4288085770
15.352829 3.7161257 -1.6440407 4288085770
15.901932 3.7341092 -1.6434934 4288085770
16.394012 3.7340555 -1.6361984 4288085770
16.963104 3.7430272 -1.6336495 4288085770
17.577209 3.7550142 -1.6339648 4288085770
18.216339 3.7630064 -1.6352369 4288085770
18.789413 3.7479446 -1.6268127 4288085770
19.427521 3.7369032 -1.6221949 4288085770
19.068359 -5.2492542 -1.6867737 4293729569
18.456482 -5.2152071 -1.6941947 4293729569
17.798599 -5.157198 -1.6946023 4293729569
17.245712 -5.1201468 -1.7028509 4293729569
16.624832 -5.0571451 -1.7021331 4293729569
16.01593 -4.9871492 -1.7003446 4293729569
18.156265 -5.7157965 -1.0517747 4293729569
15.470016 -4.9291325 -1.702457 4293729569
17.928513 -5.7684956 -1.1066704 4293729569
14.987167 -4.8830853 -1.7104708 4293729569
17.869766 -5.8711472 -1.1704007 4293729569
14.503281 -4.8290586 -1.7144424 4293729569
14.045395 -4.7780228 -1.7203623 4293729569
13.61853 -4.7309818 -1.7272228 4293729569
13.265671 -4.7019053 -1.7409893 4293729569
12.934799 -4.6768122 -1.7577201 4293729569
12.652969 -4.6636972 -1.7783889 4293729569
18.487671 -6.8074484 -1.6680216 4293729569
12.383133 -4.6515779 -1.8000317 4293729569
17.589798 -6.598423 -1.6702154 4293729569
12.134293 -4.6434469 -1.8236415 4288085770
16.880936 -6.4473362 -1.684236 4293729569
11.858444 -4.6203461 -1.8422385 4288085770
16.154068 -6.2802868 -1.6912144 4293729569
11.569595 -4.5872641 -1.8568139 4288085770
15.407166 -6.0932884 -1.6891342 4293729569
11.228714 -4.5312376 -1.8613976 4288085770
14.773285 -5.9422417 -1.6959575 4293729569
10.877823 -4.4652205 -1.8639519 4288085770
14.108383 -5.7702456 -1.6937454 4293729569
10.528915 -4.3962221 -1.863484 4288085770
13.567535 -5.6391916 -1.7024359 4293729569
10.183014 -4.3222351 -1.8609805 4288085770
13.029633 -5.5021648 -1.7060852 4293729569
9.8521118 -4.2502413 -1.8594487 4288085770
12.508759 -5.3641396 -1.7096843 4293729569
9.5552368 -4.1892281 -1.8618888 4288085770
11.946854 -5.2031679 -1.7032624 4293729569
9.2663422 -4.1262178 -1.8632967 4288085770
11.491959 -5.0791483 -1.7057661 4293729569
8.9764557 -4.0582266 -1.8616794 4288085770
11.036072 -4.9501524 -1.7042446 4293729569
8.6925507 -3.9902353 -1.8600464 4288085770
10.64621 -4.8431187 -1.7096722 4293729569
8.4456635 -3.9332228 -1.8623774 4288085770
10.274307 -4.7380924 -1.7140639 4293729569
8.1957855 -3.8712196 -1.8626884 4288085770
9.9354401 -4.6440477 -1.7214301 4293729569
7.9618835 -3.814208 -1.8649853 4288085770
9.6295624 -4.5589972 -1.7307596 4293729569
7.7339935 -3.7552061 -1.8652552 4288085770
9.4237366 -4.5168686 -1.7540663 4293729569
7.5180969 -3.6991949 -1.8675104 4288085770
9.292923 -4.5056705 -1.7903489 4293729569
7.2832031 -3.6312227 -1.8627486 4288085770
9.1961365 -4.5084448 -1.83162 4288085770
7.1073151 -3.5881834 -1.869971 4288085770
9.067337 -4.4942579 -1.8658805 4288085770
6.9064331 -3.5301886 -1.8691757 4288085770
8.8654938 -4.4411478 -1.8861153 4288085770
6.7125244 -3.4731884 -1.8693676 4288085770
8.5425873 -4.3281889 -1.8783338 4288085770
6.5026093 -3.4052277 -1.8625402 4288085770
8.2726898 -4.2371807 -1.8795357 4288085770
6.3327179 -3.3542166 -1.8647025 4288085770
7.9977875 -4.1391954 -1.8767115 4288085770
6.1388245 -3.2892551 -1.8578497 4288085770
7.733902 -4.0442152 -1.8728756 4288085770
5.9809265 -3.2392445 -1.8599862 4288085770
7.4989929 -3.9592152 -1.8730191 4288085770
5.815033 -3.1832628 -1.8571103 4288085770
7.2621002 -3.8712301 -1.8701512 4288085770
5.6681213 -3.1342583 -1.8582232 4288085770
7.0532074 -3.7942305 -1.870271 4288085770
