# .PCD v0.7 - Point Cloud Data file format
VERSION 0.7
FIELDS x y z rgb
SIZE 4 4 4 4
TYPE F F F U
COUNT 1 1 1 1
WIDTH 1108
HEIGHT 1
VIEWPOINT 0 0 0 1 0 0 0
POINTS 1108
DATA ascii
-0.080322266 -2.4543834 -1.8876414 4288085770
2.9550781 -3.3674397 -1.904325 4288085770
-0.046157837 -2.398438 -1.8843372 4288085770
3.011261 -3.2985177 -1.9000084 4288085770
0.012008667 -2.3504758 -1.885195 4288085770
3.0954285 -3.2375817 -1.8998699 4288085770
0.050186157 -2.2965417 -1.8809233 4288085770
3.1835938 -3.1776624 -1.8977559 4288085770
0.1043396 -2.2475991 -1.8787565 4288085770
3.2617798 -3.1127543 -1.8935614 4288085770
0.18347168 -2.2056432 -1.880748 4288085770
3.3639526 -3.0548549 -1.8905208 4288085770
0.23963928 -2.1547189 -1.8765738 4288085770
3.4841156 -2.9999518 -1.8895776 4288085770
0.30282593 -2.1047921 -1.8734367 4288085770
3.6042786 -2.9440618 -1.8866267 4288085770
0.39694214 -2.0648465 -1.8755054 4288085770
3.7274475 -2.8891759 -1.8836963 4288085770
0.46313477 -2.0149379 -1.8703804 4288085770
3.8726196 -2.8373046 -1.8808799 4288085770
0.5592804 -1.974009 -1.87045 4288085770
4.0197906 -2.7854333 -1.8780718 4288085770
0.65545654 -1.9310956 -1.8685036 4288085770
4.206955 -2.7415671 -1.8784914 4288085770
0.73762512 -1.8831983 -1.8634601 4288085770
4.374115 -2.6897264 -1.8737655 4288085770
0.85577393 -1.8442836 -1.8636358 4288085770
4.5792694 -2.6468797 -1.8732669 4288085770
0.96492004 -1.8013873 -1.860743 4288085770
4.7894287 -2.6020446 -1.871773 4288085770
1.0940704 -1.7624803 -1.8609641 4288085770
5.0235901 -2.5602241 -1.8704016 4288085770
1.2202454 -1.7215972 -1.8581567 4288085770
5.2667542 -2.5184112 -1.8690672 4288085770
1.3593903 -1.6827054 -1.8574188 4288085770
5.5069122 -2.4726281 -1.8636889 4288085770
1.5075378 -1.6428275 -1.8557098 4288085770
5.7830811 -2.429852 -1.8604825 4288085770
1.6766968 -1.6059489 -1.856111 4288085770
6.1062164 -2.396069 -1.8625398 4288085770
1.8198547 -1.5630984 -1.8503582 4288085770
6.4393921 -2.3583236 -1.8606069 4288085770
2.0160065 -1.5272288 -1.8518782 4288085770
6.762558 -2.3165956 -1.8556015 4288085770
2.2021637 -1.4883857 -1.8493335 4288085770
7.1157379 -2.2748971 -1.8497193 4288085770
2.4083099 -1.4515395 -1.848887 4288085770
7.5518646 -2.2441983 -1.8512652 4288085770
2.644455 -1.4166894 -1.851579 4288085770
8.0310059 -2.2155271 -1.8530033 4288085770
2.8546295 -1.3758845 -1.8461173 4288085770
8.5311584 -2.1848874 -1.8528123 4288085770
3.099762 -1.3380723 -1.8448231 4288085770
8.9943542 -2.1422935 -1.8433743 4288085770
3.3449249 -1.297276 -1.8415053 4288085770
9.5105286 -2.1027207 -1.8361781 4288085770
3.6210938 -1.2584939 -1.8393307 4288085770
10.238647 -2.0851789 -1.8440263 4288085770
3.9162445 -1.2197223 -1.837234 4288085770
10.906799 -2.0536847 -1.8405178 4288085770
4.230423 -1.1809649 -1.8352156 4288085770
11.628952 -2.021234 -1.8362236 4288085770
4.5815582 -1.1432157 -1.835357 4288085770
4.9627075 -1.1054873 -1.8356218 4288085770
5.3688507 -1.0657773 -1.8359733 4288085770
5.7650452 -1.0211062 -1.8302445 4288085770
6.2082062 -0.97745943 -1.825717 4288085770
6.7243652 -0.93483114 -1.8254969 4288085770
7.2035675 -0.88424873 -1.8160622 4288085770
7.8517151 -0.84168386 -1.8193848 4288085770
8.474884 -0.79216766 -1.8145497 4288085770
9.2090454 -0.74270201 -1.8131702 4288085770
10.015198 -0.69127655 -1.813071 4288085770
10.746445 -0.62692785 -1.7965617 4288085770
11.712646 -0.56665134 -1.7920492 4288085770
11.012802 1.5432553 -1.7148442 4288085770
10.178955 1.604816 -1.7129121 4288085770
9.4761047 1.6683373 -1.7175058 4288085770
8.870224 1.7318106 -1.7245007 4288085770
8.2583771 1.7882476 -1.7265261 4288085770
7.6545258 1.8396406 -1.7236246 4288085770
7.1476898 1.891993 -1.7241163 4288085770
6.721817 1.9463315 -1.7299271 4288085770
6.3129425 2.0006499 -1.734808 4288085770
5.8780975 2.0459242 -1.7316531 4288085770
5.4642639 2.0891752 -1.7276009 4288085770
5.0384369 2.1253953 -1.7185546 4288085770
4.6925812 2.1696177 -1.7167757 4288085770
4.3627625 2.2118139 -1.7130789 4288085770
11.354752 3.2256076 -1.6629456 4288085770
4.0868988 2.2570052 -1.7135816 4288085770
10.793884 3.2740433 -1.6692457 4288085770
3.8170471 2.3001852 -1.7131249 4288085770
10.234024 3.3154466 -1.6716051 4288085770
3.5742035 2.3453555 -1.7137641 4288085770
9.7271423 3.3598225 -1.6751604 4288085770
3.3463287 2.3905077 -1.7134653 4288085770
9.3762512 3.4241664 -1.6882023 4288085770
3.1334839 2.4346581 -1.7142366 4288085770
8.9493866 3.4694738 -1.6900803 4288085770
2.9456329 2.4817996 -1.7160875 4288085770
8.4905548 3.5067556 -1.6858897 4288085770
2.7378082 2.5229149 -1.7129034 4288085770
8.0527191 3.5410151 -1.6808097 4288085770
2.5449524 2.5650277 -1.7107732 4288085770
7.7028656 3.5872631 -1.6819985 4288085770
2.3890991 2.6111412 -1.7117646 4288085770
7.3910065 3.6364791 -1.682321 4288085770
2.2452393 2.659245 -1.7127895 4288085770
7.0871429 3.6846893 -1.6826843 4288085770
2.0864105 2.7033358 -1.7107843 4288085770
6.8552856 3.7448833 -1.6872506 4288085770
1.9625549 2.7524347 -1.7128842 4288085770
6.609436 3.799063 -1.6888067 4288085770
1.8406982 2.8005166 -1.7130004 4288085770
6.4045868 3.8602228 -1.6914767 4288085770
1.7018585 2.8435864 -1.7100857 4288085770
6.1787415 3.9143741 -1.6911155 4288085770
1.5720215 2.8866425 -1.7062087 4288085770
5.9668884 3.9685071 -1.6898122 4288085770
1.4611664 2.9337006 -1.7043782 4288085770
5.7460785 4.0176229 -1.6855114 4288085770
1.3563538 2.9807563 -1.7025729 4288085770
5.5612335 4.072731 -1.6833118 4288085770
1.2704926 3.0308142 -1.7028223 4288085770
5.3993988 4.1318312 -1.682176 4288085770
1.1666565 3.0758445 -1.698037 4288085770
5.2905426 4.2049274 -1.6851485 4288085770
1.1038055 3.1308956 -1.6993419 4288085770
5.1437225 4.2670102 -1.683051 4288085770
1.0119781 3.1789265 -1.6955825 4288085770
5.0498657 4.3410892 -1.6850778 4288085770
0.95812988 3.234971 -1.6969167 4288085770
4.9490356 4.4131565 -1.6850915 4288085770
0.89929199 3.2899954 -1.6952385 4288085770
4.8382263 4.4812069 -1.6820956 4288085770
0.8344574 3.3430159 -1.6925511 4288085770
4.7794037 4.5642624 -1.6841962 4288085770
0.80561829 3.4060516 -1.6949335 4288085770
4.7225647 4.6473093 -1.6853051 4288085770
0.76377869 3.4660649 -1.6932862 4288085770
4.6727448 4.7323418 -1.6854271 4288085770
0.72894287 3.5260808 -1.6926677 4288085770
4.6349182 4.8203602 -1.6845752 4288085770
0.70410156 3.5910907 -1.6920511 4288085770
4.6311035 4.9203944 -1.688769 4288085770
0.69026184 3.6581008 -1.6924641 4288085770
4.59729 5.0103941 -1.6859179 4288085770
0.68043518 3.7271159 -1.6938778 4288085770
4.5744781 5.1033936 -1.6840886 4288085770
0.67160034 3.7971151 -1.693288 4288085770
4.5756683 5.2063851 -1.6832798 4288085770
0.66976929 3.8691092 -1.6927112 4288085770
4.5888519 5.311368 -1.6825045 4288085770
0.66795349 3.9411037 -1.6921347 4288085770
4.6090546 5.4213476 -1.6817189 4288085770
0.66711426 4.0150809 -1.6895463 4288085770
4.6602478 5.5443211 -1.682959 4288085770
0.69927979 4.1000767 -1.6920077 4288085770
4.6974487 5.6622806 -1.6811806 4288085770
0.72346497 4.183053 -1.6914517 4288085770
4.7576752 5.7902246 -1.6794183 4288085770
0.77464294 4.2790513 -1.6959045 4288085770
4.8218842 5.9191666 -1.677665 4288085770
0.79283142 4.3600006 -1.69134 4288085770
4.8851166 6.0510921 -1.6738837 4288085770
0.8480072 4.4579792 -1.6937935 4288085770
4.9923401 6.2010131 -1.6731423 4288085770
0.89916992 4.5549469 -1.6942389 4288085770
5.1205444 6.361927 -1.6734009 4288085770
0.96237183 4.6579046 -1.6946864 4288085770
5.2747803 6.5368319 -1.6746565 4288085770
1.0275726 4.7618551 -1.6941344 4288085770
5.437027 6.7167234 -1.6749055 4288085770
1.0787811 4.8607817 -1.6895641 4288085770
5.6232605 6.9106064 -1.6761435 4288085770
1.1669617 4.9777308 -1.6910044 4288085770
5.8585358 7.1304727 -1.679379 4288085770
1.2611694 5.0996685 -1.6914303 4288085770
6.0227966 7.3203073 -1.6725578 4288085770
1.3333893 5.2115736 -1.6858445 4288085770
6.1390991 7.4871106 -1.6577204 4288085770
1.4635925 5.3525105 -1.6892691 4288085770
6.4393768 7.746933 -1.6609088 4288085770
1.5538025 5.4734035 -1.6836866 4288085770
6.7846527 8.0327406 -1.6660782 4288085770
1.6810303 5.6163034 -1.6820835 4288085770
7.0110016 8.2634859 -1.6531906 4288085770
1.82724 5.7691975 -1.6814798 4288085770
1.9984741 5.9370985 -1.6838611 4288085770
2.1907196 6.118979 -1.6852188 4288085770
2.427948 6.3248749 -1.692573 4288085770
2.7231598 6.5667801 -1.7058825 4288085770
2.977417 6.7886338 -1.709181 4288085770
3.2117004 7.0024548 -1.7064598 4288085770
3.4129944 7.1982346 -1.6957419 4288085770
3.6672974 7.4270177 -1.6899825 4288085770
3.78862 7.5797167 -1.662274 4288085770
4.1459351 7.8734865 -1.6634269 4288085770
4.4662628 8.1462097 -1.655593 4288085770
11.278275 -0.1841116 -1.7788773 4288085770
10.192291 -0.21725512 -1.7966788 4288085770
9.102356 -0.24248314 -1.8034015 4288085770
7.9885101 -0.25682211 -1.7939403 4288085770
7.0615997 -0.2712245 -1.7922471 4288085770
6.3006897 -0.28666067 -1.8002436 4288085770
5.5657959 -0.29716206 -1.8023081 4288085770
4.8169403 -0.30073977 -1.7932606 4288085770
11.234879 -0.64308023 -1.7832856 4288085770
4.2290344 -0.30831766 -1.7979057 4288085770
10.079926 -0.63518238 -1.8004818 4288085770
3.6701355 -0.31292915 -1.8006465 4288085770
8.8810425 -0.61739922 -1.7994199 4288085770
3.173233 -0.31757259 -1.804642 4288085770
7.8321838 -0.59970999 -1.7989743 4288085770
2.6943359 -0.31925154 -1.8056881 4288085770
6.925293 -0.58509588 -1.8011358 4288085770
2.2614441 -0.32094336 -1.8089235 4288085770
6.1493683 -0.57352448 -1.8088589 4288085770
1.8515472 -0.32065773 -1.8112376 4288085770
5.3765259 -0.55603361 -1.8065479 4288085770
1.4586792 -0.31939888 -1.8116138 4288085770
4.6486664 -0.53759718 -1.8014143 4288085770
1.0947723 -0.31615782 -1.8120933 4288085770
4.0447693 -0.52317333 -1.8048208 4288085770
0.74891663 -0.31293678 -1.8116469 4288085770
3.4788818 -0.50878954 -1.8063841 4288085770
0.43701172 -0.31071329 -1.814348 4288085770
2.9650116 -0.49443913 -1.8081608 4288085770
0.12214661 -0.30453634 -1.8110058 4288085770
2.4951324 -0.48110914 -1.8111262 4288085770
-0.12675476 -0.30231285 -1.8189654 4288085770
2.0442505 -0.46581364 -1.8111541 4288085770
-0.40264893 -0.29713535 -1.8187914 4288085770
1.6393738 -0.45154095 -1.8123791 4288085770
-0.63954163 -0.29195166 -1.822777 4288085770
1.2545013 -0.43728733 -1.8126862 4288085770
-0.87840271 -0.28579807 -1.8227472 4288085770
0.89762878 -0.42304468 -1.8141084 4288085770
-1.100296 -0.2796402 -1.8247869 4288085770
0.56874084 -0.40981865 -1.8156533 4288085770
-1.3241577 -0.27151108 -1.8228028 4288085770
0.26387024 -0.39561605 -1.8162892 4288085770
-1.5110321 -0.26635933 -1.8269942 4288085770
-0.01600647 -0.38241339 -1.8190358 4288085770
-1.7209167 -0.25725603 -1.8230598 4288085770
-0.27790833 -0.37021446 -1.8228638 4288085770
-1.8987885 -0.24912596 -1.8252649 4288085770
-0.54777527 -0.35505724 -1.820636 4288085770
-2.0666809 -0.24200058 -1.8275187 4288085770
-0.80062866 -0.34089613 -1.8204858 4288085770
-2.236557 -0.23389101 -1.8277566 4288085770
-1.0275269 -0.32774162 -1.82145 4288085770
-2.3944397 -0.22578096 -1.8290439 4288085770
-1.2363892 -0.31459236 -1.8234882 4288085770
-2.5503082 -0.21668863 -1.8283315 4288085770
-1.4532623 -0.29946852 -1.8214781 4288085770
-2.7151642 -0.20562935 -1.8225665 4288085770
-1.6471252 -0.28633785 -1.8225782 4288085770
-2.8510284 -0.19652557 -1.8249362 4288085770
-1.8310242 -0.273211 -1.823719 4288085770
-2.9998932 -0.18546915 -1.8202369 4288085770
-2.0098724 -0.25909615 -1.823873 4288085770
-3.112793 -0.17735481 -1.8257091 4288085770
-2.1807404 -0.24499321 -1.8230598 4288085770
-2.3456116 -0.23089504 -1.8222711 4288085770
-2.4825134 -0.21876717 -1.8276129 4288085770
-2.6433716 -0.20469713 -1.8238432 4288085770
-2.7822418 -0.19061565 -1.8231597 4288085770
-2.9240875 -0.17654657 -1.8204639 4288085770
-3.0489807 -0.16345787 -1.8218458 4288085770
-3.0772858 1.7965636 -1.7548323 4288085770
-2.9750977 1.8104262 -1.7461308 4288085770
-2.8349915 1.8323603 -1.7495191 4288085770
-2.6289215 1.8703799 -1.7690465 4288085770
-2.4648132 1.8963156 -1.7744997 4288085770
-2.3166656 1.9162059 -1.7729359 4288085770
-2.1705322 1.9350891 -1.7703714 4288085770
-3.1295776 1.7316647 -1.7671105 4288085770
-2.0173798 1.9539609 -1.7668353 4288085770
-3.0384064 1.7365179 -1.7564355 4288085770
-1.8732147 1.9688063 -1.7592944 4288085770
-2.9462433 1.7413635 -1.7447643 4288085770
-1.740036 1.9796195 -1.7467405 4288085770
-2.7941284 1.758306 -1.7502397 4288085770
-1.5559082 2.0014958 -1.746305 4288085770
-2.5800781 1.7893457 -1.7728536 4288085770
-1.3117981 2.03443 -1.758024 4288085770
-2.4139709 1.8072801 -1.7783771 4288085770
-1.1226501 2.0532722 -1.7536319 4288085770
-2.2688293 1.8181648 -1.7758715 4288085770
-0.9105072 2.0741243 -1.7523166 4288085770
-2.1256866 1.8280425 -1.7723653 4288085770
-0.70135498 2.093955 -1.747997 4288085770
-1.9585571 1.8399377 -1.7729402 4288085770
-0.4642334 2.1167994 -1.7477659 4288085770
-1.8373871 1.8417583 -1.7604083 4288085770
-0.22506714 2.1376271 -1.7455585 4288085770
-1.7052155 1.8435798 -1.7489209 4288085770
0.057052612 2.1654763 -1.7494688 4288085770
-1.4811249 1.8635111 -1.758661 4288085770
0.334198 2.1892896 -1.7483903 4288085770
-1.2809906 1.8764029 -1.7613599 4288085770
0.57637024 2.2030616 -1.7392497 4288085770
-1.0858612 1.8862729 -1.761062 4288085770
0.86952209 2.2248492 -1.7362509 4288085770
-0.87973022 1.8961291 -1.7598083 4288085770
1.19664 2.2496486 -1.7373646 4288085770
-0.67657471 1.9029799 -1.7575661 4288085770
1.5328064 2.2724104 -1.7345304 4288085770
-0.44645691 1.911829 -1.7574162 4288085770
1.8839417 2.2961721 -1.7327482 4288085770
-0.22932434 1.9166632 -1.7542454 4288085770
2.2561035 2.3179131 -1.7300659 4288085770
0.034805298 1.9285169 -1.7572085 4288085770
2.633255 2.3376274 -1.7244191 4288085770
0.24794006 1.9273133 -1.7490685 4288085770
3.0583954 2.3623366 -1.7219255 4288085770
0.51907349 1.9341393 -1.7490985 4288085770
3.4715729 2.3800225 -1.7154385 4288085770
0.78421021 1.936945 -1.7461356 4288085770
3.9537048 2.4046903 -1.7121732 4288085770
1.0803528 1.9417558 -1.7462813 4288085770
4.4608765 2.4283428 -1.7090158 4288085770
1.3794708 1.9435415 -1.7434624 4288085770
5.0800018 2.4619913 -1.7142291 4288085770
1.7086182 1.9463329 -1.7437558 4288085770
5.8281097 2.5086327 -1.7288573 4288085770
2.0217438 1.9430861 -1.738032 4288085770
6.5172424 2.5392008 -1.7293742 4288085770
2.3668823 1.9398451 -1.7354364 4288085770
7.132431 2.5527034 -1.7157277 4288085770
2.7070312 1.9335752 -1.7288443 4288085770
7.8616028 2.5741844 -1.7084752 4288085770
3.1291504 1.9333272 -1.7315335 4288085770
8.7687378 2.6096382 -1.7118263 4288085770
3.5252991 1.9250321 -1.726181 4288085770
9.5459442 2.6200209 -1.695852 4288085770
3.9544067 1.9157333 -1.7229689 4288085770
10.482117 2.640348 -1.6854367 4288085770
4.4455261 1.9094362 -1.7249812 4288085770
11.593277 2.6696253 -1.6826519 4288085770
4.9616394 1.9011168 -1.7261094 4288085770
5.5867462 1.8967962 -1.7356424 4288085770
6.1968536 1.8834291 -1.7381859 4288085770
6.7899628 1.8620253 -1.7347237 4288085770
7.3831177 1.8345909 -1.7273085 4288085770
8.1382141 1.8131452 -1.731495 4288085770
8.8813171 1.7806606 -1.7297194 4288085770
9.5734863 1.7371206 -1.7168255 4288085770
10.436584 1.6955576 -1.7146006 4288085770
11.376694 1.6479497 -1.712731 4288085770
2.6686859 -4.9766879 -0.11439802 4293729569
2.669632 -5.059423 -0.14904661 4293729569
3.4992065 -7.482326 -1.7752316 4293729569
3.0164948 -7.2070241 -1.7751524 4293729569
2.6027222 -6.9717155 -1.781661 4293729569
2.1789856 -6.723455 -1.7810285 4293729569
1.7662659 -6.4782186 -1.7784638 4293729569
1.3765411 -6.2430091 -1.7740691 4293729569
1.0048065 -6.0158114 -1.7698088 4293729569
0.67506409 -5.8126216 -1.7679033 4293729569
0.37528992 -5.6264405 -1.7672505 4293729569
0.11947632 -5.467237 -1.7729838 4293729569
3.4022827 -7.6172976 -1.7768297 4293729569
-0.12931824 -5.3080707 -1.774745 4293729569
2.8696442 -7.2660327 -1.767959 4293729569
-0.36213684 -5.1578946 -1.7786403 4293729569
2.4718933 -7.0017428 -1.7733049 4293729569
-0.61988831 -4.9877782 -1.7732804 4293729569
2.0901642 -6.7454829 -1.7757778 4293729569
-0.83068848 -4.8476415 -1.7743421 4293729569
1.7014313 -6.4802537 -1.7741528 4293729569
-1.0434723 -4.702518 -1.7733567 4293729569
1.3487091 -6.2380595 -1.7708509 4293729569
-1.2153168 -4.5843787 -1.777745 4293729569
0.99900818 -5.9948821 -1.7655538 4293729569
-1.3851318 -4.465239 -1.7821341 4293729569
0.69325256 -5.7797074 -1.7636505 4293729569
-1.5589447 -4.3411393 -1.7814682 4293729569
0.4304657 -5.5905337 -1.7651213 4293729569
-1.7017822 -4.2370172 -1.7860818 4293729569
0.20266724 -5.423346 -1.7709033 4293729569
-1.8436127 -4.1309018 -1.7896838 4293729569
-0.026123047 -5.255199 -1.7716739 4293729569
-2.0093842 -4.0078521 -1.7830582 4293729569
-0.23191833 -5.0990481 -1.7746298 4293729569
-2.0942688 -3.9386935 -1.7971756 4293729569
-0.43670654 -4.9429221 -1.77459 4293729569
-2.0863037 -3.930387 -1.8371382 4293729569
-0.63749695 -4.7888083 -1.773582 4293729569
-1.9734955 -3.9909215 -1.9060555 4288085770
-0.81529236 -4.6476884 -1.7747669 4293729569
-1.9375458 -3.9975772 -1.9532456 4288085770
-1.0010529 -4.5016122 -1.7698815 4293729569
-2.0753326 -3.8845429 -1.9468095 4288085770
-1.1498871 -4.3785119 -1.7713223 4293729569
-2.1971436 -3.7825046 -1.9425228 4288085770
-1.2986755 -4.2544236 -1.7707555 4293729569
-2.3279266 -3.6744914 -1.934154 4288085770
-1.4085236 -4.1553063 -1.777539 4293729569
-2.4497223 -3.5704837 -1.9258521 4288085770
-1.5383301 -4.0432305 -1.777142 4293729569
-2.5565186 -3.4754596 -1.92068 4288085770
-1.6102142 -3.9670939 -1.7892556 4293729569
-2.6413422 -3.3934188 -1.9196966 4288085770
-1.5712585 -3.9588065 -1.8293395 4293729569
-2.7241516 -3.3133769 -1.9187369 4288085770
-1.4963226 -3.9734826 -1.8767455 4288085770
-2.7999878 -3.2373405 -1.9178364 4288085770
-1.4453583 -3.9691882 -1.9189079 4288085770
-2.8618469 -3.1692786 -1.9210536 4288085770
-1.4732819 -3.9150195 -1.9383671 4288085770
-2.9506531 -3.0832982 -1.912024 4288085770
-1.582077 -3.8099971 -1.9331083 4288085770
-3.0144806 -3.0132604 -1.9122181 4288085770
-1.6838684 -3.7089686 -1.9289086 4288085770
-3.0842896 -2.9372659 -1.9063416 4288085770
-1.7906647 -3.6049695 -1.920666 4288085770
-3.1321411 -2.8762279 -1.9076693 4288085770
-1.8884583 -3.506968 -1.9135058 4288085770
-1.9612885 -3.4229407 -1.9115541 4288085770
-2.025116 -3.3449101 -1.9106846 4288085770
-2.0849457 -3.2688746 -1.9108469 4288085770
-2.135788 -3.197845 -1.9110839 4288085770
-2.2025909 -3.1168513 -1.9051797 4288085770
-2.2514191 -3.0468383 -1.9034326 4288085770
-2.2922668 -2.9808211 -1.9027483 4288085770
-2.3430634 -2.9098296 -1.8979857 4288085770
-2.3749237 -2.8478103 -1.8983681 4288085770
-2.4117432 -2.7848191 -1.8947234 4288085770
-2.4445953 -2.7238231 -1.8921101 4288085770
-2.4694061 -2.6658216 -1.8905516 4288085770
-2.4842682 -2.613812 -1.8910797 4288085770
-2.5061035 -2.5578218 -1.8885489 4288085770
-2.5179443 -2.5068212 -1.8880966 4288085770
-2.5377808 -2.4518476 -1.8835816 4288085770
-2.5476074 -2.4018569 -1.8821452 4288085770
-2.5534515 -2.3528666 -1.8807321 4288085770
-2.5563049 -2.3058791 -1.8793466 4288085770
-2.5521545 -2.261888 -1.8790119 4288085770
-2.5449982 -2.2188983 -1.8786969 4288085770
-2.5408478 -2.1749225 -1.8763626 4288085770
-2.5317078 -2.1329417 -1.8750634 4288085770
-2.5255432 -2.0889754 -1.8717368 4288085770
-2.5123901 -2.049005 -1.8694689 4288085770
-2.4792633 -2.0159974 -1.8733339 4288085770
-2.4651031 -1.9750352 -1.8700621 4288085770
-2.4429321 -1.9370713 -1.8678453 4288085770
-2.4277649 -1.8971248 -1.8625853 4288085770
-2.4016266 -1.8601604 -1.8603916 4288085770
-2.3564911 -1.8311706 -1.8633351 4288085770
-2.3293457 -1.793222 -1.8591375 4288085770
-2.2812042 -1.7642398 -1.8610923 4288085770
-2.2390594 -1.7312779 -1.8599927 4288085770
-2.1889038 -1.7013135 -1.8599477 4288085770
-2.1268005 -1.6743312 -1.8629727 4288085770
-2.0856323 -1.6414008 -1.8578691 4288085770
-2.0304871 -1.6114373 -1.8578434 4288085770
-1.9713287 -1.5824943 -1.8558412 4288085770
-3.118103 -1.2437797 -1.8567071 4288085770
-1.9081879 -1.554544 -1.8548622 4288085770
-3.075943 -1.2168336 -1.8536551 4288085770
-1.8370514 -1.5285821 -1.8559301 4288085770
-3.020813 -1.1928697 -1.853677 4288085770
-1.7689209 -1.5006423 -1.8539703 4288085770
-2.9606781 -1.1698956 -1.8557262 4288085770
-1.6937866 -1.4747005 -1.8530538 4288085770
-2.8965454 -1.1469293 -1.856791 4288085770
-1.6096497 -1.4497466 -1.8541801 4288085770
-2.8364105 -1.1229701 -1.8568323 4288085770
-1.5334778 -1.4228196 -1.8512592 4288085770
-2.7702789 -1.1010137 -1.8569126 4288085770
-1.431366 -1.4018598 -1.8544867 4288085770
-2.7041473 -1.0780663 -1.8559849 4288085770
-1.3462372 -1.3759398 -1.8516088 4288085770
-2.6359863 -1.0541177 -1.8550572 4288085770
-1.2321014 -1.3559861 -1.8548906 4288085770
-2.5348969 -1.0381188 -1.8633204 4288085770
-1.1399384 -1.3290772 -1.851032 4288085770
-2.4707336 -1.0131927 -1.859369 4288085770
-1.0287933 -1.3061538 -1.8502781 4288085770
-2.4195557 -0.98430681 -1.8493361 4288085770
-0.90766907 -1.2852216 -1.8515792 4288085770
-2.3184509 -0.96633863 -1.8535836 4288085770
-0.78353882 -1.2633061 -1.850884 4288085770
-2.2363129 -0.94240808 -1.8517098 4288085770
-0.65339661 -1.2413869 -1.8512118 4288085770
-2.1551666 -0.91849232 -1.8478322 4288085770
-0.51626587 -1.2204795 -1.8505747 4288085770
-2.0490265 -0.89955139 -1.8490911 4288085770
-0.37811279 -1.1975875 -1.8479257 4288085770
-1.934906 -0.88059711 -1.8523808 4288085770
-0.21299744 -1.1786733 -1.8504126 4288085770
-1.8217773 -0.86166143 -1.8536663 4288085770
-0.070831299 -1.154799 -1.8457708 4288085770
-1.7475739 -0.83379507 -1.8427298 4288085770
0.091308594 -1.1339221 -1.8432302 4288085770
-1.5954895 -0.81882524 -1.8511982 4288085770
0.27044678 -1.1140389 -1.8427632 4288085770
-1.4783478 -0.79692316 -1.8484755 4288085770
0.4515686 -1.0941644 -1.8413041 4288085770
-1.3402252 -0.77899218 -1.8508658 4288085770
0.65072632 -1.0743003 -1.8399143 4288085770
-1.2250671 -0.75511074 -1.8451195 4288085770
0.84687805 -1.0534492 -1.8365052 4288085770
-1.0629425 -0.73818588 -1.8486104 4288085770
1.0750122 -1.0355954 -1.8362434 4288085770
-0.93777466 -0.71431971 -1.841903 4288085770
1.3151398 -1.0167537 -1.8350203 4288085770
-0.76965332 -0.69641304 -1.8434088 4288085770
1.5682831 -0.99792147 -1.8338473 4288085770
-0.63348389 -0.67156792 -1.8347359 4288085770
1.8394318 -0.98109007 -1.8337598 4288085770
-0.46932983 -0.65069199 -1.8322027 4288085770
2.1285706 -0.96228456 -1.8317258 4288085770
-0.28118896 -0.63081217 -1.8317702 4288085770
2.4387054 -0.94548464 -1.8307891 4288085770
-0.091064453 -0.61094284 -1.8303452 4288085770
2.7698517 -0.92770386 -1.8289256 4288085770
0.094116211 -0.58811045 -1.8238773 4288085770
3.0950012 -0.9079504 -1.8230228 4288085770
0.32522583 -0.56924105 -1.8256185 4288085770
3.4921265 -0.89219284 -1.8234301 4288085770
0.55038452 -0.54840803 -1.8223212 4288085770
3.9142761 -0.87646484 -1.821934 4288085770
0.78053284 -0.52658463 -1.8180346 4288085770
4.3554382 -0.85875463 -1.8194957 4288085770
1.0506592 -0.50675392 -1.8179188 4288085770
4.8315735 -0.84207392 -1.8162003 4288085770
1.3298187 -0.48694277 -1.8158376 4288085770
5.3817139 -0.828403 -1.8172145 4288085770
1.6269684 -0.46614265 -1.8138182 4288085770
5.9508514 -0.81078339 -1.8132708 4288085770
1.9481049 -0.44534874 -1.8128912 4288085770
6.6139984 -0.79818392 -1.8137298 4288085770
2.3092346 -0.42456913 -1.8131189 4288085770
7.3091431 -0.78263712 -1.8102889 4288085770
2.6763763 -0.40281725 -1.8103616 4288085770
8.1142883 -0.76913595 -1.8092887 4288085770
3.0615387 -0.38008308 -1.8066659 4288085770
8.938446 -0.75070429 -1.8013256 4288085770
3.5026703 -0.35736799 -1.805191 4288085770
9.9475861 -0.73931217 -1.8021357 4288085770
3.9538269 -0.33368778 -1.799746 4288085770
10.966751 -0.7210207 -1.7909291 4288085770
4.4629822 -0.31002378 -1.7965257 4288085770
5.0691071 -0.28736973 -1.7996888 4288085770
5.7672272 -0.26475239 -1.8052075 4288085770
6.4573822 -0.23720217 -1.8016558 4288085770
7.1505737 -0.20770836 -1.7911 4288085770
8.0567017 -0.18023348 -1.794384 4288085770
9.2367706 -0.15581465 -1.8117516 4288085770
10.232971 -0.11951733 -1.7993126 4288085770
11.383194 -0.080324173 -1.7854462 4288085770
11.847305 4.8476839 -1.6625706 4288085770
11.8405 4.9946566 -1.6583982 4288085770
10.894409 0.16114187 -1.7717915 4288085770
9.7504272 0.15094852 -1.7934279 4288085770
8.7974396 0.1406846 -1.8198075 4288085770
7.2827301 0.14416409 -1.7728877 4288085770
6.458786 0.13972235 -1.7857218 4288085770
5.6868744 0.13821363 -1.7937343 4288085770
4.8400421 0.14058065 -1.7804229 4288085770
11.217148 0.034876347 -1.7651054 4288085770
4.1491699 0.14295006 -1.7787187 4288085770
10.018173 0.043710232 -1.7863748 4288085770
3.5452728 0.14529705 -1.7803533 4288085770
9.0121918 0.051481247 -1.8134038 4288085770
3.0263824 0.14761496 -1.7843187 4288085770
7.5684509 0.07100153 -1.7766304 4288085770
2.5554657 0.15092897 -1.7914631 4288085770
6.6485596 0.082555294 -1.7819619 4288085770
2.0875854 0.15618086 -1.7906034 4288085770
5.8546448 0.093056679 -1.7897923 4288085770
1.6667023 0.16042995 -1.7929342 4288085770
4.9968109 0.10744429 -1.7783411 4288085770
1.2698212 0.1656518 -1.7933505 4288085770
4.3019562 0.1188159 -1.7765486 4288085770
0.90493774 0.1718545 -1.7938836 4288085770
3.6950531 0.13117123 -1.7790914 4288085770
0.56304932 0.17804766 -1.7945061 4288085770
3.1481781 0.14248848 -1.7808754 4288085770
0.25218201 0.18523026 -1.7962415 4288085770
2.6542664 0.15379143 -1.7848659 4288085770
-0.02772522 0.19141197 -1.8001056 4288085770
2.2063751 0.16507053 -1.7890356 4288085770
-0.27961731 0.19859552 -1.8060708 4288085770
1.772522 0.17631054 -1.7892594 4288085770
-0.56248474 0.20671701 -1.8019071 4288085770
1.3736267 0.1875329 -1.7896199 4288085770
-0.79737854 0.21386766 -1.8049381 4288085770
1.0137482 0.19874191 -1.7911322 4288085770
-1.0192719 0.22200298 -1.8070118 4288085770
0.67785645 0.21093082 -1.7917302 4288085770
-1.2351379 0.22912741 -1.8081169 4288085770
0.36497498 0.22212124 -1.7944255 4288085770
-1.4280243 0.23726368 -1.8123035 4288085770
0.066116333 0.23329067 -1.7951751 4288085770
-1.6209259 0.24637651 -1.8134825 4288085770
-0.19677734 0.24545622 -1.7980576 4288085770
-1.7918091 0.2545085 -1.8187549 4288085770
-0.45767212 0.25661325 -1.7999554 4288085770
-1.9586945 0.26362276 -1.8220351 4288085770
-0.71154785 0.26873398 -1.7978721 4288085770
-2.1275787 0.27271509 -1.8223071 4288085770
-0.92944336 0.27988291 -1.8019376 4288085770
-2.2634888 0.28184366 -1.8297079 4288085770
-1.1493073 0.2910018 -1.801995 4288085770
-2.4233551 0.29091597 -1.8280151 4288085770
-1.3391876 0.30313683 -1.8061616 4288085770
-2.5952148 0.30195522 -1.8212597 4288085770
-1.5180969 0.31427288 -1.811379 4288085770
-2.7460785 0.31201315 -1.8185937 4288085770
-1.7029724 0.32637978 -1.8125648 4288085770
-2.8809509 0.32107162 -1.8169982 4288085770
-1.86586 0.33849239 -1.8158367 4288085770
-3.0178223 0.33112335 -1.8143871 4288085770
-2.017746 0.35060644 -1.8201513 4288085770
-3.1466675 0.34117079 -1.8118072 4288085770
-2.1836243 0.36168098 -1.818419 4288085770
-2.315506 0.37378407 -1.8228118 4288085770
-2.4713593 0.38583803 -1.8191104 4288085770
-2.62323 0.39788198 -1.8144248 4288085770
-2.7670898 0.40892935 -1.8107781 4288085770
-2.8899689 0.42099667 -1.8112054 4288085770
-3.0188141 0.43303728 -1.8076093 4288085770
-3.1316986 0.44509792 -1.8080761 4288085770
-3.1502686 2.5441713 -1.7489972 4288085770
-3.059082 2.5670481 -1.740187 4288085770
-2.9669189 2.5889244 -1.7313889 4288085770
-2.8497925 2.6208415 -1.7296127 4288085770
-2.7176514 2.6557584 -1.7288734 4288085770
-2.5844879 2.6896677 -1.7271463 4288085770
-2.4433594 2.7255878 -1.7274358 4288085770
-2.3032227 2.7604933 -1.7257293 4288085770
-3.1524353 2.4661856 -1.7556238 4288085770
-2.1460724 2.7984128 -1.7270677 4288085770
-3.0782623 2.4740329 -1.7418631 4288085770
-1.9829254 2.8383217 -1.7274151 4288085770
-2.9750977 2.4919267 -1.7361405 4288085770
-1.7868195 2.888267 -1.7348168 4288085770
-2.8499756 2.5168552 -1.7364515 4288085770
-1.6066742 2.9291739 -1.7362251 4288085770
-2.7208405 2.5417743 -1.7357792 4288085770
-1.4085541 2.9750881 -1.7396667 4288085770
-2.5886993 2.5656919 -1.7351266 4288085770
-1.2583771 3.0009184 -1.7290725 4288085770
-2.4665527 2.5845842 -1.7304732 4288085770
-1.1062012 3.0257473 -1.7184941 4288085770
-2.3124237 2.6135135 -1.7328702 4288085770
-0.92503357 3.0586009 -1.71297 4288085770
-2.1452942 2.6454592 -1.7382963 4288085770
-0.70890808 3.1014733 -1.7125087 4288085770
-2.0341339 2.655303 -1.7266699 4288085770
-0.5017395 3.1393282 -1.7090507 4288085770
-1.8760071 2.6802144 -1.7271152 4288085770
-0.26759338 3.1841996 -1.7096468 4288085770
-1.6998749 2.7091317 -1.7296016 4288085770
-0.037445068 3.2240419 -1.7062663 4288085770
-1.467804 2.7551212 -1.7451804 4288085770
0.19772339 3.2628748 -1.7019141 4288085770
-1.2866669 2.7810206 -1.7457111 4288085770
0.44888306 3.3037064 -1.6986109 4288085770
-1.1394958 2.7928686 -1.7372149 4288085770
0.72901917 3.351546 -1.6983701 4288085770
-0.98033142 2.8077178 -1.7297435 4288085770
1.0061798 3.3953638 -1.6951492 4288085770
-0.7702179 2.8356261 -1.733376 4288085770
1.3053284 3.4411776 -1.6930015 4288085770
-0.58506775 2.8534851 -1.7289864 4288085770
1.6274872 3.4919956 -1.6929078 4288085770
-0.38893127 2.8733535 -1.7266258 4288085770
1.9426575 3.5357859 -1.688841 4288085770
-0.18177795 2.8922167 -1.7243176 4288085770
2.2858124 3.5845768 -1.6868488 4288085770
0.036346436 2.9130816 -1.7230383 4288085770
2.6419678 3.632354 -1.6839168 4288085770
0.2724762 2.9349456 -1.722824 4288085770
3.0341034 3.6861272 -1.6830839 4288085770
0.50462341 2.9537954 -1.7206174 4288085770
3.4322815 3.7368741 -1.6792992 4288085770
0.71078491 2.9616127 -1.7123924 4288085770
3.8804321 3.7966256 -1.6796463 4288085770
0.95191956 2.9764428 -1.7082542 4288085770
4.2746277 3.8353283 -1.6699406 4288085770
1.1990662 2.9902697 -1.7041483 4288085770
4.8297424 3.9120784 -1.6775876 4288085770
1.4602203 3.0040975 -1.701099 4288085770
5.4299011 3.9938042 -1.6853783 4288085770
1.7473602 3.0199261 -1.7001395 4288085770
6.1060028 4.0875292 -1.6983825 4288085770
2.032486 3.0327415 -1.6971955 4288085770
6.7391663 4.1601925 -1.7003779 4288085770
2.3106384 3.0395365 -1.6912708 4288085770
7.2923431 4.2068043 -1.6902552 4288085770
2.623764 3.0513449 -1.6894487 4288085770
8.1154785 4.3114595 -1.7047701 4288085770
2.9269257 3.0571351 -1.6846336 4288085770
8.8626556 4.3860402 -1.7042137 4288085770
3.269043 3.0679283 -1.6829373 4288085770
9.6908112 4.4706082 -1.7079073 4288085770
3.6131897 3.0737123 -1.6802888 4288085770
10.396011 4.5181103 -1.6943949 4288085770
3.9583435 3.0754814 -1.6756759 4288085770
11.205185 4.5775957 -1.6862097 4288085770
4.3204803 3.0772488 -1.6721323 4288085770
4.752594 3.087018 -1.6738094 4288085770
5.228714 3.0997963 -1.6796417 4288085770
5.8187714 3.1285994 -1.6968102 4288085770
6.3008881 3.1303432 -1.698754 4288085770
6.7370453 3.1160414 -1.6916376 4288085770
7.1981659 3.1007426 -1.686631 4288085770
7.7202911 3.0904431 -1.6858324 4288085770
8.3144073 3.0841441 -1.6902947 4288085770
8.9204865 3.0718319 -1.693853 4288085770
9.4526215 3.0394807 -1.6872693 4288085770
9.9797668 3.0001173 -1.6787208 4288085770
10.578888 2.9617472 -1.6744568 4288085770
11.203003 2.9203644 -1.6703182 4288085770
11.834137 2.8719778 -1.6662637 4288085770
11.606735 -5.1525636 -0.23174758 4293729569
11.567734 -5.1738667 -1.2178003 4293729569
11.571625 -5.2862115 -0.27566367 4293729569
11.5616 -5.3165116 -1.2639049 4293729569
9.6308289 -5.2739606 -1.3287296 4293729569
7.9887695 -4.8440013 -0.43562192 4293729569
9.5587158 -5.3775735 -1.3742584 4293729569
7.6487274 -4.8475404 -0.4712705 4293729569
7.8053894 -4.9262576 -1.2895644 4293729569
7.6526031 -4.9601846 -0.51817942 4293729569
7.7962799 -5.037889 -1.3374124 4293729569
7.6444702 -5.0698161 -0.56601572 4293729569
11.509979 -6.5626464 -1.7665746 4293729569
10.747192 -6.4302516 -1.7634294 4293729569
9.9733887 -6.2798829 -1.7560974 4293729569
9.2426147 -6.1375203 -1.7510034 4293729569
8.5957947 -6.0151763 -1.749409 4293729569
8.0329437 -5.9148297 -1.7543298 4293729569
7.5420532 -5.8354821 -1.7647092 4293729569
6.9792175 -5.7181726 -1.7644948 4293729569
6.4483795 -5.6088672 -1.7664745 4293729569
5.97052 -5.5115733 -1.7707648 4293729569
5.4577179 -5.3933072 -1.768747 4293729569
4.9549103 -5.2720609 -1.764746 4293729569
4.4551239 -5.1428437 -1.7576941 4293729569
4.0232849 -5.0386033 -1.7581161 4293729569
3.6014862 -4.9313846 -1.7565553 4293729569
9.5232239 -7.6167874 -1.7488577 4293729569
3.222641 -4.8371568 -1.7592719 4293729569
8.7714081 -7.3862987 -1.7579826 4293729569
2.8947601 -4.7619243 -1.7663459 4293729569
7.9706726 -7.1228585 -1.7576476 4293729569
2.5639038 -4.6797042 -1.7713523 4293729569
7.2798767 -6.8994346 -1.7630759 4293729569
2.1501312 -4.5535617 -1.7606741 4293729569
6.5541382 -6.6510615 -1.7591645 4293729569
1.834259 -4.4683652 -1.763718 4293729569
6.0252838 -6.4846654 -1.7727022 4293729569
1.5394135 -4.3881736 -1.7678869 4293729569
2.7875214 -5.0014529 -1.437801 4293729569
1.2175903 -4.2910218 -1.7648119 4293729569
2.6864624 -5.015038 -1.4845015 4293729569
0.94973755 -4.2148452 -1.7691221 4293729569
2.6463165 -5.0575843 -1.5406791 4293729569
0.68687439 -4.1386752 -1.7724526 4293729569
2.6321564 -5.1101127 -1.6010417 4293729569
0.47796631 -4.085465 -1.7851846 4293729569
2.6499786 -5.1786256 -1.665661 4293729569
0.34100342 -4.0642056 -1.8094623 4293729569
2.7367096 -5.2810798 -1.7428297 4293729569
0.21202087 -4.0459399 -1.8347962 4293729569
2.4278259 -5.1777883 -1.7587602 4293729569
0.12399292 -4.0466275 -1.8694468 4288085770
2.0490112 -5.0345693 -1.76009 4293729569
0.02897644 -4.0423255 -1.9020295 4288085770
1.7051849 -4.9043546 -1.763665 4293729569
-0.079025269 -4.0280404 -1.9314806 4288085770
1.3523712 -4.7651649 -1.763132 4293729569
-0.29386902 -3.9539056 -1.9340227 4288085770
1.0265656 -4.6339889 -1.7627724 4293729569
-0.52468872 -3.8688016 -1.9314127 4288085770
0.73771667 -4.5198083 -1.7656976 4293729569
-0.73753357 -3.7896991 -1.9299235 4288085770
0.44190979 -4.3986478 -1.7655389 4293729569
-0.95535278 -3.704617 -1.9253669 4288085770
0.1890564 -4.2954783 -1.7696977 4293729569
-1.1571808 -3.6245265 -1.9229145 4288085770
-0.045791626 -4.1993032 -1.775985 4293729569
-1.3530121 -3.5464492 -1.9195025 4288085770
-0.2926178 -4.0931678 -1.7761443 4293729569
-1.5528259 -3.4623914 -1.9130268 4288085770
-0.46852112 -4.0239625 -1.7898784 4293729569
-1.7176514 -3.3962951 -1.9138286 4288085770
-0.532547 -4.0146384 -1.8275476 4293729569
-1.885498 -3.3252215 -1.9115849 4288085770
-0.5716095 -4.0172954 -1.8694136 4288085770
-2.044342 -3.256145 -1.9103935 4288085770
-0.61964417 -4.0139632 -1.9091957 4288085770
-2.1772003 -3.2000451 -1.9144108 4288085770
-0.72862244 -3.9737191 -1.9334373 4288085770
-2.3400269 -3.1250062 -1.9081559 4288085770
-0.93643188 -3.8736186 -1.931802 4288085770
-2.4788666 -3.0619416 -1.9070935 4288085770
-1.1572418 -3.7645593 -1.9240427 4288085770
-2.6127167 -2.9998794 -1.9060595 4288085770
-1.3330536 -3.6784606 -1.9246485 4288085770
-2.7285767 -2.9457946 -1.9091623 4288085770
-1.5408478 -3.5714307 -1.9139583 4288085770
-2.8603973 -2.8817563 -1.9051206 4288085770
-1.7076721 -3.4863524 -1.9126086 4288085770
-2.9732666 -2.8256888 -1.9062197 4288085770
-1.8704987 -3.4012828 -1.9102755 4288085770
-3.1000824 -2.7606692 -1.9001911 4288085770
-2.0143433 -3.3251996 -1.9110909 4288085770
-2.1621704 -3.2451463 -1.9078584 4288085770
-2.2960358 -3.1710753 -1.9077306 4288085770
-2.4418335 -3.089047 -1.9014907 4288085770
-2.547699 -3.0279593 -1.9055796 4288085770
-2.6725464 -2.9549174 -1.9024961 4288085770
-2.7793732 -2.8918614 -1.9025652 4288085770
-2.8852234 -2.8268142 -1.9016228 4288085770
-2.993042 -2.7597871 -1.8976562 4288085770
-3.1028748 -2.6897769 -1.8916581 4288085770
-3.0788422 -0.49854612 -1.8298907 4288085770
-3.0036926 -0.48161364 -1.8270767 4288085770
-2.9285431 -0.46469641 -1.8222628 4288085770
-2.843399 -0.44876146 -1.8204989 4288085770
-2.7352905 -0.43678999 -1.8248625 4288085770
-2.6411591 -0.42086697 -1.8221366 4288085770
-2.5380249 -0.40592527 -1.8224561 4288085770
-2.4268951 -0.39298773 -1.8228254 4288085770
-2.3187561 -0.37806463 -1.8211665 4288085770
-2.2046204 -0.36315155 -1.8185329 4288085770
-2.0645294 -0.35119581 -1.8230321 4288085770
-3.0803833 -0.21263504 -1.8236833 4288085770
-1.9493713 -0.33530045 -1.8183954 4288085770
-2.9732819 -0.19967985 -1.8260355 4288085770
-1.8142242 -0.32138205 -1.8178585 4288085770
-2.8711395 -0.18575382 -1.8243589 4288085770
-1.6660919 -0.30846262 -1.8183839 4288085770
-2.7670135 -0.17282724 -1.8226988 4288085770
-1.515976 -0.29555368 -1.8179183 4288085770
-2.6588593 -0.15890265 -1.821048 4288085770
-1.3538513 -0.28264999 -1.8175035 4288085770
-2.5417328 -0.14598417 -1.819443 4288085770
-1.2026978 -0.26777935 -1.8120267 4288085770
-2.4066162 -0.13304281 -1.8219135 4288085770
-1.0085754 -0.25585985 -1.8157547 4288085770
-2.2655029 -0.12110519 -1.8244174 4288085770
-0.82044983 -0.24297762 -1.8144498 4288085770
-2.1303711 -0.10818672 -1.8238885 4288085770
-0.63330078 -0.22911739 -1.8101332 4288085770
-2.009201 -0.093308449 -1.8172855 4288085770
-0.41317749 -0.21722746 -1.8119714 4288085770
-1.861084 -0.081405163 -1.8158195 4288085770
-0.1870575 -0.20435619 -1.8118274 4288085770
-1.6889648 -0.069483757 -1.8184547 4288085770
0.033096313 -0.19051361 -1.8076508 4288085770
-1.5168457 -0.057575703 -1.8190901 4288085770
0.29920959 -0.17964697 -1.8096912 4288085770
-1.3387146 -0.044680595 -1.8187435 4288085770
0.54537964 -0.1658411 -1.8026247 4288085770
-1.167572 -0.030812263 -1.8143599 4288085770
0.82550049 -0.1530118 -1.8007097 4288085770
-0.96444702 -0.018921375 -1.8151269 4288085770
1.1346436 -0.14119959 -1.7989249 4288085770
-0.77030945 -0.0060648918 -1.8108485 4288085770
1.4707642 -0.12939167 -1.7982545 4288085770
-0.54316711 0.0068054199 -1.8107092 4288085770
1.8378906 -0.11759329 -1.7987151 4288085770
-0.31103516 0.018665791 -1.8095992 4288085770
2.2320404 -0.10581493 -1.7982903 4288085770
-0.052902222 0.030529022 -1.8105993 4288085770
2.6351776 -0.094073772 -1.7939038 4288085770
0.18226624 0.044333458 -1.8024874 4288085770
3.1003265 -0.08234024 -1.7927799 4288085770
0.46939087 0.056165218 -1.8016105 4288085770
3.5804749 -0.069638729 -1.7887118 4288085770
0.77252197 0.068981647 -1.7997937 4288085770
4.1006317 -0.057971001 -1.7828212 4288085770
1.0966644 0.080795765 -1.7990737 4288085770
4.7097473 -0.047304153 -1.7833145 4288085770
1.4398041 0.092582226 -1.7964346 4288085770
5.458847 -0.038645267 -1.7924149 4288085770
1.8289185 0.10437059 -1.7969897 4288085770
6.2099762 -0.028058052 -1.7925096 4288085770
2.2410736 0.11713123 -1.795635 4288085770
7.0001373 -0.016554356 -1.7847624 4288085770
2.7012024 0.12887478 -1.7954915 4288085770
8.0432434 -0.0090460777 -1.7951155 4288085770
3.1423492 0.14256716 -1.7872524 4288085770
9.2473145 -0.00061178207 -1.8071423 4288085770
3.6605072 0.15425777 -1.7843552 4288085770
10.317535 0.012662411 -1.7895665 4288085770
4.2476349 0.16692924 -1.7837422 4288085770
11.524765 0.025836945 -1.7685711 4288085770
4.9577484 0.17857504 -1.7886572 4288085770
5.7638397 0.1902051 -1.7979791 4288085770
6.5380096 0.20272589 -1.7911594 4288085770
7.3671875 0.21619511 -1.7815657 4288085770
8.7981415 0.2257309 -1.8225482 4288085770
9.8333588 0.24101734 -1.8038132 4288085770
10.900635 0.25620031 -1.7742152 4288085770
11.712814 0.46100426 -1.7682469 4288085770
10.38588 0.47278833 -1.7836311 4288085770
9.2859039 0.48449564 -1.8039596 4288085770
8.2309875 0.49710512 -1.8144701 4288085770
6.9102325 0.50548077 -1.7779112 4288085770
6.1163177 0.51695156 -1.7875166 4288085770
5.3564301 0.52835131 -1.7902646 4288085770
4.5716095 0.53866148 -1.7799189 4288085770
10.596863 0.64343882 -1.7550575 4288085770
3.9377289 0.54997015 -1.7791924 4288085770
9.5478821 0.65817642 -1.7825809 4288085770
3.3818512 0.56125784 -1.7807906 4288085770
8.5839081 0.67281151 -1.8024588 4288085770
2.9149323 0.57355022 -1.7887504 4288085770
7.2161865 0.67719507 -1.7637445 4288085770
2.4490356 0.5848031 -1.7917233 4288085770
6.3912811 0.68965578 -1.7702184 4288085770
2.0101776 0.59601307 -1.7908092 4288085770
5.672348 0.70208216 -1.7791328 4288085770
1.5973053 0.60620022 -1.7890112 4288085770
4.9305115 0.71241856 -1.7749696 4288085770
1.2244415 0.61737967 -1.7883723 4288085770
4.22966 0.72270489 -1.7669774 4288085770
0.87356567 0.62853909 -1.7868247 4288085770
3.6737823 0.73399162 -1.7685788 4288085770
0.56367493 0.63970947 -1.7894475 4288085770
3.1748962 0.74527502 -1.7734168 4288085770
0.26980591 0.65085077 -1.7891371 4288085770
2.7649689 0.75955582 -1.7836006 4288085770
-0.020065308 0.66197395 -1.786844 4288085770
2.3090973 0.76977253 -1.7826264 4288085770
-0.25595093 0.67413378 -1.7927666 4288085770
1.9032135 0.78197432 -1.7828443 4288085770
-0.48184204 0.68628168 -1.7977312 4288085770
1.5013733 0.79213381 -1.7780952 4288085770
-0.70372009 0.69840288 -1.7997129 4288085770
1.1684723 0.80432415 -1.7816162 4288085770
-0.8966217 0.71053505 -1.8048146 4288085770
0.84660339 0.81647778 -1.7811835 4288085770
-1.1344604 0.72058678 -1.796747 4288085770
0.55473328 0.82863283 -1.7828751 4288085770
-1.2684021 0.73577642 -1.8130693 4288085770
0.27085876 0.84077597 -1.7836003 4288085770
-1.4552765 0.74785852 -1.8121974 4288085770
0.029937744 0.85393047 -1.7884963 4288085770
-1.6061859 0.76098537 -1.8194661 4288085770
-0.18395996 0.86708784 -1.7955039 4288085770
-1.756073 0.77308178 -1.8227472 4288085770
-0.43582153 0.87917757 -1.791363 4288085770
-1.9129333 0.78616571 -1.8239923 4288085770
-0.62670898 0.89231586 -1.7974663 4288085770
-2.050827 0.79825497 -1.8273234 4288085770
-0.83158875 0.90542221 -1.7985122 4288085770
-2.1687317 0.81236792 -1.8347218 4288085770
-1.0274658 0.9175086 -1.7976036 4288085770
-2.3125763 0.82441378 -1.8320291 4288085770
-1.2013397 0.9306078 -1.7997782 4288085770
-2.4654388 0.83543301 -1.8253074 4288085770
-1.3792267 0.9426856 -1.7989445 4288085770
-2.5983124 0.84647417 -1.8226683 4288085770
-1.4941254 0.95984268 -1.8123317 4288085770
-2.7211609 0.8585186 -1.821063 4288085770
-1.6439972 0.97292233 -1.813606 4288085770
-2.8500061 0.86952686 -1.814441 4288085770
-1.766922 0.98803711 -1.8209765 4288085770
-2.9768677 0.8805418 -1.8088276 4288085770
-1.9237671 1.0000815 -1.8172307 4288085770
-3.0717621 0.89460421 -1.8113227 4288085770
-2.0456543 1.0151644 -1.8206055 4288085770
-2.1615295 1.0292516 -1.8250136 4288085770
-2.2974091 1.0422935 -1.8223469 4288085770
-2.4382477 1.0532994 -1.8146763 4288085770
-2.5581055 1.0653353 -1.8120842 4288085770
-2.6619873 1.0793853 -1.8125422 4288085770
-2.7738495 1.0924172 -1.8099756 4288085770
-2.8787079 1.1054363 -1.8064382 4288085770
-2.9815521 1.117456 -1.8029168 4288085770
-3.0694275 1.1324997 -1.8034337 4288085770
-3.0880127 3.3344872 -1.7178839 4288085770
-2.9818573 3.3904235 -1.7168738 4288085770
-2.8717041 3.4473581 -1.715872 4288085770
-2.7615509 3.5022776 -1.7128856 4288085770
-2.638382 3.5642059 -1.7118973 4288085770
-2.4892578 3.6381686 -1.7169204 4288085770
-2.3491058 3.7051048 -1.7179613 4288085770
-2.1929626 3.7790484 -1.721012 4288085770
-2.0418091 3.8479717 -1.7210811 4288085770
-3.1159973 3.3094642 -1.718925 4288085770
-1.8746643 3.9249029 -1.723153 4288085770
-2.9948578 3.3614018 -1.7190056 4288085770
-1.7244873 3.9897959 -1.7192487 4288085770
-2.8786926 3.408334 -1.7181046 4288085770
-1.537323 4.0727177 -1.7213535 4288085770
-2.7415619 3.4642868 -1.7212179 4288085770
-1.3731537 4.140604 -1.7174821 4288085770
-2.6174011 3.5132 -1.7183334 4288085770
-1.1730042 4.226512 -1.7186154 4288085770
-2.4702606 3.5711486 -1.7214708 4288085770
-0.9848175 4.3023949 -1.7157778 4288085770
-2.3241272 3.6270747 -1.72162 4288085770
-0.77766418 4.3862762 -1.7139542 4288085770
-2.1699677 3.6860118 -1.7237777 4288085770
-0.57748413 4.4631386 -1.7091562 4288085770
-2.0188141 3.7389209 -1.7219695 4288085770
-0.32733154 4.5640388 -1.7123733 4288085770
-1.8696442 3.7908218 -1.7191609 4288085770
-0.10314941 4.6478896 -1.7076168 4288085770
-1.690506 3.8547561 -1.7223793 4288085770
0.1570282 4.7477617 -1.707881 4288085770
-1.4983826 3.922684 -1.7256188 4288085770
0.40420532 4.8355947 -1.7021854 4288085770
-1.3432007 3.9695516 -1.7188722 4288085770
0.66339111 4.9274287 -1.6975065 4288085770
-1.1550598 4.0304585 -1.7191494 4288085770
0.95257568 5.0312648 -1.6948545 4288085770
-0.97090149 4.0863361 -1.7154487 4288085770
1.2737732 5.1461091 -1.6952454 4288085770
-0.79571533 4.1351953 -1.708766 4288085770
1.6139526 5.265945 -1.6956735 4288085770
-0.59155273 4.1960793 -1.7071062 4288085770
1.9631348 5.3857532 -1.6931369 4288085770
-0.36540222 4.2639685 -1.7074801 4288085770
2.3223114 5.5055561 -1.6906399 4288085770
-0.15122986 4.3228326 -1.7038753 4288085770
2.7404938 5.6493783 -1.6941929 4288085770
0.094909668 4.3947206 -1.7052974 4288085770
3.1616974 5.7881608 -1.692796 4288085770
0.3270874 4.4565763 -1.7017406 4288085770
3.619873 5.9399495 -1.6944458 4288085770
0.57023621 4.5194345 -1.6992197 4288085770
4.105072 6.0967331 -1.6971645 4288085770
0.85339355 4.5973129 -1.7017424 4288085770
4.5722809 6.2394552 -1.6909186 4288085770
1.1355591 4.671176 -1.7022915 4288085770
5.0814972 6.3941822 -1.6877471 4288085770
1.4267273 4.7440281 -1.701884 4288085770
5.7046967 6.5909171 -1.6927063 4288085770
1.7338562 4.8198805 -1.7025167 4288085770
6.4868622 6.8506927 -1.7128128 4288085770
2.0859985 4.9107428 -1.7072126 4288085770
7.1600952 7.0523663 -1.712931 4288085770
2.4331818 4.9945917 -1.7099421 4288085770
7.7363281 7.20297 -1.6980546 4288085770
2.7553558 5.0633984 -1.7056873 4288085770
8.2046051 7.3015242 -1.6701478 4288085770
3.1294861 5.1492348 -1.708508 4288085770
8.8728638 7.4741006 -1.6574671 4288085770
3.4756622 5.2160234 -1.7033633 4288085770
9.6651306 7.6876731 -1.6519637 4288085770
3.8268433 5.2828093 -1.6982379 4288085770
10.442398 7.886199 -1.6395149 4288085770
4.2390137 5.3676062 -1.6982167 4288085770
11.268646 8.090703 -1.6272148 4288085770
4.650177 5.4453878 -1.6962445 4288085770
5.0963287 5.5311766 -1.6973493 4288085770
5.51651 5.6009312 -1.6924732 4288085770
6.0016632 5.6887016 -1.6937165 4288085770
6.5438232 5.7894697 -1.6980858 4288085770
7.0729828 5.878221 -1.699495 4288085770
7.6191559 5.9639482 -1.6989942 4288085770
8.1343384 6.0346527 -1.6934848 4288085770
8.7305145 6.1213655 -1.6941735 4288085770
9.3206787 6.1980586 -1.6919143 4288085770
9.9248657 6.2717376 -1.6887331 4288085770
10.498032 6.3273926 -1.6805663 4288085770
11.078217 6.3750372 -1.6714884 4288085770
11.683395 6.4236856 -1.664501 4288085770
11.346725 -2.8891702 -1.8597646 4288085770
10.7668 -2.9168429 -1.866689 4288085770
10.148926 -2.9305463 -1.8673582 4288085770
9.6000061 -2.9452567 -1.8713059 4288085770
9.0111389 -2.9469867 -1.8699985 4288085770
8.4342499 -2.9437318 -1.8677006 4288085770
7.9633636 -2.9534621 -1.8739181 4288085770
7.4764557 -2.9542012 -1.8780048 4288085770
7.015564 -2.9519591 -1.8811712 4288085770
6.5296936 -2.9397388 -1.8801634 4288085770
6.0438232 -2.9195399 -1.8760953 4288085770
5.611969 -2.9063354 -1.8762929 4288085770
5.2080688 -2.8941283 -1.8786085 4288085770
11.826431 -4.567307 -1.8843145 4288085770
4.8161926 -2.8799262 -1.8809559 4288085770
11.20546 -4.5318265 -1.9085989 4288085770
4.4383087 -2.8637309 -1.8833437 4288085770
10.456573 -4.4544034 -1.917062 4288085770
4.0414581 -2.8365731 -1.8795733 4288085770
9.7037201 -4.3670259 -1.9194343 4288085770
3.6955872 -2.8183923 -1.882072 4288085770
8.8829346 -4.2507033 -1.9103196 4288085770
3.3536987 -2.7962289 -1.882556 4288085770
8.2540588 -4.178349 -1.9172938 4288085770
3.010849 -2.7710729 -1.8820138 4288085770
7.5952148 -4.089047 -1.9160216 4288085770
2.7059479 -2.7499099 -1.8846509 4288085770
6.9753876 -4.0007596 -1.9149106 4288085770
2.3950958 -2.7247682 -1.8842347 4288085770
6.3915405 -3.9174895 -1.9139793 4288085770
2.0952301 -2.6976237 -1.8848464 4288085770
5.8197174 -3.829247 -1.9100575 4288085770
1.8043518 -2.6694913 -1.8844864 4288085770
5.3238525 -3.756 -1.9115486 4288085770
1.5214996 -2.6393781 -1.8821425 4288085770
4.8440094 -3.6817689 -1.9120951 4288085770
1.2676392 -2.6152396 -1.8849583 4288085770
