# .PCD v0.7 - Point Cloud Data file format
VERSION 0.7
FIELDS x y z rgb
SIZE 4 4 4 4
TYPE F F F U
COUNT 1 1 1 1
WIDTH 1122
HEIGHT 1
VIEWPOINT 0 0 0 1 0 0 0
POINTS 1122
DATA ascii
4.2242699 1.0966547 -1.7887028 4288085770
3.3504028 0.98602819 -1.7959862 4288085770
4.3793812 1.1117604 -1.7868258 4288085770
3.4665165 0.99610591 -1.7940779 4288085770
4.5594864 1.1298857 -1.7899686 4288085770
3.5876331 1.006187 -1.7911738 4288085770
4.7285995 1.1450014 -1.7881029 4288085770
3.7197495 1.0162768 -1.7912788 4288085770
4.9177074 1.1621325 -1.7892532 4288085770
3.8528652 1.0253663 -1.7883848 4288085770
5.1138153 1.1792681 -1.7884092 4288085770
3.9999771 1.0354671 -1.7895024 4288085770
5.3219233 1.1954131 -1.7895756 4288085770
4.1560898 1.0465746 -1.7906269 4288085770
5.5420322 1.2125661 -1.7897515 4288085770
4.3042068 1.0546753 -1.7887454 4288085770
5.750145 1.2277098 -1.7859174 4288085770
4.4843159 1.0668011 -1.7918895 4288085770
6.0062504 1.2468896 -1.7891225 4288085770
4.6484318 1.074913 -1.7900213 4288085770
6.2783556 1.2660816 -1.7923408 4288085770
4.8375454 1.0850449 -1.7921731 4288085770
6.5344696 1.2812591 -1.7885464 4288085770
5.0446539 1.0961902 -1.7963399 4288085770
6.8125782 1.2984538 -1.7877697 4288085770
5.2407703 1.1043258 -1.7954978 4288085770
7.121686 1.3166714 -1.7880185 4288085770
5.4508858 1.1124721 -1.7956674 4288085770
7.422801 1.3308814 -1.7832612 4288085770
5.6500072 1.1176085 -1.7908283 4288085770
7.7879038 1.3521399 -1.7865553 4288085770
5.909112 1.1287923 -1.7970376 4288085770
8.1380129 1.3683856 -1.7828382 4288085770
6.1312332 1.1329458 -1.7932178 4288085770
8.53512 1.3876665 -1.7831588 4288085770
6.3683548 1.13711 -1.7894101 4288085770
8.95123 1.4059606 -1.7814955 4288085770
6.6294737 1.1422918 -1.7866224 4288085770
9.3783436 1.4212611 -1.7768416 4288085770
6.9255877 1.1495013 -1.7898626 4288085770
9.8764477 1.4426155 -1.7792449 4288085770
7.2157078 1.1527045 -1.7880991 4288085770
10.365562 1.4579601 -1.772642 4288085770
7.531827 1.1569269 -1.7873565 4288085770
10.932672 1.4783633 -1.7721022 4288085770
7.8609467 1.159158 -1.7856251 4288085770
11.513784 1.4937747 -1.7665751 4288085770
8.1870737 1.1583858 -1.779892 4288085770
12.134901 1.5092139 -1.7590808 4288085770
8.5871906 1.1616704 -1.7832189 4288085770
12.847011 1.5287209 -1.7556605 4288085770
8.9953108 1.1629593 -1.7825527 4288085770
13.672113 1.55231 -1.7563325 4288085770
9.4124355 1.1602535 -1.7798949 4288085770
14.541225 1.5729299 -1.7530411 4288085770
9.8605623 1.1575706 -1.7772626 4288085770
15.489339 1.5916054 -1.7468154 4288085770
10.347688 1.1529155 -1.774663 4288085770
16.561449 1.612371 -1.7416912 4288085770
10.876815 1.1472912 -1.7730981 4288085770
17.75256 1.6322212 -1.7346654 4288085770
11.448942 1.139698 -1.7715693 4288085770
12.043072 1.1271193 -1.7660604 4288085770
12.704202 1.1165903 -1.7646053 4288085770
13.405338 1.1010892 -1.7601845 4288085770
14.241469 1.0856879 -1.7618753 4288085770
15.099611 1.0632999 -1.7575856 4288085770
16.092751 1.0390105 -1.7564079 4288085770
17.144897 1.0077627 -1.7522805 4288085770
9.5685129 -7.8649955 -1.4542733 4293729569
9.1474648 -7.5482097 -1.4647954 4293729569
8.7684317 -7.2583995 -1.4763607 4293729569
8.4594202 -7.0165515 -1.4920011 4293729569
8.1694164 -6.7866931 -1.5066605 4293729569
7.863409 -6.5448499 -1.5143019 4293729569
7.6334238 -6.3539615 -1.5290238 4293729569
7.3964405 -6.1580796 -1.5397379 4293729569
7.1914644 -5.9821782 -1.5534844 4293729569
6.9744873 -5.7982888 -1.5612179 4293729569
6.7935209 -5.6383777 -1.5729895 4293729569
9.9906549 -7.6128268 -1.4612206 4293729569
6.6145554 -5.4784684 -1.5807618 4293729569
9.6426229 -7.327003 -1.4718015 4293729569
6.4515963 -5.3295493 -1.5895511 4293729569
9.3286037 -7.0651612 -1.4824193 4293729569
6.2996416 -5.1886268 -1.5973525 4293729569
9.0395956 -6.8193069 -1.4920626 4293729569
6.1416855 -5.0427098 -1.6021467 4293729569
8.7935991 -6.6014285 -1.5037506 4293729569
6.0067348 -4.9107795 -1.6089637 4293729569
8.5586061 -6.3925462 -1.5144517 4293729569
5.8807888 -4.7858453 -1.614791 4293729569
8.3646278 -6.2106404 -1.5261959 4293729569
5.8038549 -4.6908746 -1.6296675 4293729569
8.1976576 -6.0447202 -1.5399662 4293729569
5.7119188 -4.5869212 -1.6385292 4293729569
8.0176868 -5.8718114 -1.5477245 4293729569
5.5889759 -4.4639878 -1.6393592 4293729569
7.8787251 -5.7248769 -1.5605247 4293729569
5.4800367 -4.34905 -1.6412028 4293729569
7.7097607 -5.5609651 -1.5662959 4293729569
5.3970995 -4.250093 -1.6470726 4293729569
7.5567942 -5.4060445 -1.572082 4293729569
5.3291721 -4.1611247 -1.6559578 4293729569
7.4408426 -5.2741008 -1.5809059 4293729569
5.2622442 -4.0711598 -1.6618426 4293729569
7.3238926 -5.1421599 -1.5887289 4293729569
5.2393255 -4.0071616 -1.6767707 4293729569
7.2159462 -5.0152154 -1.5955604 4293729569
5.3204308 -4.0040879 -1.7148004 4293729569
7.111001 -4.8922706 -1.600397 4293729569
5.4265385 -4.0109963 -1.7578499 4288085770
7.0230608 -4.7793155 -1.6062499 4293729569
5.5136423 -4.0069184 -1.7958808 4288085770
6.941123 -4.6703582 -1.6121093 4293729569
5.4867229 -3.9369292 -1.8048006 4288085770
6.8681879 -4.5653968 -1.6179758 4293729569
5.4007931 -3.8339849 -1.7996643 4288085770
6.7992544 -4.4634328 -1.622847 4293729569
5.2948618 -3.7220578 -1.7875108 4288085770
6.735323 -4.3644681 -1.6267229 4293729569
5.2499418 -3.643086 -1.7884141 4288085770
6.6773939 -4.2694993 -1.630605 4293729569
5.2070227 -3.566112 -1.7893202 4288085770
6.6344671 -4.1815228 -1.6355 4293729569
5.1691046 -3.4901376 -1.7892292 4288085770
6.5915422 -4.0945458 -1.6393957 4293729569
5.1241856 -3.412168 -1.7871332 4288085770
6.6716394 -4.0694852 -1.6654017 4293729569
5.1202745 -3.3541684 -1.7940733 4288085770
6.8317499 -4.0793653 -1.705474 4293729569
5.0833588 -3.2801957 -1.7919842 4288085770
6.9928608 -4.0882478 -1.7445456 4288085770
5.0674448 -3.2172084 -1.7929143 4288085770
7.1469669 -4.0911345 -1.7826083 4288085770
5.0365295 -3.1462331 -1.7898304 4288085770
7.188055 -4.0391049 -1.7965713 4288085770
5.0296202 -3.0882401 -1.7917688 4288085770
7.1591339 -3.9551272 -1.7954745 4288085770
5.02071 -3.0272503 -1.7917032 4288085770
7.0932074 -3.8551764 -1.7863469 4288085770
5.0088005 -2.9672627 -1.7906374 4288085770
7.0702848 -3.7741933 -1.7852553 4288085770
5.015893 -2.9132628 -1.7925847 4288085770
7.0573673 -3.6982064 -1.7841722 4288085770
5.0279875 -2.8632588 -1.7955379 4288085770
7.0534534 -3.6262145 -1.7830966 4288085770
5.0370836 -2.8122582 -1.796489 4288085770
7.0565376 -3.5582185 -1.7830275 4288085770
5.0441761 -2.7592597 -1.7964371 4288085770
7.0646248 -3.491221 -1.7829614 4288085770
5.0662727 -2.7122521 -1.7983968 4288085770
7.0767117 -3.42522 -1.7818974 4288085770
5.0933685 -2.6672401 -1.8013605 4288085770
7.092802 -3.3622174 -1.780838 4288085770
5.1024637 -2.6142435 -1.7993088 4288085770
7.1168919 -3.3012109 -1.7797835 4288085770
5.1385622 -2.572226 -1.8022785 4288085770
7.1579838 -3.2481933 -1.7817434 4288085770
5.1486578 -2.5212312 -1.798229 4288085770
7.2050781 -3.1951718 -1.7827055 4288085770
5.1897573 -2.4802117 -1.8012016 4288085770
7.2521725 -3.1431518 -1.7836684 4288085770
5.2218552 -2.4362016 -1.8001672 4288085770
7.3182669 -3.0951195 -1.7866424 4288085770
5.2859535 -2.4031663 -1.8071566 4288085770
7.3863602 -3.0490875 -1.7886192 4288085770
5.3180523 -2.3581572 -1.8051211 4288085770
7.4414549 -2.9980645 -1.7875856 4288085770
5.3601522 -2.3161407 -1.8040922 4288085770
7.5115528 -2.9500332 -1.7875607 4288085770
5.4122524 -2.2771182 -1.8050699 4288085770
7.5876503 -2.9039984 -1.7875397 4288085770
5.4723549 -2.2400899 -1.807053 4288085770
7.6667461 -2.8569617 -1.7875186 4288085770
5.5214548 -2.198072 -1.8050261 4288085770
7.7458439 -2.8109279 -1.7854986 4288085770
5.592557 -2.1640363 -1.8080158 4288085770
7.8419447 -2.7698817 -1.7864895 4288085770
5.6506586 -2.1250134 -1.8059953 4288085770
7.946044 -2.7288322 -1.7864835 4288085770
5.7187605 -2.0879831 -1.8059804 4288085770
8.0641441 -2.689775 -1.7874845 4288085770
5.7928619 -2.051949 -1.8059685 4288085770
8.179245 -2.6487203 -1.786482 4288085770
5.8809671 -2.0189066 -1.8079649 4288085770
8.3083458 -2.6106572 -1.7874876 4288085770
5.9730701 -1.9868622 -1.8089638 4288085770
8.4424486 -2.5745926 -1.7864969 4288085770
6.0811749 -1.9578066 -1.8139714 4288085770
8.5875502 -2.5385203 -1.7875102 4288085770
6.183279 -1.9267554 -1.8159744 4288085770
8.7486544 -2.5034409 -1.7875299 4288085770
6.2683821 -1.888721 -1.8119637 4288085770
8.9037561 -2.4673657 -1.7865462 4288085770
6.379487 -1.8576655 -1.8139696 4288085770
9.0718603 -2.431283 -1.785567 4288085770
6.4985857 -1.8266063 -1.8149784 4288085770
9.2529573 -2.3961949 -1.7835935 4288085770
6.6286907 -1.7965417 -1.8169922 4288085770
9.4580603 -2.3650913 -1.7846327 4288085770
6.768795 -1.7674704 -1.8200102 4288085770
9.6631651 -2.3309903 -1.7826684 4288085770
6.8768988 -1.7304239 -1.8150078 4288085770
9.892271 -2.3008752 -1.7827164 4288085770
7.0300045 -1.7023463 -1.8170313 4288085770
10.105376 -2.2647734 -1.7777522 4288085770
7.1651087 -1.668283 -1.8150414 4288085770
10.369482 -2.2366376 -1.7788144 4288085770
7.3252144 -1.6382036 -1.8150648 4288085770
10.631588 -2.2045083 -1.7758715 4288085770
7.4903193 -1.606122 -1.8150874 4288085770
10.854691 -2.1624069 -1.7649034 4288085770
7.6804256 -1.5780249 -1.8171234 4288085770
11.167797 -2.1342478 -1.7639824 4288085770
7.858531 -1.5459385 -1.81515 4288085770
11.569908 -2.1190329 -1.772107 4288085770
8.0286341 -1.511858 -1.8111717 4288085770
11.929017 -2.0928502 -1.7702038 4288085770
8.2337408 -1.4807563 -1.8102087 4288085770
12.311124 -2.0646563 -1.7683064 4288085770
8.4598465 -1.4516425 -1.8102552 4288085770
12.740232 -2.0404348 -1.7684295 4288085770
8.668951 -1.4165425 -1.8052888 4288085770
13.226341 -2.0191822 -1.7695758 4288085770
8.9210567 -1.386415 -1.8053427 4288085770
13.726452 -1.9959249 -1.7687243 4288085770
9.1631622 -1.3522973 -1.8003886 4288085770
14.366565 -1.9855824 -1.7779363 4288085770
9.483264 -1.3251281 -1.8054695 4288085770
14.953671 -1.959281 -1.7741116 4288085770
9.7823696 -1.2939773 -1.8045381 4288085770
15.638782 -1.9419222 -1.7763306 4288085770
10.123475 -1.2647996 -1.8066232 4288085770
16.355894 -1.9215508 -1.7745568 4288085770
10.497579 -1.2346053 -1.8087187 4288085770
17.017002 -1.8852224 -1.7597449 4288085770
10.849684 -1.1984296 -1.8037993 4288085770
17.73111 -1.8478665 -1.7439499 4288085770
11.233787 -1.1622362 -1.7998909 4288085770
11.60589 -1.1220541 -1.7909729 4288085770
11.983994 -1.0788741 -1.7770536 4288085770
12.486096 -1.0426168 -1.7741849 4288085770
13.02725 -1.0033374 -1.7713219 4288085770
13.598351 -0.96204758 -1.7654743 4288085770
14.258451 -0.92170858 -1.7626585 4288085770
14.987552 -0.87933302 -1.7598641 4288085770
15.741649 -0.83094978 -1.7510711 4288085770
16.621746 -0.78349543 -1.7473227 4288085770
17.580845 -0.73200321 -1.7395968 4288085770
18.14123 1.6138253 -1.7193083 4288085770
17.469313 1.6854708 -1.7240419 4288085770
16.851395 1.7551451 -1.7287911 4288085770
16.248474 1.8188214 -1.7295531 4288085770
15.678563 1.879514 -1.7293267 4288085770
15.243645 1.9472892 -1.737121 4288085770
14.738737 2.0030115 -1.733917 4288085770
14.299826 2.0607746 -1.7347251 4288085770
13.924914 2.1205747 -1.7375451 4288085770
13.563005 2.1773791 -1.7383726 4288085770
13.256092 2.2382164 -1.7422065 4288085770
12.928184 2.2930369 -1.7420444 4288085770
12.628274 2.3478725 -1.7418889 4288085770
12.356364 2.4047241 -1.7427367 4288085770
12.127452 2.4656031 -1.7465883 4288085770
11.897541 2.5244789 -1.7484428 4288085770
11.699629 2.5853744 -1.7523013 4288085770
11.508717 2.6452701 -1.754163 4288085770
11.346804 2.7081852 -1.7580265 4288085770
11.16589 2.7670853 -1.7588919 4288085770
11.00198 2.8249927 -1.7587624 4288085770
10.878065 2.8919277 -1.7626283 4288085770
18.527224 4.5800238 -1.780859 4288085770
10.776147 2.9618769 -1.7684948 4288085770
18.243299 4.6608725 -1.7836637 4288085770
10.664231 3.027818 -1.7723646 4288085770
17.955378 4.7387152 -1.7844721 4288085770
10.550318 3.0917535 -1.773237 4288085770
17.785442 4.839632 -1.7922726 4288085770
10.476398 3.1657164 -1.7781035 4288085770
17.557518 4.9275088 -1.7940792 4288085770
10.374482 3.2316585 -1.7789751 4288085770
17.373587 5.0224104 -1.7968851 4288085770
10.284568 3.2996058 -1.7788466 4288085770
17.203655 5.1183167 -1.7976925 4288085770
10.229647 3.3745785 -1.7837151 4288085770
17.044724 5.2162304 -1.7994993 4288085770
10.185724 3.4535558 -1.78758 4288085770
16.981777 5.3392038 -1.80729 4288085770
10.123806 3.5265193 -1.7884496 4288085770
16.846844 5.4391255 -1.8060985 4288085770
10.085883 3.6064968 -1.7903141 4288085770
16.792898 5.5630984 -1.8098892 4288085770
10.033964 3.681464 -1.7901825 4288085770
16.781944 5.6990986 -1.8176712 4288085770
10.019038 3.767457 -1.7940426 4288085770
16.769991 5.8350954 -1.8224524 4288085770
10.022109 3.8584623 -1.7998989 4288085770
16.835022 5.99614 -1.8322129 4288085770
9.9931774 3.9414406 -1.7987605 4288085770
16.854057 6.145153 -1.8369819 4288085770
10.002247 4.0364447 -1.8016117 4288085770
16.901091 6.3021827 -1.8427433 4288085770
10.026313 4.1364598 -1.8064584 4288085770
17.002115 6.4792418 -1.8494865 4288085770
10.031384 4.2304587 -1.8073097 4288085770
17.060146 6.6442723 -1.8522377 4288085770
10.01346 4.3164387 -1.8031677 4288085770
17.158171 6.8233256 -1.8559759 4288085770
10.117508 4.4465065 -1.814986 4288085770
17.27219 7.0113869 -1.8587036 4288085770
10.176566 4.5625405 -1.8198152 4288085770
17.558172 7.2655616 -1.8763691 4288085770
10.231623 4.6775689 -1.8226445 4288085770
17.695185 7.4656296 -1.8760824 4288085770
10.306677 4.80161 -1.8264642 4288085770
17.989162 7.7288027 -1.8897345 4288085770
10.392728 4.9306569 -1.8302786 4288085770
18.162167 7.9498882 -1.8884226 4288085770
10.478779 5.0607023 -1.8330909 4288085770
10.59482 5.2057662 -1.8378867 4288085770
10.725859 5.3578401 -1.8436748 4288085770
10.835901 5.5028934 -1.8434682 4288085770
10.990932 5.6689801 -1.8492392 4288085770
11.155959 5.8410716 -1.8540027 4288085770
11.371971 6.0391965 -1.8637373 4288085770
11.587981 6.2403173 -1.8704664 4288085770
11.857978 6.4704742 -1.8821625 4288085770
12.077985 6.6795931 -1.8858788 4288085770
12.332983 6.9077315 -1.8905731 4288085770
12.605975 7.1478786 -1.8942519 4288085770
12.946943 7.4260697 -1.9028867 4288085770
13.333899 7.7312908 -1.9154891 4288085770
13.701858 8.0314903 -1.9200938 4288085770
17.508739 -0.37157345 -1.7315903 4288085770
16.270872 -0.39523649 -1.7394433 4288085770
15.205999 -0.41480398 -1.7483157 4288085770
14.206129 -0.42934418 -1.7521895 4288085770
13.310255 -0.43983269 -1.754072 4288085770
12.476379 -0.44829082 -1.7539606 4288085770
11.747504 -0.45468807 -1.7558615 4288085770
18.464722 -0.73609829 -1.7243433 4288085770
11.120627 -0.46102381 -1.7617776 4288085770
17.034834 -0.72087336 -1.7281022 4288085770
10.53075 -0.46634007 -1.7666979 4288085770
15.841946 -0.70850468 -1.7399017 4288085770
9.9808722 -0.46864033 -1.7686188 4288085770
14.77906 -0.69607353 -1.7477205 4288085770
9.4879923 -0.46990633 -1.7725468 4288085770
13.77717 -0.68061972 -1.7495435 4288085770
9.0331135 -0.47114944 -1.7774802 4288085770
12.905284 -0.66709089 -1.7533895 4288085770
8.6012335 -0.4703846 -1.7804139 4288085770
12.089396 -0.65154171 -1.7522402 4288085770
8.1933537 -0.46860981 -1.7813497 4288085770
11.424508 -0.63989258 -1.7611206 4288085770
7.8094721 -0.46482325 -1.7812852 4288085770
10.804622 -0.6272254 -1.7660055 4288085770
7.4535885 -0.46102047 -1.782225 4288085770
10.241734 -0.61552525 -1.7719009 4288085770
7.121707 -0.45720434 -1.7831686 4288085770
9.6868467 -0.60083246 -1.7717924 4288085770
6.7968254 -0.4513917 -1.7801098 4288085770
9.2239609 -0.59007692 -1.7787045 4288085770
6.535944 -0.44852638 -1.7870654 4288085770
8.7770729 -0.57631969 -1.7816135 4288085770
6.2560596 -0.44168568 -1.7860116 4288085770
8.347188 -0.56255865 -1.7815254 4288085770
6.0091782 -0.43681955 -1.7889659 4288085770
7.9582996 -0.54977226 -1.7834449 4288085770
5.7692947 -0.4309516 -1.7909198 4288085770
7.5824137 -0.53598356 -1.7823647 4288085770
5.5494127 -0.42507315 -1.7928764 4288085770
7.2545271 -0.52415991 -1.7862952 4288085770
5.3195286 -0.41720724 -1.7908283 4288085770
6.9256401 -0.50934553 -1.78522 4288085770
5.1306467 -0.4113059 -1.7957896 4288085770
6.6337547 -0.49750805 -1.7861558 4288085770
4.920763 -0.40243101 -1.7927427 4288085770
6.3418665 -0.4826746 -1.7850863 4288085770
4.7328777 -0.39453888 -1.7927006 4288085770
6.0769806 -0.46982384 -1.7850244 4288085770
4.5479946 -0.38564873 -1.7906574 4288085770
5.8280945 -0.45696402 -1.7849647 4288085770
4.3671112 -0.37675619 -1.7886147 4288085770
5.6082087 -0.4450841 -1.7879109 4288085770
4.2092266 -0.36784697 -1.7885754 4288085770
5.3833218 -0.43121338 -1.7868528 4288085770
4.058342 -0.3589325 -1.7895371 4288085770
5.1834354 -0.41932249 -1.7898021 4288085770
3.9034576 -0.35002565 -1.7874985 4288085770
4.985548 -0.40643549 -1.7897499 4288085770
3.7535706 -0.34011841 -1.7844585 4288085770
4.7726593 -0.39156723 -1.783692 4288085770
3.6326866 -0.33218241 -1.7884262 4288085770
4.6177731 -0.38064623 -1.7896495 4288085770
4.4458866 -0.36674643 -1.7885993 4288085770
4.2850018 -0.35483837 -1.7895542 4288085770
4.1251144 -0.34093666 -1.7865057 4288085770
3.9592304 -0.32704258 -1.7804565 4288085770
3.8283424 -0.31411409 -1.7834138 4288085770
3.6984539 -0.3021903 -1.7833732 4288085770
3.6551647 1.7121115 -1.7811688 4288085770
3.7922707 1.7381871 -1.7841253 4288085770
3.9263783 1.7622554 -1.7840852 4288085770
4.0484886 1.7823069 -1.7790521 4288085770
4.1995945 1.8093901 -1.7820075 4288085770
4.3466988 1.8334637 -1.7809684 4288085770
4.5048084 1.8585467 -1.7819278 4288085770
4.6709118 1.8856344 -1.782884 4288085770
3.6901054 1.6450961 -1.7852777 4288085770
4.8360214 1.9097176 -1.781846 4288085770
3.822216 1.6621652 -1.7862514 4288085770
5.0061274 1.9338014 -1.7798082 4288085770
3.9603271 1.6792393 -1.7882255 4288085770
5.2382259 1.9729459 -1.7907454 4288085770
4.0974388 1.6953094 -1.7882015 4288085770
5.4213324 1.9960349 -1.7877104 4288085770
4.226553 1.7073646 -1.7831846 4288085770
5.5974436 2.0161145 -1.7816807 4288085770
4.373661 1.7224398 -1.7831633 4288085770
5.7975464 2.0402129 -1.778645 4288085770
4.5337715 1.7405264 -1.7851368 4288085770
6.0206528 2.0683279 -1.777603 4288085770
4.6998844 1.7566142 -1.7861151 4288085770
6.2447586 2.0944421 -1.775565 4288085770
4.8679962 1.7727013 -1.7860931 4288085770
6.4938631 2.1225755 -1.7765245 4288085770
5.0741024 1.7958274 -1.7950598 4288085770
6.7539673 2.1527131 -1.7764812 4288085770
5.2222204 1.8018854 -1.7860563 4288085770
7.0160732 2.1788459 -1.7734456 4288085770
5.4083328 1.8159819 -1.7860395 4288085770
7.3121748 2.212007 -1.7753986 4288085770
5.5774498 1.8240573 -1.7800333 4288085770
7.6072807 2.2401624 -1.7743615 4288085770
5.7905607 1.840173 -1.7820145 4288085770
7.9143858 2.2683194 -1.771325 4288085770
5.9876766 1.8502698 -1.7790064 4288085770
8.2414913 2.2974901 -1.7692881 4288085770
6.2097902 1.8633869 -1.7789942 4288085770
8.5885944 2.3286736 -1.7682484 4288085770
6.4459028 1.8775151 -1.7809809 4288085770
8.9526997 2.3578625 -1.765214 4288085770
6.6710186 1.8866274 -1.7779769 4288085770
9.3328028 2.3880622 -1.7631788 4288085770
6.9311314 1.8997693 -1.7799673 4288085770
9.7689028 2.4243009 -1.7651356 4288085770
7.1892471 1.9099038 -1.7789634 4288085770
10.188007 2.4525161 -1.7601068 4288085770
7.4533625 1.9180417 -1.7779644 4288085770
10.644113 2.4837534 -1.7560751 4288085770
7.7324762 1.9261861 -1.7759663 4288085770
11.147211 2.5180235 -1.7550406 4288085770
8.0285902 1.9343414 -1.7749692 4288085770
11.722308 2.559339 -1.7569976 4288085770
8.3397074 1.9405074 -1.7749774 4288085770
12.290409 2.5936403 -1.7539675 4288085770
8.6558256 1.9456699 -1.7719879 4288085770
12.880513 2.6249504 -1.7489452 4288085770
8.988945 1.948844 -1.7700037 4288085770
13.542614 2.6623034 -1.7459161 4288085770
9.3450642 1.9520326 -1.7690212 4288085770
14.297709 2.7077181 -1.7478777 4288085770
9.6951857 1.9512119 -1.7650462 4288085770
15.071809 2.7461355 -1.7458545 4288085770
10.097305 1.9534259 -1.764069 4288085770
15.904907 2.7845812 -1.7418357 4288085770
10.478429 1.9476182 -1.7581065 4288085770
16.817005 2.8270721 -1.7388147 4288085770
10.932549 1.9478672 -1.7601372 4288085770
17.812103 2.8696091 -1.7357996 4288085770
11.349676 1.9380772 -1.7531854 4288085770
11.8308 1.9313331 -1.7512321 4288085770
12.328926 1.9205959 -1.7482885 4288085770
12.862053 1.909878 -1.7453474 4288085770
13.416184 1.8921702 -1.7414219 4288085770
14.053311 1.877516 -1.7414968 4288085770
14.683439 1.8548501 -1.7375878 4288085770
15.377573 1.8312235 -1.7356851 4288085770
16.088711 1.8005998 -1.730798 4288085770
16.881851 1.7670262 -1.7279232 4288085770
17.689995 1.7264562 -1.7230638 4288085770
18.519142 1.6758873 -1.7132266 4288085770
9.0058804 -5.1954284 -0.53711152 4293729569
8.9550266 -5.2463794 -0.57622492 4293729569
8.9751558 -5.3215613 -0.03539224 4293729569
8.9471855 -5.3172984 -0.61738473 4293729569
8.9563465 -5.397202 -0.66256547 4293729569
11.685777 -7.6759982 -1.4607949 4293729569
11.10075 -7.4133105 -1.4681904 4293729569
10.57274 -7.1745858 -1.4776415 4293729569
10.12475 -6.9768109 -1.4911871 4293729569
9.6757565 -6.7720408 -1.5017167 4293729569
9.2077522 -6.5482984 -1.505203 4293729569
8.8337793 -6.3764882 -1.5178092 4293729569
8.4708042 -6.2036738 -1.5274104 4293729569
8.1648464 -6.0628114 -1.5430856 4293729569
7.854887 -5.9149642 -1.5547447 4293729569
7.5489225 -5.7631164 -1.5643952 4293729569
10.955163 -7.8854938 -1.4492828 4293729569
7.2519617 -5.6142697 -1.5720526 4293729569
10.370107 -7.5618052 -1.4565382 4293729569
6.9860048 -5.4804006 -1.5817447 4293729569
9.8880777 -7.2960486 -1.4699271 4293729569
6.7270517 -5.3465314 -1.589437 4293729569
9.4430599 -7.0482697 -1.4833578 4293729569
6.4690971 -5.2096686 -1.5951226 4293729569
8.9890394 -6.7885079 -1.4917611 4293729569
6.2281466 -5.0807929 -1.6018268 4293729569
8.5940342 -6.5637088 -1.5022447 4293729569
5.9951963 -4.9529166 -1.6065334 4293729569
8.2730532 -6.3818555 -1.5188276 4293729569
5.8022585 -4.8490062 -1.6162952 4293729569
7.9620743 -6.2019992 -1.5334152 4293729569
5.6443338 -4.7650657 -1.6321031 4293729569
7.6560946 -6.0211492 -1.5450006 4293729569
5.4483929 -4.6531663 -1.6378467 4293729569
7.3611174 -5.8452973 -1.5545974 4293729569
5.2344427 -4.5262942 -1.636556 4293729569
7.1061535 -5.6914124 -1.5682449 4293729569
5.0284948 -4.4024158 -1.6352723 4293729569
6.8401823 -5.5275483 -1.5758696 4293729569
4.8545589 -4.2975125 -1.6380321 4293729569
6.5922184 -5.3726726 -1.584515 4293729569
4.6976261 -4.2015948 -1.6428127 4293729569
6.3742619 -5.234777 -1.5941994 4293729569
4.5496941 -4.1086736 -1.6466004 4293729569
6.1543045 -5.0928903 -1.6008747 4293729569
4.3947601 -4.0097651 -1.6463743 4293729569
5.9253426 -4.9430194 -1.6025317 4293729569
4.3218555 -3.9637618 -1.6682703 4293729569
5.7674036 -4.8370805 -1.61629 4293729569
4.3039703 -3.952702 -1.7022468 4293729569
5.6144686 -4.7341456 -1.6280551 4293729569
4.307085 -3.9546161 -1.7422534 4288085770
5.429513 -4.6062436 -1.6317625 4293729569
4.3032036 -3.9505391 -1.7802461 4288085770
5.2545652 -4.4843421 -1.6344839 4293729569
4.2893143 -3.9364772 -1.8132161 4288085770
5.068614 -4.3544545 -1.6321867 4293729569
4.1383781 -3.8305831 -1.8059739 4288085770
4.9246769 -4.2495332 -1.6359472 4293729569
3.994442 -3.726687 -1.7977365 4288085770
4.7947464 -4.1515965 -1.6417239 4293729569
3.8575077 -3.6257873 -1.789506 4288085770
4.671814 -4.0586572 -1.6475118 4293729569
3.7475796 -3.5418591 -1.7873145 4288085770
4.5658875 -3.9747062 -1.6553206 4293729569
3.6556625 -3.4699121 -1.7891506 4288085770
4.5749989 -3.9636245 -1.6912981 4293729569
4.6081219 -3.9665179 -1.7333076 4288085770
4.6522446 -3.9743962 -1.7783289 4288085770
4.6533527 -3.9533315 -1.8092834 4288085770
4.4934063 -3.8284583 -1.7949975 4288085770
4.3624687 -3.7215543 -1.7867529 4288085770
4.2675419 -3.6376138 -1.7865615 4288085770
4.1826191 -3.5596652 -1.7873839 4288085770
4.0916939 -3.4757285 -1.7841923 4288085770
4.0157719 -3.4017739 -1.7850237 4288085770
3.9508533 -3.3328118 -1.7868669 4288085770
3.8729324 -3.2568679 -1.7836936 4288085770
3.8110161 -3.1889062 -1.7845387 4288085770
3.7540989 -3.1239414 -1.7853909 4288085770
3.7061863 -3.0639696 -1.7872545 4288085770
3.6562729 -3.0020037 -1.7871132 4288085770
3.6093636 -2.9430356 -1.786979 4288085770
3.5932198 -1.7971721 -1.8023683 4288085770
3.6343269 -1.7711496 -1.8043089 4288085770
3.660429 -1.74015 -1.8002374 4288085770
3.7145386 -1.7181139 -1.8051872 4288085770
3.7596474 -1.6930943 -1.8051298 4288085770
3.8037529 -1.6660776 -1.8040676 4288085770
3.8608608 -1.643044 -1.8070148 4288085770
3.9109669 -1.6180243 -1.8059572 4288085770
3.9820766 -1.598978 -1.8109137 4288085770
4.0361843 -1.5739555 -1.8098558 4288085770
4.1062946 -1.5529146 -1.8128076 4288085770
4.1714001 -1.5298843 -1.8127543 4288085770
4.2515068 -1.5098376 -1.8157082 4288085770
4.3026142 -1.4828281 -1.8096453 4288085770
4.3707218 -1.4597998 -1.8075917 4288085770
4.468832 -1.4427366 -1.8135523 4288085770
4.5629425 -1.4246821 -1.8165103 4288085770
4.6560516 -1.404633 -1.8174638 4288085770
4.7631626 -1.386569 -1.8214216 4288085770
3.6140728 -1.1202278 -1.8177907 4288085770
4.883276 -1.3714924 -1.8273867 4288085770
3.6881847 -1.1021891 -1.8187486 4288085770
4.9723835 -1.3494573 -1.8233349 4288085770
3.7462902 -1.078176 -1.8126923 4288085770
5.0814943 -1.3294015 -1.823288 4288085770
3.8334026 -1.0611277 -1.8146521 4288085770
5.187603 -1.3093514 -1.8212407 4288085770
3.9075108 -1.0400991 -1.8116026 4288085770
5.2807102 -1.2843208 -1.8141818 4288085770
4.0056229 -1.0240421 -1.8145648 4288085770
5.4008198 -1.2652612 -1.8131366 4288085770
4.1027336 -1.0069885 -1.8165245 4288085770
5.5299301 -1.2461939 -1.8130915 4288085770
4.203846 -0.98893499 -1.8174818 4288085770
5.6640406 -1.2271285 -1.8110462 4288085770
4.329958 -0.97585011 -1.8254508 4288085770
5.8021517 -1.2090578 -1.8100033 4288085770
4.4050655 -0.95283175 -1.817396 4288085770
5.9482594 -1.1899858 -1.8079578 4288085770
4.5231781 -0.93676662 -1.8193578 4288085770
6.1383734 -1.1778698 -1.8139286 4288085770
4.6262856 -0.91672325 -1.8153096 4288085770
6.3134851 -1.1607733 -1.8148875 4288085770
4.7453976 -0.89866352 -1.8142664 4288085770
6.495595 -1.1436782 -1.8138462 4288085770
4.8835087 -0.88258457 -1.8172277 4288085770
6.6657047 -1.1235995 -1.8087977 4288085770
5.0046186 -0.86253071 -1.8131794 4288085770
6.8808184 -1.1094756 -1.8117633 4288085770
5.1707325 -0.84942579 -1.8201475 4288085770
7.0839281 -1.0913734 -1.8087192 4288085770
5.3088427 -0.83135748 -1.8181038 4288085770
7.316041 -1.0752473 -1.8086796 4288085770
5.4249496 -0.80832338 -1.807048 4288085770
7.5461512 -1.0581293 -1.8056374 4288085770
5.6100626 -0.79421234 -1.8120133 4288085770
7.7962618 -1.0419984 -1.8035973 4288085770
5.7601728 -0.77414513 -1.8069642 4288085770
8.0673742 -1.025857 -1.800557 4288085770
5.9172821 -0.75507593 -1.8009174 4288085770
8.3634872 -1.0106921 -1.8015189 4288085770
6.0973921 -0.73598576 -1.7978705 4288085770
8.6795998 -0.99552298 -1.7994802 4288085770
6.2945042 -0.71888208 -1.7968278 4288085770
9.0167122 -0.98033953 -1.7984414 4288085770
6.5106153 -0.70176506 -1.7967851 4288085770
9.3508215 -0.96316957 -1.7923975 4288085770
6.734726 -0.68464851 -1.7947421 4288085770
9.7119341 -0.94598389 -1.7863535 4288085770
6.9698343 -0.66652536 -1.7926966 4288085770
10.135043 -0.93175173 -1.7853156 4288085770
7.2149439 -0.64839649 -1.7906507 4288085770
10.564156 -0.91552496 -1.7802728 4288085770
7.4940567 -0.63124561 -1.7896068 4288085770
11.056268 -0.90025759 -1.7772319 4288085770
7.7861671 -0.6140852 -1.7895627 4288085770
11.54438 -0.88300705 -1.7681857 4288085770
8.0932779 -0.59592104 -1.7875159 4288085770
12.08249 -0.86572838 -1.7591388 4288085770
8.4123869 -0.57675505 -1.7834661 4288085770
12.763605 -0.85434389 -1.7601051 4288085770
8.7924976 -0.55953979 -1.7854209 4288085770
13.462716 -0.83996391 -1.7550637 4288085770
9.1586065 -0.53934908 -1.7803681 4288085770
14.252831 -0.82752752 -1.7520256 4288085770
9.5597162 -0.52013636 -1.776317 4288085770
15.146944 -0.81403399 -1.7479838 4288085770
10.019827 -0.50088453 -1.7742654 4288085770
16.143059 -0.80148411 -1.7429433 4288085770
10.491936 -0.47963285 -1.7692083 4288085770
17.23317 -0.78689051 -1.7338965 4288085770
11.016045 -0.45835209 -1.7641506 4288085770
18.496283 -0.77220201 -1.7238474 4288085770
11.614153 -0.43702459 -1.7610918 4288085770
12.261261 -0.4146719 -1.7570298 4288085770
13.038369 -0.39322758 -1.7599683 4288085770
13.887477 -0.36974907 -1.7599009 4288085770
14.817579 -0.34423208 -1.7568276 4288085770
15.786682 -0.31570911 -1.7467457 4288085770
16.966785 -0.28705215 -1.7426609 4288085770
18.23489 -0.25536203 -1.7315669 4288085770
17.506582 -0.030037403 -1.732324 4288085770
16.288712 -0.034666538 -1.7516391 4288085770
15.052834 -0.037357807 -1.7529548 4288085770
14.13896 -0.038823128 -1.770185 4288085770
13.190081 -0.038351536 -1.77242 4288085770
12.249198 -0.034916401 -1.7606454 4288085770
11.498318 -0.032335281 -1.762825 4288085770
17.68939 -0.074025154 -1.7173225 4288085770
10.829437 -0.028710842 -1.763981 4288085770
16.542515 -0.065591335 -1.7445861 4288085770
10.211555 -0.024063587 -1.7631215 4288085770
15.32763 -0.055262089 -1.7488637 4288085770
9.686676 -0.019345284 -1.7692382 4288085770
14.318748 -0.044794559 -1.7610879 4288085770
9.1977949 -0.014614582 -1.772346 4288085770
13.391865 -0.033298492 -1.7672888 4288085770
8.7459145 -0.0088639259 -1.7754416 4288085770
12.476978 -0.02183485 -1.7604878 4288085770
8.3040314 -0.0021190643 -1.7745323 4288085770
11.686092 -0.010283947 -1.7596549 4288085770
7.899148 0.0046434402 -1.7726136 4288085770
11.006208 0.00033426285 -1.7607961 4288085770
7.5552635 0.011460781 -1.7776794 4288085770
10.37832 0.010982037 -1.7619244 4288085770
7.2093801 0.018261433 -1.7777458 4288085770
9.8404369 0.021687508 -1.766029 4288085770
6.9034986 0.026093483 -1.7807992 4288085770
9.3435516 0.033416748 -1.7701206 4288085770
6.6156158 0.033932686 -1.7828478 4288085770
8.8926687 0.04417181 -1.7742032 4288085770
6.3287334 0.041764259 -1.7818967 4288085770
8.4577827 0.054922581 -1.7742819 4288085770
6.0588484 0.050601006 -1.7799385 4288085770
8.0508986 0.06568718 -1.7733537 4288085770
5.8279657 0.058475018 -1.7829726 4288085770
7.688015 0.077484608 -1.775411 4288085770
5.599082 0.067344189 -1.7840039 4288085770
7.3441296 0.088286877 -1.7754664 4288085770
5.3851995 0.076221466 -1.7850311 4288085770
7.0492458 0.09913063 -1.780509 4288085770
5.1823158 0.085102558 -1.7850558 4288085770
6.7323589 0.11093712 -1.7765551 4288085770
4.9834309 0.093982697 -1.7840796 4288085770
6.4714756 0.12079668 -1.780592 4288085770
4.7905464 0.10286331 -1.782102 4288085770
6.1945896 0.13162756 -1.7776306 4288085770
4.6246624 0.11277008 -1.7841141 4288085770
5.9427052 0.14247465 -1.7756628 4288085770
4.4737816 0.1206913 -1.788128 4288085770
5.7298212 0.15436172 -1.7796814 4288085770
4.3008976 0.1305747 -1.7831426 4288085770
5.5229368 0.1662488 -1.7826986 4288085770
4.1380119 0.13946486 -1.7791575 4288085770
5.31005 0.17711544 -1.7797207 4288085770
4.0101242 0.15039968 -1.7831571 4288085770
5.1171618 0.18900251 -1.7797347 4288085770
3.874239 0.15932035 -1.7841648 4288085770
4.9282761 0.19988441 -1.7777506 4288085770
3.7453556 0.17024183 -1.7841648 4288085770
4.7553921 0.21178484 -1.7787595 4288085770
3.6144695 0.18015432 -1.7811685 4288085770
4.5945053 0.22269154 -1.779768 4288085770
4.451622 0.23461437 -1.7827687 4288085770
4.3007355 0.24652147 -1.7817719 4288085770
4.1418495 0.25740862 -1.7757802 4288085770
4.0159645 0.26933813 -1.7777766 4288085770
3.8840771 0.28125286 -1.775775 4288085770
3.7651939 0.29218292 -1.7767725 4288085770
3.6523075 0.30411673 -1.7777656 4288085770
3.657793 2.5214217 -1.7706149 4288085770
3.7848911 2.5654914 -1.7724297 4288085770
3.9149895 2.6085591 -1.7732464 4288085770
4.0420876 2.6486228 -1.7730728 4288085770
4.1711845 2.6886811 -1.7708986 4288085770
4.3182812 2.7347586 -1.7716991 4288085770
4.4773769 2.783849 -1.7744859 4288085770
4.6284733 2.8279221 -1.7732908 4288085770
3.631752 2.4363737 -1.7758394 4288085770
4.7955685 2.8780169 -1.7760711 4288085770
3.758852 2.4704432 -1.777684 4288085770
4.9856606 2.9341333 -1.7818245 4288085770
3.881958 2.5015016 -1.776539 4288085770
5.1647539 2.9842253 -1.7815999 4288085770
4.0020638 2.5285552 -1.7744071 4288085770
5.3788443 3.046361 -1.7893255 4288085770
4.1491642 2.5666413 -1.7782314 4288085770
5.5669374 3.0964546 -1.7880968 4288085770
4.2812614 2.5957022 -1.7760888 4288085770
5.7670231 3.1475587 -1.7878609 4288085770
4.4243679 2.626771 -1.7749356 4288085770
5.9811144 3.202673 -1.7886069 4288085770
4.589468 2.6658707 -1.7797498 4288085770
6.2012053 3.2567878 -1.7883533 4288085770
4.733572 2.6949346 -1.7766018 4288085770
6.4532928 3.3219349 -1.793054 4288085770
4.8916759 2.7260146 -1.7764422 4288085770
6.6943817 3.3790641 -1.7937827 4288085770
5.0657778 2.7631104 -1.7782582 4288085770
6.9664688 3.4452164 -1.796472 4288085770
5.2448797 2.7982085 -1.7800783 4288085770
7.2395563 3.5083663 -1.7981697 4288085770
5.4309816 2.8343103 -1.7818924 4288085770
7.538641 3.5775366 -1.8018391 4288085770
5.6220837 2.8694119 -1.7827075 4288085770
7.8407259 3.6436992 -1.802516 4288085770
5.8031883 2.8984959 -1.7795442 4288085770
8.1678085 3.7158818 -1.8051646 4288085770
6.0082903 2.9346085 -1.7813503 4288085770
8.4868937 3.7810509 -1.8048371 4288085770
6.210393 2.9657102 -1.7801723 4288085770
8.8429737 3.8552461 -1.8064679 4288085770
6.4204969 2.9978161 -1.7789884 4288085770
9.2020569 3.9254339 -1.805109 4288085770
6.6496 3.0329385 -1.7797874 4288085770
9.6001339 4.0056558 -1.8077046 4288085770
6.894701 3.0710759 -1.7825712 4288085770
10.014212 4.0858827 -1.8092933 4288085770
7.1458015 3.1082139 -1.7843554 4288085770
10.454288 4.1691275 -1.8118623 4288085770
7.3988981 3.1433499 -1.785145 4288085770
10.865364 4.2383323 -1.8064854 4288085770
7.684 3.1835155 -1.7899064 4288085770
11.350437 4.3245955 -1.807027 4288085770
7.9431038 3.2136455 -1.7877079 4288085770
11.892507 4.422905 -1.8125095 4288085770
8.245204 3.2528172 -1.791465 4288085770
12.458574 4.522222 -1.8159792 4288085770
8.5413065 3.2859738 -1.7912426 4288085770
13.05964 4.6255622 -1.8204224 4288085770
8.8494091 3.3191397 -1.792015 4288085770
13.64971 4.7168736 -1.8179055 4288085770
9.172513 3.352314 -1.7927815 4288085770
14.302776 4.8192291 -1.8183302 4288085770
9.4926176 3.3804805 -1.7915639 4288085770
15.012837 4.9296193 -1.8197076 4288085770
9.8187256 3.4056439 -1.7883528 4288085770
15.725902 5.0320015 -1.8181072 4288085770
10.188829 3.4398503 -1.7910968 4288085770
16.489962 5.1404123 -1.8164681 4288085770
10.556934 3.4680462 -1.7908595 4288085770
17.316021 5.2538567 -1.8147886 4288085770
10.953033 3.4982543 -1.7916111 4288085770
18.240067 5.3823581 -1.816031 4288085770
11.316145 3.5144327 -1.7864124 4288085770
11.740252 3.5416627 -1.7871557 4288085770
12.141361 3.5578651 -1.7829417 4288085770
12.565474 3.5730832 -1.7797211 4288085770
13.072577 3.6033716 -1.7844223 4288085770
13.539688 3.6166165 -1.7821902 4288085770
14.068798 3.6389108 -1.7849059 4288085770
14.545917 3.641149 -1.7787029 4288085770
15.073034 3.648427 -1.7764642 4288085770
15.611155 3.6477051 -1.7722455 4288085770
16.179272 3.6490057 -1.7700083 4288085770
16.802395 3.6513457 -1.7707459 4288085770
17.424515 3.6456766 -1.7685077 4288085770
18.012646 3.6249728 -1.7613287 4288085770
18.402349 -5.3059192 -1.5502814 4293729569
17.698441 -5.2513127 -1.5514034 4293729569
17.022532 -5.1926894 -1.5525017 4293729569
16.397625 -5.1410289 -1.5566005 4293729569
15.832726 -5.0973287 -1.5626992 4293729569
15.302828 -5.0565991 -1.571793 4293729569
15.489624 -5.1909699 -0.78812897 4293729569
14.745918 -4.9999003 -1.5758487 4293729569
15.435817 -5.288837 -0.84245491 4293729569
14.189002 -4.9352126 -1.5768796 4293729569
15.405022 -5.3946834 -0.89879596 4293729569
13.653088 -4.8685088 -1.5788958 4293729569
13.142172 -4.8027949 -1.5799047 4293729569
12.623251 -4.726088 -1.5798829 4293729569
12.152335 -4.6593528 -1.5808723 4293729569
11.731428 -4.6025767 -1.5858719 4293729569
11.311518 -4.5418019 -1.5898587 4293729569
18.248947 -7.1023021 -1.4859135 4293729569
10.91761 -4.4850068 -1.5958471 4293729569
17.292952 -6.8798099 -1.4946221 4293729569
10.529697 -4.4232192 -1.5988176 4293729569
16.393955 -6.6652913 -1.5013322 4293729569
10.183796 -4.3733926 -1.6068078 4293729569
15.642988 -6.4946694 -1.5151165 4293729569
9.8348885 -4.3165727 -1.6127776 4293729569
14.87501 -6.3070769 -1.5228552 4293729569
9.5099831 -4.2647367 -1.619753 4293729569
14.196045 -6.1434245 -1.5336314 4293729569
9.2250862 -4.223866 -1.6307458 4293729569
13.563084 -5.9877496 -1.543413 4293729569
8.9781961 -4.1919656 -1.6447505 4293729569
12.880103 -5.8041329 -1.5441287 4293729569
8.7703161 -4.1750226 -1.6647857 4293729569
12.261135 -5.6384683 -1.5478736 4293729569
8.5824375 -4.1620612 -1.6878248 4293729569
11.713173 -5.4927602 -1.5536507 4293729569
8.4235668 -4.1590724 -1.7138829 4288085770
11.19522 -5.3530354 -1.5594341 4293729569
8.2686977 -4.1550822 -1.739936 4288085770
10.696264 -5.2123055 -1.5632061 4293729569
8.1028252 -4.1441054 -1.7639725 4288085770
10.263327 -5.0965238 -1.5720282 4293729569
7.9309464 -4.1271367 -1.7859925 4288085770
9.8433857 -4.9787412 -1.5788385 4293729569
7.7090502 -4.0852275 -1.797956 4288085770
9.4434452 -4.8639483 -1.5846498 4293729569
7.4531374 -4.0233655 -1.8008715 4288085770
9.068511 -4.7561421 -1.5914721 4293729569
7.1682148 -3.9455438 -1.7967495 4288085770
8.6995716 -4.6453366 -1.5962828 4293729569
6.8962927 -3.8707137 -1.7926315 4288085770
8.3706427 -4.5485034 -1.6031202 4293729569
6.63237 -3.793879 -1.7885036 4288085770
8.0667171 -4.4576497 -1.6119657 4293729569
6.3984556 -3.7290149 -1.7884005 4288085770
7.7897997 -4.3767753 -1.6228309 4293729569
6.1635361 -3.6591611 -1.7852823 4288085770
7.501873 -4.2859216 -1.6286693 4293729569
5.9316158 -3.5893083 -1.781163 4288085770
7.2599602 -4.214025 -1.6405478 4293729569
5.7387085 -3.5334096 -1.7850703 4288085770
6.965024 -4.1121955 -1.640355 4293729569
5.5357943 -3.4705348 -1.7829604 4288085770
6.8071356 -4.0752158 -1.663307 4293729569
5.3528852 -3.4146361 -1.7848636 4288085770
6.7232714 -4.0721545 -1.6993333 4293729569
5.1939802 -3.3677144 -1.7897848 4288085770
6.643405 -4.0690875 -1.736358 4288085770
5.0330753 -3.3177981 -1.7936975 4288085770
6.5815458 -4.0730042 -1.7753969 4288085770
4.8521595 -3.2559142 -1.7905812 4288085770
6.4546614 -4.0419984 -1.8013541 4288085770
4.6832504 -3.197021 -1.7884691 4288085770
6.2067289 -3.9461513 -1.7981601 4288085770
4.5353432 -3.1471009 -1.7913762 4288085770
5.9487896 -3.8423238 -1.7909451 4288085770
4.3884373 -3.0951843 -1.7922764 4288085770
5.7158556 -3.7484756 -1.7857509 4288085770
4.2365265 -3.0392814 -1.7901665 4288085770
5.5049295 -3.6636043 -1.7835753 4288085770
4.1066227 -2.9913507 -1.7930721 4288085770
5.312007 -3.5847192 -1.7834107 4288085770
3.9747162 -2.9424305 -1.7929753 4288085770
5.1410923 -3.5158114 -1.786268 4288085770
3.8368073 -2.8865228 -1.7898592 4288085770
4.9761772 -3.4468989 -1.7891226 4288085770
3.744915 -2.8545489 -1.7997984 4288085770
4.8132572 -3.3769965 -1.788973 4288085770
3.6200047 -2.8026314 -1.7976891 4288085770
4.6523418 -3.3080878 -1.7898259 4288085770
4.5054264 -3.2421737 -1.7906822 4288085770
4.3555088 -3.1742663 -1.7895333 4288085770
4.2095928 -3.10636 -1.7873827 4288085770
4.0806808 -3.0454326 -1.7892467 4288085770
3.9577694 -2.9865074 -1.7891142 4288085770
3.8408585 -2.929575 -1.7899855 4288085770
3.7379532 -2.8786225 -1.7948694 4288085770
3.6330471 -2.8256841 -1.795748 4288085770
3.6460552 -0.54223776 -1.7902228 4288085770
3.741169 -0.52919149 -1.7901297 4288085770
3.8372803 -0.51614857 -1.7890358 4288085770
3.9203892 -0.50013113 -1.7819388 4288085770
4.0415077 -0.48805761 -1.785835 4288085770
4.1516209 -0.47500563 -1.7847337 4288085770
4.2847347 -0.4629283 -1.7876235 4288085770
4.4308529 -0.45183468 -1.7935097 4288085770
4.5459576 -0.43779612 -1.7874023 4288085770
4.6890717 -0.42472029 -1.7882832 4288085770
3.6460686 -0.31631756 -1.7844676 4288085770
4.8371849 -0.41264057 -1.7891649 4288085770
3.7701855 -0.30524206 -1.7883651 4288085770
5.0073032 -0.40154314 -1.7920381 4288085770
3.8822994 -0.29219246 -1.7862624 4288085770
5.1594133 -0.38847828 -1.7879139 4288085770
4.0094147 -0.28112507 -1.7871583 4288085770
5.3285255 -0.37539387 -1.786781 4288085770
4.1225262 -0.26908255 -1.7830579 4288085770
5.5136404 -0.36329699 -1.7866428 4288085770
4.2716408 -0.25799227 -1.786942 4288085770
5.7067547 -0.35119629 -1.7865002 4288085770
4.4197578 -0.24690676 -1.7898265 4288085770
5.9018669 -0.33910131 -1.7843562 4288085770
4.5648708 -0.23483658 -1.7887092 4288085770
6.1169796 -0.32699156 -1.7832018 4288085770
4.7219868 -0.22375202 -1.7895887 4288085770
6.3420954 -0.3148756 -1.782042 4288085770
4.8771019 -0.21168232 -1.786466 4288085770
6.6012106 -0.30373192 -1.7838674 4288085770
5.0592165 -0.20057726 -1.789332 4288085770
6.865324 -0.29159117 -1.7836866 4288085770
5.2443304 -0.18948078 -1.7891965 4288085770
7.1454382 -0.28044462 -1.7825007 4288085770
5.4354448 -0.17838478 -1.7880577 4288085770
7.4365492 -0.26729965 -1.7793021 4288085770
5.6465588 -0.16727018 -1.7889081 4288085770
7.753664 -0.25613213 -1.7780963 4288085770
5.8736744 -0.15614033 -1.7917501 4288085770
8.103776 -0.2449441 -1.7778728 4288085770
6.083786 -0.14404678 -1.7865976 4288085770
8.47089 -0.23275232 -1.7756367 4288085770
6.3238993 -0.13292551 -1.7844323 4288085770
8.8970051 -0.22251463 -1.7773758 4288085770
6.608017 -0.12275791 -1.7892469 4288085770
9.3071165 -0.21030951 -1.7721165 4288085770
6.8751297 -0.11162519 -1.7860669 4288085770
9.7792301 -0.19905996 -1.7698276 4288085770
7.1492424 -0.10049582 -1.780883 4288085770
10.286343 -0.18679714 -1.7655166 4288085770
7.4743567 -0.089321136 -1.7806721 4288085770
10.867457 -0.17547989 -1.7651693 4288085770
7.8164711 -0.078139782 -1.779452 4288085770
11.48957 -0.16414976 -1.7617998 4288085770
8.1945839 -0.06793642 -1.7792156 4288085770
12.203684 -0.15376186 -1.7603846 4288085770
8.6056995 -0.057710648 -1.7799616 4288085770
13.061802 -0.14327049 -1.7658925 4288085770
9.0368137 -0.046479702 -1.7786933 4288085770
13.992917 -0.13275099 -1.7673612 4288085770
9.5119286 -0.036228657 -1.7764047 4288085770
14.946028 -0.12125015 -1.7598143 4288085770
10.00804 -0.024974823 -1.7711014 4288085770
16.072138 -0.10964537 -1.7541749 4288085770
10.594155 -0.0146451 -1.7737533 4288085770
17.218243 -0.097065449 -1.7375207 4288085770
11.22127 -0.0043058395 -1.7723827 4288085770
11.932386 0.0060844421 -1.7719673 4288085770
12.753503 0.015548706 -1.775496 4288085770
13.727622 0.025118351 -1.7849426 4288085770
14.594729 0.036549091 -1.770439 4288085770
15.667842 0.047114372 -1.7618283 4288085770
16.884953 0.056763649 -1.7541431 4288085770
18.167055 0.067405701 -1.7334192 4288085770
17.299608 0.28959751 -1.7408137 4288085770
16.086729 0.30596304 -1.7535394 4288085770
14.972843 0.32036257 -1.760208 4288085770
14.087965 0.33592415 -1.7767242 4288085770
13.161077 0.34939766 -1.7752752 4288085770
12.33419 0.36192608 -1.773765 4288085770
11.629305 0.37553787 -1.7761718 4288085770
17.869238 0.54580069 -1.7224984 4288085770
10.98842 0.38817978 -1.7775406 4288085770
16.621359 0.5571475 -1.7352659 4288085770
10.392533 0.4008441 -1.7778802 4288085770
15.50248 0.56855154 -1.7439494 4288085770
9.8716488 0.41355705 -1.7801714 4288085770
14.476599 0.57799196 -1.7485799 4288085770
9.3977633 0.42629433 -1.7824316 4288085770
13.647718 0.59056759 -1.7600712 4288085770
8.9688787 0.44006538 -1.786659 4288085770
12.806834 0.60009193 -1.7595817 4288085770
8.5329885 0.45180368 -1.7828987 4288085770
12.070946 0.61068296 -1.7610199 4288085770
8.1561022 0.46358871 -1.7830998 4288085770
11.434065 0.62234163 -1.7663902 4288085770
7.8112173 0.47639847 -1.7852762 4288085770
10.850181 0.63302326 -1.7697296 4288085770
7.4653282 0.4881897 -1.7824572 4288085770
10.310295 0.64472246 -1.771037 4288085770
7.1674433 0.50102234 -1.7836033 4288085770
9.8314133 0.65646839 -1.7763044 4288085770
6.8735561 0.51284504 -1.7817503 4288085770
9.3735275 0.66820908 -1.7765583 4288085770
6.6226721 0.52571106 -1.7848659 4288085770
8.9596434 0.67898083 -1.7787871 4288085770
6.3947878 0.53959656 -1.7899626 4288085770
8.5777578 0.69076633 -1.7799916 4288085770
6.1569023 0.55145836 -1.7900734 4288085770
8.2168722 0.70256424 -1.7811823 4288085770
5.9470167 0.56434202 -1.7921622 4288085770
7.8689871 0.71335411 -1.7783684 4288085770
5.7211285 0.57619667 -1.7882651 4288085770
7.5741024 0.72719908 -1.782509 4288085770
5.5222416 0.58807564 -1.7873505 4288085770
7.2872152 0.73803377 -1.7826552 4288085770
5.3633575 0.6020031 -1.7934026 4288085770
7.0293312 0.75189543 -1.7857716 4288085770
5.1684704 0.61387396 -1.7894853 4288085770
6.7744446 0.76374769 -1.7858933 4288085770
4.9995823 0.62576723 -1.7875512 4288085770
6.5425596 0.77661991 -1.7879965 4288085770
4.8416958 0.63867283 -1.7876062 4288085770
6.3126726 0.78847933 -1.7861022 4288085770
4.6898117 0.65158176 -1.7876573 4288085770
6.1257896 0.80238676 -1.7911721 4288085770
4.5459251 0.6634922 -1.7867068 4288085770
5.9079027 0.8132453 -1.7872734 4288085770
4.422039 0.67742777 -1.7897359 4288085770
5.7150154 0.82612848 -1.7863513 4288085770
4.2881508 0.69034004 -1.7877755 4288085770
5.5391293 0.83802462 -1.7864217 4288085770
4.1612625 0.70225573 -1.7858139 4288085770
5.3622408 0.85091305 -1.784489 4288085770
4.0463772 0.71618891 -1.7868372 4288085770
5.208354 0.86382103 -1.7845412 4288085770
3.9374905 0.72912598 -1.7878603 4288085770
5.0524673 0.87672448 -1.783595 4288085770
3.8436069 0.7440815 -1.7918662 4288085770
4.9115791 0.89064002 -1.7836351 4288085770
3.733717 0.75700331 -1.78889 4288085770
4.7696934 0.9035511 -1.7826797 4288085770
3.6318302 0.76993656 -1.7879086 4288085770
4.6368046 0.91646385 -1.7807183 4288085770
4.5049171 0.92937684 -1.7787565 4288085770
4.4010334 0.94432735 -1.7827687 4288085770
4.2851429 0.95824909 -1.7807926 4288085770
4.1832561 0.97319341 -1.7828038 4288085770
4.0843697 0.988132 -1.7828128 4288085770
3.9954834 1.0040867 -1.7858117 4288085770
3.8915939 1.0170045 -1.7808316 4288085770
3.8147068 1.03297 -1.7848225 4288085770
3.7268181 1.0479107 -1.7838244 4288085770
3.6439304 1.0628548 -1.782823 4288085770
3.5820446 1.080832 -1.787797 4288085770
3.604208 3.1802983 -1.7769938 4288085770
3.7072926 3.2473574 -1.7796768 4288085770
3.8323784 3.3264461 -1.7873008 4288085770
3.935463 3.3914938 -1.7869909 4288085770
4.0725422 3.4745893 -1.7945921 4288085770
4.2026234 3.5536695 -1.7992125 4288085770
4.3587036 3.6457825 -1.8087676 4288085770
4.4857788 3.7188396 -1.8074119 4288085770
4.6408539 3.8069336 -1.8119824 4288085770
4.7889309 3.8900089 -1.8125755 4288085770
3.6053143 3.2552638 -1.7866944 4288085770
4.949007 3.9770944 -1.8141458 4288085770
3.7574005 3.3383856 -1.7992852 4288085770
5.1180782 4.0681849 -1.8156955 4288085770
3.8514919 3.3844028 -1.7920507 4288085770
5.3011494 4.1652894 -1.8192133 4288085770
4.021574 3.4745417 -1.8066034 4288085770
5.4882193 4.2623892 -1.8207285 4288085770
4.1566601 3.5416136 -1.808264 4288085770
5.7132835 4.3805351 -1.8291408 4288085770
4.286747 3.6026721 -1.8069502 4288085770
5.8993521 4.4716163 -1.8256783 4288085770
4.4298306 3.6707411 -1.8066016 4288085770
6.1344128 4.5907564 -1.8310798 4288085770
4.5869141 3.7448325 -1.8102213 4288085770
6.3864708 4.7149053 -1.8364515 4288085770
4.7579956 3.823931 -1.8138133 4288085770
6.6305304 4.8320355 -1.837854 4288085770
4.9250774 3.9000235 -1.816419 4288085770
6.9195795 4.9732151 -1.846138 4288085770
5.08916 3.9711003 -1.8150446 4288085770
7.2056332 5.107378 -1.8504494 4288085770
5.2722387 4.0501981 -1.8166283 4288085770
7.5106802 5.2495522 -1.8547186 4288085770
5.4783154 4.1403227 -1.8221558 4288085770
7.8207264 5.3907204 -1.8569877 4288085770
5.6703911 4.219418 -1.8217331 4288085770
8.1537676 5.540906 -1.8602082 4288085770
5.8854666 4.3085394 -1.825258 4288085770
8.4998064 5.69309 -1.8614122 4288085770
6.1035414 4.3956552 -1.8267881 4288085770
8.8958387 5.8693228 -1.8684942 4288085770
6.3206158 4.4807596 -1.825326 4288085770
9.307868 6.0485573 -1.873554 4288085770
