# .PCD v0.7 - Point Cloud Data file format
VERSION 0.7
FIELDS x y z rgb
SIZE 4 4 4 4
TYPE F F F U
COUNT 1 1 1 1
WIDTH 1112
HEIGHT 1
VIEWPOINT 0 0 0 1 0 0 0
POINTS 1112
DATA ascii
12.306183 -2.1318741 -1.7688491 4288085770
6.2514954 -1.3060517 -1.7872779 4288085770
12.935883 -2.0971065 -1.7627828 4288085770
6.5641785 -1.2681727 -1.786001 4288085770
13.614594 -2.0617466 -1.7552707 4288085770
6.8948059 -1.228086 -1.7835348 4288085770
7.2244568 -1.1880379 -1.7790778 4288085770
7.5940857 -1.1464705 -1.7762449 4288085770
7.9996948 -1.1044583 -1.7730839 4288085770
8.4403381 -1.0620141 -1.7696049 4288085770
8.8988953 -1.0163617 -1.7649248 4288085770
9.411499 -0.97102785 -1.7607658 4288085770
9.9830933 -0.92494011 -1.7580698 4288085770
10.572601 -0.87467098 -1.7521603 4288085770
11.246124 -0.82333994 -1.7474873 4288085770
11.994629 -0.77006865 -1.7431195 4288085770
12.859192 -0.71531343 -1.7416971 4288085770
13.777618 -0.65394497 -1.7357075 4288085770
14.309784 2.0415125 -1.7027814 4288085770
13.400299 2.0801935 -1.6961849 4288085770
12.663757 2.126111 -1.6969841 4288085770
12.01828 2.1731825 -1.6999753 4288085770
11.448761 2.2201948 -1.703305 4288085770
10.860291 2.260911 -1.7018831 4288085770
10.362854 2.3068047 -1.7045982 4288085770
9.9194031 2.3523731 -1.7078478 4288085770
9.4599609 2.3916655 -1.7053196 4288085770
9.0795288 2.437006 -1.7080224 4288085770
8.7001038 2.4793167 -1.7077558 4288085770
8.3317261 2.516736 -1.7054589 4288085770
7.9833069 2.5553999 -1.7029703 4288085770
7.6808777 2.596653 -1.7020471 4288085770
7.4434204 2.6467943 -1.7074387 4288085770
7.1829834 2.6895742 -1.7071283 4288085770
6.9295654 2.7304125 -1.7047822 4288085770
6.7400818 2.7821398 -1.7097332 4288085770
14.041565 4.2730618 -1.6840594 4288085770
6.4976807 2.8210869 -1.7053163 4288085770
13.565155 4.3121748 -1.683676 4288085770
6.301239 2.8656616 -1.7054231 4288085770
13.102783 4.3474455 -1.6822221 4288085770
6.119751 2.9124203 -1.7053697 4288085770
12.68338 4.3862419 -1.6803458 4288085770
5.9413147 2.9582033 -1.704303 4288085770
12.313904 4.4346886 -1.6809046 4288085770
5.7948608 3.0084162 -1.7058985 4288085770
11.985352 4.4856482 -1.6820729 4288085770
5.6573486 3.0597391 -1.7074001 4288085770
11.683777 4.5409384 -1.6829474 4288085770
5.5307922 3.1131964 -1.7087777 4288085770
11.409149 4.5985575 -1.6835554 4288085770
5.4002686 3.1635771 -1.7082303 4288085770
11.160553 4.6584959 -1.6839049 4288085770
5.2867737 3.2161798 -1.7085044 4288085770
10.935852 4.7227373 -1.6849883 4288085770
5.1941833 3.274065 -1.7105253 4288085770
10.736145 4.7902842 -1.6858089 4288085770
5.0916443 3.3277884 -1.7096884 4288085770
10.541473 4.8578939 -1.6865852 4288085770
4.9990845 3.3826475 -1.7097495 4288085770
10.350739 4.9225111 -1.6843665 4288085770
4.9204712 3.4416761 -1.7096326 4288085770
10.23584 5.010149 -1.6881764 4288085770
4.848877 3.5018044 -1.7104394 4288085770
10.109924 5.0926085 -1.6891525 4288085770
4.8002014 3.5682392 -1.712961 4288085770
10.001038 5.1782799 -1.6899354 4288085770
4.7325745 3.6293879 -1.7117188 4288085770
9.9130249 5.2692175 -1.6914661 4288085770
4.6968689 3.6989803 -1.7140844 4288085770
9.7821655 5.3465538 -1.6875517 4288085770
4.6621704 3.7685738 -1.715441 4288085770
9.743042 5.4521141 -1.6904585 4288085770
4.6234741 3.8370895 -1.7148464 4288085770
9.6590576 5.542037 -1.6869652 4288085770
4.6086426 3.9139385 -1.7169306 4288085770
9.5909424 5.6381483 -1.6832497 4288085770
4.5888367 3.9897118 -1.7180727 4288085770
9.6165771 5.7665405 -1.6882827 4288085770
4.5670776 4.0644207 -1.7162459 4288085770
9.6052551 5.8824024 -1.6878049 4288085770
4.5632324 4.1453876 -1.7171786 4288085770
9.6437988 6.0179253 -1.6906278 4288085770
4.550354 4.2232065 -1.7152317 4288085770
9.6563416 6.1440639 -1.6888025 4288085770
4.5763855 4.315567 -1.7177489 4288085770
9.6808777 6.2743483 -1.6868165 4288085770
4.5834656 4.4026546 -1.7175024 4288085770
9.7412415 6.4201107 -1.6873081 4288085770
4.5795898 4.4835405 -1.7124341 4288085770
9.8244324 6.5761499 -1.6874621 4288085770
4.5925903 4.5716724 -1.7101209 4288085770
9.9147034 6.7342615 -1.6865261 4288085770
4.6564331 4.6815081 -1.7130716 4288085770
10.067505 6.9242201 -1.6906135 4288085770
4.6783752 4.7757359 -1.7095969 4288085770
10.173553 7.0934973 -1.6873868 4288085770
4.7411804 4.8865318 -1.7105424 4288085770
10.298523 7.2730055 -1.6838562 4288085770
4.7989197 4.9972372 -1.7095325 4288085770
10.417389 7.4533978 -1.677366 4288085770
4.8736572 5.1151648 -1.7092769 4288085770
10.693542 7.7049265 -1.6845438 4288085770
4.9492493 5.2360849 -1.7079723 4288085770
10.945709 7.9510784 -1.6860015 4288085770
5.067749 5.3776007 -1.7110159 4288085770
11.172974 8.1878595 -1.682802 4288085770
5.1572571 5.5056772 -1.708492 4288085770
5.2597351 5.6429148 -1.7057312 4288085770
5.4079285 5.8047905 -1.7082379 4288085770
5.5381775 5.956377 -1.7060397 4288085770
5.7121887 6.1345549 -1.7070997 4288085770
5.8871765 6.3137426 -1.7081373 4288085770
6.112793 6.5225859 -1.7113311 4288085770
6.2976074 6.7128391 -1.7081306 4288085770
6.5390625 6.9348631 -1.7100065 4288085770
6.8052979 7.1741896 -1.7114313 4288085770
7.0426636 7.4010534 -1.7052748 4288085770
7.338623 7.6617136 -1.704149 4288085770
7.7031555 7.9652882 -1.707844 4288085770
8.0407104 8.2564278 -1.7039406 4288085770
13.156769 -0.16411448 -1.7261779 4288085770
11.951172 -0.19580078 -1.7319233 4288085770
10.860535 -0.22112131 -1.7345974 4288085770
9.9438782 -0.24324942 -1.7417414 4288085770
9.0761414 -0.26081324 -1.7464025 4288085770
8.2753601 -0.27462149 -1.7464387 4288085770
7.5756226 -0.28713465 -1.7505939 4288085770
14.288574 -0.56340933 -1.7281744 4288085770
6.9768982 -0.29935551 -1.7588837 4288085770
12.868439 -0.55474663 -1.7311838 4288085770
6.4111023 -0.30721855 -1.7638299 4288085770
11.635406 -0.54679012 -1.7346056 4288085770
5.8171692 -0.31157351 -1.7579658 4288085770
10.575348 -0.5386672 -1.7415473 4288085770
5.3723755 -0.31888628 -1.7678707 4288085770
9.6222839 -0.5292902 -1.7445581 4288085770
4.9055176 -0.32159281 -1.7688992 4288085770
8.7772827 -0.52054834 -1.7506545 4288085770
4.5006714 -0.3244772 -1.7744009 4288085770
8.0062256 -0.50995302 -1.7530935 4288085770
4.1108093 -0.32622147 -1.776758 4288085770
7.308136 -0.50047112 -1.7549245 4288085770
3.7579651 -0.32747507 -1.7817924 4288085770
6.6751099 -0.49017477 -1.7581885 4288085770
3.4060364 -0.32577419 -1.7827766 4288085770
6.1321411 -0.48171711 -1.7657101 4288085770
3.0961609 -0.32552052 -1.786423 4288085770
5.6331482 -0.47274208 -1.7718489 4288085770
2.8042297 -0.3230505 -1.7898843 4288085770
5.0939941 -0.45841789 -1.7662528 4288085770
2.5143433 -0.32059717 -1.7903278 4288085770
4.7091064 -0.45196295 -1.7784536 4288085770
2.2654419 -0.31757784 -1.7954147 4288085770
4.269989 -0.43938589 -1.775028 4288085770
1.9924316 -0.31196117 -1.7926695 4288085770
3.914032 -0.42964983 -1.781935 4288085770
1.7675476 -0.30864954 -1.7975461 4288085770
3.5710449 -0.41978264 -1.7867281 4288085770
1.5445557 -0.30437231 -1.798393 4288085770
3.250061 -0.40965033 -1.7913296 4288085770
1.3216248 -0.29810715 -1.7982109 4288085770
2.9259644 -0.39762354 -1.7909305 4288085770
1.1196594 -0.29257441 -1.7988603 4288085770
2.6309814 -0.38621807 -1.7922909 4288085770
0.92770386 -0.28590679 -1.8004086 4288085770
2.3529053 -0.37362003 -1.7924912 4288085770
0.73669434 -0.27925491 -1.7999485 4288085770
2.0939026 -0.36277771 -1.7935526 4288085770
0.57681274 -0.27315569 -1.8042309 4288085770
1.8398132 -0.34990358 -1.7925427 4288085770
0.40982056 -0.26618433 -1.8055608 4288085770
1.6188354 -0.3385601 -1.7962735 4288085770
0.25585938 -0.25904179 -1.8077781 4288085770
1.3967896 -0.32729769 -1.7950127 4288085770
0.09286499 -0.25107908 -1.8050597 4288085770
1.1967773 -0.31569815 -1.7985604 4288085770
-0.061126709 -0.24199295 -1.8032482 4288085770
0.99871826 -0.30313158 -1.7980764 4288085770
-0.18307495 -0.23540688 -1.8092 4288085770
0.80764771 -0.29147959 -1.7975457 4288085770
-0.32711792 -0.22621346 -1.8063028 4288085770
0.61459351 -0.27789354 -1.7940047 4288085770
-0.45507812 -0.2177701 -1.8072789 4288085770
0.46762085 -0.26761103 -1.8001182 4288085770
-0.57305908 -0.2091918 -1.8091676 4288085770
0.32162476 -0.25634384 -1.8042085 4288085770
0.15957642 -0.24336815 -1.8014114 4288085770
0.0065002441 -0.23125601 -1.8005493 4288085770
-0.12850952 -0.21889734 -1.8015301 4288085770
-0.26358032 -0.20656729 -1.8005116 4288085770
-0.38659668 -0.19404936 -1.802388 4288085770
-0.51464844 -0.18164825 -1.800308 4288085770
-0.56784058 1.7375412 -1.7677662 4288085770
-0.46499634 1.7566986 -1.7616189 4288085770
-0.35614014 1.7769566 -1.757405 4288085770
-0.21530151 1.8037119 -1.7608283 4288085770
-0.088439941 1.8262014 -1.7574294 4288085770
0.033416748 1.8466015 -1.7521031 4288085770
0.18927002 1.8745365 -1.7553818 4288085770
0.34707642 1.901453 -1.7556579 4288085770
-0.53237915 1.6969442 -1.771035 4288085770
0.50790405 1.9274063 -1.7559221 4288085770
-0.42242432 1.711215 -1.766897 4288085770
0.67172241 1.9533682 -1.7541606 4288085770
-0.30950928 1.7245083 -1.7617476 4288085770
0.84957886 1.9805384 -1.7552626 4288085770
-0.18057251 1.7410498 -1.7604163 4288085770
1.0083923 2.0013552 -1.7476161 4288085770
-0.044616699 1.7576904 -1.7600243 4288085770
1.2001953 2.0296793 -1.7475832 4288085770
0.098297119 1.7754288 -1.7605574 4288085770
1.4129944 2.0612993 -1.7503254 4288085770
0.24224854 1.7921486 -1.7590964 4288085770
1.6118164 2.0866814 -1.7482746 4288085770
0.38314819 1.8068056 -1.7556899 4288085770
1.8395996 2.1174517 -1.7489016 4288085770
0.55511475 1.8269348 -1.7589428 4288085770
2.0953674 2.153616 -1.7532151 4288085770
0.70803833 1.8397226 -1.7544606 4288085770
2.3291626 2.1814022 -1.7498324 4288085770
0.8789978 1.8567829 -1.7537653 4288085770
2.5519714 2.2040005 -1.7426164 4288085770
1.0639343 1.8750534 -1.7559345 4288085770
2.8317261 2.2373953 -1.7427647 4288085770
1.2398987 1.8891306 -1.752239 4288085770
3.0975342 2.2655659 -1.739105 4288085770
1.4578552 1.9108553 -1.7580788 4288085770
3.4072876 2.3013363 -1.7399647 4288085770
1.6477966 1.9241009 -1.754276 4288085770
3.7020264 2.3298254 -1.7340543 4288085770
1.8757324 1.9439011 -1.7570584 4288085770
4.0238037 2.3606834 -1.730881 4288085770
2.0856934 1.9574003 -1.7540815 4288085770
4.3815308 2.3960009 -1.7293394 4288085770
2.3216553 1.9732552 -1.7538517 4288085770
4.7592773 2.4325581 -1.7276099 4288085770
2.5346375 1.9817343 -1.7469208 4288085770
5.1489868 2.4672308 -1.7238052 4288085770
2.7866211 1.9957666 -1.7455804 4288085770
5.5856628 2.5065088 -1.7225363 4288085770
3.0585938 2.0120544 -1.7450383 4288085770
6.0603638 2.5492868 -1.7238958 4288085770
3.324585 2.0232258 -1.7416193 4288085770
6.5510254 2.5902004 -1.7211454 4288085770
3.6305542 2.0399637 -1.7437823 4288085770
7.0367432 2.6249971 -1.7145236 4288085770
3.9135742 2.0483122 -1.7382586 4288085770
7.6073608 2.6698837 -1.7120373 4288085770
4.2495728 2.0633955 -1.7391903 4288085770
8.1849976 2.7097979 -1.7055624 4288085770
4.5695801 2.0722008 -1.7343471 4288085770
8.8306274 2.7565994 -1.7034118 4288085770
4.9246216 2.0824852 -1.7331851 4288085770
9.5462036 2.806241 -1.7006276 4288085770
5.2976379 2.0929699 -1.7308676 4288085770
10.33078 2.859724 -1.6982033 4288085770
5.6976929 2.102808 -1.7303302 4288085770
11.182281 2.9160261 -1.6961691 4288085770
6.1207275 2.1108942 -1.7276227 4288085770
12.122803 2.9753962 -1.6933367 4288085770
6.5528564 2.1160736 -1.7238791 4288085770
13.194214 3.0444088 -1.6942561 4288085770
7.0379028 2.1249599 -1.7246339 4288085770
14.31665 3.1089487 -1.6888049 4288085770
7.5230103 2.1267624 -1.7194889 4288085770
8.0811462 2.1355391 -1.7206247 4288085770
8.6282959 2.1330853 -1.7150137 4288085770
9.2384644 2.1354589 -1.7137997 4288085770
9.9066467 2.1345291 -1.7121398 4288085770
10.616882 2.132103 -1.7101452 4288085770
11.384125 2.1273756 -1.708699 4288085770
12.156464 2.1146393 -1.7023237 4288085770
13.12973 2.1114979 -1.7071073 4288085770
14.125122 2.0995646 -1.7078283 4288085770
7.5417786 -6.0724497 -0.19198418 4293729569
5.0552368 -5.1201348 -0.27941298 4293729569
5.023407 -5.1789694 -0.31954336 4293729569
3.816864 -5.1357565 -0.66425395 4293729569
3.7939453 -5.1813974 -0.71011543 4293729569
2.816803 -4.725852 -0.73085451 4293729569
2.79776 -4.7634764 -0.7745676 4293729569
2.8129578 -4.8196316 -0.82225776 4293729569
2.8110352 -4.8650074 -0.86893725 4293729569
2.8121033 -4.9093323 -0.91657686 4293729569
2.7869568 -4.9370008 -0.96219897 4293729569
2.5238037 -4.8178911 -0.98172164 4293729569
2.4219666 -4.7935915 -1.0192447 4293729569
2.3311462 -4.7731743 -1.0557296 4293729569
2.6461487 -4.9751472 -0.65491223 4293729569
2.3623962 -4.8280668 -1.1082656 4293729569
2.606781 -4.9809999 -0.69934058 4293729569
2.3683472 -4.865304 -1.1577625 4293729569
2.6046753 -5.009336 -0.74877715 4293729569
2.7366333 -5.1304445 -1.2604764 4293729569
2.6963196 -5.0954189 -0.80725193 4293729569
2.9091187 -5.2712879 -1.3380568 4293729569
2.7093201 -5.12953 -0.85964394 4293729569
2.7243652 -5.1831388 -1.3643615 4293729569
2.7142029 -5.1557665 -0.90999103 4293729569
2.6082153 -5.1350527 -1.3986628 4293729569
2.703949 -5.1721702 -0.96132565 4293729569
2.7918396 -5.2796769 -1.4822047 4293729569
2.6674194 -5.1679602 -1.007585 4293729569
3.5053711 -5.7666097 -1.6601975 4293729569
2.7227173 -5.2214794 -1.0658989 4293729569
3.2488708 -5.6215057 -1.6732881 4293729569
2.7658386 -5.2641726 -1.1221597 4293729569
2.9599609 -5.4529324 -1.6763136 4293729569
2.8140259 -5.3087621 -1.1814055 4293729569
2.6941833 -5.2950673 -1.6802976 4293729569
2.8601379 -5.34939 -1.2396119 4293729569
2.4334412 -5.1371717 -1.6822379 4293729569
2.8911133 -5.3792295 -1.2957909 4293729569
2.1998901 -4.9959059 -1.687187 4293729569
2.7898254 -5.3199091 -1.3338044 4293729569
2.0026245 -4.8741493 -1.6961105 4293729569
2.6733704 -5.2478261 -1.3677609 4293729569
1.7810974 -4.7347832 -1.6979845 4293729569
2.6629028 -5.2432623 -1.416795 4293729569
1.5836792 -4.6081133 -1.7008369 4293729569
3.1833191 -5.5830679 -1.5553014 4293729569
1.4054565 -4.4921713 -1.7066815 4293729569
3.4897766 -5.7798929 -1.6615574 4293729569
1.2332458 -4.3781996 -1.7095029 4293729569
3.2348633 -5.6078129 -1.6712444 4293729569
1.0862427 -4.278841 -1.718322 4293729569
2.9890137 -5.4396663 -1.6779101 4293729569
0.92300415 -4.166791 -1.719094 4293729569
2.7330017 -5.2637267 -1.6785495 4293729569
0.8112793 -4.087966 -1.7309101 4293729569
2.4981689 -5.098505 -1.6811631 4293729569
0.81570435 -4.0833359 -1.7718146 4288085770
2.3137817 -4.9656091 -1.6888158 4293729569
0.82211304 -4.0786819 -1.8127015 4288085770
2.0889282 -4.8043261 -1.6874001 4293729569
0.84570312 -4.0827799 -1.8565695 4288085770
1.9175415 -4.6763015 -1.693012 4293729569
0.77423096 -4.0223875 -1.8743103 4282675967
1.7542419 -4.5531945 -1.6976259 4293729569
0.63607788 -3.9170797 -1.8719661 4282675967
1.5918579 -4.4281054 -1.7002027 4293729569
0.50997925 -3.8186266 -1.8696182 4282675967
1.455719 -4.318645 -1.7067831 4293729569
0.3677063 -3.7084398 -1.8622377 4288085770
1.3306885 -4.2170515 -1.713382 4293729569
0.24157715 -3.6080453 -1.8558614 4288085770
1.2207336 -4.1222486 -1.7219512 4293729569
0.1416626 -3.5232511 -1.8554885 4288085770
1.2187805 -4.0948105 -1.7545788 4293729569
0.043792725 -3.4394324 -1.8551114 4288085770
1.2753906 -4.1014996 -1.7992041 4288085770
-0.041015625 -3.3634424 -1.8557374 4288085770
1.3148499 -4.0964518 -1.8398049 4288085770
-0.13491821 -3.2806334 -1.851341 4288085770
1.2855835 -4.0464692 -1.8633373 4282675967
-0.20254517 -3.2133956 -1.8549478 4288085770
1.1724243 -3.944833 -1.8628333 4282675967
-0.29244995 -3.1315536 -1.8495314 4288085770
1.0542603 -3.8393006 -1.8593152 4288085770
-0.36016846 -3.0623589 -1.8501093 4288085770
0.95324707 -3.7435341 -1.8577926 4288085770
-0.41577148 -3.0009904 -1.8526976 4288085770
0.84512329 -3.6449101 -1.8522885 4288085770
-0.4602356 -2.9454618 -1.8572767 4288085770
0.74404907 -3.5491869 -1.8477666 4288085770
-0.52197266 -2.8792381 -1.8548467 4288085770
0.67626953 -3.4729662 -1.8502443 4288085770
0.59536743 -3.3889866 -1.8467205 4288085770
0.52352905 -3.3098712 -1.8451903 4288085770
0.45672607 -3.2336955 -1.8436592 4288085770
0.39801025 -3.1624084 -1.8431304 4288085770
0.34628296 -3.0940375 -1.8425839 4288085770
0.32284546 -3.0412292 -1.8490231 4288085770
0.27618408 -2.975812 -1.8474758 4288085770
0.23757935 -2.9152703 -1.8479311 4288085770
0.19992065 -2.8527312 -1.8473494 4288085770
0.16333008 -2.7932076 -1.8448017 4288085770
0.13580322 -2.7365336 -1.8452189 4288085770
0.10620117 -2.6789274 -1.8426387 4288085770
0.083679199 -2.6262069 -1.8420699 4288085770
0.069244385 -2.5763779 -1.8424747 4288085770
0.058807373 -2.5284853 -1.8438733 4288085770
0.056396484 -2.4834809 -1.8462451 4288085770
0.036895752 -2.4317684 -1.8426645 4288085770
0.034484863 -2.3868079 -1.8420365 4288085770
0.029022217 -2.3408852 -1.8414199 4288085770
0.022583008 -2.2940021 -1.8387978 4288085770
0.033233643 -2.2558556 -1.8401577 4288085770
0.043914795 -2.2157121 -1.8414881 4288085770
0.047515869 -2.1727085 -1.8388369 4288085770
0.068237305 -2.1374302 -1.8411524 4288085770
0.079925537 -2.0973167 -1.8394744 4288085770
0.094543457 -2.0591664 -1.8377993 4288085770
0.11523438 -2.0219173 -1.8380864 4288085770
0.12985229 -1.9837971 -1.8344109 4288085770
0.15863037 -1.949451 -1.8346708 4288085770
0.19134521 -1.917057 -1.8349254 4288085770
0.22003174 -1.8827262 -1.8341863 4288085770
0.24975586 -1.8484116 -1.8314378 4288085770
0.29156494 -1.8178964 -1.8326423 4288085770
0.32525635 -1.7845335 -1.8298743 4288085770
0.34783936 -1.7463756 -1.8221295 4288085770
0.42080688 -1.7254024 -1.8292081 4288085770
0.48165894 -1.6996307 -1.832319 4288085770
0.54550171 -1.6738377 -1.8344042 4288085770
0.60934448 -1.647059 -1.8354757 4288085770
-0.53369141 -1.3168097 -1.8324134 4288085770
0.68521118 -1.6240945 -1.8394992 4288085770
-0.49493408 -1.2894011 -1.8286865 4288085770
0.73995972 -1.5934963 -1.8355916 4288085770
-0.434021 -1.2676134 -1.8328555 4288085770
0.81481934 -1.568572 -1.8375952 4288085770
-0.37411499 -1.2458673 -1.8350322 4288085770
0.86853027 -1.5380149 -1.8316963 4288085770
-0.33035278 -1.2184138 -1.8302629 4288085770
0.9413147 -1.5111732 -1.8296893 4288085770
-0.2755127 -1.1937704 -1.8294404 4288085770
1.0211182 -1.4852338 -1.8286355 4288085770
-0.21569824 -1.1700687 -1.8285892 4288085770
1.0899048 -1.4564691 -1.8246343 4288085770
-0.14279175 -1.1491675 -1.8306673 4288085770
1.179718 -1.4314108 -1.823508 4288085770
-0.087005615 -1.1235571 -1.8268225 4288085770
1.2645264 -1.4054408 -1.8204114 4288085770
-0.0040588379 -1.1045218 -1.8298428 4288085770
1.3623657 -1.3812866 -1.8192298 4288085770
0.066802979 -1.0816879 -1.8289096 4288085770
1.4692078 -1.3580108 -1.8189852 4288085770
0.14465332 -1.0587573 -1.8289163 4288085770
1.5791016 -1.3356986 -1.8187282 4288085770
0.20843506 -1.0330801 -1.8230016 4288085770
1.6698608 -1.3077159 -1.8115504 4288085770
0.29229736 -1.0120773 -1.8229845 4288085770
1.8078003 -1.2890129 -1.8151076 4288085770
0.39224243 -0.99285555 -1.8248575 4288085770
1.9516907 -1.2692523 -1.8175981 4288085770
0.47705078 -0.96888399 -1.8217885 4288085770
2.0705261 -1.2439075 -1.8122203 4288085770
0.57598877 -0.94870329 -1.8216555 4288085770
2.2404785 -1.2267938 -1.8175275 4288085770
0.66479492 -0.92469931 -1.8175523 4288085770
2.3793335 -1.203197 -1.8130043 4288085770
0.78170776 -0.9052763 -1.819277 4288085770
2.531189 -1.1814146 -1.8103974 4288085770
0.87954712 -0.88216448 -1.81511 4288085770
2.7081299 -1.1622763 -1.8116157 4288085770
1.0114746 -0.86354685 -1.8177187 4288085770
2.8789673 -1.1402831 -1.8078434 4288085770
1.1363831 -0.84305668 -1.8173597 4288085770
3.0568237 -1.1181917 -1.8050106 4288085770
1.2833557 -0.82524729 -1.820852 4288085770
3.2617493 -1.0987363 -1.8049853 4288085770
1.4242554 -0.80555153 -1.8213685 4288085770
3.4495544 -1.0745711 -1.7990367 4288085770
1.5681458 -0.78483582 -1.8208444 4288085770
3.6824951 -1.0567822 -1.7987974 4288085770
1.6819153 -0.75962305 -1.8105099 4288085770
3.9234009 -1.0369129 -1.7974598 4288085770
1.8478088 -0.73961687 -1.8118088 4288085770
4.162262 -1.0151105 -1.7931111 4288085770
1.9926147 -0.71697617 -1.805248 4288085770
4.4471741 -0.99768925 -1.7934349 4288085770
2.1825562 -0.69766951 -1.8073523 4288085770
4.7190552 -0.976511 -1.7878139 4288085770
2.3533936 -0.67469215 -1.8025649 4288085770
5.0129395 -0.95505476 -1.7830017 4288085770
2.5583496 -0.65523577 -1.8025396 4288085770
5.3729248 -0.93869877 -1.7857025 4288085770
2.7461243 -0.63107061 -1.7965906 4288085770
5.7228088 -0.91857767 -1.780432 4288085770
2.9760742 -0.61030436 -1.797333 4288085770
6.1177063 -0.89886379 -1.7787855 4288085770
3.2189331 -0.58941269 -1.795963 4288085770
6.5175476 -0.87716341 -1.7720678 4288085770
3.4497681 -0.56572104 -1.7906549 4288085770
6.9945374 -0.85943031 -1.772752 4288085770
3.713623 -0.5436101 -1.7870886 4288085770
7.4573975 -0.8369956 -1.7644861 4288085770
4.022583 -0.52286005 -1.7901585 4288085770
8.0083313 -0.81842709 -1.7615278 4288085770
4.287323 -0.49682426 -1.7805264 4288085770
8.6373291 -0.80087376 -1.7619202 4288085770
4.6522827 -0.47639465 -1.7841246 4288085770
9.2722168 -0.77933693 -1.7562034 4288085770
4.9540405 -0.44893408 -1.7731569 4288085770
10.00412 -0.75961733 -1.7516873 4288085770
5.3599548 -0.42704725 -1.7743843 4288085770
10.805054 -0.73907757 -1.7465723 4288085770
5.7507629 -0.40044117 -1.7686708 4288085770
11.712006 -0.7182498 -1.7425501 4288085770
6.2176514 -0.37582922 -1.7693398 4288085770
12.771027 -0.69955635 -1.7412655 4288085770
6.6633911 -0.34761381 -1.7601354 4288085770
13.942963 -0.67756462 -1.7359703 4288085770
7.2262573 -0.32086229 -1.7599556 4288085770
7.8381348 -0.29351473 -1.7603505 4288085770
8.4528809 -0.26224852 -1.7526624 4288085770
9.1837158 -0.23050213 -1.7509806 4288085770
10.000519 -0.1977191 -1.7495515 4288085770
10.890289 -0.16209984 -1.7454588 4288085770
11.927063 -0.12270308 -1.7420609 4288085770
13.123779 -0.080364227 -1.740258 4288085770
13.042542 0.23300695 -1.7287204 4288085770
11.74176 0.21481991 -1.735009 4288085770
10.541901 0.20068932 -1.7323802 4288085770
9.5761414 0.18943691 -1.7387283 4288085770
8.6862793 0.18002319 -1.7414048 4288085770
7.9084473 0.17296934 -1.7470987 4288085770
7.2076416 0.16780949 -1.7521122 4288085770
13.295258 0.14971876 -1.719908 4288085770
6.5306702 0.16482449 -1.7498896 4288085770
11.956299 0.14807749 -1.7252672 4288085770
5.9437866 0.16295767 -1.7518885 4288085770
10.791321 0.14948654 -1.7311089 4288085770
5.4559631 0.16136026 -1.7610466 4288085770
9.7473755 0.15127277 -1.7339194 4288085770
4.9510193 0.16143179 -1.7613218 4288085770
8.8403931 0.15367651 -1.7375619 4288085770
4.5171204 0.16237116 -1.763984 4288085770
8.0534058 0.15751982 -1.7431681 4288085770
4.1282349 0.1638937 -1.7702568 4288085770
7.3274536 0.16202545 -1.7452466 4288085770
3.7403259 0.16635275 -1.7715056 4288085770
6.6554565 0.16714382 -1.7458589 4288085770
3.4024048 0.1694212 -1.7743237 4288085770
6.0855408 0.17253494 -1.7516048 4288085770
3.09552 0.17292595 -1.781872 4288085770
5.5665588 0.17851925 -1.7569101 4288085770
2.7675171 0.17702293 -1.778589 4288085770
5.0585632 0.18554068 -1.7561057 4288085770
2.4996338 0.18194962 -1.7837865 4288085770
4.6355896 0.19265366 -1.7615821 4288085770
2.2166748 0.18659735 -1.7821138 4288085770
4.2075806 0.19961929 -1.7611015 4288085770
1.9827271 0.19193411 -1.7880175 4288085770
3.8536377 0.20756292 -1.7679813 4288085770
1.7357483 0.19801569 -1.7870185 4288085770
3.5036621 0.21549273 -1.7708271 4288085770
1.4977722 0.20418739 -1.7849424 4288085770
3.1917114 0.22389412 -1.7753437 4288085770
1.2987976 0.21088409 -1.7875288 4288085770
2.8907471 0.23139381 -1.7777812 4288085770
1.1008606 0.21759415 -1.7901065 4288085770
2.6107483 0.24013662 -1.7800219 4288085770
0.90090942 0.2242074 -1.7877009 4288085770
2.3357544 0.248909 -1.7802198 4288085770
0.73995972 0.23139143 -1.7929585 4288085770
2.0717163 0.25777864 -1.7783225 4288085770
0.56298828 0.23928642 -1.7913406 4288085770
1.8547668 0.26731205 -1.7840188 4288085770
0.40496826 0.2464447 -1.7925727 4288085770
1.6247559 0.27657652 -1.7818277 4288085770
0.26104736 0.25479698 -1.7956684 4288085770
1.4097595 0.2860446 -1.7815073 4288085770
0.077941895 0.26248789 -1.7851026 4288085770
1.2137451 0.29576254 -1.7830222 4288085770
-0.036956787 0.2712512 -1.7929471 4288085770
1.0377808 0.30575848 -1.7873638 4288085770
-0.16592407 0.27976274 -1.7949135 4288085770
0.85375977 0.3145709 -1.7857907 4288085770
-0.27886963 0.28850222 -1.799742 4288085770
0.69277954 0.32471085 -1.7880032 4288085770
-0.39782715 0.29713011 -1.8016217 4288085770
0.52474976 0.33470917 -1.7862766 4288085770
-0.52786255 0.30654049 -1.7975814 4288085770
0.37075806 0.34388638 -1.7854435 4288085770
0.23175049 0.35428047 -1.7874663 4288085770
0.0987854 0.36473227 -1.7884367 4288085770
-0.034240723 0.37516642 -1.7884076 4288085770
-0.15823364 0.38570595 -1.7883003 4288085770
-0.27127075 0.39741802 -1.7910841 4288085770
-0.39227295 0.40796137 -1.7889512 4288085770
-0.5022583 0.4186635 -1.7887228 4288085770
-0.55725098 2.4849043 -1.7495134 4288085770
-0.44854736 2.5211477 -1.7480605 4288085770
-0.3258667 2.5615959 -1.7494276 4288085770
-0.20916748 2.5979147 -1.746906 4288085770
-0.086456299 2.6353178 -1.7453187 4288085770
0.052185059 2.6779327 -1.7455204 4288085770
0.17987061 2.7153635 -1.7418907 4288085770
0.33248901 2.76017 -1.7439425 4288085770
-0.56152344 2.4269152 -1.7584355 4288085770
0.48516846 2.8049459 -1.7439945 4288085770
-0.46572876 2.4479342 -1.7523186 4288085770
0.63980103 2.8477316 -1.7430599 4288085770
-0.34890747 2.4772692 -1.7509029 4288085770
0.77352905 2.8791561 -1.7344701 4288085770
-0.23709106 2.501502 -1.7466047 4288085770
0.93713379 2.9220133 -1.7314594 4288085770
-0.098327637 2.5371637 -1.7499111 4288085770
1.1167297 2.969099 -1.731252 4288085770
0.022521973 2.562499 -1.7455208 4288085770
1.3262634 3.0256042 -1.7356527 4288085770
0.16522217 2.5961781 -1.7468231 4288085770
1.5218201 3.074873 -1.7352793 4288085770
0.2930603 2.6205788 -1.741389 4288085770
1.6934814 3.1117477 -1.7272913 4288085770
0.46881104 2.662756 -1.7502887 4288085770
1.887085 3.15592 -1.7220109 4288085770
0.62457275 2.6955528 -1.7494962 4288085770
2.1325684 3.2168379 -1.7260458 4288085770
0.77737427 2.7243023 -1.7477891 4288085770
2.3591309 3.2674332 -1.7233937 4288085770
0.92816162 2.7509956 -1.7441289 4288085770
2.6096191 3.3253622 -1.7244313 4288085770
1.1368408 2.7975512 -1.7526886 4288085770
2.8631287 3.3802824 -1.7224896 4288085770
1.2866821 2.8201904 -1.7460978 4288085770
3.1325989 3.4383993 -1.7213666 4288085770
1.4634705 2.8501987 -1.7431719 4288085770
3.4151001 3.4966831 -1.721133 4288085770
1.6372681 2.8761568 -1.7393315 4288085770
3.7135315 3.5581331 -1.7197187 4288085770
1.8130798 2.9011097 -1.7334898 4288085770
4.0379028 3.625926 -1.7209928 4288085770
2.0088806 2.9293518 -1.7314322 4288085770
4.3813171 3.6949224 -1.7210896 4288085770
2.2126465 2.9596682 -1.728277 4288085770
4.7346802 3.7630177 -1.7201173 4288085770
2.4294434 2.9901495 -1.7270043 4288085770
5.1010437 3.8312454 -1.7190287 4288085770
2.6592102 3.0228119 -1.7265985 4288085770
5.4993286 3.9058886 -1.7195852 4288085770
2.8930054 3.0545034 -1.7251742 4288085770
5.9126587 3.9796724 -1.7180293 4288085770
3.1507263 3.0905018 -1.7254856 4288085770
6.361908 4.0608997 -1.7180626 4288085770
3.3875732 3.1161833 -1.7211268 4288085770
6.8181763 4.1381626 -1.7150972 4288085770
3.6703186 3.1535006 -1.7232106 4288085770
7.3004456 4.2167387 -1.7128952 4288085770
3.933136 3.1804962 -1.7196157 4288085770
7.8305969 4.303896 -1.7121656 4288085770
4.2219238 3.2118349 -1.7187393 4288085770
8.3737488 4.3901539 -1.7083414 4288085770
4.5236816 3.243309 -1.7167537 4288085770
8.9738464 4.4841127 -1.7069275 4288085770
4.8374634 3.2729349 -1.7156956 4288085770
9.6219177 4.5836391 -1.7060301 4288085770
5.1702881 3.3057957 -1.715431 4288085770
10.273987 4.6761484 -1.701206 4288085770
5.5010986 3.3335867 -1.7122595 4288085770
10.998932 4.7825546 -1.6995652 4288085770
5.8788757 3.3690081 -1.7145832 4288085770
11.770874 4.8904858 -1.6965106 4288085770
6.2416992 3.3961964 -1.713155 4288085770
12.638702 5.0155954 -1.6973999 4288085770
6.6315308 3.4246941 -1.7114832 4288085770
13.566437 5.1423597 -1.6957657 4288085770
7.0463562 3.4555101 -1.7115681 4288085770
7.4881897 3.4866352 -1.7114251 4288085770
7.9200745 3.5086021 -1.7085025 4288085770
8.3709717 3.5297871 -1.7054341 4288085770
8.8678284 3.5555439 -1.7049148 4288085770
9.3707886 3.5773554 -1.7034061 4288085770
9.8996887 3.5964499 -1.7007215 4288085770
10.493622 3.6223812 -1.7033947 4288085770
11.068634 3.6370049 -1.7003963 4288085770
11.719574 3.659605 -1.7036459 4288085770
12.318665 3.6644745 -1.6985967 4288085770
13.016724 3.6775694 -1.6986001 4288085770
13.767792 3.6893187 -1.7011845 4288085770
13.412262 -5.2685089 -0.30992818 4293729569
3.7643433 -2.4896359 -0.64649439 4293729569
13.363129 -5.3853588 -0.36014223 4293729569
3.7755127 -2.5581074 -0.6744597 4293729569
3.7806396 -2.6256652 -0.70146108 4293729569
3.004425 -2.4490271 -0.6751976 4293729569
12.004089 -5.3501158 -0.49392772 4293729569
2.964325 -2.4961486 -0.69926071 4293729569
11.980957 -5.461606 -0.54784513 4293729569
2.9221802 -2.5422921 -0.72332549 4293729569
2.8790588 -2.5874181 -0.74938393 4293729569
3.001709 -2.6740155 -0.35263395 4293729569
2.8629761 -2.6392021 -0.77732015 4293729569
2.962616 -2.719048 -0.38165784 4293729569
2.8580322 -2.6958284 -0.80723858 4293729569
2.9767151 -2.7824421 -0.41252208 4293729569
2.3726807 -2.5826435 -0.7935338 4293729569
9.215332 -5.0709181 -0.72687984 4293729569
2.2912598 -2.6082664 -0.81561065 4293729569
9.2562561 -5.1856117 -0.78431559 4293729569
2.2580566 -2.6492481 -0.8435235 4293729569
9.1856384 -5.2566442 -0.83800793 4293729569
2.230957 -2.6921439 -0.87241578 4293729569
9.207489 -5.3625269 -0.89746785 4293729569
2.2671204 -2.7582078 -0.90813923 4293729569
9.5660095 -5.5972009 -0.97911263 4293729569
2.2952881 -2.8213487 -0.94488454 4293729569
9.5919189 -5.7039614 -1.0435541 4293729569
8.1107483 -5.1577048 -1.6585672 4293729569
9.5947266 -5.8039699 -1.1090844 4293729569
7.6347046 -5.058156 -1.6619999 4293729569
8.4725342 -5.4491315 -1.093962 4293729569
6.5037842 -4.6854153 -1.5806644 4293729569
6.49823 -4.7616539 -1.6368964 4293729569
6.785553 -4.9247618 -1.0819345 4293729569
6.3216858 -4.7661867 -1.6714447 4293729569
6.4682312 -4.8669844 -1.1116951 4293729569
6.0021667 -4.7046909 -1.6841629 4293729569
6.5662537 -4.9828711 -1.1786785 4293729569
5.6544495 -4.6285939 -1.6918905 4293729569
6.5033264 -5.0278296 -1.2309079 4293729569
5.3106995 -4.5464826 -1.6974924 4293729569
6.4806519 -5.0902195 -1.2900717 4293729569
4.9527283 -4.4555931 -1.6990764 4293729569
6.4468994 -5.1457529 -1.3482225 4293729569
4.5806274 -4.3529415 -1.6955965 4293729569
6.4674683 -5.2245731 -1.4122813 4293729569
4.2758484 -4.2753973 -1.6999433 4293729569
6.543396 -5.3286209 -1.4852688 4293729569
4.0636597 -4.23558 -1.7181036 4293729569
5.4900818 -4.9087014 -1.4215629 4293729569
3.8967285 -4.215137 -1.7431867 4293729569
5.47229 -4.9620509 -1.4795477 4293729569
3.7710571 -4.2091155 -1.7751505 4288085770
6.2205505 -5.3750458 -1.6407149 4293729569
3.6423035 -4.2011595 -1.8051093 4288085770
5.9229736 -5.2950859 -1.666971 4293729569
3.5145569 -4.1901922 -1.8350136 4288085770
5.4913635 -5.1460109 -1.6702731 4293729569
3.3384399 -4.1539154 -1.8559291 4282675967
5.0999451 -5.0104451 -1.6754501 4293729569
3.1047974 -4.086525 -1.8618419 4282675967
4.7920227 -4.9107695 -1.6904867 4293729569
2.8318481 -3.9957211 -1.8587191 4282675967
4.3772888 -4.7546377 -1.6845381 4293729569
2.5950623 -3.9194419 -1.8595212 4282675967
4.0339355 -4.6275496 -1.6874454 4293729569
2.3522034 -3.835278 -1.8572505 4282675967
3.7539978 -4.5296297 -1.6972744 4293729569
2.0911255 -3.7404292 -1.847966 4288085770
3.4457703 -4.4121399 -1.7000368 4293729569
1.8965149 -3.6746202 -1.851578 4288085770
3.1958923 -4.3218894 -1.7087338 4293729569
1.7018738 -3.6078281 -1.8541749 4282675967
2.9127197 -4.2101269 -1.7103751 4293729569
1.4859924 -3.5253999 -1.848706 4288085770
2.7705688 -4.169385 -1.7359412 4293729569
1.2962646 -3.4545965 -1.8482001 4288085770
2.7050171 -4.1665373 -1.7764571 4288085770
1.1266785 -3.3925161 -1.8506596 4288085770
2.6404114 -4.1606798 -1.8169186 4288085770
0.94598389 -3.3216386 -1.8480766 4288085770
2.555603 -4.1431293 -1.8523676 4288085770
0.78033447 -3.2565594 -1.8474581 4288085770
2.3427734 -4.0555 -1.8577964 4282675967
0.6217041 -3.192399 -1.8467948 4288085770
2.1107178 -3.9541965 -1.8561728 4288085770
0.47009277 -3.1301599 -1.8461034 4288085770
1.8956909 -3.8586826 -1.8554976 4282675967
0.32955933 -3.0717459 -1.8483789 4288085770
1.6907654 -3.7670381 -1.8557975 4282675967
0.197052 -3.0172415 -1.8506477 4288085770
1.4685974 -3.6626976 -1.8490431 4288085770
0.06149292 -2.9568162 -1.8498499 4288085770
1.2837219 -3.5778387 -1.8482807 4288085770
-0.053955078 -2.9080844 -1.8540661 4288085770
1.1139221 -3.4977756 -1.8494666 4288085770
-0.19363403 -2.841784 -1.8482115 4288085770
0.92797852 -3.4069905 -1.8446205 4288085770
-0.30001831 -2.7939644 -1.8513663 4288085770
0.77523804 -3.3317332 -1.8457391 4288085770
-0.40045166 -2.7470617 -1.8554857 4288085770
0.61437988 -3.2506428 -1.8418334 4288085770
-0.51293945 -2.6923871 -1.853585 4288085770
0.47772217 -3.181201 -1.8429072 4288085770
0.3520813 -3.1166029 -1.8459647 4288085770
0.21032715 -3.0412951 -1.8419893 4288085770
0.11392212 -2.9892855 -1.8499982 4288085770
-0.013824463 -2.9188013 -1.8469808 4288085770
-0.11126709 -2.8638649 -1.8509529 4288085770
-0.22192383 -2.8001695 -1.8488982 4288085770
-0.31539917 -2.7452183 -1.850836 4288085770
-0.41601562 -2.6844091 -1.8487422 4288085770
-0.51358032 -2.6245646 -1.8466375 4288085770
-0.37246704 -0.55170345 -1.811198 4288085770
-0.28451538 -0.53568268 -1.8122394 4288085770
-0.21362305 -0.5179615 -1.806392 4288085770
-0.13171387 -0.50108337 -1.8024676 4288085770
-0.024719238 -0.48681545 -1.8053806 4288085770
0.062194824 -0.46989632 -1.8004148 4288085770
0.18023682 -0.45648766 -1.804251 4288085770
0.29315186 -0.44121122 -1.8030989 4288085770
0.40713501 -0.42590904 -1.8029392 4288085770
0.51904297 -0.40969181 -1.7987812 4288085770
0.64602661 -0.39524221 -1.798528 4288085770
-0.35131836 -0.27251911 -1.8097789 4288085770
0.79000854 -0.38156748 -1.8001482 4288085770
-0.23431396 -0.26010561 -1.8146389 4288085770
0.93499756 -0.36689854 -1.8007448 4288085770
-0.14038086 -0.24510717 -1.8096459 4288085770
1.0739136 -0.35135937 -1.7973773 4288085770
-0.035400391 -0.22993851 -1.8075602 4288085770
1.2308655 -0.33658409 -1.7958748 4288085770
0.069519043 -0.21481609 -1.8024752 4288085770
1.3958435 -0.32170343 -1.795306 4288085770
0.19247437 -0.2004118 -1.8022559 4288085770
1.5718384 -0.30769682 -1.7946608 4288085770
0.31848145 -0.18698883 -1.8010261 4288085770
1.7568359 -0.29258823 -1.793925 4288085770
0.45843506 -0.17237663 -1.8016646 4288085770
1.9497375 -0.27740479 -1.7921236 4288085770
0.58636475 -0.1579771 -1.7974041 4288085770
2.1567383 -0.26304722 -1.7912204 4288085770
0.74938965 -0.14504099 -1.8018811 4288085770
2.3727112 -0.24760199 -1.7892272 4288085770
0.90338135 -0.13030052 -1.8004038 4288085770
2.6157227 -0.23380423 -1.7900398 4288085770
1.0733643 -0.11634684 -1.8008077 4288085770
2.8686829 -0.218925 -1.7887547 4288085770
1.2413025 -0.10246372 -1.7982299 4288085770
3.1055908 -0.20330334 -1.7825882 4288085770
1.4092712 -0.087595463 -1.7946365 4288085770
3.3985901 -0.18893862 -1.782985 4288085770
1.6052551 -0.073362827 -1.7938249 4288085770
3.6725159 -0.17191362 -1.7754958 4288085770
1.8152161 -0.058939934 -1.7948968 4288085770
4.0125122 -0.15800047 -1.7765172 4288085770
2.0281982 -0.044545174 -1.7919443 4288085770
4.3203735 -0.14062071 -1.7667463 4288085770
2.2401428 -0.029194355 -1.7869861 4288085770
4.7324219 -0.12582684 -1.7711685 4288085770
2.5041504 -0.015143871 -1.7886245 4288085770
5.1042786 -0.108706 -1.7618806 4288085770
2.756073 -0.00030660629 -1.7853482 4288085770
5.5703125 -0.093361855 -1.7618544 4288085770
3.032074 0.014818192 -1.7828715 4288085770
6.0172119 -0.075358868 -1.7539427 4288085770
3.3270264 0.030158043 -1.7802384 4288085770
6.5812073 -0.059871197 -1.7551177 4288085770
3.6470032 0.045798302 -1.7783968 4288085770
7.1772156 -0.042051792 -1.7539961 4288085770
3.9649048 0.062335968 -1.771558 4288085770
7.8311768 -0.024591923 -1.7514088 4288085770
4.3118286 0.078235149 -1.7664926 4288085770
8.5090942 -0.0059504509 -1.7426069 4288085770
4.7398376 0.094161987 -1.7677677 4288085770
9.3120117 0.01320219 -1.7387817 4288085770
5.1427002 0.11166573 -1.7602227 4288085770
10.225006 0.033633709 -1.7360408 4288085770
5.6407166 0.12840128 -1.7619169 4288085770
11.27597 0.054660797 -1.7341688 4288085770
6.1576843 0.14627552 -1.7584383 4288085770
12.4599 0.077183247 -1.7301915 4288085770
6.7125854 0.16456413 -1.7536452 4288085770
13.816833 0.10165358 -1.7237766 4288085770
7.3796082 0.18423223 -1.7549193 4288085770
8.0815735 0.20425129 -1.7529042 4288085770
8.8585205 0.22508907 -1.748266 4288085770
9.7374268 0.24710131 -1.7437799 4288085770
10.715302 0.27120399 -1.7364576 4288085770
11.880219 0.29653645 -1.7345955 4288085770
13.193115 0.32453203 -1.730489 4288085770
14.106873 0.5939517 -1.7224782 4288085770
12.636902 0.58995724 -1.7227056 4288085770
11.397003 0.58753967 -1.7271602 4288085770
10.329071 0.58800507 -1.732259 4288085770
9.3791199 0.58870363 -1.7344573 4288085770
8.5111389 0.59024763 -1.7340181 4288085770
7.7992249 0.59462309 -1.7413461 4288085770
14.598358 0.80485249 -1.7010272 4288085770
7.1502686 0.59964132 -1.7461846 4288085770
13.176422 0.79953575 -1.7099168 4288085770
6.5303345 0.60390377 -1.7468154 4288085770
11.906555 0.79480076 -1.7146409 4288085770
5.9333191 0.6073246 -1.742286 4288085770
10.771637 0.79249859 -1.7172983 4288085770
5.464386 0.61436367 -1.7507236 4288085770
9.8016968 0.79201984 -1.7216709 4288085770
4.9873962 0.62116146 -1.7502248 4288085770
8.961792 0.79398918 -1.7280138 4288085770
4.5804443 0.62778187 -1.7531974 4288085770
8.1718445 0.79437447 -1.7270043 4288085770
4.188446 0.63554478 -1.7550371 4288085770
7.4698792 0.79775715 -1.7282746 4288085770
3.8325195 0.64271164 -1.7576139 4288085770
6.8999634 0.80371284 -1.737498 4288085770
3.5065613 0.65121937 -1.7609394 4288085770
6.3480225 0.80875969 -1.7406008 4288085770
3.1885376 0.65874195 -1.7602208 4288085770
5.8270569 0.81310463 -1.7414796 4288085770
2.9045715 0.66768265 -1.7622197 4288085770
5.3490906 0.81890965 -1.7420065 4288085770
2.6395874 0.67582703 -1.7640889 4288085770
4.9341125 0.82544422 -1.7450426 4288085770
2.4166565 0.68652725 -1.7715948 4288085770
4.5211182 0.83193111 -1.7440646 4288085770
2.1856689 0.69607258 -1.7751806 4288085770
4.1931763 0.84148693 -1.7513878 4288085770
1.9446716 0.70438957 -1.7718637 4288085770
3.8532104 0.84882736 -1.7538402 4288085770
1.7407227 0.71420574 -1.7742403 4288085770
3.538269 0.85741901 -1.7550809 4288085770
1.5587158 0.72531128 -1.7794278 4288085770
3.2382507 0.86515427 -1.7552226 4288085770
1.3597412 0.73411465 -1.7777836 4288085770
2.9742737 0.87534428 -1.7590492 4288085770
1.1777344 0.744133 -1.7779891 4288085770
2.7263184 0.88469028 -1.7617686 4288085770
0.99273682 0.75305176 -1.7742364 4288085770
2.4923401 0.89518547 -1.7643611 4288085770
0.82974243 0.7632761 -1.7742941 4288085770
2.2733459 0.90484333 -1.766854 4288085770
0.68475342 0.77472687 -1.7761948 4288085770
2.0523376 0.9144268 -1.7663639 4288085770
0.53775024 0.78512287 -1.7761281 4288085770
1.8503723 0.92423248 -1.7667253 4288085770
0.4017334 0.79565334 -1.7769759 4288085770
1.6543579 0.93408394 -1.7660406 4288085770
0.26672363 0.80617809 -1.7768161 4288085770
1.4793701 0.94521332 -1.7681749 4288085770
0.14276123 0.81783772 -1.7775533 4288085770
1.3013611 0.95524216 -1.76635 4288085770
0.027770996 0.82961082 -1.7792194 4288085770
1.142334 0.96652603 -1.7673595 4288085770
-0.090270996 0.84029961 -1.7779281 4288085770
0.99435425 0.97794437 -1.7692835 4288085770
0.84136963 0.98824215 -1.7672637 4288085770
0.70031738 0.99968624 -1.7661331 4288085770
0.58032227 1.0124397 -1.7698214 4288085770
0.4453125 1.022912 -1.7666624 4288085770
0.33132935 1.035697 -1.7683036 4288085770
0.22531128 1.0495834 -1.7708657 4288085770
0.103302 1.0601797 -1.7666051 4288085770
0.0072937012 1.0731745 -1.7691066 4288085770
-0.09173584 1.0860844 -1.7686322 4288085770
0.037658691 3.5403929 -1.7365186 4288085770
0.18002319 3.6190147 -1.7410586 4288085770
0.27749634 3.6709013 -1.7314041 4288085770
0.42483521 3.7485399 -1.7339227 4288085770
0.5741272 3.8271646 -1.7344081 4288085770
0.65869141 3.8657579 -1.7160814 4288085770
0.7791748 3.9238882 -1.7061422 4288085770
0.92053223 3.9913073 -1.6998818 4288085770
1.1087036 4.0843964 -1.7028186 4288085770
0.025024414 3.5213165 -1.7449129 4288085770
1.3307495 4.1949663 -1.7121923 4288085770
0.16549683 3.585866 -1.746711 4288085770
1.547821 4.2993965 -1.7167103 4288085770
0.27508545 3.6288815 -1.7371175 4288085770
1.7330322 4.3843164 -1.7118099 4288085770
0.43249512 3.699645 -1.7406781 4288085770
1.9441528 4.4795799 -1.7105315 4288085770
0.5480957 3.7427063 -1.7300379 4288085770
2.163269 4.57691 -1.7081559 4288085770
0.67764282 3.7919502 -1.721184 4288085770
2.3982849 4.6804276 -1.7065504 4288085770
0.77832031 3.822732 -1.7038701 4288085770
2.6423035 4.7870216 -1.7038224 4288085770
0.94076538 3.8864622 -1.702513 4288085770
2.9151611 4.9049902 -1.7046764 4288085770
1.1390686 3.9686785 -1.7065609 4288085770
3.1950684 5.0230017 -1.7034743 4288085770
1.3553467 4.0561352 -1.7133806 4288085770
3.5028687 5.1523418 -1.7038624 4288085770
1.5656433 4.1384783 -1.717334 4288085770
3.818634 5.2827482 -1.7031701 4288085770
1.7580261 4.2074909 -1.7136548 4288085770
4.1682739 5.426568 -1.7049854 4288085770
1.9902649 4.2950649 -1.7173493 4288085770
4.5129089 5.5632467 -1.7019622 4288085770
2.206604 4.372385 -1.7163422 4288085770
4.8855286 5.7102575 -1.7005451 4288085770
2.4359131 4.4518423 -1.7151992 4288085770
5.2810364 5.8645248 -1.699827 4288085770
2.6522522 4.5210943 -1.7103317 4288085770
5.7323303 6.04144 -1.7012866 4288085770
2.8984985 4.603714 -1.7080028 4288085770
6.1996155 6.2205038 -1.701586 4288085770
3.1567688 4.6874771 -1.7065623 4288085770
6.6738892 6.3976068 -1.6998656 4288085770
3.4389343 4.7815456 -1.7077596 4288085770
7.2049866 6.5953655 -1.700351 4288085770
3.7240906 4.8716125 -1.7070034 4288085770
7.7550049 6.7952757 -1.6976531 4288085770
4.0392456 4.9710312 -1.7078545 4288085770
8.3528442 7.0117226 -1.6963003 4288085770
4.3444214 5.0622931 -1.7059238 4288085770
8.9657593 7.2272968 -1.692847 4288085770
4.681488 5.1649275 -1.7055504 4288085770
9.5796204 7.4357758 -1.6835082 4288085770
5.0046387 5.2553434 -1.7014954 4288085770
10.377808 7.7194872 -1.6874502 4288085770
5.3955688 5.3726187 -1.7044551 4288085770
11.172119 7.9920521 -1.6856148 4288085770
5.7755737 5.4797087 -1.7036746 4288085770
12.038147 8.2873774 -1.682833 4288085770
6.173584 5.5879879 -1.7027352 4288085770
6.5726013 5.6932278 -1.6988409 4288085770
7.0344543 5.8182383 -1.7001212 4288085770
7.4933777 5.9361792 -1.6995466 4288085770
7.9732666 6.0553284 -1.6977894 4288085770
8.5010071 6.1900377 -1.6983955 4288085770
9.040802 6.3198538 -1.6979935 4288085770
9.5916138 6.4477701 -1.6965396 4288085770
10.172394 6.5779896 -1.6938164 4288085770
10.811035 6.7238731 -1.6933768 4288085770
11.41684 6.848321 -1.6885602 4288085770
12.101471 6.9926748 -1.6867936 4288085770
12.78421 7.1279583 -1.6821983 4288085770
13.561676 7.2893457 -1.6824229 4288085770
14.338318 7.4366751 -1.6798985 4288085770
14.232788 -2.8522954 -1.7724903 4288085770
13.57608 -2.8712478 -1.778868 4288085770
12.90625 -2.8784099 -1.7811401 4288085770
12.257355 -2.8803663 -1.78216 4288085770
11.655457 -2.8827906 -1.784827 4288085770
11.075592 -2.8819637 -1.7882683 4288085770
10.51059 -2.8769951 -1.7905228 4288085770
9.9595337 -2.8649163 -1.7905452 4288085770
9.4345398 -2.8545232 -1.7923973 4288085770
8.9264221 -2.8379874 -1.792012 4288085770
8.4412842 -2.8202085 -1.7914283 4288085770
8.0203552 -2.811626 -1.7975132 4288085770
7.5812378 -2.7913423 -1.7975333 4288085770
14.204773 -4.3866529 -1.8005149 4282675967
7.1762085 -2.7746439 -1.8003533 4288085770
13.228546 -4.2691689 -1.7969625 4288085770
6.7770691 -2.7539172 -1.8010576 4288085770
12.333374 -4.1578255 -1.7928951 4288085770
6.382843 -2.728158 -1.8006361 4288085770
11.546448 -4.0622287 -1.7942708 4288085770
6.0267334 -2.7069564 -1.8020017 4288085770
10.845642 -3.9796684 -1.7982142 4288085770
5.6846313 -2.6856098 -1.8032572 4288085770
10.151764 -3.8891034 -1.7979634 4288085770
5.371582 -2.6668849 -1.808336 4288085770
9.5390625 -3.8125899 -1.8023345 4288085770
5.0644226 -2.6451483 -1.8103154 4288085770
8.9683838 -3.7386317 -1.8064277 4288085770
4.7432251 -2.6165962 -1.8102844 4288085770
8.3724976 -3.6520622 -1.8034928 4288085770
4.4510498 -2.5917182 -1.811094 4288085770
7.8719482 -3.5853257 -1.8091738 4288085770
4.1548462 -2.5629187 -1.8098662 4288085770
3.8734131 -2.4952612 -1.3297594 4293729569
3.8887024 -2.5377312 -1.8124707 4288085770
3.8182068 -2.5281606 -1.3707659 4293729569
3.6245422 -2.5095572 -1.8130081 4288085770
3.7810974 -2.5667777 -1.416733 4293729569
3.3843994 -2.486074 -1.8164427 4288085770
3.7600403 -2.609211 -1.4636447 4293729569
3.1522827 -2.4625082 -1.8198149 4288085770
3.3170166 -2.5182796 -1.4444559 4293729569
2.9311829 -2.4388266 -1.8231003 4288085770
3.1049805 -2.4962921 -1.4597032 4293729569
2.7089844 -2.411171 -1.8253238 4288085770
3.1110229 -2.542367 -1.5104711 4293729569
2.4747314 -2.377749 -1.8215382 4288085770
2.9833374 -2.5432596 -1.5384724 4293729569
2.2695618 -2.350915 -1.8236458 4288085770
2.7963257 -2.5220079 -1.5535405 4293729569
2.0754089 -2.324964 -1.8256838 4288085770
2.8113708 -2.5659523 -1.6062024 4293729569
1.8852234 -2.2969699 -1.827656 4288085770
2.8243713 -2.6099191 -1.6588805 4293729569
1.6960144 -2.2680182 -1.8266027 4288085770
2.7961426 -2.6384444 -1.7046034 4293729569
1.5148621 -2.238946 -1.8274863 4288085770
2.6834412 -2.636179 -1.732435 4293729569
1.3647766 -2.2194414 -1.8342993 4288085770
2.7658386 -2.7011313 -1.8009493 4288085770
1.1785278 -2.1844931 -1.8311183 4288085770
2.6289673 -2.6882081 -1.8237793 4288085770
1.0183105 -2.1571994 -1.8318713 4288085770
2.4006042 -2.6406198 -1.825702 4288085770
0.8711853 -2.1327143 -1.8355739 4288085770
2.1872253 -2.594872 -1.8275421 4288085770
0.70394897 -2.0975642 -1.8322437 4288085770
1.9758301 -2.5481219 -1.8283484 4288085770
0.55575562 -2.068161 -1.8318675 4288085770
1.7704468 -2.5003247 -1.8280909 4288085770
0.42962646 -2.0454364 -1.8364394 4288085770
1.5870972 -2.4582415 -1.8307641 4288085770
0.28240967 -2.0130563 -1.8340037 4288085770
1.4067993 -2.4161439 -1.8324134 4288085770
0.14517212 -1.982554 -1.8325241 4288085770
1.2183533 -2.367219 -1.829005 4288085770
0.029052734 -1.9587402 -1.8359997 4288085770
1.0409546 -2.3221431 -1.8275788 4288085770
0.88873291 -2.2837291 -1.8300774 4288085770
0.73040771 -2.2424164 -1.8305714 4288085770
0.58511353 -2.2029481 -1.8319976 4288085770
0.43374634 -2.1606116 -1.8294199 4288085770
0.29946899 -2.1220255 -1.830776 4288085770
0.17724609 -2.0882783 -1.8341258 4288085770
0.051971436 -2.0506148 -1.8344295 4288085770
-0.062255859 -2.0167985 -1.8367155 4288085770
-0.053649902 0.20880699 -1.7837441 4288085770
0.058349609 0.22193623 -1.7806575 4288085770
0.18536377 0.2352767 -1.780452 4288085770
0.31930542 0.24867105 -1.7791932 4288085770
0.46432495 0.26221704 -1.7798464 4288085770
0.60830688 0.2767334 -1.7794912 4288085770
0.7572937 0.28926802 -1.7771318 4288085770
0.91629028 0.30292559 -1.775677 4288085770
-0.078887939 0.32352924 -1.7859285 4288085770
1.090271 0.31677437 -1.7761037 4288085770
0.040100098 0.33471489 -1.7818215 4288085770
1.2692566 0.33065748 -1.775492 4288085770
0.1651001 0.34596348 -1.7776678 4288085770
1.4432373 0.34340143 -1.7699378 4288085770
0.3241272 0.3577261 -1.7822464 4288085770
1.6582336 0.35671568 -1.7720611 4288085770
0.46917725 0.36923599 -1.7809355 4288085770
1.880249 0.37108517 -1.7731121 4288085770
0.61816406 0.37977076 -1.7786109 4288085770
2.1122437 0.38554001 -1.7730854 4288085770
0.78317261 0.39150763 -1.7781441 4288085770
2.3502197 0.40002489 -1.7710121 4288085770
