# .PCD v0.7 - Point Cloud Data file format
VERSION 0.7
FIELDS x y z rgb
SIZE 4 4 4 4
TYPE F F F U
COUNT 1 1 1 1
WIDTH 1120
HEIGHT 1
VIEWPOINT 0 0 0 1 0 0 0
POINTS 1120
DATA ascii
6.7651062 -4.9641123 -1.7486192 4293729569
6.7700195 -4.8477721 -1.2944429 4293729569
6.647522 -4.8468261 -1.7542711 4293729569
6.9169312 -4.8980494 -1.3516686 4293729569
6.5149536 -4.7205105 -1.7538928 4293729569
6.9850464 -4.8951578 -1.3947183 4293729569
6.3953247 -4.6012249 -1.7545445 4293729569
8.6613159 -5.895751 -1.7272174 4293729569
6.2647705 -4.4759221 -1.7491732 4293729569
8.4748535 -5.7223053 -1.727698 4293729569
6.2599792 -4.4288793 -1.7750719 4293729569
8.3213501 -5.5699339 -1.7312517 4293729569
6.2921448 -4.4039168 -1.8080481 4288085770
8.178833 -5.4235902 -1.7348295 4293729569
6.3622131 -4.4000335 -1.8501017 4288085770
7.8056946 -5.1417522 -1.690931 4293729569
6.5032043 -4.4382982 -1.9093024 4282675967
7.5064392 -4.9060793 -1.6581929 4293729569
6.4465027 -4.3551559 -1.9170862 4282675967
7.2510986 -4.7005029 -1.6315547 4293729569
6.3348999 -4.2379036 -1.9087552 4282675967
7.5518494 -4.8181219 -1.7140598 4293729569
6.2612915 -4.1437325 -1.9075047 4282675967
7.6139832 -4.79423 -1.7490704 4293729569
6.1467285 -4.0254784 -1.895171 4282675967
7.5104065 -4.6749859 -1.7477436 4293729569
6.0491333 -3.9192605 -1.8848765 4282675967
7.4437866 -4.5778241 -1.7524945 4293729569
5.9794922 -3.8271041 -1.8806373 4282675967
7.3831177 -4.482676 -1.7572565 4293729569
5.9248047 -3.7459798 -1.8794324 4282675967
7.4622498 -4.46383 -1.7892964 4288085770
5.867157 -3.6618509 -1.8752208 4288085770
7.596283 -4.4731002 -1.8334417 4288085770
5.8324585 -3.5907702 -1.877056 4288085770
7.7313538 -4.4803724 -1.8775849 4288085770
5.7877808 -3.5146704 -1.8748729 4288085770
7.8025513 -4.4515142 -1.9056 4282675967
5.7420654 -3.4395709 -1.8706915 4288085770
7.7698669 -4.3684344 -1.9094162 4282675967
5.7113647 -3.3705029 -1.8705364 4288085770
7.7122192 -4.272305 -1.9071833 4282675967
5.6976624 -3.3104706 -1.873415 4288085770
5.5267029 -3.1206579 -1.4279386 4293729569
5.6659546 -3.2424049 -1.8692613 4288085770
5.4350891 -3.0264606 -1.4126781 4293729569
5.6532288 -3.1843786 -1.8711448 4288085770
5.4313354 -2.9754496 -1.4165834 4293729569
5.6335144 -3.1213379 -1.8690135 4288085770
5.410614 -2.9164057 -1.4154576 4293729569
5.5917969 -3.0482559 -1.8588428 4288085770
5.4138489 -2.8684111 -1.4193761 4293729569
5.5042114 -2.955081 -1.8355908 4288085770
5.7056885 -2.952035 -1.4868177 4293729569
5.5383911 -2.9181566 -1.845561 4288085770
6.0135193 -3.0376911 -1.5572792 4293729569
5.6005859 -2.8942881 -1.8635824 4288085770
5.6652527 -2.8299551 -1.4795632 4293729569
5.606842 -2.8433094 -1.8635007 4288085770
5.6395569 -2.7669058 -1.4724276 4293729569
5.6190796 -2.7963419 -1.8654318 4288085770
5.7926025 -2.7802382 -1.5056065 4293729569
5.6263428 -2.7463684 -1.8643534 4288085770
5.9286804 -2.7845354 -1.5337526 4293729569
5.6335754 -2.696393 -1.8622752 4288085770
6.1496582 -2.8220158 -1.5800422 4293729569
5.6558228 -2.6524515 -1.8632231 4288085770
6.237854 -2.8022137 -1.5950981 4293729569
5.664093 -2.6034803 -1.860148 4288085770
6.3869324 -2.8045444 -1.6232548 4293729569
5.7012939 -2.5645714 -1.8641205 4288085770
6.6948242 -2.8672171 -1.6846768 4293729569
5.7155457 -2.5166168 -1.8600545 4288085770
7.6140442 -3.1561985 -1.8811107 4288085770
5.7487793 -2.4767027 -1.8610212 4288085770
7.6603088 -3.1073151 -1.8820741 4288085770
5.7740479 -2.4327717 -1.8589736 4288085770
7.7185364 -3.0624619 -1.8840573 4288085770
5.8122559 -2.3938694 -1.8599479 4288085770
7.757782 -3.0105658 -1.881009 4288085770
5.8544617 -2.3559771 -1.8599284 4288085770
7.8170471 -2.964715 -1.8809919 4288085770
5.9006653 -2.3180933 -1.8609133 4288085770
7.9012451 -2.9269199 -1.8860143 4288085770
5.9469299 -2.2812099 -1.8618999 4288085770
7.9615173 -2.8800764 -1.8829973 4288085770
6.0011292 -2.2463465 -1.8628982 4288085770
8.0307312 -2.8362494 -1.8829944 4288085770
6.0573425 -2.2104893 -1.8628976 4288085770
8.1079712 -2.7934446 -1.8820021 4288085770
6.1335449 -2.1806726 -1.8679276 4288085770
8.1851807 -2.7506418 -1.8800099 4288085770
6.1807861 -2.141799 -1.8639127 4288085770
8.2884216 -2.7148972 -1.8810563 4288085770
6.2519836 -2.1099749 -1.8659343 4288085770
8.3836365 -2.6771345 -1.8810906 4288085770
6.3311462 -2.0791693 -1.8689662 4288085770
8.5018616 -2.6424246 -1.8831552 4288085770
6.4033813 -2.0463524 -1.8679875 4288085770
8.6000977 -2.6026745 -1.8801901 4288085770
6.5025635 -2.0195913 -1.8740469 4288085770
8.7163086 -2.5659628 -1.8792492 4288085770
6.5827942 -1.9877911 -1.8740785 4288085770
8.8475342 -2.5322866 -1.8803293 4288085770
6.6739807 -1.9570198 -1.8741236 4288085770
8.9907532 -2.500639 -1.8814247 4288085770
6.7651672 -1.9262466 -1.8741683 4288085770
9.1209412 -2.4639664 -1.8784987 4288085770
6.865387 -1.8964939 -1.8752242 4288085770
9.2771606 -2.4333506 -1.8796092 4288085770
6.9675903 -1.8657484 -1.8752809 4288085770
9.4553528 -2.4057865 -1.8817477 4288085770
7.0718079 -1.8350067 -1.8753396 4288085770
9.6685181 -2.3843031 -1.8889326 4288085770
7.1800232 -1.8042784 -1.8734026 4288085770
9.8727112 -2.3588018 -1.8921015 4288085770
7.2862244 -1.7725458 -1.8704617 4288085770
10.053925 -2.326251 -1.889235 4288085770
7.4064026 -1.7428455 -1.8695387 4288085770
10.253143 -2.2947445 -1.8873895 4288085770
7.5256348 -1.7111454 -1.8666117 4288085770
10.459351 -2.2642555 -1.8845522 4288085770
7.6618347 -1.6824837 -1.8657072 4288085770
10.711517 -2.239872 -1.8867729 4288085770
7.8260193 -1.6578836 -1.8698382 4288085770
10.996704 -2.2195654 -1.8920341 4288085770
7.9902039 -1.6312866 -1.8709662 4288085770
11.293915 -2.1972923 -1.8953049 4288085770
8.1534119 -1.6026907 -1.87009 4288085770
11.598083 -2.1740351 -1.8975811 4288085770
8.3426208 -1.5781536 -1.8732469 4288085770
11.909302 -2.1507978 -1.8978636 4288085770
8.494812 -1.5465364 -1.8673537 4288085770
12.234467 -2.125596 -1.897158 4288085770
8.7109985 -1.5220642 -1.8715395 4288085770
12.598633 -2.103487 -1.8974984 4288085770
8.9172058 -1.4945698 -1.8717093 4288085770
13.001831 -2.0834732 -1.8998815 4288085770
9.1373901 -1.4681129 -1.8718951 4288085770
13.45401 -2.0675726 -1.9063214 4288085770
9.3895874 -1.4437284 -1.8751172 4288085770
13.896179 -2.0446558 -1.9047399 4288085770
9.6357727 -1.4163342 -1.8743283 4288085770
14.460327 -2.0340252 -1.914304 4288085770
9.8979797 -1.388979 -1.8745557 4288085770
14.988495 -2.0133162 -1.9138143 4288085770
10.204163 -1.3647251 -1.8788335 4288085770
15.623657 -2.0008621 -1.9204481 4288085770
10.500366 -1.3364525 -1.8780946 4288085770
16.273834 -1.9854469 -1.9240916 4288085770
10.792572 -1.3051758 -1.8733464 4288085770
17.030975 -1.9742708 -1.9308555 4288085770
11.191742 -1.2821255 -1.8817258 4288085770
17.857147 -1.9632826 -1.9356899 4288085770
11.582977 -1.2560797 -1.8850892 4288085770
18.832275 -1.95965 -1.9486892 4288085770
11.998169 -1.228096 -1.8864745 4288085770
12.434357 -1.1991625 -1.8868794 4288085770
12.92157 -1.1713524 -1.8893385 4288085770
13.433777 -1.1406059 -1.8898187 4288085770
14.003967 -1.1099987 -1.8923588 4288085770
14.633179 -1.0795336 -1.8949614 4288085770
15.357361 -1.0492964 -1.9016601 4288085770
16.153564 -1.0172338 -1.9084299 4288085770
17.026764 -0.98336029 -1.9142754 4288085770
17.993988 -0.94771767 -1.9212141 4288085770
19.10321 -0.91041756 -1.929296 4288085770
18.93338 2.3218517 -1.8771787 4288085770
18.406677 2.3921509 -1.8718965 4288085770
17.909973 2.4603777 -1.8656309 4288085770
17.46228 2.5294809 -1.8603898 4288085770
17.105621 2.605361 -1.861191 4288085770
16.704895 2.6713495 -1.8549759 4288085770
16.326202 2.7342825 -1.8477744 4288085770
16.038513 2.807991 -1.8486123 4288085770
15.745789 2.8767109 -1.8444507 4288085770
15.506134 2.9533005 -1.8463126 4288085770
15.212402 3.0170221 -1.8381547 4288085770
15.025757 3.0964813 -1.8410423 4288085770
14.831055 3.1729584 -1.8409283 4288085770
14.680389 3.257328 -1.8438336 4288085770
14.49472 3.3297815 -1.8407267 4288085770
14.338043 3.4081659 -1.8396324 4288085770
14.196381 3.4875116 -1.8375459 4288085770
14.072723 3.5688133 -1.8374677 4288085770
13.947021 3.6481199 -1.8343899 4288085770
13.852386 3.7343493 -1.8343254 4288085770
13.736725 3.815629 -1.8302536 4288085770
13.660065 3.9058142 -1.8291979 4288085770
13.564423 3.9900455 -1.8241363 4288085770
13.51178 4.0831699 -1.8220921 4288085770
13.499176 4.1881971 -1.8250637 4288085770
13.460541 4.2852869 -1.8230264 4288085770
13.44693 4.3903131 -1.822999 4288085770
13.483368 4.511219 -1.8269908 4288085770
13.491791 4.6231918 -1.8259733 4288085770
13.502167 4.7371597 -1.8249568 4288085770
13.596649 4.8789215 -1.8319719 4288085770
13.634094 5.0038204 -1.8299664 4288085770
13.676575 5.1297112 -1.8279637 4288085770
13.787048 5.2824306 -1.831986 4288085770
13.867554 5.4242249 -1.8309978 4288085770
13.979034 5.5799427 -1.8310214 4288085770
14.119598 5.7475872 -1.8340555 4288085770
14.296204 5.9311409 -1.8381031 4288085770
14.45578 6.1127377 -1.8391447 4288085770
14.662415 6.3142204 -1.8432035 4288085770
14.845001 6.5067635 -1.8412544 4288085770
15.091705 6.7311401 -1.8463277 4288085770
15.235291 6.9147758 -1.8343655 4288085770
15.580109 7.1889153 -1.8444736 4288085770
15.947937 7.4779949 -1.8525897 4288085770
16.313812 7.77108 -1.8567055 4288085770
19.369293 -0.49977303 -1.919247 4288085770
17.883423 -0.50604343 -1.9020883 4288085770
16.633545 -0.51091003 -1.8919547 4288085770
15.560638 -0.5152216 -1.88484 4288085770
14.582764 -0.51677036 -1.8767376 4288085770
13.714874 -0.51659679 -1.8696482 4288085770
12.953003 -0.51568985 -1.8655702 4288085770
12.261139 -0.51395798 -1.8625005 4288085770
18.528595 -0.77170753 -1.9068496 4288085770
11.597321 -0.50929356 -1.8534364 4288085770
17.163788 -0.74528408 -1.8947339 4288085770
11.01944 -0.50584698 -1.84938 4288085770
15.997986 -0.72236156 -1.8866352 4288085770
10.517578 -0.50259399 -1.8493309 4288085770
14.926147 -0.69867229 -1.8745477 4288085770
10.024719 -0.49736214 -1.8452851 4288085770
14.014343 -0.67838669 -1.867473 4288085770
9.5978394 -0.49329758 -1.8472447 4288085770
13.191498 -0.6583252 -1.8624073 4288085770
9.1700134 -0.48622704 -1.8422073 4288085770
12.466675 -0.64051056 -1.8583496 4288085770
8.7971497 -0.48029613 -1.8421743 4288085770
11.812866 -0.62287426 -1.8552992 4288085770
8.4253235 -0.47236633 -1.8371435 4288085770
11.235046 -0.60643005 -1.855255 4288085770
8.1124268 -0.46658897 -1.8401166 4288085770
10.675201 -0.5890274 -1.8502142 4288085770
7.7886047 -0.45877838 -1.836091 4288085770
10.187378 -0.57280922 -1.8491791 4288085770
7.5157471 -0.45110035 -1.8380697 4288085770
9.7215576 -0.55664253 -1.845147 4288085770
7.2588806 -0.44446278 -1.8410497 4288085770
9.2937317 -0.54057407 -1.8431184 4288085770
6.9810486 -0.43476677 -1.8350307 4288085770
8.8988953 -0.52558708 -1.8400928 4288085770
6.7351685 -0.42615414 -1.833014 4288085770
8.5360413 -0.50968075 -1.8390706 4288085770
6.5073547 -0.41758823 -1.832999 4288085770
8.2142029 -0.49587917 -1.8400507 4288085770
6.2664795 -0.40698433 -1.8259852 4288085770
7.9083557 -0.48211765 -1.8410327 4288085770
6.0606079 -0.39747238 -1.8239735 4288085770
7.5875244 -0.46631432 -1.835016 4288085770
5.8577881 -0.38796616 -1.8209627 4288085770
7.3237 -0.4526577 -1.8360022 4288085770
5.6629333 -0.37748051 -1.8179532 4288085770
7.0538635 -0.43698406 -1.8319902 4288085770
5.4971008 -0.36806965 -1.8189455 4288085770
6.8070374 -0.4233675 -1.8299787 4288085770
5.3192444 -0.35862637 -1.8149375 4288085770
6.571167 -0.40877819 -1.8269694 4288085770
5.1584167 -0.34822559 -1.8129318 4288085770
6.3583374 -0.39525032 -1.826961 4288085770
5.0025635 -0.33783913 -1.8109267 4288085770
6.1435242 -0.38071251 -1.8229541 4288085770
4.8647156 -0.32849693 -1.8109221 4288085770
5.9276733 -0.36517239 -1.8169484 4288085770
4.7258911 -0.31815338 -1.8109188 4288085770
5.7388611 -0.35170174 -1.8139434 4288085770
4.5840454 -0.30679893 -1.8059163 4288085770
5.5760193 -0.33929825 -1.8159393 4288085770
5.3891907 -0.3238306 -1.8089367 4288085770
5.2443237 -0.31147385 -1.8119345 4288085770
5.0874939 -0.29708099 -1.8079336 4288085770
4.9346619 -0.28370094 -1.8039328 4288085770
4.8018188 -0.27037239 -1.8039331 4288085770
4.6749878 -0.25705719 -1.8029343 4288085770
4.5461426 -0.24373722 -1.8009357 4288085770
4.6124878 1.7825575 -1.755 4288085770
4.7556763 1.8141851 -1.7600297 4288085770
4.8908691 1.8428364 -1.7620567 4288085770
5.0400696 1.8734493 -1.7660847 4288085770
5.1762695 1.8981018 -1.7641072 4288085770
5.3234863 1.925725 -1.764132 4288085770
5.4896545 1.956296 -1.7681584 4288085770
4.5180664 1.6927557 -1.7599543 4288085770
5.6608887 1.9878569 -1.7701855 4288085770
4.6522522 1.7154074 -1.7629744 4288085770
5.848114 2.0223694 -1.7762141 4288085770
4.7734375 1.7310991 -1.7619879 4288085770
6.0372925 2.054883 -1.7792405 4288085770
4.9116211 1.7517414 -1.7640053 4288085770
6.2605286 2.0953016 -1.7892725 4288085770
5.0557861 1.7723694 -1.766022 4288085770
6.4247131 2.116889 -1.7822887 4288085770
5.1979675 1.7900028 -1.7670355 4288085770
6.6159363 2.1444035 -1.7793088 4288085770
5.3561707 1.811595 -1.7700518 4288085770
6.8381348 2.1778345 -1.7823328 4288085770
5.5243225 1.8331585 -1.7750671 4288085770
7.0693359 2.2122402 -1.7843568 4288085770
5.6594849 1.8448191 -1.7690741 4288085770
7.3005676 2.2436504 -1.7843773 4288085770
5.8796997 1.8782377 -1.7850977 4288085770
7.5517883 2.277009 -1.785398 4288085770
6.0698547 1.8997478 -1.7891104 4288085770
7.8099976 2.311348 -1.7874188 4288085770
6.2550659 1.9192696 -1.7921212 4288085770
8.0751953 2.3436728 -1.7864366 4288085770
6.4151917 1.9288673 -1.7851228 4288085770
8.3804626 2.3838892 -1.7914594 4288085770
6.6013794 1.9443922 -1.7841283 4288085770
8.6726685 2.4161453 -1.7894739 4288085770
6.805542 1.9608688 -1.7851332 4288085770
8.9918823 2.4533319 -1.7904915 4288085770
7.0137329 1.9763374 -1.7851361 4288085770
9.3311157 2.4904661 -1.7925065 4288085770
7.230896 1.9927807 -1.786139 4288085770
9.7033691 2.5325127 -1.7965236 4288085770
7.4610596 2.0081921 -1.7871393 4288085770
10.081573 2.5715494 -1.7975363 4288085770
7.6952209 2.0235939 -1.7871388 4288085770
10.482819 2.6115255 -1.7995471 4288085770
7.9554138 2.0399265 -1.7901365 4288085770
10.921051 2.6554079 -1.8025587 4288085770
8.2065735 2.0522852 -1.7901299 4288085770
11.375275 2.6972494 -1.8045657 4288085770
8.4957581 2.0705414 -1.7941262 4288085770
11.872498 2.7449808 -1.8085747 4288085770
8.8059387 2.0897465 -1.8001212 4288085770
12.405762 2.7926188 -1.8125793 4288085770
9.085083 2.0980339 -1.7981058 4288085770
13.000031 2.8461008 -1.8195838 4288085770
9.4122314 2.1121969 -1.8010921 4288085770
13.601288 2.8955688 -1.8225821 4288085770
9.7354126 2.1223726 -1.8010736 4288085770
14.30658 2.9577637 -1.833584 4288085770
10.103577 2.1374273 -1.8070555 4288085770
14.998871 3.0100002 -1.8365744 4288085770
10.483734 2.1504526 -1.8120331 4288085770
15.795135 3.0719652 -1.8455644 4288085770
10.862885 2.1584854 -1.8130044 4288085770
16.705444 3.1466379 -1.8595563 4288085770
11.272034 2.1664391 -1.8159716 4288085770
17.645782 3.2132378 -1.8685341 4288085770
11.693176 2.1723642 -1.8179343 4288085770
18.6651 3.2826385 -1.8775053 4288085770
12.145325 2.1772099 -1.8208917 4288085770
12.63147 2.1829662 -1.8248456 4288085770
13.133606 2.1846838 -1.8277919 4288085770
13.643707 2.1803856 -1.827729 4288085770
14.237885 2.1818647 -1.8346626 4288085770
14.824982 2.1773672 -1.8375888 4288085770
15.47113 2.1727161 -1.8435068 4288085770
16.1492 2.1619864 -1.8474121 4288085770
16.882294 2.1511126 -1.8543098 4288085770
17.690399 2.1380463 -1.8631945 4288085770
18.525482 2.119916 -1.8690678 4288085770
19.440582 2.0975761 -1.8789248 4288085770
18.501831 -5.8419681 -0.12917113 4293729569
12.863281 -5.6342273 -0.51305604 4293729569
12.95108 -5.7715225 -0.55780494 4293729569
13.882904 -6.2750268 -0.63983738 4293729569
13.936707 -6.4052439 -0.68959934 4293729569
13.887634 -6.4901943 -0.73644894 4293729569
11.613953 -5.5472736 -0.0073068142 4293729569
11.584137 -5.5502133 -0.66329706 4293729569
11.555969 -5.6091914 -0.049198031 4293729569
11.530151 -5.6131406 -0.70318592 4293729569
10.652985 -5.3729653 -0.73867553 4293729569
10.593018 -5.4238796 -0.77958506 4293729569
10.457092 -5.4375949 -0.81656677 4293729569
10.47699 -5.5257239 -0.86440271 4293729569
9.4133301 -5.0669541 -0.82630169 4293729569
9.3742981 -5.1169229 -0.8672111 4293729569
9.346283 -5.1719236 -0.91110939 4293729569
9.3372803 -5.2339768 -0.95699245 4293729569
9.3122559 -5.2879896 -1.0028911 4293729569
9.1813965 -5.2827153 -1.0379038 4293729569
8.9617004 -5.2271981 -1.063014 4293729569
8.8228455 -5.2129006 -1.0960433 4293729569
8.8847656 -5.3061552 -1.153862 4293729569
9.3201599 -5.6104412 -1.2602689 4293729569
9.1183472 -5.5130792 -0.73145282 4293729569
9.3850098 -5.7086983 -1.3240807 4293729569
9.0554199 -5.5339828 -0.77941626 4293729569
9.3560181 -5.7527118 -1.3759972 4293729569
9.0154724 -5.5649624 -0.82935661 4293729569
9.2651672 -5.7585554 -1.4209874 4293729569
9.1502991 -5.6954145 -0.89510185 4293729569
9.2501526 -5.8056121 -1.4768959 4293729569
9.1842346 -5.7665973 -0.95296192 4293729569
9.427887 -5.9662061 -1.5615823 4293729569
9.3240356 -5.8990698 -1.0237011 4293729569
9.4618835 -6.0404034 -1.627436 4293729569
9.4658508 -6.0325508 -1.0954373 4293729569
7.3659973 -4.8335958 -1.3437945 4293729569
9.414917 -6.0495133 -1.1504006 4293729569
7.1603394 -4.7490969 -1.357959 4293729569
7.4689026 -4.9192672 -0.97861236 4293729569
7.4549255 -4.9680166 -1.458529 4293729569
7.4589539 -4.9483218 -1.0265521 4293729569
7.26828 -4.891571 -1.4756763 4293729569
7.1644592 -4.8015914 -1.0378363 4293729569
8.317688 -5.5796676 -1.7273241 4293729569
7.2184143 -4.8668227 -1.0937043 4293729569
8.0481567 -5.4499917 -1.7325737 4293729569
7.2734375 -4.9300585 -1.1505747 4293729569
7.7486572 -5.2982249 -1.7288668 4293729569
7.3144226 -4.9842587 -1.2064626 4293729569
7.1097107 -4.9264693 -1.6505923 4293729569
7.2945251 -4.9982872 -1.2534285 4293729569
6.9051208 -4.8259649 -1.6587851 4293729569
9.9144897 -6.6757636 -1.7271098 4293729569
6.973053 -4.8972511 -1.7246392 4293729569
9.49823 -6.4426999 -1.7245587 4293729569
6.7015991 -4.7475448 -1.7139281 4293729569
9.1239014 -6.2317495 -1.7249644 4293729569
6.6257935 -4.7214088 -1.7459731 4293729569
7.0013123 -4.8998017 -1.4045923 4293729569
6.413208 -4.603869 -1.7451984 4293729569
6.9854431 -4.9068422 -1.4515693 4293729569
6.2735291 -4.5315404 -1.7593343 4293729569
6.1578064 -4.4722795 -1.7774441 4288085770
7.3750305 -5.1851411 -1.6289948 4293729569
6.0610657 -4.4230742 -1.7995337 4288085770
7.2003784 -5.0837269 -1.6451851 4293729569
6.0541687 -4.4321361 -1.8445075 4288085770
7.0317993 -4.9843235 -1.6593717 4293729569
6.0183105 -4.4181094 -1.8805263 4282675967
7.0518799 -5.0034695 -1.713321 4293729569
5.8427124 -4.3106585 -1.8757311 4288085770
6.7564392 -4.8166881 -1.6946822 4293729569
5.7140808 -4.2323465 -1.8828778 4282675967
6.6617432 -4.7574944 -1.7207878 4293729569
5.543457 -4.1239018 -1.875085 4288085770
6.5770264 -4.7033248 -1.7458832 4293729569
5.4407654 -4.0586634 -1.8862056 4282675967
6.3675232 -4.5657845 -1.7401464 4293729569
5.2961731 -3.9632921 -1.8823864 4282675967
6.2368774 -4.4774737 -1.7513106 4293729569
5.1375122 -3.8578734 -1.8715885 4288085770
6.1820679 -4.4373856 -1.7793776 4288085770
5.000885 -3.7645192 -1.8657658 4288085770
6.1403198 -4.4033351 -1.8094319 4288085770
4.8822327 -3.6812158 -1.8629231 4288085770
6.161438 -4.4084702 -1.8544062 4288085770
4.7765503 -3.6059508 -1.8630645 4288085770
6.1256714 -4.3734365 -1.8854612 4282675967
4.6668701 -3.5266681 -1.8592143 4288085770
5.9710999 -4.2620406 -1.8816726 4282675967
4.5612183 -3.4483986 -1.856362 4288085770
5.8444519 -4.1667213 -1.8818512 4282675967
4.4725037 -3.3801756 -1.8564897 4288085770
5.7288208 -4.077436 -1.8850179 4282675967
5.591217 -3.9730773 -1.878216 4282675967
5.4455872 -3.8616929 -1.8684287 4288085770
5.3259888 -3.7673807 -1.8616073 4288085770
5.2253113 -3.6831269 -1.8607653 4288085770
5.1296387 -3.6018829 -1.8589174 4288085770
5.0439453 -3.5256691 -1.8590591 4288085770
4.9622803 -3.4514618 -1.8571969 4288085770
4.8796082 -3.3762527 -1.8553375 4288085770
4.8109131 -3.3090811 -1.8554614 4288085770
4.7721558 -3.2580032 -1.8645512 4288085770
4.7024536 -3.1898212 -1.860678 4288085770
4.6387634 -3.123661 -1.8588005 4288085770
4.585022 -3.0625267 -1.8579124 4288085770
4.5223389 -2.9963636 -1.8540356 4288085770
4.4815979 -2.9422665 -1.8551333 4288085770
4.4960022 -1.6944246 -1.8422441 4288085770
4.5212097 -1.6644812 -1.8362917 4288085770
4.5584106 -1.637578 -1.8343308 4288085770
4.5936279 -1.6106644 -1.8303704 4288085770
4.6477966 -1.588809 -1.8313965 4288085770
4.7089844 -1.5689764 -1.8354168 4288085770
4.7651367 -1.5461245 -1.8354442 4288085770
4.8193665 -1.5232658 -1.8344724 4288085770
4.8885193 -1.5034504 -1.836491 4288085770
4.9436951 -1.4795904 -1.8335209 4288085770
5.0089111 -1.4577599 -1.8325446 4288085770
5.0760803 -1.4359341 -1.8315678 4288085770
5.1602478 -1.4181576 -1.8345793 4288085770
5.2264099 -1.3953247 -1.830605 4288085770
5.3036194 -1.3745232 -1.8296242 4288085770
5.4017944 -1.3577862 -1.8336303 4288085770
5.4949646 -1.3390312 -1.8346418 4288085770
5.5971375 -1.322299 -1.836647 4288085770
4.4888306 -1.0794497 -1.8253853 4288085770
5.702301 -1.3055763 -1.8386518 4288085770
4.5660095 -1.0616522 -1.8254002 4288085770
5.7955017 -1.2848129 -1.835667 4288085770
4.6381531 -1.0428352 -1.8234181 4288085770
5.9166565 -1.2681332 -1.8386678 4288085770
4.7163391 -1.0240364 -1.8214349 4288085770
6.0288391 -1.2504215 -1.8376727 4288085770
4.8015137 -1.0072584 -1.8214458 4288085770
6.1560059 -1.2337532 -1.8386718 4288085770
4.8927002 -0.99049759 -1.8224554 4288085770
6.3031921 -1.2201424 -1.8436601 4288085770
4.9928284 -0.97476196 -1.8244607 4288085770
6.432373 -1.2024775 -1.8436606 4288085770
5.0820312 -0.95598793 -1.8214748 4288085770
6.5855408 -1.1888781 -1.8466473 4288085770
5.1882019 -0.94026566 -1.8224787 4288085770
6.718689 -1.1702156 -1.8426489 4288085770
5.3043823 -0.92557049 -1.825478 4288085770
6.8868713 -1.1556549 -1.8456335 4288085770
5.4145508 -0.90885544 -1.8244828 4288085770
7.0620117 -1.1411104 -1.8476167 4288085770
5.521698 -0.89113045 -1.8224905 4288085770
7.2421875 -1.125577 -1.8486001 4288085770
5.6568604 -0.87648582 -1.825485 4288085770
7.4373474 -1.1120834 -1.8505759 4288085770
5.8410645 -0.86798954 -1.8404552 4288085770
7.621521 -1.0945549 -1.8485622 4288085770
5.9411926 -0.84722996 -1.8304704 4288085770
7.8377075 -1.0811129 -1.8495326 4288085770
6.1234131 -0.83672047 -1.8404449 4288085770
8.0538635 -1.06567 -1.8495067 4288085770
6.2305298 -0.81497574 -1.8294604 4288085770
8.2750549 -1.0502329 -1.8464794 4288085770
6.4267273 -0.80450058 -1.8394312 4288085770
8.5302124 -1.0368929 -1.8484393 4288085770
6.6249084 -0.79202557 -1.8464054 4288085770
8.806366 -1.0236044 -1.8493938 4288085770
6.7990417 -0.77547264 -1.8453937 4288085770
9.0965271 -1.0103512 -1.8503443 4288085770
6.9702148 -0.75790405 -1.8403845 4288085770
9.410675 -0.99716282 -1.8522887 4288085770
7.1853943 -0.74446583 -1.8443561 4288085770
9.7448425 -0.98502159 -1.8532255 4288085770
7.3955688 -0.72900772 -1.8443327 4288085770
10.108002 -0.97295856 -1.8551545 4288085770
7.6077271 -0.7125473 -1.8413109 4288085770
10.489166 -0.96093845 -1.8560787 4288085770
7.855896 -0.69819355 -1.8452756 4288085770
10.868347 -0.94690228 -1.8520073 4288085770
8.1010742 -0.68181896 -1.843245 4288085770
11.38446 -0.94024849 -1.8628857 4288085770
8.3652344 -0.66649723 -1.8422072 4288085770
11.834625 -0.9253912 -1.857797 4288085770
8.6643982 -0.65227032 -1.8441581 4288085770
12.368805 -0.91576385 -1.859676 4288085770
8.9795837 -0.63708305 -1.8461068 4288085770
13.004944 -0.90841103 -1.8685238 4288085770
9.3257446 -0.62197781 -1.8490469 4288085770
13.672089 -0.90012646 -1.872365 4288085770
9.6618958 -0.60583401 -1.8459917 4288085770
14.387238 -0.89096165 -1.8741952 4288085770
10.079041 -0.59191608 -1.8519108 4288085770
15.219421 -0.88410378 -1.8809898 4288085770
10.495239 -0.57598305 -1.8518342 4288085770
16.145538 -0.87848759 -1.8867568 4288085770
10.912415 -0.55904484 -1.8477589 4288085770
17.174713 -0.87313271 -1.8934958 4288085770
11.449554 -0.54543591 -1.8546457 4288085770
18.382843 -0.87024307 -1.903183 4288085770
12.023712 -0.53091812 -1.8605241 4288085770
12.601898 -0.51239491 -1.8584092 4288085770
13.300079 -0.49719524 -1.8642559 4288085770
14.057281 -0.48114491 -1.8700885 4288085770
14.91745 -0.46435833 -1.8758949 4288085770
15.907623 -0.44791317 -1.8856659 4288085770
17.051758 -0.4318676 -1.8993951 4288085770
18.325928 -0.41414928 -1.9100925 4288085770
18.068787 -0.10075283 -1.9014648 4288085770
16.751923 -0.094338417 -1.8922107 4288085770
15.628082 -0.086423874 -1.884856 4288085770
14.626221 -0.078829765 -1.8784339 4288085770
13.727356 -0.070495605 -1.8709586 4288085770
12.928497 -0.062421799 -1.8644283 4288085770
12.196625 -0.053517342 -1.856864 4288085770
18.428711 -0.068694115 -1.8992448 4288085770
11.552795 -0.044850349 -1.8522506 4288085770
17.059875 -0.052138329 -1.8880662 4288085770
10.93396 -0.035226822 -1.8426278 4288085770
15.916046 -0.037182808 -1.8827566 4288085770
10.45108 -0.027005196 -1.8469237 4288085770
14.828217 -0.021342278 -1.8694208 4288085770
9.9712219 -0.01776123 -1.8432226 4288085770
13.936371 -0.0070362091 -1.8649695 4288085770
9.5164185 -0.0075826645 -1.8395116 4288085770
13.11853 0.0070829391 -1.8594773 4288085770
9.1005554 0.001496315 -1.8357756 4288085770
12.378693 0.020011902 -1.850938 4288085770
8.7446899 0.011404037 -1.8370087 4288085770
11.719849 0.033721924 -1.8453562 4288085770
8.3838806 0.021341324 -1.8332459 4288085770
11.161987 0.0461483 -1.8467132 4288085770
8.0540161 0.030195236 -1.8304621 4288085770
10.630157 0.05952549 -1.8430598 4288085770
7.7591553 0.039949417 -1.830662 4288085770
10.145325 0.072775841 -1.8403798 4288085770
7.4723206 0.050689697 -1.8288615 4288085770
9.6914673 0.084954262 -1.8366792 4288085770
7.227478 0.060307503 -1.8310332 4288085770
9.2886353 0.097991943 -1.8349531 4288085770
6.9856262 0.070925713 -1.8312073 4288085770
8.9017944 0.11099625 -1.8312185 4288085770
6.7387695 0.080574036 -1.8263817 4288085770
8.5569458 0.1228857 -1.8294562 4288085770
6.5169373 0.091147423 -1.8245455 4288085770
8.2441101 0.13568306 -1.8306797 4288085770
6.3131104 0.1016674 -1.8246989 4288085770
7.9363098 0.14748001 -1.8278971 4288085770
6.1062622 0.11220932 -1.8208544 4288085770
7.6584473 0.16019344 -1.8271008 4288085770
5.9043579 0.12274551 -1.8150079 4288085770
7.4085999 0.17282581 -1.8292885 4288085770
5.7295227 0.13319397 -1.8141454 4288085770
7.1427612 0.18452454 -1.8234829 4288085770
5.5497131 0.14367008 -1.8092865 4288085770
6.9099121 0.19712353 -1.8226615 4288085770
5.4058533 0.15502453 -1.8124099 4288085770
6.6870728 0.20969963 -1.8208348 4288085770
5.2309875 0.16549778 -1.8045489 4288085770
6.4732056 0.22225475 -1.8180033 4288085770
5.0781555 0.17590046 -1.8006752 4288085770
6.2914124 0.23471165 -1.8201528 4288085770
4.9403381 0.18725586 -1.7997961 4288085770
6.0925293 0.2462368 -1.8153099 4288085770
4.8215027 0.19854832 -1.8019058 4288085770
5.9076843 0.25872135 -1.8114622 4288085770
4.692627 0.20888805 -1.7990184 4288085770
5.7328796 0.27018166 -1.8076057 4288085770
4.5737915 0.22019196 -1.798129 4288085770
5.5600281 0.28264236 -1.8017519 4288085770
5.4161987 0.29500484 -1.8028808 4288085770
5.2653503 0.30640602 -1.7980107 4288085770
5.1254883 0.31876945 -1.796138 4288085770
4.9966431 0.33110332 -1.7942588 4288085770
4.8668213 0.34344387 -1.7913806 4288085770
4.76297 0.35669994 -1.7934903 4288085770
4.6461487 0.36900711 -1.7906048 4288085770
4.5403137 0.38127422 -1.7907128 4288085770
4.4953918 2.5432158 -1.7459439 4288085770
4.6176453 2.5908871 -1.7490408 4288085770
4.743927 2.6395464 -1.7521389 4288085770
4.8551331 2.6782732 -1.7482097 4288085770
4.9783936 2.7219572 -1.7472905 4288085770
5.1036377 2.7656393 -1.7453698 4288085770
5.2579041 2.8202248 -1.7494692 4288085770
5.3991394 2.8678627 -1.7485516 4288085770
5.5484009 2.9164782 -1.7476315 4288085770
4.549408 2.4990377 -1.747777 4288085770
5.6986389 2.964097 -1.7457068 4288085770
4.6796265 2.5386896 -1.7508367 4288085770
5.8809204 3.0246067 -1.7508075 4288085770
4.8128662 2.578331 -1.7538941 4288085770
6.0351868 3.0702267 -1.7458717 4288085770
4.9520874 2.6199541 -1.7579544 4288085770
6.2384644 3.1346731 -1.7529714 4288085770
5.0643005 2.6466866 -1.7519774 4288085770
6.5529175 3.2477436 -1.7841749 4288085770
5.2145081 2.6882811 -1.756029 4288085770
6.7712402 3.3131676 -1.7872667 4288085770
5.3537598 2.7229233 -1.755062 4288085770
6.9804993 3.3726225 -1.7883422 4288085770
5.5049744 2.761529 -1.756101 4288085770
7.1847534 3.4281101 -1.7844057 4288085770
5.6782227 2.8070593 -1.7611498 4288085770
7.3479614 3.4617453 -1.7694156 4288085770
5.8044128 2.8307676 -1.7521496 4288085770
7.5482178 3.5102587 -1.7614547 4288085770
5.963623 2.8663597 -1.7511704 4288085770
7.8475647 3.5974436 -1.772568 4288085770
6.1138306 2.8959894 -1.7461745 4288085770
8.1779785 3.6925411 -1.7856879 4288085770
6.302063 2.9384909 -1.7491992 4288085770
8.4803162 3.7727432 -1.7907711 4288085770
6.5343628 2.9968443 -1.7612516 4288085770
8.7996521 3.8559036 -1.7948524 4288085770
6.8477478 3.0859241 -1.7903609 4288085770
9.1159973 3.9330816 -1.7969123 4288085770
7.0359497 3.1204491 -1.787354 4288085770
9.4493408 4.0142174 -1.7979741 4288085770
7.1690979 3.1301699 -1.7702922 4288085770
9.7976685 4.0963154 -1.7990277 4288085770
7.3282471 3.1488047 -1.7582451 4288085770
10.16803 4.1813526 -1.8010752 4288085770
7.5654907 3.1941795 -1.7612414 4288085770
10.575378 4.2772865 -1.806136 4288085770
7.8267517 3.246479 -1.7682458 4288085770
11.002777 4.3741732 -1.8091847 4288085770
8.1190796 3.305685 -1.7782527 4288085770
11.471191 4.4799404 -1.8162354 4288085770
8.3913574 3.3539648 -1.7832322 4288085770
11.963623 4.5896492 -1.8222824 4288085770
8.6916199 3.4091625 -1.7902163 4288085770
12.445007 4.6894054 -1.8232982 4288085770
8.9848633 3.457387 -1.7951783 4288085770
13.045471 4.8228168 -1.8353522 4288085770
9.2810974 3.5026159 -1.7971258 4288085770
13.624908 4.9423065 -1.8403673 4288085770
9.6013794 3.551774 -1.8010691 4288085770
14.221375 5.0597591 -1.8433599 4288085770
9.9406433 3.6038761 -1.8070086 4288085770
14.878815 5.1900482 -1.8493545 4288085770
10.2789 3.651989 -1.8109326 4288085770
15.58432 5.3262024 -1.8563331 4288085770
10.615112 3.6921425 -1.8108368 4288085770
16.338806 5.4712582 -1.8633158 4288085770
10.998413 3.7441339 -1.8167372 4288085770
17.171326 5.6270905 -1.8712655 4288085770
11.380676 3.7901392 -1.8196136 4288085770
18.119965 5.8085938 -1.8862231 4288085770
11.764893 3.8311424 -1.8214679 4288085770
19.011505 5.9632931 -1.8891181 4288085770
12.182159 3.879055 -1.8253224 4288085770
12.597382 3.9179831 -1.826142 4288085770
13.041626 3.9598303 -1.8289491 4288085770
13.504852 4.0006266 -1.8317357 4288085770
14.006104 4.0453243 -1.8355061 4288085770
14.553345 4.0968847 -1.8442653 4288085770
15.105591 4.1414433 -1.8499918 4288085770
15.62381 4.1711102 -1.849685 4288085770
16.266113 4.2234182 -1.8603666 4288085770
16.884369 4.2618093 -1.8660107 4288085770
17.545593 4.302084 -1.8726261 4288085770
18.266815 4.3441935 -1.8821982 4288085770
18.987061 4.3773165 -1.8897333 4288085770
19.345276 -5.4536581 -1.8433876 4293729569
18.685516 -5.4029808 -1.8451674 4293729569
18.052765 -5.351377 -1.8479283 4293729569
17.174225 -5.2180252 -1.8222617 4293729569
16.584503 -5.1605272 -1.8240125 4293729569
16.989349 -5.345315 -1.0488358 4293729569
15.985809 -5.0909886 -1.8218242 4293729569
17.037231 -5.4777179 -1.1151984 4293729569
15.385132 -5.0124307 -1.815678 4293729569
14.871399 -4.9531269 -1.8173722 4293729569
14.378693 -4.893877 -1.8190483 4293729569
17.404633 -5.9456267 -1.344775 4293729569
13.953918 -4.8498297 -1.8275988 4293729569
15.750854 -5.5001554 -1.287158 4293729569
13.565186 -4.8128829 -1.8380873 4293729569
15.781738 -5.6185369 -1.358595 4293729569
13.210419 -4.7830396 -1.8525155 4293729569
15.631775 -5.6703911 -1.4144814 4293729569
12.915588 -4.7683749 -1.8728244 4288085770
15.67569 -5.7888193 -1.4889048 4293729569
12.629761 -4.7527337 -1.8931301 4288085770
15.812531 -5.9415274 -1.5730952 4293729569
12.338959 -4.73107 -1.9114684 4288085770
7.1537476 -2.8350554 -0.78534496 4293729569
7.04422 -2.8284063 -1.1714725 4293729569
7.0159302 -2.8307934 -0.8064782 4293729569
6.9733276 -2.8493366 -1.1974363 4293729569
6.7961426 -2.7942801 -0.81782579 4293729569
6.9284058 -2.8803501 -1.2273328 4293729569
6.4954529 -2.7225237 -0.82039994 4293729569
6.6826477 -2.8307133 -1.2247612 4293729569
6.4675293 -2.7535849 -0.85128129 4293729569
6.6327209 -2.8567104 -1.2536843 4293729569
6.7124023 -2.8944902 -0.91743779 4293729569
6.6038208 -2.8897772 -1.2865573 4293729569
6.4396973 -2.8268061 -0.91996992 4293729569
6.3021545 -2.8089399 -1.2701733 4293729569
6.3448486 -2.8286667 -0.94403863 4293729569
6.0494385 -2.7452602 -1.2616708 4293729569
6.3069153 -2.8537064 -0.97595471 4293729569
6.0135193 -2.770298 -1.2915859 4293729569
6.2770386 -2.879777 -1.0098588 4293729569
6.115509 -2.8538094 -1.3501203 4293729569
6.2750854 -2.9179325 -1.0476847 4293729569
6.1925049 -2.9262409 -1.4047251 4293729569
6.2641907 -2.9510641 -1.0845402 4293729569
6.246521 -2.9906025 -1.4563856 4293729569
5.9075928 -2.8310719 -1.0653799 4293729569
6.1566467 -2.9894695 -1.4784628 4293729569
5.8737183 -2.8511267 -1.098314 4293729569
5.8220825 -2.8754759 -1.4452568 4293729569
5.9976501 -2.9417009 -1.1577953 4293729569
5.8311157 -2.9156837 -1.4880636 4293729569
5.8908691 -2.9265194 -1.1789498 4293729569
5.7852478 -2.929697 -1.5180353 4293729569
5.8999329 -2.9637194 -1.2197691 4293729569
5.7533569 -2.9487638 -1.5519716 4293729569
5.868042 -2.9817848 -1.2537094 4293729569
5.7194824 -2.9668207 -1.5849141 4293729569
5.993042 -3.0713863 -1.3191919 4293729569
5.7355652 -3.0060654 -1.6317176 4293729569
5.9571533 -3.0854464 -1.3541529 4293729569
6.0383301 -3.1853657 -1.753643 4293729569
5.9882202 -3.1297331 -1.4019192 4293729569
6.3281555 -3.3606315 -1.8755965 4288085770
5.9663086 -3.1488428 -1.4398447 4293729569
6.1584167 -3.3102131 -1.8779628 4288085770
7.8135376 -4.0805173 -1.8950353 4282675967
5.9786987 -3.2517414 -1.8743742 4288085770
7.5539246 -3.9878387 -1.8906671 4282675967
5.8159485 -3.1993265 -1.8737438 4288085770
7.3142395 -3.9012246 -1.8892546 4282675967
5.6522217 -3.1449003 -1.8711238 4288085770
7.0736084 -3.8115902 -1.8838573 4282675967
5.4864807 -3.0874605 -1.8665195 4288085770
6.8479614 -3.7269983 -1.8794248 4288085770
5.3367615 -3.0350752 -1.8648787 4288085770
6.6502991 -3.6524992 -1.8799225 4288085770
5.178009 -2.975647 -1.8582776 4288085770
6.442627 -3.5709538 -1.8754615 4288085770
5.057251 -2.9353552 -1.8615576 4288085770
6.2459412 -3.4924345 -1.8709775 4288085770
4.9144897 -2.8799744 -1.8569249 4288085770
6.0692444 -3.422986 -1.8704358 4288085770
4.7947388 -2.8356781 -1.8582225 4288085770
5.8955383 -3.3515348 -1.8679008 4288085770
4.6660156 -2.7853384 -1.8545554 4288085770
5.7658081 -3.301239 -1.8752315 4288085770
4.5522461 -2.7410517 -1.8548483 4288085770
5.5891418 -3.2237587 -1.8677273 4288085770
5.4474487 -3.1634016 -1.8681151 4288085770
5.2827148 -3.0889482 -1.8595877 4288085770
5.157959 -3.0336399 -1.8609383 4288085770
5.0042725 -2.9622097 -1.8513885 4288085770
4.904541 -2.9169855 -1.857672 4288085770
4.7947998 -2.8647146 -1.8589965 4288085770
4.6780701 -2.8084097 -1.8563464 4288085770
4.576355 -2.7581596 -1.8576555 4288085770
4.6461792 -0.51939297 -1.8089184 4288085770
4.7493286 -0.50666332 -1.8098557 4288085770
4.8494873 -0.49391937 -1.8097962 4288085770
4.9606628 -0.48120975 -1.810724 4288085770
5.0747986 -0.46851063 -1.8126481 4288085770
5.1679688 -0.45371246 -1.8046054 4288085770
5.3071289 -0.44209194 -1.8094954 4288085770
5.4523315 -0.43148518 -1.8143739 4288085770
5.5834656 -0.41881466 -1.8132772 4288085770
4.5967712 -0.32231045 -1.8118507 4288085770
5.7356262 -0.40721703 -1.8161514 4288085770
4.691925 -0.31053162 -1.8067925 4288085770
5.8937988 -0.39562893 -1.8180182 4288085770
4.8031006 -0.29881573 -1.8067155 4288085770
6.0549316 -0.38404942 -1.8198812 4288085770
4.9212341 -0.287117 -1.8066303 4288085770
6.2391357 -0.37353611 -1.8237125 4288085770
5.0404358 -0.27541828 -1.8055434 4288085770
6.4202881 -0.36200237 -1.8245513 4288085770
5.1885681 -0.26481915 -1.8104179 4288085770
6.6134338 -0.34949875 -1.8253806 4288085770
5.3397217 -0.25522709 -1.8152841 4288085770
6.8266296 -0.33906269 -1.8301767 4288085770
5.4898682 -0.2446146 -1.8161556 4288085770
7.03479 -0.32658768 -1.8289874 4288085770
5.651062 -0.2330389 -1.8190187 4288085770
7.2789612 -0.31622601 -1.8327465 4288085770
5.8192139 -0.22247696 -1.8208685 4288085770
7.5301208 -0.30487823 -1.8355013 4288085770
5.9813538 -0.21188545 -1.819725 4288085770
7.7962646 -0.29456139 -1.8372331 4288085770
6.1905212 -0.20245361 -1.8275212 4288085770
8.0484009 -0.28218746 -1.8339901 4288085770
6.3737183 -0.19191551 -1.8263521 4288085770
8.3645935 -0.27201653 -1.8396618 4288085770
6.592865 -0.18249512 -1.8311356 4288085770
8.6697388 -0.26078606 -1.8383504 4288085770
6.8370056 -0.17215824 -1.8398937 4288085770
9.0098877 -0.24965191 -1.8389971 4288085770
7.0301819 -0.16160965 -1.8317115 4288085770
9.3840637 -0.23961353 -1.841598 4288085770
7.2663269 -0.15121078 -1.8314781 4288085770
9.7902222 -0.2296505 -1.8431604 4288085770
7.5444946 -0.14193821 -1.8361897 4288085770
10.204376 -0.21869373 -1.8417169 4288085770
7.8136292 -0.13162613 -1.8369161 4288085770
10.687531 -0.2089386 -1.8461859 4288085770
8.0988159 -0.12234402 -1.8356181 4288085770
11.220703 -0.19930935 -1.8505945 4288085770
8.4229431 -0.11317825 -1.838273 4288085770
11.790863 -0.18976974 -1.8539577 4288085770
8.7601013 -0.10303688 -1.8389165 4288085770
12.394012 -0.17929268 -1.8532851 4288085770
9.1142578 -0.093928337 -1.8375343 4288085770
13.145172 -0.17024231 -1.8634303 4288085770
9.5184021 -0.084969521 -1.8410918 4288085770
13.916321 -0.16120338 -1.8655497 4288085770
9.9485779 -0.076066971 -1.8426169 4288085770
14.83551 -0.15257931 -1.8764902 4288085770
10.450745 -0.06837368 -1.8500507 4288085770
15.865662 -0.14522743 -1.8852917 4288085770
10.923889 -0.059550285 -1.8455223 4288085770
16.991821 -0.13609505 -1.8899853 4288085770
11.537048 -0.052149773 -1.8558207 4288085770
18.332001 -0.12953854 -1.9014105 4288085770
12.170197 -0.044773102 -1.8600937 4288085770
12.883392 -0.037607193 -1.8662691 4288085770
13.673553 -0.030642509 -1.8743503 4288085770
14.539673 -0.024855614 -1.8793337 4288085770
15.505829 -0.018317223 -1.8831992 4288085770
16.670013 -0.014313698 -1.8948143 4288085770
17.950134 -0.0095930099 -1.9042914 4288085770
19.464325 -0.0064764023 -1.9164782 4288085770
18.371216 0.29271698 -1.8908345 4288085770
17.049377 0.31300545 -1.8800263 4288085770
15.928558 0.33177948 -1.8728955 4288085770
14.93573 0.35024261 -1.8655629 4288085770
14.060852 0.36740685 -1.860038 4288085770
13.233002 0.38349819 -1.8474337 4288085770
12.567169 0.4001255 -1.8465794 4288085770
19.272858 0.62957764 -1.8804605 4288085770
11.915314 0.41575241 -1.8396975 4288085770
17.928009 0.64089012 -1.8746376 4288085770
11.37146 0.43207645 -1.8396511 4288085770
16.696136 0.64897537 -1.8606185 4288085770
10.838623 0.44640255 -1.8345757 4288085770
15.589264 0.65775013 -1.8474083 4288085770
10.377808 0.46253014 -1.8333986 4288085770
14.692383 0.66895485 -1.8438845 4288085770
9.953949 0.47756195 -1.8331571 4288085770
13.900543 0.68089294 -1.8422008 4288085770
9.5431213 0.49158573 -1.8288894 4288085770
13.14267 0.6907959 -1.8324518 4288085770
9.1942749 0.5074234 -1.8305359 4288085770
12.494812 0.70238495 -1.830541 4288085770
8.845459 0.5212841 -1.8281704 4288085770
11.946991 0.71669769 -1.8334906 4288085770
8.5276184 0.53606415 -1.8267623 4288085770
11.426147 0.72897148 -1.8323854 4288085770
8.2387695 0.55076122 -1.8273084 4288085770
10.895325 0.73931217 -1.8242844 4288085770
7.9629211 0.56443977 -1.8258281 4288085770
10.458466 0.75137997 -1.823047 4288085770
7.6780701 0.57717609 -1.8183563 4288085770
10.045624 0.76439571 -1.8207778 4288085770
7.45224 0.59270763 -1.820809 4288085770
9.6677551 0.77632141 -1.8194472 4288085770
7.2294006 0.60624313 -1.8212452 4288085770
9.3139038 0.78919601 -1.8170849 4288085770
7.0135803 0.62077522 -1.8196768 4288085770
8.9910889 0.80198002 -1.8166738 4288085770
6.8307495 0.63619137 -1.8240619 4288085770
8.7072449 0.81665421 -1.819213 4288085770
6.599884 0.64681435 -1.8134933 4288085770
8.412384 0.82839012 -1.815752 4288085770
6.4220276 0.66124725 -1.812865 4288085770
8.1445312 0.84104824 -1.8142544 4288085770
6.262207 0.67662525 -1.8142142 4288085770
7.8836975 0.85370064 -1.8107457 4288085770
6.0973816 0.69002724 -1.8135597 4288085770
7.6698608 0.86920357 -1.8131809 4288085770
5.9335022 0.70344448 -1.8099034 4288085770
7.4249878 0.87983608 -1.8066351 4288085770
5.7706604 0.71587753 -1.8032399 4288085770
7.2251282 0.89331627 -1.8070364 4288085770
5.6408081 0.7301836 -1.8045362 4288085770
7.0263062 0.90681267 -1.8044362 4288085770
5.4829407 0.74161053 -1.7968588 4288085770
6.8254395 0.91932678 -1.7998333 4288085770
5.3661194 0.75788212 -1.798147 4288085770
6.660614 0.93471622 -1.8011917 4288085770
5.2302856 0.7702446 -1.7924409 4288085770
6.4817505 0.94617558 -1.796548 4288085770
5.1074219 0.78356266 -1.7887205 4288085770
6.3289185 0.9605484 -1.7958815 4288085770
5.009613 0.7987833 -1.7909727 4288085770
6.1970825 0.97684574 -1.7991939 4288085770
4.9157715 0.81398869 -1.7942184 4288085770
6.0492554 0.99022484 -1.7955136 4288085770
4.8119202 0.8282547 -1.7914743 4288085770
5.9084167 1.003581 -1.7928224 4288085770
4.710083 0.84251499 -1.7887272 4288085770
5.7825623 1.0188875 -1.7921195 4288085770
4.6192627 0.85673714 -1.7879627 4288085770
5.6487122 1.0312386 -1.7874113 4288085770
4.5334167 0.87194729 -1.7871964 4288085770
5.5298767 1.0455341 -1.7856917 4288085770
5.414032 1.0598297 -1.7829673 4288085770
5.2951965 1.0731506 -1.7772419 4288085770
5.2023926 1.0903645 -1.7784995 4288085770
5.0995483 1.1036339 -1.7747488 4288085770
5.001709 1.118885 -1.7720025 4288085770
4.921875 1.1360683 -1.7732397 4288085770
4.8160095 1.1474152 -1.7644905 4288085770
4.7651672 1.1694841 -1.7727143 4288085770
4.6833496 1.1847029 -1.7689446 4288085770
4.6075134 1.2008963 -1.7671716 4288085770
4.5266724 1.2151184 -1.7623945 4288085770
4.5036316 3.0911913 -1.7346634 4288085770
4.5809021 3.150013 -1.732923 4288085770
4.6661987 3.2128029 -1.7331954 4288085770
4.7635193 3.2825518 -1.7354931 4288085770
4.8708191 3.3562698 -1.7388003 4288085770
4.9701233 3.4240303 -1.7380826 4288085770
5.1094666 3.5156355 -1.7474524 4288085770
5.21875 3.5873718 -1.746745 4288085770
5.3360901 3.6620979 -1.7450441 4288085770
5.4724121 3.7477465 -1.7483827 4288085770
5.6147461 3.8353853 -1.7507248 4288085770
5.7610779 3.9240217 -1.7520671 4288085770
4.5916138 3.2819242 -1.7378638 4288085770
5.9064331 4.0106792 -1.7503991 4288085770
4.6998596 3.3436594 -1.7380955 4288085770
6.0447388 4.0903711 -1.7456986 4288085770
4.8231506 3.4143438 -1.7403604 4288085770
6.2251282 4.1939201 -1.748083 4288085770
4.9865417 3.5068636 -1.7537006 4288085770
6.4305115 4.3113747 -1.7555166 4288085770
5.0968018 3.5646257 -1.7489051 4288085770
6.6088867 4.4089527 -1.7538675 4288085770
5.2250977 3.6323185 -1.7481445 4288085770
6.8212891 4.5264158 -1.7572912 4288085770
5.3814087 3.7159061 -1.7534406 4288085770
7.0547791 4.6528168 -1.7627388 4288085770
5.5307007 3.7915411 -1.7536978 4288085770
7.2982178 4.7832012 -1.7671968 4288085770
5.6950378 3.8751211 -1.756982 4288085770
7.5636902 4.9235153 -1.7736835 4288085770
5.8343506 3.9408178 -1.7511929 4288085770
7.8201294 5.0558949 -1.7741348 4288085770
5.9926147 4.0154457 -1.7494305 4288085770
8.0975952 5.1972084 -1.7766101 4288085770
6.1689453 4.1000175 -1.7497034 4288085770
8.3900757 5.3434849 -1.7790943 4288085770
6.3703308 4.1945 -1.7540004 4288085770
8.7125854 5.5046864 -1.7826267 4288085770
6.6047363 4.307869 -1.7643658 4288085770
9.0571289 5.6738243 -1.7871757 4288085770
6.7900696 4.3884478 -1.7596008 4288085770
9.4227295 5.8519115 -1.7917492 4288085770
7.0084534 4.4849033 -1.7618852 4288085770
9.8273315 6.0468941 -1.7983696 4288085770
7.2628479 4.6002426 -1.7692333 4288085770
10.228912 6.2359066 -1.8009579 4288085770
7.5032043 4.7036514 -1.7705283 4288085770
10.677551 6.4467945 -1.8056123 4288085770
7.7616272 4.8130131 -1.7728335 4288085770
11.153229 6.6656265 -1.8092759 4288085770
8.0510559 4.9352779 -1.7781725 4288085770
11.690948 6.9142723 -1.8180324 4288085770
8.3284607 5.0486012 -1.7794744 4288085770
12.192596 7.1350746 -1.8156701 4288085770
8.6448975 5.1788006 -1.7848228 4288085770
12.867493 7.4453506 -1.8316059 4288085770
8.9683228 5.3079929 -1.7891545 4288085770
13.519348 7.7347431 -1.8374467 4288085770
9.3218384 5.4491043 -1.794516 4288085770
9.6672668 5.5802593 -1.7958273 4288085770
10.053772 5.7282944 -1.8011825 4288085770
10.457275 5.8802929 -1.8055372 4288085770
10.903809 6.0491619 -1.8139328 4288085770
11.313293 6.1931744 -1.8132291 4288085770
11.806854 6.3729324 -1.8216224 4288085770
12.311432 6.5516758 -1.8279929 4288085770
12.900116 6.7651672 -1.8414545 4288085770
13.394623 6.9239998 -1.8377161 4288085770
13.967194 7.1116047 -1.8400402 4288085770
14.654877 7.3478603 -1.8534958 4288085770
15.308533 7.5582504 -1.8588409 4288085770
16.018219 7.7835045 -1.8641946 4288085770
19.284271 -2.7553329 -1.9473827 4288085770
18.49939 -2.7594051 -1.9405634 4288085770
17.803467 -2.7677288 -1.9395796 4288085770
17.085602 -2.7639618 -1.9327083 4288085770
16.44574 -2.7633648 -1.9297113 4288085770
15.724884 -2.7425365 -1.9149593 4288085770
15.114014 -2.7300243 -1.9079841 4288085770
14.532166 -2.7155809 -1.9009768 4288085770
14.009338 -2.7063179 -1.8998448 4288085770
13.466461 -2.6869564 -1.8908089 4288085770
13.003601 -2.6758499 -1.8915964 4288085770
12.548767 -2.6617441 -1.8893908 4288085770
19.063629 -4.0448055 -1.9483477 4288085770
12.114929 -2.6446819 -1.8861724 4288085770
18.127991 -3.9555311 -1.9443712 4288085770
11.707123 -2.627696 -1.8849133 4288085770
17.2453 -3.8653641 -1.9373192 4288085770
11.339264 -2.6148252 -1.8865657 4288085770
16.435638 -3.7813835 -1.932114 4288085770
10.910461 -2.5837297 -1.8764305 4288085770
15.669952 -3.6964979 -1.9248476 4288085770
10.558624 -2.5648775 -1.8750973 4288085770
14.974274 -3.6207976 -1.9204135 4288085770
10.213806 -2.5430365 -1.8727729 4288085770
14.336578 -3.5482426 -1.9168698 4288085770
9.8919678 -2.5222549 -1.871406 4288085770
13.728821 -3.476747 -1.911273 4288085770
9.5971375 -2.5045586 -1.8729776 4288085770
13.140106 -3.403296 -1.9056599 4288085770
9.293335 -2.4808092 -1.8696023 4288085770
12.612396 -3.3380122 -1.9028996 4288085770
9.0095215 -2.4591265 -1.8691829 4288085770
12.101685 -3.2717495 -1.8971195 4288085770
8.7786865 -2.4476233 -1.8766156 4288085770
11.649933 -3.2146587 -1.8961892 4288085770
8.4898682 -2.4178896 -1.8702564 4288085770
11.18222 -3.1474915 -1.8893491 4288085770
8.2470398 -2.3963118 -1.8707732 4288085770
10.764496 -3.0894709 -1.8863724 4288085770
8.0222168 -2.3777905 -1.8732425 4288085770
10.371735 -3.0335083 -1.8833441 4288085770
7.7784119 -2.3501911 -1.8708001 4288085770
10.000977 -2.9806051 -1.8812618 4288085770
7.5545959 -2.3266468 -1.8693008 4288085770
9.6402588 -2.924715 -1.877184 4288085770
7.3347778 -2.3011112 -1.8678081 4288085770
9.3364868 -2.8820124 -1.8809325 4288085770
7.1039734 -2.2695179 -1.8613721 4288085770
9.0157166 -2.8302221 -1.8777664 4288085770
6.9081421 -2.2460527 -1.8618289 4288085770
8.7349548 -2.7875614 -1.8794789 4288085770
6.734314 -2.2266598 -1.8652256 4288085770
8.4411621 -2.7378368 -1.8762581 4288085770
6.5455017 -2.2011976 -1.8636849 4288085770
8.1674194 -2.6911659 -1.8739865 4288085770
6.3786926 -2.1798096 -1.8650839 4288085770
7.9276428 -2.6516094 -1.8766162 4288085770
6.1838989 -2.1462955 -1.8576052 4288085770
7.6728821 -2.6039791 -1.8733219 4288085770
6.0270691 -2.124938 -1.8599888 4288085770
7.4261169 -2.5563593 -1.8690152 4288085770
5.8592834 -2.0965137 -1.8564355 4288085770
7.1983337 -2.5138006 -1.8666463 4288085770
5.6944275 -2.0680895 -1.8518775 4288085770
6.9845581 -2.4722786 -1.8652492 4288085770
5.5406494 -2.0417128 -1.8502891 4288085770
6.7747803 -2.4297628 -1.8628525 4288085770
