# .PCD v0.7 - Point Cloud Data file format
VERSION 0.7
FIELDS x y z rgb
SIZE 4 4 4 4
TYPE F F F U
COUNT 1 1 1 1
WIDTH 1110
HEIGHT 1
VIEWPOINT 0 0 0 1 0 0 0
POINTS 1110
DATA ascii
1.6209412 1.9644833 -1.7778759 4288085770
3.9333801 2.4027748 -1.7742062 4288085770
1.8710938 1.9827967 -1.783036 4288085770
4.3144531 2.4382906 -1.7769856 4288085770
2.1001892 1.9941292 -1.7812252 4288085770
4.7405701 2.4778566 -1.7816215 4288085770
2.3132629 1.9994736 -1.7744319 4288085770
5.2146912 2.5224657 -1.7901089 4288085770
2.5573425 2.0078402 -1.7705424 4288085770
5.6397095 2.553093 -1.7856829 4288085770
2.8264771 2.0182247 -1.7695701 4288085770
6.1018066 2.585762 -1.7831273 4288085770
3.1065674 2.0276232 -1.7685478 4288085770
6.6318665 2.6254864 -1.7863612 4288085770
3.4197083 2.0410414 -1.7714272 4288085770
7.1909485 2.6662664 -1.7874894 4288085770
3.7278137 2.048481 -1.7702818 4288085770
7.809021 2.7101173 -1.7904124 4288085770
4.10495 2.065958 -1.7779434 4288085770
8.4851074 2.7560482 -1.7941263 4288085770
4.4630432 2.0744495 -1.7796118 4288085770
9.2111816 2.8050413 -1.7986686 4288085770
4.8731995 2.0889816 -1.7861233 4288085770
9.9822388 2.8521214 -1.8000219 4288085770
5.2662964 2.0945311 -1.7866344 4288085770
10.842346 2.9043036 -1.8050687 4288085770
5.6914368 2.1011209 -1.7880287 4288085770
11.80542 2.9626207 -1.8117614 4288085770
6.1315918 2.1057386 -1.7883499 4288085770
12.902496 3.0290947 -1.8229959 4288085770
6.6147156 2.1103983 -1.7915053 4288085770
7.1248474 2.1131039 -1.7935412 4288085770
7.6609802 2.112855 -1.7944543 4288085770
8.2341003 2.1126461 -1.797224 4288085770
8.8582458 2.1095104 -1.7997749 4288085770
9.4864197 2.102396 -1.8002808 4288085770
10.19455 2.0943832 -1.802469 4288085770
10.93869 2.0814295 -1.8034816 4288085770
11.733856 2.0655508 -1.8042738 4288085770
12.687042 2.0548325 -1.8144922 4288085770
13.603241 2.0301313 -1.8147492 4288085770
6.5776062 -7.7080383 -1.5001769 4293729569
6.2947388 -7.5937314 -1.5401077 4293729569
6.4972839 -7.7109089 -0.89340097 4293729569
5.7634583 -7.3155394 -1.5452216 4293729569
5.2532043 -7.0433178 -1.5502071 4293729569
6.3200684 -7.701107 -1.027122 4293729569
4.7629089 -6.7780309 -1.5500648 4293729569
6.2234497 -7.6867161 -1.0935822 4293729569
4.3096619 -6.5307021 -1.5516453 4293729569
6.1568604 -7.6882997 -1.1628056 4293729569
3.8414001 -6.2673478 -1.5464034 4293729569
6.090271 -7.6858759 -1.2310579 4293729569
3.4752197 -6.0649171 -1.5513122 4293729569
6.0296631 -7.6834373 -1.2982855 4293729569
3.1901855 -5.9104338 -1.5655494 4293729569
5.960083 -7.6730065 -1.3646071 4293729569
2.9672241 -5.793921 -1.588263 4293729569
5.8954468 -7.6615734 -1.4319153 4293729569
2.8244019 -5.7253637 -1.6213076 4293729569
5.8899231 -7.6861019 -1.5057251 4293729569
2.8077698 -5.7397761 -1.6762443 4293729569
5.5178528 -7.4648199 -1.5307901 4293729569
2.7971802 -5.7551937 -1.7331488 4288085770
5.0184937 -7.1555843 -1.5360062 4293729569
2.5992126 -5.6416154 -1.7517414 4288085770
4.5572205 -6.8672919 -1.5409193 4293729569
2.3431091 -5.4870348 -1.7578659 4288085770
4.1459961 -6.6079383 -1.5474229 4293729569
2.1180725 -5.349421 -1.7657428 4288085770
3.7006836 -6.3215446 -1.5412612 4293729569
1.9060364 -5.2167945 -1.7745321 4288085770
3.3544617 -6.098094 -1.5472455 4293729569
1.697998 -5.0861492 -1.7812915 4288085770
3.102417 -5.934577 -1.5634165 4293729569
1.493927 -4.9534822 -1.7860501 4288085770
2.9074707 -5.8060293 -1.5871041 4293729569
1.302887 -4.8277826 -1.7887061 4288085770
2.8216858 -5.7474294 -1.6258433 4293729569
1.1118164 -4.7000837 -1.7913775 4288085770
2.8169861 -5.740818 -1.6798773 4293729569
0.82559204 -4.5053263 -1.7659209 4288085770
2.8103638 -5.7292027 -1.7329547 4288085770
0.67053223 -4.3975873 -1.7703032 4288085770
2.6253357 -5.5985928 -1.7496181 4288085770
0.56262207 -4.3198533 -1.7852778 4288085770
2.4202881 -5.450963 -1.7594864 4288085770
0.40853882 -4.209084 -1.7856793 4288085770
2.2012024 -5.2923136 -1.7634923 4288085770
0.23849487 -4.0862913 -1.7792335 4288085770
2.0081482 -5.1496391 -1.7692778 4288085770
0.1255188 -3.9995093 -1.7862952 4288085770
1.8280945 -5.0139451 -1.7749608 4288085770
-0.01852417 -3.8906984 -1.7826433 4288085770
1.6690674 -4.8902469 -1.784472 4288085770
-0.12350464 -3.8078914 -1.7876446 4288085770
1.47995 -4.7465105 -1.7822516 4288085770
-0.19540405 -3.7450957 -1.8013668 4288085770
1.3229065 -4.6217608 -1.7847636 4288085770
-0.28536987 -3.6682653 -1.8062639 4288085770
1.1668396 -4.4970026 -1.7862723 4288085770
-0.42547607 -3.558393 -1.7946057 4288085770
1.0177917 -4.3762197 -1.7857246 4288085770
-0.53549194 -3.4665313 -1.790695 4288085770
0.87374878 -4.2574296 -1.7851424 4288085770
-0.62652588 -3.3866682 -1.7906196 4288085770
0.74371338 -4.146626 -1.7854459 4288085770
-0.70947266 -3.3108053 -1.7924838 4288085770
0.62667847 -4.0438085 -1.7866399 4288085770
-0.79953003 -3.2299128 -1.7884128 4288085770
0.50161743 -3.9349756 -1.7839098 4288085770
-0.87948608 -3.1550269 -1.7872572 4288085770
0.3946228 -3.8371296 -1.7830265 4288085770
-0.94342041 -3.0901427 -1.789964 4288085770
0.33267212 -3.7672992 -1.7937558 4288085770
-1.0023804 -3.0262527 -1.7926431 4288085770
0.25970459 -3.6884508 -1.7995954 4288085770
-1.0433044 -2.974369 -1.8001614 4288085770
0.14663696 -3.5855718 -1.7927752 4288085770
0.041595459 -3.4876752 -1.7848866 4288085770
-0.035400391 -3.4067893 -1.7847593 4288085770
-0.109375 -3.3268943 -1.7836127 4288085770
-0.17437744 -3.2519917 -1.7833931 4288085770
-0.23538208 -3.1790824 -1.783143 4288085770
-0.28735352 -3.1111679 -1.7838194 4288085770
-0.33731079 -3.0452423 -1.7834735 4288085770
-0.3421936 -3.0033398 -1.7957664 4288085770
-0.40621948 -2.9283934 -1.7895446 4288085770
-0.43817139 -2.8714547 -1.7910593 4288085770
-0.46511841 -2.8165159 -1.793539 4288085770
-0.49707031 -2.7595615 -1.7930541 4288085770
-0.5350647 -2.6985979 -1.7896235 4288085770
-0.56201172 -2.6426306 -1.7881105 4288085770
-0.58093262 -2.5916662 -1.788528 4288085770
-0.60891724 -2.5366859 -1.785013 4288085770
-0.61785889 -2.4897118 -1.7863593 4288085770
-0.62280273 -2.4447384 -1.7886748 4288085770
-0.63375854 -2.3977537 -1.7880304 4288085770
-0.62765503 -2.3577719 -1.7912631 4288085770
-0.63357544 -2.3127737 -1.7895832 4288085770
-0.64157104 -2.26577 -1.786926 4288085770
-0.62545776 -2.2297716 -1.7900872 4288085770
-0.61642456 -2.1907711 -1.7913003 4288085770
-0.60232544 -2.1537609 -1.7924767 4288085770
-0.58627319 -2.1167488 -1.7936451 4288085770
-0.584198 -2.0747232 -1.7899106 4288085770
-0.56213379 -2.0397015 -1.7910383 4288085770
-0.54003906 -2.0046816 -1.792166 4288085770
-0.51696777 -1.970644 -1.7912824 4288085770
-0.4888916 -1.9366131 -1.792377 4288085770
-0.45181274 -1.9075832 -1.7953966 4288085770
-0.42071533 -1.8755407 -1.7954636 4288085770
-0.37762451 -1.8464947 -1.7974567 4288085770
-0.33255005 -1.8184519 -1.8004339 4288085770
-0.29745483 -1.7863884 -1.7984824 4288085770
-0.25335693 -1.7563267 -1.7984776 4288085770
-0.20629883 -1.7272606 -1.7984524 4288085770
-0.14718628 -1.7021961 -1.8013456 4288085770
-0.098114014 -1.6731195 -1.8003113 4288085770
-0.042999268 -1.6450386 -1.8002427 4288085770
0.022064209 -1.6199512 -1.8011091 4288085770
0.088165283 -1.5948677 -1.8029709 4288085770
-1.0012207 -1.2835693 -1.8129549 4288085770
0.13519287 -1.5637598 -1.7969584 4288085770
-0.95214844 -1.2594929 -1.8118875 4288085770
0.20727539 -1.5396605 -1.7977855 4288085770
-0.90203857 -1.2354136 -1.8108149 4288085770
0.27838135 -1.5135489 -1.7966306 4288085770
-0.85900879 -1.2083178 -1.8057945 4288085770
0.35949707 -1.4904375 -1.7974102 4288085770
-0.796875 -1.1862345 -1.8066547 4288085770
0.45257568 -1.4693203 -1.8001225 4288085770
-0.73577881 -1.163147 -1.8065257 4288085770
0.51364136 -1.4391813 -1.7930386 4288085770
-0.66970825 -1.1410513 -1.8063672 4288085770
0.60073853 -1.4150457 -1.7917974 4288085770
-0.60058594 -1.1189489 -1.8061953 4288085770
0.69384766 -1.3919067 -1.7915218 4288085770
-0.52050781 -1.0988512 -1.80896 4288085770
0.79690552 -1.3697529 -1.7911947 4288085770
-0.4524231 -1.0757313 -1.8057985 4288085770
0.93505859 -1.3556089 -1.799655 4288085770
-0.37533569 -1.0546179 -1.8055825 4288085770
1.0221252 -1.3284378 -1.7934327 4288085770
-0.30526733 -1.0314875 -1.8014114 4288085770
1.1582336 -1.3112602 -1.796922 4288085770
-0.21014404 -1.0123672 -1.8041005 4288085770
1.2953796 -1.2930737 -1.7994125 4288085770
-0.131073 -0.99022961 -1.8008816 4288085770
1.4414673 -1.2758884 -1.8038554 4288085770
-0.037994385 -0.97008324 -1.7995858 4288085770
1.5555115 -1.2516756 -1.7974892 4288085770
0.07711792 -0.95294571 -1.8041706 4288085770
1.6805725 -1.2274513 -1.792074 4288085770
0.15020752 -0.92678261 -1.796005 4288085770
1.8287354 -1.2072277 -1.7915263 4288085770
0.26730347 -0.90862083 -1.7975862 4288085770
1.9997864 -1.1899815 -1.7928545 4288085770
0.41845703 -0.89646339 -1.8069727 4288085770
2.1578979 -1.1687212 -1.7892678 4288085770
0.50350952 -0.87127209 -1.7977448 4288085770
2.3259583 -1.1484518 -1.7866282 4288085770
0.61358643 -0.84907913 -1.7933836 4288085770
2.5160522 -1.1301613 -1.7858756 4288085770
0.77069092 -0.83389091 -1.7997622 4288085770
2.7261658 -1.1118479 -1.7860324 4288085770
0.90078735 -0.81368065 -1.7972956 4288085770
2.9302368 -1.0925217 -1.7832212 4288085770
1.0519104 -0.79546547 -1.7987204 4288085770
3.1713867 -1.0781746 -1.7852082 4288085770
1.1769409 -0.77322674 -1.7912891 4288085770
3.4124451 -1.0608044 -1.7842152 4288085770
1.3661194 -0.7579813 -1.7965205 4288085770
3.6745605 -1.0444174 -1.7851195 4288085770
1.5351868 -0.73872375 -1.7958689 4288085770
3.956665 -1.0279922 -1.7849321 4288085770
1.6842651 -0.71644878 -1.7883272 4288085770
4.2788391 -1.0145254 -1.7875423 4288085770
1.8583069 -0.6951561 -1.7836654 4288085770
4.6099243 -1.0000296 -1.7881172 4288085770
2.062439 -0.67685795 -1.7848463 4288085770
4.9820557 -0.98749828 -1.7924917 4288085770
2.2765198 -0.65853024 -1.7839808 4288085770
5.3651733 -0.972929 -1.7938282 4288085770
2.4986267 -0.639184 -1.7820857 4288085770
5.7812805 -0.95930767 -1.7950077 4288085770
2.7367249 -0.62081909 -1.7811098 4288085770
6.2303772 -0.9466362 -1.7960284 4288085770
3.0068359 -0.60342598 -1.7829809 4288085770
6.6894836 -0.92991924 -1.7930293 4288085770
3.2749023 -0.58400631 -1.7808738 4288085770
7.2526245 -0.92010593 -1.7985089 4288085770
3.5710449 -0.56455803 -1.7806385 4288085770
7.7897034 -0.90425968 -1.7941449 4288085770
3.894104 -0.54708004 -1.7822652 4288085770
8.4218445 -0.89130878 -1.7953272 4288085770
4.2442627 -0.52856922 -1.7847753 4288085770
9.1389771 -0.88224697 -1.7990928 4288085770
4.6193848 -0.51101208 -1.7861626 4288085770
9.8500671 -0.86713123 -1.7939241 4288085770
5.0254822 -0.49140549 -1.7874219 4288085770
10.715179 -0.85481644 -1.7940328 4288085770
5.4875793 -0.4727335 -1.7914181 4288085770
11.716339 -0.84732628 -1.7984843 4288085770
5.9807129 -0.45400429 -1.7942705 4288085770
12.841461 -0.83964157 -1.8023679 4288085770
6.500824 -0.43322754 -1.7960122 4288085770
7.0539246 -0.41137695 -1.7946079 4288085770
7.6880188 -0.38841534 -1.7948394 4288085770
8.380127 -0.36637592 -1.7967961 4288085770
9.1651917 -0.34420586 -1.8003259 4288085770
9.9772949 -0.31694317 -1.7967663 4288085770
10.992401 -0.29344845 -1.8042464 4288085770
12.127533 -0.26574707 -1.8082018 4288085770
13.364655 -0.23586941 -1.8096991 4288085770
12.735474 0.079506874 -1.8101296 4288085770
11.360504 0.078144073 -1.8014665 4288085770
10.206573 0.077138901 -1.7974625 4288085770
9.2117004 0.077384949 -1.7975006 4288085770
8.2987671 0.078800201 -1.7940512 4288085770
7.4968567 0.081398964 -1.7919354 4288085770
6.7789612 0.085144043 -1.7903175 4288085770
12.955292 0.022994995 -1.7989824 4288085770
6.1340942 0.089011192 -1.7892573 4288085770
11.563354 0.03659153 -1.7915556 4288085770
5.5351562 0.093976021 -1.7859268 4288085770
10.451447 0.048601151 -1.7954078 4288085770
5.005249 0.1000452 -1.7851837 4288085770
9.4095154 0.060779572 -1.7928381 4288085770
4.4883118 0.10617065 -1.7793655 4288085770
8.5095825 0.073192596 -1.7924051 4288085770
4.0334167 0.11238003 -1.7771692 4288085770
7.7006836 0.085769653 -1.7914181 4288085770
3.6224976 0.11866283 -1.7757053 4288085770
6.9527588 0.097477913 -1.7870545 4288085770
3.2205811 0.12598038 -1.7711961 4288085770
6.3188782 0.10934162 -1.7889955 4288085770
2.8827209 0.13335896 -1.7742958 4288085770
5.7089539 0.12127781 -1.7867928 4288085770
2.566803 0.14078522 -1.7762623 4288085770
5.1770325 0.1333313 -1.7871141 4288085770
2.2609558 0.14823437 -1.7771692 4288085770
4.6360779 0.14542675 -1.7794948 4288085770
1.9830627 0.15672874 -1.778913 4288085770
4.1551514 0.15760803 -1.7745094 4288085770
1.7241821 0.16425514 -1.7805345 4288085770
3.7382507 0.16987896 -1.7731323 4288085770
1.4892883 0.17281246 -1.7840166 4288085770
3.34729 0.18120193 -1.7705913 4288085770
1.2383728 0.18138885 -1.7805994 4288085770
2.9994202 0.19257545 -1.7717872 4288085770
1.0044556 0.19098949 -1.7780855 4288085770
2.6775208 0.2039957 -1.772825 4288085770
0.80664062 0.19961357 -1.7813439 4288085770
2.3856506 0.21546173 -1.7746792 4288085770
0.61071777 0.20826054 -1.7815912 4288085770
2.1217651 0.22695923 -1.7793627 4288085770
0.39477539 0.21792793 -1.7739706 4288085770
1.869873 0.23848438 -1.7829738 4288085770
0.22991943 0.22761059 -1.777036 4288085770
1.6149597 0.25004673 -1.7806053 4288085770
0.092041016 0.23629951 -1.7859287 4288085770
1.3640747 0.26162148 -1.7772141 4288085770
-0.092895508 0.24602318 -1.77812 4288085770
1.1301575 0.27322102 -1.7747185 4288085770
-0.24975586 0.25574875 -1.7771387 4288085770
0.93725586 0.28485298 -1.7779706 4288085770
-0.39465332 0.26648808 -1.7770915 4288085770
0.71234131 0.29550362 -1.7704153 4288085770
-0.52453613 0.27623367 -1.7799447 4288085770
0.54040527 0.30717278 -1.7735398 4288085770
-0.64044189 0.28599072 -1.7847123 4288085770
0.36553955 0.3188591 -1.773684 4288085770
-0.77133179 0.29576206 -1.7835734 4288085770
0.19265747 0.3305521 -1.7728169 4288085770
-0.87518311 0.30553341 -1.7892683 4288085770
0.051727295 0.34326553 -1.7777593 4288085770
-0.11218262 0.35400391 -1.7728312 4288085770
-0.24401855 0.36674023 -1.7767196 4288085770
-0.37789917 0.3784914 -1.7776139 4288085770
-0.51083374 0.39026642 -1.7755032 4288085770
-0.62573242 0.40203857 -1.778281 4288085770
-0.73959351 0.41481972 -1.7800605 4288085770
-0.85751343 0.42661285 -1.7788587 4288085770
-0.95336914 0.43941307 -1.7825274 4288085770
-1.0336304 2.5211496 -1.7555611 4288085770
-0.9135437 2.5623512 -1.758039 4288085770
-0.78848267 2.6045561 -1.7614903 4288085770
-0.67242432 2.641777 -1.7599657 4288085770
-0.5473938 2.6800146 -1.7583878 4288085770
-0.41833496 2.7192545 -1.7577896 4288085770
-0.28430176 2.7585106 -1.7561581 4288085770
-0.13327026 2.8037634 -1.7594552 4288085770
-1.055542 2.4580479 -1.7601156 4288085770
0.034820557 2.8540354 -1.7646744 4288085770
-0.93145752 2.491251 -1.763509 4288085770
0.17785645 2.893321 -1.7609808 4288085770
-0.81234741 2.5214653 -1.7639134 4288085770
0.33892822 2.936615 -1.7611957 4288085770
-0.6913147 2.5506964 -1.7622974 4288085770
0.52200317 2.9879293 -1.7643206 4288085770
-0.5512085 2.586915 -1.7676039 4288085770
0.68798828 3.029253 -1.7614865 4288085770
-0.44018555 2.6081638 -1.7609963 4288085770
0.90005493 3.087595 -1.7684662 4288085770
-0.26907349 2.6534052 -1.7711592 4288085770
1.0670776 3.1259499 -1.7616022 4288085770
-0.16601562 2.6686735 -1.7595613 4288085770
1.2701111 3.1753225 -1.7615762 4288085770
0.016082764 2.7139378 -1.7696493 4288085770
1.479126 3.2247143 -1.7605095 4288085770
0.15414429 2.7392168 -1.7658882 4288085770
1.7081909 3.280117 -1.7633505 4288085770
0.30020142 2.7655096 -1.7620802 4288085770
1.9452209 3.3345556 -1.7631307 4288085770
0.48428345 2.8058062 -1.7681172 4288085770
2.2072449 3.3960133 -1.7667928 4288085770
0.66638184 2.8411207 -1.7711315 4288085770
2.47229 3.455492 -1.7684193 4288085770
0.82839966 2.867445 -1.7672148 4288085770
2.7633057 3.5209913 -1.7739136 4288085770
1.0214844 2.9037857 -1.7691612 4288085770
3.0573425 3.5845242 -1.7753727 4288085770
1.2035522 2.9331341 -1.7671306 4288085770
3.3843689 3.656085 -1.7816665 4288085770
1.3936157 2.9634848 -1.7670529 4288085770
3.7314148 3.7306852 -1.7878466 4288085770
1.5796814 2.9888544 -1.7629659 4288085770
4.076416 3.7993097 -1.7899969 4288085770
1.7987671 3.0232544 -1.7637212 4288085770
4.4594727 3.877985 -1.7949617 4288085770
2.0118103 3.0536556 -1.7624886 4288085770
4.8014221 3.9376526 -1.790066 4288085770
2.2478638 3.0880795 -1.7641284 4288085770
5.188446 4.0093651 -1.7909515 4288085770
2.5029602 3.1275206 -1.7686753 4288085770
5.6664734 4.1041784 -1.8013895 4288085770
2.757019 3.1619854 -1.7691925 4288085770
6.1264954 4.1870165 -1.8038611 4288085770
3.0021057 3.1894569 -1.7667196 4288085770
6.6144409 4.2738934 -1.8081713 4288085770
3.2861633 3.2269583 -1.7700551 4288085770
7.1464233 4.3668528 -1.8122277 4288085770
3.5982666 3.2685013 -1.7752304 4288085770
7.7254333 4.4678841 -1.8190236 4288085770
3.9003601 3.3030529 -1.7764215 4288085770
8.3334351 4.5709743 -1.8246367 4288085770
4.1864319 3.3295946 -1.7746623 4288085770
8.997406 4.6831551 -1.8329353 4288085770
4.5194702 3.3651991 -1.7766504 4288085770
9.6923828 4.7944059 -1.8390169 4288085770
4.844574 3.3948088 -1.7756479 4288085770
10.488373 4.9248085 -1.8505523 4288085770
5.3167114 3.4595537 -1.7949061 4288085770
11.282318 5.0452499 -1.8560271 4288085770
5.8268433 3.5303411 -1.8179493 4288085770
12.085236 5.1587372 -1.8573885 4288085770
6.1629333 3.5480156 -1.8107836 4288085770
13.010193 5.2934151 -1.8640761 4288085770
6.4129333 3.5396242 -1.79001 4288085770
6.8750305 3.5794334 -1.7971513 4288085770
7.3911438 3.6293201 -1.808001 4288085770
7.8932495 3.6662064 -1.8148482 4288085770
8.419342 3.7031479 -1.8205321 4288085770
8.9374695 3.7321014 -1.8222106 4288085770
9.476532 3.7570963 -1.8237178 4288085770
10.097687 3.7941923 -1.8327556 4288085770
10.670776 3.8112726 -1.8309729 4288085770
11.316895 3.8364468 -1.835753 4288085770
11.95401 3.8516302 -1.83652 4288085770
12.659149 3.8719158 -1.8408616 4288085770
13.334259 3.8771887 -1.8392966 4288085770
12.00177 -5.1007261 -1.1643622 4293729569
12.093597 -5.2549405 -1.2206154 4293729569
12.114349 -5.3902793 -1.2754908 4293729569
12.358826 -5.5469608 -0.42265028 4293729569
11.990967 -5.4778247 -1.3206949 4293729569
11.034607 -5.29353 -1.3055494 4293729569
12.938843 -5.9947524 -0.55144387 4293729569
10.943237 -5.3830338 -1.3535213 4293729569
12.887634 -6.1082664 -0.61196786 4293729569
11.029083 -5.5293083 -1.4168732 4293729569
10.622284 -5.4614291 -0.59410352 4293729569
10.5242 -5.4743733 -1.4327126 4293729569
10.481903 -5.5280499 -0.6455763 4293729569
8.478241 -4.8683963 -1.3090525 4293729569
9.8259888 -5.4055085 -0.67693502 4293729569
8.7473145 -5.0654235 -1.3867884 4293729569
8.9518127 -5.1962848 -0.69441134 4293729569
8.4596252 -5.0611687 -1.4157786 4293729569
8.348877 -5.0746074 -0.72040313 4293729569
8.3305664 -5.1650176 -0.77487057 4293729569
7.8681946 -5.0366578 -1.468986 4293729569
8.3082275 -5.2524433 -0.83038682 4293729569
8.5639954 -5.400259 -1.6026053 4293729569
8.1978149 -5.3040147 -0.88276309 4293729569
7.9908142 -5.272325 -1.5994382 4293729569
7.9432068 -5.2967858 -0.92454928 4293729569
6.9338379 -4.9448938 -1.536016 4293729569
6.5358582 -4.8687134 -1.5452802 4293729569
6.0070496 -4.685298 -0.9011808 4293729569
6.5906677 -4.9750504 -1.6091342 4293729569
5.9666443 -4.7457337 -0.95301563 4293729569
5.8049622 -4.7282467 -1.566277 4293729569
5.789093 -4.7483487 -0.99320525 4293729569
5.765564 -4.7886801 -1.6181056 4293729569
6.2424316 -5.0171514 -1.0891619 4293729569
5.3755188 -4.6974449 -1.6214244 4293729569
5.6602173 -4.8402934 -1.0944111 4293729569
5.1187439 -4.658072 -1.6414585 4293729569
6.3890381 -5.2337937 -1.222585 4293729569
4.7747192 -4.5747547 -1.6454043 4293729569
6.3827209 -5.3052297 -1.2841058 4293729569
4.6311035 -4.5772696 -1.6803627 4293729569
6.307312 -5.3457541 -1.3393226 4293729569
4.5515747 -4.6077266 -1.7246814 4288085770
5.9253845 -5.2436347 -1.3616633 4293729569
4.4330139 -4.6192203 -1.7634041 4288085770
6.3959656 -5.5325575 -1.4803557 4293729569
4.0919495 -4.5218701 -1.7634313 4288085770
6.5108948 -5.656899 -1.5616651 4293729569
3.7738647 -4.4304757 -1.7632585 4288085770
6.2190857 -5.5896707 -1.593138 4293729569
3.4718323 -4.3440709 -1.7659409 4288085770
5.6427307 -5.3797083 -1.5845854 4293729569
3.1747742 -4.2536349 -1.7656174 4288085770
5.2206116 -5.2375593 -1.5914893 4293729569
2.9237976 -4.1831579 -1.7718358 4288085770
4.8616028 -5.1203351 -1.6047821 4293729569
2.652771 -4.097672 -1.7712986 4288085770
4.5476379 -5.0210352 -1.6196373 4293729569
2.4137878 -4.0251579 -1.7754495 4288085770
4.2256165 -4.9117322 -1.6316197 4293729569
2.1627197 -3.9416332 -1.7747617 4288085770
4.066925 -4.8822775 -1.6669087 4293729569
1.922699 -3.8620882 -1.7739699 4288085770
4.0104675 -4.9017453 -1.7191455 4293729569
1.7427673 -3.8095121 -1.785573 4288085770
3.8938599 -4.8882565 -1.7610312 4288085770
1.5679016 -3.7569208 -1.7961411 4288085770
3.5567322 -4.7589092 -1.7622616 4288085770
1.3418274 -3.6743274 -1.7922757 4288085770
3.2446289 -4.6365252 -1.7652698 4288085770
1.1157227 -3.5887208 -1.7864323 4288085770
2.944519 -4.5171051 -1.7661748 4288085770
0.92071533 -3.5160947 -1.7862823 4288085770
2.6644592 -4.4036527 -1.7678995 4288085770
0.74572754 -3.4524498 -1.7889307 4288085770
2.4003601 -4.2961688 -1.7694721 4288085770
0.54766846 -3.3727956 -1.7838521 4288085770
2.1633301 -4.1996531 -1.7737803 4288085770
0.37661743 -3.3061218 -1.7834949 4288085770
1.9223022 -4.0981307 -1.7761521 4288085770
0.20159912 -3.2354364 -1.7801945 4288085770
1.6911926 -3.9985757 -1.7764413 4288085770
0.045623779 -3.1717415 -1.7807128 4288085770
1.4871826 -3.9110017 -1.7814589 4288085770
-0.088317871 -3.118022 -1.7840083 4288085770
1.3021851 -3.8303976 -1.7872953 4288085770
-0.21627808 -3.0663066 -1.7892482 4288085770
1.1612854 -3.7727737 -1.802664 4288085770
-0.35528564 -3.0065703 -1.7886217 4288085770
0.92611694 -3.6601467 -1.7910757 4288085770
-0.46218872 -2.961834 -1.7966671 4288085770
0.70996094 -3.5555086 -1.7833002 4288085770
-0.61929321 -2.8880725 -1.7872655 4288085770
0.53091431 -3.4698381 -1.7811327 4288085770
-0.73220825 -2.8373127 -1.7903955 4288085770
0.36288452 -3.3871531 -1.7798684 4288085770
-0.85025024 -2.7815371 -1.7895958 4288085770
0.21185303 -3.3134556 -1.7814224 4288085770
-0.9631958 -2.7267504 -1.7887542 4288085770
0.05682373 -3.2347393 -1.7790399 4288085770
-1.0822144 -2.6669559 -1.7849905 4288085770
-0.097229004 -3.1550131 -1.7756581 4288085770
-0.2142334 -3.0942683 -1.7798851 4288085770
-0.33416748 -3.0305238 -1.7831538 4288085770
-0.42108154 -2.9837685 -1.7940726 4288085770
-0.55014038 -2.9119864 -1.7894621 4288085770
-0.6882019 -2.8331976 -1.7809639 4288085770
-0.77212524 -2.7844143 -1.7888768 4288085770
-0.88516235 -2.7176018 -1.7841201 4288085770
-0.97314453 -2.6637869 -1.786097 4288085770
-1.0661316 -2.6059618 -1.7851374 4288085770
-0.78292847 -0.54563236 -1.7897975 4288085770
-0.70986938 -0.52845573 -1.7843568 4288085770
-0.61776733 -0.51328182 -1.7847619 4288085770
-0.51361084 -0.50009632 -1.787065 4288085770
-0.41452026 -0.4848938 -1.7854176 4288085770
-0.32446289 -0.46868896 -1.780843 4288085770
-0.21438599 -0.45447731 -1.7811067 4288085770
-0.10528564 -0.43924904 -1.7783837 4288085770
0.023834229 -0.42601204 -1.780499 4288085770
0.13391113 -0.4107666 -1.7757688 4288085770
0.26498413 -0.39650631 -1.7748749 4288085770
-0.74914551 -0.27058697 -1.7882066 4288085770
0.41912842 -0.38523293 -1.7787898 4288085770
-0.63903809 -0.2583828 -1.7894559 4288085770
0.56118774 -0.37094212 -1.7768128 4288085770
-0.53393555 -0.24516201 -1.7867484 4288085770
0.72131348 -0.35763645 -1.7776952 4288085770
-0.4258728 -0.23093319 -1.7840247 4288085770
0.88842773 -0.34531593 -1.778518 4288085770
-0.30474854 -0.2176981 -1.7841973 4288085770
1.0414734 -0.3299818 -1.773464 4288085770
-0.17166138 -0.20545578 -1.7862737 4288085770
1.2396545 -0.31861877 -1.7770486 4288085770
-0.051544189 -0.19219589 -1.7824526 4288085770
1.4447632 -0.30623627 -1.7795873 4288085770
0.09753418 -0.17991924 -1.784409 4288085770
1.6629028 -0.2948246 -1.7820213 4288085770
0.24365234 -0.16662788 -1.7833934 4288085770
1.8789978 -0.28139114 -1.7804828 4288085770
0.39575195 -0.1533165 -1.7813327 4288085770
2.105072 -0.26793003 -1.7778687 4288085770
0.54882812 -0.13999557 -1.7782638 4288085770
2.3622131 -0.25543404 -1.7790167 4288085770
0.72393799 -0.1276598 -1.7790239 4288085770
2.6112671 -0.24191856 -1.7752292 4288085770
0.89300537 -0.11429977 -1.7748342 4288085770
2.8833313 -0.22836399 -1.77227 4288085770
1.1051941 -0.10291386 -1.7793105 4288085770
3.1844482 -0.21677017 -1.7720799 4288085770
1.3262939 -0.091511726 -1.7837193 4288085770
3.5315857 -0.20511055 -1.7755473 4288085770
1.5734558 -0.081068993 -1.7899265 4288085770
3.8726807 -0.19242287 -1.7730632 4288085770
1.7835083 -0.066618919 -1.7844346 4288085770
4.2738342 -0.18065357 -1.7761242 4288085770
2.0095825 -0.054143906 -1.7798085 4288085770
4.7099609 -0.16981888 -1.7799163 4288085770
2.264679 -0.041629791 -1.7779655 4288085770
5.1750793 -0.15891933 -1.7824895 4288085770
2.5357971 -0.029089928 -1.7770019 4288085770
5.6942749 -0.14792252 -1.7866585 4288085770
2.8258667 -0.016497612 -1.7738953 4288085770
6.2183838 -0.13486862 -1.7838008 4288085770
3.15802 -0.0048599243 -1.7764678 4288085770
6.8284912 -0.12368011 -1.7862861 4288085770
3.4951172 0.0078144073 -1.7750072 4288085770
7.4946594 -0.11237717 -1.7883506 4288085770
3.8631897 0.020543098 -1.7743142 4288085770
8.2217712 -0.099936485 -1.7879634 4288085770
4.287384 0.032361984 -1.7771938 4288085770
9.0108948 -0.088362694 -1.7861028 4288085770
4.7565308 0.043251038 -1.7827291 4288085770
9.9770508 -0.077497482 -1.7929106 4288085770
5.2687073 0.055228233 -1.7879477 4288085770
10.954132 -0.064520836 -1.7866445 4288085770
5.7947998 0.067267418 -1.788059 4288085770
12.246368 -0.05503273 -1.796994 4288085770
6.3969421 0.080449104 -1.7896056 4288085770
13.65155 -0.043279648 -1.8015053 4288085770
7.0430603 0.092712402 -1.7918141 4288085770
7.7822266 0.10615253 -1.7953322 4288085770
8.5753174 0.11872196 -1.7954338 4288085770
9.48349 0.1315012 -1.7986703 4288085770
10.481628 0.14547634 -1.7992351 4288085770
11.699799 0.15884399 -1.8061404 4288085770
13.022949 0.17347527 -1.8052597 4288085770
13.24646 0.47663975 -1.7984533 4288085770
11.899536 0.48768425 -1.7977018 4288085770
10.766602 0.49900913 -1.8020151 4288085770
9.6866455 0.50948238 -1.7948475 4288085770
8.7919006 0.52128506 -1.7918675 4288085770
7.9709473 0.53207779 -1.7895188 4288085770
7.2670898 0.54300594 -1.7930884 4288085770
13.873016 0.72294426 -1.7807806 4288085770
6.6011353 0.55403042 -1.7903085 4288085770
12.475128 0.72985554 -1.781765 4288085770
5.9891663 0.56413841 -1.7870269 4288085770
11.335205 0.73712158 -1.7873619 4288085770
5.4532776 0.57633877 -1.7870522 4288085770
10.209229 0.74348354 -1.7808266 4288085770
4.9523315 0.58659935 -1.7857423 4288085770
9.307373 0.75310612 -1.7862327 4288085770
4.4653625 0.59690571 -1.7803054 4288085770
8.4353943 0.75984192 -1.7803462 4288085770
4.0254211 0.60827827 -1.77544 4288085770
7.7244873 0.770751 -1.7849913 4288085770
3.635498 0.61870956 -1.7731054 4288085770
7.0245361 0.7787199 -1.7825193 4288085770
3.2715759 0.63016796 -1.7725365 4288085770
6.4106445 0.78880501 -1.782263 4288085770
2.9506836 0.64168644 -1.7725699 4288085770
5.8497314 0.79797649 -1.7805099 4288085770
2.6567993 0.65322781 -1.7753532 4288085770
5.3667908 0.80823898 -1.78304 4288085770
2.369873 0.66480541 -1.7740729 4288085770
4.9059143 0.81854725 -1.7833672 4288085770
2.1099854 0.67640591 -1.7755423 4288085770
4.4439087 0.82689762 -1.7766945 4288085770
1.9031677 0.69103241 -1.7855377 4288085770
4.0320129 0.83630466 -1.7725642 4288085770
1.6462097 0.70168018 -1.7799759 4288085770
3.6660767 0.84676552 -1.771013 4288085770
1.4062805 0.71234798 -1.7752571 4288085770
3.334137 0.85827255 -1.770153 4288085770
1.2023621 0.72404099 -1.7752099 4288085770
3.024231 0.86880589 -1.770083 4288085770
1.0054626 0.73574448 -1.7750978 4288085770
2.7523499 0.88138199 -1.7726727 4288085770
0.84561157 0.7484684 -1.7806478 4288085770
2.4734497 0.89197063 -1.7713165 4288085770
0.64865112 0.75920773 -1.7745321 4288085770
2.2556152 0.90559769 -1.7784104 4288085770
0.49377441 0.7719574 -1.7770371 4288085770
2.0387573 0.91924572 -1.7824962 4288085770
0.33889771 0.78472042 -1.7775428 4288085770
1.8338623 0.93191147 -1.7864652 4288085770
0.18899536 0.79648972 -1.7779965 4288085770
1.5869141 0.94158649 -1.7788093 4288085770
0.0340271 0.8082819 -1.7734983 4288085770
1.375 0.95228577 -1.7758338 4288085770
-0.097839355 0.82107353 -1.7747912 4288085770
1.1740417 0.96400547 -1.7717626 4288085770
-0.22473145 0.83387852 -1.7750387 4288085770
0.98510742 0.97473907 -1.768574 4288085770
-0.34661865 0.84668541 -1.7762394 4288085770
0.81619263 0.98748589 -1.7682118 4288085770
-0.46551514 0.85950851 -1.7754133 4288085770
0.65930176 1.0002451 -1.7687378 4288085770
-0.56539917 0.87333107 -1.7794154 4288085770
0.51242065 1.0130119 -1.7701707 4288085770
0.37954712 1.0278015 -1.771486 4288085770
0.23562622 1.0395937 -1.7698863 4288085770
0.10269165 1.0524006 -1.7681906 4288085770
0.00082397461 1.0682058 -1.7742233 4288085770
-0.13812256 1.0790358 -1.7675731 4288085770
-0.24902344 1.0928659 -1.7676795 4288085770
-0.36294556 1.1057091 -1.7648084 4288085770
-0.44177246 1.123539 -1.7726395 4288085770
-0.56173706 1.1344032 -1.7648134 4288085770
-0.50280762 3.5203505 -1.7551093 4288085770
-0.34362793 3.611516 -1.7681072 4288085770
-0.21563721 3.6837063 -1.7692871 4288085770
-0.084625244 3.7549057 -1.7694314 4288085770
0.061431885 3.8341131 -1.7724786 4288085770
0.21142578 3.9133377 -1.7734864 4288085770
0.37646484 3.9995737 -1.776391 4288085770
0.54345703 4.0858212 -1.7782753 4288085770
0.73352051 4.1820793 -1.7839971 4288085770
-0.55764771 3.5012226 -1.7573118 4288085770
0.92950439 4.2793627 -1.7876658 4288085770
-0.39855957 3.5784159 -1.7662201 4288085770
1.114502 4.3686495 -1.7873912 4288085770
-0.27154541 3.6356211 -1.7643151 4288085770
1.3214722 4.4679623 -1.7889638 4288085770
-0.10446167 3.7128315 -1.7721441 4288085770
1.5344849 4.5682831 -1.7904825 4288085770
0.041534424 3.7770519 -1.7730963 4288085770
1.760437 4.673625 -1.7919052 4288085770
0.19354248 3.8422928 -1.7719965 4288085770
1.9984131 4.7819872 -1.7932291 4288085770
0.37463379 3.9215326 -1.7786992 4288085770
2.254364 4.8973742 -1.7954192 4288085770
0.53964233 3.9897947 -1.7774889 4288085770
2.5323486 5.021781 -1.799449 4288085770
0.72369385 4.0650635 -1.7801361 4288085770
2.8163147 5.1462173 -1.8004193 4288085770
0.92773438 4.1493464 -1.7856431 4288085770
3.1543274 5.2956867 -1.8100166 4288085770
1.1318054 4.2306499 -1.7881308 4288085770
3.4762268 5.4331722 -1.8126943 4288085770
1.3387756 4.3109531 -1.7905822 4288085770
3.8571777 5.5967159 -1.820956 4288085770
1.5638428 4.3972855 -1.7938941 4288085770
4.2311401 5.7532768 -1.8252406 4288085770
1.7717896 4.4716253 -1.791297 4288085770
4.6300354 5.9178715 -1.8303289 4288085770
2.0178528 4.5629883 -1.7944329 4288085770
5.078949 6.1035271 -1.8380578 4288085770
2.2548523 4.6463642 -1.793606 4288085770
5.5498657 6.2942181 -1.8456004 4288085770
2.5218506 4.7417593 -1.7965598 4288085770
6.0498047 6.4929562 -1.8529077 4288085770
2.7978516 4.8381739 -1.7994306 4288085770
6.5766602 6.7007542 -1.8580043 4288085770
3.0958557 4.9416122 -1.8041282 4288085770
7.1845398 6.9416256 -1.8715115 4288085770
3.402832 5.0460749 -1.8067431 4288085770
7.7853699 7.170536 -1.8770101 4288085770
3.7058411 5.1425476 -1.8073466 4288085770
8.3591614 7.3804588 -1.8736525 4288085770
4.0768738 5.2700672 -1.8174772 4288085770
9.1609802 7.6916027 -1.8926907 4288085770
4.434845 5.3846073 -1.8206513 4288085770
9.9087524 7.9657459 -1.8980224 4288085770
4.803833 5.4991665 -1.8237169 4288085770
10.736481 8.2679958 -1.9067414 4288085770
5.2118225 5.62677 -1.8294797 4288085770
5.6188049 5.7493935 -1.8322191 4288085770
6.0778198 5.8900623 -1.8405597 4288085770
6.5527649 6.0297775 -1.845736 4288085770
7.0487671 6.1735172 -1.8527288 4288085770
7.5587158 6.3172951 -1.8565829 4288085770
8.1387024 6.4821453 -1.8668795 4288085770
8.7096252 6.6350193 -1.8711877 4288085770
9.3425903 6.8069687 -1.8790035 4288085770
9.9735107 6.966938 -1.8827631 4288085770
10.615448 7.1239414 -1.8843932 4288085770
11.321381 7.2970238 -1.8894932 4288085770
12.185333 7.5232925 -1.9053674 4288085770
13.037262 7.7325649 -1.9172525 4288085770
13.86615 7.9208565 -1.9202302 4288085770
13.718201 -3.165431 -1.7863843 4288085770
12.973297 -3.1566281 -1.7868121 4288085770
12.219299 -3.1348062 -1.7814097 4288085770
11.5914 -3.1278338 -1.7846682 4288085770
10.937469 -3.106864 -1.7812707 4288085770
10.339508 -3.0908298 -1.782289 4288085770
9.713501 -3.0598035 -1.7766769 4288085770
9.1645813 -3.0376887 -1.7772477 4288085770
8.6486206 -3.0145211 -1.7774975 4288085770
8.1617126 -2.9923091 -1.778455 4288085770
7.6807556 -2.9660826 -1.7783782 4288085770
7.2207947 -2.9358163 -1.7771175 4288085770
14.100281 -4.6478467 -1.795444 4288085770
6.7888489 -2.9085088 -1.776562 4288085770
13.103088 -4.5144253 -1.7911389 4288085770
6.3809204 -2.8801737 -1.7777746 4288085770
12.169891 -4.3868976 -1.7861643 4288085770
5.9819946 -2.8498116 -1.776912 4288085770
11.303741 -4.2652702 -1.7824907 4288085770
5.631073 -2.827405 -1.7815237 4288085770
10.532654 -4.1575141 -1.7827892 4288085770
5.2591553 -2.7950001 -1.7804055 4288085770
9.805542 -4.0526729 -1.7806334 4288085770
4.8881531 -2.7585745 -1.7763028 4288085770
9.1564941 -3.9607244 -1.781626 4288085770
4.5521851 -2.7251091 -1.7748337 4288085770
8.5144043 -3.8617477 -1.7795923 4288085770
4.2462769 -2.6966162 -1.7770371 4288085770
7.9133301 -3.7677031 -1.777122 4288085770
3.9473572 -2.6671124 -1.7791779 4288085770
7.3462219 -3.6766014 -1.7742972 4288085770
3.6564026 -2.6355829 -1.7792518 4288085770
6.8352051 -3.5944228 -1.7738621 4288085770
3.3754883 -2.6030397 -1.7792323 4288085770
6.341156 -3.5122185 -1.7732589 4288085770
3.1245728 -2.5764675 -1.7828791 4288085770
5.8861084 -3.4349475 -1.7722385 4288085770
2.8816833 -2.5498819 -1.786447 4288085770
5.4631042 -3.3636355 -1.7728646 4288085770
2.652771 -2.5232792 -1.7908757 4288085770
5.065094 -3.2932806 -1.7732365 4288085770
2.414856 -2.491663 -1.7904246 4288085770
4.7232056 -3.237874 -1.7799616 4288085770
2.1779175 -2.4580441 -1.7899764 4288085770
4.348175 -3.16747 -1.7781065 4288085770
1.9418945 -2.4204092 -1.7865422 4288085770
4.0191956 -3.1070175 -1.7807336 4288085770
1.7219543 -2.3857565 -1.7849314 4288085770
3.7001953 -3.0465388 -1.7812619 4288085770
1.5280762 -2.357091 -1.7880256 4288085770
3.3972473 -2.9880428 -1.7836194 4288085770
1.3200989 -2.3214149 -1.7853022 4288085770
3.1132812 -2.9315176 -1.7857761 4288085770
1.1421814 -2.2937212 -1.7882318 4288085770
2.8323059 -2.8739734 -1.7859099 4288085770
0.96832275 -2.2650213 -1.7911282 4288085770
2.5552979 -2.8134136 -1.7840219 4288085770
0.78533936 -2.2303095 -1.7891502 4288085770
2.3254089 -2.7678137 -1.7885764 4288085770
0.61135864 -2.1975937 -1.7890713 4288085770
2.0633545 -2.7062225 -1.7855456 4288085770
0.44046021 -2.1638603 -1.7869687 4288085770
1.8283997 -2.6525965 -1.784199 4288085770
0.28952026 -2.1351118 -1.7876372 4288085770
1.5983582 -2.5979586 -1.7818086 4288085770
0.13256836 -2.1023617 -1.7863896 4288085770
1.3854065 -2.5472975 -1.780225 4288085770
-0.012359619 -2.0716028 -1.7870102 4288085770
1.1864319 -2.49963 -1.7814844 4288085770
-0.14425659 -2.0448399 -1.7904775 4288085770
0.99545288 -2.4529419 -1.7816584 4288085770
-0.2791748 -2.0150642 -1.7909932 4288085770
0.81954956 -2.4092474 -1.7846646 4288085770
-0.40911865 -1.98528 -1.7914588 4288085770
0.62051392 -2.3545399 -1.7789669 4288085770
-0.52999878 -1.9584932 -1.7938175 4288085770
0.46960449 -2.3168154 -1.7836885 4288085770
0.30566406 -2.2720823 -1.7835822 4288085770
0.1557312 -2.2313318 -1.7843125 4288085770
0.017791748 -2.1935797 -1.787905 4288085770
-0.11209106 -2.1578131 -1.7914059 4288085770
-0.25006104 -2.1160374 -1.7910228 4288085770
-0.39001465 -2.0732555 -1.7886662 4288085770
-0.52700806 -2.0294552 -1.7842855 4288085770
-0.50744629 0.20640087 -1.7748826 4288085770
-0.38235474 0.21860409 -1.7756312 4288085770
-0.25823975 0.23081779 -1.7743888 4288085770
-0.12915039 0.24404526 -1.772099 4288085770
0.023010254 0.2562809 -1.7755637 4288085770
0.15805054 0.26952934 -1.7712104 4288085770
0.30813599 0.28179073 -1.7696946 4288085770
0.47427368 0.29306698 -1.7700057 4288085770
-0.53067017 0.31832409 -1.7785909 4288085770
0.65539551 0.30635929 -1.7721708 4288085770
-0.40359497 0.32854843 -1.776304 4288085770
0.8555603 0.31867886 -1.7751319 4288085770
-0.27249146 0.33877468 -1.7749748 4288085770
1.041626 0.33100128 -1.7732375 4288085770
-0.12033081 0.35001659 -1.7774312 4288085770
1.2597656 0.34435368 -1.7760141 4288085770
0.028747559 0.36026764 -1.7769132 4288085770
1.5150146 0.35673237 -1.7853982 4288085770
0.18084717 0.37053776 -1.774363 4288085770
1.7330627 0.36912251 -1.781167 4288085770
0.33792114 0.38081551 -1.7717597 4288085770
1.9641724 0.38253021 -1.7778046 4288085770
0.52108765 0.39011097 -1.7738786 4288085770
2.2162476 0.39496994 -1.7752163 4288085770
0.73025513 0.40143108 -1.7797363 4288085770
2.491333 0.40844345 -1.7733927 4288085770
0.91033936 0.41075516 -1.7758861 4288085770
2.7834778 0.42094803 -1.7713859 4288085770
1.1304932 0.42111111 -1.7786214 4288085770
3.1055603 0.43349457 -1.7710631 4288085770
1.3586121 0.43048763 -1.7802672 4288085770
3.4707031 0.44809341 -1.7743006 4288085770
1.5987549 0.4408884 -1.7807915 4288085770
3.8488464 0.46073341 -1.7743895 4288085770
1.8589172 0.45030975 -1.7840998 4288085770
4.2799988 0.47543812 -1.778934 4288085770
2.105011 0.45975113 -1.7795537 4288085770
4.7521973 0.4892168 -1.783042 4288085770
2.3730774 0.46822357 -1.7757711 4288085770
5.2663574 0.50405788 -1.7887144 4288085770
2.6691895 0.4767313 -1.774694 4288085770
5.8125 0.51897144 -1.7910495 4288085770
2.9943542 0.48627186 -1.7763174 4288085770
6.3746338 0.53293514 -1.7892091 4288085770
3.3475037 0.49486923 -1.7766411 4288085770
7.0608215 0.54906845 -1.7950804 4288085770
3.7316284 0.50351524 -1.7776389 4288085770
7.7720032 0.56427288 -1.795681 4288085770
4.1477661 0.51220608 -1.7803001 4288085770
8.5591125 0.58061695 -1.7944882 4288085770
4.6209717 0.52097702 -1.7863622 4288085770
9.4512634 0.59712982 -1.7951927 4288085770
5.1401978 0.52981758 -1.7939401 4288085770
10.422394 0.61379337 -1.793066 4288085770
5.656311 0.53770256 -1.7925417 4288085770
11.544556 0.63171101 -1.7913587 4288085770
6.2464905 0.54469585 -1.7943606 4288085770
12.918793 0.65200806 -1.7990172 4288085770
6.9096985 0.55180073 -1.7984123 4288085770
14.348877 0.67148018 -1.7920787 4288085770
7.6008301 0.55897903 -1.798167 4288085770
8.3919983 0.5643158 -1.7998588 4288085770
9.2461548 0.56977463 -1.7988865 4288085770
10.189301 0.57339191 -1.7969661 4288085770
11.295502 0.57726479 -1.7993312 4288085770
12.614777 0.58048058 -1.8054507 4288085770
14.133087 0.58302784 -1.8134696 4288085770
8.0859985 -5.0914264 -0.46006811 4293729569
8.2104797 -5.0343928 -0.49894321 4293729569
9.3931274 -5.3646569 -0.57726711 4293729569
9.6056824 -5.3284817 -0.62006491 4293729569
10.539703 -5.5430622 0.15335929 4293729569
10.475006 -5.5192604 -0.68951362 4293729569
10.577972 -5.4351645 0.11829558 4293729569
10.857727 -5.5298133 -0.73920184 4293729569
12.958801 -6.1170073 0.095924497 4293729569
13.192749 -6.194303 -0.87916762 4293729569
13.003052 -5.9911008 0.05984658 4293729569
14.323334 -6.4246993 -0.96752435 4293729569
11.970734 -5.5135183 -0.8858723 4293729569
11.985962 -5.3856244 -0.91428071 4293729569
12.386627 -5.3751321 -0.96186107 4293729569
13.532166 -5.5834923 -1.0491469 4293729569
13.880493 0.97315598 -1.8058562 4288085770
12.489319 0.99250603 -1.7924848 4288085770
11.43335 1.0164423 -1.7951355 4288085770
10.441315 1.0375299 -1.7910166 4288085770
9.5512695 1.0568161 -1.7866769 4288085770
8.8203125 1.0783882 -1.78845 4288085770
8.116333 1.0980234 -1.7868965 4288085770
7.484375 1.1167994 -1.7854819 4288085770
6.885376 1.1336479 -1.7816691 4288085770
13.525085 1.6325645 -1.7940922 4288085770
6.40448 1.1536961 -1.785459 4288085770
12.428101 1.6354275 -1.7941704 4288085770
5.9184875 1.1717577 -1.7833042 4288085770
11.414154 1.6364632 -1.7912543 4288085770
5.4825439 1.1899109 -1.7825539 4288085770
10.526184 1.6407433 -1.7888477 4288085770
5.0646057 1.2071037 -1.7805862 4288085770
9.7412109 1.6472158 -1.7882206 4288085770
4.6836243 1.2233696 -1.7781746 4288085770
9.0072021 1.6527967 -1.7849836 4288085770
4.3176575 1.239665 -1.7755854 4288085770
8.3432922 1.6595097 -1.7829161 4288085770
3.9826965 1.2560225 -1.7726266 4288085770
7.7633362 1.6693802 -1.7828574 4288085770
3.685791 1.2744408 -1.7732217 4288085770
7.2154236 1.6783161 -1.7814147 4288085770
3.3817749 1.2898626 -1.7688916 4288085770
6.6954041 1.6853189 -1.7766321 4288085770
3.1238708 1.3073578 -1.7690187 4288085770
6.2825317 1.7004986 -1.7805994 4288085770
2.8538818 1.3218517 -1.7632802 4288085770
5.871582 1.7136927 -1.7815375 4288085770
2.6309814 1.3404121 -1.763994 4288085770
5.462616 1.7229109 -1.7764394 4288085770
2.4310608 1.3590078 -1.7674339 4288085770
5.133728 1.7382536 -1.7804065 4288085770
2.2572327 1.3806429 -1.7735727 4288085770
4.7977905 1.7506037 -1.7784476 4288085770
2.0763245 1.400279 -1.7757895 4288085770
4.4568176 1.7609596 -1.7725434 4288085770
1.8903809 1.4179163 -1.7750602 4288085770
4.1478577 1.7723684 -1.7692604 4288085770
1.7174683 1.4365768 -1.7751791 4288085770
3.8678589 1.7848291 -1.7666345 4288085770
1.5274658 1.4502296 -1.7684848 4288085770
3.6019287 1.7983189 -1.7638457 4288085770
1.3635254 1.4669151 -1.7664902 4288085770
3.368988 1.8148623 -1.7636738 4288085770
1.2436829 1.490654 -1.7729936 4288085770
3.1510925 1.8304367 -1.7633181 4288085770
1.0997314 1.5073786 -1.7707601 4288085770
2.9371643 1.8460207 -1.7619159 4288085770
0.95776367 1.5251074 -1.7685072 4288085770
2.735199 1.8616304 -1.7603707 4288085770
0.83786011 1.5448656 -1.7699976 4288085770
2.5743408 1.8832998 -1.7643554 4288085770
0.70788574 1.5616226 -1.7665982 4288085770
2.4174194 1.9049807 -1.7672932 4288085770
0.59698486 1.5814018 -1.7669811 4288085770
2.298584 1.9317102 -1.7767928 4288085770
0.49008179 1.6001911 -1.7663133 4288085770
2.1557312 1.9534178 -1.7795632 4288085770
0.38919067 1.6199865 -1.7675772 4288085770
2.0158386 1.9731359 -1.7812905 4288085770
0.29425049 1.6407986 -1.7677732 4288085770
1.8869019 1.9958725 -1.7838979 4288085770
0.1862793 1.6585989 -1.7641163 4288085770
1.7519836 2.0156126 -1.7825682 4288085770
0.10137939 1.6794262 -1.7651925 4288085770
1.6039734 2.0313387 -1.7773798 4288085770
0.011413574 1.6982555 -1.7633224 4288085770
1.4599915 2.0460787 -1.7711403 4288085770
-0.05847168 1.722105 -1.7662299 4288085770
1.3490601 2.0678616 -1.7705293 4288085770
-0.15246582 1.7389364 -1.7614014 4288085770
1.2361145 2.0876446 -1.7689357 4288085770
-0.20932007 1.7648039 -1.7661598 4288085770
1.1221924 2.1074286 -1.766355 4288085770
-0.29129028 1.7836561 -1.7621949 4288085770
1.0252075 2.1302395 -1.7655807 4288085770
-0.36221313 1.8045187 -1.7611046 4288085770
0.92730713 2.1510515 -1.7638113 4288085770
-0.41506958 1.8303986 -1.7648156 4288085770
0.83834839 2.1748791 -1.7629449 4288085770
-0.46801758 1.8552856 -1.7665236 4288085770
0.74734497 2.1967096 -1.7600961 4288085770
-0.53594971 1.8751621 -1.7633939 4288085770
0.67547607 2.2225628 -1.7610323 4288085770
-0.57684326 1.9030628 -1.7679679 4288085770
0.59951782 2.2464151 -1.7600105 4288085770
0.52154541 2.2702713 -1.7570126 4288085770
0.45562744 2.2961397 -1.7568772 4288085770
0.39569092 2.3230209 -1.7566736 4288085770
0.33575439 2.3509054 -1.7554741 4288085770
0.32189941 2.3928347 -1.7667704 4288085770
0.22784424 2.4066954 -1.753931 4288085770
0.17990112 2.4366007 -1.7535939 4288085770
0.13595581 2.4665098 -1.7542083 4288085770
0.10302734 2.5014381 -1.7557082 4288085770
0.052062988 2.528348 -1.7523968 4288085770
0.006072998 2.5572701 -1.7480326 4288085770
-0.018859863 2.5922155 -1.7494357 4288085770
-0.024719238 2.6351795 -1.7556372 4288085770
-0.063690186 2.6651125 -1.7521915 4288085770
-0.083679199 2.7010708 -1.7525375 4288085770
-0.097595215 2.7410364 -1.7538252 4288085770
-0.12460327 2.7739944 -1.7502451 4288085770
-0.1164856 2.8229828 -1.7572982 4288085770
-0.14248657 2.8559504 -1.7517056 4288085770
-0.14544678 2.8999348 -1.7538736 4288085770
-0.15643311 2.9399214 -1.7511256 4288085770
-0.15036011 2.9869232 -1.7531946 4288085770
-0.15133667 3.0299234 -1.7523341 4288085770
-0.14627075 3.0759325 -1.7524111 4288085770
-0.14529419 3.1209393 -1.7505333 4288085770
-0.13726807 3.1689577 -1.7495806 4288085770
-0.11221313 3.2250271 -1.7524393 4288085770
-0.081176758 3.2850742 -1.7562492 4288085770
-0.06817627 3.3351049 -1.7542417 4288085770
-0.043182373 3.3911581 -1.7531095 4288085770
-0.0081481934 3.4512167 -1.7558689 4288085770
0.033874512 3.5162888 -1.7585609 4288085770
0.072875977 3.5803671 -1.7582855 4288085770
0.14297485 3.6604729 -1.7666888 4288085770
0.19198608 3.7285643 -1.7683043 4288085770
0.23693848 3.7956581 -1.766964 4288085770
0.29693604 3.869772 -1.7684679 4288085770
0.36697388 3.9508963 -1.7718716 4288085770
0.43890381 4.0320349 -1.7732503 4288085770
0.51190186 4.1141739 -1.7746191 4288085770
0.61392212 4.2143517 -1.7816978 4288085770
0.71386719 4.3135357 -1.7857959 4288085770
0.7918396 4.3977013 -1.783108 4288085770
-0.56188965 3.6770287 -1.7730534 4288085770
0.89276123 4.4958982 -1.7841883 4288085770
-0.49890137 3.7441578 -1.7714927 4288085770
1.0107117 4.6051197 -1.7880988 4288085770
-0.43191528 3.8142977 -1.7698929 4288085770
1.1106567 4.7023306 -1.7851849 4288085770
-0.34390259 3.8964558 -1.7740784 4288085770
1.2345581 4.8135719 -1.7860265 4288085770
-0.25390625 3.980628 -1.7762454 4288085770
1.3894958 4.9458542 -1.7935627 4288085770
-0.15994263 4.0668058 -1.7783697 4288085770
1.5313721 5.0681362 -1.7942204 4288085770
-0.047943115 4.1630077 -1.784308 4288085770
1.6872864 5.1984425 -1.7957337 4288085770
0.050018311 4.2492065 -1.783381 4288085770
1.8681946 5.3447819 -1.801996 4288085770
0.1569519 4.3414173 -1.7833641 4288085770
2.0530396 5.4941483 -1.8042183 4288085770
0.27288818 4.4386473 -1.7842534 4288085770
2.2519226 5.6505299 -1.8082914 4288085770
0.39785767 4.5398893 -1.7860451 4288085770
2.4648132 5.8159409 -1.8122232 4288085770
0.52877808 4.6451483 -1.7867763 4288085770
2.7036133 5.9974022 -1.8178911 4288085770
0.67672729 4.759429 -1.7913296 4288085770
2.9514465 6.1838818 -1.8224635 4288085770
0.82064819 4.8707209 -1.7899196 4288085770
3.2392578 6.3954296 -1.8316317 4288085770
0.98956299 4.9970427 -1.7942548 4288085770
3.5430603 6.617012 -1.8396358 4288085770
1.1694946 5.1293898 -1.7984741 4288085770
3.8688354 6.8506374 -1.8474095 4288085770
1.3544006 5.2627468 -1.8026342 4288085770
4.2366028 7.1113358 -1.8587596 4288085770
1.5532837 5.4061317 -1.8056555 4288085770
4.6002502 7.3680553 -1.8621416 4288085770
1.768158 5.5565529 -1.8095026 4288085770
5.0129395 7.6548557 -1.8710234 4288085770
2.0030212 5.7190056 -1.8141446 4288085770
5.4825745 7.9777565 -1.8833284 4288085770
2.2628784 5.8965034 -1.8215299 4288085770
2.5407104 6.0840397 -1.8277266 4288085770
2.8305664 6.2755966 -1.8347867 4288085770
3.1373596 6.4771976 -1.8396702 4288085770
3.485199 6.7028599 -1.850131 4288085770
3.8409729 6.9305496 -1.857497 4288085770
4.2316895 7.1783104 -1.8654988 4288085770
4.6363831 7.4301071 -1.8713384 4288085770
5.0891113 7.710989 -1.8796842 4288085770
5.6107788 8.0319881 -1.8953164 4288085770
14.401917 -1.5373774 -1.7953048 4288085770
13.432037 -1.5553885 -1.7975049 4288085770
12.511078 -1.5672913 -1.7971079 4288085770
11.604065 -1.5711489 -1.7915647 4288085770
10.822144 -1.5777702 -1.7924292 4288085770
10.089233 -1.5802841 -1.7916887 4288085770
9.4102783 -1.5806875 -1.7912729 4288085770
8.7693176 -1.5800152 -1.7913833 4288085770
8.1753845 -1.5772438 -1.790904 4288085770
7.6154785 -1.572401 -1.7900021 4288085770
14.357147 -2.5134192 -1.7943077 4288085770
7.1065369 -1.5674572 -1.7904553 4288085770
13.256104 -2.45471 -1.7974451 4288085770
6.6145935 -1.5594721 -1.7887049 4288085770
12.202972 -2.3908777 -1.7929947 4288085770
