# .PCD v0.7 - Point Cloud Data file format
VERSION 0.7
FIELDS x y z rgb
SIZE 4 4 4 4
TYPE F F F U
COUNT 1 1 1 1
WIDTH 1128
HEIGHT 1
VIEWPOINT 0 0 0 1 0 0 0
POINTS 1128
DATA ascii
3.5730648 -3.2586184 -1.8238977 4288085770
5.1209507 -4.0151701 -1.8130976 4288085770
3.3922195 -3.1965809 -1.8199236 4288085770
4.9939775 -3.9840364 -1.8384616 4282675967
3.2233715 -3.1375437 -1.8170099 4288085770
4.7461443 -3.8879786 -1.8340844 4288085770
3.0754986 -3.0874929 -1.8192163 4288085770
4.4883299 -3.7839346 -1.8256356 4288085770
2.9286327 -3.0354509 -1.8194188 4288085770
4.2555037 -3.689889 -1.819327 4288085770
2.7767811 -2.9794188 -1.8165858 4288085770
4.0446615 -3.6048384 -1.8161426 4288085770
2.6469059 -2.9313736 -1.818873 4288085770
3.8518095 -3.5257854 -1.8150541 4288085770
2.5150433 -2.88234 -1.8181483 4288085770
3.6809435 -3.4567299 -1.8170937 4288085770
2.3771992 -2.8263164 -1.8143722 4288085770
3.516077 -3.3876724 -1.8191576 4288085770
2.2852879 -2.7942553 -1.8238751 4288085770
3.35322 -3.3176298 -1.8182256 4288085770
2.1604347 -2.7422323 -1.8211671 4288085770
3.1923618 -3.2485838 -1.8183059 4288085770
3.0454998 -3.1825418 -1.8184545 4288085770
2.895649 -3.1145058 -1.816583 4288085770
2.7498035 -3.0464759 -1.8137281 4288085770
2.6209373 -2.9854355 -1.8149689 4288085770
2.4980774 -2.9264045 -1.8142419 4288085770
2.3812141 -2.8693714 -1.8145471 4288085770
2.2783318 -2.8183274 -1.8189318 4288085770
2.1734676 -2.7652984 -1.8193011 4288085770
2.1884747 -0.48186779 -1.8122272 4288085770
2.2835979 -0.46890402 -1.8125529 4288085770
2.3797264 -0.45594406 -1.8118824 4288085770
2.4628792 -0.4400034 -1.8051484 4288085770
2.5839901 -0.42803097 -1.809581 4288085770
2.6941166 -0.4150753 -1.8089662 4288085770
2.8272285 -0.4031105 -1.8124465 4288085770
2.9733276 -0.392138 -1.8189824 4288085770
3.0884705 -0.37820339 -1.8133831 4288085770
3.2315884 -0.36524963 -1.814899 4288085770
2.1887074 -0.25595188 -1.806313 4288085770
3.3797092 -0.35329771 -1.8164387 4288085770
2.3128147 -0.24498034 -1.8107615 4288085770
3.5498209 -0.34234428 -1.8200696 4288085770
2.4249496 -0.23202944 -1.809154 4288085770
3.7019596 -0.32941341 -1.8166209 4288085770
2.5520687 -0.22107077 -1.8106142 4288085770
3.8710871 -0.31647491 -1.8162398 4288085770
2.6652069 -0.2091279 -1.8070146 4288085770
4.0562115 -0.30453825 -1.8169262 4288085770
2.8143139 -0.19816399 -1.8115618 4288085770
4.2493343 -0.29260302 -1.8176442 4288085770
2.9624252 -0.18720341 -1.8151051 4288085770
4.4444656 -0.28067827 -1.8163699 4288085770
3.1075535 -0.17525864 -1.8146323 4288085770
4.6595926 -0.26875401 -1.816175 4288085770
3.2646732 -0.16430902 -1.8162111 4288085770
4.8847208 -0.25683308 -1.8160198 4288085770
3.4198093 -0.15237522 -1.8137779 4288085770
5.1438341 -0.24591017 -1.8190035 4288085770
3.6019201 -0.14142513 -1.8174559 4288085770
5.4079571 -0.23399782 -1.8200028 4288085770
3.7870426 -0.13048792 -1.8181456 4288085770
5.6880827 -0.22309351 -1.8200697 4288085770
3.9781704 -0.11955738 -1.8178591 4288085770
5.9792175 -0.21020126 -1.818172 4288085770
4.1892881 -0.10862398 -1.8196518 4288085770
6.2963428 -0.19930792 -1.8183854 4288085770
4.416398 -0.097687721 -1.823508 4288085770
6.6464643 -0.18842077 -1.8197297 4288085770
4.6265402 -0.085778236 -1.8192925 4288085770
7.0135937 -0.17654753 -1.8191372 4288085770
4.8666716 -0.074866295 -1.8182001 4288085770
7.4397068 -0.16667557 -1.8227868 4288085770
5.150773 -0.064939022 -1.8242862 4288085770
7.8498487 -0.15482664 -1.8193647 4288085770
5.4179068 -0.054038525 -1.8223006 4288085770
8.3219757 -0.14398479 -1.8191925 4288085770
5.69205 -0.043148518 -1.8183424 4288085770
8.829114 -0.13216162 -1.8171551 4288085770
6.0171709 -0.032253742 -1.8195868 4288085770
9.4102335 -0.12134552 -1.8194152 4288085770
6.3592968 -0.02136898 -1.8198984 4288085770
10.032365 -0.11055326 -1.8188375 4288085770
6.7374163 -0.011490822 -1.8213565 4288085770
10.746489 -0.10078096 -1.8206288 4288085770
7.1485338 -0.0016183853 -1.8239455 4288085770
11.604582 -0.091024399 -1.8299912 4288085770
7.5796595 0.0092406273 -1.8246096 4288085770
12.53569 -0.081305981 -1.8356428 4288085770
8.0547886 0.019081116 -1.824452 4288085770
13.488836 -0.070630074 -1.8323773 4288085770
8.55093 0.029903889 -1.8213735 4288085770
14.61497 -0.059998989 -1.8317978 4288085770
9.1370354 0.039731026 -1.8266559 4288085770
15.76115 -0.048418045 -1.8202928 4288085770
9.7641592 0.049530029 -1.8281004 4288085770
10.475279 0.059307098 -1.8308779 4288085770
11.296379 0.068067074 -1.8380953 4288085770
12.270455 0.076804638 -1.8519191 4288085770
13.13763 0.087478161 -1.8413099 4288085770
14.210779 0.097113609 -1.8375213 4288085770
15.427919 0.10570955 -1.8353069 4288085770
16.710114 0.11523342 -1.8203456 4288085770
15.842834 0.33817673 -1.8236799 4288085770
14.629923 0.35559607 -1.8309355 4288085770
13.516031 0.37095881 -1.8325808 4288085770
12.631101 0.38729382 -1.8451036 4288085770
11.70424 0.4015646 -1.8394738 4288085770
10.877379 0.41480398 -1.8342334 4288085770
10.172502 0.42902374 -1.8334583 4288085770
16.412762 0.59387684 -1.807748 4288085770
9.5316257 0.44221878 -1.831934 4288085770
15.164846 0.60630703 -1.8148913 4288085770
8.9357557 0.45539618 -1.8295829 4288085770
14.04595 0.61868095 -1.8185313 4288085770
8.4148769 0.46855879 -1.8295209 4288085770
13.020065 0.62900734 -1.8185383 4288085770
7.9409971 0.4817071 -1.8296394 4288085770
12.191154 0.64230394 -1.8262902 4288085770
7.5121098 0.49584961 -1.8319271 4288085770
11.350286 0.6525526 -1.8220097 4288085770
7.076251 0.50796032 -1.8261967 4288085770
10.614408 0.66377783 -1.8201287 4288085770
6.6993771 0.5200696 -1.8246934 4288085770
9.97752 0.67598915 -1.8226244 4288085770
6.354497 0.53317833 -1.8253087 4288085770
9.3936357 0.68717575 -1.8233286 4288085770
6.0086346 0.54526472 -1.8209248 4288085770
8.8537607 0.69933987 -1.822198 4288085770
5.7107573 0.55835438 -1.8207211 4288085770
8.3748693 0.71150303 -1.825302 4288085770
5.416893 0.5704298 -1.8175373 4288085770
7.916997 0.7236371 -1.8234869 4288085770
5.166008 0.58351374 -1.8195146 4288085770
7.5031166 0.73476696 -1.8238455 4288085770
4.9381142 0.59759855 -1.8235761 4288085770
7.1212387 0.74688292 -1.823323 4288085770
4.700242 0.60966539 -1.8226079 4288085770
6.7603626 0.75899124 -1.8228812 4288085770
4.4903593 0.62273216 -1.823743 4288085770
6.4125013 0.77007914 -1.8184941 4288085770
4.2645016 0.63477755 -1.8188211 4288085770
6.1176128 0.78418064 -1.8212979 4288085770
4.06563 0.6468277 -1.8170031 4288085770
5.830739 0.79526234 -1.8201452 4288085770
3.9067345 0.6608963 -1.8223301 4288085770
5.572854 0.80934858 -1.8220913 4288085770
3.7118759 0.67293167 -1.8175275 4288085770
5.3179798 0.82142067 -1.8210576 4288085770
3.5430088 0.68496895 -1.8148249 4288085770
5.0860996 0.83449364 -1.8221081 4288085770
3.3851337 0.69801044 -1.8141603 4288085770
4.8562336 0.84654903 -1.8191708 4288085770
3.233263 0.71105051 -1.8135188 4288085770
4.6693411 0.86062193 -1.82339 4288085770
3.0893917 0.72308397 -1.8119124 4288085770
4.4514828 0.871665 -1.818503 4288085770
2.9655056 0.73712826 -1.8143742 4288085770
4.2586126 0.88471365 -1.8167039 4288085770
2.8316402 0.75015402 -1.811802 4288085770
4.0827379 0.89676094 -1.8159742 4288085770
2.704771 0.76217842 -1.8092611 4288085770
3.9058723 0.90980053 -1.8132365 4288085770
2.5898933 0.77621078 -1.8097576 4288085770
3.751997 0.92284107 -1.812587 4288085770
2.4810162 0.78924179 -1.8102815 4288085770
3.5961275 0.9358778 -1.8109301 4288085770
2.3871269 0.80428123 -1.8138543 4288085770
3.4552536 0.94991469 -1.8103266 4288085770
2.2772636 0.81729555 -1.8103745 4288085770
3.313385 0.96294737 -1.8087234 4288085770
2.1753922 0.83031607 -1.8089254 4288085770
3.1805172 0.97597289 -1.806155 4288085770
3.0486507 0.98899841 -1.8035904 4288085770
2.9447613 1.004041 -1.8071246 4288085770
2.8288956 1.0180609 -1.8046172 4288085770
2.7270126 1.0330944 -1.8061593 4288085770
2.6281395 1.0481181 -1.8057128 4288085770
2.5392551 1.0641518 -1.8083004 4288085770
2.4353981 1.0771554 -1.8028436 4288085770
2.3585091 1.0931895 -1.8064773 4288085770
2.2706394 1.1082058 -1.8050731 4288085770
2.1877689 1.12322 -1.8036882 4288085770
2.1258755 1.1412537 -1.8083709 4288085770
2.1499023 3.2406926 -1.7961899 4288085770
2.2530346 3.3076644 -1.7992896 4288085770
2.3781509 3.386651 -1.8074207 4288085770
2.4812927 3.4516096 -1.807529 4288085770
2.6184082 3.5345924 -1.8156886 4288085770
2.7485371 3.613564 -1.8208387 4288085770
2.9046497 3.705549 -1.8310312 4288085770
3.0317936 3.7784958 -1.830196 4288085770
3.186924 3.8664594 -1.8354024 4288085770
3.3350677 3.9494076 -1.8366034 4288085770
2.1510315 3.3156638 -1.8058426 4288085770
3.4952106 4.0363564 -1.8388329 4288085770
2.3031311 3.3986635 -1.8190591 4288085770
3.6643524 4.1273022 -1.8410792 4288085770
2.3972931 3.4445944 -1.8122158 4288085770
3.8474903 4.2242517 -1.8453525 4288085770
2.5673866 3.5345969 -1.8274704 4288085770
4.0346346 4.3211918 -1.8476413 4288085770
2.7025204 3.6015539 -1.8296918 4288085770
4.2597609 4.4391494 -1.8569833 4288085770
2.8326664 3.6624994 -1.8289204 4288085770
4.4459219 4.5300679 -1.8542942 4288085770
2.9758072 3.7304449 -1.8291678 4288085770
4.6810589 4.6490092 -1.8606696 4288085770
3.1329384 3.8044035 -1.8334423 4288085770
4.933197 4.7729449 -1.8670882 4288085770
3.3040695 3.8833573 -1.8377485 4288085770
5.1773491 4.8898659 -1.8695067 4288085770
3.4712048 3.9593079 -1.8410527 4288085770
5.4664812 5.0308027 -1.878992 4288085770
3.6353531 4.0302424 -1.8403667 4288085770
5.7526274 5.1647224 -1.8844963 4288085770
3.818491 4.1091833 -1.8427186 4288085770
6.0577755 5.3066368 -1.8900381 4288085770
4.0246191 4.1991348 -1.84911 4288085770
6.3679314 5.4475398 -1.8936033 4288085770
4.2167616 4.2780638 -1.849496 4288085770
6.7010841 5.5974407 -1.8982167 4288085770
4.4318972 4.3670025 -1.8539261 4288085770
7.047246 5.7493277 -1.9008709 4288085770
4.6500387 4.4539318 -1.8563762 4288085770
7.4433947 5.9252243 -1.9096111 4288085770
4.8671913 4.5388484 -1.8558313 4288085770
7.8555517 6.1041069 -1.916399 4288085770
5.1303158 4.6437893 -1.8643743 4288085770
8.312706 6.3019838 -1.9252756 4288085770
5.4024458 4.7507234 -1.8719429 4288085770
8.7948685 6.5068479 -1.9332167 4288085770
5.6815805 4.8576455 -1.8775382 4288085770
9.3290138 6.7337203 -1.94726 4288085770
5.9647245 4.9625578 -1.8811573 4288085770
9.8491907 6.9455543 -1.9513153 4288085770
6.2728567 5.0764794 -1.8888324 4288085770
10.404367 7.1703849 -1.9574471 4288085770
6.5820055 5.1863785 -1.8915287 4288085770
11.067528 7.442215 -1.9717853 4288085770
6.9011526 5.2962742 -1.8942634 4288085770
11.754704 7.7170205 -1.9822019 4288085770
7.2452955 5.415175 -1.9000537 4288085770
12.450895 7.9888039 -1.9886657 4288085770
7.5794544 5.5230527 -1.8998539 4288085770
7.9496031 5.6459355 -1.9037259 4288085770
8.3477468 5.7748184 -1.9096782 4288085770
8.7599001 5.9056878 -1.9136753 4288085770
9.1860542 6.0375476 -1.9167213 4288085770
9.6631918 6.1874175 -1.9258832 4288085770
10.183331 6.3492775 -1.9361563 4288085770
10.681485 6.4961224 -1.9414111 4288085770
11.225634 6.6549602 -1.9487888 4288085770
11.803782 6.8217921 -1.9572612 4288085770
12.37195 6.9746008 -1.9597564 4288085770
12.98311 7.1394033 -1.9643631 4288085770
13.618279 7.3031936 -1.9680657 4288085770
14.332434 7.4919796 -1.9769603 4288085770
15.077592 7.6837511 -1.9849598 4288085770
15.768771 7.8415041 -1.9849021 4288085770
16.614925 8.0522547 -1.9962034 4288085770
16.66839 -2.4433894 -1.819504 4288085770
15.977491 -2.4741511 -1.8200045 4288085770
15.354582 -2.5029216 -1.8237555 4288085770
14.758677 -2.5287066 -1.8265966 4288085770
14.1388 -2.5405049 -1.8242841 4288085770
13.534924 -2.5493131 -1.8210196 4288085770
13.006026 -2.5621247 -1.823059 4288085770
12.508122 -2.5729413 -1.8262079 4288085770
12.01623 -2.5797653 -1.8283621 4288085770
11.499361 -2.5746074 -1.8243676 4288085770
11.028481 -2.5714517 -1.8235577 4288085770
10.582603 -2.5663037 -1.8228344 4288085770
10.134734 -2.5561647 -1.8200815 4288085770
16.451426 -3.9154968 -1.8082125 4288085770
9.721858 -2.5470357 -1.8194667 4288085770
15.619545 -3.8511953 -1.8127533 4288085770
9.3579626 -2.5428982 -1.8230591 4288085770
14.794683 -3.7789059 -1.8132844 4288085770
8.9840822 -2.5327702 -1.8235868 4288085770
14.04981 -3.7116375 -1.8151429 4288085770
8.6461906 -2.5256448 -1.8262653 4288085770
13.345944 -3.6453896 -1.8161625 4288085770
8.3123074 -2.5145264 -1.8279415 4288085770
12.713062 -3.5881529 -1.8204931 4288085770
7.9814272 -2.4994125 -1.8286114 4288085770
12.091199 -3.5239353 -1.8208349 4288085770
7.6845341 -2.4892969 -1.8324333 4288085770
11.517324 -3.4657259 -1.8233864 4288085770
7.3856544 -2.4741945 -1.8332255 4288085770
10.936477 -3.397542 -1.8198671 4288085770
7.0757837 -2.4540973 -1.8319535 4288085770
10.388625 -3.3323622 -1.8174872 4288085770
6.7909098 -2.4350033 -1.8317815 4288085770
9.8917608 -3.2731924 -1.8173286 4288085770
6.5430117 -2.4239001 -1.8367862 4288085770
9.4278965 -3.2170353 -1.8173091 4288085770
6.2761374 -2.4028125 -1.8366739 4288085770
8.9810343 -3.1598816 -1.8173503 4288085770
6.0232639 -2.3827295 -1.8366197 4288085770
8.5961514 -3.1137314 -1.8216769 4288085770
5.7873812 -2.3636441 -1.8386348 4288085770
8.1852932 -3.0566006 -1.8198556 4288085770
5.5594978 -2.3445611 -1.8406806 4288085770
7.8304138 -3.0104651 -1.8232967 4288085770
5.3036499 -2.3145037 -1.8345708 4288085770
7.5035248 -2.9693313 -1.8288667 4288085770
5.1107512 -2.2994146 -1.8407677 4288085770
7.1606655 -2.918222 -1.8273318 4288085770
4.8908901 -2.2733564 -1.837813 4288085770
6.8497934 -2.8721108 -1.828941 4288085770
4.6810198 -2.2492924 -1.8369055 4288085770
6.5499201 -2.827003 -1.8305966 4288085770
4.4771557 -2.2232356 -1.8350117 4288085770
6.263051 -2.7809043 -1.8312974 4288085770
4.2782907 -2.1961794 -1.8331327 4288085770
5.9931746 -2.7388024 -1.8340808 4288085770
4.0974159 -2.1731215 -1.8333403 4288085770
5.700326 -2.6847239 -1.8297235 4288085770
3.9135523 -2.1460705 -1.8315185 4288085770
5.4544554 -2.6436391 -1.830603 4288085770
3.7356911 -2.1200266 -1.8287243 4288085770
5.1916075 -2.5925708 -1.8263733 4288085770
3.5818043 -2.0989637 -1.8320438 4288085770
4.9757242 -2.5554819 -1.8303852 4288085770
3.4219341 -2.072917 -1.831318 4288085770
4.7488661 -2.5114174 -1.8283241 4288085770
3.2620773 -2.0458794 -1.828588 4288085770
4.5360022 -2.469348 -1.828325 4288085770
3.1191998 -2.0238295 -1.8299451 4288085770
4.3241472 -2.425292 -1.8253212 4288085770
2.9763279 -1.9987884 -1.8292888 4288085770
4.1322756 -2.3872256 -1.8264203 4288085770
2.8284683 -1.9697542 -1.8265955 4288085770
3.9543991 -2.3501592 -1.828577 4288085770
2.7015896 -1.9477096 -1.8280138 4288085770
3.782526 -2.3140998 -1.8297613 4288085770
2.5717201 -1.9226727 -1.8274071 4288085770
3.5966759 -2.2710571 -1.8258609 4288085770
2.4598351 -1.9026246 -1.8308911 4288085770
3.4507885 -2.2399926 -1.8301666 4288085770
2.3449516 -1.8795795 -1.8333507 4288085770
3.2829323 -2.1989522 -1.8273439 4288085770
2.22509 -1.8535552 -1.8307776 4288085770
3.1250763 -2.159915 -1.8245683 4288085770
2.9722176 -2.1218791 -1.8218161 4288085770
2.847332 -2.0918221 -1.8262063 4288085770
2.7074699 -2.0547862 -1.8245082 4288085770
2.5806026 -2.0217509 -1.8238775 4288085770
2.4647255 -1.9907055 -1.8262974 4288085770
2.3428593 -1.9566708 -1.8256813 4288085770
2.2229977 -1.9226465 -1.8230729 4288085770
2.123106 -1.8935976 -1.8275628 4288085770
2.1849289 0.16444492 -1.7974806 4288085770
2.2950573 0.17539358 -1.7968466 4288085770
2.4201698 0.18735504 -1.8002646 4288085770
2.5363064 0.19829273 -1.7976533 4288085770
2.673418 0.21024513 -1.8001167 4288085770
2.8075409 0.2221899 -1.8005687 4288085770
2.9636517 0.23414421 -1.8051038 4288085770
3.1157703 0.24608707 -1.8066236 4288085770
2.1838474 0.26141024 -1.8020315 4288085770
3.2629108 0.25800848 -1.8031247 4288085770
2.3039742 0.27135515 -1.8014396 4288085770
3.4310322 0.26894617 -1.8047096 4288085770
2.4420776 0.28132105 -1.8069155 4288085770
3.6121464 0.28088188 -1.8073387 4288085770
2.5722065 0.29026222 -1.8063657 4288085770
3.806263 0.29281425 -1.8100171 4288085770
2.6953487 0.29918814 -1.8017895 4288085770
4.0093832 0.30473852 -1.8117296 4288085770
2.8534603 0.30913734 -1.805341 4288085770
4.2195053 0.31665564 -1.8124683 4288085770
3.0095787 0.31807852 -1.8068891 4288085770
4.4416294 0.32756853 -1.8132567 4288085770
3.1766949 0.32801962 -1.8094745 4288085770
4.6787453 0.33948517 -1.8160974 4288085770
3.335825 0.33594656 -1.8080384 4288085770
4.9308681 0.3513875 -1.8169945 4288085770
3.5209408 0.34488153 -1.8106962 4288085770
5.187995 0.36328316 -1.8169107 4288085770
3.7190475 0.3538208 -1.8154029 4288085770
5.4681225 0.37417078 -1.8169179 4288085770
3.9041805 0.36173391 -1.8130651 4288085770
5.7652502 0.38605213 -1.8169848 4288085770
4.1292906 0.37065935 -1.8168737 4288085770
6.0843735 0.39692545 -1.8171393 4288085770
4.3623972 0.37958622 -1.8217123 4288085770
6.4404879 0.40879965 -1.8204288 4288085770
4.5955229 0.3874898 -1.8215554 4288085770
6.8116188 0.42064953 -1.8197751 4288085770
4.8466415 0.39439774 -1.823471 4288085770
7.2257338 0.43250227 -1.8232834 4288085770
5.0937767 0.40128326 -1.8203714 4288085770
7.6808491 0.44434071 -1.8269465 4288085770
5.3778992 0.40917349 -1.821407 4288085770
8.1419849 0.45614958 -1.8246324 4288085770
5.673028 0.41505146 -1.820493 4288085770
8.6581144 0.46794748 -1.8245256 4288085770
5.9901524 0.42192554 -1.8206573 4288085770
9.250227 0.48073626 -1.828701 4288085770
6.3402719 0.42779207 -1.8219508 4288085770
9.864357 0.49249935 -1.8289641 4288085770
6.721386 0.43365622 -1.8253611 4288085770
10.557484 0.50423384 -1.829525 4288085770
7.1315031 0.43950605 -1.8278809 4288085770
11.30362 0.51594019 -1.8282861 4288085770
7.5756187 0.44434357 -1.8305335 4288085770
12.204727 0.52862263 -1.8346275 4288085770
8.0427418 0.44916344 -1.8312726 4288085770
13.117874 0.54025507 -1.8310184 4288085770
8.5428696 0.45196247 -1.8301451 4288085770
14.120036 0.54983282 -1.8227544 4288085770
9.0969992 0.45474243 -1.8292215 4288085770
15.429149 0.56436014 -1.8286262 4288085770
9.7361088 0.45651388 -1.8336231 4288085770
16.668344 0.57281208 -1.8122605 4288085770
10.40023 0.45725489 -1.8331233 4288085770
11.159349 0.45796919 -1.8349818 4288085770
12.09143 0.45766687 -1.8474976 4288085770
12.938593 0.45329618 -1.8377104 4288085770
13.946732 0.44689417 -1.8345395 4288085770
15.105864 0.43944263 -1.8329427 4288085770
16.28805 0.42691898 -1.8174551 4288085770
7.5284424 -5.2869501 -0.09365394 4293729569
7.4964304 -5.2037468 -0.1371557 4293729569
7.5314054 -5.1535692 -0.18105607 4293729569
7.5773754 -5.1063948 -0.22501101 4293729569
16.94544 -6.640976 -1.5936731 4293729569
16.687613 -6.4048424 -1.60264 4293729569
13.896844 -5.3446741 -1.4024732 4293729569
14.054019 -5.2705097 -0.57070279 4293729569
13.924924 -5.2255888 -1.4250324 4293729569
14.042105 -5.1414156 -0.5920682 4293729569
16.017147 -5.7515268 -1.619173 4293729569
15.84432 -5.558445 -1.6236507 4293729569
15.765461 -5.394372 -1.6346084 4293729569
15.620638 -5.2113104 -1.6372353 4293729569
15.540792 -5.048254 -1.644194 4293729569
15.521927 -4.9052067 -1.6544693 4293729569
15.466085 -4.751173 -1.6585579 4293729569
15.472226 -4.6141434 -1.6669532 4293729569
15.82923 -4.5671186 -1.7040573 4293729569
16.388155 -4.563097 -1.7581043 4288085770
17.095024 -4.5880747 -1.824831 4288085770
16.944443 -4.2560978 -1.8097537 4288085770
16.998606 -4.1221285 -1.812343 4288085770
17.084766 -3.9931574 -1.8150693 4288085770
16.735098 0.68956709 -1.8151925 4288085770
15.585206 0.72805977 -1.8208799 4288085770
14.512333 0.76249504 -1.8208636 4288085770
13.549463 0.7948823 -1.8202522 4288085770
12.703587 0.82522774 -1.8210707 4288085770
11.927716 0.85353661 -1.8201503 4288085770
11.204863 0.87880135 -1.8144346 4288085770
10.584992 0.90504837 -1.8140846 4288085770
10.068098 0.93228221 -1.8201001 4288085770
16.457449 1.3605468 -1.7990339 4288085770
9.525239 0.95548058 -1.8160409 4288085770
15.418554 1.3769877 -1.8032252 4288085770
9.0483665 0.97766232 -1.8142239 4288085770
14.457664 1.3913841 -1.8047068 4288085770
8.6354837 1.0028412 -1.8176227 4288085770
13.630772 1.408736 -1.8086555 4288085770
8.2246122 1.025001 -1.8170429 4288085770
12.795908 1.4200506 -1.803604 4288085770
7.8847227 1.0491555 -1.8217087 4288085770
12.091036 1.4333267 -1.8020099 4288085770
7.534852 1.0712912 -1.8213483 4288085770
11.451157 1.4495866 -1.8026358 4288085770
7.198988 1.0914123 -1.8190476 4288085770
10.891271 1.4658241 -1.8055487 4288085770
6.8981161 1.1125286 -1.8188678 4288085770
10.381391 1.4830322 -1.8066369 4288085770
6.6232433 1.1336346 -1.8187816 4288085770
9.8975105 1.4992304 -1.8078233 4288085770
6.3643665 1.1547389 -1.8197529 4288085770
9.4576359 1.5164063 -1.8081632 4288085770
6.1105013 1.1748276 -1.8177469 4288085770
9.0537539 1.5335727 -1.8096323 4288085770
5.8976154 1.1969273 -1.8218788 4288085770
8.6728773 1.5507257 -1.8101841 4288085770
5.6717501 1.2170048 -1.8199738 4288085770
8.3269978 1.569869 -1.8118526 4288085770
5.4578838 1.2360775 -1.8181163 4288085770
8.0021219 1.5879998 -1.812601 4288085770
5.2750006 1.2581611 -1.8213562 4288085770
7.6972437 1.6061223 -1.8134216 4288085770
5.0701456 1.2762167 -1.8165359 4288085770
7.4033747 1.6232314 -1.8122863 4288085770
4.8902788 1.2952759 -1.814801 4288085770
7.1275053 1.6403332 -1.8112156 4288085770
4.7314034 1.3163364 -1.8151319 4288085770
6.8816261 1.6604328 -1.8122388 4288085770
4.5725355 1.3353872 -1.8134723 4288085770
6.6567497 1.6795237 -1.8133419 4288085770
4.4166689 1.3544374 -1.8118234 4288085770
6.4248781 1.6976082 -1.8124248 4288085770
4.2867908 1.3774951 -1.8142493 4288085770
6.209013 1.7156818 -1.810565 4288085770
4.146924 1.3965387 -1.8126578 4288085770
6.0241318 1.7377617 -1.812798 4288085770
4.0090637 1.4145722 -1.8090785 4288085770
5.8422594 1.7578306 -1.8130512 4288085770
3.9241657 1.4416394 -1.8176471 4288085770
5.6593933 1.7768915 -1.8113055 4288085770
3.8042974 1.4616754 -1.816123 4288085770
5.4785337 1.793942 -1.8075762 4288085770
3.6894321 1.481709 -1.814617 4288085770
5.3246574 1.8170049 -1.8089161 4288085770
3.5895586 1.5037458 -1.8151554 4288085770
5.1827812 1.8390632 -1.8103036 4288085770
3.4866943 1.5247748 -1.8136878 4288085770
5.0319185 1.8591063 -1.8076684 4288085770
3.3858261 1.5438025 -1.8122364 4288085770
4.9060431 1.8821578 -1.8091086 4288085770
3.2899647 1.5638244 -1.8097987 4288085770
4.7801752 1.9032009 -1.8085582 4288085770
3.2210789 1.5898671 -1.8144298 4288085770
4.6633024 1.926244 -1.8090309 4288085770
3.129221 1.6098824 -1.8110064 4288085770
4.5474339 1.9492826 -1.8085073 4288085770
3.0503502 1.6319065 -1.8106202 4288085770
4.4215813 1.9683022 -1.8029665 4288085770
2.9654808 1.6529195 -1.8072176 4288085770
4.3227005 1.9933393 -1.803495 4288085770
2.8866196 1.6739342 -1.8048365 4288085770
4.2238321 2.0173712 -1.8030279 4288085770
2.8117561 1.6949475 -1.8024695 4288085770
4.1229706 2.0403948 -1.8005581 4288085770
2.7428951 1.7179582 -1.8001149 4288085770
4.0450964 2.0674272 -1.8021522 4288085770
2.6900177 1.7439857 -1.8028034 4288085770
3.9722195 2.0954623 -1.8047596 4288085770
2.6321487 1.7680013 -1.8024833 4288085770
3.8823605 2.1184769 -1.8013295 4288085770
2.5932598 1.7970366 -1.8082082 4288085770
3.8134909 2.1465015 -1.8019514 4288085770
2.5373936 1.8210468 -1.8068955 4288085770
3.733633 2.1705122 -1.7985524 4288085770
2.4835339 1.8450518 -1.80459 4288085770
3.6697626 2.1995347 -1.7991875 4288085770
2.4186802 1.8660471 -1.7992591 4288085770
3.6118927 2.2295547 -1.7998396 4288085770
2.3887978 1.8970745 -1.8040069 4288085770
3.5480337 2.2565632 -1.7974842 4288085770
2.3479309 1.9250834 -1.8037295 4288085770
3.4941654 2.2875819 -1.7981458 4288085770
2.3090591 1.952096 -1.8044637 4288085770
3.4442978 2.318594 -1.7978219 4288085770
2.2632027 1.977093 -1.8011825 4288085770
3.3984318 2.3496048 -1.7975124 4288085770
2.223341 2.0030923 -1.7989179 4288085770
3.3495693 2.3796124 -1.7961967 4288085770
2.1844807 2.0290914 -1.7966568 4288085770
3.3097019 2.4136252 -1.7968948 4288085770
2.1625996 2.0621064 -1.7994243 4288085770
3.2688351 2.4456294 -1.7955987 4288085770
2.1397266 2.0931175 -1.8011974 4288085770
3.2239799 2.4756262 -1.7922974 4288085770
3.1891174 2.5086279 -1.791018 4288085770
3.1642532 2.5456347 -1.7917558 4288085770
3.1353931 2.581634 -1.790484 4288085770
3.108532 2.6166327 -1.7892238 4288085770
3.0946617 2.6576395 -1.7909824 4288085770
3.067812 2.6936243 -1.7867179 4288085770
3.046957 2.7306163 -1.78447 4288085770
3.043087 2.7756236 -1.7872456 4288085770
3.0322323 2.817611 -1.7850106 4288085770
3.0373611 2.8656151 -1.7878045 4288085770
3.0355015 2.9106081 -1.7875874 4288085770
3.0506325 2.9636128 -1.791394 4288085770
3.0717583 3.0206194 -1.7962031 4288085770
3.0809002 3.0706079 -1.7960023 4288085770
3.1030312 3.127605 -1.7988153 4288085770
3.1301632 3.186605 -1.8026366 4288085770
3.1453094 3.2405868 -1.8014386 4288085770
3.1794453 3.3035784 -1.8042663 4288085770
3.2325687 3.3755863 -1.8121203 4288085770
3.2787018 3.4445829 -1.816963 4288085770
3.3088493 3.5065582 -1.8157811 4288085770
3.3589916 3.577544 -1.8186288 4288085770
3.4191265 3.6555347 -1.8234795 4288085770
2.1250515 3.0409088 -1.7897121 4288085770
3.4742699 3.7305183 -1.8263264 4288085770
2.1701851 3.1019013 -1.7935886 4288085770
3.5284214 3.8044887 -1.8261743 4288085770
2.2173157 3.1648932 -1.7974628 4288085770
3.5885696 3.8824611 -1.8270249 4288085770
2.2714481 3.2318866 -1.8023434 4288085770
3.6657133 3.9704406 -1.8308899 4288085770
2.3185883 3.293869 -1.8042222 4288085770
3.7488537 4.0614219 -1.835762 4288085770
2.3647385 3.3558381 -1.8030974 4288085770
3.8270092 4.1503868 -1.8366257 4288085770
2.4248734 3.4258242 -1.8069853 4288085770
3.9211559 4.2473593 -1.8405093 4288085770
2.527977 3.5228486 -1.8229012 4288085770
4.0173082 4.3463216 -1.8423905 4288085770
2.5871296 3.5918121 -1.8217901 4288085770
4.1364489 4.4603019 -1.8502842 4288085770
2.6422844 3.6567731 -1.8196832 4288085770
4.2266226 4.5552397 -1.8461624 4288085770
2.7464027 3.7537785 -1.8316023 4288085770
4.3617659 4.6772137 -1.8540757 4288085770
2.8195553 3.8307409 -1.8315039 4288085770
4.4939222 4.7981701 -1.8579829 4288085770
2.8947163 3.9076934 -1.8294122 4288085770
4.6450777 4.9321284 -1.8638972 4288085770
2.9858627 3.9946628 -1.8323312 4288085770
4.7902422 5.0600753 -1.8668178 4288085770
3.0790176 4.0826216 -1.8332524 4288085770
4.9684 5.2100272 -1.873754 4288085770
3.1961555 4.1845984 -1.8401942 4288085770
5.1285706 5.3479633 -1.8756814 4288085770
3.3143024 4.2885613 -1.8441302 4288085770
5.3317318 5.5139098 -1.8836321 4288085770
3.4284592 4.3885164 -1.8460703 4288085770
5.5349035 5.6788425 -1.888587 4288085770
3.5716085 4.5064778 -1.8520299 4288085770
5.7620745 5.8597732 -1.8955531 4288085770
3.6907759 4.608417 -1.8509784 4288085770
6.0172453 6.057703 -1.9045396 4288085770
3.8609133 4.7433906 -1.861955 4288085770
6.2784243 6.2596207 -1.9115289 4288085770
4.0200729 4.8693366 -1.8659341 4288085770
6.5835991 6.4905434 -1.9235401 4288085770
4.1902342 5.0022779 -1.8699197 4288085770
6.8987827 6.7264533 -1.9335634 4288085770
4.3623962 5.1342144 -1.8729169 4288085770
7.2079811 6.9563379 -1.9375926 4288085770
4.57055 5.290163 -1.8819307 4288085770
7.5501814 7.2082224 -1.9446371 4288085770
4.7527285 5.4270811 -1.8819398 4288085770
7.9243927 7.4800887 -1.950702 4288085770
4.9778919 5.5910134 -1.8889762 4288085770
8.3575993 7.7899594 -1.9628004 4288085770
5.2230577 5.766943 -1.8970281 4288085770
8.8348131 8.1278162 -1.9759248 4288085770
5.477232 5.9468589 -1.903093 4288085770
5.7623997 6.146781 -1.913175 4288085770
6.0555763 6.3496904 -1.9212713 4288085770
6.4147415 6.5946093 -1.9374071 4288085770
6.7349377 6.8104897 -1.9415382 4288085770
7.0831347 7.0413628 -1.9466989 4288085770
7.4733315 7.2982364 -1.9558877 4288085770
7.8775349 7.5610962 -1.963098 4288085770
8.3317451 7.8539438 -1.9723464 4288085770
16.193947 -1.1790948 -1.8234417 4288085770
15.339033 -1.2157249 -1.8266374 4288085770
14.56711 -1.2513695 -1.8341171 4288085770
13.8232 -1.2800403 -1.8386626 4288085770
13.128298 -1.303741 -1.8413557 4288085770
12.480394 -1.32446 -1.8441985 4288085770
11.860502 -1.3391995 -1.8451115 4288085770
11.29161 -1.3529601 -1.8461969 4288085770
10.762716 -1.3647332 -1.8484125 4288085770
10.254821 -1.3745136 -1.850692 4288085770
16.136698 -2.0891242 -1.8303411 4288085770
9.7949209 -1.3833055 -1.8551339 4288085770
15.232792 -2.0677066 -1.8391041 4288085770
9.3650236 -1.3901134 -1.8586706 4288085770
14.295921 -2.0343165 -1.8386986 4288085770
8.9061546 -1.3889422 -1.8550709 4288085770
13.499031 -2.0089612 -1.8438157 4288085770
8.4712877 -1.3867855 -1.8505501 4288085770
12.676178 -1.9716411 -1.8387883 4288085770
8.05443 -1.380641 -1.8450736 4288085770
11.946316 -1.9403505 -1.8361112 4288085770
7.6825533 -1.3774953 -1.8437669 4288085770
11.239473 -1.9020915 -1.8284824 4288085770
7.3426733 -1.3743587 -1.8435714 4288085770
10.640599 -1.8748398 -1.8292785 4288085770
7.0377817 -1.3732228 -1.8465065 4288085770
10.127701 -1.8545957 -1.8364049 4288085770
6.7268972 -1.3690891 -1.8484071 4288085770
9.6378098 -1.8323708 -1.841602 4288085770
6.4230299 -1.3619814 -1.8453188 4288085770
9.1769266 -1.8101664 -1.8448999 4288085770
6.1471491 -1.355866 -1.8463321 4288085770
8.7010622 -1.7809792 -1.8431144 4288085770
5.9002562 -1.3517489 -1.850455 4288085770
8.2861814 -1.7567978 -1.8455633 4288085770
5.6333818 -1.3426471 -1.8494861 4288085770
7.8873053 -1.7316279 -1.8470632 4288085770
5.4134855 -1.3385367 -1.8547031 4288085770
7.5274239 -1.7094688 -1.8497123 4288085770
5.2095852 -1.3344283 -1.8609753 4288085770
7.1705503 -1.6843209 -1.850358 4288085770
4.9597311 -1.3203559 -1.8550431 4288085770
6.8296852 -1.6591892 -1.8490597 4288085770
4.7338667 -1.3072805 -1.8521985 4288085770
6.5248032 -1.6370535 -1.8518997 4288085770
4.5279894 -1.2971978 -1.852437 4288085770
6.2149372 -1.6119342 -1.850709 4288085770
4.3381081 -1.2871184 -1.853731 4288085770
5.9420547 -1.5898108 -1.8536602 4288085770
4.1512232 -1.2760439 -1.8540311 4288085770
5.6861639 -1.5696945 -1.8566799 4288085770
3.9793396 -1.2669668 -1.8563923 4288085770
5.4183006 -1.5445967 -1.854635 4288085770
3.8084583 -1.2558951 -1.8577478 4288085770
5.2014055 -1.5274825 -1.8608034 4288085770
3.6525707 -1.2458196 -1.8611598 4288085770
4.9425545 -1.4984031 -1.8557719 4288085770
3.4767151 -1.2297735 -1.8564755 4288085770
4.7146912 -1.4743204 -1.8538706 4288085770
3.3018608 -1.2127318 -1.8507901 4288085770
4.5128107 -1.4542322 -1.8560774 4288085770
3.1330109 -1.1946979 -1.8441212 4288085770
4.2969551 -1.4291639 -1.8522136 4288085770
2.9761486 -1.1786547 -1.840503 4288085770
4.110076 -1.4080806 -1.854468 4288085770
2.8452702 -1.1665993 -1.8419929 4288085770
3.9162149 -1.3840184 -1.8516848 4288085770
2.6954174 -1.1495676 -1.8363945 4288085770
3.7653189 -1.3679314 -1.8580871 4288085770
2.5735378 -1.1365156 -1.8379111 4288085770
3.5994434 -1.3468614 -1.8594146 4288085770
2.4466686 -1.1214762 -1.8364015 4288085770
3.4255867 -1.3228106 -1.8557009 4288085770
2.3307915 -1.1084304 -1.8369389 4288085770
3.2627258 -1.2997608 -1.8530298 4288085770
2.2059326 -1.0914011 -1.8334273 4288085770
3.0998707 -1.2747197 -1.8483499 4288085770
2.9629936 -1.255662 -1.8497874 4288085770
2.8041477 -1.2296314 -1.8431169 4288085770
2.6662846 -1.2065916 -1.8405328 4288085770
2.543417 -1.1865482 -1.8400142 4288085770
2.4355316 -1.1694927 -1.8435611 4288085770
2.3026772 -1.1454635 -1.8389899 4288085770
2.1889725 0.73452902 -1.8006063 4288085770
2.3110905 0.74948311 -1.8039484 4288085770
2.4352074 0.7634325 -1.8063016 4288085770
2.5513439 0.7763629 -1.8036324 4288085770
2.6824665 0.79030418 -1.8050094 4288085770
2.8305855 0.80524826 -1.8084389 4288085770
2.9727058 0.81918097 -1.8088528 4288085770
2.134737 0.75453901 -1.808315 4288085770
3.1118393 0.83210564 -1.807261 4288085770
2.2518578 0.76548672 -1.8096582 4288085770
3.2769566 0.84704208 -1.8107479 4288085770
2.3669891 0.77542114 -1.8079991 4288085770
3.4290905 0.85995626 -1.8081998 4288085770
2.5070972 0.78637743 -1.8134201 4288085770
3.6142044 0.8758893 -1.8127494 4288085770
2.6232357 0.79430294 -1.8097736 4288085770
3.7993288 0.88980818 -1.8143079 4288085770
2.7503681 0.8032279 -1.8071595 4288085770
4.0214281 0.90774393 -1.8229731 4288085770
2.8914967 0.81216097 -1.8075926 4288085770
4.2345457 0.92366004 -1.8266169 4288085770
3.0576019 0.82410622 -1.8130964 4288085770
4.4466743 0.93755817 -1.8262665 4288085770
3.2247181 0.83404207 -1.8166125 4288085770
4.6508169 0.95044184 -1.8218935 4288085770
3.363863 0.83994341 -1.8100525 4288085770
4.8819466 0.96433187 -1.8216068 4288085770
3.5579653 0.8518858 -1.8176503 4288085770
5.1330757 0.97821379 -1.8213876 4288085770
3.7320938 0.85879564 -1.8162037 4288085770
5.3992043 0.99308896 -1.8212143 4288085770
3.9521933 0.87073231 -1.8248892 4288085770
5.6743345 1.0069606 -1.8210758 4288085770
4.1503201 0.87863684 -1.8245184 4288085770
5.9754639 1.0218213 -1.8210202 4288085770
4.3484488 0.88453627 -1.8231571 4288085770
6.2895927 1.0356765 -1.8210131 4288085770
4.5685625 0.89244032 -1.8248606 4288085770
6.6357088 1.0515277 -1.8231045 4288085770
4.7826977 0.89732409 -1.8215574 4288085770
6.9848471 1.0653541 -1.820215 4288085770
5.0478067 0.90622282 -1.8264078 4288085770
7.3889694 1.0811803 -1.8225018 4288085770
5.2869463 0.9100914 -1.8221933 4288085770
7.8051052 1.0959833 -1.8208332 4288085770
5.5740585 0.91697645 -1.8261268 4288085770
8.2632332 1.1107774 -1.8213061 4288085770
5.8601856 0.92183852 -1.825066 4288085770
8.7393732 1.1255503 -1.8188394 4288085770
6.163312 0.92569828 -1.8250668 4288085770
9.2804966 1.1413138 -1.820587 4288085770
6.4834385 0.92954636 -1.8241247 4288085770
9.8726254 1.1580513 -1.821502 4288085770
6.8355589 0.93238974 -1.825295 4288085770
10.458776 1.170759 -1.8154144 4288085770
7.2056856 0.93421698 -1.8245304 4288085770
11.138913 1.1854455 -1.8136344 4288085770
7.5958118 0.93503523 -1.8238375 4288085770
11.930035 1.204108 -1.8172097 4288085770
8.0289316 0.93684435 -1.8252847 4288085770
12.771172 1.2197261 -1.8159668 4288085770
8.465066 0.9346292 -1.8217601 4288085770
13.728304 1.2383046 -1.8171009 4288085770
8.9591875 0.93240809 -1.8224308 4288085770
14.774445 1.2548316 -1.8155434 4288085770
9.4833155 0.92916512 -1.8212067 4288085770
15.91859 1.2693079 -1.8123246 4288085770
10.077428 0.92591071 -1.8242184 4288085770
10.674562 0.91662359 -1.8202672 4288085770
11.370674 0.90932131 -1.8226399 4288085770
12.144787 0.89998579 -1.8252844 4288085770
12.982903 0.88661957 -1.8271619 4288085770
13.891026 0.87020922 -1.8262887 4288085770
14.915144 0.85075426 -1.8268192 4288085770
16.017269 0.82424784 -1.8236439 4288085770
9.4501381 -7.6742706 -1.525317 4293729569
9.0973015 -7.3831234 -1.5357436 4293729569
8.7744579 -7.1119843 -1.5463669 4293729569
8.4806128 -6.860858 -1.5561838 4293729569
8.2227507 -6.6337357 -1.5672369 4293729569
7.9689074 -6.4096327 -1.5743176 4293729569
7.7300634 -6.1975393 -1.5805063 4293729569
7.5491905 -6.0214367 -1.5920625 4293729569
7.3413467 -5.8293619 -1.5964514 4293729569
7.1664867 -5.6592817 -1.6040567 4293729569
7.0246134 -5.5081997 -1.6138643 4293729569
11.426358 -7.8609438 -1.524004 4293729569
6.8547668 -5.3421383 -1.6175056 4293729569
11.097528 -7.5758171 -1.531543 4293729569
6.7019205 -5.1880875 -1.6202614 4293729569
10.791694 -7.3096952 -1.5392498 4293729569
6.5770531 -5.0500231 -1.6271886 4293729569
7.4345217 -5.3942537 -1.1977478 4293729569
6.480175 -4.9279594 -1.6362866 4293729569
7.4215736 -5.3121386 -1.2233219 4293729569
6.4022894 -4.8178968 -1.6465062 4293729569
7.4426117 -5.2470198 -1.2520924 4293729569
6.3134203 -4.7008495 -1.6526552 4293729569
7.5246229 -5.211894 -1.2862128 4293729569
6.2245531 -4.5848055 -1.6578091 4293729569
9.7654123 -6.2792053 -1.5859174 4293729569
6.1376905 -4.4697657 -1.6619749 4293729569
9.6045609 -6.103138 -1.5915438 4293729569
6.0718203 -4.3687286 -1.6672778 4293729569
9.4547033 -5.9340696 -1.598241 4293729569
6.0399189 -4.2836781 -1.6777731 4293729569
9.3208437 -5.7740126 -1.6030357 4293729569
5.9900436 -4.1896391 -1.684164 4293729569
9.2049837 -5.6249561 -1.6089433 4293729569
5.9351778 -4.094615 -1.6875334 4293729569
9.1051207 -5.4859066 -1.6149527 4293729569
6.0032196 -4.058527 -1.7126013 4293729569
8.996273 -5.3418703 -1.616908 4293729569
6.1611919 -4.0623865 -1.7551659 4288085770
8.9234066 -5.215827 -1.6230712 4293729569
6.3381548 -4.0722418 -1.7998241 4288085770
8.8495455 -5.0907936 -1.6272358 4293729569
6.4811506 -4.0641251 -1.8362813 4282675967
8.7856846 -4.9717598 -1.6314625 4293729569
6.4952488 -3.9960833 -1.8480145 4282675967
8.7328243 -4.8577356 -1.6347508 4293729569
6.3924465 -3.8771181 -1.835107 4288085770
8.6919632 -4.7487154 -1.6381038 4293729569
6.3486023 -3.7841234 -1.8325237 4288085770
8.6650953 -4.6486931 -1.6425468 4293729569
6.302762 -3.6911364 -1.827934 4288085770
8.6552267 -4.5546751 -1.6470767 4293729569
6.2958946 -3.6161308 -1.8305621 4288085770
8.6533556 -4.4646616 -1.6516527 4293729569
6.2790432 -3.5361385 -1.8291329 4288085770
8.657485 -4.3756475 -1.6562544 4293729569
6.273181 -3.462141 -1.8297694 4288085770
8.6886015 -4.299633 -1.6630095 4293729569
6.2823143 -3.3931417 -1.8314811 4288085770
8.7437115 -4.2306166 -1.6718804 4293729569
6.2754631 -3.3171587 -1.8291049 4288085770
8.923749 -4.2065592 -1.6973921 4293729569
6.2885952 -3.2501659 -1.8298399 4288085770
9.1747522 -4.2064905 -1.730261 4293729569
6.29774 -3.18118 -1.8285517 4288085770
9.4777308 -4.2224054 -1.7703835 4288085770
6.337863 -3.1231813 -1.8324217 4288085770
9.8067036 -4.242322 -1.8116149 4288085770
6.3669977 -3.061193 -1.8332349 4288085770
9.9917631 -4.2072916 -1.8320932 4288085770
6.4031353 -3.0012116 -1.8330818 4288085770
10.072891 -4.1373081 -1.8350495 4288085770
6.450264 -2.9452238 -1.8349855 4288085770
10.065074 -4.0353556 -1.8255496 4288085770
6.498395 -2.888236 -1.836888 4288085770
10.09024 -3.9453974 -1.8192198 4288085770
6.5435343 -2.8302617 -1.8357753 4288085770
10.177382 -3.875432 -1.8191972 4288085770
6.6186543 -2.7812719 -1.8398081 4288085770
10.267523 -3.8054657 -1.8191848 4288085770
6.6598072 -2.7213101 -1.8356726 4288085770
10.41464 -3.7494926 -1.8244346 4288085770
6.7149496 -2.6643434 -1.8335993 4288085770
10.55277 -3.6895294 -1.8266349 4288085770
6.8070698 -2.6183591 -1.837705 4288085770
10.680908 -3.627574 -1.8267912 4288085770
6.8981962 -2.570384 -1.8397981 4288085770
10.835042 -3.5686207 -1.8280513 4288085770
6.9843292 -2.5204163 -1.8398645 4288085770
10.981187 -3.5066805 -1.8262702 4288085770
7.0834599 -2.4734473 -1.8409899 4288085770
11.148321 -3.450736 -1.8265893 4288085770
7.1725988 -2.4234853 -1.8400668 4288085770
11.321465 -3.3918009 -1.8249158 4288085770
7.275732 -2.374527 -1.839197 4288085770
11.531591 -3.3418646 -1.8264118 4288085770
7.3868647 -2.3285666 -1.8393687 4288085770
11.738733 -3.28794 -1.8248787 4288085770
7.5169945 -2.2836061 -1.8406107 4288085770
11.957874 -3.2340183 -1.8233876 4288085770
7.6471272 -2.2386508 -1.8408527 4288085770
12.206011 -3.1861019 -1.8230244 4288085770
7.8012505 -2.1966929 -1.8431919 4288085770
12.478148 -3.1381912 -1.8227445 4288085770
7.9563799 -2.1547403 -1.8445343 4288085770
12.761287 -3.0892878 -1.821498 4288085770
8.1245079 -2.1127915 -1.8459219 4288085770
13.105407 -3.0513802 -1.8255136 4288085770
8.2926388 -2.0688467 -1.8463002 4288085770
13.439548 -3.0054955 -1.8234577 4288085770
8.517746 -2.033886 -1.8539176 4288085770
13.805683 -2.9626112 -1.8235265 4288085770
8.7238722 -1.9929476 -1.8554413 4288085770
14.226808 -2.926734 -1.8258181 4288085770
8.8160706 -1.9290595 -1.8384644 4288085770
14.677937 -2.8888688 -1.8272045 4288085770
9.0971689 -1.8971105 -1.8472894 4288085770
15.172066 -2.8520164 -1.8287445 4288085770
9.3442936 -1.8561788 -1.8499553 4288085770
15.65921 -2.8101807 -1.8262371 4288085770
9.6144133 -1.8172488 -1.8537101 4288085770
16.228338 -2.7763538 -1.8270507 4288085770
9.8655567 -1.7723417 -1.8513713 4288085770
16.798487 -2.7355447 -1.8238355 4288085770
10.125703 -1.7254415 -1.8480545 4288085770
17.500607 -2.7057467 -1.8271283 4288085770
10.429835 -1.6825395 -1.8479087 4288085770
10.775958 -1.6416364 -1.8509176 4288085770
11.123093 -1.5977468 -1.8509158 4288085770
11.526216 -1.55686 -1.8541219 4288085770
11.965336 -1.5149775 -1.858448 4288085770
12.456448 -1.474102 -1.864959 4288085770
12.899601 -1.4222622 -1.8602531 4288085770
13.393753 -1.3694324 -1.8567191 4288085770
13.884913 -1.3136163 -1.8501607 4288085770
14.482056 -1.2618065 -1.8489881 4288085770
15.103215 -1.2040219 -1.8438708 4288085770
15.758385 -1.142261 -1.835853 4288085770
16.575521 -1.0845041 -1.8374143 4288085770
17.438675 -1.0217834 -1.834112 4288085770
17.309734 1.2341325 -1.8119919 4288085770
16.373869 1.2924106 -1.8115424 4288085770
15.579987 1.3516655 -1.8155717 4288085770
14.82412 1.4038866 -1.8147625 4288085770
14.165237 1.4580975 -1.8182741 4288085770
13.518379 1.5042734 -1.8148633 4288085770
12.920514 1.5484352 -1.8116283 4288085770
12.397644 1.5935886 -1.8116441 4288085770
11.900779 1.6367254 -1.8097576 4288085770
11.473902 1.68186 -1.8121003 4288085770
11.055034 1.7229786 -1.8114882 4288085770
10.647175 1.7620804 -1.807923 4288085770
10.312296 1.8051879 -1.8105879 4288085770
17.506701 2.7509496 -1.8037804 4288085770
9.9924192 1.846287 -1.8123132 4288085770
16.861801 2.7931793 -1.812395 4288085770
9.6915464 1.8883758 -1.8130987 4288085770
16.124939 2.8163726 -1.8067826 4288085770
9.3986769 1.9274576 -1.8129249 4288085770
15.536062 2.8505547 -1.808624 4288085770
9.1278095 1.9655287 -1.8118305 4288085770
15.014174 2.8887262 -1.8126755 4288085770
8.8849373 2.0056002 -1.8128223 4288085770
14.493303 2.9208746 -1.8117577 4288085770
8.6490698 2.044661 -1.8118428 4288085770
14.069416 2.9640217 -1.8171202 4288085770
8.4341965 2.0847249 -1.8129302 4288085770
13.654537 3.0031526 -1.8195314 4288085770
8.2203283 2.1217794 -1.8120346 4288085770
13.228667 3.0372691 -1.817928 4288085770
8.0234613 2.1608291 -1.8111879 4288085770
12.872791 3.0773783 -1.8195357 4288085770
7.8455868 2.2008774 -1.8114012 4288085770
12.525914 3.1184809 -1.8201696 4288085770
7.676713 2.2419279 -1.8126409 4288085770
12.202047 3.1565671 -1.8188952 4288085770
7.5208387 2.2829742 -1.8139247 4288085770
11.929166 3.2036614 -1.8227539 4288085770
7.3519812 2.3200021 -1.8101825 4288085770
11.647297 3.2457399 -1.8226047 4288085770
7.1961164 2.3580353 -1.8084799 4288085770
11.366434 3.2858095 -1.8204677 4288085770
7.0702448 2.4010725 -1.8098569 4288085770
11.151556 3.3358822 -1.8235104 4288085770
6.9313831 2.4400964 -1.8072078 4288085770
10.935687 3.3849463 -1.8245541 4288085770
6.8185101 2.4841304 -1.8086245 4288085770
10.752809 3.4380093 -1.827692 4288085770
6.7046442 2.5261552 -1.8080469 4288085770
10.568939 3.4890637 -1.8288358 4288085770
6.5937805 2.5681756 -1.8064798 4288085770
10.39807 3.5421143 -1.8300148 4288085770
6.5029087 2.614203 -1.8079625 4288085770
10.235204 3.5961585 -1.8302164 4288085770
6.4230366 2.661227 -1.8094779 4288085770
10.109325 3.6552095 -1.8345214 4288085770
6.3231802 2.7022347 -1.8059528 4288085770
9.9754572 3.713249 -1.8358037 4288085770
6.2443104 2.7482543 -1.8064764 4288085770
9.8655882 3.7762861 -1.8381453 4288085770
6.1774445 2.79827 -1.8070229 4288085770
9.7677145 3.8423247 -1.841514 4288085770
6.133564 2.8532975 -1.8116249 4288085770
9.6578522 3.9043527 -1.8418602 4288085770
6.057704 2.8983021 -1.8091633 4288085770
9.5909758 3.9763865 -1.8463073 4288085770
6.0108328 2.9513168 -1.8107644 4288085770
9.4851217 4.0354004 -1.8436805 4288085770
5.9649668 3.0043263 -1.8113687 4288085770
9.4352493 4.1124287 -1.8481631 4288085770
5.9360924 3.063345 -1.815004 4288085770
9.3853836 4.1884484 -1.8506501 4288085770
5.9072218 3.1213541 -1.8166437 4288085770
9.3205242 4.259459 -1.8501089 4288085770
5.8743572 3.17836 -1.8172745 4288085770
9.24368 4.3264551 -1.8455452 4288085770
5.8664799 3.2433765 -1.821954 4288085770
9.2558012 4.4234786 -1.8531485 4288085770
5.8256235 3.2983713 -1.8195666 4288085770
9.2379398 4.5094886 -1.8556994 4288085770
5.822752 3.3653817 -1.8232545 4288085770
9.235074 4.6034989 -1.8592653 4288085770
5.8238831 3.4343865 -1.8259467 4288085770
9.2522078 4.7035074 -1.8638724 4288085770
5.8320074 3.5063982 -1.8306493 4288085770
9.2783422 4.8085132 -1.8684872 4288085770
5.8301449 3.5753951 -1.8313314 4288085770
9.2954845 4.909513 -1.8710899 4288085770
5.8342791 3.6453943 -1.8330294 4288085770
9.3186331 5.0125017 -1.8717039 4288085770
5.8474188 3.7193866 -1.8337402 4288085770
9.3647738 5.1264973 -1.8753465 4288085770
5.8785467 3.8013916 -1.8384761 4288085770
9.4439087 5.2534966 -1.8820428 4288085770
5.9016838 3.8813853 -1.8401936 4288085770
9.5270481 5.3854899 -1.88773 4288085770
5.9188271 3.9593718 -1.8399003 4288085770
9.5792017 5.5034661 -1.8873754 4288085770
5.962965 4.0483637 -1.8426487 4288085770
9.6753483 5.6444507 -1.8920664 4288085770
6.0190916 4.1433659 -1.8484111 4288085770
9.7625036 5.7794251 -1.893754 4288085770
6.0632362 4.2333488 -1.8491553 4288085770
9.9036493 5.9414053 -1.9005034 4288085770
6.1443634 4.3423519 -1.8569397 4288085770
10.0308 6.098381 -1.9052279 4288085770
6.1775236 4.4283156 -1.8526647 4288085770
10.223941 6.2893639 -1.9160235 4288085770
6.2416677 4.5302973 -1.8544229 4288085770
10.399096 6.4743295 -1.9217851 4288085770
6.3747797 4.6663117 -1.8682623 4288085770
10.606248 6.6763 -1.9305788 4288085770
6.451932 4.7772846 -1.8690242 4288085770
10.818408 6.8842587 -1.9373626 4288085770
6.5840597 4.9162817 -1.8788469 4288085770
11.031575 7.0962086 -1.9421321 4288085770
6.691205 5.0432596 -1.8826388 4288085770
11.29374 7.334157 -1.9499507 4288085770
6.8053551 5.1772304 -1.8854229 4288085770
11.580911 7.5900984 -1.9577733 4288085770
6.9145164 5.3081894 -1.8852038 4288085770
11.914076 7.8740435 -1.9696264 4288085770
7.0716562 5.4661694 -1.893026 4288085770
7.198823 5.6091185 -1.8918141 4288085770
7.3899651 5.7880974 -1.9016573 4288085770
7.570117 5.9630537 -1.9054813 4288085770
7.7752714 6.1540151 -1.9123183 4288085770
8.0084248 6.3639765 -1.921165 4288085770
8.2855721 6.6009436 -1.9340394 4288085770
8.5427427 6.8288841 -1.9398868 4288085770
8.8299112 7.0768256 -1.9477459 4288085770
9.1170893 7.3267531 -1.9525962 4288085770
9.5172453 7.6477051 -1.9705107 4288085770
9.8744373 7.9446163 -1.9763874 4288085770
16.827787 -0.5466032 -1.8197374 4288085770
15.641886 -0.57523012 -1.8208582 4288085770
14.581987 -0.59889603 -1.8223826 4288085770
13.63909 -0.61859655 -1.8242846 4288085770
12.803186 -0.63532495 -1.8275346 4288085770
11.968314 -0.647089 -1.8227661 4288085770
11.249425 -0.65686607 -1.8233806 4288085770
10.582541 -0.66466856 -1.8221619 4288085770
17.053522 -1.0677414 -1.820802 4288085770
10.016638 -0.67347383 -1.8272887 4288085770
15.770636 -1.049335 -1.8223866 4288085770
9.4627514 -0.67830515 -1.8274387 4288085770
14.714722 -1.0359654 -1.8317602 4288085770
8.9608641 -0.68114758 -1.8287551 4288085770
13.701839 -1.0176492 -1.8322569 4288085770
8.5049667 -0.6849947 -1.8322316 4288085770
12.769965 -0.99737024 -1.8300186 4288085770
8.068078 -0.6858573 -1.8337588 4288085770
11.990067 -0.98310614 -1.8353204 4288085770
7.6751823 -0.68672323 -1.8374349 4288085770
11.197204 -0.96288395 -1.8305519 4288085770
7.2803011 -0.68560743 -1.8370951 4288085770
10.530314 -0.94666672 -1.8332267 4288085770
6.9174166 -0.68349648 -1.8378594 4288085770
9.9364252 -0.93147278 -1.8361526 4288085770
6.5725384 -0.67939949 -1.8366754 4288085770
9.387536 -0.91629219 -1.8392303 4288085770
6.2496614 -0.67530918 -1.8355657 4288085770
8.8836441 -0.90212536 -1.8424648 4288085770
5.9317884 -0.66922474 -1.8334641 4288085770
8.3937683 -0.88497972 -1.8417331 4288085770
5.6688967 -0.66613531 -1.8365617 4288085770
7.94489 -0.8688426 -1.8421447 4288085770
5.3940191 -0.66005945 -1.8356055 4288085770
7.5250111 -0.85271406 -1.8426539 4288085770
5.141139 -0.65398645 -1.8357234 4288085770
7.1281366 -0.83660173 -1.8412411 4288085770
4.8802729 -0.64592791 -1.8318057 4288085770
6.7772493 -0.82248545 -1.8439925 4288085770
4.6733751 -0.64084673 -1.8370835 4288085770
6.4233866 -0.80439901 -1.8397161 4288085770
4.4305191 -0.63080692 -1.8302177 4288085770
6.1105032 -0.78929901 -1.8415915 4288085770
4.2426243 -0.62573528 -1.8345597 4288085770
5.8066292 -0.77321482 -1.8404928 4288085770
4.0407515 -0.61668587 -1.832837 4288085770
5.5277519 -0.75813246 -1.8404833 4288085770
