# .PCD v0.7 - Point Cloud Data file format
VERSION 0.7
FIELDS x y z rgb
SIZE 4 4 4 4
TYPE F F F U
COUNT 1 1 1 1
WIDTH 1113
HEIGHT 1
VIEWPOINT 0 0 0 1 0 0 0
POINTS 1113
DATA ascii
7.8403015 7.4864907 -1.7242067 4288085770
8.1192169 7.7367401 -1.7182059 4288085770
8.3921967 7.9839478 -1.7071671 4288085770
13.403946 -0.25192356 -1.851414 4288085770
12.208099 -0.27521753 -1.8456671 4288085770
11.275146 -0.29814863 -1.8525376 4288085770
10.412186 -0.31602049 -1.857069 4288085770
9.5123596 -0.32802153 -1.8491907 4288085770
8.6276245 -0.33408403 -1.8304193 4288085770
7.9747162 -0.34275866 -1.8319774 4288085770
14.560074 -0.64064741 -1.8676932 4288085770
7.3877716 -0.35134792 -1.8361921 4288085770
13.193192 -0.62712574 -1.860981 4288085770
6.7978973 -0.35500193 -1.8313417 4288085770
11.968307 -0.61146736 -1.852668 4288085770
6.2410583 -0.35762072 -1.826813 4288085770
11.022293 -0.60340595 -1.860188 4288085770
5.7172241 -0.35723114 -1.8185916 4288085770
10.038437 -0.5875001 -1.8512738 4288085770
5.2623444 -0.35772133 -1.8170636 4288085770
9.1795502 -0.57343435 -1.8466179 4288085770
4.8304596 -0.35719395 -1.8147576 4288085770
8.3617249 -0.55637264 -1.8353491 4288085770
4.4535675 -0.35659027 -1.8149986 4288085770
7.7177734 -0.5450387 -1.8368542 4288085770
4.1086426 -0.35593748 -1.8175581 4288085770
7.1138458 -0.53366613 -1.8377573 4288085770
3.7647705 -0.35331917 -1.8151138 4288085770
6.5279541 -0.51931095 -1.8338187 4288085770
3.458847 -0.35062933 -1.8170471 4288085770
5.9611359 -0.50397015 -1.8250625 4288085770
3.140976 -0.34598923 -1.8138473 4288085770
5.478241 -0.49049902 -1.8221562 4288085770
2.875061 -0.34225559 -1.8161716 4288085770
5.0283508 -0.47699165 -1.8195782 4288085770
2.6081696 -0.33754349 -1.8154793 4288085770
4.6084595 -0.46345806 -1.816299 4288085770
2.3672638 -0.33278894 -1.8170457 4288085770
4.2425385 -0.45183468 -1.8175714 4288085770
2.1183929 -0.32607937 -1.8135185 4288085770
3.8866577 -0.43822336 -1.8159289 4288085770
1.9014893 -0.32030439 -1.8143165 4288085770
3.5677338 -0.42655468 -1.816669 4288085770
1.6566772 -0.3106184 -1.806808 4288085770
3.2648163 -0.41486979 -1.8175683 4288085770
1.4647522 -0.30480957 -1.8088551 4288085770
2.9809113 -0.40217113 -1.8176494 4288085770
1.2628784 -0.29705286 -1.8047881 4288085770
2.7030182 -0.38947821 -1.8157909 4288085770
1.0859833 -0.29022789 -1.8069773 4288085770
2.4501038 -0.37674522 -1.8161807 4288085770
0.90910339 -0.28143024 -1.8051524 4288085770
2.1762848 -0.36109066 -1.8083408 4288085770
0.74221802 -0.27361488 -1.8044341 4288085770
1.9563446 -0.34931326 -1.810066 4288085770
0.58430481 -0.26578951 -1.8038051 4288085770
1.73349 -0.33557415 -1.8067479 4288085770
0.42643738 -0.25597715 -1.8011622 4288085770
1.528595 -0.32280111 -1.8056157 4288085770
0.2865448 -0.24811697 -1.8027127 4288085770
1.3217316 -0.30905104 -1.8014567 4288085770
0.14463806 -0.23828125 -1.8012288 4288085770
1.1477966 -0.29722166 -1.8036397 4288085770
0.02671814 -0.23137522 -1.8060048 4288085770
0.95495605 -0.28246498 -1.7986133 4288085770
-0.098190308 -0.22150707 -1.8066902 4288085770
0.78504944 -0.26965904 -1.7968295 4288085770
-0.21807861 -0.2126379 -1.8064325 4288085770
0.63815308 -0.25780725 -1.7982812 4288085770
0.48327637 -0.2449851 -1.7966468 4288085770
0.3503418 -0.2321105 -1.7992311 4288085770
0.20646667 -0.21928453 -1.7967062 4288085770
0.080551147 -0.20641613 -1.7973602 4288085770
-0.037353516 -0.19453144 -1.7991006 4288085770
-0.16621399 -0.1806941 -1.7957182 4288085770
-0.27415466 -0.16879892 -1.7975583 4288085770
-0.29335022 1.7392244 -1.7467356 4288085770
-0.17825317 1.7603393 -1.7467308 4288085770
-0.068115234 1.7794352 -1.7446904 4288085770
0.042037964 1.7975092 -1.7396574 4288085770
0.17012024 1.8196397 -1.7397747 4288085770
0.31518555 1.8448162 -1.7440395 4288085770
0.44235229 1.8629169 -1.7401757 4288085770
0.58743286 1.8860726 -1.7414546 4288085770
-0.25245667 1.6912675 -1.7524776 4288085770
0.73356628 1.9072089 -1.7397583 4288085770
-0.14828491 1.702343 -1.7484348 4288085770
0.89564514 1.9313836 -1.7411993 4288085770
-0.019210815 1.7194958 -1.7515974 4288085770
1.0427856 1.9505062 -1.7375271 4288085770
0.091934204 1.729578 -1.7476311 4288085770
1.220871 1.9756989 -1.73912 4288085770
0.21707153 1.7436905 -1.7457757 4288085770
1.394989 1.9968657 -1.7377021 4288085770
0.34020996 1.7547946 -1.7429216 4288085770
1.5770874 2.0190487 -1.7373562 4288085770
0.48130798 1.7689395 -1.7432251 4288085770
1.7751923 2.0442572 -1.7381482 4288085770
0.62741089 1.7840962 -1.744571 4288085770
1.9723053 2.0664496 -1.7369518 4288085770
0.77752686 1.7972507 -1.7449708 4288085770
2.2033844 2.0947151 -1.7410505 4288085770
0.93362427 1.8114195 -1.7464232 4288085770
2.4185028 2.117929 -1.740026 4288085770
1.0967407 1.8245893 -1.7469525 4288085770
2.6645813 2.1451969 -1.742281 4288085770
1.2558746 1.8357396 -1.7454565 4288085770
2.8986969 2.1674237 -1.7404523 4288085770
1.4339905 1.8489256 -1.7461348 4288085770
3.1598053 2.1926956 -1.740871 4288085770
1.5961609 1.8560581 -1.7416973 4288085770
3.4498749 2.2220197 -1.7445493 4288085770
1.805191 1.8723145 -1.7476621 4288085770
3.7090302 2.2412467 -1.7389908 4288085770
1.9973145 1.8825092 -1.7475014 4288085770
3.9951935 2.2635174 -1.7356794 4288085770
2.1934509 1.8916941 -1.7453871 4288085770
4.2823334 2.2827826 -1.7313993 4288085770
2.4384918 1.9090047 -1.7537029 4288085770
4.628418 2.3121557 -1.7336347 4288085770
2.6556091 1.9182272 -1.7537975 4288085770
4.9805145 2.338521 -1.7339509 4288085770
2.8647919 1.9224052 -1.7488487 4288085770
5.3476562 2.3628898 -1.7324309 4288085770
3.0859528 1.9276114 -1.7460115 4288085770
5.7736969 2.3963737 -1.7384329 4288085770
3.332077 1.9348593 -1.7454088 4288085770
6.2407379 2.4319029 -1.7448282 4288085770
3.5752411 1.9380903 -1.742805 4288085770
6.8066559 2.4806137 -1.7621148 4288085770
3.8533325 1.9453878 -1.7445204 4288085770
7.3267059 2.5151958 -1.7680447 4288085770
4.1255035 1.9476509 -1.7422118 4288085770
7.7859192 2.5336099 -1.7594824 4288085770
4.4136353 1.9499393 -1.7410624 4288085770
8.2861023 2.5530772 -1.7523205 4288085770
4.7138062 1.9502263 -1.7380464 4288085770
8.8961945 2.5847316 -1.7551668 4288085770
5.0628967 1.954618 -1.7424889 4288085770
9.6172028 2.6265516 -1.7650449 4288085770
5.4020538 1.9549632 -1.7418606 4288085770
10.248413 2.6471581 -1.7581789 4288085770
5.8051147 1.9604292 -1.7488327 4288085770
10.89064 2.6637564 -1.7484505 4288085770
6.2401733 1.9649463 -1.7581301 4288085770
11.724716 2.6986527 -1.7525024 4288085770
6.6922302 1.9684668 -1.7656035 4288085770
12.555893 2.7234979 -1.7495966 4288085770
7.1632996 1.9680028 -1.7722945 4288085770
13.550964 2.7615743 -1.755228 4288085770
7.5815125 1.9554005 -1.7675443 4288085770
14.567123 2.7896185 -1.7531402 4288085770
8.0476685 1.9448886 -1.7682571 4288085770
8.5428314 1.9303942 -1.7672865 4288085770
9.1289062 1.9220576 -1.7751777 4288085770
9.7110596 1.9036756 -1.7771006 4288085770
10.280258 1.8802505 -1.7749298 4288085770
10.861496 1.8488102 -1.7689357 4288085770
11.57962 1.8225937 -1.7742674 4288085770
12.293839 1.7883387 -1.7746165 4288085770
13.147934 1.7562885 -1.7833428 4288085770
13.993118 1.7141933 -1.7870512 4288085770
3.7017517 -4.9644456 -0.34481978 4293729569
3.7337341 -5.0017409 -0.86144042 4293729569
3.6504822 -4.9882026 -0.38748002 4293729569
3.6344757 -5.000586 -0.89844632 4293729569
3.6002045 -5.0109572 -0.430143 4293729569
3.5882111 -5.028337 -0.94118452 4293729569
3.5868988 -5.0536542 -0.47531545 4293729569
3.5729218 -5.0720305 -0.98734403 4293729569
3.5746155 -5.095345 -0.52149069 4293729569
3.5526123 -5.1107221 -1.0344186 4293729569
3.586319 -5.1509862 -0.57100391 4293729569
3.5753021 -5.1753373 -1.0861046 4293729569
6.9165497 -7.4519124 -1.7865238 4293729569
6.4293671 -7.2044282 -1.7859216 4293729569
6.0471649 -7.0147548 -1.7967741 4293729569
5.6000366 -6.7792525 -1.7926552 4293729569
5.1529388 -6.5367818 -1.784487 4293729569
4.7678375 -6.330195 -1.78319 4293729569
4.3807678 -6.1156478 -1.7768171 4293729569
4.0506439 -5.9349923 -1.7772515 4293729569
3.7075958 -5.7394013 -1.7704506 4293729569
3.4285126 -5.5826821 -1.7725625 4293729569
6.7890015 -7.7330928 -1.7872267 4293729569
3.1074982 -5.3950877 -1.7630374 4293729569
6.264801 -7.4146743 -1.7827532 4293729569
2.8794098 -5.2642884 -1.7688406 4293729569
5.8585358 -7.1690488 -1.7899702 4293729569
2.6393433 -5.1235318 -1.7704539 4293729569
5.4373474 -6.9084926 -1.7899323 4293729569
2.3893127 -4.9718213 -1.7668898 4293729569
5.0012207 -6.6349998 -1.7826536 4293729569
2.1573029 -4.8290915 -1.7635689 4293729569
4.6200867 -6.3934255 -1.7791481 4293729569
1.9632568 -4.7102809 -1.7657952 4293729569
4.2589874 -6.1618428 -1.7739129 4293729569
1.768219 -4.5874877 -1.7659836 4293729569
3.9328766 -5.9502053 -1.7711675 4293729569
1.5941925 -4.4766555 -1.7684658 4293729569
3.6277771 -5.7495503 -1.767709 4293729569
1.4131927 -4.3578668 -1.7658219 4293729569
3.3327179 -5.5528932 -1.7633784 4293729569
1.2531738 -4.2520261 -1.7674789 4293729569
3.0776367 -5.3811669 -1.7626224 4293729569
1.1051331 -4.1531653 -1.7703047 4293729569
2.8565674 -5.229383 -1.7653463 4293729569
1.0090332 -4.0861659 -1.7848735 4293729569
2.6514587 -5.0855718 -1.7692859 4293729569
1.007782 -4.0818934 -1.8238318 4293729569
2.4374237 -4.9348149 -1.767087 4293729569
1.0254517 -4.0885587 -1.8690565 4288085770
2.2373962 -4.7910409 -1.7650766 4293729569
1.0291595 -4.0832686 -1.9100573 4288085770
2.0473785 -4.6522555 -1.7632012 4293729569
0.95106506 -4.0222497 -1.9248476 4288085770
1.8673553 -4.5194669 -1.7604682 4293729569
0.82208252 -3.9244094 -1.9218698 4288085770
1.7133331 -4.4026189 -1.7621064 4293729569
0.68615723 -3.8206058 -1.9147801 4288085770
1.5663147 -4.2877707 -1.7628286 4293729569
0.57020569 -3.7287507 -1.9119742 4288085770
1.4452667 -4.1898656 -1.7679298 4293729569
0.42933655 -3.6199946 -1.8988001 4288085770
1.3461914 -4.1049056 -1.7773414 4293729569
0.33934021 -3.5430751 -1.9013586 4288085770
1.3699188 -4.0976062 -1.8165264 4293729569
0.24638367 -3.4641852 -1.8998735 4288085770
1.4135895 -4.1012435 -1.8619878 4288085770
0.15542603 -3.3843036 -1.8974011 4288085770
1.4532776 -4.1008964 -1.9053812 4288085770
0.06350708 -3.3044343 -1.8929193 4288085770
1.397171 -4.0368457 -1.9213686 4288085770
-0.024429321 -3.2245622 -1.8884766 4288085770
1.2802124 -3.9339986 -1.9174747 4288085770
-0.097381592 -3.1546435 -1.8882542 4288085770
1.1712341 -3.835135 -1.9146886 4288085770
-0.16734314 -3.0857301 -1.8870687 4288085770
1.0742798 -3.7442594 -1.9120784 4288085770
-0.23727417 -3.016829 -1.8838832 4288085770
0.96835327 -3.6474156 -1.9063368 4288085770
-0.29022217 -2.9578805 -1.8849375 4288085770
0.88938904 -3.566504 -1.9059761 4288085770
0.80145264 -3.4786315 -1.9014771 4288085770
0.72050476 -3.3967509 -1.89709 4288085770
0.65257263 -3.3208404 -1.8948746 4288085770
0.58262634 -3.2439418 -1.8916323 4288085770
0.52668762 -3.1750112 -1.8905857 4288085770
0.45776367 -3.0981231 -1.8853536 4288085770
0.40783691 -3.0312028 -1.8833828 4288085770
0.36088562 -2.9672713 -1.881459 4288085770
0.32095337 -2.906322 -1.8806262 4288085770
0.26705933 -2.8384261 -1.8746052 4288085770
0.2321167 -2.780479 -1.8728435 4288085770
0.20419312 -2.7255168 -1.8721724 4288085770
0.17126465 -2.6675754 -1.8694305 4288085770
0.1423645 -2.6126285 -1.86675 4288085770
0.12942505 -2.5656343 -1.8682847 4288085770
0.1025238 -2.5107017 -1.8636241 4288085770
0.10653687 -2.4716601 -1.8693843 4288085770
0.074676514 -2.4147525 -1.8616598 4288085770
0.062759399 -2.3667865 -1.8591979 4288085770
0.057830811 -2.3237977 -1.8588407 4288085770
0.046951294 -2.2768388 -1.8553958 4288085770
0.0390625 -2.2308745 -1.8519878 4288085770
0.045120239 -2.1918674 -1.8527682 4288085770
0.066162109 -2.1598134 -1.8577466 4288085770
0.06628418 -2.1168475 -1.8534396 4288085770
0.070358276 -2.0758643 -1.851186 4288085770
0.086456299 -2.0408511 -1.8510942 4288085770
0.091583252 -1.9998803 -1.8468509 4288085770
0.13557434 -1.97578 -1.855114 4288085770
0.14572144 -1.9368033 -1.8509345 4288085770
0.1408844 -1.8928866 -1.8405709 4288085770
0.16896057 -1.8608537 -1.8416195 4288085770
0.21101379 -1.8337836 -1.8458416 4288085770
0.24111938 -1.8017631 -1.8449099 4288085770
0.27420044 -1.7707381 -1.8440149 4288085770
0.31329346 -1.7416997 -1.8441937 4288085770
0.35438538 -1.7126594 -1.8443918 4288085770
0.39646912 -1.6836181 -1.8446002 4288085770
0.43359375 -1.6536031 -1.8417523 4288085770
0.47071838 -1.6225953 -1.8378971 4288085770
0.52180481 -1.5955434 -1.8382087 4288085770
0.5749054 -1.5684962 -1.8375404 4288085770
0.63400269 -1.5434356 -1.8379455 4288085770
0.69309998 -1.5173812 -1.8373435 4288085770
0.75521851 -1.4923244 -1.8367784 4288085770
-0.28808594 -1.2034421 -1.8343832 4288085770
0.82929993 -1.4682393 -1.8383391 4288085770
-0.23399353 -1.1813874 -1.8347602 4288085770
0.90737915 -1.4461484 -1.8399537 4288085770
-0.18986511 -1.1553721 -1.8310103 4288085770
0.98146057 -1.422071 -1.8405139 4288085770
-0.12976074 -1.1343093 -1.831454 4288085770
1.0565796 -1.3990064 -1.8390918 4288085770
-0.073654175 -1.1112666 -1.829844 4288085770
1.1436615 -1.3759131 -1.839788 4288085770
-0.014526367 -1.0892191 -1.8282707 4288085770
1.2238007 -1.3518424 -1.8384082 4288085770
0.046585083 -1.0661702 -1.8267102 4288085770
1.3109131 -1.3287644 -1.8371046 4288085770
0.12963867 -1.0490532 -1.8314099 4288085770
1.4109955 -1.3076568 -1.8379438 4288085770
0.18780518 -1.0250287 -1.8268125 4288085770
1.5111084 -1.2855563 -1.8377759 4288085770
0.25889587 -1.0029674 -1.8253582 4288085770
1.6132202 -1.2634597 -1.8366282 4288085770
0.3469696 -0.98486042 -1.8281 4288085770
1.7382965 -1.2453094 -1.8397357 4288085770
0.42507935 -0.96378422 -1.8277218 4288085770
1.8503876 -1.224196 -1.8396938 4288085770
0.51118469 -0.94369936 -1.8274298 4288085770
1.9725037 -1.2030778 -1.8387504 4288085770
0.59631348 -0.92363024 -1.8251278 4288085770
2.1275482 -1.1888719 -1.8451831 4288085770
0.68940735 -0.9035306 -1.8259051 4288085770
2.2387085 -1.1648011 -1.8391099 4288085770
0.80148315 -0.88638783 -1.8298912 4288085770
2.3808289 -1.1446595 -1.8383718 4288085770
0.88563538 -0.86334848 -1.8235586 4288085770
2.5319366 -1.1255012 -1.8387296 4288085770
0.99075317 -0.84424829 -1.8224616 4288085770
2.694046 -1.1063304 -1.8391962 4288085770
1.1477509 -0.8319912 -1.835928 4288085770
2.8701324 -1.0891371 -1.8408153 4288085770
1.2349243 -0.80796909 -1.8266177 4288085770
3.0432587 -1.0689678 -1.8393836 4288085770
1.3550415 -0.78886032 -1.8246689 4288085770
3.244339 -1.0527382 -1.842257 4288085770
1.4901428 -0.77071238 -1.8258758 4288085770
3.4394531 -1.0335431 -1.8410499 4288085770
1.6142883 -0.74960566 -1.8229523 4288085770
3.6435852 -1.0143466 -1.8389318 4288085770
1.7773438 -0.73340464 -1.8274498 4288085770
3.8647003 -0.99611473 -1.8389888 4288085770
1.9234772 -0.71326733 -1.8257511 4288085770
4.1108093 -0.97885561 -1.8393002 4288085770
2.1085205 -0.69803429 -1.8314734 4288085770
4.3569336 -0.96060944 -1.8376048 4288085770
2.2676697 -0.67788792 -1.8289032 4288085770
4.6340332 -0.94330883 -1.8392224 4288085770
2.4447937 -0.65970659 -1.8285251 4288085770
4.9301453 -0.92699242 -1.840035 4288085770
2.6159363 -0.63856077 -1.8240664 4288085770
5.2462616 -0.911654 -1.8410528 4288085770
2.8300171 -0.62131596 -1.8270612 4288085770
5.5813751 -0.89330006 -1.8412368 4288085770
3.0231476 -0.60013866 -1.8238196 4288085770
5.9464874 -0.877913 -1.8417389 4288085770
3.2622375 -0.58386564 -1.8270686 4288085770
6.3685608 -0.86442566 -1.8478186 4288085770
3.484375 -0.5626545 -1.8241138 4288085770
6.7657166 -0.84602976 -1.8446159 4288085770
3.7414703 -0.54438257 -1.8245263 4288085770
7.2478027 -0.83248806 -1.8492887 4288085770
4.009613 -0.52510595 -1.8240409 4288085770
7.7219543 -0.81401253 -1.8458471 4288085770
4.2947235 -0.50480795 -1.8237157 4288085770
8.2800598 -0.7993989 -1.8492641 4288085770
4.605835 -0.48548317 -1.8236549 4288085770
8.9191132 -0.78767252 -1.8565032 4288085770
4.9399567 -0.46613073 -1.8238218 4288085770
9.5672607 -0.76999092 -1.8557889 4288085770
5.2880707 -0.44377708 -1.8221052 4288085770
10.369339 -0.75907946 -1.8646467 4288085770
5.6771851 -0.4233613 -1.8228083 4288085770
11.13649 -0.74127865 -1.8631086 4288085770
6.1112671 -0.4038744 -1.8269629 4288085770
11.968704 -0.72144556 -1.8561993 4288085770
6.6283112 -0.38526535 -1.8359454 4288085770
13.071777 -0.71020651 -1.8660328 4288085770
7.1394196 -0.36371088 -1.837847 4288085770
14.164963 -0.69107676 -1.8617105 4288085770
7.6545563 -0.3391819 -1.835767 4288085770
8.2207336 -0.31361628 -1.8311841 4288085770
8.9497528 -0.29177237 -1.8412402 4288085770
9.7967224 -0.26976681 -1.8564627 4288085770
10.653793 -0.24380684 -1.8637552 4288085770
11.455048 -0.21104383 -1.8514454 4288085770
12.499176 -0.17992115 -1.8535511 4288085770
13.684265 -0.14763021 -1.8580432 4288085770
13.535767 0.10141087 -1.8472965 4288085770
12.286865 0.09506321 -1.8453803 4288085770
11.251862 0.089012146 -1.8535104 4288085770
10.37085 0.08513546 -1.8630996 4288085770
9.6307831 0.082460403 -1.8800299 4282675967
8.431366 0.087798595 -1.8255093 4288085770
7.7254639 0.089029312 -1.823741 4288085770
13.816742 0.031606197 -1.8383608 4288085770
7.1115417 0.090377808 -1.8248525 4288085770
12.512802 0.041210175 -1.837815 4288085770
6.5326385 0.093760014 -1.825285 4288085770
11.439804 0.050102711 -1.8434834 4288085770
5.9248657 0.098011494 -1.8114357 4288085770
10.54776 0.058240891 -1.8568885 4288085770
5.40802 0.10340691 -1.8044488 4288085770
9.801651 0.066572189 -1.8756886 4288085770
4.9421539 0.10888195 -1.8009498 4288085770
8.6900787 0.081100941 -1.8349512 4288085770
4.537262 0.11343813 -1.8000405 4288085770
7.8773193 0.092127323 -1.820096 4288085770
4.1593628 0.12002659 -1.7993758 4288085770
7.274353 0.10250902 -1.8242524 4288085770
3.832428 0.12569952 -1.803205 4288085770
6.6854401 0.11287212 -1.8235443 4288085770
3.5115204 0.13235235 -1.8030858 4288085770
6.0786285 0.12414551 -1.8126585 4288085770
3.2016296 0.13901663 -1.8030715 4288085770
5.5407867 0.13550425 -1.8034325 4288085770
2.9157257 0.14670801 -1.8032801 4288085770
5.0599518 0.14694071 -1.796751 4288085770
2.6578217 0.15343952 -1.8047633 4288085770
4.647049 0.15748882 -1.7957258 4288085770
2.3869629 0.16111231 -1.8001163 4288085770
4.2821198 0.16811275 -1.7981591 4288085770
2.1390839 0.16982031 -1.7966821 4288085770
3.9262085 0.17872477 -1.7976789 4288085770
1.9032288 0.17754126 -1.7933698 4288085770
3.6232758 0.18942451 -1.8017049 4288085770
1.6993103 0.18633223 -1.7953558 4288085770
3.3043976 0.20005894 -1.798579 4288085770
1.4884491 0.19508171 -1.7922759 4288085770
3.0354919 0.21178436 -1.8009233 4288085770
1.3105316 0.20390177 -1.7945104 4288085770
2.7615814 0.2224822 -1.8002274 4288085770
1.1206665 0.21267557 -1.7916312 4288085770
2.4847412 0.23413658 -1.7934971 4288085770
0.94477844 0.22146368 -1.7888861 4288085770
2.2508545 0.2448802 -1.7931833 4288085770
0.79685974 0.23132515 -1.7924006 4288085770
2.0249481 0.25662613 -1.7919397 4288085770
0.63002014 0.24011087 -1.7877419 4288085770
1.8110657 0.26738501 -1.7908177 4288085770
0.50106812 0.24999952 -1.7924378 4288085770
1.6131897 0.27716255 -1.7898557 4288085770
0.34024048 0.25977802 -1.78583 4288085770
1.4242859 0.28894949 -1.7889655 4288085770
0.2183075 0.26966906 -1.7895932 4288085770
1.2364349 0.30071783 -1.7850857 4288085770
0.1073761 0.27857876 -1.7944686 4288085770
1.058548 0.31150341 -1.7823038 4288085770
-0.019515991 0.28842258 -1.792181 4288085770
0.89967346 0.32332563 -1.7817018 4288085770
-0.12641907 0.29832458 -1.795089 4288085770
0.75872803 0.33518839 -1.7842712 4288085770
-0.24330139 0.30817986 -1.7929025 4288085770
0.60487366 0.34599543 -1.7807245 4288085770
0.47894287 0.35787487 -1.7834375 4288085770
0.34805298 0.36972952 -1.7831032 4288085770
0.22515869 0.3815918 -1.7828453 4288085770
0.10726929 0.3934598 -1.7826352 4288085770
-0.0016326904 0.40535164 -1.7845106 4288085770
-0.10255432 0.41725302 -1.7864623 4288085770
-0.20146179 0.43015003 -1.7874269 4288085770
-0.29736328 0.44204998 -1.7884266 4288085770
-0.28866577 2.4951615 -1.7289088 4288085770
-0.19654846 2.5242252 -1.7245758 4288085770
-0.10437012 2.5512681 -1.7172568 4288085770
0.0047302246 2.5853639 -1.7150495 4288085770
0.10591125 2.6144242 -1.7088017 4288085770
0.25588989 2.6626287 -1.7158837 4288085770
0.38796997 2.7017784 -1.7178588 4288085770
0.51808167 2.7378983 -1.7158358 4288085770
0.63920593 2.7689815 -1.7097623 4288085770
-0.20562744 2.4532399 -1.7339578 4288085770
0.79624939 2.8141723 -1.7139311 4288085770
-0.1114502 2.4732842 -1.726706 4288085770
0.9463501 2.8533154 -1.7120757 4288085770
-0.016281128 2.4913378 -1.7204773 4288085770
1.1084137 2.8964915 -1.7133057 4288085770
0.10081482 2.5174432 -1.7184005 4288085770
1.2715149 2.9376557 -1.7125585 4288085770
0.22390747 2.544569 -1.7183731 4288085770
1.4256592 2.9737823 -1.7077618 4288085770
0.35600281 2.5737128 -1.7194169 4288085770
1.6017456 3.0149617 -1.7071373 4288085770
0.48910522 2.6018505 -1.7194769 4288085770
1.7678833 3.0520945 -1.7014463 4288085770
0.62620544 2.6289926 -1.7195816 4288085770
1.9589691 3.0952902 -1.7009492 4288085770
0.76629639 2.6571312 -1.7187073 4288085770
2.1670227 3.1435184 -1.7025776 4288085770
0.91043091 2.6832738 -1.717885 4288085770
2.3900757 3.1947644 -1.7043271 4288085770
1.065506 2.7124429 -1.7191453 4288085770
2.5982056 3.2369652 -1.7019973 4288085770
1.2255859 2.7416115 -1.7194524 4288085770
2.8312836 3.2872152 -1.7028475 4288085770
1.3896942 2.7697835 -1.7198043 4288085770
3.0743561 3.3364625 -1.7017987 4288085770
1.5507812 2.7949457 -1.7191486 4288085770
3.3114471 3.3816895 -1.6987214 4288085770
1.7348633 2.8251481 -1.720675 4288085770
3.5735474 3.4319582 -1.6978447 4288085770
1.9129791 2.8523297 -1.7201655 4288085770
3.8486023 3.4832489 -1.6980834 4288085770
2.0980682 2.8785195 -1.7197289 4288085770
4.1486816 3.5405743 -1.6995165 4288085770
2.2822113 2.9026935 -1.7172966 4288085770
4.4786987 3.6039538 -1.7041905 4288085770
2.4753265 2.9258847 -1.7159557 4288085770
4.7857971 3.6552603 -1.7017305 4288085770
2.6794281 2.9520953 -1.715698 4288085770
5.0809479 3.6995249 -1.6952059 4288085770
2.8755798 2.9722698 -1.7114062 4288085770
5.4649658 3.7679656 -1.7003536 4288085770
3.074707 2.9914544 -1.7081494 4288085770
5.9029083 3.8494947 -1.7099206 4288085770
3.3018188 3.0156846 -1.7071218 4288085770
6.3658752 3.9330664 -1.7217088 4288085770
3.5249634 3.0369029 -1.7050769 4288085770
6.9027405 4.0337553 -1.7390764 4288085770
3.7520905 3.0551193 -1.7020905 4288085770
7.3777466 4.1092854 -1.7430329 4288085770
3.9992218 3.0763645 -1.7002718 4288085770
7.8178558 4.1677198 -1.7387767 4288085770
4.2673187 3.101655 -1.701623 4288085770
8.3708344 4.2533579 -1.7463984 4288085770
4.5324402 3.1209207 -1.6999874 4288085770
8.9568176 4.3420339 -1.7543101 4288085770
4.8015747 3.1381915 -1.6984029 4288085770
9.6586914 4.454896 -1.7711484 4288085770
5.0657349 3.1514356 -1.6937993 4288085770
10.312683 4.5456333 -1.7776866 4288085770
5.3588715 3.1677334 -1.6924479 4288085770
10.869827 4.6031594 -1.7685387 4288085770
5.7089233 3.1961372 -1.6975498 4288085770
11.554886 4.6848917 -1.7694304 4288085770
6.0859528 3.2265918 -1.7058921 4288085770
12.18306 4.7434978 -1.7609441 4288085770
6.5418854 3.2721977 -1.7238743 4288085770
12.791275 4.7910471 -1.7473447 4288085770
6.99086 3.309761 -1.7368462 4288085770
13.500443 4.8537378 -1.7385933 4288085770
7.3649597 3.3241642 -1.7382703 4288085770
14.33551 4.9376173 -1.7378829 4288085770
7.699173 3.3224604 -1.7304282 4288085770
8.0962982 3.3328831 -1.7310963 4288085770
8.5333862 3.3453712 -1.7351267 4288085770
8.9954834 3.3578877 -1.7393925 4288085770
9.5215149 3.3785114 -1.7492051 4288085770
10.048584 3.3891153 -1.7560964 4288085770
10.493759 3.3785574 -1.7523603 4288085770
10.935989 3.360976 -1.7456441 4288085770
11.461136 3.3525434 -1.7476466 4288085770
11.976288 3.3370795 -1.7466037 4288085770
12.546448 3.3216906 -1.7480779 4288085770
13.085648 3.29424 -1.7453427 4288085770
13.728775 3.2749546 -1.750531 4288085770
14.366928 3.2486503 -1.75372 4288085770
13.949677 -5.1741529 -0.62148952 4293729569
13.850861 -5.1827073 -1.5666814 4293729569
13.58345 -5.2022815 -0.66023743 4293729569
13.31485 -5.1632209 -1.5755012 4293729569
13.24324 -5.2343774 -0.69925749 4293729569
13.242661 -5.2719769 -1.6225729 4293729569
12.613998 -5.1718602 -0.72690427 4293729569
12.518753 -5.1798244 -1.6121216 4293729569
12.443756 -5.2427297 -0.77279198 4293729569
12.466492 -5.2885318 -1.6633811 4293729569
12.548508 -5.3982158 -0.83185244 4293729569
13.176865 -5.638906 -1.7904897 4293729569
13.041611 -5.7247224 -1.8388102 4293729569
12.371674 -5.6294866 -1.831846 4293729569
11.709732 -5.526257 -1.822902 4293729569
11.13176 -5.4438968 -1.8198929 4293729569
10.560272 -5.3131309 -1.0085568 4293729569
10.465836 -5.3197131 -1.8047667 4293729569
9.8500824 -5.164825 -1.0178494 4293729569
10.00383 -5.2621655 -1.8110209 4293729569
8.7580261 -4.8681283 -0.99752331 4293729569
9.1001282 -5.0324903 -1.7589271 4293729569
8.5567932 -4.8850827 -1.0357473 4293729569
8.7181091 -4.9868302 -1.7690163 4293729569
8.5515137 -4.9757094 -1.0913246 4293729569
8.552887 -5.0177512 -1.8066754 4293729569
8.5371857 -5.0603404 -1.1477757 4293729569
8.134903 -4.9491811 -1.8092678 4293729569
8.5278778 -5.1479583 -1.2052944 4293729569
7.6989136 -4.867661 -1.807601 4293729569
14.666168 -7.6750827 -1.8395252 4293729569
7.2699585 -4.7811465 -1.8039658 4293729569
13.906937 -7.4947972 -1.8531356 4293729569
6.924942 -4.7224727 -1.8103135 4293729569
12.967819 -7.2328629 -1.8434892 4293729569
6.5429688 -4.6438918 -1.8091755 4293729569
12.069672 -6.9728904 -1.8332422 4293729569
6.0870819 -4.5284848 -1.7940872 4293729569
11.256577 -6.7378125 -1.8249671 4293729569
5.7530975 -4.4598336 -1.7954698 4293729569
10.423538 -6.4818225 -1.8073597 4293729569
5.4340973 -4.392159 -1.7980001 4293729569
9.7494507 -6.2865596 -1.8046679 4293729569
5.1161346 -4.320498 -1.7985125 4293729569
9.1073608 -6.0932832 -1.7992911 4293729569
4.8660889 -4.2736974 -1.808836 4293729569
8.5742493 -5.9418168 -1.8042285 4293729569
4.67099 -4.2487769 -1.8278282 4293729569
8.0741425 -5.7963223 -1.8085177 4293729569
4.5218506 -4.2407575 -1.8543701 4293729569
7.52211 -5.6199632 -1.8011053 4293729569
4.3867035 -4.2377152 -1.8820777 4288085770
7.0630341 -5.4804425 -1.8028216 4293729569
4.2565308 -4.2336526 -1.9118257 4288085770
6.595993 -5.3289666 -1.7993805 4293729569
4.1054077 -4.217649 -1.9362934 4288085770
6.1389771 -5.1774907 -1.7940338 4293729569
3.8713837 -4.1588635 -1.9416852 4288085770
5.6779785 -5.0170569 -1.7835877 4293729569
3.6104431 -4.0841584 -1.939713 4288085770
5.2979584 -4.8904672 -1.7831373 4293729569
3.3405151 -4.0004926 -1.9335942 4288085770
4.9209595 -4.760901 -1.7786949 4293729569
3.0995636 -3.927772 -1.9308243 4288085770
4.578949 -4.6422753 -1.7776568 4293729569
2.8556366 -3.8490682 -1.9259849 4288085770
4.263916 -4.5326114 -1.7779353 4293729569
2.6356812 -3.7813106 -1.9254467 4288085770
4.0008545 -4.4468331 -1.7868676 4293729569
2.415741 -3.7085719 -1.921874 4288085770
3.7068481 -4.3391595 -1.7853572 4293729569
2.2097931 -3.6408124 -1.9194674 4288085770
3.4338379 -4.2404494 -1.7861063 4293729569
2.0048828 -3.5700641 -1.9150503 4288085770
3.2727051 -4.1944842 -1.8062735 4293729569
1.8139191 -3.5032878 -1.9127915 4288085770
3.1724854 -4.1783605 -1.8402197 4293729569
1.6170349 -3.4315448 -1.9064429 4288085770
3.1062469 -4.178164 -1.8795962 4288085770
1.4470673 -3.3717294 -1.90643 4288085770
3.0350037 -4.1729779 -1.9178908 4288085770
1.2771454 -3.3079286 -1.9043901 4288085770
2.8699036 -4.115047 -1.9339373 4288085770
1.1141968 -3.2471185 -1.9024363 4288085770
2.625946 -4.0143437 -1.928946 4288085770
0.94927979 -3.181334 -1.8974295 4288085770
2.4129486 -3.9255776 -1.9283285 4288085770
0.80332947 -3.1254983 -1.8966701 4288085770
2.1870117 -3.8268695 -1.9215205 4288085770
0.64743042 -3.0607095 -1.8907549 4288085770
1.977066 -3.7351279 -1.9169109 4288085770
0.50750732 -3.0028806 -1.8880384 4288085770
1.7841187 -3.6493602 -1.9135025 4288085770
0.36859131 -2.9440589 -1.8843243 4288085770
1.5951843 -3.5636029 -1.9081318 4288085770
0.2396698 -2.8882194 -1.8817251 4288085770
1.4292297 -3.487783 -1.9080462 4288085770
0.13069153 -2.8413205 -1.8843753 4288085770
1.2602997 -3.4089952 -1.9039118 4288085770
0.019775391 -2.792438 -1.8849936 4288085770
1.0993347 -3.3321919 -1.9008667 4288085770
-0.11509705 -2.7286525 -1.875283 4288085770
0.94441223 -3.2563872 -1.8968847 4288085770
-0.2180481 -2.6807618 -1.8759832 4288085770
0.79946899 -3.1845651 -1.8940244 4288085770
0.66751099 -3.1187148 -1.8933275 4288085770
0.52859497 -3.0468984 -1.8885236 4288085770
0.40266418 -2.9810624 -1.8848832 4288085770
0.27375793 -2.9112353 -1.8801875 4288085770
0.16181946 -2.8503757 -1.8777132 4288085770
0.056869507 -2.7914939 -1.8773186 4288085770
-0.054031372 -2.7276549 -1.8718331 4288085770
-0.15594482 -2.6687903 -1.8684671 4288085770
-0.24488831 -2.61589 -1.868264 4288085770
-0.14660645 -0.50850439 -1.811461 4288085770
-0.075454712 -0.49246407 -1.8070142 4288085770
0.0096588135 -0.47738028 -1.8067052 4288085770
0.084823608 -0.46034145 -1.8012891 4288085770
0.18789673 -0.44721508 -1.8041618 4288085770
0.28302002 -0.4331274 -1.8029532 4288085770
0.36816406 -0.41707754 -1.7976372 4288085770
0.47727966 -0.40296602 -1.7975593 4288085770
0.59637451 -0.38982964 -1.7995818 4288085770
0.72146606 -0.37668562 -1.8016603 4288085770
0.84359741 -0.36256552 -1.8007038 4288085770
-0.12251282 -0.24561262 -1.7988484 4288085770
0.96372986 -0.3484621 -1.7977285 4288085770
-0.01940918 -0.2334938 -1.8007281 4288085770
1.1078033 -0.33528948 -1.8009846 4288085770
0.072738647 -0.21942902 -1.7964914 4288085770
1.2559204 -0.3231349 -1.801285 4288085770
0.20080566 -0.20825481 -1.8026116 4288085770
1.397049 -0.30900002 -1.7995059 4288085770
0.30493164 -0.19416952 -1.7994869 4288085770
1.5671387 -0.29680538 -1.802012 4288085770
0.43104553 -0.18202496 -1.8015816 4288085770
1.7372437 -0.2836237 -1.802511 4288085770
0.54516602 -0.16892719 -1.798557 4288085770
1.922348 -0.27141905 -1.804157 4288085770
0.68228149 -0.15677786 -1.7997546 4288085770
2.1164551 -0.25920343 -1.8058872 4288085770
0.81539917 -0.14364624 -1.7989078 4288085770
2.3255615 -0.24597168 -1.8077505 4288085770
0.97047424 -0.13246107 -1.8022802 4288085770
2.5386505 -0.23374128 -1.8086581 4288085770
1.1205902 -0.12030983 -1.801599 4288085770
2.7747498 -0.22147846 -1.8107805 4288085770
1.2797241 -0.10814095 -1.802002 4288085770
3.0288544 -0.21018171 -1.8150783 4288085770
1.4528198 -0.095957279 -1.8025358 4288085770
3.2749786 -0.1969347 -1.8132873 4288085770
1.625946 -0.083779335 -1.8020694 4288085770
3.5440979 -0.18465471 -1.8127182 4288085770
1.8110657 -0.071587563 -1.8017151 4288085770
3.8152618 -0.17140055 -1.808161 4288085770
2.0201569 -0.059355736 -1.8035853 4288085770
4.1453705 -0.16002369 -1.8121688 4288085770
2.23526 -0.04811573 -1.8055182 4288085770
4.4395447 -0.14576435 -1.8048196 4288085770
2.4643555 -0.036860943 -1.8075819 4288085770
4.8136139 -0.13433743 -1.8092382 4288085770
2.6974945 -0.02462244 -1.8066761 4288085770
5.1837769 -0.12196922 -1.8056107 4288085770
2.9685516 -0.013298512 -1.8121312 4288085770
5.619873 -0.10948706 -1.8086061 4288085770
3.2316895 -0.0010390282 -1.809509 4288085770
6.154892 -0.099836349 -1.8205476 4288085770
3.5327911 0.010296822 -1.8122492 4288085770
6.7019653 -0.089206219 -1.8275948 4288085770
3.8069763 0.023540497 -1.8057239 4288085770
7.273056 -0.07657671 -1.8308532 4288085770
4.1430817 0.034903526 -1.8067911 4288085770
7.8232727 -0.063046932 -1.8229089 4288085770
4.4882355 0.047247887 -1.8039362 4288085770
8.5203552 -0.05127573 -1.8273523 4288085770
4.8733368 0.058665752 -1.8054621 4288085770
9.548172 -0.044919014 -1.8649309 4288085770
5.3044434 0.070142746 -1.808418 4288085770
10.371323 -0.032058239 -1.8625464 4288085770
5.7785339 0.081676006 -1.8127761 4288085770
11.244553 -0.018182755 -1.8546233 4288085770
6.3475494 0.092371941 -1.8260293 4288085770
12.178818 -0.0042719841 -1.8422713 4288085770
6.919632 0.10401011 -1.8303041 4288085770
13.432938 0.0080981255 -1.8469245 4288085770
7.504776 0.11562061 -1.828701 4288085770
8.1249695 0.12824202 -1.8234189 4288085770
9.1617279 0.13763714 -1.8650608 4288085770
10.0448 0.14963531 -1.8732448 4288085770
10.906036 0.16249609 -1.865217 4288085770
11.77832 0.17530823 -1.8482931 4288085770
12.998428 0.18764687 -1.8536294 4288085770
14.335617 0.20106363 -1.8520536 4288085770
14.700485 0.39726591 -1.8481414 4288085770
13.244598 0.40982771 -1.842062 4288085770
11.990692 0.42258406 -1.8359261 4288085770
11.100601 0.43681097 -1.8542876 4288085770
10.219604 0.450984 -1.8597362 4288085770
9.5554657 0.46644974 -1.8822675 4282675967
8.3161469 0.47092724 -1.8173072 4288085770
15.167236 0.62260818 -1.8315496 4288085770
7.6632385 0.48329115 -1.8169599 4288085770
13.698334 0.63215971 -1.8263578 4288085770
7.0902557 0.49576521 -1.8233819 4288085770
12.463379 0.64296436 -1.8264127 4288085770
6.5533295 0.50825167 -1.8251507 4288085770
11.376465 0.65290308 -1.8248973 4288085770
6.0054932 0.51967144 -1.8158188 4288085770
10.543411 0.66615391 -1.8368111 4288085770
5.4866638 0.53011608 -1.8057709 4288085770
9.8423004 0.68156195 -1.8549855 4282675967
5.0288391 0.54063177 -1.7983098 4288085770
8.9974823 0.69069147 -1.8448043 4288085770
4.6449432 0.55225325 -1.7975557 4288085770
7.9849854 0.69148827 -1.8000464 4288085770
4.286026 0.56489801 -1.7970374 4288085770
7.427002 0.70398235 -1.8076122 4288085770
3.9800873 0.57762289 -1.8020291 4288085770
6.8750763 0.71544743 -1.8082409 4288085770
3.6841278 0.59034729 -1.8051167 4288085770
6.3931274 0.72799301 -1.8115382 4288085770
3.3792725 0.60203266 -1.8021231 4288085770
5.8872681 0.7374711 -1.8056195 4288085770
3.1023865 0.61374712 -1.7993989 4288085770
5.4084625 0.74695587 -1.7959607 4288085770
2.8554688 0.62551165 -1.8009632 4288085770
4.9706268 0.75648737 -1.7876966 4288085770
2.604599 0.63725185 -1.7984891 4288085770
4.6107178 0.7681365 -1.7881732 4288085770
2.3926697 0.65005016 -1.8003852 4288085770
4.3017731 0.78185272 -1.7921309 4288085770
2.1488495 0.65976954 -1.7919886 4288085770
4.0088196 0.79458523 -1.796247 4288085770
1.9519501 0.67257404 -1.7920294 4288085770
3.7248993 0.80731726 -1.79845 4288085770
1.7480927 0.68435192 -1.7880075 4288085770
3.4759521 0.82109404 -1.8029847 4288085770
1.5652008 0.69516039 -1.7861927 4288085770
3.2020874 0.83180618 -1.7992942 4288085770
1.3993225 0.70799732 -1.7865319 4288085770
2.9671631 0.84558249 -1.8009641 4288085770
1.2354279 0.7208252 -1.7848902 4288085770
2.7033539 0.85527945 -1.7923746 4288085770
1.0735474 0.73265028 -1.7822723 4288085770
2.4704742 0.86602736 -1.7880785 4288085770
0.9246521 0.74449396 -1.7807798 4288085770
2.2666016 0.87881565 -1.7860518 4288085770
0.79673767 0.75737858 -1.7834845 4288085770
2.0737 0.89061928 -1.7851357 4288085770
0.67582703 0.77126503 -1.7852519 4288085770
1.8768616 0.90139961 -1.7801862 4288085770
0.54196167 0.7831192 -1.7829034 4288085770
1.6999969 0.91420984 -1.7774193 4288085770
0.4400177 0.79803944 -1.7878485 4288085770
1.5370941 0.92704439 -1.776787 4288085770
0.34104919 0.81296253 -1.7928224 4288085770
1.4041595 0.94193363 -1.7814336 4288085770
0.20526123 0.82278061 -1.7834651 4288085770
1.2622528 0.95579338 -1.7819984 4288085770
1.1153717 0.96763372 -1.7795253 4288085770
1.0004425 0.98353672 -1.7833402 4288085770
0.87054443 0.9963994 -1.7820256 4288085770
0.75364685 1.0102801 -1.7818315 4288085770
0.6497345 1.0251889 -1.7847574 4288085770
0.53086853 1.0380478 -1.7805488 4288085770
0.43395996 1.0529585 -1.7825418 4288085770
0.33506775 1.0668526 -1.7815206 4288085770
0.25311279 1.0837879 -1.7856486 4288085770
0.23353577 3.4619017 -1.695859 4288085770
0.35058594 3.5260088 -1.6956756 4288085770
0.48361206 3.5991476 -1.6986024 4288085770
0.62364197 3.6742942 -1.7015874 4288085770
0.74972534 3.7384009 -1.6994913 4288085770
0.90075684 3.8175535 -1.7015624 4288085770
1.0518036 3.8926954 -1.701654 4288085770
1.2138367 3.9738595 -1.7038217 4288085770
1.4047852 4.0680718 -1.7102053 4288085770
0.20851135 3.4358621 -1.7027442 4288085770
1.5738678 4.1482229 -1.708446 4288085770
0.32263184 3.4849477 -1.698606 4288085770
1.7728577 4.2424288 -1.7119074 4288085770
0.46963501 3.5511107 -1.703702 4288085770
1.9499512 4.3225784 -1.708225 4288085770
0.60472107 3.6082323 -1.7027271 4288085770
2.170929 4.4248109 -1.7128599 4288085770
0.76472473 3.677408 -1.7079344 4288085770
2.3869476 4.5210199 -1.7134757 4288085770
0.90583801 3.7345264 -1.7050171 4288085770
2.6449127 4.6372943 -1.7193985 4288085770
1.0858154 3.8107324 -1.712383 4288085770
2.8928986 4.7455454 -1.7222645 4288085770
1.2418823 3.8708754 -1.7115963 4288085770
3.1748505 4.8698502 -1.7293799 4288085770
1.4189453 3.9410493 -1.7129626 4288085770
3.4328918 4.9760914 -1.7283525 4288085770
1.5720673 3.9941647 -1.7071812 4288085770
3.7069092 5.0883489 -1.7274499 4288085770
1.766098 4.0673609 -1.7096972 4288085770
3.9959412 5.2046218 -1.7266729 4288085770
1.9551544 4.1365423 -1.7101848 4288085770
4.3059692 5.3279161 -1.726064 4288085770
2.1741486 4.2177734 -1.7149026 4288085770
4.6329803 5.4572277 -1.72559 4288085770
2.3871918 4.2919836 -1.7165973 4288085770
4.9979401 5.5995922 -1.7284191 4288085770
2.6112518 4.3692012 -1.7173834 4288085770
5.3968658 5.7560005 -1.7335074 4288085770
2.8642273 4.4594717 -1.7233851 4288085770
5.7659149 5.8913355 -1.7294095 4288085770
3.120224 4.5467405 -1.7284312 4288085770
6.2018585 6.0557718 -1.7328162 4288085770
3.4011993 4.6420398 -1.7346787 4288085770
6.7037201 6.2473001 -1.7417271 4288085770
3.6602478 4.7232914 -1.7357833 4288085770
7.2994537 6.4789677 -1.7603493 4288085770
3.93927 4.8105645 -1.737051 4288085770
7.8113861 6.6614666 -1.7614014 4288085770
4.2243195 4.8968439 -1.7383821 4288085770
8.3603363 6.8560038 -1.7627521 4288085770
4.5033722 4.9761019 -1.7366893 4288085770
8.8883362 7.0314894 -1.7579932 4288085770
4.8054504 5.0613837 -1.7351892 4288085770
9.3994598 7.1909246 -1.7461493 4288085770
5.1224976 5.1496906 -1.7358191 4288085770
10.005447 7.3884859 -1.7410357 4288085770
5.4485474 5.2369962 -1.7345409 4288085770
10.636459 7.589067 -1.7351487 4288085770
5.7975769 5.3313351 -1.73545 4288085770
11.288483 7.7916551 -1.726455 4288085770
6.1706085 5.4307036 -1.7375667 4288085770
12.049408 8.0313787 -1.7236316 4288085770
6.5645905 5.5340986 -1.7408659 4288085770
6.995575 5.6475358 -1.7454736 4288085770
7.4555206 5.7670169 -1.7533314 4288085770
7.8995514 5.8744535 -1.7550938 4288085770
8.40448 5.9999752 -1.7623565 4288085770
8.8515778 6.09339 -1.7592168 4288085770
9.3795319 6.2149258 -1.7647209 4288085770
9.9115448 6.3294506 -1.7672985 4288085770
10.446564 6.4389706 -1.7679291 4288085770
10.983643 6.5394764 -1.7656233 4288085770
11.501785 6.623939 -1.7582126 4288085770
12.072845 6.7214756 -1.7552495 4288085770
12.64798 6.8120012 -1.7493594 4288085770
13.289001 6.9176183 -1.7490323 4288085770
13.901123 7.0041819 -1.7435184 4288085770
14.607162 7.1158657 -1.7437892 4288085770
14.634918 -2.6277032 -1.932277 4288085770
13.953079 -2.6533885 -1.9288201 4288085770
13.318222 -2.6740317 -1.9247925 4288085770
12.762314 -2.7005658 -1.9275553 4288085770
12.183441 -2.7171369 -1.9270482 4288085770
11.627563 -2.727695 -1.9247341 4288085770
11.074707 -2.7322536 -1.9214196 4288085770
10.582809 -2.7417369 -1.9217174 4288085770
10.019974 -2.7303357 -1.9122295 4288085770
9.5311127 -2.7258353 -1.9084888 4288085770
9.0752258 -2.72329 -1.9070759 4288085770
8.6513214 -2.7207093 -1.9069715 4288085770
8.2444153 -2.7161059 -1.9080215 4288085770
7.8325195 -2.7045217 -1.9059892 4288085770
14.255707 -4.2069383 -1.9792171 4288085770
7.4346619 -2.6899333 -1.9020777 4288085770
13.428741 -4.1277595 -1.9768531 4288085770
7.0028229 -2.6634097 -1.8917806 4288085770
12.642792 -4.0475545 -1.9718802 4288085770
6.6509094 -2.6507545 -1.8923221 4288085770
11.84288 -3.9553847 -1.9617145 4288085770
6.3319702 -2.642056 -1.8952012 4288085770
11.17392 -3.8860507 -1.959923 4288085770
5.9811096 -2.6194253 -1.8907044 4288085770
10.511978 -3.8087258 -1.9541605 4288085770
5.6681824 -2.6037354 -1.8906076 4288085770
9.8810425 -3.7313714 -1.9486969 4288085770
5.3662872 -2.5860333 -1.8906074 4288085770
9.2951202 -3.6589761 -1.9426918 4288085770
5.0634003 -2.5633502 -1.8875732 4288085770
8.7611694 -3.5935111 -1.9402215 4288085770
4.7814941 -2.5436282 -1.8877563 4288085770
8.2452393 -3.5260348 -1.9369156 4288085770
4.5115814 -2.5238996 -1.8870549 4288085770
7.7702942 -3.463511 -1.935029 4288085770
4.2356873 -2.4971871 -1.8842618 4288085770
7.2484436 -3.3820891 -1.9215982 4288085770
3.9757996 -2.4734578 -1.8816378 4288085770
6.7795563 -3.3085923 -1.9127169 4288085770
3.7358856 -2.4516931 -1.882216 4288085770
6.3865967 -3.2539792 -1.9126601 4288085770
3.4979858 -2.427937 -1.8808043 4288085770
6.021637 -3.202333 -1.9138875 4288085770
3.2650757 -2.4021764 -1.8794308 4288085770
5.6407318 -3.1417336 -1.9089177 4288085770
3.0501709 -2.3793912 -1.8792455 4288085770
5.2818146 -3.0821061 -1.9051645 4288085770
2.853241 -2.3585792 -1.8812432 4288085770
4.9518738 -3.0294394 -1.9037251 4288085770
2.6443481 -2.3327928 -1.8801014 4288085770
4.6379547 -2.9767613 -1.9014399 4288085770
2.441452 -2.3050056 -1.8780077 4288085770
4.3270416 -2.9200883 -1.8971646 4288085770
2.2545319 -2.2801929 -1.878083 4288085770
4.0471039 -2.8723712 -1.8962317 4288085770
2.0536652 -2.2494178 -1.8729942 4288085770
3.769165 -2.8206553 -1.8942983 4288085770
1.8578033 -2.2166381 -1.8679442 4288085770
3.5132446 -2.7729135 -1.8935969 4288085770
1.6908722 -2.1918054 -1.8682122 4288085770
3.2713165 -2.7281518 -1.8940449 4288085770
1.5269775 -2.1669688 -1.8685093 4288085770
3.0243988 -2.6784148 -1.8904207 4288085770
1.3640747 -2.1391416 -1.8668013 4288085770
2.7735291 -2.6237016 -1.8827341 4288085770
1.1981812 -2.1083312 -1.8620503 4288085770
2.5665894 -2.5819039 -1.8835337 4288085770
1.0442963 -2.0794988 -1.8594246 4288085770
2.3516846 -2.5351291 -1.881233 4288085770
0.90139771 -2.0536456 -1.8589194 4288085770
2.1507721 -2.4903455 -1.8780763 4288085770
0.76548767 -2.0287805 -1.8594866 4288085770
1.9448853 -2.4425702 -1.8738575 4288085770
0.6156311 -1.9959579 -1.8538804 4288085770
1.7629852 -2.4007621 -1.8718989 4288085770
0.48970032 -1.9710832 -1.8545437 4288085770
1.5860748 -2.3589492 -1.8699884 4288085770
0.3558197 -1.941236 -1.8511062 4288085770
1.4071503 -2.3141427 -1.8670444 4288085770
0.22993469 -1.9133754 -1.8487556 4288085770
1.2392426 -2.2713237 -1.8642161 4288085770
1.090332 -2.2344737 -1.8645999 4288085770
0.93045044 -2.1916566 -1.8598487 4288085770
0.78752136 -2.1538043 -1.8592856 4288085770
0.64463806 -2.1139655 -1.8557131 4288085770
0.52468872 -2.0820737 -1.8584006 4288085770
0.37483215 -2.0362668 -1.8497319 4288085770
0.2698822 -2.0073514 -1.8545785 4288085770
0.24771118 0.22071409 -1.7902336 4288085770
0.36582947 0.23182392 -1.7903097 4288085770
0.48197937 0.24391747 -1.7873623 4288085770
0.60510254 0.25601721 -1.7844815 4288085770
0.74821472 0.26716232 -1.786797 4288085770
0.88435364 0.27828074 -1.7850454 4288085770
1.0334625 0.29042292 -1.7854135 4288085770
1.2055359 0.30260134 -1.7890015 4288085770
0.23651123 0.32166815 -1.7916169 4288085770
1.3756409 0.31376839 -1.7905753 4288085770
0.36361694 0.33079195 -1.7927885 4288085770
1.5587311 0.32594967 -1.7922685 4288085770
0.48977661 0.34089613 -1.7899458 4288085770
1.7299042 0.33709383 -1.788852 4288085770
0.635849 0.3510437 -1.7922945 4288085770
1.9479828 0.34932613 -1.7938807 4288085770
0.76502991 0.3601408 -1.7874854 4288085770
2.1720428 0.36155796 -1.7979662 4288085770
0.92811584 0.36930561 -1.7900014 4288085770
2.4081421 0.37279654 -1.8011713 4288085770
1.0752869 0.37842131 -1.7853644 4288085770
2.6442719 0.38501787 -1.8003716 4288085770
1.2593536 0.38761711 -1.7900813 4288085770
2.8993835 0.39626694 -1.8017588 4288085770
1.4534454 0.39681864 -1.7938938 4288085770
3.1704865 0.40853214 -1.8032939 4288085770
1.6535187 0.40602684 -1.7977638 4288085770
3.4655762 0.41982698 -1.8060634 4288085770
1.8566437 0.41422319 -1.7986672 4288085770
3.7677155 0.43110991 -1.8049002 4288085770
2.070755 0.42243576 -1.8006756 4288085770
4.0559082 0.44235086 -1.7976027 4288085770
2.3028564 0.43166733 -1.8028517 4288085770
4.4010315 0.45368195 -1.7978506 4288085770
2.5170135 0.43884516 -1.7978649 4288085770
4.7711639 0.46503353 -1.7973378 4288085770
2.7811279 0.44711351 -1.8013515 4288085770
5.2012482 0.47746611 -1.8013937 4288085770
3.0562286 0.45438862 -1.8039482 4288085770
5.6913147 0.48997879 -1.8100243 4288085770
3.3683167 0.4627099 -1.8088942 4288085770
6.2333679 0.50353956 -1.8181472 4288085770
3.6494751 0.46895599 -1.8045528 4288085770
6.7774811 0.51507854 -1.8212988 4288085770
3.9756165 0.47526884 -1.804642 4288085770
7.3356476 0.52659798 -1.8175843 4288085770
4.3107605 0.48157644 -1.8018172 4288085770
7.9438324 0.53716993 -1.814353 4288085770
4.6748962 0.48692274 -1.8012745 4288085770
8.9186096 0.55529022 -1.8515992 4288085770
5.0810394 0.49231005 -1.8011336 4288085770
9.8615723 0.57029867 -1.8715532 4282675967
5.5800781 0.49884224 -1.811877 4288085770
10.559937 0.57885551 -1.8471923 4288085770
6.1111145 0.50440216 -1.8219314 4288085770
11.431213 0.58764219 -1.8354857 4288085770
6.6592407 0.50894976 -1.8261533 4288085770
12.516418 0.5996747 -1.8318126 4288085770
7.2063904 0.51146221 -1.8233747 4288085770
13.7686 0.61087704 -1.8297415 4288085770
7.8205719 0.51304436 -1.8212419 4288085770
8.5836182 0.51583052 -1.8315289 4288085770
9.7453003 0.52319956 -1.8826132 4282675967
10.425674 0.51874924 -1.8601398 4288085770
11.289948 0.51353264 -1.8494306 4288085770
12.273224 0.50743341 -1.8388641 4288085770
13.500397 0.5006299 -1.8406363 4288085770
15.033478 0.49217653 -1.8533437 4288085770
8.5667419 -5.1532969 -0.77316332 4293729569
8.5664368 -5.0521436 -0.80667579 4293729569
8.5751495 -4.9549851 -0.83929229 4293729569
8.6148834 -4.8667922 -0.87324429 4293729569
10.533768 -5.4659696 -0.22516274 4293729569
8.9215393 -4.8772588 -0.9241848 4293729569
10.537445 -5.3508134 -0.25864613 4293729569
10.502899 -5.3360772 -1.0622883 4293729569
13.075409 -5.5853705 -0.46968746 4293729569
13.154709 -5.6049333 -1.3995736 4293729569
12.475082 -5.2629123 -0.47948658 4293729569
12.468704 -5.2547374 -1.3714302 4293729569
12.851868 -5.2473817 -0.51496327 4293729569
12.579437 -5.156486 -1.4030039 4293729569
13.213654 -5.2198682 -0.55024171 4293729569
13.254959 -5.2244811 -1.4776978 4293729569
13.611435 -5.2013221 -0.58490205 4293729569
13.589584 -5.1839356 -1.5256588 4293729569
14.265167 0.73865747 -1.8244901 4288085770
13.04425 0.77143097 -1.81896 4288085770
11.934372 0.80129862 -1.8104775 4288085770
11.085327 0.83550215 -1.819407 4288085770
10.38327 0.86887026 -1.8327103 4288085770
9.6473083 0.89715242 -1.8347208 4288085770
8.8455505 0.9172802 -1.8171544 4288085770
8.0808105 0.93442869 -1.7959471 4288085770
14.721756 1.3299408 -1.7950077 4288085770
7.5249023 0.95686769 -1.7936621 4288085770
13.535873 1.3417535 -1.7909009 4288085770
7.0769196 0.98345423 -1.8003645 4288085770
12.448975 1.352654 -1.7847211 4288085770
6.6139984 1.0059934 -1.7999458 4288085770
11.493103 1.3646879 -1.7797573 4288085770
6.1681061 1.0265355 -1.796695 4288085770
10.696182 1.3799038 -1.7802601 4288085770
5.7352905 1.0440688 -1.7885797 4288085770
10.049118 1.4023142 -1.791127 4288085770
5.3034821 1.0595846 -1.7764828 4288085770
9.3902283 1.4176621 -1.7909155 4288085770
4.9755554 1.0812626 -1.7773266 4288085770
8.6524658 1.4208512 -1.7730243 4288085770
4.6456909 1.0999141 -1.7731657 4288085770
8.0805817 1.4342694 -1.7696328 4288085770
4.3687592 1.1196437 -1.7744937 4288085770
7.633606 1.4548521 -1.7753725 4288085770
4.1257935 1.142426 -1.7801244 4288085770
7.1936798 1.4724288 -1.7781916 4288085770
3.901825 1.1652284 -1.7859318 4288085770
6.7567749 1.4869852 -1.7760527 4288085770
3.6369629 1.1819372 -1.7803862 4288085770
6.3109436 1.4975052 -1.7678485 4288085770
3.3931122 1.1986737 -1.7760358 4288085770
5.9220886 1.5100927 -1.7621663 4288085770
3.2061615 1.2205043 -1.7801926 4288085770
5.5412598 1.520679 -1.7545679 4288085770
3.0002594 1.2392917 -1.779187 4288085770
5.2043915 1.5343242 -1.7503653 4288085770
2.8003845 1.2570777 -1.7762418 4288085770
4.9294434 1.5530601 -1.7527165 4288085770
