# .PCD v0.7 - Point Cloud Data file format
VERSION 0.7
FIELDS x y z rgb
SIZE 4 4 4 4
TYPE F F F U
COUNT 1 1 1 1
WIDTH 1105
HEIGHT 1
VIEWPOINT 0 0 0 1 0 0 0
POINTS 1105
DATA ascii
-2.7764225 1.4829749 -1.6555538 4288085770
-1.0611534 1.6882318 -1.6799877 4288085770
-2.5863686 1.4915264 -1.6577554 4288085770
-0.85274696 1.6955264 -1.6676421 4288085770
-2.3873482 1.5011811 -1.6611364 4288085770
-0.54085541 1.7151654 -1.6743863 4288085770
-2.173357 1.5109904 -1.6658635 4288085770
-0.20101166 1.7370689 -1.6827219 4288085770
-1.9801331 1.5154047 -1.6622479 4288085770
0.13597488 1.7558112 -1.6860735 4288085770
-1.7242527 1.5266798 -1.6719153 4288085770
0.50092506 1.7748188 -1.691072 4288085770
-1.4554043 1.5380926 -1.6828825 4288085770
0.87893677 1.7918828 -1.6944268 4288085770
-1.1973782 1.5452495 -1.6877096 4288085770
1.2729893 1.8090281 -1.6961527 4288085770
-1.0068569 1.5413678 -1.6742508 4288085770
1.7099762 1.827593 -1.7008436 4288085770
-0.74269295 1.5454398 -1.6743021 4288085770
2.1839428 1.8474718 -1.7063618 4288085770
-0.4207859 1.5542493 -1.6845777 4288085770
2.6839428 1.8655447 -1.7115364 4288085770
-0.08880043 1.5610623 -1.6921413 4288085770
3.2498703 1.8872049 -1.7191529 4288085770
0.24925423 1.5648727 -1.6979272 4288085770
3.839859 1.9070146 -1.7253802 4288085770
0.58642197 1.566566 -1.6997476 4288085770
4.5167007 1.9306719 -1.7375329 4288085770
0.98736382 1.5710207 -1.7109869 4288085770
5.2167072 1.9503616 -1.7443309 4288085770
1.3645649 1.5700275 -1.7128148 4288085770
6.0345535 1.975162 -1.7577431 4288085770
1.7917042 1.5695136 -1.7177966 4288085770
6.9224033 2.0005293 -1.7717733 4288085770
2.2508144 1.5682989 -1.724545 4288085770
7.9272137 2.0278904 -1.7884796 4288085770
2.7349377 1.5652974 -1.7319257 4288085770
9.1008167 2.0608225 -1.8139775 4288085770
3.2331944 1.5592792 -1.7347157 4288085770
10.328657 2.0889683 -1.8318667 4288085770
3.8292274 1.5553117 -1.7477376 4288085770
4.4404354 1.5463094 -1.7552474 4288085770
5.0906696 1.5356114 -1.7627139 4288085770
5.8487339 1.5259948 -1.7786722 4288085770
6.656889 1.5117227 -1.7929254 4288085770
7.5619869 1.4963295 -1.8114734 4288085770
8.6110249 1.4782157 -1.8354576 4288085770
9.6912212 1.4532313 -1.8553536 4288085770
2.2617779 -7.459054 -1.975405 4293729569
2.0548134 -7.2809925 -1.9977252 4293729569
1.8499012 -7.100996 -2.0170383 4293729569
1.6390476 -6.9161615 -2.0320778 4288085770
1.3231316 -6.66079 -2.0227239 4288085770
1.0734348 -6.4507046 -2.0211573 4288085770
0.79275894 -6.2181082 -2.0102468 4288085770
0.49617577 -5.9768429 -1.9917233 4288085770
0.25374413 -5.7709689 -1.9804349 4288085770
0.027362823 -5.5749297 -1.9707904 4288085770
2.9367428 -7.2544546 -1.9155025 4293729569
-0.15592384 -5.4073792 -1.9679341 4288085770
2.7428513 -7.0625072 -1.9297428 4293729569
-0.34811401 -5.2340698 -1.9587088 4288085770
2.566021 -6.8813834 -1.9456782 4293729569
-0.50827217 -5.0803461 -1.9557695 4288085770
2.390295 -6.7023606 -1.9576941 4293729569
-0.67732048 -4.922864 -1.9465163 4288085770
2.2316456 -6.5331917 -1.9703779 4293729569
-0.82534599 -4.7781177 -1.9411042 4288085770
1.9569817 -6.2965999 -1.9574974 4293729569
-0.96133232 -4.6412392 -1.9371884 4288085770
1.8705578 -6.1706948 -1.9770525 4293729569
-1.0652523 -4.5230002 -1.9375327 4288085770
1.777153 -6.0409045 -1.9943371 4288085770
-1.1661243 -4.4077625 -1.9370296 4288085770
1.6477833 -5.890645 -2.0022173 4288085770
-1.2639599 -4.2945266 -1.9356515 4288085770
1.4794617 -5.7189693 -1.9995975 4288085770
-1.339777 -4.193018 -1.9381099 4288085770
1.3142242 -5.5493498 -1.9941039 4288085770
-1.3995609 -4.1023149 -1.9432387 4288085770
1.1490517 -5.381783 -1.9866667 4288085770
-1.493288 -3.9911532 -1.9380109 4288085770
0.98692322 -5.2172179 -1.9783819 4288085770
-1.5979424 -3.8742232 -1.9273667 4288085770
0.85390472 -5.0703726 -1.9722617 4288085770
-1.6755905 -3.773921 -1.9228108 4288085770
0.71688271 -4.9205894 -1.964967 4288085770
-1.7711716 -3.66394 -1.9115682 4288085770
0.60197449 -4.7856154 -1.9585934 4288085770
-1.8347511 -3.572516 -1.9075835 4288085770
0.50707626 -4.661386 -1.9559824 4288085770
-1.9062977 -3.4762449 -1.9002781 4288085770
0.43022728 -4.5469737 -1.9550619 4288085770
-1.9648304 -3.3878055 -1.8954921 4288085770
0.35241699 -4.4316239 -1.9520919 4288085770
-2.0093384 -3.3062172 -1.8922212 4288085770
0.30963707 -4.335835 -1.9554775 4288085770
-2.0707874 -3.2169123 -1.8833411 4288085770
0.25091553 -4.2323208 -1.9532766 4288085770
-2.1122475 -3.1383262 -1.8792229 4288085770
0.22117615 -4.1424193 -1.9571276 4288085770
-2.1397057 -3.0665636 -1.877619 4288085770
0.17352295 -4.044837 -1.9543467 4288085770
-2.176115 -2.9919605 -1.8727272 4288085770
0.13088799 -3.950211 -1.9517634 4288085770
-2.2134933 -2.915421 -1.8657582 4288085770
0.077283859 -3.849762 -1.9457631 4288085770
-2.2199345 -2.8524232 -1.8668859 4288085770
0.040718079 -3.7581391 -1.9414027 4288085770
-2.2542648 -2.7788844 -1.8590696 4288085770
0.016172409 -3.6723857 -1.9384835 4288085770
-2.2536469 -2.7208533 -1.8594973 4288085770
-0.025320053 -3.5808868 -1.9310095 4288085770
-2.2869244 -2.6483603 -1.8497329 4288085770
-0.038797379 -3.5010653 -1.9275103 4288085770
-2.2892628 -2.5894089 -1.8480651 4288085770
-0.063257217 -3.4173923 -1.9216485 4288085770
-2.2895985 -2.5314407 -1.8464711 4288085770
-0.063716888 -3.343431 -1.9196141 4288085770
-2.2739296 -2.4802804 -1.8474376 4288085770
-0.077116013 -3.2646914 -1.9131444 4288085770
-2.2981453 -2.4127364 -1.8370197 4288085770
-0.079496384 -3.1918287 -1.908093 4288085770
-2.2764378 -2.3635516 -1.8371806 4288085770
-0.059913635 -3.1236963 -1.9066856 4288085770
-2.2726955 -2.3066316 -1.8327081 4288085770
-0.051265717 -3.0547395 -1.9019985 4288085770
-2.2489662 -2.2574568 -1.8319161 4288085770
-0.019632339 -2.9935036 -1.9010608 4288085770
-2.2132702 -2.213098 -1.8345368 4288085770
0.010009766 -2.9303131 -1.8990228 4288085770
-2.2024822 -2.1591444 -1.8293097 4288085770
0.034715652 -2.8662467 -1.8938434 4288085770
-2.1846733 -2.1081314 -1.8243263 4288085770
0.086364746 -2.8108125 -1.894532 4288085770
-2.1359577 -2.0666614 -1.8273299 4288085770
0.13008881 -2.7525568 -1.8909559 4288085770
-2.0912056 -2.0242801 -1.8282149 4288085770
0.18479156 -2.6981521 -1.8897429 4288085770
-2.0514183 -1.9799968 -1.8269303 4288085770
0.2365303 -2.6418276 -1.8864067 4288085770
-1.9966755 -1.9395036 -1.8291004 4288085770
0.30326271 -2.5883489 -1.8844988 4288085770
-1.9707909 -1.8895043 -1.8213317 4288085770
0.38598251 -2.5396781 -1.8850968 4288085770
-1.916008 -1.848066 -1.8214755 4288085770
0.45474434 -2.4872098 -1.8822629 4288085770
-1.8612003 -1.8066553 -1.8206203 4288085770
0.55348206 -2.4414034 -1.8833129 4288085770
-1.7724762 -1.7737905 -1.8267939 4288085770
0.64625168 -2.3937039 -1.8821707 4288085770
-1.6917267 -1.7380489 -1.8307014 4288085770
0.7570076 -2.3507953 -1.8835804 4288085770
-1.6348495 -1.6967031 -1.826894 4288085770
0.88574409 -2.3116794 -1.8875144 4288085770
-1.5490551 -1.6609746 -1.8289185 4288085770
1.0075455 -2.2687335 -1.8871794 4288085770
-1.4532928 -1.6271063 -1.8332274 4288085770
1.1343231 -2.225718 -1.8879592 4288085770
-1.3744278 -1.5875477 -1.8309827 4288085770
1.2661381 -2.181716 -1.8868282 4288085770
-1.2806129 -1.5517792 -1.8321924 4288085770
1.4089546 -2.141593 -1.8870606 4288085770
-1.1768055 -1.5178982 -1.8346875 4288085770
1.5946903 -2.1069679 -1.8934481 4288085770
-1.0689831 -1.4830118 -1.8362479 4288085770
1.7555351 -2.0677199 -1.8931243 4288085770
-0.96713638 -1.4452318 -1.8355887 4288085770
1.944315 -2.0301538 -1.8965003 4288085770
-0.84530449 -1.4122268 -1.8375275 4288085770
2.119194 -1.9898432 -1.8944738 4288085770
-0.73743439 -1.3744231 -1.8360074 4288085770
2.3429737 -1.9559537 -1.8997676 4288085770
-0.62054062 -1.3375715 -1.8337233 4288085770
2.5478363 -1.9173628 -1.899488 4288085770
-0.49567032 -1.3006252 -1.8326232 4288085770
2.803627 -1.8862039 -1.9056034 4288085770
-0.33987808 -1.2692786 -1.8374009 4288085770
3.0754166 -1.8549098 -1.9120882 4288085770
-0.18502998 -1.236024 -1.8391025 4288085770
3.3253021 -1.8179673 -1.9119036 4288085770
-0.028175354 -1.2017795 -1.8398235 4288085770
3.6121235 -1.7836303 -1.9156539 4288085770
0.11973381 -1.1646945 -1.8372557 4288085770
3.9499168 -1.7547804 -1.9237456 4288085770
0.28064156 -1.1275007 -1.8349884 4288085770
4.2957516 -1.7229468 -1.928941 4288085770
0.45452881 -1.0911696 -1.834048 4288085770
4.6456032 -1.6901077 -1.9332023 4288085770
0.6573925 -1.0585384 -1.8358862 4288085770
5.1123066 -1.6690332 -1.949517 4288085770
0.8542881 -1.0210418 -1.83445 4288085770
5.5590973 -1.6402947 -1.9591541 4288085770
1.0841103 -0.98715711 -1.8378839 4288085770
6.1017704 -1.6205536 -1.9782784 4288085770
1.3309383 -0.95412922 -1.8417373 4288085770
6.5846329 -1.5876514 -1.9836397 4288085770
1.575819 -0.91920078 -1.8424916 4288085770
7.15341 -1.5608872 -1.9961762 4288085770
1.8406639 -0.88307762 -1.8446796 4288085770
7.6194477 -1.5144619 -1.9887674 4288085770
2.1344986 -0.84671068 -1.8475373 4288085770
8.2043705 -1.4768411 -1.9913771 4288085770
2.4084263 -0.8066504 -1.8448262 4288085770
8.8712559 -1.4434747 -1.9980168 4288085770
2.7472324 -0.77087808 -1.84975 4288085770
9.6650372 -1.4159018 -2.0127788 4288085770
3.0831108 -0.73224127 -1.8505244 4288085770
10.482878 -1.3812665 -2.0229058 4288085770
3.4329834 -0.69051611 -1.8505399 4288085770
3.844799 -0.65218604 -1.8550959 4288085770
4.2666321 -0.6108278 -1.8578012 4288085770
4.7214661 -0.56722116 -1.8602142 4288085770
5.2771606 -0.52660012 -1.8710656 4288085770
5.8369312 -0.4810847 -1.8768752 4288085770
6.4536705 -0.43309116 -1.8839462 4288085770
7.1483784 -0.38344276 -1.8927906 4288085770
7.9609432 -0.33366644 -1.9093843 4288085770
8.8165493 -0.27964044 -1.9228635 4288085770
9.7711239 -0.22081184 -1.9375191 4288085770
10.49531 1.9887228 -1.8379691 4288085770
9.7320499 2.0524192 -1.8214459 4288085770
9.0328503 2.1125956 -1.8045104 4288085770
8.4056072 2.1704268 -1.7913163 4288085770
7.760622 2.218894 -1.7699602 4288085770
7.2523212 2.2777429 -1.7605093 4288085770
6.7541218 2.3305957 -1.7484562 4288085770
6.305912 2.3848643 -1.7375288 4288085770
5.8717537 2.4342241 -1.7260625 4288085770
5.4556923 2.4796534 -1.7121236 4288085770
5.0815487 2.5284858 -1.7010689 4288085770
4.7662907 2.5808899 -1.6942902 4288085770
4.4800053 2.6335626 -1.6891794 4288085770
4.2137127 2.6864014 -1.6845298 4288085770
3.9554501 2.7382801 -1.6790929 4288085770
3.7092361 2.7892041 -1.6719615 4288085770
3.5009193 2.8435254 -1.668622 4288085770
3.3394184 2.9053712 -1.6711698 4288085770
3.1391926 2.9566779 -1.6650991 4288085770
2.9847832 3.0155015 -1.6648929 4288085770
10.384485 4.5453358 -1.7893333 4288085770
2.8174686 3.071136 -1.6614716 4288085770
10.029078 4.6124549 -1.7832172 4288085770
2.6791 3.1300378 -1.6596358 4288085770
9.7116222 4.6819162 -1.7789214 4288085770
2.5298042 3.1857944 -1.6556301 4288085770
9.3554096 4.7398944 -1.7680337 4288085770
2.3865376 3.2405748 -1.6507909 4288085770
9.0750256 4.8085828 -1.7616205 4288085770
2.2930641 3.3059025 -1.6518259 4288085770
8.8006763 4.8782659 -1.7533197 4288085770
2.2105846 3.3713222 -1.6531146 4288085770
8.5204258 4.9408479 -1.7430744 4288085770
2.1161747 3.4345884 -1.6521828 4288085770
8.3736591 5.0368023 -1.7450306 4288085770
2.0237846 3.4978437 -1.6502979 4288085770
8.1075306 5.0963922 -1.7311938 4288085770
1.9384232 3.5601306 -1.6476026 4288085770
7.9569035 5.1862082 -1.7292256 4288085770
1.8679962 3.6275673 -1.6461146 4288085770
7.783453 5.2686987 -1.7219231 4288085770
1.8075581 3.6960869 -1.6448298 4288085770
7.6638432 5.3617153 -1.7185884 4288085770
1.7650318 3.7698083 -1.6458204 4288085770
7.5353069 5.4516044 -1.71313 4288085770
1.723526 3.8435111 -1.6458354 4288085770
7.432703 5.5487065 -1.7080781 4288085770
1.6820774 3.9161592 -1.6438787 4288085770
7.3540173 5.6530323 -1.7043862 4288085770
1.650589 3.9919119 -1.6430678 4288085770
7.3490353 5.7781243 -1.7078438 4288085770
1.6151447 4.0665812 -1.6401954 4288085770
7.3172169 5.8958621 -1.7058768 4288085770
1.620451 4.1547503 -1.6439059 4288085770
7.3879032 6.0496597 -1.7133143 4288085770
1.59202 4.2334223 -1.6390858 4288085770
7.4994106 6.2178741 -1.7243097 4288085770
1.6123047 4.3266864 -1.642005 4288085770
7.6109409 6.3860612 -1.7343056 4288085770
1.645525 4.4250836 -1.6460855 4288085770
7.7752132 6.5767612 -1.747915 4288085770
1.6926708 4.5296221 -1.6513226 4288085770
7.8808689 6.7467337 -1.7517211 4288085770
1.7766037 4.6485715 -1.6610243 4288085770
7.9527073 6.9053192 -1.751049 4288085770
1.8198223 4.752995 -1.6631713 4288085770
8.0434856 7.0750299 -1.7495124 4288085770
1.8481655 4.8531861 -1.6610851 4288085770
8.0795727 7.2260995 -1.7402084 4288085770
1.8815174 4.95539 -1.6580596 4288085770
8.1634541 7.3946433 -1.7345405 4288085770
1.9118938 5.0575418 -1.6539655 4288085770
8.2653065 7.5722775 -1.7270408 4288085770
1.94034 5.1595945 -1.6468272 4288085770
8.5342236 7.8206887 -1.7365026 4288085770
1.971777 5.2626724 -1.6397307 4288085770
8.6987476 8.0299139 -1.7325988 4288085770
2.0300694 5.3780236 -1.6349244 4288085770
8.8563747 8.2379742 -1.7245636 4288085770
2.0843945 5.4923153 -1.6290541 4288085770
9.1373425 8.5012865 -1.7268929 4293729569
2.1983395 5.6332855 -1.630846 4288085770
2.3212795 5.780273 -1.630681 4288085770
2.4511662 5.931344 -1.6315668 4288085770
2.6446457 6.1150975 -1.6390419 4288085770
2.8689194 6.3161831 -1.6497612 4288085770
3.0962315 6.5212097 -1.6574414 4288085770
3.3980274 6.7670608 -1.6737428 4288085770
3.5906429 6.9605551 -1.6719248 4288085770
3.785284 7.1599808 -1.6669893 4288085770
4.0038261 7.3706021 -1.6623039 4288085770
4.2333107 7.5922813 -1.6565695 4288085770
4.5442486 7.8588419 -1.6595075 4288085770
4.8810596 8.1435833 -1.6615491 4288085770
5.2120171 8.4281111 -1.6574564 4288085770
9.7208881 0.13920611 -1.9147501 4288085770
8.4514751 0.10782921 -1.8890889 4288085770
7.3828793 0.079244673 -1.8730249 4288085770
6.3713531 0.057963073 -1.8520839 4288085770
5.5326366 0.038270473 -1.8411222 4288085770
4.7240314 0.022652447 -1.8247442 4288085770
4.0711403 0.0076007843 -1.8219795 4288085770
10.75334 -0.2264204 -1.9427538 4288085770
3.4144459 -0.0027600527 -1.8089914 4288085770
9.3246517 -0.22206378 -1.9144113 4288085770
2.8406124 -0.012300074 -1.802911 4288085770
8.0988293 -0.2189244 -1.8948228 4288085770
2.3068275 -0.020593286 -1.7947261 4288085770
6.9910831 -0.21197879 -1.8718722 4288085770
1.8229675 -0.026420414 -1.7896357 4288085770
6.003315 -0.20504427 -1.8517118 4288085770
1.3720894 -0.030976236 -1.7852778 4288085770
5.1444473 -0.19796515 -1.8375473 4288085770
0.94726562 -0.034400225 -1.7784927 4288085770
4.3955517 -0.19097948 -1.8259428 4288085770
0.57432556 -0.03628695 -1.7768748 4288085770
3.7315979 -0.18523866 -1.8183489 4288085770
0.22441101 -0.039011061 -1.7748146 4288085770
3.1126652 -0.17718232 -1.8097374 4288085770
-0.089618683 -0.040329635 -1.7775531 4288085770
2.5516968 -0.16962087 -1.8034883 4288085770
-0.39058876 -0.040623546 -1.7775655 4288085770
2.0337639 -0.16175985 -1.7962303 4288085770
-0.6845417 -0.039887547 -1.7767119 4288085770
1.5518589 -0.15265745 -1.7877748 4288085770
-0.95151329 -0.037929595 -1.7764525 4288085770
1.1108932 -0.14316279 -1.7822621 4288085770
-1.163702 -0.0392434 -1.7875631 4288085770
0.69696999 -0.1335004 -1.7753723 4288085770
-1.3748436 -0.037632227 -1.7956157 4288085770
0.34190941 -0.12618673 -1.7759197 4288085770
-1.6048298 -0.035369337 -1.7962081 4288085770
0.0068569183 -0.11773628 -1.7759006 4288085770
-1.8447018 -0.029354393 -1.7904642 4288085770
-0.29722595 -0.10900289 -1.7775943 4288085770
-2.1352367 -0.020171404 -1.7684455 4288085770
-0.60618401 -0.098475754 -1.7731221 4288085770
-2.401804 -0.010763586 -1.7479789 4288085770
-0.85433578 -0.091198504 -1.7791586 4288085770
-2.6424637 -0.0020316839 -1.7321355 4288085770
-1.1043892 -0.082075477 -1.780097 4288085770
-2.8601933 0.005972147 -1.7198477 4288085770
-1.3066692 -0.075282037 -1.7922165 4288085770
-3.0390797 0.012489498 -1.7155082 4288085770
-1.5407009 -0.066054404 -1.7925241 4288085770
-3.1861572 0.018489599 -1.7199275 4288085770
-1.7895756 -0.0531708 -1.7843814 4288085770
-3.3649445 0.026869476 -1.710536 4288085770
-2.0453529 -0.04045403 -1.7720802 4288085770
-3.5218697 0.034594893 -1.7076747 4288085770
-2.3289223 -0.024243057 -1.7490308 4288085770
-3.6916428 0.044021249 -1.6974638 4288085770
-2.5726032 -0.0095649958 -1.7319539 4288085770
-3.8335514 0.051842868 -1.6939485 4288085770
-2.7953529 0.0043683052 -1.7183859 4288085770
-3.9515667 0.05799979 -1.6960375 4288085770
-2.9901905 0.016642392 -1.7095156 4288085770
-4.0765324 0.067015946 -1.6948848 4288085770
-3.115427 0.02498728 -1.7203822 4288085770
-3.2962513 0.038348973 -1.7108071 4288085770
-3.4512081 0.050089657 -1.7078817 4288085770
-3.6160316 0.062583566 -1.6987026 4288085770
-3.7688808 0.075203717 -1.6907988 4288085770
-3.9047966 0.087046027 -1.6863122 4288085770
-4.0287628 0.099042058 -1.6841002 4288085770
-4.1497288 0.11106271 -1.6819577 4288085770
-4.1591606 2.05827 -1.589128 4288085770
-4.0332813 2.0833101 -1.5923643 4288085770
-3.9053726 2.1073399 -1.5946743 4288085770
-3.7784348 2.1303341 -1.5959897 4288085770
-3.6375694 2.1564968 -1.5995431 4288085770
-3.4976101 2.1795697 -1.600158 4288085770
-3.3734951 2.1973767 -1.595546 4288085770
-3.2116661 2.2247372 -1.600554 4288085770
-4.1110344 2.0018444 -1.5997865 4288085770
-3.0358772 2.2542386 -1.6068277 4288085770
-4.0019379 2.0136137 -1.5979934 4288085770
-2.8808708 2.2763793 -1.6058164 4288085770
-3.862072 2.0338249 -1.6036878 4288085770
-2.7129211 2.2996805 -1.6070747 4288085770
-3.746954 2.0456157 -1.6010332 4288085770
-2.5210838 2.328258 -1.6117451 4288085770
-3.6069908 2.0617461 -1.6038399 4288085770
-2.3450603 2.3505421 -1.6102171 4288085770
-3.4214077 2.0905759 -1.6193652 4288085770
-2.1263218 2.3824208 -1.6184235 4288085770
-3.3239975 2.0919769 -1.6075785 4288085770
-1.9422474 2.4037158 -1.6151083 4288085770
-3.1700401 2.1082213 -1.6107068 4288085770
-1.7402306 2.4262123 -1.6141777 4288085770
-2.9981689 2.1266937 -1.617192 4288085770
-1.5143414 2.4530125 -1.617686 4288085770
-2.8470612 2.1387782 -1.6153648 4288085770
-1.2992764 2.4745603 -1.6150832 4288085770
-2.6780643 2.1531181 -1.6178939 4288085770
-1.0483799 2.5025365 -1.6181393 4288085770
-2.5060387 2.1664555 -1.6195199 4288085770
-0.79047775 2.5295701 -1.6213839 4288085770
-2.320076 2.1809616 -1.6234391 4288085770
-0.50964165 2.5608177 -1.6260464 4288085770
-2.1151867 2.1986761 -1.6297109 4288085770
-0.20583153 2.5922797 -1.6322367 4288085770
-1.9519272 2.2027514 -1.624383 4288085770
0.094083786 2.619628 -1.6354473 4288085770
-1.7399693 2.2174692 -1.6288996 4288085770
0.42493057 2.6512551 -1.6402597 4288085770
-1.5269432 2.2291412 -1.6315234 4288085770
0.76681709 2.6809454 -1.6443808 4288085770
-1.3138466 2.2377596 -1.632231 4288085770
1.1256847 2.7117739 -1.6488647 4288085770
-1.0917587 2.2474513 -1.6331182 4288085770
1.4985943 2.7406895 -1.6527264 4288085770
-0.83284569 2.2606075 -1.640769 4288085770
1.8835506 2.7686484 -1.6548929 4288085770
-0.58181572 2.2705903 -1.6443214 4288085770
2.2984676 2.7978787 -1.6587205 4288085770
-0.31481361 2.2807305 -1.6492407 4288085770
2.7403946 2.827302 -1.6621697 4288085770
-0.014911652 2.2942209 -1.6578343 4288085770
3.2312069 2.862205 -1.6696053 4288085770
0.26616478 2.300422 -1.6611872 4288085770
3.7092285 2.8878407 -1.670994 4288085770
0.59903908 2.3132093 -1.671566 4288085770
4.2680092 2.9242978 -1.679965 4288085770
0.89918709 2.3155117 -1.6734672 4288085770
4.9096279 2.9675384 -1.6946762 4288085770
1.2312374 2.3201566 -1.6790466 4288085770
5.5624065 3.004734 -1.7048085 4288085770
1.5673809 2.3217528 -1.6818027 4288085770
6.290041 3.0496211 -1.71947 4288085770
1.9135628 2.3204045 -1.6838722 4288085770
7.0587864 3.0897341 -1.7312145 4288085770
2.2707901 2.3161192 -1.6852777 4288085770
7.9522648 3.1410542 -1.752552 4288085770
2.6649246 2.3142169 -1.6904769 4288085770
8.9316921 3.196074 -1.7757835 4288085770
3.0681515 2.3083072 -1.6929948 4288085770
9.9712238 3.2474747 -1.7965071 4288085770
3.479435 2.2984366 -1.694808 4288085770
3.9176903 2.2878137 -1.6982684 4288085770
4.4347477 2.2829976 -1.7094028 4288085770
4.9628925 2.2722182 -1.7189572 4288085770
5.5031834 2.255424 -1.7249541 4288085770
6.1382351 2.2445989 -1.7399933 4288085770
6.7894039 2.2268248 -1.7525949 4288085770
7.4955349 2.2065544 -1.7685423 4288085770
8.2517033 2.1826656 -1.78475 4288085770
9.0778179 2.1564031 -1.8046477 4288085770
9.9151249 2.1200967 -1.8200772 4288085770
4.8248634 -5.0664687 -0.31376749 4293729569
4.7498798 -5.1432357 -0.34414947 4293729569
4.7329941 -5.2404675 -0.37844235 4293729569
2.4289398 -5.0024695 -0.5685876 4293729569
2.6891575 -5.9539042 -1.0800061 4293729569
2.5753613 -5.9725351 -1.1249046 4293729569
2.584774 -6.0538669 -1.1843882 4293729569
2.5771179 -6.1253419 -1.2432051 4293729569
1.8552761 -6.1291766 -1.5197363 4293729569
1.8273449 -6.1727414 -1.5803196 4293729569
1.8875141 -6.2692418 -1.6564064 4293729569
3.0079498 -7.0010176 -1.9156084 4293729569
2.7085056 -6.881618 -1.9374042 4293729569
2.4181004 -6.761199 -1.9573805 4293729569
2.1707668 -6.6643143 -1.9830041 4293729569
1.8923893 -6.5418539 -2.0012021 4293729569
1.6100826 -6.4135656 -2.0141463 4288085770
1.2877655 -6.2548614 -2.0163221 4288085770
0.89743614 -6.0491123 -2.0016205 4288085770
0.53518867 -5.8551302 -1.9878933 4288085770
0.20500946 -5.6778264 -1.9773693 4288085770
2.8405666 -7.3075924 -1.9121039 4293729569
-0.11011124 -5.5054264 -1.9663284 4288085770
2.5597954 -7.1599121 -1.9385607 4293729569
-0.40917969 -5.3408933 -1.9558754 4288085770
2.2880821 -7.0142117 -1.9632809 4293729569
-0.62819672 -5.2223625 -1.9605498 4288085770
2.0564575 -6.8881254 -1.9914701 4293729569
-0.9091835 -5.0607629 -1.9475954 4288085770
1.7958183 -6.7414446 -2.012418 4293729569
-1.1491337 -4.9226575 -1.9422412 4288085770
1.490202 -6.5614467 -2.0204012 4288085770
-1.3690166 -4.7943854 -1.9376225 4288085770
1.1376381 -6.3471985 -2.0133476 4288085770
-1.5858517 -4.6661434 -1.9310739 4288085770
0.76111794 -6.1133728 -1.9971964 4288085770
-1.7926693 -4.5408196 -1.9248381 4288085770
0.40069771 -5.8874688 -1.9796348 4288085770
-1.9654636 -4.4350734 -1.9249315 4288085770
0.10235214 -5.6978269 -1.972513 4288085770
-2.1252556 -4.336164 -1.9275157 4288085770
-0.18488884 -5.513176 -1.9627838 4288085770
-2.3039761 -4.2216363 -1.9212272 4288085770
-0.45009613 -5.3402877 -1.9558899 4288085770
-2.4656639 -4.1179099 -1.9176314 4288085770
-0.67419434 -5.1919732 -1.9536254 4288085770
-2.6233387 -4.0131788 -1.9131007 4288085770
-0.91824532 -5.0280194 -1.943465 4288085770
-2.7959385 -3.8967662 -1.9008985 4288085770
-1.1382694 -4.8777833 -1.9372401 4288085770
-2.9495201 -3.7921119 -1.8924623 4288085770
-1.3302212 -4.744257 -1.9341261 4288085770
-3.0771141 -3.7021041 -1.890034 4288085770
-1.5161343 -4.6127095 -1.9302058 4288085770
-3.2076588 -3.6092029 -1.8844559 4288085770
-1.6829739 -4.4920034 -1.9270253 4288085770
-3.3222198 -3.5240874 -1.8824639 4288085770
-1.836832 -4.3781071 -1.9273348 4288085770
-3.4427166 -3.435132 -1.8762267 4288085770
-1.979641 -4.268147 -1.9270079 4288085770
-3.5841217 -3.3305993 -1.8600712 4288085770
-2.1373711 -4.150475 -1.9201198 4288085770
-3.6726322 -3.2592115 -1.8610616 4288085770
-2.2601032 -4.0513482 -1.9205556 4288085770
-3.7850304 -3.1713004 -1.8510382 4288085770
-2.4187412 -3.9298234 -1.9085374 4288085770
-3.871479 -3.0989795 -1.8490489 4288085770
-2.557373 -3.8190498 -1.9002802 4288085770
-3.9698524 -3.0179243 -1.8405397 4288085770
-2.6809807 -3.7180958 -1.8946424 4288085770
-4.0552368 -2.9446778 -1.8355477 4288085770
-2.7995262 -3.6191554 -1.8871753 4288085770
-4.1415863 -2.8704944 -1.8285067 4288085770
-2.905098 -3.5270243 -1.8831983 4288085770
-2.998642 -3.4417653 -1.8806896 4288085770
-3.1210556 -3.3390508 -1.8660252 4288085770
-3.2185059 -3.2509623 -1.858345 4288085770
-3.3119392 -3.1648412 -1.850812 4288085770
-3.3813915 -3.092382 -1.8492131 4288085770
-3.4627857 -3.0121613 -1.8421211 4288085770
-3.5351448 -2.9368649 -1.8353736 4288085770
-3.5975227 -2.8684025 -1.8320472 4288085770
-3.6578789 -2.7999516 -1.8277676 4288085770
-3.7142258 -2.7334666 -1.8236349 4288085770
-3.7665348 -2.6689763 -1.8186498 4288085770
-3.8088665 -2.6103201 -1.8170578 4288085770
-3.8591499 -2.5458412 -1.8111191 4288085770
-3.906395 -2.4833641 -1.8043056 4288085770
-3.9406796 -2.428669 -1.8020084 4288085770
-3.9619808 -2.3807836 -1.8032012 4288085770
-3.9932194 -2.3261189 -1.7989743 4288085770
-4.0303993 -2.2695861 -1.7915564 4288085770
-4.0436649 -2.2236624 -1.7919886 4288085770
-4.0678749 -2.1729398 -1.7880328 4288085770
-4.0860653 -2.1251669 -1.7842975 4288085770
-4.093317 -2.0811934 -1.7849228 4288085770
-4.1104755 -2.0344396 -1.7802389 4288085770
-4.1156693 -1.9925042 -1.7789662 4288085770
-4.1248302 -1.9486572 -1.7755482 4288085770
-4.1250134 -1.9086806 -1.7744458 4288085770
-4.1271763 -1.8677479 -1.7722704 4288085770
-4.122345 -1.8297299 -1.7713377 4288085770
-4.1224556 -1.7898358 -1.7672372 4288085770
-4.1086464 -1.7546889 -1.7685928 4288085770
-4.104744 -1.7167612 -1.7646394 4288085770
-4.0898914 -1.6816615 -1.7640193 4288085770
-4.075016 -1.6465889 -1.7623997 4288085770
-4.0581322 -1.6125001 -1.7608538 4288085770
-4.0302925 -1.5822378 -1.7626686 4288085770
-4.0113888 -1.54816 -1.7601693 4288085770
-3.9715595 -1.5227443 -1.7643962 4288085770
-3.9496479 -1.489642 -1.7619932 4288085770
-3.90979 -1.4622816 -1.7641664 4288085770
-3.8788891 -1.4310783 -1.7630246 4288085770
-3.8399906 -1.4027816 -1.7631483 4288085770
-3.8000965 -1.3744763 -1.7632952 4288085770
-3.7611732 -1.346207 -1.7624197 4288085770
-3.720232 -1.3179492 -1.7605906 4288085770
-3.6703377 -1.2925352 -1.7620492 4288085770
-3.6065025 -1.2689248 -1.7668822 4288085770
-3.5416279 -1.2473327 -1.7707942 4288085770
-3.4976234 -1.2181333 -1.7660081 4288085770
-3.4367104 -1.1926577 -1.7667198 4288085770
-3.3797493 -1.1672696 -1.7653406 4288085770
-3.3148041 -1.1427886 -1.7651722 4288085770
-3.2369118 -1.1211195 -1.7683828 4288085770
-3.1709518 -1.0956583 -1.7672105 4288085770
-3.0870399 -1.0739682 -1.7695594 4288085770
-2.9941368 -1.0541773 -1.7731695 4288085770
-4.1406288 -0.78179526 -1.7301133 4288085770
-2.8932743 -1.0352662 -1.7789896 4288085770
-4.0717049 -0.76122546 -1.7321455 4288085770
-2.8331699 -1.0060503 -1.7705712 4288085770
-4.0156536 -0.73692942 -1.727771 4288085770
-2.755146 -0.98057485 -1.7666759 4288085770
-3.9387302 -0.71926665 -1.7310693 4288085770
-2.6681538 -0.95697105 -1.7650411 4288085770
-3.861784 -0.69865978 -1.732286 4288085770
-2.5771179 -0.93338966 -1.7614992 4288085770
-3.7887897 -0.67813957 -1.7314119 4288085770
-2.4522572 -0.9152844 -1.7678976 4288085770
-3.7177639 -0.6556921 -1.7284384 4288085770
-2.3293304 -0.89627826 -1.7712243 4288085770
-3.6278515 -0.63692427 -1.7320073 4288085770
-2.2023869 -0.87726736 -1.7736433 4288085770
-3.5348949 -0.6181879 -1.7336464 4288085770
-2.0595207 -0.8600167 -1.7804823 4288085770
-3.4419365 -0.59945083 -1.735285 4288085770
-1.9016685 -0.84461689 -1.7887199 4288085770
-3.3559074 -0.57788157 -1.7326834 4288085770
-1.780611 -0.8218205 -1.7848945 4288085770
-3.2340527 -0.56177247 -1.7400672 4288085770
-1.6226902 -0.80353177 -1.7890518 4288085770
-3.1181583 -0.54476726 -1.7452869 4288085770
-1.458746 -0.78522193 -1.7923474 4288085770
-3.0320492 -0.52130878 -1.7386324 4288085770
-1.3206787 -0.76131678 -1.787885 4288085770
-2.9329796 -0.49968958 -1.7343299 4288085770
-1.1636467 -0.73920262 -1.7859128 4288085770
-2.8100071 -0.48073852 -1.7356577 4288085770
-0.98364449 -0.71984637 -1.7865496 4288085770
-2.6661358 -0.46447945 -1.742547 4288085770
-0.80362701 -0.69951856 -1.7861598 4288085770
-2.5023098 -0.44900393 -1.7519217 4288085770
-0.60961533 -0.67907774 -1.7860909 4288085770
-2.3434467 -0.43262374 -1.759155 4288085770
-0.38666534 -0.66131914 -1.7897682 4288085770
-2.1725674 -0.41517472 -1.7656369 4288085770
-0.13577843 -0.64425194 -1.7971137 4288085770
-1.9937077 -0.39863372 -1.773329 4288085770
0.1042099 -0.62541199 -1.7991548 4288085770
-1.8128071 -0.38113189 -1.7790408 4288085770
0.33829689 -0.60375881 -1.7959785 4288085770
-1.6119766 -0.36438608 -1.7882373 4288085770
0.61127853 -0.58465278 -1.7987766 4288085770
-1.4230003 -0.34493029 -1.7900801 4288085770
0.89131737 -0.56457293 -1.7987096 4288085770
-1.2588844 -0.32187021 -1.7842429 4288085770
1.2162743 -0.54701912 -1.8037555 4288085770
-1.0787907 -0.29965305 -1.7797999 4288085770
1.5502605 -0.52744853 -1.8069539 4288085770
-0.87775803 -0.27918363 -1.778892 4288085770
1.9062862 -0.50775576 -1.8086584 4288085770
-0.67965317 -0.25584948 -1.7738349 4288085770
2.3132019 -0.49051332 -1.8166125 4288085770
-0.42173767 -0.23678219 -1.7792869 4288085770
2.7402153 -0.47124732 -1.8199732 4288085770
-0.16075897 -0.21677375 -1.7817819 4288085770
3.1982021 -0.4527036 -1.8250723 4288085770
0.090312958 -0.19398451 -1.7789679 4288085770
3.6502934 -0.42937553 -1.8238993 4288085770
0.37132263 -0.17287016 -1.7798955 4288085770
4.2351723 -0.41269696 -1.8359923 4288085770
0.68231583 -0.15051436 -1.7814834 4288085770
4.8102264 -0.39134836 -1.8387237 4288085770
1.0163021 -0.12797332 -1.7835994 4288085770
5.5080872 -0.37278676 -1.8523824 4288085770
1.3872356 -0.10607833 -1.7885902 4288085770
6.2670116 -0.35284317 -1.8634155 4288085770
1.769249 -0.082205653 -1.7897809 4288085770
7.1308918 -0.33302546 -1.8778846 4288085770
2.2241287 -0.058606982 -1.7976708 4288085770
8.0937557 -0.31340921 -1.8946526 4288085770
2.683073 -0.034058809 -1.8026266 4288085770
9.2125721 -0.29253531 -1.9149997 4288085770
3.1750679 -0.0083275437 -1.8053138 4288085770
10.474325 -0.27148092 -1.9396546 4288085770
3.7329731 0.018018126 -1.8125134 4288085770
4.3448639 0.044799089 -1.8209517 4288085770
5.0666504 0.072548807 -1.8349118 4288085770
5.7965908 0.10414171 -1.8409498 4288085770
6.6823387 0.13518494 -1.8576179 4288085770
7.6531086 0.16982967 -1.8731546 4288085770
8.7648563 0.20658302 -1.8908994 4288085770
10.057478 0.24784869 -1.9147124 4288085770
9.6998997 0.46930605 -1.8900833 4288085770
8.2844219 0.45318797 -1.8598709 4288085770
7.1247578 0.44219753 -1.839422 4288085770
6.1499195 0.432803 -1.8281963 4288085770
5.2342129 0.42568186 -1.8112679 4288085770
4.4453487 0.42069888 -1.8022106 4288085770
3.750473 0.41742954 -1.7942736 4288085770
9.9422283 0.41289362 -1.8881783 4288085770
3.08671 0.41623974 -1.7809939 4288085770
8.5644855 0.41323701 -1.8643911 4288085770
2.5247631 0.41504633 -1.7770674 4288085770
7.3587132 0.41490933 -1.8435338 4288085770
1.9928856 0.41597944 -1.7697742 4288085770
6.3288918 0.41796938 -1.8266973 4288085770
1.5100193 0.4172717 -1.7626009 4288085770
5.4070625 0.42185378 -1.8113289 4288085770
1.08004 0.41909152 -1.7606356 4288085770
4.6091747 0.42674306 -1.7997925 4288085770
0.69502831 0.42129359 -1.7606981 4288085770
3.8862705 0.43122438 -1.7899971 4288085770
0.31609154 0.42543265 -1.756845 4288085770
3.2333851 0.43720245 -1.7797747 4288085770
-0.014921188 0.42903301 -1.7571142 4288085770
2.6514111 0.44382244 -1.7741723 4288085770
-0.31897163 0.43387318 -1.7589719 4288085770
2.1224861 0.45077825 -1.7667828 4288085770
-0.64083862 0.43935218 -1.7523963 4288085770
1.621582 0.45792764 -1.7590339 4288085770
-0.85614204 0.4441683 -1.7663083 4288085770
1.1985359 0.46582866 -1.7580631 4288085770
-1.0853348 0.45073649 -1.7748487 4288085770
0.80052948 0.47387213 -1.7556648 4288085770
-1.2796021 0.45666304 -1.7872143 4282675967
0.41858864 0.48195982 -1.7506344 4288085770
-1.471838 0.46454999 -1.7975719 4282675967
0.080564499 0.49047628 -1.7496068 4288085770
-1.6878757 0.47102943 -1.7994139 4282675967
-0.2165432 0.49939835 -1.7525141 4288085770
-1.9406185 0.47886044 -1.7873642 4282675967
-0.51953125 0.50813627 -1.7502875 4288085770
-2.2837105 0.4852353 -1.746254 4288085770
-0.76269722 0.51753867 -1.756427 4288085770
-2.5631218 0.49247062 -1.7195971 4288085770
-0.9829216 0.52817661 -1.765063 4288085770
-2.8185787 0.49895033 -1.6955147 4288085770
-1.1971207 0.537835 -1.7728643 4282675967
-2.994482 0.50755292 -1.6912203 4288085770
-1.3664684 0.54801226 -1.7876897 4282675967
-3.1097183 0.5160197 -1.7023375 4288085770
-1.5696087 0.55867505 -1.792717 4282675967
-3.3093815 0.52415961 -1.6875014 4288085770
-1.799511 0.56885135 -1.7871339 4282675967
-3.4592552 0.53094065 -1.682857 4288085770
-2.1068497 0.57678419 -1.7568123 4282675967
-3.6230202 0.53947371 -1.6728408 4288085770
-2.4230042 0.58442724 -1.7182901 4288085770
-3.7649117 0.54831707 -1.668324 4288085770
-2.662571 0.59314233 -1.6985157 4288085770
-3.8878975 0.55741978 -1.6682384 4288085770
-2.8593693 0.60344219 -1.6886902 4288085770
-4.0187683 0.56632251 -1.6629734 4288085770
-3.0113754 0.61334342 -1.6889143 4288085770
-4.1436386 0.57527262 -1.6578457 4288085770
-3.1543732 0.62428761 -1.6883166 4288085770
-3.3340969 0.63363999 -1.6759088 4288085770
-3.4720478 0.64456904 -1.6734271 4288085770
-3.6278095 0.6551376 -1.6625395 4288085770
-3.7617073 0.66504395 -1.6581779 4288085770
-3.8776665 0.67614645 -1.6561985 4288085770
-3.9965763 0.68717062 -1.6521518 4288085770
-4.1164322 0.69713271 -1.6461117 4288085770
-4.1385117 2.8363056 -1.5497322 4288085770
-4.026638 2.8731046 -1.5492961 4288085770
-3.9068031 2.9119921 -1.5499868 4288085770
-3.7879372 2.9498448 -1.5496826 4288085770
-3.6581421 2.9908381 -1.5515454 4288085770
-3.5352173 3.0266676 -1.5493889 4288085770
-3.3874798 3.0718265 -1.5525508 4288085770
-3.2377129 3.1159739 -1.5547864 4288085770
-4.1650867 2.7511749 -1.5554421 4288085770
-3.086916 3.1591015 -1.5560734 4288085770
-4.0501785 2.7800274 -1.5562942 4288085770
-2.9231663 3.2053571 -1.558573 4288085770
-3.934248 2.8088603 -1.5561697 4288085770
-2.7494659 3.2547169 -1.5622172 4288085770
-3.8103428 2.8377829 -1.5572269 4288085770
-2.5628338 3.3072319 -1.568074 4288085770
-3.7012691 2.8594546 -1.5531378 4288085770
-2.3662148 3.3608241 -1.574131 4288085770
-3.5624409 2.8925476 -1.5564253 4288085770
-2.1606045 3.4154863 -1.5803654 4288085770
-3.4126835 2.9287796 -1.5618794 4288085770
-1.9757576 3.459796 -1.579401 4288085770
-3.2856522 2.9526176 -1.559145 4288085770
-1.7590809 3.5144615 -1.5828879 4288085770
-3.1318302 2.9858274 -1.5627739 4288085770
-1.54039 3.567143 -1.5864754 4288085770
-2.9888706 3.0128441 -1.5623202 4288085770
-1.32164 3.6177711 -1.5881193 4288085770
-2.8210888 3.0481896 -1.5672126 4288085770
-1.0630989 3.6808429 -1.595341 4288085770
-2.6522713 3.0805168 -1.5712109 4288085770
-0.79754257 3.7429428 -1.6017501 4288085770
-2.4576092 3.1221528 -1.5795512 4288085770
-0.53487015 3.7999382 -1.6052306 4288085770
-2.2975864 3.1462479 -1.5775685 4288085770
-0.25027084 3.8631306 -1.6100464 4288085770
-2.1047897 3.1817608 -1.582031 4288085770
0.038377762 3.922328 -1.6140642 4288085770
-1.9109497 3.2142544 -1.5855997 4288085770
0.36786079 3.9939227 -1.6216836 4288085770
-1.7200336 3.2426724 -1.5872111 4288085770
0.69043541 4.0594101 -1.62731 4288085770
-1.5230942 3.2711086 -1.58796 4288085770
1.042942 4.1301565 -1.6344817 4288085770
-1.324173 3.2985888 -1.589781 4288085770
1.3915539 4.1957917 -1.6387014 4288085770
-1.0983467 3.3323317 -1.5940509 4288085770
1.7631397 4.2646046 -1.6433628 4288085770
-0.85559082 3.3682613 -1.6006517 4288085770
2.1616573 4.3386536 -1.6495011 4288085770
-0.6316433 3.3949089 -1.6020706 4288085770
2.5831375 4.413909 -1.657135 4288085770
-0.38381195 3.4268236 -1.6068966 4288085770
3.0296211 4.4913306 -1.664284 4288085770
-0.12398338 3.4588323 -1.6119962 4288085770
3.5249462 4.5792117 -1.675272 4288085770
0.14685059 3.4899263 -1.6173737 4288085770
3.9199314 4.6298819 -1.6689601 4288085770
0.41078949 3.5158858 -1.6197309 4288085770
4.4403782 4.712851 -1.6766577 4288085770
0.72546959 3.55443 -1.6299157 4288085770
4.9808521 4.7949476 -1.6838393 4288085770
1.0134048 3.5805759 -1.6328199 4288085770
5.5582809 4.8823309 -1.6917257 4288085770
1.3371696 3.6131372 -1.6413758 4288085770
6.1935577 4.9792457 -1.7036839 4288085770
1.6441193 3.6364322 -1.6447952 4288085770
6.8857517 5.0826287 -1.7177746 4288085770
1.9610958 3.6587787 -1.6474707 4288085770
7.5731335 5.1758394 -1.72703 4288085770
2.2960205 3.6813197 -1.652555 4288085770
8.3204174 5.2775426 -1.7384312 4288085770
2.6509342 3.7050161 -1.658067 4288085770
9.1585178 5.3920317 -1.7545733 4288085770
3.0039406 3.7216439 -1.6617277 4288085770
10.131277 5.5317283 -1.7791262 4288085770
3.3540192 3.7351952 -1.6634035 4288085770
3.7429962 3.7521315 -1.6688833 4288085770
4.1390133 3.7660956 -1.6736059 4288085770
4.5918427 3.7886376 -1.6844034 4288085770
5.0218506 3.7998948 -1.6909823 4288085770
5.4818115 3.8134122 -1.6991887 4288085770
5.9468422 3.8199434 -1.7067022 4288085770
6.4568024 3.8288798 -1.7171845 4288085770
6.9569225 3.8286314 -1.7236893 4288085770
7.5188351 3.8360281 -1.7374098 4288085770
8.0500317 3.8269963 -1.7438686 4288085770
8.6759319 3.8309193 -1.7601562 4288085770
9.2989407 3.8257675 -1.7746243 4288085770
9.9280605 3.8116112 -1.787478 4288085770
10.569239 3.7915225 -1.7997706 4288085770
10.140142 -5.015223 -1.9386487 4293729569
10.052916 -5.1234989 -1.9896338 4293729569
9.4356632 -5.0741348 -1.9810925 4293729569
10.202169 -5.4043856 -1.1612105 4293729569
8.9583874 -5.0583949 -1.9866955 4293729569
10.722353 -5.6949697 -1.2641699 4293729569
8.3361301 -4.9912133 -1.9725485 4293729569
8.2915859 -5.0683308 -1.1461055 4293729569
7.7078037 -4.9121084 -1.9569354 4293729569
8.2031116 -5.158484 -1.2015696 4293729569
6.9735508 -4.791255 -1.922735 4293729569
7.5540981 -5.0618582 -1.2100172 4293729569
6.5142212 -4.749548 -1.9220371 4293729569
6.9851475 -4.9835472 -1.2228084 4293729569
5.8999043 -4.6495337 -1.8991699 4293729569
6.5242596 -4.9362206 -1.2449355 4293729569
5.4145908 -4.5862284 -1.8902795 4293729569
6.6328583 -5.0775213 -1.317337 4293729569
4.9772415 -4.5324364 -1.886755 4293729569
6.2770233 -5.0542583 -1.3465407 4293729569
4.6228428 -4.4997721 -1.8937209 4293729569
6.3605404 -5.1857367 -1.4190955 4293729569
4.2994576 -4.4748144 -1.9036095 4293729569
6.7501545 -5.4280472 -1.5287385 4293729569
3.9970303 -4.4526315 -1.916059 4293729569
3.7345848 -4.4420228 -1.9337473 4293729569
6.3495178 -5.4813261 -1.6240432 4293729569
3.5001183 -4.4351406 -1.9541817 4293729569
6.5729027 -5.6641421 -1.7212319 4293729569
3.2656555 -4.4262867 -1.973562 4288085770
4.8723297 -5.0969276 -1.580559 4293729569
3.0351334 -4.4153481 -1.9949772 4288085770
4.7225151 -5.1246877 -1.6289034 4293729569
2.8056622 -4.4014845 -2.0133343 4288085770
4.6517315 -5.1816306 -1.6868672 4293729569
2.5102272 -4.3564463 -2.0183156 4288085770
4.6149139 -5.2501674 -1.7509322 4293729569
2.2827263 -4.335597 -2.0355265 4288085770
4.5970688 -5.3254728 -1.8186207 4293729569
1.9653015 -4.2748728 -2.03457 4282675967
4.3871632 -5.3188758 -1.8586395 4293729569
1.492054 -4.1411829 -1.9990165 4288085770
3.9652519 -5.2187009 -1.8642075 4293729569
1.0977917 -4.0366206 -1.9750819 4288085770
3.5743465 -5.1262283 -1.8727005 4293729569
0.75944519 -3.9513698 -1.9619668 4288085770
3.1524601 -5.0131955 -1.8729143 4293729569
0.46211433 -3.8787131 -1.953141 4288085770
2.7996254 -4.9254799 -1.8804116 4293729569
0.16779518 -3.8020883 -1.942275 4288085770
2.4657822 -4.8415871 -1.889451 4293729569
-0.1185379 -3.7263756 -1.9326179 4288085770
2.18894 -4.7780795 -1.9063621 4293729569
-0.36988068 -3.6632752 -1.9281132 4288085770
1.9671116 -4.7369719 -1.9311547 4293729569
-0.62420273 -3.5932822 -1.9203494 4288085770
1.7692776 -4.70262 -1.9586847 4288085770
-0.85352898 -3.53301 -1.9164281 4288085770
1.5164833 -4.6399803 -1.9741714 4288085770
-1.0898342 -3.4658766 -1.909157 4288085770
1.2027397 -4.5441556 -1.9753416 4288085770
-1.3051662 -3.4054947 -1.9055548 4288085770
0.8660717 -4.432735 -1.9675531 4288085770
-1.527462 -3.3372808 -1.8975756 4288085770
0.53943825 -4.3232617 -1.9590483 4288085770
-1.7467346 -3.2690687 -1.8886654 4288085770
0.23579025 -4.218554 -1.9532032 4288085770
-1.939043 -3.2095366 -1.8846152 4288085770
-0.018831253 -4.1353202 -1.9540761 4288085770
-2.1203403 -3.1548882 -1.8819523 4288085770
-0.3004055 -4.0354939 -1.9468713 4288085770
-2.3295364 -3.081738 -1.8681357 4288085770
-0.58393669 -3.9287953 -1.9354308 4288085770
-2.4908409 -3.0299058 -1.8670101 4288085770
-0.83248138 -3.8376822 -1.9302242 4288085770
-2.6780643 -2.963501 -1.8568852 4288085770
-1.0779858 -3.7456002 -1.9230599 4288085770
-2.8512955 -2.9019299 -1.8492153 4288085770
-1.308466 -3.6574006 -1.9163473 4288085770
-3.0115299 -2.8442287 -1.8429508 4288085770
-1.5409031 -3.5652995 -1.906481 4288085770
-3.1707325 -2.784575 -1.8346555 4288085770
-1.7563286 -3.4790368 -1.8981664 4288085770
-3.3090153 -2.7335916 -1.833082 4288085770
-1.9537754 -3.3995495 -1.8934522 4288085770
-3.4482193 -2.6807251 -1.8274333 4288085770
-2.1551685 -3.3152056 -1.8845119 4288085770
-3.5824471 -2.6277928 -1.8228979 4288085770
-2.3425503 -3.2357221 -1.8770275 4288085770
-3.7206268 -2.5719752 -1.815191 4288085770
-2.5179234 -3.1611171 -1.8709531 4288085770
-3.8309059 -2.5287156 -1.816474 4288085770
-2.7082634 -3.0747695 -1.8592105 4288085770
-3.959074 -2.4748187 -1.8090496 4288085770
-2.8695965 -3.0030818 -1.8525383 4288085770
-4.0752621 -2.4247727 -1.8040073 4288085770
-3.0299149 -2.9304137 -1.844862 4288085770
-3.181221 -2.8596749 -1.8374455 4288085770
-3.3175545 -2.794735 -1.8335338 4288085770
-3.4558144 -2.7279215 -1.8255241 4288085770
-3.576128 -2.669827 -1.8231685 4288085770
-3.700407 -2.6068482 -1.8175867 4288085770
-3.8166599 -2.5478058 -1.8122966 4288085770
-3.9229393 -2.4916301 -1.8093154 4288085770
-4.0351562 -2.4316111 -1.8020906 4288085770
-4.1363869 -2.3764501 -1.7972524 4288085770
-4.1536198 -0.19810891 -1.6959877 4288085770
-4.0735893 -0.18255955 -1.6953938 4288085770
-3.9845715 -0.16791326 -1.6960311 4288085770
-3.8826199 -0.15408432 -1.6999893 4288085770
-3.8134136 -0.13683981 -1.6910954 4288085770
-3.6925526 -0.12375468 -1.6995101 4288085770
-3.601429 -0.10823047 -1.695168 4288085770
-3.4606056 -0.096935749 -1.7060907 4288085770
-3.3197441 -0.084696293 -1.7149868 4288085770
-3.211647 -0.069013774 -1.7120302 4288085770
-3.0716991 -0.05589211 -1.7168784 4288085770
-4.086071 0.05113095 -1.686686 4288085770
-2.9724712 -0.039443731 -1.7076936 4288085770
-3.9830437 0.063885629 -1.6876962 4288085770
-2.8095741 -0.026090324 -1.7150629 4288085770
-3.8760509 0.077698112 -1.6897688 4288085770
-2.6317406 -0.014538407 -1.7258255 4288085770
-3.7679787 0.090436339 -1.6888936 4288085770
-2.4339561 -0.0027777553 -1.7390411 4288085770
-3.6569138 0.10419738 -1.6880591 4288085770
-2.22715 0.0090248585 -1.7514617 4288085770
-3.5021172 0.11562687 -1.7002983 4288085770
-1.9536495 0.01672858 -1.7795322 4288085770
-3.368124 0.12864757 -1.7030115 4288085770
-1.7268391 0.029657245 -1.7913799 4288085770
-3.216217 0.14091665 -1.7101581 4288085770
-1.5288219 0.044115067 -1.7935193 4288085770
-3.0771561 0.15389335 -1.7099864 4288085770
-1.3376732 0.059354305 -1.7894759 4288085770
-2.9321194 0.16694361 -1.7109504 4288085770
-1.1604233 0.076347888 -1.7800627 4288085770
-2.7750854 0.18008626 -1.7121866 4288085770
-0.97116661 0.092434347 -1.7709494 4288085770
-2.5533905 0.19114101 -1.7299716 4288085770
-0.75797844 0.10778791 -1.7654064 4288085770
-2.3087749 0.20245498 -1.751277 4288085770
-0.49193573 0.12271428 -1.7670906 4288085770
-1.9974518 0.21164185 -1.7871778 4282675967
-0.21787453 0.13767469 -1.7679567 4288085770
-1.7317924 0.2230624 -1.8069611 4282675967
0.061231613 0.15261859 -1.7669375 4288085770
-1.5267048 0.23649192 -1.8062882 4282675967
0.34544945 0.16746408 -1.761035 4288085770
-1.3673496 0.25223762 -1.7924962 4282675967
0.69347763 0.18202174 -1.7646077 4288085770
-1.1810398 0.26724625 -1.7813432 4288085770
1.0625172 0.19671333 -1.7676575 4288085770
-0.97774887 0.28141338 -1.7716029 4288085770
1.459568 0.2125926 -1.7703161 4288085770
-0.74955368 0.29488266 -1.7664552 4288085770
1.9105721 0.2269429 -1.7762542 4288085770
-0.49634743 0.30951664 -1.7608478 4288085770
2.4035549 0.24261606 -1.7831182 4288085770
-0.18837357 0.32284832 -1.7665379 4288085770
2.9056358 0.25724894 -1.786216 4288085770
0.098806381 0.33677152 -1.7627289 4288085770
3.4965706 0.27270389 -1.7963309 4288085770
0.41793823 0.34999603 -1.7616727 4288085770
4.1056347 0.2891323 -1.8008304 4288085770
0.78896332 0.36372989 -1.7657943 4288085770
4.8056374 0.305316 -1.8094215 4288085770
1.1600971 0.37832648 -1.7648909 4288085770
5.6125755 0.32334992 -1.8214133 4288085770
1.5871754 0.39240894 -1.7672853 4288085770
6.5115204 0.34106448 -1.8345213 4288085770
2.0621719 0.40694281 -1.773767 4288085770
7.5194759 0.35956299 -1.8481042 4288085770
2.5582542 0.42152852 -1.7767277 4288085770
8.7212467 0.37871855 -1.8721144 4288085770
3.1422253 0.43590117 -1.7857106 4288085770
10.073126 0.39983609 -1.8925056 4288085770
3.7782001 0.45164555 -1.7948468 4288085770
4.4702072 0.46676651 -1.8032823 4288085770
5.2142944 0.48217767 -1.8089004 4288085770
6.1281242 0.49914286 -1.8273714 4288085770
7.1410198 0.51675975 -1.8440912 4288085770
8.2509747 0.53501308 -1.8590147 4288085770
9.6177044 0.55543458 -1.8867667 4288085770
10.648134 0.75699657 -1.8822231 4288085770
9.2641926 0.76300418 -1.8655875 4288085770
7.940588 0.76705498 -1.8353691 4288085770
6.8467808 0.77299541 -1.81633 4288085770
5.858057 0.77858925 -1.794688 4288085770
5.0331001 0.78763014 -1.7846811 4288085770
4.2951794 0.79527044 -1.7746913 4288085770
3.6412334 0.80354112 -1.7665942 4288085770
9.7896366 1.0022191 -1.8509505 4288085770
3.0263462 0.8120231 -1.7563784 4288085770
8.4569759 1.0013171 -1.824667 4288085770
2.4873829 0.82212943 -1.7498462 4288085770
7.2853107 1.0025685 -1.7999854 4288085770
2.0173397 0.83183575 -1.7478943 4288085770
6.2586575 1.0038538 -1.7765996 4288085770
1.5653839 0.84156835 -1.7423508 4288085770
5.4327297 1.0088911 -1.7666819 4288085770
1.1583691 0.85169315 -1.7398202 4288085770
4.6827908 1.0164708 -1.7574227 4288085770
0.77339172 0.86192876 -1.7357867 4288085770
4.0228081 1.0237532 -1.7512183 4288085770
0.42338562 0.87245423 -1.7335413 4288085770
3.4089088 1.0302725 -1.7420805 4288085770
0.1103363 0.88428414 -1.7331014 4288085770
2.8519669 1.0382462 -1.7351987 4288085770
-0.19466019 0.89512026 -1.7308707 4288085770
2.3619518 1.0477766 -1.7317982 4288085770
-0.52541161 0.90348995 -1.7181158 4288085770
1.9219017 1.0577095 -1.7305238 4288085770
-0.87695885 0.90948558 -1.6969481 4288085770
1.5019131 1.0677106 -1.7267015 4288085770
-1.1269283 0.92067993 -1.693958 4288085770
1.1049709 1.0768304 -1.7214267 4288085770
-1.3420334 0.93327332 -1.6967261 4288085770
0.73103714 1.0860963 -1.7156708 4288085770
-1.5699863 0.94460571 -1.6932328 4288085770
0.39706993 1.0966883 -1.7117882 4288085770
-1.7620602 0.95634443 -1.6955473 4288085770
0.10002518 1.1076396 -1.7117369 4288085770
-1.9550533 0.96896631 -1.6938145 4288085770
-0.19992256 1.11746 -1.7076488 4288085770
-2.141037 0.98064119 -1.6922669 4288085770
-0.54351807 1.1235709 -1.6886606 4288085770
-2.3229961 0.99131936 -1.6898377 4288085770
-0.84721565 1.1300907 -1.674571 4288085770
-2.5058689 1.0028808 -1.6833611 4288085770
-1.0523701 1.1438129 -1.6795361 4288085770
-2.6161709 1.0184512 -1.6954358 4288085770
-1.2494812 1.1575409 -1.6826828 4288085770
-2.8009167 1.0278625 -1.6839724 4288085770
-1.4714031 1.1678922 -1.6783533 4288085770
-2.9597912 1.0386045 -1.6780641 4288085770
-1.708128 1.1759142 -1.665746 4288085770
-3.1305084 1.0470941 -1.6659443 4288085770
-1.8812027 1.1897678 -1.6674349 4288085770
-3.2704124 1.0580059 -1.6614635 4288085770
-2.0531902 1.2015481 -1.666203 4288085770
-3.4132137 1.0677868 -1.6529453 4288085770
-2.2052689 1.2155594 -1.668365 4288085770
-3.5262566 1.0820361 -1.6539874 4288085770
-2.3334579 1.2318585 -1.6750104 4288085770
-3.6541157 1.0929836 -1.6477785 4288085770
-2.4993591 1.2435751 -1.6699166 4288085770
-3.7610798 1.1051971 -1.6460125 4288085770
-2.6552544 1.2543674 -1.6650758 4288085770
-3.8809204 1.1161776 -1.6389844 4288085770
-2.8021622 1.2662265 -1.6604102 4288085770
-3.9759159 1.1295078 -1.6384609 4288085770
-2.9460449 1.2780809 -1.6548126 4288085770
-4.0798054 1.1406626 -1.6337922 4288085770
-3.0729828 1.2901174 -1.6515968 4288085770
-4.1697788 1.1540031 -1.6323819 4288085770
-3.1988945 1.3021342 -1.6474047 4288085770
-3.3217831 1.3141462 -1.6422803 4288085770
-3.4545689 1.3239753 -1.6329885 4288085770
