# .PCD v0.7 - Point Cloud Data file format
VERSION 0.7
FIELDS x y z rgb
SIZE 4 4 4 4
TYPE F F F U
COUNT 1 1 1 1
WIDTH 1111
HEIGHT 1
VIEWPOINT 0 0 0 1 0 0 0
POINTS 1111
DATA ascii
0.30101013 -1.874244 -1.8610626 4288085770
0.33996582 -1.8390481 -1.8584834 4288085770
0.39195251 -1.8077964 -1.8579894 4288085770
0.44592285 -1.7765344 -1.8575107 4288085770
-0.69882202 -1.4321773 -1.866001 4288085770
0.49488831 -1.7432898 -1.8550011 4288085770
-0.65182495 -1.4049497 -1.865455 4288085770
0.54289246 -1.710043 -1.850484 4288085770
-0.60484314 -1.3777256 -1.865909 4288085770
0.60586548 -1.6807412 -1.8510674 4288085770
-0.54284668 -1.3554391 -1.86946 4288085770
0.67483521 -1.6524062 -1.8506933 4288085770
-0.48786926 -1.3291725 -1.8689719 4288085770
0.74682617 -1.6240529 -1.8493422 4288085770
-0.43486023 -1.3029155 -1.8684684 4288085770
0.81681824 -1.5947056 -1.8469795 4288085770
-0.3658905 -1.2795913 -1.8710769 4288085770
0.89581299 -1.5673218 -1.8466784 4288085770
-0.33283997 -1.2473994 -1.8614417 4288085770
0.96879578 -1.5369567 -1.8433424 4288085770
-0.21092224 -1.2378742 -1.8804058 4288085770
1.0658264 -1.5134883 -1.844165 4288085770
-0.16490173 -1.2076261 -1.8728634 4288085770
1.1448364 -1.4840935 -1.8408715 4288085770
-0.12084961 -1.1773843 -1.8643056 4288085770
1.2398224 -1.4586282 -1.839686 4288085770
-0.04385376 -1.1530137 -1.8649794 4288085770
1.3588104 -1.4360561 -1.8416737 4288085770
0.033157349 -1.1296359 -1.8636492 4288085770
1.4498291 -1.4075955 -1.8364688 4288085770
0.10916138 -1.1042633 -1.8623191 4288085770
1.5748444 -1.3849941 -1.8385025 4288085770
0.18818665 -1.079872 -1.8600081 4288085770
1.7188263 -1.3653076 -1.842671 4288085770
0.26821899 -1.0544723 -1.8567082 4288085770
1.839859 -1.3407114 -1.8406812 4288085770
0.35923767 -1.0310261 -1.8554856 4288085770
1.9598846 -1.3141091 -1.8356916 4288085770
0.45124817 -1.0075717 -1.8532706 4288085770
2.1238861 -1.2953248 -1.8400098 4288085770
0.56526184 -0.98802757 -1.8562101 4288085770
2.2888947 -1.2755286 -1.8423392 4288085770
0.6632843 -0.96354008 -1.8530446 4288085770
2.4629059 -1.2566917 -1.845734 4288085770
0.75730896 -0.93806511 -1.8478526 4288085770
2.6509094 -1.2367827 -1.8482398 4288085770
0.85336304 -0.91157281 -1.8406795 4288085770
2.8439178 -1.216846 -1.849784 4288085770
0.97538757 -0.88997531 -1.8396872 4288085770
3.0459442 -1.1958616 -1.8504003 4288085770
1.1054077 -0.86733884 -1.83876 4288085770
3.2849274 -1.1807184 -1.8572787 4288085770
1.2234344 -0.8427462 -1.8337485 4288085770
3.4999542 -1.1586633 -1.8559989 4288085770
1.3764496 -0.8230083 -1.8359865 4288085770
3.7220001 -1.1365703 -1.8537723 4288085770
1.5144806 -0.79932219 -1.8321244 4288085770
3.9550323 -1.1134204 -1.8506337 4288085770
1.670517 -0.77755481 -1.8303927 4288085770
4.2040863 -1.091192 -1.8476142 4288085770
1.8575287 -0.75765455 -1.8338915 4288085770
4.479126 -1.0698406 -1.8457903 4288085770
2.0275726 -0.73581558 -1.831267 4288085770
4.7251892 -1.0426016 -1.835766 4288085770
2.2245636 -0.71485931 -1.832846 4288085770
5.0112457 -1.0191817 -1.8300337 4288085770
2.4156036 -0.69091427 -1.8293899 4288085770
5.3373108 -0.99757427 -1.8266004 4288085770
2.633606 -0.67085522 -1.8311263 4288085770
5.6933441 -0.97582358 -1.8243967 4288085770
2.8696289 -0.64970863 -1.8330039 4288085770
6.0843964 -0.95590568 -1.8234543 4288085770
3.1536102 -0.63234931 -1.8412346 4288085770
6.5604095 -0.94159472 -1.8291408 4288085770
3.4385986 -0.61197406 -1.8464841 4288085770
7.1034088 -0.92897105 -1.8393329 4288085770
3.679657 -0.58677047 -1.8394145 4288085770
7.5394897 -0.90279377 -1.8277572 4288085770
3.9356995 -0.56048971 -1.8314639 4288085770
8.0175934 -0.87641877 -1.8185028 4288085770
4.2097626 -0.53412873 -1.8256508 4288085770
8.6386261 -0.85938191 -1.8203071 4288085770
4.5108032 -0.50863183 -1.8190414 4288085770
9.3106842 -0.84008861 -1.8205096 4288085770
4.8548431 -0.48393971 -1.8167573 4288085770
9.9607697 -0.81286281 -1.8095723 4288085770
5.2248688 -0.45811731 -1.8136762 4288085770
10.788834 -0.79480469 -1.8099624 4288085770
5.6338806 -0.43210793 -1.8118933 4288085770
11.692886 -0.7743721 -1.8099414 4288085770
6.0719299 -0.40595317 -1.809333 4288085770
12.57901 -0.74497253 -1.7948157 4288085770
6.5919189 -0.38041669 -1.8123969 4288085770
13.58815 -0.71597266 -1.7806283 4288085770
7.1719055 -0.35459083 -1.8169199 4288085770
7.6939545 -0.32300079 -1.8080212 4288085770
8.3439484 -0.29281497 -1.8080953 4288085770
9.0549316 -0.26132786 -1.80764 4288085770
9.8479156 -0.2274406 -1.8078202 4288085770
10.70993 -0.19019818 -1.8035396 4288085770
11.651932 -0.15055442 -1.7968792 4288085770
12.681946 -0.10746992 -1.7879037 4288085770
13.914932 -0.061402202 -1.7824897 4288085770
14.109848 3.409399 -1.7388197 4288085770
13.934372 3.5255251 -1.7409321 4288085770
13.735962 3.6345572 -1.7388371 4288085770
13.610443 3.7559237 -1.7423538 4288085770
13.483978 3.8752985 -1.7428559 4288085770
13.33255 3.9895658 -1.7391475 4288085770
13.25206 4.1131644 -1.7400171 4288085770
13.201508 4.2449055 -1.7421468 4288085770
13.163956 4.3787131 -1.7433842 4288085770
13.140411 4.5155911 -1.7447401 4288085770
13.164795 4.6606975 -1.7474946 4288085770
13.180191 4.8067679 -1.7481843 4288085770
13.149673 4.9426336 -1.7434841 4288085770
13.216019 5.101953 -1.7446145 4288085770
13.242401 5.2530928 -1.7414085 4288085770
13.318756 5.418468 -1.7406391 4288085770
13.415039 5.5899453 -1.7390465 4288085770
13.538284 5.7695541 -1.7376913 4288085770
13.707443 5.9653792 -1.7387499 4288085770
13.97142 6.1926522 -1.7446555 4288085770
14.052673 0.1617496 -1.7829171 4288085770
12.647781 0.14182317 -1.7880896 4288085770
11.39592 0.12566352 -1.7894472 4288085770
10.320053 0.1123668 -1.7911628 4288085770
9.3971252 0.10180056 -1.7980596 4288085770
8.4872589 0.094338298 -1.7950684 4288085770
7.6973724 0.088453412 -1.7950011 4288085770
7.0084534 0.085053682 -1.7977165 4288085770
12.957291 0.011359334 -1.7749506 4288085770
6.3156281 0.082674861 -1.7904054 4288085770
11.687286 0.015087128 -1.7822484 4288085770
5.728714 0.081793308 -1.788911 4288085770
10.592285 0.018677235 -1.7888843 4288085770
5.2038116 0.081206083 -1.7898923 4288085770
9.6342773 0.023939967 -1.7955753 4288085770
4.7288666 0.082858324 -1.7922648 4288085770
8.7013397 0.031364918 -1.7924663 4288085770
4.3029327 0.083745956 -1.7960097 4288085770
7.8734131 0.038302779 -1.7901586 4288085770
3.9070129 0.085783958 -1.798988 4288085770
7.1994324 0.044963717 -1.7960285 4288085770
3.539093 0.087962866 -1.8011814 4288085770
6.4985199 0.05353713 -1.7906986 4288085770
3.2021332 0.091284871 -1.8056167 4288085770
5.8735809 0.062481999 -1.7859527 4288085770
2.8692169 0.095642328 -1.8060864 4288085770
5.3336487 0.070821285 -1.7868541 4288085770
2.5902557 0.099239111 -1.8129662 4288085770
4.8596802 0.079474568 -1.7902621 4288085770
2.2973022 0.10479188 -1.813747 4288085770
4.406723 0.088242173 -1.790831 4288085770
2.0094147 0.11038542 -1.8105661 4288085770
4.0087585 0.09626615 -1.7948178 4288085770
1.7405243 0.11706769 -1.8085347 4288085770
3.6407776 0.10543656 -1.799039 4288085770
1.5065613 0.12290466 -1.810768 4288085770
3.3087921 0.11377895 -1.8045319 4288085770
1.2816467 0.12979317 -1.8110741 4288085770
2.9728394 0.12412155 -1.8050026 4288085770
1.0437469 0.13663912 -1.8062807 4288085770
2.6708832 0.13362253 -1.8077298 4288085770
0.85079956 0.14367604 -1.8088323 4288085770
2.3799438 0.14318907 -1.8075415 4288085770
0.66886902 0.15076661 -1.8114685 4288085770
2.095993 0.15379405 -1.8064111 4288085770
0.49391174 0.15789115 -1.8141581 4288085770
1.8230896 0.16346097 -1.8033611 4288085770
0.32795715 0.16605985 -1.8169209 4288085770
1.5781403 0.17425597 -1.8025297 4288085770
0.16603088 0.17425203 -1.8187143 4288085770
1.3492126 0.18412936 -1.8018173 4288085770
0.0010986328 0.18244576 -1.816485 4288085770
1.1332397 0.19506192 -1.8022085 4288085770
-0.14982605 0.1906997 -1.8163627 4288085770
0.93431091 0.20507753 -1.8027259 4288085770
-0.29974365 0.19996667 -1.8142525 4288085770
0.75135803 0.21516311 -1.8053664 4288085770
-0.41374207 0.20836878 -1.822414 4288085770
0.58735657 0.22633302 -1.8101565 4288085770
-0.55465698 0.21768379 -1.8193728 4288085770
0.41542053 0.23748064 -1.8108851 4288085770
-0.67858887 0.22706938 -1.8194617 4288085770
0.2494812 0.24766541 -1.809656 4288085770
0.094543457 0.25889552 -1.8105155 4288085770
-0.053405762 0.27016413 -1.8104283 4288085770
-0.20133972 0.28144133 -1.8083414 4288085770
-0.33229065 0.29278827 -1.8093847 4288085770
-0.45822144 0.30316436 -1.8094624 4288085770
-0.56622314 0.31460762 -1.8146824 4288085770
-0.69412231 0.32499039 -1.8107449 4288085770
-0.75186157 2.4324026 -1.7501553 4288085770
-0.63291931 2.4649825 -1.750209 4288085770
-0.51792908 2.4945512 -1.7482196 4288085770
-0.3740387 2.5352359 -1.7524995 4288085770
-0.24406433 2.567873 -1.7516383 4288085770
-0.10809326 2.6015391 -1.7508279 4288085770
0.0418396 2.6392665 -1.7521418 4288085770
0.21867371 2.6840992 -1.7596935 4288085770
-0.75360107 2.3433294 -1.7557834 4288085770
0.37861633 2.7218785 -1.7600852 4288085770
-0.64057922 2.3648877 -1.7537454 4288085770
0.54055786 2.7586727 -1.7594882 4288085770
-0.51359558 2.3914986 -1.7558364 4288085770
0.72445679 2.8015561 -1.7630862 4288085770
-0.39056396 2.4131064 -1.7538759 4288085770
0.90341187 2.8394322 -1.7626249 4288085770
-0.26255798 2.4367342 -1.7529622 4288085770
1.069397 2.8722625 -1.7580427 4288085770
-0.11657715 2.4634328 -1.7562 4288085770
1.2493744 2.9061561 -1.754573 4288085770
0.025405884 2.4881253 -1.7563988 4288085770
1.4433289 2.9431152 -1.7522241 4288085770
0.18736267 2.5178976 -1.7607728 4288085770
1.6393127 2.9790869 -1.7488865 4288085770
0.35031128 2.54568 -1.764146 4288085770
1.8582153 3.020154 -1.7497467 4288085770
0.50631714 2.5694399 -1.764449 4288085770
2.0861664 3.062274 -1.7486812 4288085770
0.66633606 2.5922279 -1.7627789 4288085770
2.3191071 3.1024184 -1.7476462 4288085770
0.83435059 2.6160469 -1.7631747 4288085770
2.5550537 3.1415858 -1.7446307 4288085770
0.98843384 2.6328192 -1.7584339 4288085770
2.806015 3.1818261 -1.7417349 4288085770
1.1395264 2.6455846 -1.7516531 4288085770
3.085907 3.2281952 -1.7420882 4288085770
1.2856903 2.6563382 -1.7418257 4288085770
3.3748169 3.2746124 -1.7415115 4288085770
1.478714 2.6782799 -1.7424065 4288085770
3.6906738 3.326149 -1.7441639 4288085770
1.6448059 2.6911182 -1.7357422 4288085770
4.0155487 3.3757339 -1.7458779 4288085770
1.8278961 2.7050314 -1.731213 4288085770
4.3544159 3.4263911 -1.7467042 4288085770
2.0189819 2.720984 -1.7267541 4288085770
4.7232819 3.4811907 -1.7487789 4288085770
2.2280426 2.7390156 -1.7244424 4288085770
5.1230927 3.5401325 -1.7531103 4288085770
2.4740143 2.7642026 -1.7284456 4288085770
5.5069733 3.5900173 -1.7522808 4288085770
2.7319641 2.7904434 -1.7335461 4288085770
5.9128723 3.642014 -1.7506298 4288085770
2.977005 2.8096428 -1.7335171 4288085770
6.3667145 3.7012324 -1.7523788 4288085770
3.2330627 2.8278995 -1.7325686 4288085770
6.8215942 3.7544684 -1.7511111 4288085770
3.4771423 2.8411064 -1.7295073 4288085770
7.3224182 3.8149157 -1.7532281 4288085770
3.7581482 2.8604727 -1.7317568 4288085770
7.8632202 3.8795581 -1.7556709 4288085770
4.091095 2.8880763 -1.7384351 4288085770
8.3551788 3.9250007 -1.7486528 4288085770
4.3911133 2.9045401 -1.7398218 4288085770
9.0508118 4.013361 -1.761393 4288085770
4.716156 2.923121 -1.7424098 4288085770
9.5698547 4.0519567 -1.7495629 4288085770
5.0551758 2.9397702 -1.7450982 4288085770
10.279587 4.1274199 -1.7543586 4288085770
5.3692932 2.9473233 -1.7415565 4288085770
10.946487 4.1857114 -1.7497524 4288085770
5.7403259 2.9631248 -1.7454885 4288085770
11.659378 4.2432275 -1.7454983 4288085770
6.1173706 2.9749641 -1.7474507 4288085770
12.467178 4.3131943 -1.7450286 4288085770
6.4944763 2.9828119 -1.7473963 4288085770
13.310013 4.3813362 -1.743822 4288085770
6.8815918 2.9867129 -1.7464033 4288085770
14.200897 4.4457254 -1.7399706 4288085770
7.3036804 2.991776 -1.7476851 4288085770
7.7697449 3.0020375 -1.753328 4288085770
8.2398224 3.0063262 -1.7569774 4288085770
8.6460876 2.9923453 -1.7500576 4288085770
9.1092834 2.9826255 -1.7475954 4288085770
9.6693573 2.9843421 -1.7549289 4288085770
10.23848 2.9781103 -1.7602991 4288085770
10.748764 2.9556284 -1.7561475 4288085770
11.302032 2.9343491 -1.7543327 4288085770
11.843353 2.9020228 -1.7493795 4288085770
12.472626 2.8751016 -1.7511281 4288085770
13.066986 2.8360348 -1.7465566 4288085770
13.677383 2.7900462 -1.7420801 4288085770
11.107773 -5.0872388 -0.36907864 4293729569
11.069321 -5.1140594 -1.2237016 4293729569
11.011993 -5.1778975 -0.41195369 4293729569
11.105682 -5.2460995 -1.2734231 4293729569
11.870026 -6.1287947 -1.6045903 4293729569
11.214554 -6.0140195 -1.6050063 4293729569
10.627151 -5.9149256 -1.6088825 4293729569
10.071732 -5.8196826 -1.6149894 4293729569
9.58638 -5.7431116 -1.624559 4293729569
9.0489197 -5.6397696 -1.6278397 4293729569
8.542511 -5.5392752 -1.6313478 4293729569
8.12117 -5.4663916 -1.6413969 4293729569
7.6668091 -5.3746438 -1.64527 4293729569
7.2314301 -5.2828074 -1.6502908 4293729569
6.7729797 -5.1750622 -1.6502007 4293729569
6.3265533 -5.0662541 -1.6492079 4293729569
5.8110352 -4.9197321 -1.6358405 4293729569
11.54039 -7.4913721 -1.5732147 4293729569
5.3926392 -4.8097744 -1.6320692 4293729569
10.692108 -7.2195511 -1.5758065 4293729569
3.8149109 -4.1657653 -1.4555956 4293729569
10.016098 -7.0139222 -1.5874499 4293729569
3.7488861 -4.1982594 -1.493946 4293729569
5.2569733 -4.9105058 -1.1745676 4293729569
3.7589264 -4.2664375 -1.5457331 4293729569
5.2019043 -4.9539924 -1.223956 4293729569
3.7709808 -4.3336096 -1.5985399 4293729569
5.1958923 -5.01827 -1.2806357 4293729569
3.6458282 -4.3343616 -1.6295677 4293729569
3.6426086 -4.3373547 -1.1545109 4293729569
3.6017914 -4.3727779 -1.6750625 4293729569
3.5264282 -4.3370872 -1.1916124 4293729569
3.3875427 -4.325901 -1.6906029 4293729569
3.5013885 -4.3804193 -1.2392336 4293729569
3.1272583 -4.2522025 -1.6949009 4293729569
3.4653015 -4.4148059 -1.2868077 4293729569
2.9039917 -4.192348 -1.7054266 4293729569
3.4472351 -4.4571123 -1.3364874 4293729569
2.6597137 -4.1195703 -1.7098445 4293729569
3.4351501 -4.5013981 -1.3882052 4293729569
2.3993988 -4.0348501 -1.7091893 4293729569
3.4731598 -4.5704737 -1.4482049 4293729569
2.1931458 -3.9739003 -1.7168514 4293729569
3.8966522 -4.8399253 -1.5703357 4293729569
1.9698944 -3.9010119 -1.7194322 4293729569
4.0197296 -4.9526591 -1.6478082 4293729569
1.7906494 -3.8479385 -1.7292699 4293729569
3.6861725 -4.8263178 -1.6517638 4293729569
1.6784821 -3.8285975 -1.7534832 4293729569
3.4096985 -4.7237229 -1.6620601 4293729569
1.6083374 -3.830091 -1.7869333 4293729569
3.1512604 -4.6290445 -1.673462 4293729569
1.5371857 -3.8285885 -1.8203882 4288085770
2.8878021 -4.5253735 -1.6808637 4293729569
1.4530334 -3.8181286 -1.8487808 4288085770
2.6413574 -4.4286237 -1.6893677 4293729569
1.3408356 -3.7907748 -1.8700279 4288085770
2.4019318 -4.331831 -1.6959261 4293729569
1.1546021 -3.7187018 -1.8718919 4288085770
2.1425018 -4.2211108 -1.6963888 4293729569
0.94332886 -3.6307125 -1.8646301 4288085770
1.9241333 -4.1292109 -1.702089 4293729569
0.74107361 -3.5446787 -1.8574296 4288085770
1.7147369 -4.0402722 -1.7088467 4293729569
0.55583191 -3.4655709 -1.8523318 4288085770
1.5113831 -3.9512911 -1.7126509 4293729569
0.42462158 -3.4142547 -1.8605338 4288085770
1.31604 -3.8642712 -1.7165087 4293729569
0.27842712 -3.3519864 -1.8626662 4288085770
1.1997681 -3.8199329 -1.7367975 4293729569
0.13119507 -3.2877183 -1.8637997 4288085770
1.1635895 -3.8192859 -1.7765199 4293729569
-0.01600647 -3.2214379 -1.8619415 4288085770
1.1253815 -3.8156404 -1.8142399 4288085770
-0.16720581 -3.1501637 -1.8570739 4288085770
1.0761719 -3.8040357 -1.8489083 4288085770
-0.28736877 -3.094768 -1.8593787 4288085770
0.9519043 -3.7467117 -1.8631903 4288085770
-0.42955017 -3.0244455 -1.8535768 4288085770
0.73454285 -3.6327257 -1.8499929 4288085770
-0.54173279 -2.971015 -1.8569351 4288085770
0.57624817 -3.5515122 -1.8511132 4288085770
-0.66690063 -2.9076138 -1.8522357 4288085770
0.42596436 -3.4732547 -1.851283 4288085770
0.307724 -3.4118757 -1.859629 4288085770
0.17948914 -3.3425193 -1.8619314 4288085770
0.044235229 -3.2671888 -1.8622051 4288085770
-0.091003418 -3.1908407 -1.8584834 4288085770
-0.21925354 -3.1164632 -1.8558074 4288085770
-0.34448242 -3.0420709 -1.853155 4288085770
-0.45568848 -2.9746144 -1.8515815 4288085770
-0.56889343 -2.905159 -1.8480011 4288085770
-0.66706848 -2.8426433 -1.8475076 4288085770
-0.74552917 -0.63630891 -1.8365196 4288085770
-0.66548157 -0.61991906 -1.8362185 4288085770
-0.58244324 -0.60451913 -1.8369368 4288085770
-0.50039673 -0.58811516 -1.8356515 4288085770
-0.41334534 -0.57168674 -1.8344058 4288085770
-0.32827759 -0.55425954 -1.8311492 4288085770
-0.21826172 -0.54074091 -1.8350707 4288085770
-0.11621094 -0.52524346 -1.8349386 4288085770
-0.020141602 -0.50876248 -1.8317643 4288085770
0.10588074 -0.49416137 -1.8348161 4288085770
0.21794128 -0.47860634 -1.8327628 4288085770
0.34098816 -0.46400678 -1.8327919 4288085770
-0.68267822 -0.32603961 -1.833392 4288085770
0.46504211 -0.44839358 -1.8308333 4288085770
-0.57862854 -0.31254154 -1.8352674 4288085770
0.59512329 -0.43275076 -1.8289219 4288085770
-0.49353027 -0.29609644 -1.8280069 4288085770
0.73118591 -0.41707456 -1.8260578 4288085770
-0.37750244 -0.28254402 -1.8309764 4288085770
0.87625122 -0.40236288 -1.82526 4288085770
-0.26145935 -0.26898313 -1.8319463 4288085770
1.0153198 -0.3856588 -1.8194245 4288085770
-0.1493988 -0.25442791 -1.8298892 4288085770
1.16539 -0.36990982 -1.8156711 4288085770
-0.023330688 -0.24081361 -1.8299378 4288085770
1.3414459 -0.35605139 -1.8161126 4288085770
0.092727661 -0.22523499 -1.8269173 4288085770
1.5345154 -0.34210986 -1.8166882 4288085770
0.23876953 -0.21253192 -1.8291186 4288085770
1.7395477 -0.32911456 -1.818354 4288085770
0.37783813 -0.19784963 -1.8282744 4288085770
1.9386292 -0.31413054 -1.8159815 4288085770
0.51490784 -0.18316376 -1.8244144 4288085770
2.1816406 -0.30096257 -1.8209456 4288085770
0.677948 -0.17037344 -1.82575 4288085770
2.4097137 -0.2868371 -1.8187972 4288085770
0.82206726 -0.15464473 -1.8199502 4288085770
2.6627808 -0.27359831 -1.8188409 4288085770
0.99610901 -0.14079154 -1.8193771 4288085770
2.9268341 -0.2582972 -1.81698 4288085770
1.1751862 -0.12690961 -1.8178436 4288085770
3.24086 -0.24578309 -1.8224989 4288085770
1.3612518 -0.11298931 -1.8153652 4288085770
3.5189819 -0.2303915 -1.8157488 4288085770
1.5763092 -0.098944783 -1.8171147 4288085770
3.829071 -0.21585691 -1.8122462 4288085770
1.7933502 -0.085881829 -1.8168761 4288085770
4.1521606 -0.20025027 -1.8068506 4288085770
2.0234222 -0.071755648 -1.8167442 4288085770
4.5062561 -0.18549657 -1.8026944 4288085770
2.2924652 -0.05946064 -1.82191 4288085770
4.9073181 -0.17052233 -1.8009077 4288085770
2.5345306 -0.044253707 -1.8168775 4288085770
5.3364258 -0.15640247 -1.7973374 4288085770
2.8036194 -0.029923677 -1.8140532 4288085770
5.8104858 -0.14106762 -1.7951258 4288085770
3.0937042 -0.015491366 -1.8113941 4288085770
6.3605499 -0.12737513 -1.7965027 4288085770
3.4187469 -0.00090122223 -1.8120104 4288085770
6.996582 -0.11428034 -1.8025521 4288085770
3.7518463 0.013745785 -1.80869 4288085770
7.639679 -0.099120617 -1.8016661 4288085770
4.0949402 0.02945447 -1.8024534 4288085770
8.3317719 -0.082703829 -1.7971705 4288085770
4.4750214 0.044335246 -1.7985033 4288085770
9.1468353 -0.067708969 -1.7986337 4288085770
4.9020844 0.05943656 -1.7969235 4288085770
10.045914 -0.05229497 -1.7987584 4288085770
5.3631744 0.074708104 -1.7946111 4288085770
11.015015 -0.035513401 -1.7934397 4288085770
5.8922424 0.090298533 -1.7958342 4288085770
12.083176 -0.016226172 -1.7839092 4288085770
6.4772949 0.10515738 -1.7984937 4288085770
13.437241 0.00040829182 -1.7876109 4288085770
7.152298 0.12144673 -1.8038663 4288085770
7.8293915 0.13778126 -1.8012556 4288085770
8.635437 0.15572822 -1.8036648 4288085770
9.5514832 0.17321134 -1.8069354 4288085770
10.459595 0.19270456 -1.7991539 4288085770
11.602631 0.21330869 -1.801222 4288085770
12.900726 0.23468792 -1.8005108 4288085770
13.180435 0.43865597 -1.7956585 4288085770
11.85347 0.44111478 -1.7969524 4288085770
10.641556 0.44517362 -1.7911829 4288085770
9.706543 0.45052671 -1.799657 4288085770
8.7925873 0.45602608 -1.7993013 4288085770
7.9237061 0.46078324 -1.7913054 4288085770
7.2217255 0.46830773 -1.7946717 4288085770
13.59552 0.59471333 -1.7858027 4288085770
6.5488129 0.47500777 -1.791268 4288085770
12.225555 0.59895766 -1.7877549 4288085770
5.9179077 0.48192215 -1.7862047 4288085770
11.037582 0.60409498 -1.790182 4288085770
5.3799744 0.48927116 -1.7858945 4288085770
10.037582 0.61115515 -1.7931372 4288085770
4.9189758 0.4979769 -1.7902132 4288085770
9.1745605 0.61886466 -1.8012022 4288085770
4.4980164 0.50687838 -1.7948557 4288085770
8.2657013 0.62344122 -1.7898806 4288085770
4.1030426 0.51591575 -1.7977089 4288085770
7.5147705 0.62975073 -1.7878438 4288085770
3.7090912 0.52398241 -1.7955655 4288085770
6.8638153 0.63853884 -1.7886268 4288085770
3.3761292 0.53332245 -1.7989208 4288085770
6.2019501 0.6443212 -1.7793063 4288085770
3.0472107 0.54270196 -1.7983087 4288085770
5.6470184 0.65160179 -1.7758576 4288085770
2.7322693 0.55215418 -1.7968103 4288085770
5.1860352 0.66130292 -1.78118 4288085770
2.4732819 0.5618459 -1.8027648 4288085770
4.7690277 0.67221856 -1.7868642 4288085770
2.2183075 0.57257199 -1.8057572 4288085770
4.4020081 0.68236399 -1.7959484 4288085770
1.9533997 0.58128273 -1.8016587 4288085770
4.0230408 0.6924938 -1.7959355 4288085770
1.720459 0.59113061 -1.8018242 4288085770
3.6611176 0.70171201 -1.7950555 4288085770
1.4925385 0.60100782 -1.8010305 4288085770
3.3331604 0.71208656 -1.7964557 4288085770
1.2696075 0.610919 -1.7982768 4288085770
3.008255 0.72149456 -1.7938756 4288085770
1.0926208 0.62202084 -1.8029009 4288085770
2.7153015 0.7310549 -1.7925543 4288085770
0.89169312 0.6320442 -1.7993258 4288085770
2.4503479 0.74174154 -1.7934653 4288085770
0.70578003 0.64213586 -1.796872 4288085770
2.2173462 0.75356519 -1.7986401 4288085770
0.5378418 0.65230596 -1.7965645 4288085770
1.961441 0.7633251 -1.7936193 4288085770
0.37989807 0.66351998 -1.7973422 4288085770
1.7295227 0.77318728 -1.7917925 4288085770
0.23193359 0.67478251 -1.7982014 4288085770
1.5265656 0.78517187 -1.7942108 4288085770
0.092987061 0.68608439 -1.8001333 4288085770
1.341568 0.79724419 -1.7967747 4288085770
-0.044952393 0.69640076 -1.8000687 4288085770
1.1426697 0.80727279 -1.7942156 4288085770
-0.16992188 0.70877588 -1.801119 4288085770
0.9657135 0.81839836 -1.7938396 4288085770
-0.29684448 0.72015083 -1.8001484 4288085770
0.7868042 0.82952464 -1.7914473 4288085770
-0.39187622 0.7336334 -1.8094462 4288085770
0.62286377 0.84071863 -1.7901767 4288085770
-0.50682068 0.74506652 -1.8085731 4288085770
0.46891785 0.85196173 -1.7889873 4288085770
-0.6207428 0.75550997 -1.8067027 4288085770
0.32098389 0.86423433 -1.7878512 4288085770
-0.72769165 0.76798236 -1.805899 4288085770
0.18702698 0.87557018 -1.7878238 4288085770
0.075027466 0.88998926 -1.7929891 4288085770
-0.066864014 0.90031016 -1.787892 4288085770
-0.15988159 0.91581213 -1.795216 4288085770
-0.27981567 0.92723095 -1.7923023 4288085770
-0.38575745 0.93969905 -1.7935063 4288085770
-0.47874451 0.95422518 -1.7958258 4288085770
-0.56971741 0.9677614 -1.7981566 4288085770
-0.66566467 0.98128235 -1.7984468 4288085770
-0.75462341 0.99483812 -1.7987942 4288085770
-0.67240906 3.2619953 -1.758696 4288085770
-0.55461121 3.3225594 -1.7609533 4288085770
-0.4596405 3.3680553 -1.7539507 4288085770
-0.33583069 3.4296484 -1.7562617 4288085770
-0.20103455 3.4942994 -1.7576777 4288085770
-0.066238403 3.556951 -1.7590836 4288085770
0.087493896 3.6296802 -1.7636935 4288085770
0.23033142 3.6933851 -1.76217 4288085770
0.38311768 3.7611294 -1.7627474 4288085770
-0.67726135 3.2289119 -1.7605151 4288085770
0.546875 3.8319263 -1.7634295 4288085770
-0.55439758 3.2785053 -1.7617599 4288085770
0.7086792 3.9007249 -1.7620856 4288085770
-0.42753601 3.3291178 -1.7630421 4288085770
0.88743591 3.9755945 -1.7629095 4288085770
-0.2976532 3.3797503 -1.7633487 4288085770
1.0582733 4.0434513 -1.7586344 4288085770
-0.16177368 3.4304113 -1.7637044 4288085770
1.2510071 4.1213899 -1.7595876 4288085770
-0.013961792 3.4861164 -1.7671825 4288085770
1.4407959 4.195334 -1.7564968 4288085770
0.14784241 3.5478845 -1.7718037 4288085770
1.6326141 4.2672977 -1.751413 4288085770
0.29472351 3.5986047 -1.7712497 4288085770
1.8483429 4.3493576 -1.7505733 4288085770
0.46151733 3.6584072 -1.7739023 4288085770
2.0611115 4.4274187 -1.7466902 4288085770
0.59352112 3.6970887 -1.7661675 4288085770
2.3038025 4.5176058 -1.7471098 4288085770
0.79124451 3.7680173 -1.7741264 4288085770
2.5544891 4.6078367 -1.746595 4288085770
0.95214844 3.8168201 -1.770677 4288085770
2.8420868 4.7132277 -1.750455 4288085770
1.0991516 3.8555803 -1.7620648 4288085770
3.1705475 4.8357983 -1.7587324 4288085770
1.2840118 3.9124908 -1.7608501 4288085770
3.4990692 4.9533787 -1.7649857 4288085770
1.4639282 3.9633861 -1.7575654 4288085770
3.8365936 5.0710173 -1.7683128 4288085770
1.6468506 4.0123014 -1.7532955 4288085770
4.1751556 5.1856713 -1.7696334 4288085770
1.8417511 4.0652747 -1.7491428 4288085770
4.5257263 5.300395 -1.7690521 4288085770
2.041626 4.1172676 -1.7460262 4288085770
4.8813324 5.4131508 -1.766502 4288085770
2.2595062 4.1753383 -1.7450856 4288085770
5.250946 5.527977 -1.7640759 4288085770
2.4933167 4.2374825 -1.7452952 4288085770
5.6494904 5.6519418 -1.7619306 4288085770
2.7251587 4.2966261 -1.7434739 4288085770
6.0590515 5.7739668 -1.7588652 4288085770
2.9959259 4.3679347 -1.7470292 4288085770
6.5314789 5.9182768 -1.7604212 4288085770
3.2796631 4.4423065 -1.7507049 4288085770
7.0408173 6.0737634 -1.763333 4288085770
3.5764008 4.5177417 -1.7544919 4288085770
7.5891418 6.2384353 -1.7676066 4288085770
3.8890991 4.5962501 -1.7594239 4288085770
8.1773987 6.4133058 -1.7712556 4288085770
4.2068329 4.6717868 -1.7633818 4288085770
8.7737122 6.5832257 -1.7729458 4288085770
4.5614777 4.7594905 -1.7707006 4288085770
9.4648132 6.7845888 -1.7795621 4288085770
4.8733063 4.8240285 -1.7685565 4288085770
10.073242 6.942605 -1.7732922 4288085770
5.1951447 4.8876152 -1.7664887 4288085770
10.757523 7.1239796 -1.7707537 4288085770
5.5399475 4.956305 -1.7666329 4288085770
11.396027 7.2751722 -1.7586945 4288085770
5.8878021 5.0200238 -1.7637771 4288085770
12.224121 7.4922361 -1.7595025 4288085770
6.2635803 5.0898638 -1.7641793 4288085770
13.099167 7.7195234 -1.7617427 4288085770
6.6683197 5.16784 -1.7658571 4288085770
13.964355 7.927803 -1.7558087 4288085770
7.0771027 5.2388401 -1.766533 4288085770
7.5238342 5.3180161 -1.7695581 4288085770
7.9915466 5.4002938 -1.7727691 4288085770
8.4882202 5.4867034 -1.778236 4288085770
8.9460754 5.5509615 -1.7752775 4288085770
9.3720245 5.5980806 -1.7689744 4288085770
9.8379517 5.6523895 -1.764032 4288085770
10.303909 5.6987085 -1.7570502 4288085770
10.839752 5.7623434 -1.7557224 4288085770
11.411575 5.8281426 -1.7566973 4288085770
11.972458 5.8839035 -1.7545339 4288085770
12.606262 5.9530053 -1.7560288 4288085770
13.196182 6.0009131 -1.7530621 4288085770
13.776215 6.0357876 -1.7469503 4288085770
13.678497 -2.7975528 -1.7889107 4288085770
13.117737 -2.8333344 -1.793173 4288085770
12.515945 -2.8562908 -1.7921664 4288085770
11.977142 -2.8809557 -1.7946628 4288085770
11.476303 -2.9074554 -1.8014587 4288085770
10.990448 -2.9278724 -1.8064066 4288085770
10.506592 -2.9422693 -1.8094009 4288085770
10.064713 -2.9584823 -1.816727 4288085770
9.5978088 -2.9627957 -1.8189048 4288085770
9.1699066 -2.9699306 -1.8243874 4288085770
8.7479706 -2.9730268 -1.8279396 4288085770
8.3130493 -2.9671707 -1.8284312 4288085770
7.8960876 -2.9582272 -1.8290845 4288085770
7.4721222 -2.9433072 -1.8277115 4288085770
13.780426 -4.5172076 -1.7919644 4288085770
7.0671539 -2.9272947 -1.8264982 4288085770
12.936066 -4.4273601 -1.7925547 4288085770
6.6741943 -2.9072144 -1.8234028 4288085770
12.265762 -4.3707199 -1.8053914 4288085770
6.291214 -2.886085 -1.8203939 4288085770
11.503418 -4.280458 -1.8036503 4288085770
5.913208 -2.859926 -1.8164514 4288085770
10.857132 -4.2126703 -1.8107384 4288085770
5.5622101 -2.8366461 -1.8147138 4288085770
10.300842 -4.1584654 -1.8224896 4288085770
5.2392273 -2.8172393 -1.815184 4288085770
9.6975708 -4.0864491 -1.8259488 4288085770
4.943222 -2.7997115 -1.8178643 4288085770
9.0832672 -4.0014548 -1.8233846 4288085770
4.6542053 -2.7801499 -1.8206116 4288085770
8.5179749 -3.9232278 -1.8221844 4288085770
4.3562012 -2.7546115 -1.819316 4288085770
7.9927063 -3.8498168 -1.8232852 4288085770
4.1001892 -2.7378991 -1.8243171 4288085770
7.5134735 -3.7841854 -1.8257204 4288085770
3.8201599 -2.710268 -1.8221787 4288085770
6.9881897 -3.6977334 -1.8188876 4288085770
3.5671387 -2.6875257 -1.8242348 4288085770
6.5369568 -3.6279554 -1.8195714 4288085770
3.3491211 -2.6726389 -1.8315355 4288085770
6.1117096 -3.5610471 -1.8194524 4288085770
3.138092 -2.6567173 -1.8388983 4288085770
5.7044983 -3.4940448 -1.8184804 4288085770
2.9180603 -2.6348195 -1.8422185 4288085770
5.3032837 -3.4250088 -1.8165673 4288085770
2.6890259 -2.607955 -1.843491 4288085770
4.9610596 -3.3697157 -1.8210646 4288085770
2.473999 -2.5830278 -1.8458668 4288085770
4.6278687 -3.3133731 -1.8246402 4288085770
2.2489471 -2.5511293 -1.8441974 4288085770
4.2946777 -3.253011 -1.8242363 4288085770
2.0908966 -2.5399699 -1.8559669 4288085770
3.9945068 -3.2005033 -1.8270606 4288085770
1.8998871 -2.5139258 -1.8585438 4288085770
3.6993256 -3.1459661 -1.8289362 4288085770
1.704834 -2.4848909 -1.8591036 4288085770
3.4261627 -3.094327 -1.8319758 4288085770
1.5258026 -2.4587889 -1.8617784 4288085770
3.17099 -3.0466104 -1.8371419 4288085770
1.3607483 -2.434628 -1.8665572 4288085770
2.9118347 -2.9938922 -1.8383011 4288085770
1.1927032 -2.4084721 -1.8693217 4288085770
2.660675 -2.9411306 -1.8385257 4288085770
1.0366669 -2.3842628 -1.8731741 4288085770
2.4385376 -2.8962481 -1.8429457 4288085770
0.85264587 -2.3471491 -1.8688644 4288085770
2.2153778 -2.8483603 -1.8453733 4288085770
0.68859863 -2.3149533 -1.8676924 4288085770
1.9942322 -2.7984524 -1.8458272 4288085770
0.54156494 -2.2876897 -1.8696336 4288085770
1.8111115 -2.7603951 -1.85353 4288085770
0.37553406 -2.2504883 -1.865471 4288085770
1.6199799 -2.7163515 -1.8561982 4288085770
0.24249268 -2.2241621 -1.8685211 4288085770
1.4308472 -2.6702929 -1.8578931 4288085770
0.094451904 -2.1908782 -1.8654848 4288085770
1.2497406 -2.6261952 -1.8596429 4288085770
-0.04258728 -2.1595507 -1.8645281 4288085770
1.0866089 -2.5880303 -1.8655089 4288085770
-0.17362976 -2.1291995 -1.8646151 4288085770
0.92150879 -2.5458548 -1.8673795 4288085770
-0.31362915 -2.0928662 -1.8596598 4288085770
0.74539185 -2.4967127 -1.8651961 4288085770
-0.44067383 -2.0604851 -1.8577896 4288085770
0.58526611 -2.4525027 -1.8651177 4288085770
-0.57469177 -2.024123 -1.8528832 4288085770
0.45117188 -2.4171968 -1.8712052 4288085770
-0.69471741 -1.9917026 -1.8500706 4288085770
0.30807495 -2.376914 -1.8732451 4288085770
0.1559906 -2.3316498 -1.8702375 4288085770
0.0099029541 -2.2853613 -1.8682834 4288085770
-0.12818909 -2.2420337 -1.8663799 4288085770
-0.27127075 -2.1937103 -1.8604609 4288085770
-0.40135193 -2.1513391 -1.8576175 4288085770
-0.52441406 -2.1089282 -1.8538314 4288085770
-0.6594696 -2.0605557 -1.8459781 4288085770
-0.65982056 0.12005806 -1.8129905 4288085770
-0.54577637 0.1325953 -1.8159803 4288085770
-0.44270325 0.14511013 -1.8128806 4288085770
-0.33462524 0.15864956 -1.8098267 4288085770
-0.21456909 0.17023158 -1.8098601 4288085770
-0.085479736 0.18286216 -1.8089722 4288085770
0.032608032 0.19646037 -1.804 4288085770
0.17466736 0.20914912 -1.8042177 4288085770
-0.70457458 0.2447753 -1.817269 4288085770
0.32772827 0.22088575 -1.8055197 4288085770
-0.58653259 0.25634241 -1.8182861 4288085770
0.47280884 0.23360455 -1.8027619 4288085770
-0.47244263 0.26690567 -1.8162659 4288085770
0.64385986 0.24542356 -1.8052105 4288085770
-0.3583374 0.27747416 -1.8132454 4288085770
0.8089447 0.25823927 -1.8026155 4288085770
-0.23326111 0.28809071 -1.8113145 4288085770
0.9760437 0.27106988 -1.7990369 4288085770
-0.1081543 0.29871774 -1.8073839 4288085770
1.1671143 0.28300142 -1.7986482 4288085770
0.035903931 0.30941582 -1.8076078 4288085770
1.3791656 0.29502428 -1.8004304 4288085770
0.17501831 0.31911111 -1.8037857 4288085770
1.6022034 0.30810058 -1.8023077 4288085770
0.35105896 0.32893813 -1.8092645 4288085770
1.8252869 0.3201977 -1.8001798 4288085770
0.48918152 0.33864939 -1.8014346 4288085770
2.0933075 0.33147097 -1.8064123 4288085770
0.66426086 0.34949815 -1.8019105 4288085770
2.3524017 0.34374273 -1.8045775 4288085770
0.84933472 0.35939503 -1.8024629 4288085770
2.6164856 0.35704374 -1.8017882 4288085770
1.0554199 0.36938882 -1.804186 4288085770
2.8955994 0.36942303 -1.7981161 4288085770
1.2774506 0.37844431 -1.809034 4288085770
3.2226562 0.38201404 -1.7988347 4288085770
1.4905243 0.38848782 -1.8078142 4288085770
3.5467529 0.39461124 -1.7955285 4288085770
1.7236176 0.39762282 -1.807752 4288085770
3.8958435 0.40632474 -1.7934209 4288085770
1.9487457 0.40674531 -1.8026248 4288085770
4.2809448 0.41921806 -1.7906116 4288085770
2.2307739 0.41709185 -1.8079666 4288085770
4.6970367 0.43225586 -1.7890543 4288085770
2.4929047 0.42538846 -1.8041352 4288085770
5.1421509 0.44545603 -1.7837332 4288085770
2.7730103 0.43377221 -1.8004504 4288085770
5.6352539 0.45787287 -1.7817975 4288085770
3.0950928 0.44333911 -1.8011125 4288085770
6.2202911 0.47170949 -1.7856156 4288085770
3.4382019 0.45101273 -1.8009351 4288085770
6.8982849 0.48697627 -1.7941955 4288085770
3.7773438 0.45969331 -1.7957305 4288085770
7.5543976 0.5001992 -1.7905864 4288085770
4.1824188 0.46766233 -1.7970577 4288085770
8.3194733 0.51493514 -1.7908694 4288085770
4.5955353 0.47469127 -1.7944449 4288085770
9.2285004 0.53133261 -1.7993292 4288085770
5.0087128 0.48174608 -1.7868322 4288085770
10.135635 0.54579878 -1.7927629 4288085770
5.5018311 0.4891628 -1.7848705 4288085770
11.179749 0.56091905 -1.7893115 4288085770
6.062912 0.4958936 -1.7864567 4288085770
12.412842 0.57693982 -1.790398 4288085770
6.7249603 0.50308263 -1.7948648 4288085770
13.800949 0.59473848 -1.7877511 4288085770
7.3920898 0.50934303 -1.7943081 4288085770
8.1392059 0.51498628 -1.7953974 4288085770
9.0282898 0.52029181 -1.802637 4288085770
9.9664001 0.52486575 -1.8042704 4288085770
10.926636 0.52661502 -1.7930673 4288085770
12.171768 0.52867293 -1.7981781 4288085770
13.529968 0.52932572 -1.7951978 4288085770
11.032013 -5.1709108 -0.82491219 4293729569
11.116379 -5.0757127 -0.86411154 4293729569
13.694977 0.73746383 -1.786884 4288085770
12.386948 0.7620846 -1.7842597 4288085770
11.257889 0.78656471 -1.7841083 4288085770
10.296829 0.809847 -1.7873331 4288085770
9.5376434 0.83604896 -1.8022374 4288085770
8.6697388 0.85286701 -1.7911898 4288085770
7.8887939 0.87009466 -1.7828604 4288085770
7.2658081 0.88904083 -1.783842 4288085770
13.562775 1.2309986 -1.7487074 4288085770
6.6418457 0.90602815 -1.7768041 4288085770
12.478668 1.2446343 -1.7598618 4288085770
6.1088867 0.92243278 -1.7745119 4288085770
11.450668 1.2545761 -1.7654554 4288085770
5.6099396 0.93901289 -1.7705005 4288085770
10.572601 1.2682322 -1.7743059 4288085770
5.1968994 0.95796382 -1.775211 4288085770
9.8045197 1.2834255 -1.7830712 4288085770
4.8248749 0.97711241 -1.78026 4288085770
9.105484 1.297958 -1.7914003 4288085770
4.4848175 0.99640477 -1.7875735 4288085770
8.2626953 1.2979385 -1.7734588 4288085770
4.1458282 1.0137364 -1.7888836 4288085770
7.573822 1.3036236 -1.7638191 4288085770
3.8118591 1.0301098 -1.7872292 4288085770
6.9968872 1.3138043 -1.7631272 4288085770
3.5348358 1.0487241 -1.7920572 4288085770
6.4759216 1.3252612 -1.7619041 4288085770
3.2329102 1.0632638 -1.7886556 4288085770
5.9920197 1.3349091 -1.7589754 4288085770
2.970932 1.0799793 -1.788596 4288085770
5.5580597 1.3467876 -1.7584711 4288085770
2.6780396 1.0915967 -1.7792517 4288085770
5.1750793 1.3609008 -1.7603999 4288085770
2.4660339 1.109531 -1.7836109 4288085770
4.8230743 1.375158 -1.7635847 4288085770
2.2590179 1.1275016 -1.7860111 4288085770
4.4750977 1.3884526 -1.7637967 4288085770
2.0480499 1.1434695 -1.7853671 4288085770
4.1491547 1.4018649 -1.7621905 4288085770
1.8490906 1.1594962 -1.7848221 4288085770
3.8621674 1.416442 -1.7649127 4288085770
1.6710968 1.1766118 -1.7864565 4288085770
3.6101532 1.4331831 -1.7689353 4288085770
1.4961395 1.1927541 -1.78611 4288085770
3.3501892 1.4479085 -1.7688805 4288085770
1.3371582 1.2089683 -1.7868956 4288085770
3.1301727 1.4648048 -1.7731677 4288085770
1.1881714 1.2262248 -1.7887696 4288085770
2.920166 1.4817487 -1.7775377 4288085770
1.0282288 1.2414571 -1.7855412 4288085770
2.6233826 1.4853879 -1.7611135 4288085770
0.89822388 1.2597994 -1.7885779 4288085770
2.4433594 1.5044771 -1.7657429 4288085770
0.76226807 1.2761301 -1.7885534 4288085770
2.2464294 1.518519 -1.764203 4288085770
0.62831116 1.291483 -1.7865402 4288085770
2.0734406 1.5356597 -1.7658786 4288085770
0.50834656 1.3088912 -1.7866536 4288085770
1.8994751 1.5508066 -1.7655345 4288085770
0.40531921 1.3283583 -1.7909192 4288085770
1.7335205 1.5669984 -1.7642623 4288085770
0.30831909 1.3478554 -1.7952346 4288085770
1.5795593 1.5822476 -1.7630836 4288085770
0.18937683 1.3632914 -1.791345 4288085770
1.4455566 1.600572 -1.7660877 4288085770
0.11332703 1.3848718 -1.7988454 4288085770
1.312561 1.6189111 -1.7670997 4288085770
0.0043945312 1.4003628 -1.7940387 4288085770
1.1835938 1.6362766 -1.7671391 4288085770
-0.094558716 1.4158844 -1.7923142 4288085770
1.0705872 1.6557013 -1.7703224 4288085770
-0.19548035 1.4314073 -1.7885734 4288085770
0.95759583 1.6751376 -1.7715055 4288085770
-0.27746582 1.4499995 -1.7890071 4288085770
0.84759521 1.6935941 -1.7717079 4288085770
-0.35644531 1.4686061 -1.7894655 4288085770
0.74760437 1.7130879 -1.7739989 4288085770
-0.42843628 1.4882408 -1.7909876 4288085770
0.65161133 1.7336057 -1.7753285 4288085770
-0.50440979 1.506868 -1.790471 4288085770
0.55561829 1.7531306 -1.7756523 4288085770
-0.57737732 1.5245155 -1.788973 4288085770
0.45269775 1.7696389 -1.7729012 4288085770
-0.65432739 1.5421485 -1.7864424 4288085770
0.35972595 1.7881891 -1.7712442 4288085770
-0.71133423 1.5628556 -1.7880944 4288085770
0.25482178 1.8037044 -1.7654706 4288085770
-0.76234436 1.5855809 -1.7918073 4288085770
0.18280029 1.8253394 -1.7670048 4288085770
0.097854614 1.8429404 -1.7634083 4288085770
0.019897461 1.862563 -1.7618812 4288085770
-0.057052612 1.8811964 -1.7593569 4288085770
-0.11408997 1.9048976 -1.7620264 4288085770
-0.18006897 1.9255787 -1.7606045 4288085770
-0.24203491 1.9472796 -1.7592212 4288085770
-0.29904175 1.969998 -1.7588853 4288085770
-0.35003662 1.9937459 -1.7586051 4288085770
-0.40501404 2.01648 -1.7572857 4288085770
-0.44903564 2.041256 -1.7580692 4288085770
-0.49302673 2.0660377 -1.7578524 4288085770
-0.54598999 2.0877929 -1.7545439 4288085770
-0.57702637 2.1166253 -1.7564584 4288085770
-0.60707092 2.1444578 -1.759375 4288085770
-0.65005493 2.1682611 -1.7561613 4288085770
-0.68107605 2.196105 -1.75607 4288085770
-0.71806335 2.2219324 -1.7539173 4288085770
-0.74507141 2.2497959 -1.7538592 4288085770
-0.73059082 3.1297998 -1.7471913 4288085770
-0.67584229 3.1940231 -1.7540241 4288085770
-0.64595032 3.245173 -1.7525746 4288085770
-0.59713745 3.3063912 -1.7553407 4288085770
-0.57218933 3.3525462 -1.7488211 4288085770
-0.51939392 3.4157896 -1.7506326 4288085770
-0.4725647 3.4750214 -1.7493714 4288085770
-0.42172241 3.5362725 -1.7481552 4288085770
-0.35595703 3.6065784 -1.7501158 4288085770
-0.30210876 3.6678557 -1.746925 4288085770
-0.2293396 3.7402005 -1.7479559 4288085770
-0.14364624 3.8215909 -1.7521476 4288085770
-0.075836182 3.8899417 -1.7481145 4288085770
0.019836426 3.9753799 -1.7524124 4288085770
0.11154175 4.0588222 -1.7526666 4288085770
0.20228577 4.1402659 -1.7519008 4288085770
0.29901123 4.2247381 -1.7512027 4288085770
0.40867615 4.3172731 -1.7506598 4288085770
-0.75511169 3.6595907 -1.7481674 4288085770
0.53826904 4.4208751 -1.7553469 4288085770
-0.66040039 3.7370248 -1.7524115 4288085770
0.65693665 4.5174589 -1.7539028 4288085770
-0.57263184 3.8084478 -1.7525626 4288085770
0.80049133 4.6291337 -1.7577537 4288085770
-0.48083496 3.881897 -1.7517592 4288085770
0.93911743 4.736814 -1.7565407 4288085770
-0.3850708 3.9563708 -1.7499951 4288085770
1.1105499 4.8646126 -1.7627183 4288085770
-0.27238464 4.0418963 -1.7534362 4288085770
1.286026 4.9934416 -1.7669357 4288085770
-0.15769958 4.1264439 -1.7548891 4288085770
1.4366608 5.1052022 -1.7618474 4288085770
-0.056900024 4.2009592 -1.750168 4288085770
1.6360474 5.2471418 -1.767341 4288085770
0.10458374 4.3146749 -1.7621804 4288085770
1.8076324 5.3690042 -1.7624866 4288085770
0.20346069 4.3842101 -1.7524141 4288085770
1.9901733 5.4969201 -1.757759 4288085770
0.37593079 4.5019898 -1.7625428 4288085770
2.1588287 5.6127977 -1.747846 4288085770
0.51161194 4.5936556 -1.7612125 4288085770
2.3961639 5.7729416 -1.7497627 4288085770
0.66525269 4.6944027 -1.7610854 4288085770
2.6295624 5.9280968 -1.7466184 4288085770
0.82289124 4.7971754 -1.7600037 4288085770
2.8928375 6.1003718 -1.7478234 4288085770
1.0312958 4.9311333 -1.7695268 4288085770
3.2039642 6.3028555 -1.7536033 4288085770
1.2138519 5.0460138 -1.7707239 4288085770
3.5180969 6.5033712 -1.7563976 4288085770
1.4123688 5.168972 -1.7721015 4288085770
3.8850403 6.7371159 -1.7638263 4288085770
1.615921 5.2919645 -1.7715214 4288085770
4.2401123 6.9578419 -1.7650803 4288085770
1.8234558 5.4149842 -1.7699751 4288085770
4.6469879 7.2098045 -1.7689492 4288085770
2.0111389 5.5219526 -1.7601699 4288085770
5.0419922 7.449749 -1.7656497 4288085770
2.2127991 5.6359773 -1.7525228 4288085770
5.4589539 7.6988001 -1.7625872 4288085770
2.4632416 5.7781978 -1.7524472 4288085770
5.9755402 8.0092802 -1.7697138 4288085770
2.7346191 5.9315186 -1.7526115 4288085770
6.4712982 8.3007174 -1.7665566 4288085770
3.0289307 6.0959334 -1.7550267 4288085770
3.3461761 6.2704568 -1.7586998 4288085770
3.6734467 6.4480476 -1.7594744 4288085770
4.0565033 6.6568656 -1.7678977 4288085770
4.4266968 6.8516617 -1.7691323 4288085770
4.8068695 7.0485191 -1.768463 4288085770
5.2249908 7.2625523 -1.7692109 4288085770
5.6620483 7.4836836 -1.7691594 4288085770
6.1519775 7.7310505 -1.7727031 4288085770
6.6588898 7.981514 -1.7744075 4288085770
7.1778412 8.2320566 -1.7722141 4288085770
13.876511 -1.0793173 -1.7809616 4288085770
13.149796 -1.1399233 -1.7915016 4288085770
12.451065 -1.1933823 -1.8003181 4288085770
11.844299 -1.2464283 -1.8149101 4288085770
11.121567 -1.2799321 -1.8116404 4288085770
10.382828 -1.3034772 -1.8022934 4288085770
9.8450165 -1.3381554 -1.8115715 4288085770
9.331192 -1.3687121 -1.8200747 4288085770
8.8203583 -1.3942307 -1.8246325 4288085770
8.296524 -1.4107883 -1.8251327 4288085770
7.8216705 -1.429122 -1.828034 4288085770
14.014328 -2.2417579 -1.7813562 4288085770
7.3938141 -1.446247 -1.8343381 4288085770
12.89827 -2.1981313 -1.7712284 4288085770
6.9269562 -1.4535064 -1.8313709 4288085770
12.062195 -2.1822572 -1.7802929 4288085770
6.4631042 -1.4557335 -1.8254582 4288085770
11.291122 -2.1650579 -1.7879118 4288085770
6.0522308 -1.459735 -1.8249806 4288085770
10.591064 -2.1475172 -1.7961293 4288085770
5.675354 -1.4645789 -1.8257836 4288085770
9.9649658 -2.1356378 -1.8079361 4288085770
5.3264465 -1.469294 -1.8278228 4288085770
9.3759155 -2.1215744 -1.8190664 4288085770
5.0045319 -1.4738909 -1.8320898 4288085770
8.7878418 -2.1004763 -1.8252462 4288085770
4.7046051 -1.4783939 -1.8385421 4288085770
8.2177887 -2.0772738 -1.8285888 4288085770
4.4096985 -1.4798548 -1.842054 4288085770
7.5897675 -2.0362792 -1.8195473 4288085770
4.1207733 -1.4802871 -1.8456222 4288085770
7.0517273 -2.003881 -1.8162128 4288085770
3.833847 -1.4756858 -1.8452369 4288085770
6.5287018 -1.9683924 -1.8100222 4288085770
3.5649109 -1.4720097 -1.8469971 4288085770
6.0916748 -1.9445375 -1.812487 4288085770
3.3249512 -1.4712179 -1.8529841 4288085770
5.6656189 -1.9186237 -1.8140558 4288085770
3.098999 -1.4703646 -1.8600892 4288085770
5.2945862 -1.8974628 -1.8190597 4288085770
2.8400726 -1.4596164 -1.8579744 4288085770
4.9305267 -1.8742564 -1.8221344 4288085770
2.5761566 -1.4448689 -1.8518409 4288085770
4.6094666 -1.8568668 -1.8295366 4288085770
2.3062592 -1.4271262 -1.8416742 4288085770
4.2854462 -1.8334677 -1.8329488 4288085770
2.0973206 -1.4191551 -1.8429636 4288085770
3.9944 -1.8149278 -1.83961 4288085770
1.8633881 -1.4022692 -1.8380946 4288085770
3.6913757 -1.7904158 -1.841205 4288085770
1.6704254 -1.393221 -1.8395246 4288085770
3.4033356 -1.7658316 -1.8429264 4288085770
1.4695129 -1.379182 -1.8359164 4288085770
3.1403198 -1.7431328 -1.8458475 4288085770
1.2895508 -1.3680716 -1.837468 4288085770
2.8852692 -1.7203957 -1.8488358 4288085770
1.1265717 -1.3598973 -1.8421453 4288085770
2.6022797 -1.6877397 -1.8426462 4288085770
0.96861267 -1.3506927 -1.8458704 4288085770
2.3212738 -1.6530622 -1.8344852 4288085770
0.8036499 -1.3374983 -1.84556 4288085770
2.1032715 -1.6311406 -1.83678 4288085770
0.66567993 -1.3292094 -1.8514484 4288085770
1.8912506 -1.6081846 -1.8381311 4288085770
0.51072693 -1.3149666 -1.8512279 4288085770
1.6612396 -1.5782794 -1.8333715 4288085770
0.3747406 -1.3036563 -1.8551506 4288085770
1.4512634 -1.5502837 -1.829769 4288085770
0.24777222 -1.2933027 -1.8591434 4288085770
1.2732239 -1.5301758 -1.8333894 4288085770
0.1317749 -1.2849141 -1.8662173 4288085770
1.1042023 -1.5100244 -1.8370858 4288085770
0.018783569 -1.275511 -1.8733221 4288085770
0.94119263 -1.4888443 -1.840839 4288085770
-0.1191864 -1.2581745 -1.8712631 4288085770
0.79716492 -1.4725907 -1.8477231 4288085770
-0.25111389 -1.2418091 -1.8692485 4288085770
0.64013672 -1.4493636 -1.8485388 4288085770
-0.36308289 -1.2283713 -1.8713855 4288085770
0.46914673 -1.4221742 -1.8442594 4288085770
-0.47705078 -1.213937 -1.872511 4288085770
0.35313416 -1.4078035 -1.8543681 4288085770
-0.60501099 -1.1935347 -1.8675543 4288085770
0.23408508 -1.3914297 -1.8614634 4288085770
0.1100769 -1.3730675 -1.8665282 4288085770
-0.015945435 -1.3527036 -1.8695875 4288085770
-0.14195251 -1.3303273 -1.870659 4288085770
-0.2979126 -1.2980297 -1.8605357 4288085770
-0.41191101 -1.2775956 -1.8616966 4288085770
-0.51591492 -1.2581315 -1.8659362 4288085770
-0.63989258 -1.2327095 -1.8610421 4288085770
-0.69720459 0.69978583 -1.8006576 4288085770
-0.57817078 0.71334517 -1.8027655 4288085770
-0.46908569 0.72588742 -1.7997817 4288085770
-0.37493896 0.73639429 -1.7906574 4288085770
-0.25186157 0.74899185 -1.7897943 4288085770
-0.12979126 0.76158988 -1.7879232 4288085770
0.015258789 0.77528036 -1.789256 4288085770
0.16630554 0.78899968 -1.7906407 4288085770
-0.65859985 0.74691713 -1.8033124 4288085770
0.31536865 0.80172122 -1.7900027 4288085770
-0.54249573 0.75648057 -1.8023716 4288085770
0.4614563 0.81444752 -1.7863394 4288085770
-0.42938232 0.76504838 -1.7983991 4288085770
0.63452148 0.82727826 -1.7869083 4288085770
-0.30628967 0.77465189 -1.7965184 4288085770
0.81756592 0.84115112 -1.7885698 4288085770
-0.18716431 0.7822541 -1.7915922 4288085770
1.009613 0.85506713 -1.7903093 4288085770
-0.041107178 0.79194367 -1.7939101 4288085770
1.2056732 0.86800826 -1.7910777 4288085770
0.10595703 0.80164969 -1.7942375 4288085770
1.4207153 0.88204038 -1.7920159 4288085770
0.25805664 0.8103863 -1.7936016 4288085770
1.6278076 0.89505279 -1.7898802 4288085770
0.41714478 0.81915605 -1.7930266 4288085770
1.8608704 0.90817773 -1.7899681 4288085770
0.58023071 0.82695138 -1.7914804 4288085770
2.125885 0.92343152 -1.7943448 4288085770
0.76428223 0.83682239 -1.7941276 4288085770
2.3819733 0.93667877 -1.7926322 4288085770
0.94937134 0.84471738 -1.7937716 4288085770
2.6310883 0.9479171 -1.7868479 4288085770
1.1494446 0.85267198 -1.7955452 4288085770
2.9411163 0.96339905 -1.7896141 4288085770
1.355545 0.86066711 -1.7953709 4288085770
3.2501831 0.97689426 -1.7893602 4288085770
1.5846252 0.86875451 -1.798395 4288085770
3.6052399 0.99159825 -1.7915093 4288085770
1.8037262 0.8748244 -1.796322 4288085770
3.9593201 1.0053159 -1.7906445 4288085770
2.0238647 0.87991774 -1.7912513 4288085770
4.3493805 1.0191997 -1.7910908 4288085770
2.3118896 0.88926327 -1.798792 4288085770
