# .PCD v0.7 - Point Cloud Data file format
VERSION 0.7
FIELDS x y z rgb
SIZE 4 4 4 4
TYPE F F F U
COUNT 1 1 1 1
WIDTH 1126
HEIGHT 1
VIEWPOINT 0 0 0 1 0 0 0
POINTS 1126
DATA ascii
4.8951759 3.2378287 -1.747597 4288085770
3.5440826 2.6974995 -1.734028 4288085770
5.1074142 3.2963951 -1.7476563 4288085770
3.7012825 2.7361825 -1.7363436 4288085770
5.3286476 3.3549433 -1.7476822 4288085770
3.8514595 2.7688689 -1.734701 4288085770
5.5638962 3.4164681 -1.7496485 4288085770
4.0106506 2.8045425 -1.7350172 4288085770
5.8331757 3.4889326 -1.7544596 4288085770
4.1848564 2.8441911 -1.7372671 4288085770
6.0984383 3.556397 -1.7562988 4288085770
4.3660622 2.8838253 -1.7394911 4288085770
6.3746986 3.6248391 -1.7580945 4288085770
4.542244 2.9184618 -1.7387469 4288085770
6.6889992 3.7052152 -1.763718 4288085770
4.7404518 2.960062 -1.7409027 4288085770
6.9632263 3.7646451 -1.7595447 4288085770
4.9216232 2.991683 -1.7381477 4288085770
7.2454414 3.8250537 -1.7533393 4288085770
5.1218147 3.0282733 -1.7383091 4288085770
7.5717087 3.8983922 -1.7539365 4288085770
5.3239975 3.0638571 -1.7374656 4288085770
7.9149666 3.9726906 -1.7524681 4288085770
5.5381889 3.1004167 -1.736575 4288085770
8.3333206 4.0708666 -1.7616584 4288085770
5.7773933 3.1429367 -1.739576 4288085770
8.7276039 4.1540675 -1.7619771 4288085770
6.0085831 3.179462 -1.7386222 4288085770
9.2420273 4.2750678 -1.7777507 4288085770
6.2477646 3.2149706 -1.7376412 4288085770
9.7714348 4.3950295 -1.7904716 4288085770
6.5059662 3.2544463 -1.7385793 4288085770
10.253757 4.4920573 -1.7924267 4288085770
6.7751656 3.2938998 -1.7394763 4288085770
10.769089 4.5930181 -1.7942493 4288085770
7.0513687 3.333339 -1.7403475 4288085770
11.280388 4.6879768 -1.7921019 4288085770
7.3305511 3.368767 -1.7392178 4288085770
11.872757 4.8007894 -1.7966069 4288085770
7.6357574 3.4091473 -1.7399784 4288085770
12.386002 4.8817225 -1.7864885 4288085770
7.9579659 3.4514987 -1.7426704 4288085770
12.901234 4.9576459 -1.7743758 4288085770
8.2801628 3.488842 -1.7423756 4288085770
13.512524 5.0553908 -1.7678488 4288085770
8.6443901 3.5351162 -1.747901 4288085770
14.179844 5.1610308 -1.764093 4288085770
9.0376396 3.5853372 -1.7553083 4288085770
14.985264 5.300415 -1.7687356 4288085770
9.5059471 3.6524272 -1.7703922 4288085770
15.924782 5.4685545 -1.7828047 4288085770
9.9852524 3.7164922 -1.7844431 4282675967
17.118477 5.6972222 -1.8117714 4288085770
10.375435 3.7496977 -1.783905 4288085770
10.708534 3.7619896 -1.7726336 4288085770
11.114693 3.7881577 -1.7700541 4288085770
11.622936 3.835145 -1.7770406 4288085770
12.079105 3.863214 -1.7752695 4288085770
12.568279 3.8922219 -1.7753727 4288085770
12.927319 3.8824449 -1.7580606 4288085770
13.28434 3.8676696 -1.7397683 4288085770
13.767448 3.8756704 -1.7329476 4288085770
14.303589 3.8915749 -1.7299086 4288085770
14.929783 3.9183183 -1.7345058 4288085770
15.557949 3.9380488 -1.7361135 4288085770
16.307175 3.9725561 -1.7452319 4288085770
17.303558 4.0466208 -1.7753274 4288085770
17.677864 -5.3201499 -1.6389319 4288085770
16.147289 -5.0332336 -1.5719494 4293729569
15.476528 -4.9698853 -1.5722951 4293729569
14.965733 -4.9428339 -1.583131 4293729569
14.46595 -4.9128027 -1.5949185 4293729569
14.007156 -4.8878498 -1.6085652 4293729569
16.264221 -5.6550651 -0.95497251 4293729569
13.578365 -4.8659549 -1.6231072 4293729569
16.281315 -5.786942 -1.0212183 4293729569
13.189579 -4.8501306 -1.6415144 4293729569
12.821789 -4.8363466 -1.6608483 4288085770
12.462006 -4.819582 -1.679145 4288085770
12.129219 -4.8068633 -1.7003504 4288085770
14.836437 -5.7875938 -1.2035842 4293729569
11.750454 -4.7730703 -1.7146771 4288085770
14.686649 -5.8481545 -1.2612808 4293729569
11.399681 -4.743331 -1.7299089 4288085770
14.625828 -5.9368763 -1.3267121 4293729569
11.015923 -4.69554 -1.7392205 4288085770
14.622982 -6.0457025 -1.396975 4293729569
10.59618 -4.6306906 -1.7426257 4288085770
14.736107 -6.1957326 -1.4799032 4293729569
10.177441 -4.5598478 -1.7440131 4288085770
13.90163 -5.9920516 -1.4805231 4293729569
9.7866898 -4.4930592 -1.7463056 4288085770
13.282063 -5.8587689 -1.4955091 4293729569
9.392952 -4.421267 -1.7475982 4288085770
12.673496 -5.7215118 -1.5084456 4293729569
9.0302048 -4.3555355 -1.7497889 4288085770
12.105919 -5.5913372 -1.5222455 4293729569
8.6794586 -4.2888279 -1.7519327 4288085770
11.568329 -5.4672256 -1.5349487 4293729569
8.3317146 -4.2191296 -1.7530586 4288085770
11.06673 -5.3471861 -1.5475268 4293729569
8.0389595 -4.1665277 -1.7600198 4288085770
10.560131 -5.2201467 -1.5561075 4293729569
7.7342072 -4.1039133 -1.7620019 4288085770
9.9755592 -5.0519848 -1.5508815 4293729569
7.444458 -4.0443225 -1.7669356 4288085770
9.5939102 -4.964179 -1.5670897 4293729569
7.1607018 -3.9827514 -1.768842 4288085770
9.2512436 -4.8864503 -1.5841762 4293729569
6.8789482 -3.9171867 -1.7697315 4288085770
8.8206139 -4.7655759 -1.5884888 4293729569
6.6301918 -3.862679 -1.7745246 4288085770
8.495945 -4.6848907 -1.6025016 4293729569
6.3724289 -3.8011627 -1.7753345 4288085770
8.2782402 -4.6483865 -1.6312201 4293729569
6.1216774 -3.738658 -1.7771159 4288085770
8.1165161 -4.6339765 -1.6677821 4293729569
5.89291 -3.6831951 -1.7798325 4288085770
7.9907837 -4.6326289 -1.7082405 4293729569
5.6821442 -3.6317649 -1.7844911 4288085770
7.8680611 -4.6292882 -1.7486829 4288085770
5.4433823 -3.5632963 -1.7812139 4288085770
7.6783447 -4.5938435 -1.7762995 4288085770
5.2456207 -3.5128899 -1.786827 4288085770
7.3626785 -4.4951992 -1.7812365 4288085770
5.0498505 -3.4594975 -1.7884252 4288085770
7.052002 -4.3945727 -1.7831506 4288085770
4.851078 -3.4021006 -1.7890254 4288085770
6.7113304 -4.2759047 -1.7771342 4288085770
4.6523094 -3.3417087 -1.7876188 4288085770
6.4576302 -4.1953816 -1.7838836 4288085770
4.4615364 -3.2833309 -1.787187 4288085770
6.1689453 -4.0938077 -1.7827139 4288085770
4.2967644 -3.2349958 -1.7906822 4288085770
5.910244 -4.0042892 -1.7834612 4288085770
4.1169853 -3.1756454 -1.7882072 4288085770
5.6725349 -3.9208083 -1.7861445 4288085770
3.9622116 -3.1273303 -1.7916653 4288085770
5.4388275 -3.8363385 -1.7878106 4288085770
3.7984314 -3.0720096 -1.7901405 4288085770
5.2021027 -3.7468739 -1.7844762 4288085770
3.6556511 -3.0237217 -1.7925538 4288085770
4.9983788 -3.6714625 -1.7870522 4288085770
3.5038643 -2.9714251 -1.7909918 4288085770
4.7976532 -3.5950589 -1.7886146 4288085770
3.3740768 -2.9271612 -1.7943662 4288085770
4.6009216 -3.5176716 -1.7871598 4288085770
3.2452927 -2.8809018 -1.7967324 4288085770
4.4201813 -3.4473066 -1.7896625 4288085770
3.115509 -2.8326449 -1.7970979 4288085770
4.2354431 -3.3719425 -1.7881682 4288085770
2.9877167 -2.7843952 -1.7964559 4288085770
4.0707016 -3.3046122 -1.7896185 4288085770
2.8589211 -2.7331476 -1.7938108 4288085770
3.9029503 -3.233284 -1.7880706 4288085770
3.7511978 -3.1689825 -1.7884796 4288085770
3.6044426 -3.105691 -1.7888724 4288085770
3.4726791 -3.0474253 -1.7912211 4288085770
3.3409195 -2.988162 -1.7925678 4288085770
3.1911507 -2.9178815 -1.7859559 4288085770
3.0753822 -2.8636484 -1.7882549 4288085770
2.9816132 -2.8204479 -1.7954973 4288085770
2.8588371 -2.7592125 -1.7928063 4288085770
2.7660599 -2.7140217 -1.7970406 4288085770
2.8043671 -0.46779549 -1.7660006 4288085770
2.8844833 -0.45298088 -1.7596523 4288085770
3.0016479 -0.44121397 -1.7651681 4288085770
3.1017761 -0.42843115 -1.762747 4288085770
3.2029114 -0.41465223 -1.7593198 4288085770
3.298027 -0.4008683 -1.7529156 4288085770
3.4251747 -0.38913167 -1.7543924 4288085770
3.5523109 -0.37639916 -1.7538668 4288085770
3.6774445 -0.36366761 -1.7513489 4288085770
3.8205833 -0.35196817 -1.7507635 4288085770
2.8619003 -0.25597227 -1.7702439 4288085770
3.9717255 -0.3402828 -1.751147 4288085770
2.9610252 -0.2431916 -1.7658268 4288085770
4.1298637 -0.32961142 -1.7515059 4288085770
3.0811653 -0.23244274 -1.766333 4288085770
4.2829895 -0.31693947 -1.7478791 4288085770
3.1892891 -0.21968305 -1.7608808 4288085770
4.460125 -0.30530989 -1.7471619 4288085770
3.3124199 -0.20794713 -1.758373 4288085770
4.6352577 -0.29268086 -1.74445 4288085770
3.4465523 -0.19722903 -1.7578248 4288085770
4.8474045 -0.2831136 -1.7476016 4288085770
3.586689 -0.18552601 -1.756251 4288085770
5.0435371 -0.27052987 -1.743808 4288085770
3.7318192 -0.17483318 -1.75466 4288085770
5.2586708 -0.25997818 -1.7429453 4288085770
3.8979607 -0.16417611 -1.7559875 4288085770
5.4938087 -0.24846733 -1.7420028 4288085770
4.0620956 -0.15351999 -1.7553228 4288085770
5.7379379 -0.23797739 -1.7400277 4288085770
4.2362328 -0.14288199 -1.7556193 4288085770
5.9910622 -0.2265085 -1.737015 4288085770
4.3973427 -0.13223565 -1.7479657 4288085770
6.2571831 -0.21507061 -1.7319518 4288085770
4.6024933 -0.12165642 -1.7501417 4288085770
6.5413094 -0.20366752 -1.7278186 4288085770
4.8066216 -0.11208236 -1.7493237 4288085770
6.8684425 -0.19334567 -1.7265211 4288085770
5.0437698 -0.10256684 -1.7523779 4288085770
7.2025642 -0.18304503 -1.722196 4288085770
5.268898 -0.092037916 -1.7504758 4288085770
7.5716972 -0.17181385 -1.718733 4288085770
5.502018 -0.081532598 -1.7455425 4288085770
7.9828262 -0.16166389 -1.7171088 4288085770
5.7491379 -0.071055889 -1.7405547 4288085770
8.4449654 -0.15261459 -1.7172894 4288085770
6.0232658 -0.060630083 -1.7374622 4288085770
8.9160919 -0.14159131 -1.7124325 4288085770
6.3133888 -0.051235557 -1.7333127 4288085770
9.4252052 -0.13165247 -1.7064289 4288085770
6.6535301 -0.041933894 -1.7349671 4288085770
9.9903259 -0.1218257 -1.7012078 4288085770
6.9866486 -0.032631397 -1.7306483 4288085770
10.633457 -0.11215258 -1.698684 4288085770
7.3527794 -0.023391843 -1.7282014 4288085770
11.375599 -0.1036756 -1.6987782 4288085770
7.7519035 -0.014222503 -1.7246261 4288085770
12.223736 -0.095415831 -1.6984609 4288085770
8.2190475 -0.0061793327 -1.7267894 4288085770
13.070843 -0.086175323 -1.6891441 4288085770
8.6481438 0.0029124022 -1.7160971 4288085770
14.023937 -0.077156305 -1.6774161 4288085770
9.1802788 0.011817455 -1.7160052 4288085770
15.072014 -0.06834197 -1.6613187 4288085770
9.7333908 0.019665837 -1.7098334 4288085770
16.40514 -0.060087204 -1.6551151 4288085770
10.354511 0.028377175 -1.7043952 4288085770
11.083641 0.034879923 -1.704542 4288085770
11.920788 0.042165995 -1.7062671 4288085770
12.813908 0.0483253 -1.7027761 4288085770
13.732986 0.055403829 -1.6871814 4288085770
14.818077 0.061152935 -1.6759439 4288085770
16.102177 0.066498041 -1.6659328 4288085770
17.567268 0.07046926 -1.6542201 4288085770
17.705147 0.27483141 -1.64324 4288085770
16.218323 0.29597151 -1.6503268 4288085770
14.959503 0.31563604 -1.6604775 4288085770
13.91671 0.3348521 -1.6747386 4288085770
12.908855 0.35197258 -1.6758602 4288085770
12.069031 0.36875069 -1.6842899 4288085770
11.366234 0.38724947 -1.6981522 4288085770
10.655373 0.40174294 -1.699055 4288085770
16.941597 0.57636392 -1.6338053 4288085770
10.03653 0.418051 -1.7045759 4288085770
15.541721 0.58731461 -1.6365571 4288085770
9.4736938 0.43324029 -1.7098677 4288085770
14.424904 0.6006813 -1.6471373 4288085770
8.961853 0.44831979 -1.7139499 4288085770
13.437065 0.6137718 -1.6551863 4288085770
8.4819984 0.46232831 -1.7159022 4288085770
12.581245 0.6275897 -1.66669 4288085770
8.061161 0.47721875 -1.7216101 4288085770
11.771389 0.63929677 -1.6700082 4288085770
7.6593056 0.49106216 -1.7232413 4288085770
11.177608 0.65557361 -1.6884269 4288085770
7.3114777 0.50680029 -1.7296468 4288085770
10.529758 0.66793966 -1.6920761 4288085770
6.9716301 0.52051592 -1.7330232 4288085770
9.9509125 0.68116295 -1.6974394 4288085770
6.66679 0.5351609 -1.7382532 4288085770
9.4070511 0.69330561 -1.6986605 4288085770
6.3819504 0.54976046 -1.7414017 4288085770
8.9342117 0.70630467 -1.7035873 4288085770
6.0850868 0.56237853 -1.7406029 4288085770
8.4923668 0.71923828 -1.7083865 4288085770
5.8472481 0.57688355 -1.7465576 4288085770
8.1305504 0.73401082 -1.7178524 4288085770
5.6063995 0.59038818 -1.7485266 4288085770
7.7466965 0.74681818 -1.7204129 4288085770
5.4025726 0.60582292 -1.7553396 4288085770
7.3708229 0.75760221 -1.7189441 4288085770
5.1757088 0.61829472 -1.755253 4288085770
7.0469627 0.77028084 -1.7202576 4288085770
4.9678497 0.63172638 -1.7550863 4288085770
6.7741394 0.78486168 -1.727357 4288085770
4.7679863 0.64413953 -1.7538886 4288085770
6.476265 0.79648232 -1.7265655 4288085770
4.5861244 0.65751767 -1.7546152 4288085770
6.2114067 0.80903625 -1.727636 4288085770
4.408268 0.67088592 -1.7543253 4288085770
5.9855766 0.82451606 -1.7335405 4288085770
4.2394066 0.68423498 -1.7539983 4288085770
5.7537308 0.83800364 -1.7364736 4288085770
4.0875549 0.69855142 -1.7555996 4288085770
5.5318756 0.85146666 -1.7373654 4288085770
3.9547234 0.71383429 -1.7611208 4288085770
5.3300285 0.86489064 -1.7401749 4288085770
3.8158684 0.72712171 -1.7616704 4288085770
5.1371727 0.87829214 -1.7409472 4288085770
3.6940231 0.74137795 -1.7651479 4288085770
4.9433022 0.89069259 -1.7397257 4288085770
3.5721741 0.75563252 -1.7676259 4288085770
4.7694511 0.90505421 -1.7404183 4288085770
3.4373016 0.76890481 -1.7641594 4288085770
4.6126099 0.91938454 -1.7440407 4288085770
3.3284569 0.78313351 -1.7675838 4288085770
4.4597549 0.93370157 -1.7446468 4288085770
3.2025795 0.79538524 -1.7630821 4288085770
4.3159065 0.94800282 -1.7472156 4288085770
3.1017342 0.80959535 -1.7654737 4288085770
4.1810608 0.96328491 -1.7497461 4288085770
3.0249138 0.82776296 -1.7727593 4288085770
4.0422058 0.97657079 -1.7492963 4288085770
2.9220543 0.84097242 -1.7721611 4288085770
3.9143486 0.99083489 -1.7497997 4288085770
2.8352089 0.85615313 -1.7744933 4288085770
3.7944946 1.0060821 -1.7502683 4288085770
3.6866493 1.0213089 -1.7536876 4288085770
3.575798 1.0365372 -1.7541193 4288085770
3.4689369 1.0507551 -1.7535362 4288085770
3.3750992 1.0669506 -1.755896 4288085770
3.2642212 1.0801721 -1.7523315 4288085770
3.1753769 1.0963554 -1.7536708 4288085770
3.1015434 1.1145117 -1.7579449 4288085770
3.0227013 1.1306753 -1.7602431 4288085770
2.9338303 1.1458503 -1.7565845 4288085770
2.8689995 1.1639874 -1.7608216 4288085770
2.7951508 1.1801374 -1.7610993 4288085770
2.7948303 3.2116818 -1.7447597 4288085770
2.9031334 3.2854562 -1.7511894 4288085770
2.9933701 3.3472548 -1.7487133 4288085770
3.1066551 3.4220138 -1.7521205 4288085770
3.2269516 3.4987588 -1.7564952 4288085770
3.3572617 3.5804853 -1.7618202 4288085770
3.480545 3.6582196 -1.763181 4288085770
3.6158485 3.7399297 -1.7654849 4288085770
3.758152 3.8246253 -1.7677549 4288085770
3.9205017 3.9212828 -1.7729223 4288085770
4.0718002 4.0079556 -1.7731513 4288085770
2.8794136 3.3624609 -1.7601582 4288085770
4.2441406 4.1055903 -1.7772752 4288085770
3.0046921 3.4311943 -1.7635248 4288085770
4.4415245 4.217176 -1.7842721 4288085770
3.125946 3.4959311 -1.7639143 4288085770
4.6178436 4.3127966 -1.7843823 4288085770
3.2602196 3.5666423 -1.7652398 4288085770
4.8222122 4.4233627 -1.7883515 4288085770
3.4035034 3.640337 -1.768523 4288085770
5.050621 4.5468817 -1.7951996 4288085770
3.5497894 3.7150238 -1.770792 4288085770
5.2850227 4.6703858 -1.8000227 4288085770
3.7241287 3.8036604 -1.7789215 4288085770
5.512394 4.7868986 -1.8008859 4288085770
3.8854218 3.8833151 -1.7811196 4288085770
5.7607841 4.9123678 -1.802647 4288085770
4.0396881 3.9549804 -1.7803595 4288085770
6.0111694 5.0378308 -1.8033997 4288085770
4.2079735 4.033617 -1.7805299 4288085770
6.271553 5.1642699 -1.8021086 4288085770
4.3882751 4.1162295 -1.7816436 4288085770
6.5589752 5.3036556 -1.8036841 4288085770
4.5665512 4.1948419 -1.7797718 4288085770
6.8644066 5.4490018 -1.8041743 4288085770
4.77388 4.2884016 -1.7837547 4288085770
7.2229271 5.6222477 -1.8123986 4288085770
4.9892197 4.3839445 -1.787701 4288085770
7.6044731 5.8044434 -1.8205118 4288085770
5.2145576 4.4814639 -1.7906021 4288085770
8.0861702 6.0374455 -1.8401257 4288085770
5.4689369 4.591928 -1.7973609 4288085770
8.5097237 6.2325487 -1.8460423 4288085770
5.717289 4.6963992 -1.8001546 4288085770
8.9723282 6.443573 -1.8537701 4288085770
5.9766426 4.8028464 -1.8028985 4288085770
9.5280647 6.7004108 -1.8700355 4288085770
6.2550201 4.9162545 -1.8065517 4288085770
10.080757 6.9492483 -1.8803258 4288085770
6.5083237 5.0117049 -1.8033379 4288085770
10.671482 7.2110028 -1.8904362 4288085770
6.7726402 5.1101322 -1.8000733 4288085770
11.27319 7.4727292 -1.8974999 4288085770
7.0639801 5.217505 -1.7986809 4288085770
11.902885 7.738389 -1.8994398 4288085770
7.4033966 5.3467846 -1.8030525 4288085770
12.457428 7.9581861 -1.8877661 4288085770
7.7457924 5.4740539 -1.8054144 4288085770
8.1152191 5.61027 -1.8096488 4288085770
8.5577545 5.7783456 -1.8235264 4288085770
9.0012512 5.9404106 -1.832409 4288085770
9.5358849 6.1432977 -1.8508451 4288085770
10.054455 6.3292103 -1.8643748 4282675967
10.584011 6.5140939 -1.8738593 4282675967
11.153595 6.7098947 -1.8851582 4282675967
11.688091 6.8807569 -1.8876427 4282675967
12.132412 7.0017843 -1.8735834 4288085770
12.621777 7.1367226 -1.8643128 4288085770
13.226292 7.3184328 -1.864485 4288085770
13.810722 7.4791737 -1.8577737 4288085770
14.445202 7.6548109 -1.8528281 4288085770
15.167767 7.860271 -1.8544656 4288085770
17.04451 -2.330677 -1.6410744 4288085770
16.288567 -2.3520732 -1.6413118 4288085770
15.65464 -2.3807197 -1.648041 4288085770
15.027721 -2.4023819 -1.6537313 4288085770
14.550827 -2.4393468 -1.6718048 4288085770
13.933922 -2.4450402 -1.6714298 4288085770
13.379025 -2.4538603 -1.6747955 4288085770
12.890141 -2.4668131 -1.6828868 4288085770
12.40826 -2.473784 -1.6889398 4288085770
11.918381 -2.4747424 -1.692019 4288085770
11.445507 -2.4717369 -1.6950202 4288085770
11.028641 -2.473846 -1.7017906 4288085770
17.380653 -3.761517 -1.6165639 4288085770
10.621777 -2.4719777 -1.707513 4288085770
16.597939 -3.7168293 -1.6348228 4288085770
10.233917 -2.4681506 -1.7121519 4288085770
15.841206 -3.668201 -1.6499664 4288085770
9.8690605 -2.4643698 -1.7186931 4288085770
15.117481 -3.6166463 -1.6629655 4288085770
9.4792023 -2.4505463 -1.718327 4288085770
14.416744 -3.5621443 -1.6738632 4288085770
9.1333466 -2.4408092 -1.7227794 4288085770
13.755009 -3.5087256 -1.683597 4288085770
8.8104973 -2.4331198 -1.728137 4288085770
13.154274 -3.4584355 -1.6950755 4288085770
8.4706497 -2.4164004 -1.7295547 4288085770
12.509529 -3.3910656 -1.6967181 4288085770
8.1608009 -2.4037414 -1.7328506 4288085770
11.932781 -3.3338342 -1.7020861 4288085770
7.8659515 -2.3891149 -1.7360797 4288085770
11.392033 -3.2786794 -1.708304 4288085770
7.5861168 -2.3765173 -1.7412481 4288085770
10.880276 -3.2235885 -1.7123988 4288085770
7.2902679 -2.3548951 -1.7404721 4288085770
10.416519 -3.1735973 -1.7192966 4288085770
7.0374298 -2.3413548 -1.7455244 4288085770
9.9617577 -3.1206284 -1.7231522 4288085770
6.7785912 -2.3228059 -1.7475954 4288085770
9.5239906 -3.0676975 -1.7259358 4288085770
6.5247459 -2.3032699 -1.7486441 4288085770
9.1362305 -3.0218678 -1.7325166 4288085770
6.2839088 -2.2827601 -1.7506359 4288085770
8.7344551 -2.9680166 -1.7331463 4288085770
6.0470695 -2.2602615 -1.7506082 4288085770
8.3736839 -2.9222474 -1.7376128 4288085770
5.8272362 -2.2407956 -1.7535125 4288085770
8.0079079 -2.8694739 -1.7380913 4288085770
5.6213989 -2.2223587 -1.7563587 4288085770
7.6891251 -2.8267941 -1.7423838 4288085770
5.4445763 -2.2099762 -1.7650899 4288085770
7.3803482 -2.7831359 -1.7466326 4288085770
5.2277374 -2.1825233 -1.7629707 4288085770
7.0715714 -2.7354808 -1.748876 4288085770
5.0499077 -2.166142 -1.7687007 4288085770
6.7897835 -2.693882 -1.7520131 4288085770
4.8450661 -2.1377163 -1.7655294 4288085770
6.5260048 -2.6533203 -1.7560751 4288085770
4.6552277 -2.1123195 -1.7642983 4288085770
6.2552147 -2.607748 -1.7571603 4288085770
4.4913979 -2.0929713 -1.7679653 4288085770
6.015419 -2.5682378 -1.7601218 4288085770
4.3385696 -2.0736446 -1.7725852 4288085770
5.7676277 -2.523716 -1.7601107 4288085770
4.1717339 -2.0492964 -1.772258 4288085770
5.534832 -2.481226 -1.7600389 4288085770
4.003891 -2.0219479 -1.7699311 4288085770
5.3410416 -2.44981 -1.7668161 4288085770
3.8500595 -1.997625 -1.7705488 4288085770
5.1212387 -2.4063492 -1.7656877 4288085770
3.7162323 -1.978341 -1.7740883 4288085770
4.9174385 -2.3659196 -1.7664955 4288085770
3.5844002 -1.9570612 -1.7776165 4288085770
4.7246323 -2.3285127 -1.7672609 4288085770
3.4425659 -1.9317673 -1.7761821 4288085770
4.5428314 -2.291131 -1.7679794 4288085770
3.3177338 -1.910504 -1.7786807 4288085770
4.3560219 -2.2497406 -1.766714 4288085770
3.1849022 -1.8842272 -1.7782067 4288085770
4.2002258 -2.2184076 -1.7713304 4288085770
3.0780716 -1.8669978 -1.7836343 4288085770
4.0324135 -2.180058 -1.7699883 4288085770
2.9502335 -1.8397337 -1.7821379 4288085770
3.8786087 -2.1467328 -1.7725939 4288085770
2.8524132 -1.8235224 -1.7885287 4288085770
3.7308006 -2.1114216 -1.7741708 4288085770
3.5799866 -2.0751076 -1.7727596 4288085770
3.4591789 -2.0478487 -1.7782328 4288085770
3.3163605 -2.0105543 -1.7757864 4288085770
3.2035522 -1.9833111 -1.781226 4288085770
3.0727272 -1.9480423 -1.7787313 4288085770
2.9489098 -1.9137851 -1.7782084 4288085770
2.8501053 -1.8875729 -1.7835896 4288085770
2.7808685 0.15886199 -1.7655022 4288085770
2.8749847 0.17064524 -1.7590704 4288085770
3.0041466 0.18236959 -1.7644852 4288085770
3.1232872 0.19410694 -1.7639436 4288085770
3.2344055 0.2058562 -1.7594371 4288085770
3.3695526 0.21756065 -1.7598251 4288085770
3.489666 0.2282896 -1.7542802 4288085770
3.6558342 0.2409339 -1.7595308 4288085770
3.7819366 0.25164711 -1.7519593 4288085770
2.8770561 0.26159728 -1.7629068 4288085770
3.9370728 0.2633059 -1.7502593 4288085770
3.0021935 0.2703234 -1.7633426 4288085770
4.1102104 0.27492857 -1.7504799 4288085770
3.1453552 0.2810173 -1.7686969 4288085770
4.2983665 0.28652191 -1.752635 4288085770
3.2634659 0.28975022 -1.763163 4288085770
4.4845047 0.29811525 -1.7517983 4288085770
3.4005928 0.29844797 -1.7615458 4288085770
4.6666222 0.30871177 -1.7469804 4288085770
3.5427132 0.30713308 -1.7589065 4288085770
4.8887749 0.32023311 -1.7499856 4288085770
3.7018547 0.31578743 -1.7601923 4288085770
5.1149139 0.33174038 -1.7489729 4288085770
3.8539696 0.32445002 -1.7565091 4288085770
5.3540497 0.34322155 -1.7489033 4288085770
4.0250969 0.33307588 -1.7557421 4288085770
5.6101913 0.35466564 -1.7487583 4288085770
4.2122383 0.34166968 -1.7569045 4288085770
5.8703194 0.36609709 -1.7455957 4288085770
4.4053764 0.35024905 -1.7570406 4288085770
6.121418 0.37653995 -1.7364734 4288085770
4.6095085 0.35780489 -1.7571293 4288085770
6.42556 0.38787961 -1.735117 4288085770
4.8096275 0.36536551 -1.7542353 4288085770
6.749691 0.39917588 -1.7336724 4288085770
5.0577888 0.37383354 -1.759129 4288085770
7.0788078 0.40945506 -1.7272067 4288085770
5.2688904 0.38036489 -1.7521876 4288085770
7.447937 0.42065358 -1.7245636 4288085770
5.5190086 0.38681924 -1.7500746 4288085770
7.8280449 0.43082154 -1.7168732 4288085770
5.7801323 0.39324999 -1.747913 4288085770
8.2721825 0.44185984 -1.7149 4288085770
6.0372314 0.39868259 -1.7407701 4288085770
8.7593193 0.45280719 -1.713737 4288085770
6.3403549 0.40502274 -1.7384232 4288085770
9.2794418 0.46367908 -1.7094288 4288085770
6.6694756 0.41030943 -1.7379631 4288085770
9.8045425 0.47353399 -1.7000992 4288085770
6.9935799 0.4145993 -1.7315259 4288085770
10.42667 0.48418665 -1.6953411 4288085770
7.3797112 0.41976476 -1.7318143 4288085770
11.144802 0.4956367 -1.6931592 4288085770
7.7427979 0.42296827 -1.7232059 4288085770
11.778858 0.50324368 -1.6733508 4288085770
8.173912 0.4260329 -1.7202983 4288085770
12.63398 0.514395 -1.6675647 4288085770
8.6330185 0.42903495 -1.7152668 4288085770
13.666142 0.52617633 -1.6689979 4288085770
9.1571312 0.43090069 -1.7129503 4288085770
14.665215 0.53500569 -1.6535789 4288085770
9.6802216 0.43176341 -1.7066388 4288085770
15.859322 0.54542267 -1.642298 4288085770
10.304333 0.43141413 -1.7038835 4288085770
17.408474 0.55809152 -1.6414503 4288085770
10.967434 0.43097866 -1.6989558 4288085770
11.659496 0.42647231 -1.687905 4288085770
12.422558 0.42181218 -1.6755404 4288085770
13.390667 0.41672647 -1.6742727 4288085770
14.447762 0.40944552 -1.6696143 4288085770
15.643837 0.39886367 -1.6633465 4288085770
17.016907 0.38490129 -1.6563015 4288085770
12.966034 -7.7784085 -0.26624823 4293729569
8.3343277 -5.3064017 -0.23846509 4293729569
8.3197899 -5.2283311 -0.27842647 4293729569
8.3662071 -5.1783895 -0.32014272 4293729569
8.4705658 -5.1555729 -0.36262625 4293729569
13.728374 -7.6247325 -0.58149195 4293729569
13.915817 -7.6020761 -0.64258981 4293729569
14.227165 -7.6346822 -0.70918608 4293729569
14.428616 -7.6090569 -0.77021593 4293729569
14.756977 -7.6366982 -0.83772779 4293729569
15.068359 -7.6533055 -0.90330374 4293729569
15.40073 -7.6739583 -0.9697879 4293729569
15.780094 -7.7097087 -1.0400745 4293729569
16.227417 -7.7656045 -1.1130738 4293729569
17.435429 -7.394896 -1.4439867 4293729569
17.058208 -7.1040778 -1.451355 4293729569
14.64679 -6.0690212 -0.42417943 4293729569
14.655842 -6.0780392 -1.3031466 4293729569
14.655308 -5.945013 -0.45397824 4293729569
14.611382 -5.9329233 -1.3271638 4293729569
14.796734 -5.8672938 -0.48422199 4293729569
14.677856 -5.8300424 -1.3567219 4293729569
15.438076 -5.9616055 -1.4403725 4293729569
15.743473 -5.9292245 -1.4869165 4293729569
15.545048 -5.7277966 -1.4915743 4293729569
16.19796 -5.8032131 -0.6196509 4293729569
15.444565 -5.5605769 -1.5008229 4293729569
16.255432 -5.683321 -0.64122975 4293729569
15.361065 -5.4023919 -1.5110047 4293729569
15.255562 -5.236165 -1.5162789 4293729569
15.210026 -5.0920658 -1.5243034 4293729569
15.325459 -4.9923005 -1.5456412 4293729569
15.78381 -4.9882498 -1.5945154 4293729569
16.502117 -5.0497398 -1.6642717 4288085770
16.378586 -4.8744864 -1.6586183 4288085770
16.342037 -4.7244143 -1.6605952 4288085770
16.264473 -4.565259 -1.6557499 4288085770
16.258888 -4.4252563 -1.6555967 4288085770
16.258301 -4.2862663 -1.653422 4288085770
16.263691 -4.1522894 -1.6512256 4288085770
16.280087 -4.0183363 -1.647979 4288085770
16.348461 -3.8974948 -1.6475086 4288085770
16.419834 -3.7736616 -1.6450212 4288085770
16.507195 -3.6558628 -1.6424671 4288085770
16.614548 -3.5401082 -1.6398238 4288085770
16.7379 -3.4253883 -1.6371084 4288085770
16.859245 -3.3086672 -1.6313995 4288085770
16.985584 -3.190959 -1.6246667 4288085770
17.210922 -3.0884581 -1.6244956 4288085770
17.420254 -2.981926 -1.6203935 4288085770
17.672588 -2.8794866 -1.6180978 4288085770
16.524574 0.67895448 -1.6457772 4288085770
15.365768 0.71550369 -1.6493411 4288085770
14.387985 0.75165713 -1.6560302 4288085770
13.520191 0.78456879 -1.6631911 4288085770
12.764412 0.81723535 -1.6718106 4288085770
12.129654 0.85163933 -1.6848434 4288085770
11.404774 0.87422377 -1.6783248 4288085770
10.917034 0.90730608 -1.6936482 4288085770
10.373207 0.93350017 -1.6962506 4288085770
16.75214 1.3894025 -1.6498923 4288085770
9.8833847 0.95857513 -1.6985929 4288085770
15.64426 1.3998369 -1.6502411 4288085770
9.4345512 0.98155963 -1.7007393 4288085770
14.709404 1.4118932 -1.6537509 4288085770
9.0387421 1.00743 -1.7056264 4288085770
13.905586 1.4286649 -1.6616222 4288085770
8.6429024 1.0292957 -1.7055179 4288085770
13.109707 1.4394109 -1.6604618 4288085770
8.2850609 1.0510786 -1.7062256 4288085770
12.608986 1.4695274 -1.6818525 4288085770
7.9492188 1.0728128 -1.7068274 4288085770
12.03117 1.4878013 -1.689629 4288085770
7.6564064 1.0964558 -1.7112192 4288085770
11.377254 1.4952284 -1.6817856 4288085770
7.3805809 1.1190605 -1.7145298 4288085770
10.947479 1.5201812 -1.694839 4288085770
7.1337738 1.1436027 -1.7196982 4288085770
10.466633 1.5362363 -1.6971494 4288085770
6.8989639 1.1671188 -1.7248096 4288085770
10.022778 1.5512081 -1.6972816 4288085770
6.648098 1.1856627 -1.7220041 4288085770
9.6289368 1.5690725 -1.7001691 4288085770
6.4442825 1.2101105 -1.7269653 4288085770
9.2380753 1.5849276 -1.7000448 4288085770
6.2244301 1.229588 -1.7260088 4288085770
8.8902359 1.6026893 -1.7017101 4288085770
6.046627 1.252979 -1.7318449 4288085770
8.5383492 1.6144544 -1.6974009 4288085770
5.8667984 1.2753711 -1.7336919 4288085770
8.2485199 1.6350901 -1.7007827 4288085770
5.6909637 1.2967539 -1.735521 4288085770
7.9646721 1.6527096 -1.7011385 4288085770
5.5050964 1.3151537 -1.7314017 4288085770
7.7198448 1.6732458 -1.7043027 4288085770
5.3803062 1.3414303 -1.7399787 4288085770
7.4790077 1.6927724 -1.7064483 4288085770
5.2284698 1.3627595 -1.7406917 4288085770
7.2561798 1.7142601 -1.7095053 4288085770
5.079628 1.3830812 -1.7403915 4288085770
7.0463486 1.7347182 -1.7115003 4288085770
4.9477921 1.4053662 -1.741007 4288085770
6.8495255 1.7571485 -1.7144305 4288085770
4.8099403 1.4246627 -1.7396545 4288085770
6.672699 1.7795347 -1.7172638 4288085770
4.6951103 1.4479111 -1.7411869 4288085770
6.4948616 1.8009212 -1.7181032 4288085770
4.5872917 1.4711457 -1.7446853 4288085770
6.3270302 1.8222866 -1.7198944 4288085770
4.4684448 1.4914004 -1.7432401 4288085770
6.1872215 1.8485929 -1.7245446 4288085770
4.3736191 1.5156056 -1.7456747 4288085770
6.0414009 1.8719106 -1.7272274 4288085770
4.2717857 1.5378244 -1.7461455 4288085770
5.9035721 1.8952098 -1.7288713 4288085770
4.1799507 1.5610214 -1.746567 4288085770
5.7547112 1.9155298 -1.726572 4288085770
4.0921173 1.5842102 -1.7479688 4288085770
5.6308861 1.9397982 -1.7281475 4288085770
3.9962654 1.6044133 -1.7454128 4288085770
5.5240746 1.9670308 -1.7316376 4288085770
3.9284668 1.6315615 -1.7507139 4288085770
5.3932228 1.9883108 -1.7292502 4288085770
3.8376045 1.6527524 -1.7471329 4288085770
5.2833862 2.0115464 -1.7287588 4288085770
3.7637749 1.6759095 -1.7474673 4288085770
5.1775589 2.0367742 -1.7292465 4288085770
3.6909447 1.7010642 -1.7477952 4288085770
5.0787315 2.0619864 -1.7297 4288085770
3.618103 1.7232182 -1.747126 4288085770
4.991909 2.0891728 -1.7310935 4288085770
3.5572777 1.7493465 -1.7473947 4288085770
4.9130974 2.1193428 -1.7334455 4288085770
3.4914398 1.7734851 -1.7466896 4288085770
4.811245 2.1415579 -1.7299172 4288085770
3.4225883 1.7956283 -1.7440012 4288085770
4.7394295 2.1707115 -1.7312361 4288085770
3.3797836 1.8257195 -1.7471788 4288085770
4.658596 2.1978822 -1.729601 4288085770
3.3379784 1.8548086 -1.7503525 4288085770
4.5897827 2.2270291 -1.7309057 4288085770
3.2661018 1.8749551 -1.7436811 4288085770
4.5229568 2.2561698 -1.7302008 4288085770
3.2323074 1.9060273 -1.7478141 4288085770
4.4551239 2.2843115 -1.7285018 4288085770
3.1824684 1.9321296 -1.74603 4288085770
4.395298 2.3134377 -1.728763 4288085770
3.1446533 1.9612088 -1.7481847 4288085770
4.347496 2.3475382 -1.7299612 4288085770
3.1128387 1.9912741 -1.7493092 4288085770
4.2866592 2.375664 -1.7272284 4288085770
3.0730171 2.0193563 -1.7494746 4288085770
4.235836 2.4067693 -1.7264442 4288085770
3.0341873 2.0474341 -1.7476352 4288085770
4.2090607 2.4468262 -1.7305348 4288085770
3.0043678 2.0784941 -1.7477493 4288085770
4.1752548 2.4828954 -1.7316631 4288085770
2.9865799 2.1125309 -1.7518022 4288085770
4.1234169 2.5120006 -1.7278858 4288085770
2.9527435 2.141597 -1.7489377 4288085770
4.0825958 2.546083 -1.7260504 4288085770
2.9239197 2.1716537 -1.7480481 4288085770
4.0507889 2.5821464 -1.7251692 4288085770
2.9161415 2.2106693 -1.7530477 4288085770
4.0269928 2.6211934 -1.7262465 4288085770
2.8772774 2.2357428 -1.7462116 4288085770
4.0011826 2.6592426 -1.7243344 4288085770
2.8524475 2.2667892 -1.7433016 4288085770
3.9713669 2.6963007 -1.7224429 4288085770
2.8436623 2.304805 -1.7463073 4288085770
3.9435463 2.7323534 -1.7195425 4288085770
2.8378677 2.3438137 -1.7482972 4288085770
3.9387779 2.7793598 -1.7215198 4288085770
2.8030052 2.3698778 -1.740441 4288085770
3.9259758 2.8223813 -1.7205399 4288085770
2.8072281 2.4128659 -1.7443788 4288085770
3.9262123 2.8703766 -1.722492 4288085770
2.7994232 2.4498763 -1.7433804 4288085770
3.9264374 2.918371 -1.7234441 4288085770
2.7936134 2.4878826 -1.7423719 4288085770
3.9286537 2.966361 -1.7243866 4288085770
2.8208923 2.5418255 -1.7521871 4288085770
3.9348869 3.0173421 -1.7253067 4288085770
2.7930183 2.568872 -1.7422961 4288085770
3.9541397 3.0742962 -1.7281579 4288085770
2.7922173 2.6088667 -1.741261 4288085770
3.9583588 3.12428 -1.7270886 4288085770
2.7904053 2.6478622 -1.7382318 4288085770
3.9876289 3.1852131 -1.7308873 4288085770
2.7925987 2.6888494 -1.7361815 4288085770
4.0168953 3.2471459 -1.7346849 4288085770
2.8008003 2.7318234 -1.7340999 4288085770
4.0501709 3.3120687 -1.7374603 4288085770
2.8130112 2.7777903 -1.7339958 4288085770
4.0964737 3.382966 -1.7431666 4288085770
2.8232155 2.8227601 -1.7319027 4288085770
4.1377563 3.4518714 -1.7458992 4288085770
2.8594856 2.8806787 -1.7366705 4288085770
4.2081032 3.5357199 -1.7564762 4288085770
2.8807068 2.9306259 -1.7365189 4288085770
4.2604027 3.6106007 -1.7591494 4288085770
2.9109573 2.9865546 -1.7383177 4288085770
4.3126945 3.686482 -1.7618217 4288085770
2.956234 3.049453 -1.7430367 4288085770
4.3639793 3.7623634 -1.762499 4288085770
2.9854622 3.1043816 -1.7418416 4288085770
4.4282951 3.8442187 -1.7661073 4288085770
3.0176926 3.1593032 -1.7406316 4288085770
4.4905891 3.925076 -1.766726 4288085770
3.0749893 3.229176 -1.7462854 4288085770
4.5518799 4.0049334 -1.7653507 4288085770
3.1242561 3.2950635 -1.7479825 4288085770
4.6392288 4.1017399 -1.7708327 4288085770
3.1865501 3.367924 -1.7526091 4288085770
4.7235603 4.1955495 -1.772332 4288085770
3.2438354 3.437794 -1.755263 4288085770
4.816906 4.2953396 -1.7747815 4288085770
3.3141441 3.5156372 -1.759846 4288085770
4.9222832 4.4031043 -1.778165 4288085770
3.3954849 3.6004577 -1.7663685 4288085770
5.0386696 4.5158463 -1.7834899 4288085770
3.4748039 3.6842804 -1.7709017 4288085770
5.1630669 4.6345696 -1.7877703 4288085770
3.5651474 3.7730801 -1.7763764 4288085770
5.3015022 4.7632642 -1.7939726 4288085770
3.6304054 3.8469272 -1.7729874 4288085770
5.4268913 4.8829818 -1.795247 4288085770
3.6956711 3.9207745 -1.7695982 4288085770
5.5672951 5.0116677 -1.7964393 4288085770
3.8010254 4.0185404 -1.774991 4288085770
5.7127151 5.143343 -1.7986045 4288085770
3.9023628 4.1133127 -1.7774062 4288085770
5.8781586 5.2879739 -1.8006597 4288085770
4.015728 4.217061 -1.7817541 4288085770
6.0476112 5.435595 -1.8016925 4288085770
4.1240692 4.3158164 -1.7821313 4288085770
6.2601509 5.6101255 -1.8084897 4288085770
4.2514496 4.4275331 -1.7864033 4288085770
6.4927216 5.7976146 -1.8171767 4288085770
4.3948631 4.5472155 -1.7915894 4288085770
6.7894325 6.0259695 -1.8345125 4288085770
4.5522995 4.6778684 -1.7986965 4288085770
7.131237 6.2852292 -1.8575991 4282675967
4.7197533 4.8134999 -1.8067504 4288085770
7.4459496 6.5265398 -1.8698344 4288085770
4.8651276 4.9331727 -1.8059264 4288085770
7.8177795 6.8057308 -1.8887552 4282675967
5.0415764 5.073781 -1.8099309 4288085770
8.0823326 7.0131364 -1.8832662 4288085770
5.2150002 5.210393 -1.8109537 4288085770
8.3428535 7.2165465 -1.8738 4288085770
5.3984337 5.3519826 -1.8109227 4288085770
8.7166176 7.4947209 -1.8797112 4288085770
5.6029053 5.5075274 -1.8137758 4288085770
9.0893478 7.7698922 -1.8796294 4288085770
5.8444557 5.686995 -1.8204253 4288085770
9.4790955 8.0560255 -1.878454 4288085770
6.1000252 5.8744311 -1.8279985 4288085770
6.4618454 6.1326504 -1.8539865 4282675967
6.7895508 6.3659329 -1.8681638 4282675967
7.1813889 6.6410813 -1.8899884 4282675967
7.5521393 6.8992682 -1.901931 4282675967
7.829628 7.0906401 -1.8913913 4282675967
8.1642342 7.3168926 -1.8885391 4288085770
8.5489311 7.5750389 -1.8894119 4288085770
8.9416122 7.8351641 -1.8872434 4288085770
17.322262 -1.1275221 -1.6176598 4288085770
16.391331 -1.1674539 -1.6293592 4288085770
15.505409 -1.1984884 -1.6378264 4288085770
14.738503 -1.2297839 -1.6496961 4288085770
14.022602 -1.256193 -1.6613063 4288085770
13.360706 -1.2797228 -1.6716437 4288085770
12.711811 -1.2962836 -1.6789106 4288085770
12.129925 -1.3129917 -1.6878415 4288085770
11.545029 -1.3216971 -1.6917816 4288085770
11.018139 -1.3315297 -1.6974318 4288085770
17.310379 -2.0485678 -1.6343209 4288085770
10.508255 -1.3364018 -1.7009928 4288085770
16.258598 -2.0192299 -1.6455786 4288085770
10.041374 -1.3413676 -1.7063379 4288085770
15.284813 -1.9870671 -1.654443 4288085770
9.6205025 -1.3464352 -1.7124522 4288085770
14.425034 -1.9601556 -1.6657386 4288085770
9.2106361 -1.3495268 -1.7185099 4288085770
13.620239 -1.9303685 -1.6737561 4288085770
8.8157578 -1.3506538 -1.7224914 4288085770
12.902447 -1.905774 -1.6833408 4288085770
8.5029221 -1.3569547 -1.7360641 4288085770
12.190639 -1.8741964 -1.6878904 4288085770
8.1490555 -1.3561727 -1.739838 4288085770
11.608852 -1.8529011 -1.6997943 4288085770
7.8151817 -1.3524355 -1.7425095 4288085770
11.004036 -1.8225628 -1.7018076 4288085770
7.4913177 -1.3477205 -1.7451302 4288085770
10.452232 -1.795339 -1.707557 4288085770
7.186451 -1.3420483 -1.7476549 4288085770
9.951416 -1.7702292 -1.712052 4288085770
6.888588 -1.3343917 -1.7491429 4288085770
9.4696083 -1.7431625 -1.7164502 4288085770
6.6147232 -1.3277878 -1.7515112 4288085770
9.0678062 -1.7242681 -1.7264522 4288085770
6.3398552 -1.3181833 -1.7518826 4288085770
8.6880074 -1.7044235 -1.735343 4288085770
6.1110115 -1.3136767 -1.7580262 4288085770
8.367218 -1.6927046 -1.7509429 4288085770
5.8881607 -1.3081831 -1.7641393 4288085770
7.9633827 -1.6628155 -1.7489481 4288085770
5.6442795 -1.2966486 -1.7623544 4288085770
7.6195564 -1.6380545 -1.7526556 4288085770
5.4574432 -1.2922326 -1.7712871 4288085770
7.2757263 -1.6122965 -1.7533623 4288085770
5.2475891 -1.282771 -1.7733322 4288085770
6.9629021 -1.5876051 -1.7559135 4288085770
5.0277176 -1.2682914 -1.7704242 4288085770
6.6630745 -1.5629443 -1.7573998 4288085770
4.8438721 -1.2588853 -1.7753389 4288085770
6.3792496 -1.5393192 -1.7588066 4288085770
4.6299858 -1.2414216 -1.7683988 4288085770
6.1214256 -1.5167495 -1.7620833 4288085770
4.4601402 -1.2320477 -1.7722431 4288085770
5.9016151 -1.5012599 -1.7711742 4288085770
4.2812767 -1.2176572 -1.771129 4288085770
5.655777 -1.4767202 -1.7713895 4288085770
4.1204185 -1.2063051 -1.771927 4288085770
5.4039307 -1.4491695 -1.767633 4288085770
3.9565582 -1.1919476 -1.7717379 4288085770
5.1870995 -1.4266928 -1.7687042 4288085770
3.8007011 -1.1786076 -1.7715094 4288085770
4.9832611 -1.4052452 -1.7697108 4288085770
3.651844 -1.1642832 -1.771245 4288085770
4.780426 -1.3827997 -1.7707119 4288085770
3.5129929 -1.1509804 -1.7719312 4288085770
4.5955925 -1.361394 -1.7716231 4288085770
3.3871384 -1.1397046 -1.7745531 4288085770
4.4067497 -1.3379813 -1.7705531 4288085770
3.2502861 -1.1254064 -1.7742286 4288085770
4.2389145 -1.317613 -1.7723798 4288085770
3.1394386 -1.1151627 -1.7787762 4288085770
4.0610733 -1.2932254 -1.7702539 4288085770
3.0245934 -1.1029104 -1.7823426 4288085770
3.9022255 -1.2718788 -1.770035 4288085770
2.8997307 -1.086641 -1.7799566 4288085770
3.7463837 -1.2505385 -1.769801 4288085770
3.5995407 -1.2292184 -1.7695215 4288085770
3.4576988 -1.2079092 -1.7692171 4288085770
3.3368721 -1.190643 -1.7738099 4288085770
3.1950188 -1.1673371 -1.7695042 4288085770
3.102211 -1.1541282 -1.7799588 4288085770
2.988369 -1.1358811 -1.7805158 4288085770
2.8625145 -1.1126097 -1.7771299 4288085770
2.7830544 0.73179173 -1.7705895 4288085770
2.8891907 0.74454558 -1.7690288 4288085770
2.9983215 0.7582922 -1.7664523 4288085770
3.1124611 0.77102804 -1.7648504 4288085770
3.2255821 0.78376365 -1.7602534 4288085770
3.3547249 0.79746628 -1.7595731 4288085770
3.4818459 0.81017113 -1.7559036 4288085770
3.6239967 0.8248446 -1.7551552 4288085770
2.8139648 0.75767207 -1.7693806 4288085770
3.7561111 0.83653736 -1.7504604 4288085770
2.9210815 0.76642263 -1.7668177 4288085770
3.9192696 0.85116488 -1.7516032 4288085770
3.0512352 0.77812541 -1.7691334 4288085770
4.0764046 0.86480266 -1.7487775 4288085770
3.1593323 0.78487086 -1.7625662 4288085770
4.2405357 0.87842476 -1.7459155 4288085770
3.2944832 0.79556143 -1.7638568 4288085770
4.4186745 0.89201683 -1.7449811 4288085770
3.4376297 0.80623388 -1.7651057 4288085770
4.6048164 0.90559012 -1.743005 4288085770
3.557724 0.81295133 -1.7574762 4288085770
4.8009605 0.91914141 -1.7419773 4288085770
3.7068558 0.82160866 -1.7566955 4288085770
5.0201111 0.93464172 -1.7418288 4288085770
3.8730049 0.83222997 -1.7588251 4288085770
5.2412453 0.94913596 -1.7396708 4288085770
4.0211105 0.83888662 -1.7540506 4288085770
5.4773979 0.96359777 -1.7394346 4288085770
4.1802216 0.8455193 -1.7502191 4288085770
5.7035065 0.97507781 -1.7332526 4288085770
4.3673668 0.85509253 -1.7512405 4288085770
5.9686546 0.99047422 -1.7328656 4288085770
4.5534973 0.86366695 -1.7512676 4288085770
6.2307777 1.0028737 -1.7274958 4288085770
4.726593 0.86826545 -1.7443645 4288085770
6.5279236 1.0181968 -1.7259427 4288085770
4.9657707 0.87872577 -1.7511156 4288085770
6.834053 1.0314984 -1.7223442 4288085770
5.1758842 0.88524389 -1.7480192 4288085770
7.1591759 1.0447562 -1.717647 4288085770
5.4090157 0.89171213 -1.7478037 4288085770
7.5103073 1.058956 -1.7138144 4288085770
5.645134 0.89717156 -1.7445734 4288085770
7.8954468 1.07408 -1.7108048 4288085770
5.8822365 0.90162778 -1.7403381 4288085770
8.3115959 1.0891347 -1.7086344 4288085770
6.1333351 0.90505165 -1.7350309 4288085770
8.7467232 1.1031449 -1.7043658 4288085770
6.4014397 0.90843785 -1.7306354 4288085770
9.2528877 1.1209986 -1.7047265 4288085770
6.7155724 0.91372401 -1.7310002 4288085770
9.7900467 1.1377816 -1.7039269 4288085770
7.0106544 0.91504699 -1.723466 4288085770
10.369183 1.1534674 -1.6999103 4288085770
7.3097267 0.91436017 -1.7149121 4288085770
11.00032 1.1700358 -1.6956229 4288085770
7.6798439 0.91651827 -1.7129879 4288085770
11.683449 1.1854861 -1.6900667 4288085770
8.0819664 0.91760558 -1.7128986 4288085770
12.523663 1.208591 -1.6956908 4288085770
8.4900627 0.91767663 -1.7087789 4288085770
13.140625 1.2091714 -1.6654859 4288085770
8.9351654 0.91666448 -1.7054675 4288085770
14.113804 1.2289722 -1.665422 4288085770
9.4272804 0.91454852 -1.7049127 4288085770
15.123913 1.2446817 -1.6551679 4288085770
9.9403648 0.91038203 -1.7002504 4288085770
16.39711 1.2688075 -1.6565442 4288085770
10.502457 0.90510571 -1.696334 4288085770
11.133568 0.89967644 -1.6960598 4288085770
11.697571 0.88538551 -1.6791384 4288085770
12.521721 0.87852633 -1.6858634 4288085770
13.150669 0.8570832 -1.6616088 4288085770
14.098774 0.84293997 -1.6626945 4288085770
15.075817 0.82172525 -1.6556337 4288085770
16.202873 0.7981739 -1.6507957 4288085770
17.608994 0.77400291 -1.6585097 4288085770
8.8710823 -7.6720567 0.018759817 4293729569
8.7795944 -7.6137471 -0.046507865 4293729569
8.8169022 -7.6437411 -0.11239405 4293729569
8.7633629 -7.6055217 -0.17754041 4293729569
8.8276939 -7.6475797 -0.24433142 4293729569
8.7072678 -7.5562062 -0.30666399 4293729569
8.6317863 -7.4929404 -0.36885923 4293729569
8.5742645 -7.439713 -0.43199843 4293729569
8.5746651 -7.424623 -0.49496275 4293729569
8.591053 -7.4175706 -0.5588752 4293729569
9.0331306 -7.68152 0.029509306 4293729569
8.5954704 -7.3984895 -0.62281728 4293729569
9.0465431 -7.6614604 -0.033394814 4293729569
8.6268425 -7.3944736 -0.68567407 4293729569
9.0010643 -7.5972619 -0.097468287 4293729569
8.6742096 -7.3994927 -0.75048029 4293729569
9.0174942 -7.5722089 -0.16135269 4293729569
8.7295685 -7.4065289 -0.81625748 4293729569
9.0508995 -7.5561957 -0.22518262 4293729569
8.7899246 -7.4135804 -0.88101429 4293729569
9.09729 -7.5462155 -0.28796941 4293729569
8.8562851 -7.4216409 -0.9477486 4293729569
9.0797768 -7.490088 -0.34894288 4293729569
8.9286423 -7.4297166 -1.0134585 4293729569
9.1481438 -7.4881616 -0.41065344 4293729569
9.036972 -7.4588733 -1.0830557 4293729569
9.1655922 -7.4501147 -0.47151384 4293729569
9.1423035 -7.4830251 -1.1516573 4293729569
9.2209854 -7.4351592 -0.5322566 4293729569
9.2546463 -7.5081887 -1.222232 4293729569
9.2973557 -7.4292541 -0.59292865 4293729569
9.3697395 -7.4183393 -0.65260899 4293729569
9.4650955 -7.4194779 -0.71421492 4293729569
9.9133568 -7.7713895 -1.4679447 4293729569
9.5794296 -7.4306607 -0.7757597 4293729569
9.5102539 -7.447433 -1.4740638 4293729569
9.6907768 -7.4348369 -0.83630562 4293729569
9.194046 -7.1806741 -1.48592 4293729569
9.8231125 -7.4500594 -0.89978361 4293729569
8.9297676 -6.9480319 -1.5016196 4293729569
9.9414635 -7.4522538 -0.96029776 4293729569
8.686451 -6.7294402 -1.5152568 4293729569
10.078804 -7.4624896 -1.0227473 4293729569
8.442131 -6.5108514 -1.5268985 4293729569
10.238125 -7.4837756 -1.0861249 4293729569
8.2367516 -6.3183503 -1.5404232 4293729569
10.410442 -7.5080914 -1.1504545 4293729569
8.0103722 -6.1138139 -1.5460149 4293729569
10.617741 -7.5484843 -1.2186669 4293729569
7.7739944 -5.9032545 -1.5496382 4293729569
10.667187 -7.4925313 -1.2693694 4293729569
7.6005402 -5.7338376 -1.5580704 4293729569
10.873493 -7.5259252 -1.3355747 4293729569
7.470047 -5.5905156 -1.5713695 4293729569
10.996883 -7.5071349 -1.3930351 4293729569
7.3345451 -5.4431863 -1.580683 4293729569
11.257149 -7.5636516 -1.4630568 4293729569
7.2270126 -5.3149195 -1.5929126 4293729569
10.915958 -7.2748456 -1.4669826 4293729569
7.0904961 -5.1695919 -1.5992337 4293729569
10.685654 -7.0512853 -1.4805603 4293729569
6.9789391 -5.0393252 -1.6054772 4293729569
8.3160896 -5.654048 -1.2419991 4293729569
6.8873749 -4.9211001 -1.6146582 4293729569
8.2575531 -5.5448809 -1.2640595 4293729569
6.7668152 -4.787818 -1.6169341 4293729569
8.2589531 -5.4688511 -1.2899282 4293729569
6.7062035 -4.6886635 -1.6280195 4293729569
8.3153076 -5.4209423 -1.321617 4293729569
6.6495857 -4.5915217 -1.6370921 4293729569
8.3886528 -5.3800726 -1.3542478 4293729569
6.7318916 -4.5676713 -1.670714 4293729569
9.5442467 -5.8935556 -1.5243425 4293729569
6.8891716 -4.580976 -1.7190893 4293729569
9.4397316 -5.7512999 -1.5335377 4293729569
7.0474548 -4.5902863 -1.7654539 4288085770
9.3172264 -5.6000085 -1.5387924 4293729569
7.1007805 -4.5453796 -1.7911607 4288085770
9.2566681 -5.481853 -1.5508468 4293729569
7.0281601 -4.4352117 -1.7922782 4288085770
9.1981049 -5.3637037 -1.5618932 4293729569
6.9355316 -4.3180051 -1.7874662 4288085770
9.1365356 -5.2445526 -1.5699506 4293729569
6.8618927 -4.2088418 -1.7845898 4288085770
9.0769501 -5.1294084 -1.5760059 4293729569
6.7852478 -4.1006718 -1.780727 4288085770
9.0373459 -5.0223088 -1.583993 4293729569
6.7335854 -4.0055571 -1.779783 4288085770
8.9907417 -4.913197 -1.5890052 4293729569
6.6859169 -3.9114537 -1.7778246 4288085770
8.9401283 -4.8030787 -1.5920323 4293729569
6.6402321 -3.8213544 -1.7758644 4288085770
8.9304886 -4.7110515 -1.5989207 4293729569
6.6165428 -3.7393036 -1.7758274 4288085770
9.0567894 -4.6773181 -1.6243467 4293729569
6.5928459 -3.6592541 -1.7757933 4288085770
9.2790489 -4.6817937 -1.6624408 4293729569
6.5771446 -3.581223 -1.7757299 4288085770
9.5452919 -4.7023659 -1.7053808 4288085770
6.5454407 -3.4971614 -1.7707225 4288085770
9.9414864 -4.7702203 -1.7648648 4288085770
6.5487213 -3.429173 -1.7725974 4288085770
9.8708649 -4.646071 -1.7569512 4288085770
6.5470047 -3.3581748 -1.7724882 4288085770
9.8392143 -4.5390091 -1.7529058 4288085770
6.5562782 -3.291203 -1.7723404 4288085770
9.8265533 -4.4409885 -1.7507969 4288085770
6.5455513 -3.2171912 -1.7672632 4288085770
9.8248787 -4.3469958 -1.7476494 4288085770
6.5658188 -3.1552424 -1.7690784 4288085770
9.8361969 -4.2570329 -1.7454556 4288085770
6.5920792 -3.0953093 -1.7698724 4288085770
9.8775101 -4.1791344 -1.7471579 4288085770
6.6093292 -3.032361 -1.7666984 4288085770
9.9048042 -4.096209 -1.7449096 4288085770
6.6345901 -2.9714274 -1.7664949 4288085770
9.9351082 -4.0132928 -1.7416492 4288085770
6.6708298 -2.9155216 -1.7652541 4288085770
10.010391 -3.9454751 -1.7432286 4288085770
6.7120781 -2.8596258 -1.7649932 4288085770
10.082664 -3.8766532 -1.7428186 4288085770
6.7523232 -2.8037291 -1.7637362 4288085770
10.145939 -3.8048153 -1.7394404 4288085770
6.8015594 -2.7498522 -1.7634456 4288085770
10.216209 -3.7329936 -1.736034 4288085770
6.8407974 -2.6929584 -1.7591909 4288085770
10.314472 -3.6712337 -1.7355286 4288085770
6.9070244 -2.6441216 -1.7588387 4288085770
10.411736 -3.6054745 -1.7330211 4288085770
6.9732552 -2.594285 -1.758485 4288085770
10.526985 -3.5457573 -1.7314494 4288085770
7.0444794 -2.5454621 -1.7571126 4288085770
10.652225 -3.4870625 -1.729839 4288085770
7.1047058 -2.4926176 -1.7527784 4288085770
10.78347 -3.4283848 -1.7272032 4288085770
7.1849251 -2.4458165 -1.7513719 4288085770
10.945709 -3.3777757 -1.7274534 4288085770
7.2801437 -2.4000492 -1.7509056 4288085770
11.087944 -3.3191266 -1.7227724 4288085770
7.3913651 -2.3593168 -1.7523817 4288085770
11.263176 -3.2665524 -1.720966 4288085770
