# .PCD v0.7 - Point Cloud Data file format
VERSION 0.7
FIELDS x y z rgb
SIZE 4 4 4 4
TYPE F F F U
COUNT 1 1 1 1
WIDTH 1127
HEIGHT 1
VIEWPOINT 0 0 0 1 0 0 0
POINTS 1127
DATA ascii
7.2499237 -0.037870765 -1.8759036 4288085770
9.1219788 -0.025226831 -1.8641789 4288085770
7.0010376 -0.027567148 -1.8733814 4288085770
8.7731018 -0.012794614 -1.8638511 4288085770
6.7611542 -0.01827848 -1.8688428 4288085770
8.4642334 -0.00040602684 -1.8674445 4288085770
6.5422821 -0.0080108643 -1.8672607 4288085770
8.17836 0.011953831 -1.8709919 4288085770
6.3294067 0.0022438765 -1.8626666 4288085770
7.9004974 0.024298668 -1.8715234 4288085770
6.1395111 0.012476563 -1.8620272 4288085770
7.6256256 0.037636518 -1.8700471 4288085770
5.9646606 0.022693992 -1.8633578 4288085770
7.3857574 0.048937082 -1.8725052 4288085770
5.7947693 0.032901525 -1.8626788 4288085770
7.1318665 0.061243296 -1.8679888 4288085770
5.6108856 0.043114901 -1.8550272 4288085770
6.8970032 0.073517919 -1.8644352 4288085770
5.4319763 0.052312255 -1.8473668 4288085770
6.6811218 0.085778713 -1.8618419 4288085770
5.3011169 0.062476635 -1.8506091 4288085770
6.4912567 0.09801352 -1.8631973 4288085770
5.1572418 0.073649049 -1.8488753 4288085770
6.2883606 0.11025631 -1.8595784 4288085770
5.0163574 0.083815813 -1.846137 4288085770
6.1014862 0.12247932 -1.8559279 4288085770
4.8944855 0.094965577 -1.8473599 4288085770
5.9226074 0.13469386 -1.8532615 4288085770
4.7666016 0.10511637 -1.8445961 4288085770
5.7447205 0.14690197 -1.8475933 4288085770
4.6467438 0.11625862 -1.8428147 4288085770
5.6018677 0.16007781 -1.8488543 4288085770
5.4629974 0.17224884 -1.8501089 4288085770
5.3161163 0.18442154 -1.8463793 4288085770
5.1662292 0.19659305 -1.8396556 4288085770
5.0373383 0.20874643 -1.8378906 4288085770
4.9174652 0.22089028 -1.8371077 4288085770
4.808609 0.23402381 -1.8383014 4288085770
4.6887207 0.24616289 -1.8345187 4288085770
4.58284 0.25928736 -1.8327065 4288085770
4.5635529 2.3348117 -1.7703564 4288085770
4.6787262 2.3746696 -1.7720639 4288085770
4.802887 2.4165158 -1.7737502 4288085770
4.9230499 2.4563646 -1.7744478 4288085770
5.0502167 2.4972053 -1.77513 4288085770
5.1813965 2.5390415 -1.7758025 4288085770
5.3115387 2.5778737 -1.7734821 4288085770
5.4416962 2.6157031 -1.7691633 4288085770
5.6018829 2.6645083 -1.7727672 4288085770
4.6504974 2.2996807 -1.7762458 4288085770
5.7530212 2.7073178 -1.7723987 4288085770
4.771637 2.3315291 -1.7769547 4288085770
5.9252319 2.7571068 -1.7749773 4288085770
4.8988037 2.3643732 -1.77965 4288085770
6.1143951 2.8118796 -1.7805144 4288085770
5.0139465 2.3912225 -1.7763789 4288085770
6.3316193 2.8766289 -1.7919796 4288085770
5.1520996 2.4250526 -1.7780509 4288085770
6.5027771 2.9194088 -1.7885715 4288085770
5.2782288 2.452889 -1.7757564 4288085770
6.7359924 2.9851346 -1.7980034 4288085770
5.4163971 2.4827156 -1.775435 4288085770
6.9261627 3.0308914 -1.7945533 4288085770
5.5725403 2.5185251 -1.779068 4288085770
7.149353 3.0886178 -1.7970182 4288085770
5.7196808 2.5493388 -1.7777274 4288085770
7.377533 3.1433363 -1.7984782 4288085770
5.8908691 2.587131 -1.7813277 4288085770
7.6297302 3.205029 -1.8018794 4288085770
6.059021 2.6209235 -1.7829404 4288085770
7.849884 3.252748 -1.7973666 4288085770
6.2401886 2.6587033 -1.7865211 4288085770
8.0870514 3.3024454 -1.7928171 4288085770
6.4243469 2.6944776 -1.7890991 4288085770
8.3742676 3.3700991 -1.7981395 4288085770
6.6315308 2.7372303 -1.7956203 4288085770
8.6634674 3.4327407 -1.7984661 4288085770
6.850708 2.7809696 -1.8031162 4288085770
8.9786682 3.5023561 -1.8017298 4288085770
7.0548706 2.8167186 -1.8046546 4288085770
9.3148651 3.5749493 -1.8069472 4288085770
7.2910614 2.8604379 -1.812117 4288085770
9.64505 3.641541 -1.8071864 4288085770
7.479187 2.8851938 -1.8067052 4288085770
9.9972534 3.7111053 -1.8073772 4288085770
7.6622925 2.905952 -1.7983099 4288085770
10.326431 3.7686911 -1.8026332 4288085770
7.8834534 2.9366746 -1.7968231 4288085770
10.683624 3.8322439 -1.7988242 4288085770
8.1156006 2.9683876 -1.7973131 4288085770
11.07782 3.9027557 -1.7979305 4288085770
8.4027863 3.0150456 -1.8056699 4288085770
11.498032 3.9772358 -1.796979 4288085770
8.6499329 3.0447345 -1.8031336 4288085770
11.989258 4.0686402 -1.8028595 4288085770
8.9481201 3.0873761 -1.8094752 4288085770
12.540527 4.1729779 -1.8126004 4288085770
9.2562866 3.1300054 -1.8157971 4288085770
13.126785 4.2812724 -1.8222656 4288085770
9.5494537 3.1636438 -1.8161635 4288085770
13.747055 4.3915267 -1.8328605 4288085770
9.8415985 3.1932812 -1.8155385 4288085770
14.307266 4.4788342 -1.8306117 4288085770
10.112732 3.2129345 -1.8089713 4288085770
14.915497 4.5700855 -1.8302615 4288085770
10.426865 3.239542 -1.8063078 4288085770
15.657791 4.6921873 -1.8385961 4288085770
10.746017 3.2641439 -1.8036377 4288085770
16.38504 4.8002973 -1.8409832 4288085770
11.066147 3.2847414 -1.7989722 4288085770
17.32637 4.960175 -1.860863 4288085770
11.432281 3.3142896 -1.7992011 4288085770
18.17366 5.0801396 -1.8629937 4288085770
11.809418 3.3408246 -1.7994136 4288085770
18.875824 5.1522512 -1.8474896 4288085770
12.218597 3.372324 -1.8015543 4288085770
12.665756 3.4087839 -1.8076119 4288085770
13.0979 3.4332519 -1.807719 4288085770
13.610077 3.4716349 -1.8156453 4288085770
14.120255 3.5050187 -1.8225837 4288085770
14.646408 3.5333791 -1.8264987 4288085770
15.196548 3.5587091 -1.8303714 4288085770
15.763702 3.5820203 -1.8352137 4288085770
16.301819 3.5903563 -1.8331378 4288085770
16.981995 3.6225371 -1.8427427 4288085770
17.600113 3.6307802 -1.843509 4288085770
18.288269 3.6459455 -1.8491259 4288085770
18.936371 3.6411467 -1.8468544 4288085770
19.117432 -6.216435 -1.7764603 4293729569
18.46167 -6.1396308 -1.7826304 4293729569
17.761902 -6.0357866 -1.7808441 4293729569
17.15712 -5.9560456 -1.7859088 4293729569
16.550339 -5.8643079 -1.7879583 4293729569
12.678284 -4.6131668 -1.4395925 4293729569
12.596405 -4.6720018 -1.4818479 4293729569
14.207672 -5.3078051 -0.96568477 4293729569
12.626511 -4.7719526 -1.5379479 4293729569
14.161789 -5.3876629 -1.0209025 4293729569
12.555634 -4.8337946 -1.5841863 4293729569
12.508438 -4.8607502 -0.96232009 4293729569
13.640533 -5.3338118 -1.772846 4293729569
12.458557 -4.9266109 -1.0135235 4293729569
13.168747 -5.2452407 -1.7736343 4293729569
12.381714 -4.980443 -1.0617605 4293729569
12.687958 -5.1476636 -1.771426 4293729569
12.29718 -5.0771809 -1.7780836 4293729569
18.81395 -7.7371588 -1.748481 4293729569
11.925385 -5.0097208 -1.7857084 4293729569
17.930359 -7.4970784 -1.753839 4293729569
11.519608 -4.9222317 -1.7853683 4293729569
12.303238 -5.2749968 -1.287384 4293729569
11.137817 -4.838769 -1.7869872 4293729569
12.171417 -5.2977619 -1.3356797 4293729569
10.771042 -4.7563243 -1.7885782 4293729569
12.147583 -5.3656406 -1.3948345 4293729569
10.436249 -4.6829157 -1.7921206 4293729569
12.182709 -5.4565783 -1.4619098 4293729569
10.095444 -4.6015058 -1.7916619 4293729569
12.086884 -5.4903793 -1.5151522 4293729569
9.7976685 -4.5351391 -1.7971426 4293729569
12.663879 -5.8218646 -1.6505429 4293729569
9.5138702 -4.470788 -1.8035989 4293729569
12.16217 -5.6722488 -1.6572925 4293729569
9.2230835 -4.3984332 -1.8070561 4293729569
12.146347 -5.7371254 -1.7234266 4293729569
8.9512787 -4.3311005 -1.8104842 4293729569
11.883591 -5.6877556 -1.756865 4293729569
8.6404877 -4.241735 -1.8059536 4293729569
11.368896 -5.5151429 -1.7516036 4293729569
8.3606873 -4.1624031 -1.8033781 4293729569
11.00116 -5.4056807 -1.7631531 4293729569
8.1928864 -4.1321716 -1.82266 4293729569
10.576462 -5.2631693 -1.7627622 4293729569
8.0290527 -4.1019492 -1.8399343 4293729569
10.201721 -5.1397104 -1.7673033 4293729569
7.9262238 -4.0977798 -1.8701298 4293729569
9.8619843 -5.0282927 -1.7727945 4293729569
7.8174286 -4.0896058 -1.8983307 4288085770
9.5692444 -4.9349222 -1.784222 4293729569
7.6946106 -4.0724216 -1.9225447 4288085770
9.2594757 -4.8295403 -1.7906637 4293729569
7.5128021 -4.0221868 -1.9338224 4288085770
8.9497375 -4.7201643 -1.7930994 4293729569
7.2680054 -3.9379058 -1.9261699 4288085770
8.6519775 -4.6118031 -1.7945126 4293729569
7.0582123 -3.8676562 -1.9254711 4288085770
8.3862305 -4.5164762 -1.7998838 4293729569
6.8363953 -3.7884016 -1.918781 4288085770
8.0924683 -4.4031286 -1.7962815 4293729569
6.6295929 -3.7141623 -1.9140699 4288085770
7.8186951 -4.295805 -1.7936493 4293729569
6.4667816 -3.6599607 -1.9193037 4288085770
7.592926 -4.2105274 -1.7979574 4293729569
6.305954 -3.6047626 -1.9235322 4288085770
7.3771362 -4.1272631 -1.8022494 4293729569
6.1131592 -3.5295434 -1.9167917 4288085770
7.2183533 -4.0720482 -1.8184736 4293729569
5.9493408 -3.46735 -1.9160147 4288085770
7.1685638 -4.0739269 -1.8585739 4293729569
5.7625275 -3.3911433 -1.906261 4288085770
7.1187439 -4.0718074 -1.8976676 4288085770
5.6187286 -3.3359714 -1.9074559 4288085770
6.9919586 -4.027627 -1.9168463 4288085770
5.4608917 -3.2697916 -1.9026608 4288085770
6.7841644 -3.936383 -1.9141097 4288085770
5.3210754 -3.2126274 -1.901845 4288085770
6.5843964 -3.8471489 -1.9113607 4288085770
5.1742706 -3.1484632 -1.8960314 4288085770
6.4046173 -3.7659364 -1.9105849 4288085770
5.0374298 -3.0883071 -1.8922048 4288085770
6.2517853 -3.6977463 -1.9157767 4288085770
4.930603 -3.0441737 -1.8973444 4288085770
6.0910034 -3.6245551 -1.9159763 4288085770
4.8127747 -2.9900365 -1.8964899 4288085770
5.9212189 -3.5423594 -1.9121792 4288085770
4.6769562 -2.9258902 -1.8876545 4288085770
5.7564087 -3.4611731 -1.906374 4288085770
4.5561371 -2.8677576 -1.8817995 4288085770
5.6066132 -3.3870018 -1.9025505 4288085770
5.4738007 -3.3208427 -1.9037061 4288085770
5.3320007 -3.247683 -1.8988681 4288085770
5.2041779 -3.1805367 -1.8960125 4288085770
5.0753632 -3.1113927 -1.8911555 4288085770
4.9755402 -3.0572708 -1.8942652 4288085770
4.8627319 -2.9941416 -1.8923862 4288085770
4.7599335 -2.9360223 -1.8914955 4288085770
4.6421051 -2.8668981 -1.882617 4288085770
4.8674011 -0.71752679 -1.8686345 4288085770
4.9405212 -0.70062935 -1.8624601 4288085770
5.028656 -0.68574524 -1.8592594 4288085770
5.1387939 -0.67287648 -1.8630173 4288085770
5.2519226 -0.66001308 -1.8657696 4288085770
5.3700562 -0.64715552 -1.8685119 4288085770
5.4931946 -0.63430417 -1.871244 4288085770
5.6153107 -0.62045479 -1.8719766 4288085770
5.740448 -0.60661209 -1.8707032 4288085770
5.8785858 -0.59378052 -1.8724053 4288085770
4.8167572 -0.46752167 -1.8593283 4288085770
6.0327148 -0.58196342 -1.8770769 4288085770
4.9218903 -0.45465171 -1.8600965 4288085770
6.1838531 -0.57014728 -1.8787544 4288085770
5.0490417 -0.44380021 -1.8658237 4288085770
6.3409729 -0.55734038 -1.8794186 4288085770
5.1521454 -0.42993605 -1.8615944 4288085770
6.4971161 -0.54453504 -1.8780844 4288085770
5.2732849 -0.41808522 -1.8623321 4288085770
6.676239 -0.53175282 -1.8797045 4288085770
5.4204254 -0.40725625 -1.8690195 4288085770
6.8673706 -0.51998341 -1.882302 4288085770
5.5565491 -0.39442384 -1.8697255 4288085770
7.0715027 -0.50822973 -1.8848732 4288085770
5.7056885 -0.38260376 -1.8724072 4288085770
7.2766266 -0.49548221 -1.8844409 4288085770
5.8528137 -0.37078619 -1.8720927 4288085770
7.4967651 -0.48374951 -1.8859804 4288085770
6.0149384 -0.35898173 -1.8747482 4288085770
7.7299042 -0.47103405 -1.8864918 4288085770
6.1860657 -0.34818971 -1.8763874 4288085770
7.9780121 -0.45933688 -1.886975 4288085770
6.367218 -0.33640826 -1.8790047 4288085770
8.2381592 -0.44665539 -1.8864324 4288085770
6.5523376 -0.32463336 -1.880614 4288085770
8.5172729 -0.43499589 -1.8868532 4288085770
6.7364655 -0.3118633 -1.8782239 4288085770
8.8114014 -0.42235708 -1.8852427 4288085770
6.9696045 -0.30213678 -1.8857403 4288085770
9.1315308 -0.41074669 -1.8855815 4288085770
7.2027283 -0.29041648 -1.8892534 4288085770
9.4776611 -0.39916778 -1.8858678 4288085770
7.4138489 -0.27868891 -1.8858109 4288085770
9.8257751 -0.38760364 -1.8831511 4288085770
7.6649933 -0.26699305 -1.8872883 4288085770
10.196884 -0.37506199 -1.8783867 4288085770
7.8961029 -0.25528383 -1.8818061 4288085770
10.643036 -0.36460114 -1.8794751 4288085770
8.1622162 -0.24361241 -1.8792536 4288085770
11.136169 -0.35419238 -1.8834698 4288085770
8.4663696 -0.23197865 -1.8816249 4288085770
11.659302 -0.3438226 -1.8854039 4288085770
8.7664948 -0.22034609 -1.8800044 4288085770
12.244431 -0.3335247 -1.8892138 4288085770
9.0996094 -0.20975399 -1.8783193 4288085770
12.829559 -0.32223916 -1.8850224 4288085770
9.4757538 -0.19920361 -1.8825479 4288085770
13.496674 -0.31104779 -1.8836665 4288085770
9.8348541 -0.18765032 -1.8758092 4288085770
14.263809 -0.30197215 -1.8851135 4288085770
10.25499 -0.17615914 -1.875948 4288085770
15.175949 -0.29306185 -1.8922701 4288085770
10.744125 -0.16674483 -1.879952 4288085770
16.229095 -0.28531516 -1.9031458 4288085770
11.273254 -0.15637934 -1.8838742 4288085770
17.414246 -0.27673066 -1.9117551 4288085770
11.829376 -0.14505041 -1.8847404 4288085770
18.733398 -0.26830757 -1.9200962 4288085770
12.44751 -0.13479447 -1.8864844 4288085770
13.110641 -0.12459612 -1.886138 4288085770
13.857758 -0.11449552 -1.8876231 4288085770
14.720901 -0.10552859 -1.8928773 4288085770
15.731064 -0.095730424 -1.9028356 4288085770
16.822189 -0.086039424 -1.9066315 4288085770
18.177353 -0.077648878 -1.9208999 4288085770
18.664017 0.22296119 -1.913492 4288085770
17.255112 0.23751664 -1.8971629 4288085770
16.118225 0.25278473 -1.8933139 4288085770
15.028336 0.26598191 -1.877377 4288085770
14.165451 0.2799437 -1.8750064 4288085770
13.438583 0.29476285 -1.8793752 4288085770
12.743713 0.30853724 -1.8776836 4288085770
19.319031 0.48520088 -1.9039407 4288085770
12.09082 0.32125807 -1.871913 4288085770
18.082153 0.49759245 -1.9082832 4288085770
11.492935 0.33391571 -1.8650374 4288085770
16.694214 0.50310779 -1.8819211 4288085770
10.96405 0.34749961 -1.8610289 4288085770
15.61731 0.51129818 -1.8719633 4288085770
10.489166 0.36002707 -1.8599186 4288085770
14.686432 0.52132869 -1.8647244 4288085770
10.065292 0.37350035 -1.8607097 4288085770
13.918564 0.53418899 -1.8661711 4288085770
9.6374207 0.38596916 -1.8555095 4288085770
13.265686 0.54692841 -1.8733993 4288085770
9.2745361 0.39937377 -1.856184 4288085770
12.585815 0.55768061 -1.8686805 4288085770
8.9316711 0.41175556 -1.856822 4288085770
11.9319 0.56639338 -1.856915 4288085770
8.6187897 0.42510366 -1.8574009 4288085770
11.402023 0.577981 -1.8549094 4288085770
8.3409271 0.43941498 -1.8599122 4288085770
10.894135 0.58954239 -1.8518615 4288085770
8.0740662 0.45271397 -1.8624034 4288085770
10.452255 0.60103273 -1.8506882 4288085770
7.8291931 0.4659903 -1.8658528 4288085770
10.0504 0.61347914 -1.8504374 4288085770
7.5843201 0.47925997 -1.8653018 4288085770
9.6695251 0.62490058 -1.8491478 4288085770
7.3514404 0.49151635 -1.8647299 4288085770
9.3156281 0.63729191 -1.8478055 4288085770
7.1375885 0.5057528 -1.8651183 4288085770
8.9867554 0.64965606 -1.8474152 4288085770
6.9386902 0.51897216 -1.8654799 4288085770
8.7059021 0.66297054 -1.8499327 4288085770
6.7588196 0.53317523 -1.8688037 4288085770
8.4280243 0.6762805 -1.8514438 4288085770
6.5599518 0.5453887 -1.8651659 4288085770
8.1891479 0.69155216 -1.8568785 4288085770
6.4030762 0.55956697 -1.8694463 4288085770
7.9402771 0.70382667 -1.8563359 4288085770
6.2342072 0.57274961 -1.8677502 4288085770
7.7204132 0.71807218 -1.8587356 4288085770
6.0533295 0.58393741 -1.8600798 4288085770
7.4995422 0.73031378 -1.8571398 4288085770
5.878418 0.5941174 -1.8523991 4288085770
7.2976532 0.74453974 -1.8595049 4288085770
5.7595673 0.61025596 -1.8586037 4288085770
7.1017914 0.75775385 -1.8588603 4288085770
5.6226959 0.62340426 -1.8578467 4288085770
6.9259186 0.77194905 -1.8601758 4288085770
5.4808044 0.63555193 -1.8531005 4288085770
6.7480469 0.78514314 -1.8594966 4288085770
5.3409119 0.64769626 -1.8473504 4288085770
6.5761566 0.79932928 -1.8578045 4288085770
5.2350464 0.66181517 -1.850533 4288085770
6.4403229 0.81448507 -1.8630428 4288085770
5.133194 0.67692852 -1.8527064 4288085770
6.2744293 0.82665849 -1.857342 4288085770
5.0313263 0.6910398 -1.8538816 4288085770
6.1195374 0.83882236 -1.8536203 4288085770
4.9264374 0.70415235 -1.8530636 4288085770
5.9876556 0.85396814 -1.8548505 4288085770
4.808548 0.71626902 -1.8452711 4288085770
5.8457794 0.866117 -1.8511043 4288085770
4.7016602 0.7283771 -1.8404579 4288085770
5.7279053 0.88124514 -1.8513079 4288085770
4.6047821 0.7414763 -1.8366246 4288085770
5.6170502 0.89636564 -1.8514984 4288085770
5.4871521 0.90849829 -1.8457289 4288085770
5.369278 0.92062116 -1.8419366 4288085770
5.2574005 0.93473625 -1.8381302 4288085770
5.1555176 0.94884372 -1.8363047 4288085770
5.0556488 0.96294594 -1.8324752 4288085770
4.9757843 0.97903419 -1.8346055 4288085770
4.8949127 0.99512243 -1.8357375 4288085770
4.812027 1.0112092 -1.8348732 4288085770
4.7181396 1.0233006 -1.8280351 4288085770
4.6512909 1.0413742 -1.8301377 4288085770
4.5683899 1.0544555 -1.8252774 4288085770
4.606842 3.0100746 -1.7676215 4288085770
4.6970215 3.0689712 -1.7673755 4288085770
4.7982178 3.1328597 -1.770102 4288085770
4.8843536 3.1867533 -1.7648704 4288085770
4.9815369 3.2456388 -1.762612 4288085770
5.1047516 3.3185043 -1.7662859 4288085770
5.2329559 3.3933644 -1.7699479 4288085770
5.3451233 3.4582324 -1.7666537 4288085770
5.4712982 3.5280867 -1.765327 4288085770
5.6004944 3.5989389 -1.7639935 4288085770
4.5709534 3.0640731 -1.7646464 4288085770
5.7546997 3.6827683 -1.766596 4288085770
4.6891479 3.1259465 -1.7693454 4288085770
5.920929 3.7715883 -1.7711693 4288085770
4.8023376 3.182817 -1.7690609 4288085770
6.0941315 3.8623986 -1.7747273 4288085770
4.9225006 3.2426815 -1.7697594 4288085770
6.2933807 3.966187 -1.7832196 4288085770
5.0446777 3.3025441 -1.7704546 4288085770
6.5626984 4.1089201 -1.8065281 4288085770
5.1788635 3.3663945 -1.7721224 4288085770
6.7569122 4.2057047 -1.8080401 4288085770
5.3060455 3.4252486 -1.7708101 4288085770
6.9661407 4.3074746 -1.8105179 4288085770
5.4472198 3.4900899 -1.7714639 4288085770
7.2464447 4.448185 -1.8268104 4288085770
5.5914001 3.5539269 -1.771114 4288085770
7.455658 4.5449457 -1.823296 4288085770
5.7375793 3.6167588 -1.7687621 4288085770
7.6768799 4.6466928 -1.8197528 4288085770
5.9067841 3.6915736 -1.7723511 4288085770
7.8310089 4.7064915 -1.7993922 4288085770
6.1070099 3.7803631 -1.781864 4288085770
8.0662384 4.8092203 -1.7938228 4288085770
6.2872009 3.8561635 -1.7834322 4288085770
8.3244629 4.9219289 -1.7911973 4288085770
6.510437 3.9529305 -1.794892 4288085770
8.6287231 5.0555949 -1.7944584 4288085770
6.7747345 4.0706606 -1.8122476 4288085770
8.9560242 5.1992383 -1.7986637 4288085770
6.9899445 4.156425 -1.8157387 4288085770
9.3163147 5.355845 -1.803791 4288085770
7.2151642 4.2441783 -1.819209 4288085770
9.6635742 5.501462 -1.804958 4288085770
7.4023285 4.3089576 -1.8117816 4288085770
10.023849 5.6490598 -1.8040992 4288085770
7.6065216 4.3807216 -1.8063135 4288085770
10.38913 5.7946496 -1.8002344 4288085770
7.7926636 4.4374976 -1.7948999 4288085770
10.824432 5.9721723 -1.8031975 4288085770
8.0158386 4.5132413 -1.7903922 4288085770
11.268738 6.1486816 -1.8041462 4288085770
8.2900696 4.6119413 -1.7937593 4288085770
11.781082 6.3541255 -1.8119304 4288085770
8.5653076 4.7056375 -1.795132 4288085770
12.304428 6.5585513 -1.814697 4288085770
8.874527 4.8143015 -1.8004221 4288085770
12.923843 6.8048825 -1.82523 4288085770
9.2197876 4.9359303 -1.8086286 4288085770
13.499176 7.0202451 -1.8238881 4288085770
9.5580292 5.0485616 -1.8128608 4288085770
14.100525 7.2415786 -1.8224907 4288085770
9.9302979 5.175158 -1.8200121 4288085770
14.816956 7.5097966 -1.8278189 4288085770
10.248505 5.2677984 -1.8153106 4288085770
15.565369 7.7829757 -1.8310833 4288085770
10.554703 5.3494473 -1.8066469 4288085770
10.911911 5.4530473 -1.8038599 4288085770
11.307144 5.5676098 -1.8039888 4288085770
11.747406 5.6981292 -1.8080138 4288085770
12.185669 5.8216443 -1.8080534 4288085770
12.692947 5.9690957 -1.8159342 4288085770
13.215225 6.1165285 -1.8217888 4288085770
13.755508 6.2639375 -1.8266113 4288085770
14.301804 6.4053388 -1.8284326 4288085770
14.931107 6.5756545 -1.8360631 4288085770
15.526382 6.7210011 -1.8367915 4288085770
16.179672 6.8812871 -1.840395 4288085770
16.776917 7.0116191 -1.8341429 4288085770
17.452209 7.1628737 -1.8327205 4288085770
18.257538 7.3560033 -1.8430052 4288085770
19.14389 7.5660443 -1.8541207 4288085770
19.44014 -3.1623068 -1.9488196 4288085770
18.756241 -3.1715641 -1.9500439 4288085770
18.145355 -3.185894 -1.9561465 4288085770
17.530472 -3.1912255 -1.9582429 4288085770
16.867584 -3.1805143 -1.9533997 4288085770
16.2117 -3.1608157 -1.9455311 4288085770
15.59082 -3.1411548 -1.9376001 4288085770
15.026947 -3.1245508 -1.933573 4288085770
14.429062 -3.0929215 -1.9215839 4288085770
13.964188 -3.0804183 -1.9223878 4288085770
13.505325 -3.0659223 -1.9231784 4288085770
13.063446 -3.0474458 -1.9229326 4288085770
12.642593 -3.0289924 -1.9226501 4288085770
18.909073 -4.5457358 -1.9628417 4288085770
12.240723 -3.0095582 -1.9233322 4288085770
18.050293 -4.4488087 -1.9612162 4288085770
11.888855 -2.9971728 -1.9279366 4288085770
17.258499 -4.358952 -1.9614825 4288085770
5.5744476 -2.354666 -1.8797505 4288085770
5.446579 -2.3195622 -1.8819489 4288085770
5.3117371 -2.2814548 -1.8811564 4288085770
5.177887 -2.241349 -1.8793604 4288085770
5.054657 -2.2033775 -1.8776681 4288085770
5.0315094 0.0051960945 -1.8410115 4288085770
5.143631 0.018100262 -1.8388135 4288085770
5.2807465 0.029990673 -1.8435748 4288085770
5.4208832 0.040876985 -1.8463316 4288085770
5.5460052 0.053769946 -1.8431122 4288085770
5.6981354 0.065645933 -1.8448484 4288085770
5.8732605 0.078507662 -1.8515451 4288085770
6.0383911 0.090373278 -1.8532596 4288085770
5.0094299 0.11018503 -1.8409789 4288085770
6.216507 0.10222924 -1.8559525 4288085770
5.1325531 0.12108159 -1.8397646 4288085770
6.3956451 0.11508274 -1.856643 4288085770
5.2796783 0.1309644 -1.8445113 4288085770
6.5907593 0.12692451 -1.8583076 4288085770
5.4248047 0.14084589 -1.8462613 4288085770
6.8008881 0.13975477 -1.8609464 4288085770
5.572937 0.15072417 -1.8470066 4288085770
7.0340271 0.15156984 -1.8665473 4288085770
5.7520599 0.16158319 -1.853699 4288085770
7.2531433 0.16438961 -1.8651714 4288085770
5.9241791 0.17044401 -1.856405 4288085770
7.5112762 0.17718458 -1.8707302 4288085770
6.0932922 0.18030453 -1.8561156 4288085770
7.7393951 0.18799376 -1.8653414 4288085770
6.2794342 0.19015479 -1.8587973 4288085770
8.0004883 0.19977951 -1.8628967 4288085770
6.4845581 0.19999027 -1.8624477 4288085770
8.2726135 0.21255517 -1.8594327 4288085770
6.679657 0.20882916 -1.8611162 4288085770
8.5687408 0.22431374 -1.8579299 4288085770
6.912796 0.21764374 -1.8657207 4288085770
8.8898621 0.23605156 -1.8553853 4288085770
7.1609192 0.22744679 -1.8712997 4288085770
9.2369843 0.24777055 -1.8547974 4288085770
7.4040375 0.23624969 -1.8718882 4288085770
9.6150818 0.26046467 -1.854157 4288085770
7.6231384 0.24306369 -1.863519 4288085770
10.038208 0.27312613 -1.8574414 4288085770
7.8952789 0.25084329 -1.8640604 4288085770
10.497345 0.28575802 -1.8586662 4288085770
8.16539 0.25862217 -1.8616054 4288085770
10.984467 0.29836702 -1.8598444 4288085770
8.4745026 0.2663722 -1.8620851 4288085770
11.51561 0.31094122 -1.8609498 4288085770
8.7896118 0.27311492 -1.8595564 4288085770
12.147736 0.32444119 -1.868885 4288085770
9.1277313 0.27984095 -1.8579893 4288085770
12.827866 0.33790207 -1.875741 4288085770
9.5008545 0.28653932 -1.8573639 4288085770
13.526978 0.35033989 -1.8735671 4288085770
9.9269714 0.2931993 -1.8606505 4288085770
14.258102 0.3617487 -1.867341 4288085770
10.372086 0.29884243 -1.8619068 4288085770
15.171234 0.37602258 -1.8718088 4288085770
10.850204 0.30345845 -1.8621089 4288085770
16.256378 0.39116549 -1.8829892 4288085770
11.390335 0.30902815 -1.865207 4288085770
17.51152 0.40717554 -1.8968852 4288085770
11.981445 0.31355715 -1.8682218 4288085770
18.929657 0.42405391 -1.9085097 4288085770
12.705597 0.31898975 -1.8820138 4288085770
13.397705 0.32043481 -1.8808639 4288085770
14.110794 0.32085991 -1.8756804 4288085770
14.976929 0.32116842 -1.8762426 4288085770
16.066055 0.32231379 -1.8924325 4288085770
17.220184 0.32039976 -1.8995183 4288085770
18.615341 0.31830454 -1.9182034 4288085770
14.121155 -5.431221 -0.099561468 4293729569
14.152405 -5.4446049 -0.85152531 4293729569
14.165405 -5.3402295 -0.13241525 4293729569
14.155655 -5.3385844 -0.88143206 4293729569
19.736008 0.64148164 -1.9054518 4288085770
18.635162 0.68028736 -1.9181893 4288085770
17.328247 0.70321274 -1.8932707 4288085770
16.268356 0.72896886 -1.8809528 4288085770
15.352463 0.75362301 -1.8724051 4288085770
14.528595 0.77721 -1.8637102 4288085770
13.873718 0.80468321 -1.8657408 4288085770
13.227829 0.82714438 -1.8617609 4288085770
12.644974 0.84956145 -1.8586798 4288085770
19.191376 1.3108463 -1.8697996 4288085770
12.130112 0.87293005 -1.8574889 4288085770
18.194534 1.3275714 -1.8783886 4288085770
11.595215 0.890306 -1.8473351 4288085770
17.008591 1.3234079 -1.8542976 4288085770
11.194336 0.91459489 -1.8509605 4288085770
16.121704 1.3320422 -1.8497162 4288085770
10.778473 0.93389106 -1.8486137 4288085770
15.271805 1.3376458 -1.8390777 4288085770
10.395584 0.95416164 -1.8452134 4288085770
14.543915 1.3471642 -1.8332403 4288085770
10.097733 0.97837949 -1.8526733 4288085770
13.917038 1.3596134 -1.8322382 4288085770
9.7858429 0.99960136 -1.8521583 4288085770
13.282135 1.3670614 -1.822253 4288085770
9.4839783 1.0188155 -1.8516288 4288085770
12.747238 1.3794422 -1.8191034 4288085770
9.1950989 1.0380189 -1.8490784 4288085770
12.292374 1.3957691 -1.821822 4288085770
8.9232178 1.0572095 -1.8465006 4288085770
11.826492 1.4070981 -1.8165624 4288085770
8.6513367 1.0733984 -1.8409255 4288085770
11.361588 1.4154236 -1.8073035 4288085770
8.4414825 1.0965497 -1.8452451 4288085770
11.011719 1.4336748 -1.8098521 4288085770
8.2395935 1.1176932 -1.8475537 4288085770
10.690857 1.4529059 -1.8133534 4288085770
8.0487518 1.1398294 -1.8498435 4288085770
10.372971 1.469131 -1.8128523 4288085770
7.8578644 1.1589639 -1.8501358 4288085770
10.118118 1.4913177 -1.820245 4288085770
7.67099 1.1780932 -1.8484218 4288085770
9.8662415 1.5124991 -1.8246342 4288085770
7.5271301 1.2021985 -1.854635 4288085770
9.6233826 1.5326731 -1.8280094 4288085770
7.3592377 1.2213149 -1.8538907 4288085770
9.3644867 1.5498548 -1.8264129 4288085770
7.205368 1.2424231 -1.8551221 4288085770
9.1056213 1.564034 -1.8208185 4288085770
7.0475006 1.2615311 -1.8523614 4288085770
8.8527222 1.5762076 -1.8142163 4288085770
6.8846283 1.2776403 -1.8466113 4288085770
8.6568604 1.5973468 -1.8165153 4288085770
6.7607574 1.2997277 -1.848794 4288085770
8.4729919 1.6184776 -1.8187952 4288085770
6.6038666 1.3148303 -1.8400352 4288085770
8.2681122 1.632617 -1.8131143 4288085770
6.5200043 1.3428941 -1.8501489 4288085770
8.1152344 1.6567266 -1.8173423 4288085770
6.3671112 1.3559923 -1.839385 4288085770
7.9603882 1.6778352 -1.8185755 4288085770
6.2642365 1.3780634 -1.840534 4288085770
7.7935028 1.6959496 -1.8158306 4288085770
6.1263428 1.3911514 -1.8307462 4288085770
7.6396179 1.7150545 -1.813064 4288085770
6.0184631 1.4112232 -1.8279049 4288085770
7.5037537 1.7361486 -1.8132669 4288085770
5.92659 1.4322853 -1.828037 4288085770
7.375885 1.7582374 -1.8134563 4288085770
5.8197174 1.4503539 -1.8221956 4288085770
7.2600098 1.7823188 -1.8156247 4288085770
5.7508545 1.476403 -1.827287 4288085770
7.1371307 1.8034022 -1.8138068 4288085770
5.6399536 1.4904716 -1.8174552 4288085770
7.0182495 1.8234816 -1.8109832 4288085770
5.559082 1.5115247 -1.8165698 4288085770
6.9223785 1.8495483 -1.8131181 4288085770
5.4782104 1.5315771 -1.8136849 4288085770
6.8415375 1.8776069 -1.8182273 4288085770
5.3853149 1.5486348 -1.8068221 4288085770
6.7266388 1.8966806 -1.8123984 4288085770
5.32547 1.5736749 -1.8078997 4288085770
6.6357727 1.9207425 -1.8125268 4288085770
5.2685699 1.5987129 -1.8099728 4288085770
6.5318756 1.940809 -1.8076794 4288085770
5.1927032 1.6177597 -1.8050808 4288085770
6.4320221 1.9608731 -1.8018254 4288085770
5.1388397 1.6427951 -1.806149 4288085770
6.3451385 1.9839294 -1.7989483 4288085770
5.0809784 1.6658311 -1.8042253 4288085770
6.2712555 2.0089784 -1.7980486 4288085770
5.0210876 1.6878684 -1.8013055 4288085770
6.2034149 2.0370228 -1.7981372 4288085770
6.1105042 2.0560789 -1.7892733 4288085770
6.0626526 2.0881126 -1.7933264 4288085770
5.9897766 2.1111574 -1.788427 4288085770
5.928894 2.1381958 -1.7855053 4288085770
5.8680267 2.1642327 -1.7825843 4288085770
5.8091431 2.1892681 -1.7786607 4288085770
5.7582703 2.2182989 -1.7757213 4288085770
5.7294159 2.2543182 -1.7787415 4288085770
5.6825409 2.2833457 -1.7757957 4288085770
5.636673 2.3123717 -1.7718483 4288085770
5.6178131 2.3503842 -1.7748507 4288085770
5.578949 2.3814049 -1.7708907 4288085770
5.5500793 2.4154215 -1.7699125 4288085770
5.5222168 2.4494362 -1.7679325 4288085770
5.5063629 2.4884448 -1.7689294 4288085770
5.4864807 2.5254536 -1.7669344 4288085770
5.4556274 2.5574675 -1.7609609 4288085770
5.4477692 2.5984702 -1.7619436 4288085770
5.4378967 2.639472 -1.7599295 4288085770
5.4460449 2.6874661 -1.7638812 4288085770
5.4421997 2.730464 -1.7628561 4288085770
5.4403381 2.7734604 -1.7608278 4288085770
5.4544983 2.8244491 -1.7637675 4288085770
5.472641 2.8774347 -1.7666996 4288085770
5.4887848 2.9294209 -1.7676356 4288085770
5.500946 2.9794083 -1.7665796 4288085770
5.5310974 3.0383854 -1.7694879 4288085770
5.5492554 3.0913677 -1.7684199 4288085770
5.5704041 3.145349 -1.7673465 4288085770
5.6055603 3.2073221 -1.7692446 4288085770
5.6256866 3.2603016 -1.7651736 4288085770
5.6628571 3.3232713 -1.7640676 4288085770
5.7110138 3.3922358 -1.7669398 4288085770
5.749176 3.4552026 -1.7638324 4288085770
5.7953339 3.5221663 -1.762709 4288085770
5.8574982 3.5991201 -1.7645526 4288085770
5.9146576 3.6720767 -1.7644073 4288085770
5.9878387 3.7550235 -1.7662288 4288085770
6.0700226 3.8429646 -1.769032 4288085770
6.1612091 3.9359002 -1.772817 4288085770
6.2814026 4.0478206 -1.7835416 4288085770
6.4506378 4.1877131 -1.8041658 4288085770
6.5308228 4.2746501 -1.7989732 4288085770
5.0602722 3.4736538 -1.7659397 4288085770
6.6530304 4.3865643 -1.8036944 4288085770
5.1304169 3.5456014 -1.7657743 4288085770
6.8242493 4.5294514 -1.8183137 4288085770
5.2135773 3.6255412 -1.7675821 4288085770
7.1305847 4.7582674 -1.8646517 4282675967
5.2897491 3.7004824 -1.7664047 4288085770
7.2988281 4.8991537 -1.8732772 4282675967
5.3759308 3.7814193 -1.7662067 4288085770
7.3689575 4.9780874 -1.8551071 4282675967
5.4721069 3.8683505 -1.7679884 4288085770
7.4300842 5.0490274 -1.8349571 4282675967
5.5722809 3.9562764 -1.7687628 4288085770
7.5382538 5.1499391 -1.8227094 4288085770
5.6814575 4.0501976 -1.7705184 4288085770
7.6293945 5.2388592 -1.8034978 4288085770
5.8136597 4.1581063 -1.7762264 4288085770
7.7555695 5.3487592 -1.7922144 4288085770
5.9978943 4.2999878 -1.7948254 4288085770
7.9107513 5.4766417 -1.7838708 4288085770
6.1911469 4.4488621 -1.8124051 4288085770
8.0929718 5.6215081 -1.7784714 4288085770
6.3173218 4.5497675 -1.809128 4288085770
8.3271942 5.7993431 -1.7799636 4288085770
6.4635162 4.6636634 -1.8098093 4288085770
8.5944519 5.9991565 -1.7853864 4288085770
6.8138733 4.915451 -1.8590596 4282675967
8.8797455 6.2089601 -1.7907727 4288085770
6.9300232 5.0063586 -1.8468063 4282675967
9.1889954 6.4337459 -1.7961096 4288085770
7.0762024 5.1142464 -1.8384922 4282675967
9.4862671 6.6485343 -1.7954731 4288085770
7.3695068 5.3230577 -1.8638663 4282675967
9.8125305 6.8803039 -1.7957776 4288085770
7.4185944 5.3619943 -1.8277595 4288085770
10.201843 7.1540351 -1.8019491 4288085770
7.5337219 5.4438944 -1.8055143 4288085770
10.544128 7.3927903 -1.7952225 4288085770
7.6798859 5.5437779 -1.788206 4288085770
10.982452 7.6944842 -1.7982947 4288085770
7.8970795 5.6916199 -1.7837478 4288085770
8.1403046 5.853447 -1.7822375 4288085770
8.4505768 6.0602345 -1.7905858 4288085770
8.7788544 6.2750087 -1.7988992 4288085770
9.1341248 6.504765 -1.8071581 4288085770
9.4233551 6.685555 -1.7985595 4288085770
9.7976379 6.9212956 -1.8017832 4288085770
10.21994 7.1840024 -1.8079101 4288085770
10.602203 7.4157329 -1.8021239 4288085770
11.068527 7.699409 -1.8051641 4288085770
19.263458 -1.608214 -1.9354198 4288085770
18.49057 -1.6446912 -1.9477034 4288085770
17.61467 -1.6621112 -1.9441411 4288085770
16.831757 -1.6775916 -1.9434266 4288085770
16.193863 -1.7001619 -1.9524806 4288085770
15.415955 -1.6986543 -1.9397459 4288085770
14.715057 -1.6981964 -1.9298866 4288085770
14.140167 -1.7048143 -1.9318271 4288085770
13.632294 -1.7124754 -1.9366589 4288085770
13.143387 -1.7181498 -1.9404588 4288085770
19.094925 -2.5181029 -1.935313 4288085770
12.668518 -1.7208344 -1.9432335 4288085770
18.149063 -2.481472 -1.9408278 4288085770
12.212631 -1.7205325 -1.9449754 4288085770
17.25621 -2.4438787 -1.9432557 4288085770
11.717728 -1.7092133 -1.9347734 4288085770
16.322342 -2.388268 -1.9317379 4288085770
11.183823 -1.6858751 -1.9146266 4288085770
15.471466 -2.3377118 -1.9220884 4288085770
10.766953 -1.6756045 -1.9092979 4288085770
14.753601 -2.2972386 -1.9202294 4288085770
10.434067 -1.6743824 -1.914839 4288085770
14.194763 -2.2768607 -1.9331253 4288085770
10.107178 -1.670166 -1.9183681 4288085770
13.621887 -2.2474792 -1.9390376 4288085770
9.8133087 -1.6679695 -1.9248447 4288085770
13.070023 -2.2151144 -1.9409137 4288085770
9.5004272 -1.6597644 -1.9253483 4288085770
12.538162 -2.179765 -1.9397554 4288085770
9.236557 -1.6555884 -1.9317751 4288085770
12.047302 -2.1484408 -1.9415331 4288085770
8.9816742 -1.651418 -1.9381871 4288085770
11.520432 -2.1041021 -1.9303603 4288085770
8.7248077 -1.6432486 -1.9415994 4288085770
11.050552 -2.0657976 -1.9250991 4288085770
8.4459229 -1.6290694 -1.9380436 4288085770
10.644684 -2.0345323 -1.9237382 4288085770
8.1280365 -1.6028726 -1.9225433 4288085770
10.259827 -2.0032806 -1.9233434 4288085770
7.8701477 -1.5867084 -1.9179518 4288085770
9.9389648 -1.9810665 -1.9308505 4288085770
7.6132507 -1.568547 -1.9103577 4288085770
9.6011047 -1.9518454 -1.9313805 4288085770
7.3823853 -1.5524002 -1.9067223 4288085770
9.3262329 -1.9336604 -1.9408154 4288085770
7.1754913 -1.5392666 -1.9070499 4288085770
9.0473633 -1.9104761 -1.9452534 4288085770
6.9846344 -1.526143 -1.9083517 4288085770
8.7344971 -1.8782749 -1.9417408 4288085770
6.7987366 -1.5130229 -1.9096453 4288085770
8.439621 -1.8460866 -1.9371989 4288085770
6.6308746 -1.5019124 -1.9139109 4288085770
8.1087494 -1.8038816 -1.9217086 4288085770
6.4409943 -1.4847938 -1.9092081 4288085770
7.8188782 -1.7677008 -1.9111557 4288085770
6.249115 -1.4646747 -1.9035068 4288085770
7.5679779 -1.7375414 -1.9075437 4288085770
6.0672302 -1.4445636 -1.8957891 4288085770
7.3331146 -1.7083923 -1.9039061 4288085770
5.9113464 -1.4294643 -1.8960323 4288085770
7.1252441 -1.6832582 -1.9042273 4288085770
5.7424622 -1.4093603 -1.8902938 4288085770
6.9443817 -1.663139 -1.909508 4288085770
5.5905762 -1.3912666 -1.8865285 4288085770
6.7535095 -1.6390166 -1.9098022 4288085770
5.4457092 -1.3741767 -1.8837526 4288085770
6.5736389 -1.6149021 -1.9090786 4288085770
5.297821 -1.355087 -1.8779805 4288085770
6.3837585 -1.5877833 -1.905369 4288085770
5.1729584 -1.3400085 -1.8781734 4288085770
6.2118988 -1.5626742 -1.9046319 4288085770
5.0490723 -1.3239307 -1.8783641 4288085770
6.0090179 -1.5285523 -1.8929389 4288085770
5.8651428 -1.5074596 -1.8951588 4288085770
5.7052765 -1.4813608 -1.8914013 4288085770
5.5553894 -1.4562681 -1.8886282 4288085770
5.3935242 -1.4271711 -1.8798721 4288085770
5.2586212 -1.4030885 -1.8770752 4288085770
5.1367645 -1.3820114 -1.8782594 4288085770
5.0018921 -1.3559304 -1.8724611 4288085770
5.0955353 0.60957074 -1.847132 4288085770
5.2126617 0.62349248 -1.8439376 4288085770
5.3327637 0.63641191 -1.840739 4288085770
5.4768829 0.6513207 -1.8445008 4288085770
5.6310272 0.66722369 -1.8482459 4288085770
5.7831573 0.68212652 -1.8499949 4288085770
5.942276 0.69602466 -1.8507335 4288085770
5.01828 0.62959743 -1.8482614 4288085770
6.1294098 0.71290874 -1.8574257 4288085770
5.1363831 0.63851857 -1.8460689 4288085770
6.3165436 0.72979212 -1.8621178 4288085770
5.2745056 0.64943075 -1.8488431 4288085770
6.4956665 0.74367642 -1.8608248 4288085770
5.4146423 0.66034079 -1.8496139 4288085770
6.6767731 0.75655818 -1.8575294 4288085770
5.5697632 0.67124248 -1.8523612 4288085770
6.8809052 0.77242923 -1.8591955 4288085770
5.7318878 0.68314099 -1.8570967 4288085770
7.1030273 0.78828931 -1.8618329 4288085770
5.8809967 0.69204354 -1.8548551 4288085770
7.3121338 0.80115438 -1.8584933 4288085770
6.0701294 0.70392752 -1.8625474 4288085770
7.5472717 0.81600451 -1.8581109 4288085770
6.2462616 0.71281505 -1.8632627 4288085770
7.7983704 0.83084559 -1.857703 4288085770
6.4493866 0.72468877 -1.8689332 4288085770
8.0414886 0.84468889 -1.8533087 4288085770
6.6114807 0.73058128 -1.8616731 4288085770
8.3016052 0.8575213 -1.847888 4288085770
6.8105927 0.73945451 -1.8623521 4288085770
8.5987244 0.87233329 -1.8474073 4288085770
7.0297241 0.74931717 -1.8649986 4288085770
8.9008331 0.88714147 -1.8439188 4288085770
7.2558441 0.75717402 -1.8656354 4288085770
9.259964 0.90391684 -1.8463383 4288085770
7.4649658 0.76203728 -1.8593016 4288085770
9.6470947 0.92167711 -1.8507125 4288085770
7.7030792 0.76888561 -1.8579204 4288085770
10.062241 0.93941975 -1.8540423 4288085770
7.953186 0.77572656 -1.85552 4288085770
10.437332 0.95117974 -1.8464403 4288085770
8.2113037 0.78056121 -1.8521085 4288085770
10.86145 0.96591163 -1.8407583 4288085770
8.4843903 0.78538752 -1.8486733 4288085770
11.363571 0.98259997 -1.8429511 4288085770
8.7915039 0.79119372 -1.8481834 4288085770
11.952713 1.0042384 -1.851002 4288085770
9.1216278 0.79598737 -1.8486574 4288085770
12.508835 1.0198894 -1.8471098 4288085770
9.4737549 0.80076742 -1.8490968 4288085770
13.124954 1.0355043 -1.8441226 4288085770
9.8478546 0.80453324 -1.8495018 4288085770
13.871094 1.0580459 -1.850924 4288085770
10.245972 0.80728531 -1.8498697 4288085770
14.614197 1.0735829 -1.8477354 4288085770
10.682098 0.81001425 -1.8511772 4288085770
15.499344 1.095037 -1.8513172 4288085770
11.151215 0.81272388 -1.8534329 4288085770
16.534485 1.1204023 -1.8606582 4288085770
11.652328 0.81241155 -1.8526392 4288085770
17.866653 1.1575959 -1.8875189 4288085770
12.255447 0.81604314 -1.8616815 4288085770
19.116806 1.1808255 -1.8895202 4288085770
12.841568 0.81367993 -1.8627546 4288085770
13.511673 0.81126642 -1.865695 4288085770
14.181793 0.80384898 -1.8616388 4288085770
14.990906 0.79935193 -1.8663602 4288085770
15.920029 0.79278326 -1.8748925 4288085770
16.96315 0.78414679 -1.8852456 4288085770
18.307312 0.78033662 -1.9151175 4288085770
19.432404 0.75763798 -1.9063509 4288085770
12.870621 -7.8757529 -1.7010411 4293729569
12.498901 -7.5685372 -1.7034305 4293729569
12.190201 -7.3033566 -1.7087493 4293729569
11.900452 -7.0501881 -1.7130462 4293729569
11.687698 -6.8440614 -1.7232547 4293729569
11.444946 -6.6229205 -1.7274992 4293729569
11.222183 -6.4137912 -1.7307203 4293729569
11.039444 -6.2296829 -1.7388958 4293729569
10.818665 -6.0265579 -1.7371169 4293729569
10.634888 -5.8454537 -1.7382953 4293729569
10.473083 -5.6773605 -1.7404478 4293729569
10.350296 -5.5332894 -1.7465559 4293729569
10.222504 -5.3862152 -1.7496698 4293729569
15.205124 -7.7691317 -1.7086284 4293729569
10.124695 -5.2551575 -1.7567482 4293729569
14.969376 -7.5329933 -1.7148552 4293729569
10.023895 -5.1240997 -1.7598307 4293729569
11.931961 -5.9314165 -1.4034611 4293729569
9.9440765 -5.0050535 -1.7658889 4293729569
11.967148 -5.854423 -1.4303743 4293729569
9.8662567 -4.8880081 -1.7709452 4293729569
12.027328 -5.7874432 -1.4592558 4293729569
9.7994537 -4.77597 -1.7749879 4293729569
12.041519 -5.7004418 -1.4801946 4293729569
9.7736206 -4.6849523 -1.7849821 4293729569
12.028732 -5.5984268 -1.4971645 4293729569
9.7227936 -4.5829229 -1.7890066 4293729569
12.087921 -5.5304503 -1.5200475 4293729569
9.6609802 -4.4758897 -1.7900448 4293729569
12.950058 -5.8148813 -1.6399434 4293729569
9.6341553 -4.3848734 -1.7960399 4293729569
12.225281 -5.3975081 -1.5647875 4293729569
9.6123199 -4.2968612 -1.8010298 4293729569
13.086426 -5.6659384 -1.684677 4293729569
9.6074982 -4.2148561 -1.8089976 4293729569
12.787643 -5.4367833 -1.6589981 4293729569
9.7366791 -4.190917 -1.8388009 4293729569
12.690811 -5.2947321 -1.6550703 4293729569
9.9418335 -4.1960125 -1.8815088 4293729569
13.350967 -5.4600625 -1.7462002 4293729569
10.173019 -4.2081232 -1.9271824 4288085770
13.287155 -5.3280287 -1.7452295 4293729569
10.294189 -4.1741805 -1.9529924 4288085770
13.42334 -5.274097 -1.7670087 4293729569
10.278351 -4.0831747 -1.9519725 4288085770
12.659546 -4.8777132 -1.672919 4293729569
10.265518 -3.9941716 -1.9499488 4288085770
12.725708 -4.8017478 -1.6827884 4293729569
10.289673 -3.9191861 -1.9538789 4288085770
12.790894 -4.7247825 -1.6916587 4293729569
10.265823 -3.827179 -1.9478698 4288085770
12.71106 -4.5957456 -1.6807132 4293729569
10.289978 -3.7531948 -1.9488006 4288085770
13.541214 -4.7851667 -1.7826107 4293729569
10.288132 -3.6691995 -1.9437637 4288085770
13.621368 -4.706212 -1.7884589 4293729569
10.33429 -3.6022272 -1.9466665 4288085770
13.667542 -4.6162405 -1.7883511 4293729569
10.359451 -3.5282452 -1.9455957 4288085770
13.789703 -4.5493088 -1.7961448 4293729569
10.392593 -3.4552679 -1.9435143 4288085770
13.900864 -4.4783721 -1.8009526 4293729569
10.453735 -3.3913052 -1.9453967 4288085770
14.081024 -4.4254713 -1.8126699 4293729569
10.499893 -3.3233356 -1.9432991 4288085770
14.382172 -4.4096317 -1.8382311 4293729569
10.555054 -3.2583718 -1.9411902 4288085770
14.814331 -4.4278598 -1.8776205 4293729569
10.640198 -3.2004213 -1.9440413 4288085770
15.269501 -4.4471006 -1.9169774 4288085770
10.683334 -3.1284528 -1.9379461 4288085770
15.629669 -4.4312954 -1.9424543 4288085770
10.781494 -3.0735106 -1.9397802 4288085770
15.818817 -4.3654041 -1.945153 4288085770
10.849625 -3.0085552 -1.9356527 4288085770
15.99295 -4.294507 -1.9438715 4288085770
10.956772 -2.9536188 -1.9364743 4288085770
16.203125 -4.2276282 -1.94554 4288085770
11.060928 -2.8956819 -1.9352984 4288085770
16.417267 -4.1617541 -1.9442034 4288085770
11.167068 -2.838747 -1.9331207 4288085770
16.688431 -4.1069088 -1.9477906 4288085770
11.273193 -2.7798123 -1.9299421 4288085770
17.009567 -4.0620909 -1.9553113 4288085770
11.378342 -2.7198782 -1.9247644 4288085770
17.251709 -3.9942341 -1.9509342 4288085770
11.512482 -2.6669586 -1.9235489 4288085770
17.612854 -3.9514389 -1.9573984 4288085770
11.71463 -2.6270723 -1.9312418 4288085770
17.921997 -3.890619 -1.9549291 4288085770
11.887772 -2.5771739 -1.9319715 4288085770
18.237137 -3.828804 -1.9494507 4288085770
12.041916 -2.5232668 -1.9287274 4288085770
18.598282 -3.7730136 -1.9479098 4288085770
12.227051 -2.4733763 -1.9274404 4288085770
19.013412 -3.7242529 -1.947295 4288085770
12.419189 -2.4234893 -1.9261436 4288085770
19.460571 -3.6755106 -1.9466345 4288085770
12.637329 -2.3746164 -1.92681 4288085770
19.886703 -3.6187594 -1.9400008 4288085770
12.89447 -2.3317637 -1.9304237 4288085770
13.091599 -2.274883 -1.9231172 4288085770
13.462753 -2.2450895 -1.9375734 4288085770
13.779892 -2.2022703 -1.9421017 4288085770
14.044037 -2.1484268 -1.9367011 4288085770
14.352173 -2.0966065 -1.9342384 4288085770
14.710312 -2.0498121 -1.9357069 4288085770
15.125458 -2.0060487 -1.9400954 4288085770
15.571609 -1.9633024 -1.9454405 4288085770
16.072754 -1.9205863 -1.9527073 4288085770
16.573883 -1.8728722 -1.955972 4288085770
17.055038 -1.817151 -1.9512618 4288085770
17.637161 -1.7664833 -1.9534099 4288085770
18.191315 -1.7068033 -1.9485943 4288085770
18.807465 -1.6471589 -1.9436908 4288085770
19.485596 -1.5865487 -1.9396985 4288085770
19.994812 1.2578821 -1.8756645 4288085770
19.118958 1.3143411 -1.8786893 4288085770
18.312103 1.3677635 -1.8806331 4288085770
17.370209 1.403244 -1.8607435 4288085770
16.649323 1.4456162 -1.8545883 4288085770
15.951447 1.4829743 -1.8454072 4288085770
15.306549 1.5183036 -1.8341637 4288085770
14.769684 1.5575807 -1.83179 4288085770
14.292816 1.5978272 -1.830344 4288085770
13.805939 1.6320755 -1.8229122 4288085770
13.353073 1.6653066 -1.8164396 4288085770
12.93718 1.6985176 -1.8099235 4288085770
12.609329 1.738687 -1.8112998 4288085770
19.967957 2.7558765 -1.8531826 4288085770
12.288437 1.7758522 -1.8116688 4288085770
19.141068 2.7683005 -1.8431625 4288085770
11.92157 1.8040352 -1.8010956 4288085770
18.444183 2.78866 -1.837985 4288085770
11.582672 1.8322048 -1.7924891 4288085770
17.77829 2.8080015 -1.8307707 4288085770
11.310806 1.8673427 -1.7897999 4288085770
17.232422 2.8372846 -1.83041 4288085770
11.075943 1.9044631 -1.7910659 4288085770
16.699539 2.8635583 -1.8270345 4288085770
10.85907 1.9425745 -1.7923105 4288085770
16.211655 2.8888073 -1.8226062 4288085770
10.646194 1.9806826 -1.7925498 4288085770
15.786789 2.9220271 -1.8220998 4288085770
10.452316 2.0187807 -1.7927669 4288085770
15.306885 2.9402699 -1.812664 4288085770
10.300476 2.0628605 -1.7989316 4288085770
14.990021 2.9844356 -1.8180251 4288085770
10.146606 2.1049397 -1.8030993 4288085770
14.63414 3.0166168 -1.8144368 4288085770
9.9967499 2.1470165 -1.8052621 4288085770
14.311295 3.0517817 -1.8128079 4288085770
9.8478699 2.1870914 -1.8064246 4288085770
14.016403 3.0879316 -1.8111458 4288085770
9.7060242 2.2281632 -1.8075782 4288085770
13.72554 3.1240792 -1.8084784 4288085770
9.5761414 2.2692285 -1.8097175 4288085770
13.437668 3.1572237 -1.8028084 4288085770
9.4412689 2.3082957 -1.8088638 4288085770
13.204803 3.1993427 -1.8030698 4288085770
9.2944031 2.3443666 -1.8040247 4288085770
12.975922 3.2394581 -1.8003271 4288085770
9.1635437 2.3814297 -1.8011664 4288085770
12.750031 3.2775707 -1.7965816 4288085770
9.0406647 2.4184899 -1.798299 4288085770
12.541183 3.3176746 -1.793815 4288085770
8.9297791 2.4585423 -1.7964158 4288085770
12.355301 3.3617673 -1.7910198 4288085770
8.8329163 2.5005898 -1.7955154 4288085770
12.19342 3.4098487 -1.7901943 4288085770
8.7530518 2.5456295 -1.7975938 4288085770
12.017578 3.4519348 -1.785388 4288085770
8.6731873 2.5906682 -1.797672 4288085770
11.878708 3.5020041 -1.7845346 4288085770
8.5933228 2.634706 -1.7967503 4288085770
11.756836 3.5560651 -1.7846594 4288085770
8.5244446 2.6817384 -1.7968147 4288085770
11.613968 3.6031337 -1.7798115 4288085770
8.4835968 2.7357593 -1.801843 4288085770
11.525116 3.663178 -1.7808951 4288085770
8.4057465 2.7777944 -1.79792 4288085770
11.445267 3.7262177 -1.7829666 4288085770
8.3658752 2.8328142 -1.8009467 4288085770
11.362396 3.7892542 -1.7830411 4288085770
8.2949982 2.8758407 -1.7960134 4288085770
11.283539 3.8512917 -1.7821083 4288085770
8.2641449 2.9328561 -1.7990259 4288085770
11.205673 3.9123297 -1.7801747 4288085770
8.1982574 2.975884 -1.7930857 4288085770
11.167831 3.988348 -1.7821878 4288085770
8.1493988 3.0249052 -1.7901227 4288085770
11.123978 4.0603695 -1.7832097 4288085770
8.1075287 3.0769234 -1.7881504 4288085770
11.113159 4.1443758 -1.7881877 4288085770
8.0786591 3.1319342 -1.7861618 4288085770
11.075287 4.2173929 -1.7872026 4288085770
8.0578308 3.1909428 -1.7861617 4288085770
11.082458 4.3093891 -1.7911561 4288085770
8.0349579 3.2479515 -1.7851648 4288085770
11.072617 4.394393 -1.7921326 4288085770
8.0441132 3.3179469 -1.7891252 4288085770
11.102783 4.4933782 -1.7970566 4288085770
8.0272522 3.3769507 -1.7861208 4288085770
11.123947 4.5903668 -1.7999916 4288085770
8.0254059 3.4429493 -1.7860956 4288085770
11.123093 4.6783638 -1.7979566 4288085770
8.0365448 3.5139422 -1.7880533 4288085770
11.144257 4.7773514 -1.7968909 4288085770
8.035675 3.5789385 -1.7850273 4288085770
11.156418 4.8703423 -1.7948384 4288085770
8.0408173 3.648932 -1.7829924 4288085770
11.19458 4.9773197 -1.7937495 4288085770
8.071991 3.7289152 -1.7859228 4288085770
11.234741 5.0842981 -1.7926583 4288085770
8.0821381 3.7989054 -1.781882 4288085770
11.273911 5.1912732 -1.7885685 4288085770
8.0882721 3.8688974 -1.7778459 4288085770
11.353073 5.3172312 -1.7904238 4288085770
8.1144104 3.9468803 -1.774783 4288085770
11.41626 5.4381952 -1.7872996 4288085770
8.1715851 4.0408502 -1.7776773 4288085770
11.515427 5.5751433 -1.7881272 4288085770
8.2127228 4.1278257 -1.7765931 4288085770
11.62262 5.7180872 -1.7879424 4288085770
8.2758942 4.2257915 -1.7784785 4288085770
11.753815 5.8740196 -1.7897245 4288085770
8.3510742 4.3297524 -1.7813476 4288085770
11.904007 6.0409427 -1.7934796 4288085770
