# .PCD v0.7 - Point Cloud Data file format
VERSION 0.7
FIELDS x y z rgb
SIZE 4 4 4 4
TYPE F F F U
COUNT 1 1 1 1
WIDTH 1114
HEIGHT 1
VIEWPOINT 0 0 0 1 0 0 0
POINTS 1114
DATA ascii
4.5446663 2.981391 -1.7053795 4288085770
10.662415 4.2735319 -1.6663837 4288085770
4.9858208 3.00723 -1.712559 4288085770
11.555569 4.3580036 -1.6642916 4288085770
5.5089951 3.044107 -1.7263217 4288085770
12.35466 4.4123588 -1.6488962 4288085770
6.1402206 3.0960686 -1.7515297 4288085770
6.6583633 3.1178617 -1.7584989 4288085770
7.11446 3.1205554 -1.7549176 4288085770
7.5405273 3.1111801 -1.7445896 4288085770
8.03862 3.1088614 -1.7419293 4288085770
8.4936867 3.0934694 -1.7315784 4288085770
8.8236809 3.0499535 -1.7060044 4288085770
9.1546707 3.001425 -1.6794899 4288085770
9.6027031 2.9669633 -1.6634026 4288085770
10.098743 2.9335103 -1.6501403 4288085770
10.724827 2.9121034 -1.6462862 4288085770
11.339897 2.8836794 -1.6405573 4288085770
11.964951 2.845212 -1.6319213 4288085770
12.630005 2.8027208 -1.6231999 4288085770
12.721283 -7.3468113 -1.8198328 4288085770
12.002502 -7.2062826 -1.8295007 4288085770
11.344723 -7.0767775 -1.8401008 4288085770
10.642933 -6.9203253 -1.8445098 4288085770
9.9551315 -6.7589321 -1.8448086 4288085770
7.8754196 -6.1078424 -1.7576454 4293729569
7.2626038 -5.9465446 -1.7536905 4293729569
6.6567841 -5.7772903 -1.7466109 4293729569
6.1209602 -5.6310253 -1.7435844 4293729569
5.5741386 -5.472806 -1.7364438 4293729569
4.8900261 -5.2060165 -1.0563414 4293729569
4.804245 -5.2028923 -1.6946483 4293729569
4.786274 -5.2343483 -1.105056 4293729569
4.6234741 -5.1973591 -1.7291956 4293729569
4.7515297 -5.2926426 -1.159915 4293729569
4.2636642 -5.104043 -1.7382407 4293729569
4.7648048 -5.3728752 -1.2218885 4293729569
3.8718376 -4.990798 -1.7401426 4293729569
3.4459991 -4.8546371 -1.7338698 4293729569
8.7066536 -7.4313831 -1.7615361 4293729569
3.1121788 -4.7564001 -1.7377641 4293729569
7.7839012 -7.0710964 -1.7421203 4293729569
2.8163567 -4.6721334 -1.7457061 4293729569
7.046154 -6.7897358 -1.7370739 4293729569
2.514534 -4.5819025 -1.7505929 4293729569
6.3213882 -6.5064468 -1.7269585 4293729569
2.2477112 -4.5036545 -1.7585123 4293729569
5.7586288 -6.2940826 -1.7301893 4293729569
2.0379028 -4.4503222 -1.7755537 4293729569
5.2318611 -6.0947409 -1.7334626 4293729569
1.8821106 -4.4229202 -1.8007393 4293729569
4.688076 -5.87749 -1.7285666 4293729569
1.7633324 -4.4114504 -1.8330011 4293729569
4.2192955 -5.6941929 -1.7308452 4293729569
1.6735649 -4.4129324 -1.8703284 4288085770
3.6024704 -5.4251575 -1.7055416 4293729569
1.5737915 -4.4084349 -1.9056139 4288085770
3.2756882 -5.3038006 -1.719121 4293729569
1.4430046 -4.3840218 -1.9327528 4288085770
2.9529076 -5.179472 -1.7306488 4293729569
1.2131805 -4.3028202 -1.938509 4288085770
2.549099 -5.0083017 -1.7258592 4293729569
0.95232773 -4.200716 -1.9351058 4288085770
2.2683029 -4.8979969 -1.7374218 4293729569
0.69947052 -4.1006422 -1.9297011 4288085770
1.9895058 -4.7847185 -1.7469392 4293729569
0.48063278 -4.0154982 -1.93137 4288085770
1.7537193 -4.6923876 -1.7625759 4293729569
0.25177383 -3.9214203 -1.9269605 4288085770
1.4839058 -4.5771608 -1.7680399 4293729569
0.049930573 -3.8382995 -1.9275978 4288085770
1.2350998 -4.4699373 -1.7745328 4293729569
-0.13591385 -3.7631743 -1.9292815 4288085770
1.0402985 -4.3906422 -1.7891951 4293729569
-0.33176804 -3.6781075 -1.925873 4288085770
0.96854782 -4.3771114 -1.8282721 4293729569
-0.52362442 -3.594044 -1.9224637 4288085770
0.92080307 -4.3765297 -1.8724315 4293729569
-0.68847656 -3.5209434 -1.9231014 4288085770
0.8710556 -4.372961 -1.9155598 4288085770
-0.86433792 -3.4408891 -1.9196885 4288085770
0.76028061 -4.3315487 -1.9434161 4288085770
-1.0201912 -3.3698065 -1.9193208 4288085770
0.51944351 -4.2124577 -1.9397309 4288085770
-1.1750488 -3.2967389 -1.9179246 4288085770
0.28559875 -4.0943966 -1.9340346 4288085770
-1.3149033 -3.230653 -1.9185658 4288085770
0.072757721 -3.9863088 -1.9313929 4288085770
-1.4587669 -3.1596162 -1.9151576 4288085770
-0.12908554 -3.8812416 -1.927752 4288085770
-1.5916214 -3.0935481 -1.9147751 4288085770
-0.31193161 -3.7861578 -1.9261727 4288085770
-1.7164879 -3.0304973 -1.9134035 4288085770
-0.49178314 -3.690089 -1.9235706 4288085770
-1.84235 -2.9644449 -1.9119971 4288085770
-0.64762497 -3.605983 -1.9250383 4288085770
-1.9562149 -2.9053876 -1.9116385 4288085770
-0.82348251 -3.5079682 -1.9183977 4288085770
-2.0660744 -2.8453448 -1.9102535 4288085770
-0.972332 -3.4238918 -1.9178419 4288085770
-2.1759415 -2.7843139 -1.9078562 4288085770
-1.1211891 -3.3388531 -1.9142735 4288085770
-1.2540359 -3.2607863 -1.913739 4288085770
-1.3778915 -3.1877229 -1.9132371 4288085770
-1.5047493 -3.1106718 -1.911695 4288085770
-1.6206093 -3.0386398 -1.9091785 4288085770
-1.7284698 -2.9705865 -1.9086854 4288085770
-1.8423347 -2.8975804 -1.90415 4288085770
-1.9451981 -2.8295557 -1.9016402 4288085770
-2.0420647 -2.7635338 -1.8991349 4288085770
-2.1129112 -2.7124255 -1.9047303 4288085770
-2.124012 -0.64747334 -1.8315747 4288085770
-2.0539093 -0.63054442 -1.8291187 4288085770
-1.9768028 -0.61459374 -1.828651 4288085770
-1.8886871 -0.60063696 -1.8291709 4288085770
-1.8376045 -0.57881188 -1.8177173 4288085770
-1.7234688 -0.56778049 -1.8251855 4288085770
-1.6493797 -0.54991746 -1.817703 4288085770
-1.5562668 -0.53498888 -1.8161931 4288085770
-1.4481544 -0.52004337 -1.8166316 4288085770
-1.3460503 -0.50513244 -1.814091 4288085770
-1.2339439 -0.49121404 -1.8125284 4288085770
-2.1797638 -0.3445251 -1.8269174 4288085770
-1.11483 -0.47628713 -1.8119292 4288085770
-2.1036644 -0.3286376 -1.8214533 4288085770
-0.99972153 -0.46238351 -1.8093565 4288085770
-1.998539 -0.31666493 -1.82394 4288085770
-0.8616066 -0.44944215 -1.8107169 4288085770
-1.9064369 -0.30174828 -1.8214333 4288085770
-0.72249603 -0.43552637 -1.8100617 4288085770
-1.799324 -0.28880167 -1.8219006 4288085770
-0.58038712 -0.42162514 -1.8083961 4288085770
-1.7102318 -0.27293396 -1.8153918 4288085770
-0.4342804 -0.40773869 -1.8057168 4288085770
-1.6031303 -0.25903845 -1.8118467 4288085770
-0.27116776 -0.39482379 -1.8059914 4288085770
-1.4910278 -0.24512005 -1.8102839 4288085770
-0.10406113 -0.38193631 -1.8042526 4288085770
-1.3729172 -0.23221803 -1.8077133 4288085770
0.074047089 -0.36904216 -1.8034759 4288085770
-1.2418098 -0.21929765 -1.8070979 4288085770
0.26415634 -0.35616779 -1.8016582 4288085770
-1.0956879 -0.20734739 -1.8094435 4288085770
0.45526123 -0.34329391 -1.7998364 4288085770
-0.96258545 -0.19346619 -1.8058088 4288085770
0.68538284 -0.33239055 -1.8019063 4288085770
-0.80847168 -0.18154621 -1.8061268 4288085770
0.91749573 -0.32051444 -1.8019564 4288085770
-0.65236664 -0.16865277 -1.8044255 4288085770
1.1506004 -0.30767655 -1.7989907 4288085770
-0.49225998 -0.155761 -1.8027103 4288085770
1.3927002 -0.29485679 -1.7949941 4288085770
-0.31414795 -0.14286685 -1.8019333 4288085770
1.6507988 -0.28204536 -1.7909427 4288085770
-0.1060257 -0.1319263 -1.8060784 4288085770
1.9158897 -0.26827598 -1.7838542 4288085770
0.086082458 -0.11905241 -1.8042533 4288085770
2.2129898 -0.25548697 -1.7796688 4288085770
0.29319382 -0.10718727 -1.8023894 4288085770
2.5350838 -0.24272418 -1.7743971 4288085770
0.52430725 -0.094310284 -1.8024302 4288085770
2.8671761 -0.22999263 -1.7670915 4288085770
0.75240707 -0.081469536 -1.7994809 4288085770
3.2632828 -0.21823311 -1.7645781 4288085770
1.0275345 -0.069578648 -1.8023829 4288085770
3.6603775 -0.20551252 -1.7590489 4288085770
1.2806282 -0.056777239 -1.7973483 4288085770
4.1765022 -0.19673157 -1.7631607 4288085770
1.5387115 -0.043016434 -1.789284 4288085770
4.6665916 -0.18506289 -1.7573247 4288085770
1.8428192 -0.030205011 -1.7870739 4288085770
5.159668 -0.17245913 -1.7464654 4288085770
2.1449051 -0.016456604 -1.7798581 4288085770
5.7447624 -0.16084337 -1.7403028 4288085770
2.5110245 -0.0046415329 -1.780447 4288085770
6.4268684 -0.15123129 -1.7378318 4288085770
2.8561058 0.0090575218 -1.7710836 4288085770
7.2299881 -0.14262366 -1.7399571 4288085770
3.2582054 0.021801233 -1.7675364 4288085770
7.9180336 -0.12825584 -1.7184033 4288085770
3.7463303 0.033572912 -1.7697058 4288085770
8.798111 -0.11685586 -1.7072268 4288085770
4.194416 0.046227694 -1.7610006 4288085770
9.7031631 -0.10358453 -1.6869395 4288085770
4.7485275 0.058924437 -1.7599308 4288085770
10.843239 -0.093342304 -1.6738818 4288085770
5.3066216 0.072543144 -1.7528348 4288085770
12.180313 -0.083185673 -1.6621473 4288085770
5.9747276 0.085176468 -1.7513726 4288085770
6.6648178 0.098708868 -1.7428226 4288085770
7.4369125 0.11222053 -1.7359903 4288085770
8.2229652 0.1275723 -1.7170858 4288085770
9.1780396 0.14290571 -1.7035995 4288085770
10.2351 0.158144 -1.6867626 4288085770
11.455158 0.17429161 -1.6693528 4288085770
11.783127 0.38819408 -1.651866 4288085770
10.486286 0.39695477 -1.6691415 4288085770
9.3894424 0.40662313 -1.685729 4288085770
8.4135933 0.4172225 -1.7008953 4288085770
7.5677605 0.4277873 -1.7176223 4288085770
6.874939 0.4383719 -1.7408326 4288085770
6.1120529 0.44871831 -1.7432802 4288085770
12.271851 0.52991223 -1.6454415 4288085770
5.4321709 0.4580524 -1.7474601 4288085770
10.853989 0.54163623 -1.6560836 4288085770
4.7932816 0.46832848 -1.7484889 4288085770
9.7021408 0.55330229 -1.6708283 4288085770
4.2463951 0.4786005 -1.752207 4288085770
8.7633095 0.56596065 -1.6918414 4288085770
3.7425156 0.48883963 -1.7547798 4288085770
7.8534508 0.57747626 -1.7027698 4288085770
3.309639 0.50011086 -1.7621002 4288085770
7.1636314 0.59104574 -1.7249298 4288085770
2.8867607 0.51032543 -1.7653995 4288085770
6.3947525 0.60141933 -1.7293954 4288085770
2.5068855 0.5205338 -1.7695537 4288085770
5.7088737 0.61275458 -1.7335682 4288085770
2.1469994 0.53171968 -1.7726274 4288085770
5.0939941 0.62407005 -1.7385013 4288085770
1.8301239 0.54292393 -1.7785561 4288085770
4.5081024 0.63430798 -1.7383497 4288085770
1.5302467 0.55410767 -1.7834272 4288085770
4.0462456 0.64664328 -1.7497537 4288085770
1.2423592 0.56526041 -1.7862577 4288085770
3.536335 0.65679479 -1.7453458 4288085770
0.99750137 0.57647014 -1.7949431 4288085770
3.1294594 0.66903996 -1.7515643 4288085770
0.74461365 0.58760691 -1.7976556 4288085770
2.7645912 0.68127918 -1.758641 4288085770
0.49172211 0.59869146 -1.7963684 4288085770
2.39571 0.69246852 -1.7617443 4288085770
0.25782776 0.60978019 -1.7960167 4288085770
2.0818405 0.70568395 -1.768636 4288085770
0.026927948 0.61984181 -1.793668 4288085770
1.7619514 0.71682501 -1.7695742 4288085770
-0.21499634 0.62983131 -1.7853565 4288085770
1.4380455 0.72690332 -1.7655389 4288085770
-0.37986755 0.64197826 -1.791759 4288085770
1.1741676 0.73905706 -1.769275 4288085770
-0.55675507 0.65306675 -1.793215 4288085770
0.93428802 0.75121284 -1.7739301 4288085770
-0.74065018 0.66410673 -1.7906945 4288085770
0.71041489 0.76437402 -1.7795181 4288085770
-0.89753723 0.67519855 -1.793083 4288085770
0.47352219 0.7754643 -1.7791762 4288085770
-1.0714455 0.68619514 -1.787529 4288085770
0.25762939 0.78754425 -1.7787504 4288085770
-1.197319 0.6983242 -1.7937996 4288085770
0.055740356 0.79964375 -1.7802775 4288085770
-1.3482208 0.70934916 -1.7911677 4288085770
-0.13014221 0.81174874 -1.7827504 4288085770
-1.4700966 0.72143769 -1.7944252 4288085770
-0.31804276 0.82279027 -1.7802434 4288085770
-1.5759659 0.73457026 -1.8016155 4288085770
-0.48292923 0.83588552 -1.7826324 4288085770
-1.7278976 0.74350548 -1.7920129 4288085770
-0.65382385 0.84693241 -1.7810678 4288085770
-1.8317757 0.75658572 -1.7951965 4288085770
-0.80570984 0.85900879 -1.7824259 4288085770
-1.9536743 0.76759684 -1.7924669 4288085770
-0.95861053 0.87104678 -1.7807877 4288085770
-2.0435486 0.78069663 -1.7976031 4288085770
-1.0864906 0.88413799 -1.7840519 4288085770
-2.1344299 0.79377055 -1.8007429 4288085770
-1.2093735 0.89822674 -1.7872865 4288085770
-1.3472748 0.9092325 -1.7836106 4288085770
-1.4671669 0.92228138 -1.783848 4288085770
-1.5930672 0.93328142 -1.7801316 4288085770
-1.6849403 0.94839442 -1.7862487 4288085770
-1.7988434 0.96038878 -1.7824788 4288085770
-1.9007339 0.97342944 -1.7826555 4288085770
-1.9776039 0.98953557 -1.7887092 4288085770
-2.0785065 1.0015239 -1.7848954 4288085770
-2.1673965 1.0145586 -1.7850282 4288085770
-2.085041 3.1876705 -1.7328475 4288085770
-1.9408722 3.2627525 -1.7433999 4288085770
-1.8587799 3.3015938 -1.7336254 4288085770
-1.7266312 3.3685918 -1.7373216 4288085770
-1.5944977 3.4315643 -1.7390699 4288085770
-1.4233208 3.5156472 -1.7504165 4288085770
-1.2611618 3.5926704 -1.7568841 4288085770
-1.0829926 3.6777124 -1.7651949 4288085770
-0.87379456 3.7758298 -1.7802341 4288085770
-2.1031685 3.1646557 -1.7342138 4288085770
-0.72167587 3.8417292 -1.7768779 4288085770
-1.9620094 3.2267022 -1.7419448 4288085770
-0.60059357 3.8885145 -1.7638712 4288085770
-1.8358841 3.2776651 -1.7428679 4288085770
-0.41745758 3.9664516 -1.7642567 4288085770
-1.7077599 3.3276019 -1.7417979 4288085770
-0.18727493 4.0674958 -1.7741885 4288085770
-1.5766373 3.3775504 -1.7417181 4288085770
0.025875092 4.1564579 -1.7773323 4288085770
-1.4024696 3.4486082 -1.7512231 4288085770
0.23401642 4.2403841 -1.7775576 4288085770
-1.2383156 3.5116189 -1.756865 4288085770
0.44014359 4.3192601 -1.7738545 4288085770
-1.0471497 3.587682 -1.7672491 4288085770
0.65126419 4.3991208 -1.7691221 4288085770
-0.88602066 3.6446304 -1.7679794 4288085770
0.8663826 4.4779673 -1.7633898 4288085770
-0.67383575 3.7267098 -1.7802162 4288085770
1.0934982 4.5598083 -1.7575788 4288085770
-0.52973938 3.7705634 -1.7731714 4288085770
1.3156128 4.6366129 -1.7488494 4288085770
-0.37163544 3.8184233 -1.7670288 4288085770
1.5487175 4.7144136 -1.7400706 4288085770
-0.16748428 3.887404 -1.7714612 4288085770
1.8228493 4.8112593 -1.7359102 4288085770
0.073692322 3.9724586 -1.7825634 4288085770
2.0939674 4.9010687 -1.7288504 4288085770
0.28782654 4.0403967 -1.7839761 4288085770
2.3910942 4.9998918 -1.7235882 4288085770
0.49995804 4.1053238 -1.7844343 4288085770
2.7422562 5.1217809 -1.724849 4288085770
0.70607376 4.1632013 -1.7810035 4288085770
3.1194267 5.2506714 -1.7269332 4288085770
0.91919327 4.2210636 -1.7765493 4288085770
3.5125923 5.3835421 -1.7279134 4288085770
1.1613312 4.2899776 -1.7768567 4288085770
3.9197464 5.5163813 -1.7268469 4288085770
1.3303909 4.3227057 -1.7608728 4288085770
4.4039459 5.6793017 -1.7341375 4288085770
1.5154686 4.3584657 -1.7477973 4288085770
4.9911957 5.8833175 -1.7515557 4288085770
1.7325554 4.4062495 -1.7374601 4288085770
5.5824242 6.081255 -1.7630391 4288085770
1.975666 4.4630871 -1.7319202 4288085770
6.1356087 6.2540808 -1.7649724 4288085770
2.2477875 4.5289502 -1.7291679 4288085770
6.660759 6.4088311 -1.7602322 4288085770
2.5199013 4.5907879 -1.7244675 4288085770
7.2319183 6.5745602 -1.7551978 4288085770
2.8540535 4.6757002 -1.7272639 4288085770
7.8070602 6.7332373 -1.7462413 4288085770
3.1931953 4.7566123 -1.7300959 4288085770
8.3451614 6.8698158 -1.7286932 4288085770
3.5183258 4.8284531 -1.7270911 4288085770
8.9552956 7.0284271 -1.7156217 4288085770
3.8724594 4.90732 -1.7268996 4288085770
9.8355408 7.2892265 -1.7243357 4288085770
4.2936325 5.0072603 -1.7342143 4288085770
10.453636 7.4317198 -1.7024462 4288085770
4.7288017 5.1091819 -1.7404573 4288085770
11.213779 7.6232786 -1.6894526 4288085770
5.2770271 5.2472343 -1.7598598 4288085770
11.9799 7.8047581 -1.6705694 4288085770
5.791214 5.3651733 -1.7696345 4288085770
12.792027 7.9952316 -1.6524179 4288085770
6.2563705 5.4570322 -1.7719085 4288085770
6.7195053 5.5408406 -1.7702935 4288085770
7.1426086 5.6045647 -1.7610703 4288085770
7.5606956 5.659266 -1.7499802 4288085770
7.9987907 5.7159586 -1.7387986 4288085770
8.414856 5.756598 -1.7228973 4288085770
8.8489304 5.7982545 -1.7089238 4288085770
9.3690414 5.864965 -1.7013421 4288085770
9.9111481 5.9276662 -1.6937397 4288085770
10.46825 5.988349 -1.6851141 4288085770
11.085369 6.0600572 -1.6801481 4288085770
11.735493 6.1347647 -1.6760347 4288085770
12.406612 6.2034512 -1.6709297 4288085770
12.464054 -3.0257909 -1.7115061 4288085770
11.887177 -3.0514686 -1.7207477 4288085770
11.340302 -3.077132 -1.7318902 4288085770
10.815437 -3.0988047 -1.742908 4288085770
10.278561 -3.1114995 -1.7518489 4288085770
9.7526855 -3.1172268 -1.7586625 4288085770
9.2218056 -3.1149781 -1.7633889 4288085770
8.6879158 -3.104768 -1.7650213 4288085770
8.2090302 -3.0995405 -1.7695372 4288085770
7.7491608 -3.0922954 -1.7759643 4288085770
7.3152885 -3.0860479 -1.7833185 4288085770
6.8704071 -3.0708621 -1.7855923 4288085770
6.4395294 -3.0516684 -1.7887681 4288085770
6.0326538 -3.0334718 -1.7928774 4288085770
12.637924 -4.780448 -1.7537868 4288085770
5.6887894 -3.0272219 -1.8029346 4288085770
11.874111 -4.6999722 -1.7692668 4288085770
5.3469238 -3.0149992 -1.8109074 4288085770
11.11528 -4.6095638 -1.7796006 4288085770
5.0180626 -3.0027688 -1.8198371 4288085770
10.42746 -4.5311317 -1.7938559 4288085770
4.6721878 -2.9815848 -1.8247063 4288085770
9.6726074 -4.4248314 -1.795969 4288085770
4.3463173 -2.9603951 -1.8305094 4288085770
8.9447556 -4.315568 -1.795954 4288085770
4.0384483 -2.9412138 -1.8362794 4288085770
8.3299103 -4.22927 -1.8018649 4288085770
3.7285767 -2.9160569 -1.8399777 4288085770
7.7330589 -4.1400051 -1.8056777 4288085770
3.422699 -2.8879163 -1.8426242 4288085770
7.1492043 -4.0477724 -1.8074086 4288085770
3.1328201 -2.861768 -1.8462436 4288085770
6.6213493 -3.966522 -1.8120975 4288085770
2.8689537 -2.8385909 -1.8528159 4288085770
6.1625099 -3.8982327 -1.8217278 4288085770
2.5840759 -2.8064849 -1.8533411 4288085770
5.7166595 -3.8299878 -1.8283155 4288085770
2.3252029 -2.7783492 -1.8568323 4288085770
5.2648087 -3.7537801 -1.8318188 4288085770
2.0753288 -2.7492177 -1.8602805 4288085770
4.884964 -3.6955087 -1.8423185 4288085770
1.8154411 -2.7141349 -1.8596842 4288085770
4.4911156 -3.628298 -1.8477476 4288085770
1.5805702 -2.6850092 -1.8630834 4288085770
4.1162643 -3.5620944 -1.8531268 4288085770
1.3576965 -2.6558893 -1.8664427 4288085770
3.7494049 -3.4939077 -1.8574538 4288085770
1.1148109 -2.6168268 -1.864738 4288085770
3.4315567 -3.4376996 -1.8647752 4288085770
0.90592957 -2.5867255 -1.8670382 4288085770
3.0886917 -3.3695614 -1.8660231 4288085770
0.70105743 -2.5556247 -1.8693123 4288085770
2.7618256 -3.3024294 -1.8672311 4288085770
0.51819229 -2.5294816 -1.8755784 4288085770
2.4679604 -3.2432711 -1.8714345 4288085770
0.31730652 -2.4944227 -1.8747873 4288085770
2.1831017 -3.184129 -1.8746078 4288085770
0.12442398 -2.4593546 -1.8749697 4288085770
1.8912239 -3.1190364 -1.8737266 4288085770
-0.080471039 -2.4173458 -1.870101 4288085770
1.6323662 -3.0619047 -1.8768404 4288085770
-0.24634933 -2.3882487 -1.8732722 4288085770
1.3794937 -3.0037892 -1.8789213 4288085770
-0.41822433 -2.3541758 -1.8743982 4288085770
1.148632 -2.9526546 -1.8830204 4288085770
-0.57610321 -2.3230946 -1.8765171 4288085770
0.90275192 -2.8915942 -1.8810394 4288085770
-0.74098969 -2.2880633 -1.8746071 4288085770
0.65586853 -2.8275588 -1.877023 4288085770
-0.88886642 -2.2559865 -1.8766801 4288085770
0.44400024 -2.7744586 -1.8790336 4288085770
-1.0347481 -2.2249229 -1.8777592 4288085770
0.23511887 -2.7193987 -1.8780086 4288085770
-1.1906395 -2.186909 -1.8747807 4288085770
0.038249969 -2.6683176 -1.8789957 4288085770
-1.3195114 -2.1578133 -1.8788295 4288085770
-0.15362549 -2.6162512 -1.8789535 4288085770
-1.4553986 -2.1247809 -1.8778498 4288085770
-0.33150482 -2.5671904 -1.8789041 4288085770
-1.5772781 -2.0957139 -1.8798759 4288085770
-0.50138092 -2.5191195 -1.8798413 4288085770
-1.7161674 -2.0567329 -1.8748283 4288085770
-0.67026138 -2.4700625 -1.8797622 4288085770
-1.8430595 -2.0217035 -1.8737926 4288085770
-0.82913589 -2.4230087 -1.8796761 4288085770
-1.9569397 -1.9916537 -1.8747792 4288085770
-0.98601532 -2.3759687 -1.8785834 4288085770
-2.0838356 -1.9536769 -1.869705 4288085770
-1.1278877 -2.332896 -1.8804929 4288085770
-2.1676979 -1.933533 -1.8787222 4288085770
-1.2767754 -2.2848723 -1.878361 4288085770
-1.4176559 -2.2388394 -1.8772285 4288085770
-1.5325203 -2.20175 -1.8811269 4288085770
-1.655407 -2.1607101 -1.8810003 4288085770
-1.7933044 -2.1107433 -1.8748059 4288085770
-1.9061813 -2.0716941 -1.8756719 4288085770
-2.0180664 -2.0306723 -1.8745089 4288085770
-2.1419601 -1.983711 -1.8683071 4288085770
-2.0520515 0.12120771 -1.8037319 4288085770
-1.9479446 0.13316584 -1.8032348 4288085770
-1.8408394 0.14510965 -1.8017278 4288085770
-1.7307396 0.15803957 -1.7991979 4288085770
-1.6406631 0.17088485 -1.7897344 4288085770
-1.5025406 0.18188334 -1.7931383 4288085770
-1.3714333 0.19283247 -1.7925656 4288085770
-1.2183037 0.20483875 -1.7969072 4288085770
-2.126236 0.25116539 -1.8002782 4288085770
-1.0862122 0.2157352 -1.7923317 4288085770
-2.0031128 0.26216912 -1.8037312 4288085770
-0.91909409 0.2277236 -1.7956276 4288085770
-1.8759918 0.27217197 -1.8071845 4288085770
-0.77500153 0.23960257 -1.7899995 4288085770
-1.7629013 0.28207493 -1.8026838 4288085770
-0.59589005 0.250561 -1.7912695 4288085770
-1.6387978 0.29201341 -1.8011472 4288085770
-0.4117775 0.26151776 -1.7925229 4288085770
-1.5177002 0.30191374 -1.7966204 4288085770
-0.23067474 0.27341008 -1.7887735 4288085770
-1.3856087 0.31182313 -1.7930577 4288085770
-0.011558533 0.28438115 -1.7919121 4288085770
-1.212471 0.32186222 -1.8003595 4288085770
0.2385788 0.29640651 -1.7999356 4288085770
-1.0783882 0.33171916 -1.7927904 4288085770
0.46868515 0.30732131 -1.7990386 4288085770
-0.88625336 0.34076452 -1.801043 4288085770
0.73480988 0.31828904 -1.8030231 4288085770
-0.72516251 0.34965158 -1.7963984 4288085770
0.98590469 0.33017039 -1.8000441 4288085770
-0.54104614 0.35859513 -1.7966781 4288085770
1.2450027 0.34102345 -1.7950523 4288085770
-0.3419342 0.36754751 -1.7979083 4288085770
1.5190887 0.35085821 -1.7890244 4288085770
-0.12382126 0.37650609 -1.800076 4288085770
1.809185 0.3617003 -1.783931 4288085770
0.090286255 0.38542676 -1.7992573 4288085770
2.1392784 0.37354183 -1.7796934 4288085770
0.34741211 0.39441133 -1.8042972 4288085770
2.4653625 0.38433242 -1.771482 4288085770
0.58551025 0.40329766 -1.8013999 4288085770
2.8414536 0.39513206 -1.7651069 4288085770
0.84962082 0.41121483 -1.8014305 4288085770
3.2695656 0.40599251 -1.7645609 4288085770
1.1067085 0.42005587 -1.7954712 4288085770
3.7046509 0.41675854 -1.7569926 4288085770
1.4128189 0.42795825 -1.7953637 4288085770
4.1887436 0.42753434 -1.7512636 4288085770
1.6828918 0.43474293 -1.7853885 4288085770
4.7188339 0.43929434 -1.7453709 4288085770
2.007988 0.4425869 -1.7812192 4288085770
5.3689537 0.4501307 -1.7480972 4288085770
2.3480759 0.44939947 -1.7750142 4288085770
6.0550575 0.46188927 -1.745693 4288085770
2.7431831 0.45625877 -1.7736282 4288085770
6.7541351 0.47153926 -1.7352729 4288085770
3.1462746 0.46206331 -1.76823 4288085770
7.4972 0.48212194 -1.7206957 4288085770
3.5743561 0.46783304 -1.7607496 4288085770
8.2812424 0.49161243 -1.6999981 4288085770
4.0904617 0.47366452 -1.7599802 4288085770
9.2323112 0.50112414 -1.6847527 4288085770
4.5705299 0.47835159 -1.7473431 4288085770
10.283356 0.51053619 -1.6641803 4288085770
5.2486687 0.48424482 -1.7550426 4288085770
11.592422 0.52096415 -1.650749 4288085770
5.9207649 0.48799706 -1.7517884 4288085770
6.5908318 0.48963261 -1.7395678 4288085770
7.3689156 0.49228358 -1.7309799 4288085770
8.0959435 0.49073029 -1.7056129 4288085770
9.1010323 0.49132991 -1.6983073 4288085770
10.124077 0.48776746 -1.6789958 4288085770
11.352127 0.48416114 -1.6610129 4288085770
12.1875 0.7072742 -1.6550043 4288085770
10.928642 0.73785281 -1.6657014 4288085770
9.8297844 0.76638448 -1.6770308 4288085770
8.980957 0.79597151 -1.6987283 4288085770
8.0830803 0.82034516 -1.7036166 4288085770
7.4382439 0.84886825 -1.7258241 4288085770
6.79039 0.87427032 -1.7390807 4288085770
6.0694847 0.89244092 -1.7336152 4288085770
12.353439 1.1980122 -1.6378846 4288085770
5.4335938 0.91063344 -1.7319393 4288085770
11.150574 1.2115834 -1.6496756 4288085770
4.8957138 0.93085742 -1.7349939 4288085770
10.080708 1.2250903 -1.6601384 4288085770
4.3838272 0.94903028 -1.7350118 4288085770
9.23386 1.2436219 -1.6779816 4288085770
3.953949 0.96824038 -1.7398131 4288085770
8.5880432 1.2692274 -1.7062316 4288085770
3.5320625 0.98640668 -1.7416086 4288085770
7.7971611 1.2815605 -1.7110198 4288085770
3.1551781 1.0045559 -1.7432928 4288085770
7.2293282 1.3030276 -1.7311327 4288085770
2.8133011 1.0227329 -1.7478905 4288085770
6.6324577 1.3193555 -1.7403867 4288085770
2.518425 1.0429329 -1.7553446 4288085770
5.9145317 1.3234293 -1.7281058 4288085770
2.2045403 1.0600445 -1.755887 4288085770
5.3506355 1.3346083 -1.7273479 4288085770
1.9126511 1.077148 -1.7563753 4288085770
4.8497429 1.3467771 -1.7274203 4288085770
1.5837326 1.0891153 -1.7460246 4288085770
4.3648453 1.3568989 -1.7244811 4288085770
1.3468552 1.1062387 -1.7493768 4288085770
3.9639587 1.3710707 -1.7272792 4288085770
1.1429825 1.1264042 -1.7566059 4288085770
3.5520592 1.3821787 -1.7251458 4288085770
0.95411682 1.1465775 -1.7647982 4288085770
3.2141876 1.397354 -1.7297745 4288085770
0.70420837 1.158556 -1.7572517 4288085770
2.8832932 1.4114584 -1.7293999 4288085770
0.4853096 1.173577 -1.7535877 4288085770
2.5964127 1.4276142 -1.7338891 4288085770
0.29041672 1.1886164 -1.751864 4288085770
2.3235321 1.4437512 -1.7373435 4288085770
0.11853409 1.2057015 -1.7540557 4288085770
2.0596466 1.4588575 -1.7387898 4288085770
-0.00032806396 1.2278892 -1.7650473 4288085770
1.7997513 1.4719213 -1.7372537 4288085770
-0.14520645 1.2459779 -1.7681584 4288085770
1.5718689 1.4880276 -1.7395973 4288085770
-0.30009842 1.2620155 -1.7673221 4288085770
1.3880043 1.5081991 -1.7477767 4288085770
-0.42897797 1.2801117 -1.7713935 4288085770
1.2401466 1.5324112 -1.7598124 4288085770
-0.57987213 1.2951207 -1.7685614 4288085770
1.0732765 1.5525625 -1.7669501 4288085770
-0.69575119 1.314198 -1.7715874 4288085770
0.89439011 1.5696502 -1.7691588 4288085770
-0.81964111 1.3312377 -1.7716606 4288085770
0.71950531 1.5867226 -1.7703578 4288085770
-0.94253159 1.3472635 -1.7707453 4288085770
0.52460098 1.5987074 -1.7646751 4288085770
-1.0564232 1.3642991 -1.7707939 4288085770
0.27765656 1.5995072 -1.7442732 4288085770
-1.181324 1.3772573 -1.764925 4288085770
0.1157608 1.6145203 -1.7414677 4288085770
-1.2772064 1.3963133 -1.7669015 4288085770
-0.015125275 1.6325897 -1.7435443 4288085770
-1.3680916 1.4143679 -1.7688794 4288085770
-0.11999512 1.6557173 -1.7504876 4288085770
-1.4669838 1.4313705 -1.7668912 4288085770
-0.23487473 1.6757941 -1.7534971 4288085770
-1.558876 1.4483845 -1.7658854 4288085770
-0.32873917 1.6989179 -1.7604134 4288085770
-1.6257477 1.4704843 -1.7717488 4288085770
-0.45563889 1.7149174 -1.7575078 4288085770
-1.7076416 1.4885077 -1.7717047 4288085770
-0.56552505 1.7329516 -1.7575326 4288085770
-0.66941452 1.7519833 -1.7575288 4288085770
-0.77030182 1.771014 -1.7575178 4288085770
-0.86118317 1.7910546 -1.7584679 4288085770
-0.96108627 1.8080438 -1.755482 4288085770
-1.0489769 1.8270559 -1.7544389 4288085770
-1.1288605 1.8470786 -1.7543621 4288085770
-1.1827316 1.8731732 -1.7601383 4288085770
-1.2796364 1.8891203 -1.754159 4288085770
-1.3525276 1.908113 -1.7520785 4288085770
-1.4124069 1.9311552 -1.7539113 4288085770
-1.4833031 1.9511456 -1.7518122 4288085770
-1.535183 1.9761848 -1.7535977 4288085770
-1.5810623 2.0022352 -1.7563541 4288085770
-1.6369553 2.024235 -1.7551906 4288085770
-1.6858368 2.0492594 -1.7559686 4288085770
-1.7357254 2.0722568 -1.7547765 4288085770
-1.7323723 3.5109241 -1.7340095 4288085770
-1.6482277 3.5909908 -1.7407019 4288085770
-1.5550613 3.6770949 -1.7502897 4288085770
-1.4579086 3.7651703 -1.7578402 4288085770
-1.3647575 3.8502202 -1.7634416 4288085770
-1.2455902 3.9513412 -1.7747586 4288085770
-1.1474457 4.0383611 -1.7783201 4288085770
-1.0422974 4.1303649 -1.7807958 4288085770
-0.97018433 4.2012453 -1.7736421 4288085770
-0.85303879 4.2982445 -1.7760191 4288085770
-0.80095291 4.3540101 -1.7601211 4288085770
-0.68381882 4.449954 -1.758512 4288085770
-0.57469177 4.5398607 -1.7540054 4288085770
-0.43954849 4.6468248 -1.7542005 4288085770
-1.7377472 3.9092739 -1.7615345 4288085770
-0.28239441 4.764822 -1.7571895 4288085770
-1.5795555 4.0264759 -1.7795341 4288085770
-0.11523819 4.8898134 -1.7600579 4288085770
-1.4694176 4.1094375 -1.7791204 4288085770
0.039901733 5.0047297 -1.7570934 4288085770
-1.3242531 4.2155218 -1.7883036 4288085770
0.22306442 5.1377153 -1.7598121 4288085770
-1.2441597 4.2753315 -1.7762809 4288085770
0.41321182 5.2726574 -1.759486 4288085770
-1.1190224 4.3652735 -1.7747338 4288085770
0.61136627 5.4125967 -1.7590714 4288085770
-0.97988129 4.4612513 -1.7760694 4288085770
0.80651093 5.5474825 -1.7547328 4288085770
-0.85875702 4.5451269 -1.7696147 4288085770
1.0166588 5.6913757 -1.7512333 4288085770
-0.7396431 4.62499 -1.7622199 4288085770
1.2278023 5.8332281 -1.7447591 4288085770
-0.59051132 4.7239084 -1.7594898 4288085770
1.4749565 5.9971199 -1.7418931 4288085770
-0.41836166 4.8358736 -1.7605231 4288085770
1.7381172 6.1690197 -1.739877 4288085770
-0.23020554 4.9568586 -1.7633934 4288085770
2.0292854 6.3559079 -1.7375858 4288085770
-0.044063568 5.0728045 -1.7633374 4288085770
2.3644753 6.5698605 -1.7408142 4288085770
0.1690979 5.20578 -1.7659807 4288085770
2.7356758 6.8048115 -1.7446649 4288085770
0.38325119 5.3367147 -1.7656488 4288085770
3.0968513 7.0286856 -1.7426913 4288085770
0.61240768 5.473671 -1.7671971 4288085770
3.5100555 7.2835932 -1.7441628 4288085770
0.81653976 5.5915141 -1.7600689 4288085770
3.9572563 7.5565004 -1.7463024 4288085770
1.0546875 5.7294121 -1.7575812 4288085770
4.4664917 7.8644381 -1.7518072 4288085770
1.300827 5.8692794 -1.7530463 4288085770
5.0307274 8.2033672 -1.7577498 4288085770
1.5619698 6.0151415 -1.7483919 4288085770
1.8321114 6.1629868 -1.742687 4288085770
2.1452713 6.3348684 -1.7405457 4288085770
2.5034599 6.5318289 -1.7449489 4288085770
2.870636 6.730731 -1.7453022 4288085770
3.2778282 6.9486723 -1.749295 4288085770
3.7030144 7.1725655 -1.7501605 4288085770
4.1772194 7.4214945 -1.7545605 4288085770
4.7144432 7.7034531 -1.7623506 4288085770
5.2476463 7.9753313 -1.7642879 4288085770
5.7668343 8.2311201 -1.75948 4288085770
12.789001 -1.1914179 -1.675422 4288085770
11.981117 -1.2390203 -1.6870923 4288085770
11.283241 -1.2885916 -1.7035162 4288085770
10.527355 -1.3232822 -1.7098787 4288085770
9.8944778 -1.3599181 -1.7229621 4288085770
9.2745972 -1.3905857 -1.7339311 4288085770
8.6327057 -1.4123304 -1.738831 4288085770
8.1188316 -1.439007 -1.7514808 4288085770
7.668972 -1.4686229 -1.7700126 4288085770
7.2040977 -1.4903171 -1.7824721 4288085770
6.6912155 -1.5010927 -1.7878995 4288085770
13.079762 -2.4003575 -1.6963925 4288085770
6.2283325 -1.5118716 -1.7942028 4288085770
12.123917 -2.3728502 -1.7123966 4288085770
5.7144318 -1.5097725 -1.7904546 4288085770
11.160049 -2.333452 -1.7202554 4288085770
5.2625313 -1.5106256 -1.7915938 4288085770
10.355198 -2.3060238 -1.7338858 4288085770
4.8906593 -1.5183952 -1.8006303 4288085770
9.6193428 -2.2816045 -1.7483854 4288085770
4.4697609 -1.5142872 -1.7996237 4288085770
8.8534698 -2.2433155 -1.7527676 4288085770
4.1318817 -1.5180819 -1.8075204 4288085770
8.1736031 -2.2090132 -1.7599905 4288085770
3.7700005 -1.5149381 -1.8103805 4288085770
7.641758 -2.1945927 -1.7791202 4288085770
3.4401169 -1.511791 -1.8141611 4288085770
7.0468903 -2.162318 -1.7861595 4288085770
3.1172256 -1.506675 -1.8158965 4288085770
6.5010223 -2.1310747 -1.7920904 4288085770
2.8393517 -1.5054896 -1.823575 4288085770
5.9961548 -2.1028306 -1.7989609 4288085770
2.5334549 -1.4964073 -1.8232131 4288085770
5.421257 -2.054744 -1.7927303 4288085770
2.2475662 -1.4863183 -1.8237877 4288085770
4.9723854 -2.024533 -1.7984338 4288085770
1.9986877 -1.482157 -1.8303528 4288085770
4.5405083 -1.994355 -1.8020952 4288085770
1.7528038 -1.4750397 -1.833869 4288085770
4.1446381 -1.9671481 -1.8087082 4288085770
1.4859085 -1.4609845 -1.832341 4288085770
3.7517586 -1.9340112 -1.8102312 4288085770
1.2620277 -1.4518607 -1.8367748 4288085770
3.4138908 -1.910795 -1.8187549 4288085770
1.0371437 -1.440778 -1.8381836 4288085770
3.0720139 -1.8816478 -1.822206 4288085770
0.81624985 -1.4286964 -1.8395686 4288085770
2.7331314 -1.8495286 -1.8236086 4288085770
0.61436844 -1.4185936 -1.8429341 4288085770
2.4362564 -1.8233683 -1.828989 4288085770
0.41648865 -1.4065068 -1.8452618 4288085770
2.1493835 -1.7972386 -1.8323448 4288085770
0.2256012 -1.3934216 -1.8475583 4288085770
1.8635025 -1.7681239 -1.8346567 4288085770
0.054721832 -1.383302 -1.8528461 4288085770
1.5976257 -1.7400153 -1.8369327 4288085770
-0.16619492 -1.3593602 -1.8440664 4288085770
1.3437347 -1.7128966 -1.8401923 4288085770
-0.34408188 -1.3443074 -1.8443029 4288085770
1.1038551 -1.6867969 -1.8424308 4288085770
-0.4929657 -1.3331952 -1.8495224 4288085770
0.85997009 -1.6557386 -1.8416109 4288085770
-0.65985489 -1.3171601 -1.8487177 4288085770
0.6540947 -1.6325939 -1.8478062 4288085770
-0.82474899 -1.2991402 -1.8468807 4288085770
0.41120148 -1.5985911 -1.8429422 4288085770
-0.98163986 -1.2821088 -1.8460376 4288085770
0.2083168 -1.5725181 -1.8440893 4288085770
-1.1095161 -1.2700033 -1.8511906 4288085770
0.020435333 -1.547435 -1.8462124 4288085770
-1.2524109 -1.2529769 -1.8503127 4288085770
-0.17545319 -1.5183923 -1.8453002 4288085770
-1.3923035 -1.2349515 -1.8494134 4288085770
-0.35533905 -1.4923398 -1.8453898 4288085770
-1.5291939 -1.2169406 -1.8475065 4288085770
-0.5292244 -1.4652898 -1.8454506 4288085770
-1.6580811 -1.1999049 -1.8475933 4288085770
-0.68710709 -1.4412177 -1.8475127 4288085770
-0.84098816 -1.4171467 -1.8495653 4288085770
-0.99587631 -1.392103 -1.849606 4288085770
-1.1347542 -1.3680372 -1.8516209 4288085770
-1.2756386 -1.3439844 -1.8526409 4288085770
-1.4155235 -1.3179595 -1.8516307 4288085770
-1.5514183 -1.2909501 -1.849597 4288085770
-1.6733055 -1.2679036 -1.8505833 4288085770
-1.7480774 0.74274063 -1.7819691 4288085770
-1.5919456 0.75682485 -1.7913857 4288085770
-1.475853 0.76869893 -1.7849312 4288085770
-1.3397408 0.78165054 -1.7844121 4288085770
-1.1906281 0.79462564 -1.7858608 4288085770
-1.0415268 0.80654526 -1.7833235 4288085770
-0.8864212 0.81846321 -1.7807715 4288085770
-0.71531677 0.83141792 -1.7811656 4288085770
-1.6752548 0.78780043 -1.7901628 4288085770
-0.53220367 0.84536862 -1.7815161 4288085770
-1.5461578 0.7957269 -1.7877312 4288085770
-0.35209656 0.85729301 -1.7799015 4288085770
-1.4020424 0.80569005 -1.788234 4288085770
-0.1359787 0.87127542 -1.7831695 4288085770
-1.2589378 0.81462586 -1.7867534 4288085770
0.050113678 0.88212824 -1.7765548 4288085770
-1.1088333 0.82255983 -1.7852695 4288085770
0.25821304 0.89401627 -1.772871 4288085770
-0.95072556 0.8304913 -1.7837653 4288085770
0.46230698 0.90586364 -1.7661974 4288085770
-0.76360703 0.8404969 -1.788161 4288085770
0.70040894 0.91775608 -1.7634392 4288085770
-0.59250259 0.84842455 -1.7866249 4288085770
0.9425087 0.92961991 -1.758671 4288085770
-0.40539932 0.85636091 -1.7860487 4288085770
1.184597 0.93942785 -1.7499311 4288085770
-0.19228363 0.86533105 -1.7883937 4288085770
1.4827042 0.95231605 -1.7480097 4288085770
-0.0031890869 0.8711977 -1.782841 4288085770
1.8428345 0.96832395 -1.7558913 4288085770
0.17789459 0.87601101 -1.7733223 4288085770
2.1889381 0.98221135 -1.7548366 4288085770
0.41000366 0.88293386 -1.7726483 4288085770
2.5530472 0.99609315 -1.7537372 4288085770
0.63609695 0.88780344 -1.7680175 4288085770
2.9071388 1.006881 -1.7457049 4288085770
0.86719131 0.89165735 -1.7623885 4288085770
3.3052292 1.0186834 -1.7395492 4288085770
1.1172829 0.89649165 -1.755698 4288085770
3.7493324 1.0304993 -1.7352791 4288085770
1.4143906 0.90242279 -1.7568762 4288085770
4.2254295 1.0432916 -1.7299154 4288085770
1.7134895 0.90628397 -1.7530777 4288085770
4.7925491 1.0591671 -1.7322834 4288085770
2.0886192 0.91327477 -1.7600477 4288085770
5.396656 1.0729761 -1.7305872 4288085770
2.4347153 0.91613567 -1.7571464 4288085770
6.0807686 1.0887883 -1.7306647 4288085770
2.7748032 0.91692901 -1.7492883 4288085770
6.8959007 1.1086713 -1.7383599 4288085770
3.1869087 0.9197979 -1.7482228 4288085770
7.5329552 1.1141787 -1.7156956 4288085770
3.6230125 0.9216454 -1.7461116 4288085770
8.3350296 1.1247745 -1.7025504 4288085770
4.0951118 0.92148232 -1.7439389 4288085770
9.1950989 1.133311 -1.6862898 4288085770
4.5792046 0.92026031 -1.7377508 4288085770
10.142162 1.141766 -1.6658132 4288085770
5.1242981 0.91804755 -1.7334249 4288085770
11.329247 1.1542861 -1.6546834 4288085770
5.7704124 0.91691518 -1.7368333 4288085770
12.721336 1.1677579 -1.6440306 4288085770
6.47052 0.9137249 -1.7371359 4288085770
7.2236252 0.90749145 -1.7353487 4288085770
7.8586693 0.89197409 -1.7109823 4288085770
8.7407494 0.88064611 -1.7049446 4288085770
9.5537987 0.86110342 -1.6821921 4288085770
10.584869 0.8416338 -1.6688967 4288085770
11.789944 0.81915307 -1.6582103 4288085770
13.145008 0.79057193 -1.6432359 4288085770
3.143219 -5.6827278 -0.31504518 4293729569
3.2227097 -5.7474489 -0.9068197 4293729569
3.1474419 -5.6191368 -0.35715136 4293729569
3.1679306 -5.6509151 -0.94360894 4293729569
3.1656685 -5.5625496 -0.39932132 4293729569
3.1581573 -5.5783482 -0.98362362 4293729569
3.1918869 -5.5099916 -0.43952781 4293729569
3.1713791 -5.5197868 -1.0237778 4293729569
3.2481079 -5.4724121 -0.48187065 4293729569
3.2206001 -5.4782057 -1.0660818 4293729569
3.2658234 -5.4346247 -1.1083674 4293729569
3.3510513 -5.4090242 -1.152807 4293729569
7.6442528 -7.4630365 -1.7411196 4293729569
7.2144356 -7.1320105 -1.7335386 4293729569
6.8916206 -6.8618937 -1.734549 4293729569
6.5537949 -6.5858297 -1.7315123 4293729569
6.3379784 -6.3766537 -1.739114 4293729569
6.0961456 -6.1565704 -1.7396262 4293729569
4.7614326 -5.3824434 -0.93697065 4293729569
5.8713112 -5.9494896 -1.7402787 4293729569
4.7546272 -5.290061 -0.96369767 4293729569
4.7512856 -5.3148289 -1.6211226 4293729569
4.7768173 -5.2106867 -0.9905352 4293729569
4.77248 -5.2344685 -1.6469491 4293729569
4.8536835 -5.1810093 -1.6810062 4293729569
5.1099205 -5.2053099 -1.7357254 4293729569
5.002079 -5.0632 -1.7410007 4293729569
4.8772278 -4.914156 -1.7412198 4293729569
4.7763786 -4.7780752 -1.7445619 4293729569
4.7105293 -4.658989 -1.7490563 4293729569
4.8517303 -4.6255445 -1.783246 4293729569
12.305092 -7.5430984 -1.822849 4293729569
5.2910004 -4.7105942 -1.859369 4288085770
12.074265 -7.301034 -1.8220246 4288085770
5.3181648 -4.624403 -1.8730969 4288085770
11.871433 -7.0729742 -1.821327 4288085770
5.2353058 -4.4953976 -1.8714929 4288085770
11.700592 -6.8609352 -1.8197756 4288085770
5.1424332 -4.3624449 -1.8658578 4288085770
11.575752 -6.6688671 -1.8213911 4288085770
5.0575562 -4.2345085 -1.859273 4288085770
11.432907 -6.4728508 -1.818995 4288085770
5.0086899 -4.1215248 -1.8568099 4288085770
11.325062 -6.2918425 -1.8167231 4288085770
4.9818192 -4.0185175 -1.8564324 4288085770
11.219204 -6.113862 -1.8124886 4288085770
4.9369392 -3.9085619 -1.8520012 4288085770
11.122345 -5.9408827 -1.8083014 4288085770
4.9250717 -3.8105586 -1.8516572 4288085770
11.09549 -5.7908659 -1.808265 4288085770
4.895195 -3.7066209 -1.8462734 4288085770
11.073631 -5.6448774 -1.8062723 4288085770
4.8983231 -3.6136358 -1.8449624 4288085770
11.073769 -5.5058804 -1.8053238 4288085770
4.8934441 -3.5196755 -1.8416572 4288085770
11.058907 -5.3639364 -1.8003702 4288085770
4.8995667 -3.4297187 -1.8383808 4288085770
11.112045 -5.242938 -1.8005435 4288085770
4.9076881 -3.3407767 -1.8341138 4288085770
11.155178 -5.1209793 -1.7977276 4288085770
4.9238052 -3.2538359 -1.829855 4288085770
11.194305 -4.9950628 -1.7918656 4288085770
4.9609299 -3.1728733 -1.8276286 4288085770
11.268436 -4.880126 -1.7880714 4288085770
4.9980507 -3.0929372 -1.8234162 4288085770
11.34956 -4.764205 -1.7832463 4288085770
5.0651703 -3.0189679 -1.8222141 4288085770
11.471691 -4.6592674 -1.7804742 4288085770
5.1152878 -2.941036 -1.8179977 4288085770
11.589809 -4.5543699 -1.7747123 4288085770
5.1674042 -2.8631184 -1.8127763 4288085770
11.691925 -4.4425049 -1.7658882 4288085770
5.2715302 -2.7971232 -1.813592 4288085770
11.853043 -4.3466187 -1.760148 4288085770
5.3576469 -2.7272003 -1.8093998 4288085770
12.042164 -4.2537251 -1.7553806 4288085770
5.4407578 -2.6542909 -1.804173 4288085770
12.256283 -4.1638527 -1.7495942 4288085770
5.5288734 -2.5823824 -1.7989478 4288085770
12.468399 -4.0700073 -1.7417562 4288085770
5.6469879 -2.516454 -1.7957332 4288085770
12.730511 -3.9881475 -1.7359638 4288085770
5.7831039 -2.4525158 -1.7935019 4288085770
13.020626 -3.9092939 -1.7301447 4288085770
5.9442291 -2.3945558 -1.7932932 4288085770
6.1283493 -2.3375881 -1.7940421 4288085770
6.3284721 -2.2806242 -1.7947514 4288085770
6.5445938 -2.2266657 -1.7954633 4288085770
6.769722 -2.1697085 -1.7961111 4288085770
6.9878349 -2.1098063 -1.7927341 4288085770
7.2239494 -2.0498807 -1.7913127 4288085770
7.5150757 -1.9979274 -1.7928681 4288085770
7.7061691 -1.9261448 -1.7803898 4288085770
7.920269 -1.855356 -1.7688684 4288085770
8.1903687 -1.7905385 -1.7602937 4288085770
8.5084839 -1.7296774 -1.7556565 4288085770
8.8996048 -1.6727798 -1.7548959 4288085770
9.2687149 -1.6099608 -1.7481053 4288085770
9.6378174 -1.5441701 -1.7392728 4288085770
10.00491 -1.4724362 -1.7263613 4288085770
10.487026 -1.40762 -1.7212644 4288085770
10.968121 -1.3388741 -1.7111142 4288085770
11.479225 -1.2681363 -1.7008622 4288085770
12.102333 -1.1993723 -1.6943624 4288085770
12.711433 -1.1226897 -1.6817853 4288085770
12.513523 1.1262662 -1.6442237 4288085770
11.473656 1.1785874 -1.6520057 4288085770
10.519783 1.2248605 -1.6576645 4288085770
9.7839317 1.27521 -1.6717365 4288085770
9.127079 1.3225411 -1.6856592 4288085770
8.6042519 1.3739688 -1.7081985 4288085770
7.9673691 1.4121248 -1.7102022 4288085770
7.4705162 1.4564183 -1.7237792 4288085770
7.0656738 1.5027471 -1.7411039 4288085770
6.564785 1.5358711 -1.7428484 4288085770
13.194668 2.1646607 -1.6057615 4288085770
6.0218735 1.5618485 -1.7337956 4288085770
12.302814 2.1930342 -1.6195247 4288085770
5.5419693 1.588854 -1.7275755 4288085770
11.415936 2.2122929 -1.6254046 4288085770
5.1730804 1.6219757 -1.7309995 4288085770
10.640053 2.2345395 -1.6319721 4288085770
4.7731857 1.6490047 -1.7275848 4288085770
9.9741821 2.2618029 -1.641201 4293729569
4.4292946 1.6780635 -1.7270052 4288085770
9.4703407 2.3001697 -1.659879 4288085770
4.1134033 1.70713 -1.7273576 4288085770
9.0025024 2.3405282 -1.678441 4288085770
3.7945023 1.7341399 -1.7237461 4288085770
8.6466751 2.389945 -1.7026021 4288085770
3.5206184 1.7632105 -1.7249966 4288085770
8.2558289 2.4312711 -1.7199628 4288085770
3.2797394 1.794302 -1.7281377 4288085770
7.7469406 2.451369 -1.7199113 4288085770
3.0468559 1.8233629 -1.7292883 4288085770
7.3560677 2.4835529 -1.7274015 4288085770
2.8009567 1.85037 -1.7264996 4288085770
7.0472183 2.5248306 -1.7425632 4288085770
2.6130791 1.8814629 -1.7305121 4288085770
6.6473274 2.5489168 -1.7431901 4288085770
2.4071922 1.9094892 -1.7296116 4288085770
6.1593933 2.5537827 -1.7273028 4288085770
2.2233009 1.9385242 -1.7296431 4288085770
5.705471 2.5586691 -1.7133334 4288085770
2.0694237 1.9716234 -1.7345445 4288085770
5.3345566 2.5736351 -1.7060187 4288085770
1.8795204 1.9966033 -1.730648 4288085770
5.0156517 2.593631 -1.7015061 4288085770
1.6886177 2.0195546 -1.7247827 4288085770
4.721756 2.6166496 -1.69889 4288085770
1.5127144 2.0435026 -1.7188668 4288085770
4.452858 2.6396625 -1.6962135 4288085770
1.3988419 2.0786066 -1.724642 4288085770
4.2009621 2.6656852 -1.6944523 4288085770
1.2789574 2.1116691 -1.7274606 4288085770
3.972065 2.6927023 -1.692621 4288085770
1.1630745 2.1437306 -1.730284 4288085770
3.7791824 2.7247679 -1.6946306 4288085770
1.073204 2.1808288 -1.7359722 4288085770
3.5902939 2.7558036 -1.6946449 4288085770
0.98032379 2.2158992 -1.7396965 4288085770
3.4204102 2.7888637 -1.6965845 4288085770
0.90045166 2.2539947 -1.7453461 4288085770
3.2405167 2.8178692 -1.6946054 4288085770
0.78556061 2.2819707 -1.7422245 4288085770
3.0646248 2.8468738 -1.6926169 4288085770
0.67465973 2.3099458 -1.7390928 4288085770
2.924736 2.8818982 -1.6924551 4288085770
0.62279129 2.3520629 -1.7466168 4288085770
2.7978554 2.9189618 -1.6952326 4288085770
0.5389061 2.3850884 -1.7473481 4288085770
2.6669693 2.9539692 -1.6940489 4288085770
0.47903061 2.4251652 -1.7519205 4288085770
2.569088 2.9970403 -1.6976702 4288085770
0.41014862 2.461201 -1.753572 4288085770
2.4532013 3.0340586 -1.6974213 4288085770
0.33425522 2.4951959 -1.7522693 4288085770
2.3573151 3.0750861 -1.6980665 4288085770
0.28538132 2.5362697 -1.7568004 4288085770
2.2714386 3.1191397 -1.7006443 4288085770
0.247509 2.5803549 -1.7622621 4288085770
2.1945572 3.164191 -1.703186 4288085770
0.19962692 2.6213996 -1.7647908 4288085770
2.1216774 3.2102273 -1.7047036 4288085770
0.14874268 2.6604173 -1.7653556 4288085770
2.0728035 3.2633142 -1.7100627 4288085770
0.095851898 2.6974065 -1.7639539 4288085770
2.0009155 3.3083217 -1.7095923 4288085770
0.034957886 2.7333691 -1.7605863 4288085770
1.9520416 3.3603661 -1.7119656 4288085770
-0.010929108 2.7723708 -1.7601388 4288085770
1.9241714 3.418462 -1.7182019 4288085770
-0.055820465 2.811358 -1.7586892 4288085770
1.8722878 3.4694786 -1.7185969 4288085770
-0.10071182 2.8503306 -1.7562394 4288085770
1.8484154 3.5285306 -1.7218091 4288085770
-0.14360809 2.8892887 -1.7527847 4288085770
1.8335457 3.591609 -1.7269423 4288085770
-0.15647888 2.9393532 -1.7570994 4288085770
1.7986641 3.646621 -1.7272384 4288085770
-0.1783638 2.9853632 -1.7574933 4288085770
1.78479 3.7086706 -1.7303834 4288085770
-0.19724655 3.0333719 -1.7578514 4288085770
1.7579041 3.7676659 -1.7296031 4288085770
-0.2191391 3.0793531 -1.7562451 4288085770
1.7490311 3.8326855 -1.7306929 4288085770
-0.23001862 3.1293743 -1.7575548 4288085770
1.7361488 3.8966918 -1.7308066 4288085770
-0.23389816 3.1833935 -1.75879 4288085770
1.7392769 3.9677224 -1.7327814 4288085770
-0.22677231 3.2424383 -1.7619271 4288085770
1.7473984 4.0407515 -1.7347152 4288085770
-0.21865082 3.3004687 -1.764076 4288085770
1.7435112 4.1077266 -1.7327645 4288085770
-0.19651413 3.3645525 -1.7701046 4288085770
1.7416267 4.1746869 -1.7298083 4288085770
-0.187397 3.4245682 -1.7712224 4288085770
1.7557449 4.2506857 -1.7296848 4288085770
-0.19228745 3.4775162 -1.7674747 4288085770
1.7588577 4.3206306 -1.7256739 4288085770
-0.21920013 3.52037 -1.7569239 4288085770
1.7759743 4.3975859 -1.7225287 4288085770
-0.18306732 3.5914357 -1.7618182 4288085770
1.8261032 4.4896178 -1.7250881 4288085770
-0.15093994 3.6624737 -1.7647221 4288085770
1.8612251 4.5755963 -1.7237699 4288085770
-0.13082123 3.7274578 -1.7637415 4288085770
1.9023438 4.6645741 -1.7223942 4288085770
-0.085689545 3.8045068 -1.7675278 4288085770
1.9504662 4.757535 -1.7199445 4288085770
-0.042564392 3.8815272 -1.7693193 4288085770
2.0135918 4.8575201 -1.7193575 4288085770
0.021575928 3.9696136 -1.7759013 4288085770
2.0757141 4.9594765 -1.7167447 4288085770
0.064697266 4.0466056 -1.7756927 4288085770
2.1518402 5.0674591 -1.7160115 4288085770
0.11581802 4.1295953 -1.7753785 4288085770
2.2569809 5.1914754 -1.7179787 4288085770
0.15893555 4.2075586 -1.7731557 4288085770
2.3250923 5.2973876 -1.7122936 4288085770
0.22206116 4.2965593 -1.7737262 4288085770
2.4502296 5.4353991 -1.7140117 4288085770
0.27017212 4.3774929 -1.769448 4288085770
2.5703659 5.5713968 -1.7147701 4288085770
0.31828308 4.4594116 -1.7641556 4288085770
2.7135124 5.7204022 -1.7162864 4288085770
0.40041733 4.5604067 -1.764508 4288085770
2.8946648 5.8924541 -1.7213809 4288085770
0.46552277 4.6513357 -1.7600451 4288085770
3.069809 6.0624657 -1.7235186 4288085770
0.55164719 4.755301 -1.7583447 4288085770
3.256958 6.2424722 -1.7254837 4288085770
0.66078186 4.8733029 -1.7593877 4288085770
3.4601097 6.4304757 -1.7272952 4288085770
0.74890137 4.9782395 -1.7556679 4288085770
3.6822624 6.6334724 -1.7288456 4288085770
0.85102463 5.092186 -1.7527852 4288085770
3.9204216 6.8474503 -1.7291994 4288085770
0.97014999 5.218142 -1.7506893 4288085770
4.2306023 7.1055527 -1.7387476 4288085770
1.0862732 5.3410702 -1.7466435 4288085770
4.5157661 7.3515453 -1.7405283 4288085770
1.2204018 5.475008 -1.7433963 4288085770
4.8469429 7.6275539 -1.7437675 4288085770
1.3685341 5.6189556 -1.7409718 4288085770
5.1881104 7.9125462 -1.7458534 4288085770
1.524662 5.7679014 -1.7384558 4288085770
5.5512848 8.211503 -1.7456849 4288085770
1.6977997 5.9278564 -1.7367411 4288085770
1.8869362 6.0988073 -1.7348292 4288085770
