# .PCD v0.7 - Point Cloud Data file format
VERSION 0.7
FIELDS x y z rgb
SIZE 4 4 4 4
TYPE F F F U
COUNT 1 1 1 1
WIDTH 1120
HEIGHT 1
VIEWPOINT 0 0 0 1 0 0 0
POINTS 1120
DATA ascii
4.9080811 -1.2193213 -1.8162019 4288085770
9.220108 -1.7988558 -1.800609 4288085770
5.117218 -1.1863317 -1.8107451 4288085770
9.6592407 -1.7719021 -1.7965558 4288085770
5.3823547 -1.1603851 -1.8133614 4288085770
10.118378 -1.743948 -1.7915447 4288085770
5.648468 -1.1304255 -1.8129979 4288085770
10.661499 -1.722024 -1.7906636 4288085770
5.9215851 -1.0984573 -1.810657 4288085770
11.227631 -1.6960897 -1.7868441 4288085770
6.208725 -1.0674858 -1.8073378 4288085770
11.81076 -1.6681366 -1.778066 4288085770
6.5358582 -1.0365362 -1.8070936 4288085770
12.50589 -1.6452246 -1.7754751 4288085770
6.8559875 -1.0035658 -1.8028461 4288085770
13.245026 -1.6213064 -1.7699714 4288085770
7.246109 -0.97363377 -1.8047158 4288085770
14.151154 -1.6054459 -1.7717438 4288085770
7.5852661 -0.9356432 -1.7955271 4288085770
8.0103912 -0.90069294 -1.7924861 4288085770
8.47052 -0.86674881 -1.7895061 4288085770
9.002655 -0.83383083 -1.7906567 4288085770
9.4528046 -0.78883553 -1.7767092 4288085770
10.003937 -0.74888277 -1.7689286 4288085770
10.634064 -0.70895243 -1.7642963 4288085770
11.376205 -0.66905785 -1.7638742 4288085770
12.120361 -0.62312317 -1.7544839 4288085770
12.981506 -0.57622385 -1.7493182 4288085770
13.91864 -0.52431345 -1.7393187 4288085770
14.257629 1.6626172 -1.6754202 4288085770
13.540771 1.7297173 -1.6742767 4288085770
12.964905 1.8017631 -1.680445 4288085770
12.375015 1.8668346 -1.681551 4288085770
11.849152 1.9299016 -1.6817783 4288085770
11.384277 1.9929461 -1.6851302 4288085770
10.918411 2.0510082 -1.6844561 4288085770
10.526535 2.1100512 -1.6859382 4288085770
10.172668 2.1710787 -1.6895072 4288085770
9.8217773 2.2291155 -1.6910679 4288085770
9.4929047 2.2861533 -1.6916683 4288085770
9.190033 2.3421879 -1.692318 4288085770
8.940155 2.4031949 -1.6970991 4288085770
8.7032776 2.4632049 -1.7009023 4288085770
8.4743805 2.5212235 -1.7027125 4288085770
8.2335205 2.5752583 -1.701479 4288085770
8.0666351 2.6402483 -1.7074488 4288085770
7.87677 2.6972613 -1.709334 4288085770
7.6808929 2.7532887 -1.7082019 4288085770
7.4850311 2.8073258 -1.7050602 4288085770
14.496445 4.2376566 -1.6442052 4288085770
7.3091583 2.8603554 -1.7029552 4288085770
14.069595 4.2887373 -1.6385787 4288085770
7.1652985 2.9203701 -1.7029486 4288085770
13.765717 4.359767 -1.6402986 4288085770
7.0154266 2.9773912 -1.7019155 4288085770
13.528839 4.4437718 -1.6452174 4288085770
6.8705597 3.0324206 -1.6988832 4288085770
13.296967 4.5227909 -1.6471229 4288085770
6.7346954 3.0884485 -1.6958741 4288085770
13.064102 4.6028142 -1.6480309 4288085770
6.6228333 3.148468 -1.693933 4288085770
12.887207 4.6918149 -1.6520962 4288085770
6.5249634 3.2114768 -1.6940343 4288085770
12.655365 4.7638626 -1.6479679 4288085770
6.4290924 3.2734897 -1.6931357 4288085770
12.53447 4.8628511 -1.6531955 4288085770
6.3642273 3.3424883 -1.6943338 4288085770
12.323624 4.9378986 -1.6481249 4288085770
6.3093414 3.4134808 -1.6965618 4288085770
12.186768 5.0279217 -1.6462773 4288085770
6.2534637 3.4844832 -1.696788 4288085770
12.119873 5.1389065 -1.6506727 4288085770
6.2255859 3.5624673 -1.7001045 4288085770
12.018021 5.2369246 -1.648935 4288085770
6.1807404 3.6354725 -1.6993628 4288085770
11.960159 5.3489223 -1.6503537 4288085770
6.1538544 3.7144654 -1.7006865 4288085770
11.917297 5.464922 -1.6508224 4288085770
6.1519928 3.8004456 -1.7040945 4288085770
11.893433 5.5859189 -1.6513538 4288085770
6.1301117 3.8804469 -1.7034334 4288085770
11.878571 5.7109141 -1.6519229 4288085770
6.1272583 3.9664366 -1.7048398 4288085770
11.919708 5.8528924 -1.6546878 4288085770
6.1313782 4.0544252 -1.70627 4288085770
11.908844 5.9789057 -1.6512702 4288085770
6.1715088 4.1553936 -1.7108361 4288085770
11.945999 6.1198983 -1.6510224 4288085770
6.1916351 4.2493801 -1.7123278 4288085770
12.002151 6.2718925 -1.6498659 4288085770
6.2267761 4.3503637 -1.713884 4288085770
12.080276 6.4308786 -1.6497884 4288085770
6.2569122 4.4503622 -1.7124252 4288085770
12.200439 6.6088533 -1.6508871 4288085770
6.3060455 4.5583439 -1.7140429 4288085770
12.292572 6.7758565 -1.646876 4288085770
6.3811798 4.6773124 -1.7177669 4288085770
12.466721 6.9758186 -1.6491908 4288085770
6.4213104 4.7813182 -1.7143482 4288085770
12.508911 7.1268663 -1.6370023 4288085770
6.4834595 4.8973112 -1.7130315 4288085770
12.677063 7.3308525 -1.6343244 4288085770
6.5735931 5.0242872 -1.714825 4288085770
12.869217 7.5438404 -1.6307391 4288085770
6.6777344 5.1572609 -1.7166759 4288085770
13.113388 7.7828155 -1.6283842 4288085770
6.7688904 5.2882543 -1.7144909 4288085770
13.279556 7.9918394 -1.6177275 4288085770
6.8940277 5.433229 -1.7154425 4288085770
6.999176 5.5722256 -1.7123247 4288085770
7.1473083 5.7322011 -1.7123953 4288085770
7.3144531 5.9021688 -1.7135528 4288085770
7.5056152 6.0871286 -1.715831 4288085770
7.7177429 6.2830858 -1.7182053 4288085770
7.928894 6.4820561 -1.7175922 4288085770
8.1370544 6.6820416 -1.7139781 4288085770
8.4032135 6.9129992 -1.714631 4288085770
8.6163788 7.1190076 -1.7060561 4288085770
8.7215576 7.2740974 -1.6830174 4288085770
9.0307312 7.5340672 -1.6798981 4288085770
9.315918 7.7860641 -1.671692 4288085770
9.6520996 8.0680532 -1.6637342 4288085770
14.394836 -0.16913795 -1.7378857 4288085770
13.065948 -0.19200897 -1.740678 4288085770
11.950058 -0.21192122 -1.7469809 4288085770
10.996155 -0.22887039 -1.7566763 4288085770
10.060257 -0.23977327 -1.7574437 4288085770
9.3753357 -0.25580311 -1.7767698 4288085770
8.6504517 -0.26375341 -1.782043 4288085770
8.0015411 -0.27172422 -1.7894933 4288085770
13.922699 -0.51312637 -1.7380797 4288085770
7.3236694 -0.27262402 -1.7839117 4288085770
12.67482 -0.50103855 -1.7472363 4288085770
6.6808167 -0.27150869 -1.7744213 4288085770
11.550919 -0.48794127 -1.7516866 4288085770
6.2129059 -0.27551222 -1.7843131 4288085770
10.572006 -0.47587061 -1.7584692 4288085770
5.7430267 -0.27647924 -1.7872154 4288085770
9.6961212 -0.46380901 -1.7644918 4288085770
5.3441315 -0.2774868 -1.796283 4288085770
9.0092163 -0.45682764 -1.7819291 4288085770
4.9292297 -0.27645731 -1.7983234 4288085770
8.2603302 -0.44175053 -1.7822627 4288085770
4.5333557 -0.27340746 -1.796418 4288085770
7.5714569 -0.42767 -1.7807305 4288085770
4.1694794 -0.26937294 -1.7965925 4288085770
6.9475861 -0.41259909 -1.7793549 4288085770
3.8386078 -0.26534748 -1.7978435 4288085770
6.399704 -0.39955139 -1.7811462 4288085770
3.5127411 -0.26030731 -1.7961112 4288085770
5.9328156 -0.38954496 -1.7891108 4288085770
3.2388458 -0.25730944 -1.8014899 4288085770
5.5168915 -0.37954569 -1.7971944 4288085770
2.9919434 -0.25332117 -1.8079367 4288085770
5.0810089 -0.36550713 -1.7982514 4288085770
2.7240753 -0.24729252 -1.8073444 4288085770
4.686142 -0.35347462 -1.7993938 4288085770
2.4861908 -0.24128485 -1.8098222 4288085770
4.291275 -0.3384161 -1.7955515 4288085770
2.2733002 -0.23628902 -1.814353 4288085770
3.9543915 -0.32639503 -1.7978288 4288085770
2.0464172 -0.22926092 -1.8128613 4288085770
3.6315002 -0.3133707 -1.7991439 4288085770
1.8475342 -0.22226381 -1.816435 4288085770
3.3526306 -0.30236769 -1.8035516 4288085770
1.6446686 -0.21423721 -1.8150042 4288085770
3.0687408 -0.28934383 -1.8039577 4288085770
1.4607849 -0.20723104 -1.8166127 4288085770
2.8088684 -0.27732611 -1.8054143 4288085770
1.2879028 -0.2002306 -1.8192468 4288085770
2.5589905 -0.26430655 -1.8058996 4288085770
1.1170197 -0.19121456 -1.8188959 4288085770
2.3231049 -0.25228739 -1.8064122 4288085770
0.96513367 -0.18422222 -1.8225789 4288085770
2.1092224 -0.24028254 -1.8089763 4288085770
0.79127502 -0.17418098 -1.8172258 4288085770
1.9113312 -0.22827959 -1.8115778 4288085770
0.65539551 -0.1661849 -1.8199513 4288085770
1.7154694 -0.21626616 -1.8121835 4288085770
0.51850891 -0.15818882 -1.8226742 4288085770
1.5235901 -0.20325279 -1.8128037 4288085770
0.38063049 -0.14817286 -1.8214052 4288085770
1.3607025 -0.19226456 -1.8174816 4288085770
1.1808319 -0.17823696 -1.815135 4288085770
1.0309448 -0.16724491 -1.8188431 4288085770
0.87207031 -0.15422535 -1.8175404 4288085770
0.71218872 -0.14019489 -1.8142405 4288085770
0.5723114 -0.12818861 -1.8149766 4288085770
0.44044495 -0.11517763 -1.814737 4288085770
0.41204834 1.9043679 -1.7718761 4288085770
0.54815674 1.9293399 -1.7733471 4288085770
0.69029236 1.9543099 -1.7748331 4288085770
0.82640076 1.9763031 -1.7722888 4288085770
0.95854187 1.9963074 -1.7677246 4288085770
1.1016693 2.0173044 -1.7641927 4288085770
1.2398071 2.0363135 -1.7586381 4288085770
1.3999481 2.0593033 -1.7561588 4288085770
0.45793152 1.8242826 -1.7786039 4288085770
1.5810547 2.0862689 -1.7577527 4288085770
0.58206177 1.8382769 -1.775988 4288085770
1.7521973 2.1082568 -1.7552955 4288085770
0.70918274 1.8512712 -1.7733741 4288085770
1.9523163 2.1362209 -1.7569417 4288085770
0.84429932 1.8642588 -1.7717803 4288085770
2.1344452 2.1582184 -1.7525123 4288085770
0.99642944 1.8812284 -1.7732497 4288085770
2.3345795 2.1822033 -1.750138 4288085770
1.1305695 1.8912325 -1.7686378 4288085770
2.5427094 2.2061872 -1.7477834 4288085770
1.2866821 1.9052124 -1.7681013 4288085770
2.7468414 2.2281871 -1.7424088 4288085770
1.4358215 1.9162092 -1.7645322 4288085770
2.9969635 2.257144 -1.7441846 4288085770
1.6119537 1.9311805 -1.7650505 4288085770
3.2481079 2.2841172 -1.7429528 4288085770
1.7710724 1.9411812 -1.760501 4288085770
3.5202332 2.3140769 -1.7437886 4288085770
1.9472046 1.9531641 -1.7590039 4288085770
3.7743835 2.3360648 -1.7395384 4288085770
2.1243439 1.9631519 -1.7564991 4288085770
4.0725098 2.367022 -1.7404444 4288085770
2.3144684 1.974133 -1.7550316 4288085770
4.3686371 2.3929992 -1.7373194 4288085770
2.5035858 1.9821291 -1.750546 4288085770
4.7277222 2.4299207 -1.7434082 4288085770
2.6897278 1.9871325 -1.7450372 4288085770
5.1288452 2.4718323 -1.7506275 4288085770
2.9358368 2.0030794 -1.748735 4288085770
5.5049744 2.5037832 -1.7507325 4288085770
3.1639557 2.0130501 -1.7483568 4288085770
5.8471222 2.5247774 -1.7436961 4288085770
3.394104 2.0210314 -1.7459732 4288085770
6.1762848 2.5408049 -1.7306014 4288085770
3.6242523 2.0250235 -1.7415684 4288085770
6.6044159 2.570766 -1.7278256 4288085770
3.8983459 2.0359769 -1.74331 4288085770
7.0205536 2.5947495 -1.7209889 4288085770
4.1474915 2.0389667 -1.7389475 4288085770
7.5276794 2.6296849 -1.7214355 4288085770
4.4696045 2.0518985 -1.7438183 4288085770
8.0558167 2.6626277 -1.719924 4288085770
4.8146973 2.064817 -1.7507464 4288085770
8.509964 2.6776452 -1.7061348 4288085770
5.1258392 2.0687828 -1.7495431 4288085770
9.0291138 2.6976376 -1.6955333 4288085770
5.456955 2.0727401 -1.7493896 4288085770
9.6272583 2.7265935 -1.6901751 4288085770
5.7810822 2.0707197 -1.7451872 4288085770
10.277405 2.7545533 -1.6829408 4288085770
6.1092377 2.0647163 -1.7379733 4288085770
10.996536 2.7864876 -1.6788986 4288085770
6.4683685 2.0606914 -1.7338475 4288085770
11.739685 2.8134418 -1.6708903 4288085770
6.838501 2.0536704 -1.7287332 4288085770
12.541824 2.8413925 -1.6620342 4288085770
7.2756195 2.0516095 -1.7298113 4288085770
13.436981 2.8723211 -1.6554247 4288085770
7.712738 2.0445595 -1.7288635 4288085770
14.56308 2.9251561 -1.6615047 4288085770
8.1508789 2.0325308 -1.7238919 4288085770
8.5990143 2.0155168 -1.7159188 4288085770
9.0721436 1.9964938 -1.7089972 4288085770
9.6032715 1.977448 -1.7052199 4288085770
10.164413 1.9563923 -1.7025064 4288085770
10.755554 1.9303446 -1.697841 4288085770
11.409668 1.9042721 -1.6963323 4288085770
12.047806 1.8672342 -1.6887259 4288085770
12.793915 1.83215 -1.6873983 4288085770
13.558044 1.7890854 -1.6820731 4288085770
14.448166 1.7469668 -1.6840663 4288085770
10.656799 -5.1994734 -0.10171171 4293729569
8.7201691 -5.2462826 -0.28561196 4293729569
8.6931915 -5.3384619 -0.31804782 4293729569
7.0893707 -4.771287 -0.31908116 4293729569
6.8744354 -4.7714148 -0.34654465 4293729569
6.773468 -4.8155699 -0.37605655 4293729569
6.7734985 -4.9027634 -0.41058952 4293729569
6.7675171 -4.9879551 -0.44511801 4293729569
6.7685394 -5.0741663 -0.48265862 4293729569
8.7184601 -7.7280684 -1.6822855 4293729569
8.1656036 -7.4830437 -1.6892197 4293729569
7.679718 -7.2690563 -1.7011547 4293729569
7.1238708 -7.0059767 -1.6981788 4293729569
6.6809845 -6.8049765 -1.7071515 4293729569
6.232132 -6.5919485 -1.7111744 4293729569
5.7752686 -6.3698874 -1.7092255 4293729569
5.4064026 -6.1938868 -1.7162493 4293729569
5.0355377 -6.0118694 -1.7203009 4293729569
4.6616974 -5.8228235 -1.7193824 4293729569
4.3528137 -5.6688223 -1.7254385 4293729569
4.029953 -5.5017948 -1.7265294 4293729569
7.4828491 -7.6480045 -1.6856308 4293729569
3.7061157 -5.3307447 -1.7236396 4293729569
6.9389954 -7.3439608 -1.6889067 4293729569
3.4252472 -5.1817265 -1.725739 4293729569
6.4531403 -7.0699396 -1.6951662 4293729569
3.139389 -5.0256815 -1.7228638 4293729569
6.057251 -6.8479633 -1.7073712 4293729569
2.917511 -4.9076986 -1.7299442 4293729569
5.5694427 -6.5628834 -1.7026854 4293729569
2.6676483 -4.7686682 -1.7290678 4293729569
5.2455292 -6.3779259 -1.7168717 4293729569
2.4567871 -4.6516705 -1.7331705 4293729569
4.8496857 -6.1438789 -1.7161417 4293729569
2.2968597 -4.5647326 -1.7472395 4293729569
4.5168152 -5.9448709 -1.7213811 4293729569
2.1069946 -4.4557371 -1.751352 4293729569
4.1929626 -5.7488432 -1.7226272 4293729569
1.920105 -4.3467369 -1.754472 4293729569
3.8970947 -5.5678358 -1.7268624 4293729569
1.732254 -4.2337189 -1.7546114 4293729569
3.5772552 -5.3677683 -1.7211403 4293729569
1.5563965 -4.1267033 -1.7547485 4293729569
3.3073883 -5.1977482 -1.7223817 4293729569
1.4934387 -4.0928497 -1.7817752 4293729569
3.0575409 -5.0377293 -1.7236197 4293729569
1.490448 -4.0970907 -1.8247478 4293729569
2.8416748 -4.8987293 -1.7278296 4293729569
1.4764709 -4.0913143 -1.8647469 4288085770
2.6377869 -4.7647333 -1.732043 4293729569
1.4544983 -4.0795088 -1.8997583 4288085770
2.4429016 -4.6347313 -1.7352573 4293729569
1.3415985 -4.0035553 -1.9098871 4288085770
2.2860107 -4.5267668 -1.7444487 4293729569
1.192749 -3.902523 -1.9060603 4288085770
2.1131439 -4.4067698 -1.7476646 4293729569
1.049881 -3.8034945 -1.9032378 4288085770
1.9472809 -4.2907658 -1.7498764 4293729569
0.90603638 -3.7024498 -1.8974239 4288085770
1.7734222 -4.1677351 -1.7471062 4293729569
0.79714966 -3.6234531 -1.899579 4288085770
1.6975098 -4.1068411 -1.7672479 4293729569
0.67929077 -3.5364342 -1.897755 4288085770
1.7195282 -4.1080904 -1.8113015 4293729569
0.58840942 -3.465456 -1.9029125 4288085770
1.7555084 -4.1153526 -1.8573583 4288085770
0.47755432 -3.3814268 -1.8990899 4288085770
1.7585449 -4.1015625 -1.8944454 4288085770
0.37069702 -3.2973928 -1.8942776 4288085770
1.6496429 -4.0125885 -1.9006557 4288085770
1.5187836 -3.9085674 -1.8988919 4288085770
1.4079132 -3.8165655 -1.9001136 4288085770
1.2800598 -3.7125235 -1.8943573 4288085770
1.1731873 -3.6215115 -1.8935839 4288085770
1.0823212 -3.5395107 -1.8948022 4288085770
0.98347473 -3.4524889 -1.8920274 4288085770
0.90757751 -3.3784981 -1.8942404 4288085770
0.82772827 -3.3014879 -1.8934598 4288085770
0.74885559 -3.224473 -1.8916816 4288085770
0.67001343 -3.1484537 -1.8888981 4288085770
0.61114502 -3.0824594 -1.8901113 4288085770
0.5422821 -3.0104342 -1.8863316 4288085770
0.48440552 -2.9454269 -1.8855418 4288085770
0.4175415 -2.8733921 -1.8797675 4288085770
0.38467407 -2.8214216 -1.8849709 4288085770
0.39604187 -1.4723959 -1.8495636 4288085770
0.43516541 -1.4443903 -1.8468258 4288085770
0.48428345 -1.4194012 -1.8470976 4288085770
0.54241943 -1.3964205 -1.8483821 4288085770
0.57356262 -1.3663864 -1.8406346 4288085770
0.64866638 -1.3484297 -1.8459365 4288085770
0.69979858 -1.3224258 -1.84322 4288085770
0.76591492 -1.3014412 -1.8435153 4288085770
0.83703613 -1.2804556 -1.8438239 4288085770
0.90116882 -1.2574596 -1.8421252 4288085770
0.9683075 -1.2344618 -1.8404347 4288085770
1.0414429 -1.2114677 -1.8387603 4288085770
1.1255798 -1.1924839 -1.8390929 4288085770
1.1957092 -1.1684713 -1.8344165 4288085770
1.2988129 -1.1515074 -1.8377883 4288085770
1.4009399 -1.1335316 -1.8391635 4288085770
1.4930725 -1.1125383 -1.8375293 4288085770
0.35513306 -0.86641788 -1.8398843 4288085770
1.5901947 -1.0915394 -1.8349084 4288085770
0.42327881 -0.84641171 -1.8361802 4288085770
1.6903076 -1.0715427 -1.8322902 4288085770
0.51039124 -0.82943344 -1.8375102 4288085770
1.8104553 -1.0535641 -1.832714 4288085770
0.58653259 -0.80942726 -1.8338276 4288085770
1.9215851 -1.0335684 -1.8301255 4288085770
0.68066406 -0.7924509 -1.8351762 4288085770
2.0566864 -1.0175972 -1.8315785 4288085770
0.77278137 -0.77446365 -1.8345255 4288085770
2.1998138 -1.0006266 -1.8330586 4288085770
0.86889648 -0.75647593 -1.8338856 4288085770
2.3269501 -0.98062706 -1.8295133 4288085770
0.97302246 -0.7384901 -1.833267 4288085770
2.4640808 -0.96062851 -1.8259948 4288085770
1.0721588 -0.71949244 -1.8306409 4288085770
2.6172028 -0.94364262 -1.8245025 4288085770
1.1812744 -0.70250607 -1.8300308 4288085770
2.8073273 -0.93070126 -1.8300865 4288085770
1.2974091 -0.68552113 -1.8294393 4288085770
2.9504547 -0.90968227 -1.8225905 4288085770
1.4385223 -0.67056847 -1.8339031 4288085770
3.1375885 -0.89370632 -1.8221838 4288085770
1.5476532 -0.65055037 -1.8273104 4288085770
3.347702 -0.87975025 -1.824828 4288085770
1.6857758 -0.63357353 -1.8277781 4288085770
3.5298309 -0.85974216 -1.818431 4288085770
1.8229065 -0.61658049 -1.8252436 4288085770
3.76297 -0.84578323 -1.820137 4288085770
1.9640503 -0.59858799 -1.8227257 4288085770
3.9601135 -0.82577133 -1.812781 4288085770
2.1251678 -0.58160877 -1.8222556 4288085770
4.2012329 -0.80979061 -1.8105203 4288085770
2.2852936 -0.56462526 -1.8207834 4288085770
4.4873505 -0.79684544 -1.8133633 4288085770
2.4614258 -0.54864788 -1.8203483 4288085770
4.7664795 -0.78187084 -1.8111995 4288085770
2.634552 -0.53065395 -1.8169171 4288085770
5.0336304 -0.76286697 -1.8040267 4288085770
2.8336792 -0.51368046 -1.8165495 4288085770
5.3567505 -0.7478981 -1.8019813 4288085770
3.023819 -0.49567795 -1.8111645 4288085770
5.6958771 -0.73293209 -1.7999793 4288085770
3.2419434 -0.47870159 -1.8098487 4288085770
6.0640259 -0.71695757 -1.7960609 4288085770
3.4620667 -0.46070814 -1.8055444 4288085770
6.4341736 -0.69996738 -1.7891544 4288085770
3.7032013 -0.44272852 -1.8032966 4288085770
6.8872986 -0.6870265 -1.789448 4288085770
3.9553375 -0.42474508 -1.8000787 4288085770
7.3854065 -0.67509794 -1.790857 4288085770
4.2554626 -0.40979576 -1.801973 4288085770
7.8565521 -0.65811014 -1.7822229 4288085770
4.5625763 -0.39283609 -1.8018975 4288085770
8.4526672 -0.64618778 -1.782896 4288085770
4.8897095 -0.37487364 -1.800882 4288085770
9.1107941 -0.63527346 -1.7837306 4288085770
5.2268524 -0.3558898 -1.7958992 4288085770
9.6939697 -0.61526108 -1.7684159 4288085770
5.6229553 -0.33995914 -1.7990582 4288085770
10.394119 -0.59829187 -1.7583991 4288085770
5.9661255 -0.31793165 -1.78611 4288085770
11.270264 -0.58639479 -1.7578272 4288085770
6.3932648 -0.29896498 -1.7823707 4288085770
12.217392 -0.57347441 -1.7514527 4288085770
6.8713989 -0.27900505 -1.7787745 4288085770
13.246536 -0.5585494 -1.7423112 4288085770
7.4654999 -0.26312304 -1.7864676 4288085770
14.440689 -0.5446434 -1.7336086 4288085770
8.0896149 -0.24522114 -1.7902535 4288085770
8.7147675 -0.22327662 -1.7860659 4288085770
9.3628998 -0.19929457 -1.7749527 4288085770
10.073059 -0.1743207 -1.7640127 4288085770
10.902222 -0.14937305 -1.7553937 4288085770
11.90535 -0.12547684 -1.7522383 4288085770
12.940506 -0.096540451 -1.7411988 4288085770
14.224655 -0.067659378 -1.7348306 4288085770
14.546524 0.14810514 -1.7272377 4288085770
13.115616 0.14422178 -1.7316326 4288085770
11.902725 0.14129925 -1.7387319 4288085770
10.878799 0.14032936 -1.7504486 4288085770
9.9458771 0.14037323 -1.7584622 4288085770
9.2369385 0.14032221 -1.7781944 4288085770
8.5550232 0.14229965 -1.7930248 4288085770
14.799347 0.10811567 -1.7159525 4288085770
8.0180511 0.14421034 -1.8163205 4288085770
13.427414 0.11716461 -1.7306051 4288085770
7.2382202 0.14938402 -1.7998506 4288085770
12.058548 0.12932062 -1.7272829 4288085770
6.4694214 0.15661573 -1.7734268 4288085770
11.062607 0.13832283 -1.7431424 4288085770
5.9865265 0.16162157 -1.7799113 4288085770
10.075714 0.14939642 -1.7470413 4288085770
5.5466309 0.16762352 -1.7865391 4288085770
9.3687592 0.1583395 -1.7678295 4288085770
5.1227417 0.17363977 -1.7902182 4288085770
8.6938324 0.16830873 -1.7837254 4288085770
4.7388306 0.17964506 -1.7950252 4288085770
8.1408691 0.1782217 -1.8070138 4288085770
4.3239746 0.18671942 -1.7887375 4288085770
7.4390106 0.18932629 -1.8008262 4288085770
3.973114 0.19475222 -1.7886618 4288085770
6.5982361 0.20261431 -1.7662004 4288085770
3.6352386 0.20179415 -1.7866213 4288085770
6.1173401 0.21262026 -1.7727181 4288085770
3.3383484 0.20981312 -1.7877187 4288085770
5.6794434 0.22261477 -1.7803736 4288085770
3.0834351 0.21779633 -1.793951 4288085770
5.2615509 0.23361206 -1.787099 4288085770
2.8295441 0.22479868 -1.7971802 4288085770
4.8826447 0.24461699 -1.7919497 4288085770
2.5836639 0.23381758 -1.7974467 4288085770
4.50177 0.25565243 -1.7917932 4288085770
2.3457794 0.24184084 -1.7967319 4288085770
4.1148987 0.26572418 -1.7856098 4288085770
2.1229095 0.25086308 -1.796072 4288085770
3.7820282 0.27576017 -1.7846013 4288085770
1.9349976 0.25984478 -1.8015248 4288085770
3.4751434 0.2867856 -1.7846824 4288085770
1.7541199 0.26882553 -1.807 4288085770
3.2162476 0.2977767 -1.7899183 4288085770
1.5682373 0.27683687 -1.8074528 4288085770
2.9443665 0.30979824 -1.7901177 4288085770
1.3973541 0.28583336 -1.8099597 4288085770
2.6864929 0.31983662 -1.7873498 4288085770
1.2194672 0.29586887 -1.8064497 4288085770
2.4626007 0.33183432 -1.7907037 4288085770
1.0615997 0.30487108 -1.8079982 4288085770
2.254715 0.3428359 -1.793103 4288085770
0.89073181 0.31491613 -1.80251 4288085770
2.0628204 0.35382414 -1.7975539 4288085770
0.77082825 0.32487726 -1.8101871 4288085770
1.8709412 0.36582947 -1.7990103 4288085770
0.63995361 0.33486891 -1.8128282 4288085770
1.7010498 0.37681532 -1.803532 4288085770
0.49908447 0.34489393 -1.8104367 4288085770
1.5211639 0.38883209 -1.8030267 4288085770
0.38119507 0.3548913 -1.8121196 4288085770
1.3602753 0.39983368 -1.8045769 4288085770
1.1854095 0.41087341 -1.8000811 4288085770
1.0455475 0.42286682 -1.8027049 4288085770
0.88967896 0.4338994 -1.7992704 4288085770
0.75579834 0.44590998 -1.7989132 4288085770
0.63691711 0.45789528 -1.8026047 4288085770
0.49604797 0.46893692 -1.7972182 4288085770
0.40913391 0.4818821 -1.8070191 4288085770
0.4516449 2.726706 -1.7505089 4288085770
0.57077026 2.7637048 -1.7481444 4288085770
0.71490479 2.8106699 -1.750926 4288085770
0.83303833 2.8446865 -1.7455412 4288085770
0.98815918 2.8926497 -1.7483671 4288085770
1.106308 2.9226847 -1.7399584 4288085770
1.2444611 2.9606924 -1.7356666 4288085770
1.3946075 3.001687 -1.733434 4288085770
0.43251038 2.621624 -1.7578633 4288085770
1.540741 3.0387073 -1.7271615 4288085770
0.55964661 2.6516109 -1.7574816 4288085770
1.701889 3.0797129 -1.7229649 4288085770
0.68476868 2.6806021 -1.7560889 4288085770
1.8860016 3.128685 -1.7238953 4288085770
0.80990601 2.7066002 -1.753678 4288085770
2.0521545 3.1677022 -1.7177042 4288085770
0.9370575 2.7326097 -1.7492741 4288085770
2.2472839 3.2166796 -1.7176725 4288085770
1.0791779 2.7625933 -1.7489456 4288085770
2.451416 3.2666612 -1.7166778 4288085770
1.225296 2.7925768 -1.7486312 4288085770
2.6645508 3.3176434 -1.7157202 4288085770
1.3544464 2.814599 -1.7422105 4288085770
2.8966827 3.3736033 -1.7178578 4288085770
1.5185699 2.8475676 -1.7439758 4288085770
3.0728302 3.4046624 -1.7046539 4288085770
1.6647034 2.8705816 -1.7386191 4288085770
3.2959747 3.4506669 -1.6997006 4288085770
1.8208618 2.8965888 -1.7343153 4288085770
3.5491028 3.5056429 -1.6989048 4288085770
1.9929962 2.9255757 -1.7330843 4288085770
3.8382263 3.570591 -1.7022927 4288085770
2.1811066 2.9585414 -1.7349324 4288085770
4.1483459 3.6405294 -1.7067831 4288085770
2.3412628 2.9795661 -1.7276125 4288085770
4.4854584 3.7154589 -1.7123961 4288085770
2.5293884 3.0085506 -1.7264369 4288085770
4.8685608 3.8023465 -1.7242395 4288085770
2.7215118 3.0345407 -1.7242568 4288085770
5.235672 3.8802779 -1.7289743 4288085770
2.9086609 3.0575495 -1.7190418 4288085770
5.5838165 3.9452434 -1.7285659 4288085770
3.0818176 3.073585 -1.7097369 4288085770
5.9089661 3.9982538 -1.721007 4288085770
3.2959442 3.0995731 -1.7076325 4288085770
6.3021088 4.0712137 -1.7208017 4288085770
3.5150757 3.1255603 -1.7055458 4288085770
6.768219 4.1621156 -1.7289555 4288085770
3.7362213 3.1495533 -1.702454 4288085770
7.22435 4.2440548 -1.7310213 4288085770
3.9853363 3.178525 -1.7024882 4288085770
7.7154388 4.3309784 -1.7352375 4288085770
4.2654572 3.2154675 -1.7066774 4288085770
8.2105865 4.4129267 -1.7354379 4288085770
4.5615692 3.2524092 -1.7109216 4288085770
8.7557068 4.5038552 -1.7378643 4288085770
4.9126587 3.3013008 -1.7224267 4288085770
9.2308807 4.5668669 -1.7278824 4288085770
5.2217865 3.3342469 -1.7256914 4288085770
9.7440338 4.6358557 -1.721067 4288085770
5.5198975 3.3602188 -1.7248769 4288085770
10.278198 4.7018604 -1.7113063 4288085770
5.7970581 3.3752244 -1.718924 4288085770
10.780365 4.7519116 -1.6943395 4288085770
6.0762024 3.3872352 -1.7119602 4288085770
11.368561 4.8209105 -1.6847832 4288085770
6.3843384 3.4032249 -1.70812 4288085770
11.986725 4.8879232 -1.6723179 4288085770
6.7294617 3.4251974 -1.7064432 4288085770
12.662888 4.9629111 -1.6631006 4288085770
7.094574 3.4471555 -1.7068352 4288085770
13.411041 5.0468903 -1.6541848 4288085770
7.4817047 3.4701111 -1.7073089 4288085770
14.29718 5.1577988 -1.6549067 4288085770
7.9777985 3.5149741 -1.7212896 4288085770
15.287323 5.2806873 -1.6570582 4288085770
8.3169403 3.5159905 -1.7124666 4288085770
8.7050934 3.5229766 -1.707848 4288085770
9.0522461 3.5160053 -1.6970042 4288085770
9.4384003 3.5120049 -1.6903126 4288085770
9.9175262 3.5219495 -1.6910251 4288085770
10.370667 3.5209229 -1.6875821 4288085770
10.810806 3.5109224 -1.6800402 4288085770
11.288925 3.5028927 -1.6766407 4288085770
11.807068 3.4958522 -1.6743855 4288085770
12.281204 3.4728484 -1.6668825 4288085770
12.834335 3.4578044 -1.6646994 4288085770
13.342468 3.4287961 -1.6572775 4288085770
13.956619 3.4077325 -1.657268 4288085770
14.615723 3.3866515 -1.6594136 4288085770
15.293839 3.3605688 -1.6615945 4288085770
14.824203 -5.0619335 -1.6870576 4293729569
14.211304 -5.0299063 -1.6911379 4293729569
13.603409 -4.9888783 -1.6952903 4293729569
13.067505 -4.9618835 -1.7036054 4293729569
12.48761 -4.9138527 -1.7068967 4293729569
11.922729 -4.8608179 -1.7092701 4293729569
14.874924 -5.8371687 -1.0714911 4293729569
11.382843 -4.8087883 -1.7117236 4293729569
14.729843 -5.9235191 -1.1294653 4293729569
10.908951 -4.7677898 -1.7183377 4293729569
11.788376 -5.1076164 -1.0292835 4293729569
10.454041 -4.7278042 -1.7270111 4293729569
11.45636 -5.1108294 -1.0681185 4293729569
9.9331818 -4.6607513 -1.7256211 4293729569
11.449249 -5.2192078 -1.1284339 4293729569
9.4632874 -4.6017275 -1.7283585 4293729569
10.741348 -5.0862265 -1.141801 4293729569
9.000412 -4.5386992 -1.7301445 4293729569
10.688263 -5.1715765 -1.1980981 4293729569
8.6025085 -4.4927025 -1.7360506 4293729569
10.67215 -5.2689581 -1.2594494 4293729569
8.2156067 -4.4437141 -1.7430134 4293729569
15.056656 -6.9579697 -1.6752945 4293729569
7.8896942 -4.4127684 -1.7560763 4293729569
14.061813 -6.7218723 -1.6742989 4293729569
7.6247559 -4.3998728 -1.7762401 4293729569
13.196945 -6.5198202 -1.6785448 4293729569
7.3567963 -4.3809652 -1.79443 4293729569
12.439056 -6.3478098 -1.6879766 4293729569
7.1268616 -4.3720856 -1.81669 4288085770
11.655182 -6.1527472 -1.6894593 4293729569
6.8998871 -4.3602142 -1.8399788 4288085770
10.93631 -5.9726858 -1.690075 4293729569
6.6689301 -4.3453217 -1.8602717 4288085770
10.291428 -5.8136711 -1.6968178 4293729569
6.3810272 -4.3033705 -1.871533 4288085770
8.707962 -5.2638683 -1.5917015 4293729569
6.1440887 -4.2774601 -1.8888727 4288085770
8.6958466 -5.3422785 -1.657182 4293729569
5.8032379 -4.204421 -1.8871406 4288085770
8.4938049 -5.3395338 -1.7005014 4293729569
5.4653625 -4.1283827 -1.8854371 4288085770
7.9459534 -5.1864786 -1.699543 4293729569
5.15448 -4.0593605 -1.8857841 4288085770
7.0063171 -4.8590431 -1.6432945 4293729569
4.9125824 -4.0153999 -1.8952166 4288085770
6.9162598 -4.8893528 -1.693799 4293729569
4.6976471 -3.9804697 -1.9086871 4288085770
6.6642761 -4.8455095 -1.7221965 4293729569
4.3378448 -3.8763418 -1.8930792 4288085770
6.2793884 -4.7375097 -1.7275263 4293729569
4.0559845 -3.8022919 -1.8885571 4288085770
5.8865204 -4.6224928 -1.729871 4293729569
3.8181 -3.7452965 -1.8920828 4288085770
5.5686035 -4.5355301 -1.7403035 4293729569
3.5682373 -3.6792669 -1.8906225 4288085770
5.2437134 -4.4405432 -1.7467613 4293729569
3.3443604 -3.6212616 -1.8922029 4288085770
4.9008484 -4.3335247 -1.74823 4293729569
3.1094818 -3.5552349 -1.8907943 4288085770
4.6429291 -4.2615824 -1.7607785 4293729569
2.8936157 -3.4952211 -1.8914148 4288085770
4.5399017 -4.2598171 -1.7994343 4293729569
2.6867371 -3.4362116 -1.8920603 4288085770
4.4358978 -4.2570457 -1.8370925 4288085770
2.4998474 -3.3842154 -1.8947319 4288085770
4.3438873 -4.2562943 -1.8777802 4288085770
2.2810059 -3.313159 -1.8884094 4288085770
4.1499481 -4.2043962 -1.8964276 4288085770
2.0941315 -3.2551365 -1.8871181 4288085770
3.9100342 -4.1254253 -1.9040815 4288085770
1.9162598 -3.1991301 -1.8878455 4288085770
3.633194 -4.025383 -1.900736 4288085770
1.7453766 -3.144124 -1.8885912 4288085770
3.3653259 -3.9263401 -1.8974155 4288085770
1.5735168 -3.0870981 -1.8863455 4288085770
3.12146 -3.8353214 -1.8971293 4288085770
1.4066467 -3.0290785 -1.8851235 4288085770
2.8875885 -3.7472954 -1.8958592 4288085770
1.2587738 -2.9780741 -1.8859243 4288085770
2.6627502 -3.6602631 -1.8936142 4288085770
1.1148987 -2.9290695 -1.8867266 4288085770
2.4578705 -3.5812473 -1.8933895 4288085770
0.96302795 -2.8720407 -1.8835503 4288085770
2.2500153 -3.4972115 -1.890185 4288085770
0.83215332 -2.8240442 -1.8853917 4288085770
2.0671234 -3.4242105 -1.8919997 4288085770
0.6942749 -2.7720222 -1.8832333 4288085770
1.8772736 -3.3451757 -1.8888271 4288085770
0.57240295 -2.7250214 -1.8840998 4288085770
1.7073975 -3.274169 -1.8896748 4288085770
0.45053101 -2.6770191 -1.8849723 4288085770
1.5415192 -3.2041512 -1.88853 4288085770
1.383667 -3.1351337 -1.8874069 4288085770
1.2277985 -3.0661163 -1.8862909 4288085770
1.0989075 -3.0081263 -1.8892012 4288085770
0.94506836 -2.9360847 -1.8841106 4288085770
0.80619812 -2.8700571 -1.8810351 4288085770
0.67932129 -2.8090439 -1.8799706 4288085770
0.56045532 -2.7510366 -1.8799156 4288085770
0.45758057 -2.7000427 -1.8818731 4288085770
0.34970093 -2.6450367 -1.8818378 4288085770
0.45075989 -0.31708241 -1.8229437 4288085770
0.53889465 -0.30206585 -1.8183558 4288085770
0.65002441 -0.29008389 -1.8188312 4288085770
0.74116516 -0.27505541 -1.8122543 4288085770
0.8572998 -0.26206684 -1.8117541 4288085770
0.9894104 -0.25009966 -1.8143052 4288085770
1.1195374 -0.23711967 -1.8148556 4288085770
1.2596436 -0.22514009 -1.8154355 4288085770
1.3837891 -0.21112204 -1.809971 4288085770
0.40080261 -0.11512613 -1.8240584 4288085770
1.5359039 -0.19914293 -1.8105943 4288085770
0.4949646 -0.10209799 -1.8174802 4288085770
1.6890411 -0.18715286 -1.8092214 4288085770
0.60508728 -0.090096951 -1.8149529 4288085770
1.8591614 -0.1751771 -1.8099095 4288085770
0.72621155 -0.078109264 -1.814465 4288085770
2.027298 -0.16318226 -1.8075906 4288085770
0.86732483 -0.067142487 -1.8170427 4288085770
2.2084198 -0.15019417 -1.8063248 4288085770
0.99645996 -0.056143284 -1.8145776 4288085770
2.4015503 -0.13920832 -1.8050897 4288085770
1.1425934 -0.044164658 -1.8151797 4288085770
2.5986786 -0.12621641 -1.8028816 4288085770
1.2977142 -0.034192562 -1.8168015 4288085770
2.8158112 -0.11422729 -1.8007393 4288085770
1.4418488 -0.022182465 -1.8123972 4288085770
3.0479279 -0.1032505 -1.8006445 4288085770
1.6099548 -0.011207104 -1.8130724 4288085770
3.3060608 -0.092284679 -1.8016431 4288085770
1.7880859 -0.00022506714 -1.8127837 4288085770
3.5602112 -0.080286026 -1.7976344 4288085770
1.9742126 0.010755539 -1.8125238 4288085770
3.8243561 -0.067282677 -1.7926679 4288085770
2.1573486 0.022760868 -1.8082598 4288085770
4.1634369 -0.057356358 -1.7989514 4288085770
2.3544769 0.033760548 -1.8050402 4288085770
4.4855804 -0.046370983 -1.7961811 4288085770
2.5596161 0.044757366 -1.8018492 4288085770
4.8317108 -0.034395218 -1.7945032 4288085770
2.8027344 0.054719448 -1.8037885 4288085770
5.2228394 -0.023436546 -1.7949812 4288085770
3.0208893 0.065747738 -1.7956449 4288085770
5.6179962 -0.012441635 -1.7894739 4288085770
3.2880096 0.076718807 -1.7956772 4288085770
6.0131531 0.0005865097 -1.7789798 4288085770
3.5501709 0.087723255 -1.7906917 4288085770
6.4832916 0.011568069 -1.7747428 4288085770
3.8772736 0.096662998 -1.7949272 4288085770
7.1033936 0.020437717 -1.7860315 4288085770
4.2073975 0.10663366 -1.7941805 4288085770
7.9054108 0.027193546 -1.8129613 4288085770
4.5895081 0.11656237 -1.7996204 4288085770
8.4386139 0.040270329 -1.7929652 4288085770
4.9816132 0.12651396 -1.8010969 4288085770
9.1287689 0.052252293 -1.7855269 4288085770
5.3637695 0.136518 -1.7945383 4288085770
9.7689514 0.065329552 -1.7639166 4288085770
5.772934 0.14652491 -1.7870767 4288085770
10.623123 0.07630682 -1.7550627 4288085770
6.230072 0.15650845 -1.782788 4288085770
11.608276 0.08725214 -1.7496805 4288085770
6.7352142 0.16649199 -1.7776726 4288085770
12.686447 0.098237038 -1.7366337 4288085770
7.7061615 0.17206478 -1.8312057 4282675967
14.019592 0.10813761 -1.733498 4288085770
8.22435 0.18214893 -1.8101388 4288085770
8.8485107 0.19217682 -1.7964531 4288085770
9.528717 0.20121717 -1.7799635 4288085770
10.283905 0.21025705 -1.7627442 4288085770
11.263046 0.21920872 -1.7563311 4288085770
12.347229 0.22717428 -1.7462906 4288085770
13.692368 0.23506117 -1.74519 4288085770
15.192505 0.24196291 -1.7396419 4288085770
14.114731 0.42582893 -1.7254384 4288085770
12.748825 0.44289494 -1.7292652 4288085770
11.63591 0.45991039 -1.7380725 4288085770
10.694977 0.47589445 -1.7495385 4288085770
9.8200531 0.49190617 -1.7562603 4288085770
9.1851044 0.50879288 -1.7789197 4288085770
8.4672089 0.52280998 -1.7832359 4288085770
14.666641 0.68392277 -1.7024277 4288085770
8.0251923 0.54162264 -1.8146569 4282675967
13.301727 0.69596195 -1.7102189 4288085770
7.3083649 0.55376244 -1.8009619 4288085770
12.118805 0.70699787 -1.7167089 4288085770
6.5196075 0.56103802 -1.7679528 4288085770
11.158859 0.72096968 -1.7300843 4288085770
6.0397339 0.57505083 -1.7701905 4288085770
10.251968 0.73198462 -1.7366443 4288085770
5.6308136 0.58901739 -1.7787037 4288085770
9.4780426 0.74496555 -1.7467338 4288085770
5.2319336 0.60202408 -1.7812483 4288085770
8.8790894 0.7608757 -1.7655232 4288085770
4.8800201 0.61699152 -1.7889889 4288085770
8.2591705 0.77484846 -1.7752168 4288085770
4.5521088 0.6299758 -1.7938088 4288085770
7.8371735 0.79368019 -1.8037137 4288085770
4.18927 0.6420331 -1.7884858 4288085770
7.050415 0.79594183 -1.7726752 4288085770
3.8603973 0.65407276 -1.7852942 4288085770
6.3906097 0.80012989 -1.7511431 4288085770
3.591507 0.66705942 -1.7893426 4288085770
5.9567108 0.81311846 -1.7565509 4288085770
3.3056335 0.67810202 -1.785311 4288085770
5.606781 0.82705832 -1.7682916 4288085770
3.0447693 0.69112206 -1.7843896 4288085770
5.2189026 0.83907032 -1.7698704 4288085770
2.8468475 0.70508146 -1.7917203 4288085770
4.8809967 0.85304976 -1.7756573 4288085770
2.6359558 0.71806812 -1.7949933 4288085770
4.5890961 0.86700392 -1.7846228 4288085770
2.4250641 0.73107672 -1.7952659 4288085770
4.2422333 0.87705898 -1.7793467 4288085770
2.2241974 0.74309015 -1.7945706 4288085770
3.9783325 0.89103842 -1.7844207 4288085770
2.0603027 0.75805902 -1.8000395 4288085770
3.6494904 0.89912605 -1.7742003 4288085770
1.8934174 0.77104282 -1.803483 4288085770
3.3946228 0.91113806 -1.7742952 4288085770
1.726532 0.78405285 -1.8029264 4288085770
3.1747131 0.9251194 -1.7785398 4288085770
1.5696411 0.79705381 -1.8034041 4288085770
2.9458313 0.93613529 -1.7777256 4288085770
1.4217529 0.81004953 -1.8049235 4288085770
2.7659302 0.95209217 -1.7851421 4288085770
1.2818756 0.82305002 -1.8054739 4288085770
2.5460663 0.96213484 -1.7803613 4288085770
1.1340027 0.83507919 -1.8019859 4288085770
2.3881683 0.97808933 -1.7878627 4288085770
1.0091248 0.84807158 -1.8035941 4288085770
2.2152557 0.99109364 -1.788285 4288085770
0.87426758 0.86009932 -1.8001565 4288085770
2.0543671 1.0050831 -1.7907606 4288085770
0.77336121 0.87506199 -1.8058716 4288085770
1.89151 1.0170932 -1.7902145 4288085770
0.65948486 0.88806772 -1.8055222 4288085770
1.7615967 1.0330586 -1.7958242 4288085770
0.54360962 0.90009356 -1.8021574 4288085770
1.6007233 1.0440955 -1.791278 4288085770
0.44772339 0.91407633 -1.8048848 4288085770
1.4698334 1.0580893 -1.7928697 4288085770
0.35284424 0.92906618 -1.8066227 4288085770
1.3419495 1.072082 -1.7944728 4288085770
1.2070923 1.0851097 -1.7910417 4288085770
1.0752258 1.097137 -1.7876153 4288085770
0.98033142 1.1131063 -1.7923607 4288085770
0.87345886 1.1281042 -1.7930518 4288085770
0.76759338 1.1411157 -1.7917333 4288085770
0.66671753 1.1551256 -1.7904409 4288085770
0.58282471 1.1711078 -1.7932286 4288085770
0.49693298 1.1861033 -1.7940015 4288085770
0.4160614 1.2020917 -1.7958006 4288085770
0.36759949 3.42117 -1.7344801 4288085770
0.45376587 3.4732041 -1.7281944 4288085770
0.56988525 3.5441864 -1.7291605 4288085770
0.68699646 3.6121678 -1.7301102 4288085770
0.81213379 3.6851563 -1.7301269 4288085770
0.9342804 3.754159 -1.7281045 4288085770
1.0664062 3.8271539 -1.7271503 4288085770
1.1965485 3.8981626 -1.7241745 4288085770
1.3606567 3.9861262 -1.7274535 4288085770
1.530777 4.0770888 -1.7307779 4288085770
0.39775085 3.4611082 -1.7359655 4288085770
1.6999054 4.1650734 -1.7310778 4288085770
0.52886963 3.5270753 -1.738959 4288085770
1.8790283 4.2570562 -1.7314465 4288085770
0.63401794 3.5741079 -1.7327164 4288085770
2.0801392 4.3590088 -1.7359731 4288085770
0.7721405 3.6400816 -1.7347387 4288085770
2.26828 4.4510126 -1.7333791 4288085770
0.91925049 3.7090538 -1.7368184 4288085770
2.5083923 4.5709333 -1.7421887 4288085770
1.0533905 3.7690561 -1.7347839 4288085770
2.7145233 4.667942 -1.7387031 4288085770
1.2145081 3.8410199 -1.7379415 4288085770
2.9556427 4.7829041 -1.7414837 4288085770
1.3586426 3.902035 -1.733955 4288085770
3.1768036 4.882925 -1.7360808 4288085770
1.5267639 3.9750123 -1.7351488 4288085770
3.4309387 4.998908 -1.735922 4288085770
1.6889038 4.0410185 -1.7322704 4288085770
3.7250671 5.1328659 -1.73905 4288085770
1.8510742 4.1050315 -1.7283785 4288085770
3.9782257 5.2418904 -1.7328408 4288085770
2.0491791 4.1869993 -1.7307571 4288085770
4.2723541 5.3688898 -1.7299219 4288085770
2.2652893 4.2749443 -1.7362503 4288085770
4.5924988 5.5068722 -1.7291855 4288085770
2.4614258 4.349947 -1.7335736 4288085770
4.926651 5.647862 -1.727527 4288085770
2.7305145 4.4618378 -1.7464482 4288085770
5.3287659 5.8207951 -1.7333658 4288085770
2.9456482 4.5408392 -1.7438771 4288085770
5.7189026 5.9827642 -1.7340811 4288085770
3.1508026 4.6108618 -1.7382035 4288085770
6.147049 6.1597233 -1.7360548 4288085770
3.3689423 4.6848841 -1.7326112 4288085770
6.5751801 6.3307023 -1.7349885 4288085770
3.6520691 4.7898226 -1.7384968 4288085770
7.0233307 6.5066938 -1.7320391 4288085770
3.8922119 4.8678417 -1.7330222 4288085770
7.4974823 6.6906891 -1.7282515 4288085770
4.1813507 4.9688015 -1.7359061 4288085770
8.0496368 6.9066434 -1.7300024 4288085770
4.4644775 5.0607963 -1.7337039 4288085770
8.5887909 7.1086397 -1.7256055 4288085770
4.7656097 5.1577749 -1.73361 4288085770
9.0060272 7.242774 -1.7022451 4288085770
5.067749 5.250782 -1.7294933 4288085770
9.459259 7.3869057 -1.6791009 4288085770
5.3819275 5.3447876 -1.7254329 4288085770
10.138397 7.6358819 -1.6766012 4288085770
5.7490234 5.4607391 -1.7287403 4288085770
10.731628 7.8329577 -1.6603943 4288085770
6.1341553 5.5796967 -1.7311426 4288085770
11.461807 8.0879641 -1.6531465 4288085770
6.5102997 5.6896758 -1.7304471 4288085770
6.9224243 5.8106375 -1.7319747 4288085770
7.3135681 5.9156427 -1.7273074 4288085770
7.7497101 6.0366158 -1.7269344 4288085770
8.20784 6.1595879 -1.7266657 4288085770
8.6799927 6.2815719 -1.7244474 4288085770
9.12117 6.3826013 -1.7159593 4288085770
9.5923309 6.4906211 -1.7086427 4288085770
10.088486 6.6026239 -1.7034566 4288085770
10.57666 6.7036633 -1.6931629 4288085770
11.113815 6.8166771 -1.6861527 4288085770
11.68898 6.9366865 -1.6793467 4288085770
12.232162 7.0377212 -1.6692802 4288085770
12.834335 7.1527433 -1.660552 4288085770
13.482498 7.2747464 -1.6540611 4288085770
14.180664 7.4077387 -1.6488513 4288085770
14.859818 7.5227537 -1.6404407 4288085770
15.145889 -2.0987692 -1.7740151 4288085770
14.400024 -2.133708 -1.7707036 4288085770
13.810104 -2.1777391 -1.7789729 4288085770
13.225189 -2.2147484 -1.7843106 4288085770
12.573318 -2.2326889 -1.7805026 4288085770
12.061401 -2.2657261 -1.789168 4288085770
11.517502 -2.286725 -1.7927837 4288085770
11.006592 -2.3067341 -1.7975417 4288085770
10.4897 -2.3177147 -1.798337 4288085770
10.008804 -2.3277206 -1.8022872 4288085770
9.5619049 -2.338727 -1.8063705 4288085770
9.1190033 -2.3437223 -1.8085114 4288085770
8.7050934 -2.3477325 -1.8127786 4288085770
8.2762299 -2.3447151 -1.8130318 4288085770
14.836243 -3.6991005 -1.8068154 4288085770
7.8553467 -2.3366842 -1.8113523 4288085770
13.96936 -3.6350803 -1.8106806 4288085770
7.487442 -2.3356991 -1.8158429 4288085770
13.175461 -3.5750656 -1.8148193 4288085770
7.1295624 -2.3296947 -1.8174095 4288085770
12.405548 -3.5110407 -1.8170843 4288085770
6.7976532 -2.3267126 -1.8220621 4288085770
11.71666 -3.4540339 -1.8216357 4288085770
6.4867554 -2.3227406 -1.8278085 4288085770
11.078766 -3.4020424 -1.8273624 4288085770
6.1538696 -2.3107309 -1.8285186 4288085770
10.438873 -3.3400135 -1.8281497 4288085770
5.861969 -2.3047523 -1.8333567 4288085770
9.8429871 -3.2819948 -1.8300908 4288085770
5.5460815 -2.2887383 -1.8331642 4288085770
9.2681122 -3.2219648 -1.8301318 4288085770
5.2262268 -2.2666941 -1.8289968 4288085770
8.7602234 -3.1699629 -1.833395 4288085770
4.9533386 -2.2516966 -1.8309752 4288085770
8.2833252 -3.1209621 -1.8367648 4288085770
4.7074432 -2.2417231 -1.8360302 4288085770
7.7764587 -3.0589104 -1.8331002 4288085770
4.4485626 -2.2257261 -1.8380728 4288085770
7.341568 -3.0089073 -1.8356502 4288085770
4.1996765 -2.2077255 -1.8391705 4288085770
6.9276886 -2.9599056 -1.83828 4288085770
3.9487915 -2.1877079 -1.8382734 4288085770
6.5487823 -2.9159203 -1.8430195 4288085770
3.7319031 -2.1737309 -1.8424753 4288085770
6.1709137 -2.8659077 -1.843805 4288085770
3.4970245 -2.1507158 -1.841665 4288085770
5.8030396 -2.8158951 -1.8446311 4288085770
3.2831421 -2.1327229 -1.8439065 4288085770
5.4271698 -2.759841 -1.8394653 4288085770
3.09021 -2.1167479 -1.8482212 4288085770
5.1082764 -2.7138395 -1.8414662 4288085770
2.8863525 -2.0947418 -1.8485318 4288085770
4.796402 -2.6678257 -1.8414961 4288085770
2.7154388 -2.0817814 -1.8549165 4288085770
4.5285034 -2.631856 -1.8476387 4288085770
2.5295563 -2.0597868 -1.8563015 4288085770
4.2536011 -2.5888529 -1.8488008 4288085770
2.3276978 -2.0317459 -1.8516617 4288085770
3.9937134 -2.5488577 -1.851004 4288085770
2.1548004 -2.0107508 -1.8530931 4288085770
3.750824 -2.5098715 -1.8542708 4288085770
1.9799347 -1.985734 -1.8515441 4288085770
3.4959564 -2.4648476 -1.8525292 4288085770
1.8020782 -1.958703 -1.8479964 4288085770
3.2720642 -2.4268551 -1.8548673 4288085770
1.6551666 -1.9397306 -1.8525214 4288085770
3.0491943 -2.3878565 -1.8562163 4288085770
1.4923096 -1.9137096 -1.8500286 4288085770
2.8273163 -2.3448353 -1.8545972 4288085770
1.3444214 -1.8907089 -1.8505774 4288085770
2.595459 -2.296793 -1.8499709 4288085770
1.2005463 -1.8667097 -1.8511493 4288085770
2.4105682 -2.262804 -1.8524427 4288085770
1.0656586 -1.8447161 -1.8527448 4288085770
2.2087097 -2.2207861 -1.8508991 4288085770
0.92977905 -1.8207102 -1.8523498 4288085770
2.024826 -2.181776 -1.8504095 4288085770
0.7979126 -1.7956982 -1.8509781 4288085770
1.8559418 -2.1467733 -1.8509542 4288085770
0.68103027 -1.7757139 -1.8536342 4288085770
1.7020569 -2.1147938 -1.8545402 4288085770
0.56712341 -1.7547379 -1.857309 4288085770
1.5311737 -2.0747709 -1.8521105 4288085770
0.45223999 -1.7317419 -1.8579941 4288085770
1.3802948 -2.0407782 -1.8537228 4288085770
1.2344208 -2.006772 -1.8533558 4288085770
1.0835571 -1.968749 -1.8509957 4288085770
0.95266724 -1.936759 -1.852677 4288085770
0.8217926 -1.9037523 -1.852365 4288085770
0.69691467 -1.8707552 -1.8530782 4288085770
0.57003784 -1.8367424 -1.8517897 4288085770
0.44317627 -1.8007164 -1.8485152 4288085770
0.45504761 0.3140316 -1.8054736 4288085770
0.54721069 0.32508135 -1.796966 4288085770
0.65933228 0.33709335 -1.7935539 4288085770
0.79646301 0.34806108 -1.7962445 4288085770
0.94056702 0.36003399 -1.7979738 4288085770
1.0896759 0.37199926 -1.8007256 4288085770
1.2368011 0.38299322 -1.7994617 4288085770
1.3949432 0.39397955 -1.7992469 4288085770
0.44396973 0.40101814 -1.8021108 4288085770
1.555069 0.40597248 -1.7980481 4288085770
0.58308411 0.41097689 -1.8058041 4288085770
1.7321777 0.4169569 -1.7979181 4288085770
0.71022034 0.4199729 -1.804438 4288085770
1.9133148 0.42794895 -1.7968062 4288085770
0.84933472 0.42896175 -1.8041251 4288085770
2.0954437 0.43896008 -1.7926995 4288085770
1.0004425 0.43793392 -1.8058654 4288085770
2.2975769 0.45094204 -1.7926884 4288085770
1.1455841 0.44693661 -1.8035798 4288085770
2.5166931 0.46192312 -1.7927462 4288085770
1.300705 0.45492268 -1.8033316 4288085770
2.7318573 0.47293186 -1.7887868 4288085770
1.4658356 0.46291542 -1.8021282 4288085770
2.95401 0.48295546 -1.7828518 4288085770
1.6469574 0.4718914 -1.8030032 4288085770
3.2111359 0.49393892 -1.7820795 4288085770
1.8430634 0.47985649 -1.8059311 4288085770
3.4832458 0.50493145 -1.7803687 4288085770
2.0242004 0.48787022 -1.8018014 4288085770
3.786377 0.51589727 -1.781803 4288085770
2.2163391 0.49488163 -1.7977139 4288085770
4.1634521 0.52879 -1.7925798 4288085770
2.4194794 0.50188494 -1.7946755 4288085770
4.5125732 0.54076576 -1.7922269 4288085770
2.6346436 0.50790215 -1.7896838 4288085770
4.8537292 0.55077648 -1.7868258 4288085770
2.8697815 0.51490164 -1.7867887 4288085770
5.2158966 0.56080866 -1.778519 4288085770
3.1298981 0.52187967 -1.7870049 4288085770
5.6270294 0.57080555 -1.7744304 4288085770
3.3870239 0.52689171 -1.7821939 4288085770
6.0251923 0.57986259 -1.7622776 4288085770
3.6961517 0.53385735 -1.7836292 4288085770
6.517334 0.59084511 -1.7595583 4288085770
4.0512238 0.53977251 -1.791262 4288085770
7.3592987 0.60950565 -1.7984494 4288085770
4.4223328 0.54570961 -1.7959672 4288085770
8.0354004 0.62142706 -1.8025573 4288085770
4.7854614 0.5506978 -1.7936313 4288085770
8.5186615 0.62759733 -1.7737688 4288085770
5.1356354 0.55373049 -1.7852246 4288085770
9.2238159 0.63660145 -1.7659887 4288085770
5.5357819 0.55673599 -1.7800412 4288085770
9.8940582 0.64371872 -1.7430416 4288085770
5.9199677 0.55780268 -1.7667739 4288085770
10.782227 0.65371275 -1.7350868 4288085770
6.4190826 0.55977678 -1.765026 4288085770
11.765396 0.66271925 -1.7245506 4288085770
7.1421204 0.56554222 -1.7903037 4288085770
12.896561 0.67170429 -1.7156758 4288085770
7.9441223 0.57029295 -1.8169281 4282675967
14.201752 0.68068695 -1.7055792 4288085770
8.3614197 0.56352091 -1.7807575 4288085770
9.0815582 0.5614953 -1.7769723 4288085770
9.7407684 0.55559063 -1.7568895 4288085770
10.547958 0.54763031 -1.7434537 4288085770
11.511124 0.53961706 -1.7357159 4288085770
12.592285 0.52961445 -1.7254919 4288085770
13.906433 0.51653862 -1.7232902 4288085770
6.7563782 -5.0665531 -0.5608992 4293729569
6.7683258 -4.9898319 -0.59853595 4293729569
6.771286 -4.908102 -0.63516676 4293729569
6.7662659 -4.8223581 -0.66978896 4293729569
6.8492126 -4.7746506 -0.70855153 4293729569
7.0681152 -4.7820015 -0.7535587 4293729569
8.7438812 -5.3858919 -0.17510101 4293729569
8.6705627 -5.368083 -0.88291895 4293729569
8.7168427 -5.2751532 -0.21080489 4293729569
8.6945343 -5.2793493 -0.91870439 4293729569
8.7518005 -5.1894217 -0.24662104 4293729569
8.7974854 -5.221652 -0.95863926 4293729569
10.665482 -5.2722454 -0.47328198 4293729569
11.149521 -5.4584312 -1.3102721 4293729569
