# .PCD v0.7 - Point Cloud Data file format
VERSION 0.7
FIELDS x y z rgb
SIZE 4 4 4 4
TYPE F F F U
COUNT 1 1 1 1
WIDTH 1122
HEIGHT 1
VIEWPOINT 0 0 0 1 0 0 0
POINTS 1122
DATA ascii
6.5220032 -1.4179435 -1.8363481 4288085770
9.4667511 -1.9020324 -1.8536842 4288085770
6.6501617 -1.3867354 -1.8326354 4288085770
9.6689758 -1.8646884 -1.8461916 4288085770
6.8242188 -1.3615298 -1.8365967 4288085770
9.9011688 -1.8323312 -1.8421299 4288085770
6.9892883 -1.3333192 -1.8384416 4288085770
10.135391 -1.795939 -1.8341346 4288085770
7.1484528 -1.3030715 -1.8352096 4288085770
10.462479 -1.7715135 -1.8375037 4288085770
7.3185883 -1.2718186 -1.8331599 4288085770
10.797592 -1.7460637 -1.8390081 4288085770
7.5027161 -1.2425494 -1.8313141 4288085770
11.200623 -1.7265687 -1.8465345 4288085770
7.7307739 -1.2162747 -1.8361368 4288085770
11.561768 -1.69805 -1.8444755 4288085770
7.9508972 -1.1869683 -1.8358591 4288085770
11.93399 -1.666492 -1.8396165 4288085770
8.1909637 -1.1586537 -1.8378885 4288085770
12.368149 -1.6388812 -1.8387017 4288085770
8.424118 -1.1283135 -1.8358252 4288085770
12.851257 -1.6132255 -1.8405433 4288085770
8.6742554 -1.096951 -1.8340385 4288085770
13.375412 -1.58851 -1.8420241 4288085770
8.9334259 -1.0645614 -1.8304029 4288085770
13.954559 -1.5637164 -1.8433733 4288085770
9.2325287 -1.0341554 -1.8313813 4288085770
14.514786 -1.5318885 -1.8374832 4288085770
9.5626221 -1.0047183 -1.8338404 4288085770
15.181976 -1.5059571 -1.8372309 4288085770
9.8259125 -0.96525335 -1.8223288 4288085770
15.986053 -1.4838986 -1.8441076 4288085770
10.212997 -0.93474436 -1.8256967 4288085770
16.79126 -1.4557681 -1.8430519 4288085770
10.619095 -0.90319347 -1.8273733 4288085770
17.830322 -1.4374127 -1.8536048 4288085770
11.076172 -0.87058878 -1.8308632 4288085770
11.483398 -0.83196783 -1.8246164 4288085770
11.949615 -0.79328203 -1.8203008 4288085770
12.456818 -0.7525363 -1.8156502 4288085770
13.070938 -0.71369839 -1.8176708 4288085770
13.702133 -0.66978741 -1.8140035 4288085770
14.447235 -0.62777519 -1.8171184 4288085770
15.170517 -0.57870436 -1.8099473 4288085770
16.06366 -0.52947235 -1.8114588 4288085770
17.109772 -0.47805405 -1.8164039 4288085770
18.331848 -0.42142296 -1.8251698 4288085770
18.337753 1.2700758 -1.7726591 4288085770
17.509827 1.3449631 -1.762341 4288085770
16.780884 1.4179721 -1.7545564 4288085770
16.143906 1.4880848 -1.750186 4288085770
15.565918 1.5582752 -1.7467399 4288085770
15.018967 1.6225238 -1.7417283 4288085770
14.559952 1.6898532 -1.7421198 4288085770
14.119949 1.7542338 -1.7397835 4288085770
13.703003 1.8146539 -1.736774 4288085770
13.360947 1.879138 -1.7389719 4288085770
12.991043 1.9356456 -1.7336645 4288085770
12.675049 1.997189 -1.7332449 4288085770
12.38205 2.0557637 -1.7331595 4288085770
12.11705 2.115375 -1.7335212 4288085770
11.874054 2.1760154 -1.734236 4288085770
11.630112 2.2336798 -1.7319105 4288085770
11.396164 2.2893577 -1.7297242 4288085770
11.222137 2.3530712 -1.7335448 4288085770
11.030167 2.4108038 -1.732033 4288085770
18.45343 3.767719 -1.7267487 4288085770
10.839233 2.466548 -1.7295203 4288085770
18.120331 3.8491893 -1.7322328 4288085770
10.693222 2.5303149 -1.7317801 4288085770
17.7034 3.9076343 -1.7262073 4288085770
10.542267 2.5891018 -1.7309191 4288085770
17.33046 3.9711287 -1.7219136 4288085770
10.407272 2.6509013 -1.7313342 4288085770
17.064407 4.0517216 -1.7244389 4288085770
10.310211 2.7197165 -1.736403 4288085770
16.698547 4.1082592 -1.7161956 4288085770
10.197235 2.7815537 -1.7361629 4288085770
16.344711 4.1638393 -1.7051325 4288085770
10.05336 2.8383842 -1.7313955 4288085770
16.139694 4.2495298 -1.7066562 4288085770
9.9463806 2.9012375 -1.730258 4288085770
15.929703 4.3302383 -1.7050595 4288085770
9.8394623 2.9631 -1.7281125 4288085770
15.755676 4.4169865 -1.7050774 4288085770
9.7475128 3.0259819 -1.7262096 4288085770
15.590668 4.504755 -1.7042449 4288085770
9.6526031 3.087877 -1.7222521 4288085770
15.518539 4.6126022 -1.7100379 4288085770
9.5656891 3.1497829 -1.7184196 4288085770
15.319672 4.687386 -1.7015636 4288085770
9.4867554 3.213691 -1.7157297 4288085770
15.17276 4.7742128 -1.6970053 4288085770
9.4517517 3.2896302 -1.7168305 4288085770
15.082733 4.8750877 -1.6964581 4288085770
9.4277496 3.3675759 -1.71912 4288085770
15.040665 4.9900188 -1.6977816 4288085770
9.395752 3.4425282 -1.719259 4288085770
14.967682 5.0929337 -1.695518 4288085770
9.3707581 3.5204895 -1.7195334 4288085770
14.98056 5.2219186 -1.6998217 4288085770
9.3816986 3.610472 -1.7234735 4288085770
14.94957 5.3388982 -1.6973352 4288085770
9.3886719 3.6984582 -1.7263339 4288085770
14.935547 5.4618988 -1.6951661 4288085770
9.3846893 3.7834558 -1.725997 4288085770
14.952515 5.5939322 -1.6945591 4288085770
9.4216156 3.8824725 -1.7304208 4288085770
14.985474 5.7349958 -1.6932797 4288085770
9.49646 3.9965048 -1.739567 4288085770
15.0504 5.8860917 -1.6935863 4288085770
9.5363922 4.0985427 -1.742064 4288085770
15.128311 6.0432057 -1.6941476 4288085770
9.5723877 4.1995926 -1.7424898 4288085770
15.229218 6.2093577 -1.6941457 4288085770
9.6083832 4.3026514 -1.7419333 4288085770
15.392044 6.3995657 -1.6983192 4288085770
9.6513672 4.4057193 -1.7414858 4288085770
15.46907 6.5587382 -1.6918826 4288085770
9.7243347 4.5228181 -1.7426279 4288085770
15.631943 6.754981 -1.6921079 4288085770
9.8002625 4.6429119 -1.7448421 4288085770
15.786865 6.9502392 -1.6891997 4288085770
9.8832245 4.7670321 -1.7452002 4288085770
15.950836 7.1495347 -1.6834667 4288085770
9.9452667 4.8821602 -1.7411535 4288085770
16.135757 7.3608489 -1.6791649 4288085770
10.042221 5.014308 -1.7407994 4288085770
16.373657 7.5972333 -1.6759062 4288085770
10.126266 5.1424723 -1.7362082 4288085770
16.606583 7.8356366 -1.6695867 4288085770
10.249207 5.2876534 -1.736372 4288085770
16.822601 8.0680609 -1.6579504 4288085770
10.382156 5.4398565 -1.7357521 4288085770
10.515121 5.5920806 -1.7341416 4288085770
10.671082 5.7573309 -1.7319911 4288085770
10.870926 5.944603 -1.7347157 4288085770
11.07283 6.1359048 -1.7345064 4288085770
11.250824 6.3182173 -1.7288456 4288085770
11.448776 6.5115476 -1.7245913 4288085770
11.686691 6.7269311 -1.7211509 4288085770
11.921646 6.9443355 -1.7146809 4288085770
12.152664 7.1627607 -1.705157 4288085770
12.387711 7.3842173 -1.6927218 4288085770
12.672668 7.6347218 -1.683316 4288085770
13.061462 7.9433203 -1.6810319 4288085770
18.187012 -0.20216703 -1.8192255 4288085770
16.724197 -0.23223352 -1.8063605 4288085770
15.522263 -0.25799036 -1.8025639 4288085770
14.50528 -0.27951527 -1.8036618 4288085770
13.578339 -0.29789162 -1.8031781 4288085770
12.718414 -0.31214333 -1.7997665 4288085770
12.009399 -0.32623529 -1.8036878 4288085770
11.435257 -0.33922291 -1.8187029 4288085770
17.638443 -0.54896164 -1.8125989 4288085770
10.781387 -0.34615421 -1.8135381 4288085770
16.221558 -0.53896809 -1.8008008 4288085770
10.2733 -0.35500097 -1.8236101 4288085770
15.106491 -0.53366137 -1.8046241 4288085770
9.6655579 -0.35579205 -1.8102112 4288085770
14.110428 -0.52816916 -1.8072872 4288085770
9.1118011 -0.35652018 -1.7986472 4288085770
13.189484 -0.51952267 -1.8051369 4288085770
8.6768494 -0.3591814 -1.7999027 4288085770
12.365509 -0.51073647 -1.8034863 4288085770
8.2858887 -0.36079216 -1.8028467 4288085770
11.697418 -0.50580025 -1.8112097 4288085770
7.9318848 -0.36237192 -1.808362 4288085770
11.08136 -0.49877691 -1.8177547 4288085770
7.5879059 -0.36191034 -1.8110504 4288085770
10.47142 -0.48967552 -1.8164122 4288085770
7.2460327 -0.35940409 -1.8087883 4288085770
9.8396454 -0.47651768 -1.8047674 4288085770
6.9440918 -0.35787678 -1.8111351 4288085770
9.3426666 -0.46727228 -1.8061709 4288085770
6.626236 -0.35331297 -1.8062625 4288085770
8.8388062 -0.45496798 -1.799495 4288085770
6.3353577 -0.34972715 -1.8037982 4288085770
8.4268341 -0.44560814 -1.802212 4288085770
6.0694733 -0.34510994 -1.801729 4288085770
8.0448608 -0.43719912 -1.8043845 4288085770
5.8295441 -0.34048271 -1.803061 4288085770
7.7028656 -0.4277544 -1.8091834 4288085770
5.5787201 -0.3348093 -1.7972333 4288085770
7.3539124 -0.417274 -1.8088846 4288085770
5.3727417 -0.33015347 -1.8010907 4288085770
7.0469666 -0.4077549 -1.8112252 4288085770
5.1628571 -0.32446003 -1.7998958 4288085770
6.7151031 -0.39521027 -1.8062077 4288085770
4.9709167 -0.31874895 -1.8019865 4288085770
6.4282074 -0.38461018 -1.8048744 4288085770
4.7929993 -0.31303835 -1.8042853 4288085770
6.156311 -0.37300014 -1.8027744 4288085770
4.6120911 -0.30530548 -1.8035557 4288085770
5.8774872 -0.36035872 -1.7955761 4288085770
4.4401855 -0.29855299 -1.8019571 4288085770
5.6495514 -0.34972429 -1.7981462 4288085770
4.2882385 -0.29181576 -1.8056664 4288085770
5.4375916 -0.33905935 -1.799964 4288085770
4.1243744 -0.28403473 -1.8022008 4288085770
5.2217102 -0.32736635 -1.7977295 4288085770
3.9904175 -0.2772727 -1.8061883 4288085770
5.0337677 -0.31666994 -1.7999182 4288085770
3.8465271 -0.26848173 -1.8050401 4288085770
4.8438721 -0.30594158 -1.7980769 4288085770
3.7275543 -0.26170921 -1.8102593 4288085770
4.6589813 -0.29420567 -1.7963216 4288085770
3.5956726 -0.25290155 -1.8092966 4288085770
4.5149841 -0.28448391 -1.8031805 4288085770
4.3471069 -0.27271748 -1.8006885 4288085770
4.1822357 -0.25993776 -1.7972517 4288085770
4.0422974 -0.24916792 -1.7991827 4288085770
3.9023895 -0.23737955 -1.7991226 4288085770
3.7754517 -0.22658253 -1.8002546 4288085770
3.6495667 -0.21477652 -1.800411 4288085770
3.6060181 1.7710695 -1.7451491 4288085770
3.7251434 1.7922521 -1.7441463 4288085770
3.8413239 1.8104572 -1.7400718 4288085770
3.9873657 1.8376327 -1.7445328 4288085770
4.1175079 1.8578477 -1.7416887 4288085770
4.2616272 1.8800645 -1.741076 4288085770
4.4117279 1.9032812 -1.7415628 4288085770
4.5578918 1.9235268 -1.737963 4288085770
3.6369934 1.6840324 -1.7498152 4288085770
4.7190094 1.9467669 -1.7376175 4288085770
3.7501678 1.6952248 -1.7466333 4288085770
4.8751678 1.9670181 -1.7351699 4288085770
3.8762817 1.7094092 -1.7466753 4288085770
5.0482941 1.9892912 -1.7329986 4288085770
4.0014343 1.7216086 -1.7446849 4288085770
5.2274323 2.0125647 -1.7319274 4288085770
4.1355743 1.7348123 -1.74384 4288085770
5.4255066 2.037838 -1.734163 4288085770
4.281662 1.7490149 -1.7451868 4288085770
5.6236572 2.0611458 -1.7323818 4288085770
4.4247894 1.7612305 -1.7444704 4288085770
5.836731 2.0874481 -1.7338545 4288085770
4.5619812 1.7704649 -1.7406363 4288085770
6.062851 2.1127768 -1.7345169 4288085770
4.7171173 1.7826967 -1.7401023 4288085770
6.3158722 2.1441078 -1.7396426 4288085770
4.8652954 1.7909465 -1.7364275 4288085770
6.5709686 2.1724682 -1.7417734 4288085770
5.0433807 1.8051834 -1.7392612 4288085770
6.8340302 2.1998382 -1.7440166 4288085770
5.2194977 1.8164368 -1.7400384 4288085770
7.157959 2.2392139 -1.7562938 4288085770
5.4006042 1.8277044 -1.7398918 4288085770
7.4460602 2.2666359 -1.756918 4288085770
5.5887299 1.8379731 -1.7408426 4288085770
7.7541504 2.2950773 -1.7588556 4288085770
5.7779083 1.8462696 -1.7387917 4288085770
8.0334015 2.3125486 -1.7522554 4288085770
5.9770508 1.8535709 -1.737884 4288085770
8.3266144 2.3320394 -1.7458858 4288085770
6.2250671 1.8698702 -1.745801 4288085770
8.6717529 2.3575573 -1.7453609 4288085770
6.4581757 1.8801913 -1.7484372 4288085770
8.9820251 2.3720975 -1.7362065 4288085770
6.6932831 1.8885336 -1.7490864 4288085770
9.3831177 2.4016743 -1.7385693 4288085770
6.9503632 1.8978791 -1.7530789 4288085770
9.8361511 2.4372954 -1.7447765 4288085770
7.207489 1.9052429 -1.755054 4288085770
10.260315 2.4619393 -1.7434459 4288085770
7.4656372 1.9086342 -1.7540097 4288085770
10.65361 2.4756103 -1.733547 4288085770
7.761734 1.9160333 -1.7585785 4288085770
11.107819 2.4963212 -1.7296381 4288085770
8.0279083 1.9154449 -1.7566204 4288085770
11.585037 2.5170727 -1.7250795 4288085770
8.3070984 1.9138823 -1.7538517 4288085770
12.116211 2.5408797 -1.7233694 4288085770
8.5993042 1.9103379 -1.7512639 4288085770
12.676422 2.5627451 -1.7200844 4288085770
8.8875427 1.9038062 -1.746588 4288085770
13.298584 2.5876765 -1.7197692 4288085770
9.2366791 1.9023128 -1.747885 4288085770
13.949814 2.6106739 -1.7168784 4288085770
9.6137695 1.9008322 -1.7526078 4288085770
14.649033 2.6327472 -1.7137096 4288085770
9.9540253 1.88938 -1.7476802 4288085770
15.419205 2.6569076 -1.7126396 4288085770
10.345184 1.8809447 -1.7495546 4288085770
16.318298 2.6911922 -1.7196214 4288085770
10.741379 1.8695436 -1.7484789 4288085770
17.316376 2.7266288 -1.72612 4288085770
11.103714 1.8471565 -1.7397895 4288085770
18.411453 2.7641993 -1.7341132 4288085770
11.542908 1.8308134 -1.7393246 4288085770
12.001129 1.8114972 -1.7391222 4288085770
12.506317 1.7902446 -1.7396183 4288085770
13.024536 1.7640109 -1.7402682 4288085770
13.580734 1.7368298 -1.7414875 4288085770
14.185913 1.706697 -1.7454264 4288085770
14.760223 1.666584 -1.7418053 4288085770
15.440399 1.627564 -1.7458067 4288085770
16.147629 1.5825977 -1.7481666 4288085770
16.924835 1.53371 -1.7535567 4288085770
17.786011 1.4799209 -1.7621813 4288085770
17.170395 -5.9393287 -0.35791194 4293729569
17.029282 -6.0337491 -0.38093323 4293729569
14.261429 -5.2436376 -0.35279655 4293729569
13.963226 -5.2592597 -0.37212348 4293729569
13.669067 -5.2738738 -0.39152056 4293729569
13.621887 -5.370194 -0.41895556 4293729569
12.957581 -5.2422862 -0.42997909 4293729569
12.929382 -5.3395867 -0.45869362 4293729569
13.638306 -5.720015 -0.5131259 4293729569
10.96611 -5.3623433 -0.66164279 4293729569
10.932755 -5.4407296 -0.69944715 4293729569
9.5135651 -4.8975015 -0.6596458 4293729569
9.3232574 -4.8930192 -0.68579245 4293729569
9.1439362 -4.8895307 -0.71309745 4293729569
9.0206146 -4.9109912 -0.74403465 4293729569
9.0122375 -4.9833446 -0.78227246 4293729569
9.0635376 -5.0596213 -0.247298 4293729569
9.0158386 -5.061707 -0.82363963 4293729569
9.0201111 -5.1130404 -0.28716958 4293729569
9.0054169 -5.1320968 -0.8658638 4293729569
8.9987183 -5.1764283 -0.32728809 4293729569
8.9670105 -5.1875081 -0.90579391 4293729569
12.704315 -7.8213229 -1.7444971 4293729569
12.127014 -7.5902171 -1.7477524 4293729569
11.616714 -7.3880343 -1.7537725 4293729569
11.096466 -7.1728206 -1.7547553 4293729569
10.527328 -6.9215808 -1.7443109 4293729569
10.0681 -6.7252841 -1.7460556 4293729569
9.588974 -6.5109458 -1.739655 4293729569
9.1917572 -6.3385711 -1.7431316 4293729569
8.7896271 -6.1571527 -1.7406123 4293729569
8.4813843 -6.0246987 -1.7500901 4293729569
8.1152496 -5.8542295 -1.7480221 4293729569
7.7901001 -5.7037387 -1.7504013 4293729569
7.4919586 -5.5642095 -1.7530944 4293729569
10.983597 -7.6758828 -1.73454 4293729569
7.1998291 -5.424664 -1.7548792 4293729569
10.447235 -7.3947015 -1.7368596 4293729569
6.9147186 -5.2851014 -1.7557707 4293729569
9.9768982 -7.148458 -1.7428749 4293729569
6.6286621 -5.1404958 -1.7516916 4293729569
9.4666748 -6.8711648 -1.7365563 4293729569
6.3546295 -4.9998727 -1.7477603 4293729569
9.070343 -6.6588178 -1.7433987 4293729569
6.1275177 -4.8852382 -1.7503142 4293729569
8.6711121 -6.4404225 -1.7442493 4293729569
5.8964691 -4.7635818 -1.7498691 4293729569
8.3158722 -6.2439818 -1.7475755 4293729569
5.6724243 -4.6438985 -1.7475135 4293729569
7.9447174 -6.033504 -1.743783 4293729569
5.4843292 -4.5452189 -1.7515202 4293729569
7.6395111 -5.8620048 -1.7486501 4293729569
5.3102112 -4.4515271 -1.7566957 4293729569
7.3273163 -5.6814704 -1.748491 4293729569
5.1361542 -4.3558173 -1.7598891 4293729569
7.0571594 -5.5249038 -1.7517591 4293729569
4.9860229 -4.2741103 -1.7673235 4293729569
6.766037 -5.3513246 -1.7498584 4293729569
4.9525909 -4.2664819 -1.8038824 4293729569
6.5059509 -5.1947007 -1.7482796 4293729569
4.9291077 -4.2638593 -1.8425486 4288085770
6.2498779 -5.038054 -1.7447619 4293729569
4.9106293 -4.262238 -1.882282 4288085770
6.020752 -4.8964047 -1.7455225 4293729569
4.8532715 -4.2325749 -1.9106698 4288085770
5.7987213 -4.7577128 -1.7423642 4293729569
4.7012634 -4.1378007 -1.9101894 4288085770
5.6066132 -4.6340203 -1.744529 4293729569
4.5432892 -4.0380006 -1.9056623 4288085770
5.4285126 -4.5193172 -1.7478278 4293729569
4.3973236 -3.943193 -1.9022737 4288085770
5.2713928 -4.4155936 -1.7523489 4293729569
4.2583618 -3.8523746 -1.8989563 4288085770
5.1222839 -4.3148694 -1.7579651 4293729569
4.1194153 -3.7585387 -1.8936656 4288085770
5.0679321 -4.2751851 -1.7844858 4293729569
4.003418 -3.6787152 -1.8936005 4288085770
5.0784149 -4.274549 -1.8276489 4293729569
3.8974152 -3.6038861 -1.8946435 4288085770
5.0938721 -4.2759166 -1.87187 4288085770
3.7904205 -3.527041 -1.8936892 4288085770
5.0734406 -4.2512469 -1.9057739 4288085770
3.6695404 -3.4401546 -1.8856113 4288085770
4.9434052 -4.1554503 -1.9066355 4288085770
3.5755463 -3.3692994 -1.8858018 4288085770
4.7974243 -4.0476346 -1.9023607 4288085770
4.6704254 -3.950809 -1.9002771 4288085770
4.543457 -3.8529658 -1.8962033 4288085770
4.431488 -3.7631202 -1.8942866 4288085770
4.3125763 -3.6692481 -1.8882997 4288085770
4.2235565 -3.5923953 -1.8896177 4288085770
4.1146088 -3.5025105 -1.8837473 4288085770
4.0326233 -3.4286399 -1.8841457 4288085770
3.955658 -3.3577533 -1.8835938 4288085770
3.8757019 -3.283854 -1.8810229 4288085770
3.7967529 -3.2099528 -1.8784676 4288085770
3.7228241 -3.1390367 -1.8749619 4288085770
3.6598663 -3.0731215 -1.873579 4288085770
3.5949402 -3.0062003 -1.8711748 4288085770
3.6255035 -1.4189668 -1.8312082 4288085770
3.662674 -1.39187 -1.8259976 4288085770
3.7267456 -1.3717971 -1.8281324 4288085770
3.7997742 -1.3537374 -1.8333848 4288085770
3.8499298 -1.3296294 -1.8293436 4288085770
3.9160461 -1.307528 -1.828526 4288085770
3.9811707 -1.286427 -1.8276844 4288085770
4.0532684 -1.2653251 -1.8279481 4288085770
4.1213684 -1.2442126 -1.8261516 4288085770
4.1945038 -1.2230906 -1.8244307 4288085770
4.2945557 -1.206984 -1.829072 4288085770
4.3637085 -1.1838431 -1.8243082 4288085770
4.4558258 -1.1647134 -1.8248553 4288085770
4.5459442 -1.1455703 -1.8233726 4288085770
4.6350861 -1.1254182 -1.8208833 4288085770
3.5697327 -0.91202545 -1.8216972 4288085770
4.738205 -1.1062646 -1.820596 4288085770
3.6478424 -0.89390659 -1.8210251 4288085770
4.8463287 -1.0880961 -1.8193753 4288085770
3.7389069 -0.87679672 -1.8235397 4288085770
4.968399 -1.0709329 -1.8213563 4288085770
3.8160706 -0.85766029 -1.8208616 4288085770
5.084549 -1.052753 -1.8202555 4288085770
3.8992004 -0.83951759 -1.8182647 4288085770
5.2166443 -1.0355687 -1.8213871 4288085770
3.9913177 -0.82237911 -1.8177946 4288085770
5.3417816 -1.0173678 -1.8194218 4288085770
4.089447 -0.80523252 -1.8174145 4288085770
5.511795 -1.0041738 -1.8260896 4288085770
4.2054749 -0.79009533 -1.8212874 4288085770
5.6479645 -0.98594904 -1.8232896 4288085770
4.3026276 -0.77093363 -1.8189099 4288085770
5.8000946 -0.96871042 -1.821722 4288085770
4.3978119 -0.75174713 -1.8135021 4288085770
5.9781647 -0.95347929 -1.8255272 4288085770
4.5238953 -0.73657942 -1.8155255 4288085770
6.125351 -0.93321228 -1.8199103 4288085770
4.6520081 -0.72039938 -1.8165879 4288085770
6.3134766 -0.91793299 -1.8198664 4288085770
4.7651672 -0.70219803 -1.8124421 4288085770
6.5035858 -0.90065193 -1.8198698 4288085770
4.9072723 -0.68599892 -1.8137147 4288085770
6.7416534 -0.88834715 -1.8255513 4288085770
5.0513916 -0.66977453 -1.8140185 4288085770
6.9767303 -0.87400532 -1.828208 4288085770
5.1885529 -0.65153837 -1.8102357 4288085770
7.164978 -0.8526473 -1.8192191 4288085770
5.3496704 -0.6353054 -1.8107963 4288085770
7.3921814 -0.83526945 -1.8147821 4288085770
5.5128021 -0.61905909 -1.8103869 4288085770
7.666275 -0.81987953 -1.817034 4288085770
5.7008972 -0.60279703 -1.8123531 4288085770
7.9524078 -0.80445576 -1.8174667 4288085770
5.8860016 -0.58652115 -1.8122747 4288085770
8.2315826 -0.78700686 -1.8138115 4288085770
6.0791473 -0.56921625 -1.8103251 4288085770
8.5537415 -0.77151632 -1.8127859 4288085770
6.2842865 -0.55290413 -1.8095477 4288085770
8.8879242 -0.75499105 -1.8099494 4288085770
6.5054016 -0.53557968 -1.810019 4288085770
9.2760468 -0.74042702 -1.8119078 4288085770
6.7604828 -0.52022409 -1.8129842 4288085770
9.6781921 -0.72481728 -1.8110857 4288085770
7.0086365 -0.50284433 -1.811862 4288085770
10.136322 -0.71014833 -1.8130968 4288085770
7.2687836 -0.4854393 -1.8099201 4288085770
10.634445 -0.69542408 -1.8157096 4288085770
7.5748749 -0.46901369 -1.8136611 4288085770
11.174576 -0.68163109 -1.817946 4288085770
7.8799896 -0.45155525 -1.8133957 4288085770
11.702835 -0.66277885 -1.8110454 4288085770
8.1552582 -0.43005991 -1.8037148 4288085770
12.281082 -0.64485741 -1.8048882 4288085770
8.5104065 -0.41253138 -1.8042014 4288085770
12.989258 -0.62979889 -1.8056602 4288085770
8.8686218 -0.39295673 -1.799751 4288085770
13.77243 -0.61362886 -1.8065693 4288085770
9.3236542 -0.37632656 -1.8057325 4288085770
14.620651 -0.59633589 -1.8044646 4288085770
9.79776 -0.35764313 -1.8090172 4288085770
15.581879 -0.57987642 -1.8030512 4288085770
10.377731 -0.3418932 -1.8228693 4288085770
16.681122 -0.56321907 -1.8027139 4288085770
10.878967 -0.31908655 -1.8165958 4288085770
18.088181 -0.55021524 -1.8159738 4288085770
11.480133 -0.29818392 -1.816808 4288085770
12.011505 -0.27225733 -1.802012 4288085770
12.755646 -0.2501502 -1.8033834 4288085770
13.579803 -0.22593307 -1.8059752 4288085770
14.460022 -0.19958591 -1.803427 4288085770
15.47821 -0.17205858 -1.8039625 4288085770
16.625458 -0.1423173 -1.8024559 4288085770
18.126465 -0.11319256 -1.8182633 4288085770
17.502197 0.04847002 -1.8061724 4288085770
16.065308 0.042315006 -1.7977664 4288085770
14.868347 0.038491726 -1.7939465 4288085770
13.867325 0.035921097 -1.7960491 4288085770
12.965317 0.035508156 -1.7976415 4288085770
12.170349 0.035264492 -1.7988257 4288085770
11.536209 0.036173344 -1.8114107 4288085770
17.791138 0.025958061 -1.8002403 4288085770
10.960083 0.038180351 -1.8228672 4288085770
16.289246 0.033725262 -1.7889888 4288085770
10.455933 0.040273666 -1.837394 4288085770
15.078262 0.04087162 -1.7860551 4288085770
10.099548 0.043457985 -1.8681278 4282675967
14.025253 0.049234867 -1.7864795 4288085770
9.150589 0.050578594 -1.7980776 4288085770
13.161148 0.056832314 -1.7937045 4288085770
8.672699 0.055860996 -1.7950199 4288085770
12.311218 0.065534592 -1.7911484 4288085770
8.2577515 0.061207771 -1.7958982 4288085770
11.676041 0.073431969 -1.8047786 4288085770
7.8957825 0.067612648 -1.7995727 4288085770
11.111877 0.082429409 -1.819473 4288085770
7.5488129 0.073046684 -1.8024621 4288085770
10.53685 0.091497421 -1.8240056 4288085770
7.2378235 0.079524994 -1.8068953 4288085770
10.113586 0.1006546 -1.8457959 4288085770
6.9159241 0.08703661 -1.8051741 4288085770
9.3961029 0.11081553 -1.8132164 4288085770
6.6170197 0.094581127 -1.8037951 4288085770
8.7935028 0.12008047 -1.7893372 4288085770
6.3201752 0.10216331 -1.7984469 4288085770
8.3616028 0.12842703 -1.7869892 4288085770
6.0523071 0.10977697 -1.794529 4288085770
8.009552 0.13882065 -1.7938461 4288085770
5.8044128 0.11740446 -1.7929087 4288085770
7.6695862 0.14826536 -1.796874 4288085770
5.5755157 0.1250577 -1.7915709 4288085770
7.3446198 0.15873814 -1.7991335 4288085770
5.3496399 0.13273096 -1.7882781 4288085770
7.0865326 0.16923857 -1.8103878 4288085770
5.1537323 0.14142323 -1.7884393 4288085770
6.7377777 0.17979813 -1.7982926 4288085770
4.9528656 0.15013218 -1.7855265 4288085770
6.4508972 0.1893754 -1.7951097 4288085770
4.7848969 0.1588378 -1.7891035 4288085770
6.1929779 0.19997883 -1.7943661 4288085770
4.6209869 0.16757441 -1.7897406 4288085770
5.9192047 0.20962763 -1.7853775 4288085770
4.460083 0.17632437 -1.7894225 4288085770
5.6763458 0.22029448 -1.7798576 4288085770
4.3002014 0.18609285 -1.787128 4288085770
5.4694366 0.23096991 -1.7798722 4288085770
4.1702271 0.19484329 -1.7922699 4288085770
5.269516 0.24065399 -1.7799826 4288085770
4.0332947 0.20461798 -1.7933168 4288085770
5.0826111 0.25135803 -1.7802947 4288085770
3.8914337 0.21441984 -1.7902901 4288085770
4.9226379 0.26307487 -1.7840161 4288085770
3.7774658 0.22420216 -1.7946787 4288085770
4.7417603 0.27381277 -1.7814181 4288085770
3.6655273 0.23400354 -1.7970972 4288085770
4.5967865 0.28455067 -1.7853539 4288085770
4.4458771 0.29631424 -1.7852101 4288085770
4.3079376 0.30707932 -1.7872505 4288085770
4.1730194 0.31886578 -1.7873445 4288085770
4.0570526 0.32964468 -1.7917118 4288085770
3.9231873 0.3414588 -1.7888207 4288085770
3.8152313 0.35325766 -1.792316 4288085770
3.6744537 0.36311054 -1.7833049 4288085770
3.5844421 0.37591839 -1.7890756 4288085770
3.6161499 2.5751953 -1.7217979 4288085770
3.7382202 2.6163826 -1.721951 4288085770
3.8592834 2.6555696 -1.7220719 4288085770
3.9883575 2.6967683 -1.7223282 4288085770
4.1343842 2.7439656 -1.7258866 4288085770
4.2286682 2.7662239 -1.7124653 4288085770
4.3568268 2.8024559 -1.7086649 4288085770
4.5118561 2.8486829 -1.7103481 4288085770
3.5841217 2.4690623 -1.7273912 4288085770
4.6480255 2.8839426 -1.704658 4288085770
3.7032013 2.4992461 -1.7274063 4288085770
4.80513 2.9271984 -1.7033458 4288085770
3.8203278 2.5254455 -1.725358 4288085770
4.9692078 2.9704657 -1.7021375 4288085770
3.9374695 2.5516438 -1.7233095 4288085770
5.1452942 3.0177398 -1.7021403 4288085770
4.0785065 2.5858436 -1.7256839 4288085770
5.3064423 3.0560365 -1.6968453 4288085770
4.2126007 2.6160493 -1.7259209 4288085770
5.506485 3.1083379 -1.6982458 4288085770
4.3447418 2.6422791 -1.7230949 4288085770
5.6737061 3.1436598 -1.6910145 4288085770
4.4828491 2.6694994 -1.7223656 4288085770
5.9116516 3.2069743 -1.6980703 4288085770
4.638916 2.7027287 -1.7239535 4288085770
6.0948334 3.2453196 -1.6911011 4288085770
4.7850342 2.72997 -1.7223432 4288085770
6.3488007 3.3086653 -1.6973937 4288085770
4.9281769 2.7532239 -1.7186544 4288085770
6.6247101 3.3780258 -1.7060621 4288085770
5.0594177 2.770494 -1.7107375 4288085770
6.9226379 3.4514186 -1.71509 4288085770
5.2544098 2.8107467 -1.7169614 4288085770
7.2185822 3.5208256 -1.722055 4288085770
5.4364777 2.8430157 -1.7189257 4288085770
7.5275269 3.5912597 -1.7282207 4288085770
5.5847168 2.8603106 -1.7112603 4288085770
7.7996521 3.6447086 -1.7256956 4288085770
5.7648163 2.8866005 -1.7101443 4288085770
8.0887604 3.7001822 -1.723439 4288085770
5.9489288 2.9128976 -1.7090876 4288085770
8.3998566 3.7596798 -1.7225416 4288085770
6.1281281 2.9332204 -1.7039063 4288085770
8.7628174 3.8342092 -1.7275407 4288085770
6.3561707 2.9695387 -1.7085848 4288085770
9.1467896 3.90977 -1.7328589 4288085770
6.5622864 2.9948759 -1.706845 4288085770
9.5736847 3.9973593 -1.7429147 4288085770
6.8062897 3.031208 -1.71276 4288085770
10.01062 4.0819883 -1.7500935 4288085770
7.0951996 3.0785642 -1.7244339 4288085770
10.437653 4.1576447 -1.7520485 4288085770
7.3512573 3.11094 -1.7274928 4288085770
10.878708 4.2313309 -1.7531936 4288085770
7.6053467 3.1403224 -1.729497 4288085770
11.310806 4.2980299 -1.7511466 4288085770
7.8484802 3.1617219 -1.7272711 4288085770
11.76593 4.3637791 -1.7474318 4288085770
8.0766907 3.1751347 -1.7207558 4288085770
12.241058 4.4315586 -1.7440302 4288085770
8.3218994 3.1905549 -1.7165086 4288085770
12.700287 4.4873567 -1.7352903 4288085770
8.6009979 3.2129898 -1.7168238 4288085770
13.152557 4.5351696 -1.7233789 4288085770
8.8891296 3.2354476 -1.7162716 4288085770
13.708664 4.6060762 -1.7202015 4288085770
9.1992188 3.2579203 -1.7180452 4288085770
14.310791 4.6830473 -1.7177551 4288085770
9.5193176 3.2804067 -1.7199667 4288085770
14.898972 4.7490339 -1.711009 4288085770
9.9073029 3.3159418 -1.7290041 4288085770
15.533142 4.8190784 -1.7059774 4288085770
10.294296 3.3484759 -1.7380009 4288085770
16.263229 4.9062371 -1.7055101 4288085770
10.60054 3.352011 -1.731555 4288085770
17.120178 5.0165377 -1.7121167 4288085770
10.919739 3.3565483 -1.7273097 4288085770
18.070053 5.138948 -1.7232013 4288085770
11.269943 3.3621228 -1.7245314 4288085770
11.601181 3.3596869 -1.7194045 4288085770
11.981354 3.3642967 -1.7180614 4288085770
12.398483 3.3719344 -1.7202909 4288085770
12.786697 3.3675735 -1.7169905 4288085770
13.19989 3.3632314 -1.7160594 4288085770
13.630051 3.3579068 -1.7163718 4288085770
14.057281 3.3446031 -1.7135718 4288085770
14.502502 3.3293173 -1.7120211 4288085770
14.97171 3.3120668 -1.7108085 4288085770
15.421982 3.2848063 -1.7072303 4288085770
15.958115 3.2686121 -1.7120173 4288085770
16.493301 3.2434406 -1.7137132 4288085770
17.128357 3.2263577 -1.7239561 4288085770
17.742508 3.1962771 -1.7297783 4288085770
18.326706 3.1541715 -1.7330554 4288085770
17.955368 -4.8960862 -1.8840697 4288085770
17.329453 -4.8670421 -1.8790607 4288085770
16.731506 -4.8349652 -1.8754911 4288085770
16.176559 -4.8068337 -1.8735242 4288085770
15.6586 -4.780664 -1.8740873 4288085770
15.169571 -4.7574697 -1.877054 4288085770
14.700577 -4.7322469 -1.8803334 4288085770
14.269501 -4.7119927 -1.8871324 4288085770
13.835495 -4.6837173 -1.8909552 4288085770
13.440414 -4.6624198 -1.8992951 4288085770
13.02037 -4.6281161 -1.9023759 4288085770
16.989166 -5.9718232 -1.5435967 4293729569
12.660294 -4.6077743 -1.9122252 4288085770
14.375122 -5.2186942 -1.3923177 4293729569
12.267273 -4.5694327 -1.9157395 4288085770
14.049698 -5.2124953 -1.4255631 4293729569
11.881256 -4.5280633 -1.917383 4288085770
13.707306 -5.194304 -1.4566588 4293729569
11.51123 -4.4866862 -1.9212627 4288085770
13.700653 -5.2898421 -1.5187576 4293729569
11.121246 -4.4332976 -1.9199488 4288085770
13.651001 -5.3714375 -1.5793388 4293729569
10.720291 -4.3698945 -1.9145572 4288085770
12.95192 -5.2104726 -1.5703669 4293729569
10.310394 -4.2984767 -1.9061007 4288085770
12.923264 -5.2920442 -1.6322589 4293729569
9.9524536 -4.2400174 -1.902303 4288085770
12.957504 -5.3965898 -1.7028871 4293729569
9.6563873 -4.2015491 -1.9092519 4282675967
12.857849 -5.4502244 -1.758966 4293729569
9.3323975 -4.1470551 -1.9079232 4282675967
12.337677 -5.3340888 -1.7632604 4293729569
9.0284119 -4.0965514 -1.9088564 4282675967
11.762619 -5.1919513 -1.7569623 4293729569
8.7154388 -4.0370336 -1.9067328 4282675967
11.264542 -5.0707345 -1.7556252 4293729569
8.4135132 -3.9774833 -1.9027722 4288085770
10.828415 -4.9684663 -1.7600443 4293729569
8.1384888 -3.9259362 -1.9041426 4282675967
10.338364 -4.8391938 -1.7538941 4293729569
7.8485565 -3.863359 -1.899385 4288085770
9.9412537 -4.7408538 -1.7568564 4293729569
7.5825958 -3.8057656 -1.8969398 4288085770
9.5761414 -4.6504741 -1.7612243 4293729569
7.3066864 -3.7411599 -1.8914065 4288085770
9.2010345 -4.5530906 -1.763504 4293729569
7.071701 -3.691545 -1.8923519 4288085770
8.9138489 -4.4876542 -1.7758138 4293729569
6.8646545 -3.6499219 -1.8976433 4288085770
8.7025604 -4.452188 -1.7989926 4293729569
6.640686 -3.5982747 -1.8967688 4288085770
8.5601501 -4.4437041 -1.8329625 4288085770
6.4007721 -3.5356174 -1.8917511 4288085770
8.4317169 -4.4392171 -1.8691053 4288085770
6.191803 -3.4829469 -1.8911066 4288085770
8.3052979 -4.4327168 -1.9042947 4282675967
5.9998169 -3.4362693 -1.892663 4288085770
8.0800934 -4.3782058 -1.9194281 4282675967
5.8168182 -3.3905768 -1.8943436 4288085770
7.7720795 -4.2816663 -1.9156911 4282675967
5.6358185 -3.3428836 -1.896071 4288085770
7.4561615 -4.1771016 -1.9079156 4288085770
5.4120178 -3.2731395 -1.8843591 4288085770
7.2180634 -4.1065345 -1.9139876 4282675967
5.2440338 -3.226419 -1.8852663 4288085770
6.9939728 -4.0389466 -1.9202418 4282675967
5.0740814 -3.1766839 -1.8841693 4288085770
6.7020569 -3.9353166 -1.908797 4288085770
4.8971558 -3.120935 -1.8800204 4288085770
6.4501038 -3.8466878 -1.9048164 4288085770
4.7352448 -3.0701709 -1.8770514 4288085770
6.2171326 -3.7650304 -1.901058 4288085770
4.5952301 -3.0284257 -1.8803308 4288085770
5.9861908 -3.6813607 -1.8963463 4288085770
4.4333496 -2.9726367 -1.8744042 4288085770
5.7911682 -3.6126809 -1.8970399 4288085770
4.3023529 -2.931869 -1.8768089 4288085770
5.5861969 -3.5359817 -1.8936541 4288085770
4.158432 -2.8810782 -1.8741064 4288085770
5.4032135 -3.4682736 -1.8935175 4288085770
4.0364685 -2.8402896 -1.8756444 4288085770
5.1993103 -3.3875318 -1.8851812 4288085770
3.9025421 -2.7914767 -1.8720734 4288085770
5.0293274 -3.3218055 -1.8852201 4288085770
3.7686462 -2.7406554 -1.8675194 4288085770
4.8713226 -3.2600627 -1.8854027 4288085770
3.6616669 -2.7018456 -1.8692625 4288085770
4.6974182 -3.187284 -1.8784428 4288085770
4.546463 -3.1245131 -1.8767381 4288085770
4.3945312 -3.0607276 -1.8730276 4288085770
4.2605591 -3.0029416 -1.8725321 4288085770
4.1107025 -2.9351172 -1.8648856 4288085770
4.0016479 -2.8873363 -1.8696747 4288085770
3.8797302 -2.8325133 -1.867332 4288085770
3.7747192 -2.783709 -1.870189 4288085770
3.6747131 -2.736897 -1.8731031 4288085770
3.6432953 -0.40269041 -1.8036749 4288085770
3.7383881 -0.38953638 -1.8031723 4288085770
3.8285828 -0.37535572 -1.7986054 4288085770
3.9416656 -0.36319304 -1.8003578 4288085770
4.0517883 -0.35001612 -1.8000746 4288085770
4.1748962 -0.33782816 -1.8009732 4288085770
4.2810974 -0.32361603 -1.79564 4288085770
4.4141846 -0.31141424 -1.7966847 4288085770
4.543335 -0.29819202 -1.7946799 4288085770
3.605072 -0.21477604 -1.8026388 4288085770
4.6904449 -0.2859683 -1.7959292 4288085770
3.7191467 -0.2036109 -1.8043971 4288085770
4.848526 -0.27472782 -1.7973313 4288085770
3.8183441 -0.19140816 -1.7989445 4288085770
5.0066681 -0.26247072 -1.796742 4288085770
3.9424286 -0.18022823 -1.8008485 4288085770
5.1608276 -0.24920321 -1.7941022 4288085770
4.0605621 -0.16802311 -1.7986739 4288085770
5.3479156 -0.23791981 -1.7959282 4288085770
4.1857452 -0.15680695 -1.7965927 4288085770
5.5200958 -0.22561598 -1.7925434 4288085770
4.3397827 -0.14660549 -1.8019271 4288085770
5.7232056 -0.21330786 -1.7946119 4288085770
4.4719543 -0.13436222 -1.7979569 4288085770
5.9283447 -0.2009635 -1.7927096 4288085770
4.6270752 -0.12311792 -1.7983146 4288085770
6.1684265 -0.19061708 -1.797302 4288085770
4.7802124 -0.1118598 -1.7966428 4288085770
6.4175262 -0.17823172 -1.7990429 4288085770
4.945343 -0.10159206 -1.7961378 4288085770
6.7015533 -0.16783619 -1.8062789 4288085770
5.132431 -0.091317177 -1.7989545 4288085770
6.9926147 -0.15740538 -1.810617 4288085770
5.3255463 -0.080023766 -1.8008671 4288085770
7.2747955 -0.14493656 -1.8088408 4288085770
5.5107269 -0.069691658 -1.7966549 4288085770
7.5709686 -0.13243008 -1.8052688 4288085770
5.7298126 -0.05935955 -1.7989392 4288085770
7.8931427 -0.12089252 -1.8030689 4288085770
5.9429779 -0.04799509 -1.7961445 4288085770
8.2333374 -0.10831165 -1.7991402 4288085770
6.197052 -0.038627625 -1.8009319 4288085770
8.6075134 -0.096688747 -1.7967005 4288085770
6.4621429 -0.028226376 -1.8038888 4288085770
9.0047302 -0.084012508 -1.7926059 4288085770
6.7163391 -0.017782211 -1.7996848 4288085770
9.5876007 -0.075244904 -1.8131964 4288085770
7.0613251 -0.0083189011 -1.8108025 4288085770
10.300339 -0.066356182 -1.8446877 4288085770
7.35849 0.0021796227 -1.8082266 4288085770
10.732758 -0.052501678 -1.826113 4288085770
7.6906586 0.012714863 -1.8081627 4288085770
11.311981 -0.040519714 -1.8206706 4288085770
8.0149078 0.022298336 -1.8009734 4288085770
11.894363 -0.027465343 -1.8072808 4288085770
8.3800812 0.032916546 -1.7973917 4288085770
12.569656 -0.014296532 -1.7982504 4288085770
8.7952423 0.042594433 -1.7965322 4288085770
13.420807 -0.0029401779 -1.8007765 4288085770
9.3940735 0.051362038 -1.8203533 4288085770
14.314087 0.0095553398 -1.7949252 4288085770
10.218536 0.059276104 -1.8704686 4282675967
15.415268 0.021305084 -1.7991066 4288085770
10.533234 0.070097446 -1.8331418 4288085770
16.618515 0.034259319 -1.7987876 4288085770
11.145386 0.079079628 -1.8341529 4288085770
18.214539 0.045710564 -1.8151979 4288085770
11.668854 0.088096142 -1.813864 4288085770
12.334183 0.097259045 -1.8036501 4288085770
13.172348 0.1055975 -1.8059559 4288085770
14.052628 0.11406755 -1.8008754 4288085770
15.128815 0.12178087 -1.804651 4288085770
16.318039 0.12971401 -1.8040783 4288085770
17.830139 0.13606596 -1.8162093 4288085770
17.794266 0.30017042 -1.8089767 4288085770
16.342392 0.31685114 -1.7977822 4288085770
15.120422 0.33286238 -1.7928026 4288085770
14.118408 0.3491869 -1.7939041 4288085770
13.260361 0.36472464 -1.7980146 4288085770
12.422455 0.37936974 -1.7934008 4288085770
11.771347 0.39521122 -1.802412 4288085770
18.372971 0.58027363 -1.7892048 4288085770
11.253143 0.41219902 -1.8202929 4288085770
16.861084 0.58786154 -1.7771084 4288085770
10.650208 0.42620516 -1.8189638 4288085770
15.68605 0.59888649 -1.7797534 4288085770
10.301834 0.4463706 -1.8492486 4288085770
14.547165 0.60806704 -1.7708902 4288085770
9.7420349 0.45851994 -1.8395085 4288085770
13.671127 0.61957026 -1.7757227 4288085770
8.9797821 0.46167946 -1.7878618 4288085770
12.890091 0.63223553 -1.7798948 4288085770
8.5548859 0.47499371 -1.7850201 4288085770
12.120163 0.64198351 -1.7761991 4288085770
8.1829529 0.4883647 -1.7859204 4288085770
11.552063 0.65594482 -1.7873611 4288085770
7.8779144 0.50278997 -1.7937653 4288085770
11.063889 0.67200375 -1.802659 4288085770
7.5609436 0.51624584 -1.7954361 4288085770
10.54187 0.6850934 -1.8074594 4288085770
7.2739868 0.52974844 -1.7975271 4288085770
10.178619 0.70430326 -1.8295312 4288085770
7.0299377 0.54526615 -1.8062356 4288085770
9.6448364 0.71250057 -1.8191271 4288085770
6.7380829 0.55681896 -1.8012428 4288085770
8.9475098 0.7097106 -1.7743464 4288085770
6.4742126 0.56840706 -1.7976415 4288085770
8.5406342 0.72006941 -1.7697358 4288085770
6.2393188 0.58102369 -1.7964544 4288085770
8.2046661 0.73347902 -1.7731421 4288085770
5.9904938 0.59265852 -1.7900646 4288085770
7.9156189 0.74792862 -1.781214 4288085770
5.7656403 0.60432291 -1.7850103 4288085770
7.6087036 0.75941658 -1.7810111 4288085770
5.5507965 0.61600304 -1.7800968 4288085770
7.3297577 0.77293062 -1.7832167 4288085770
5.3678589 0.62869024 -1.780638 4288085770
7.0648193 0.78548431 -1.7836103 4288085770
5.1959686 0.64140368 -1.7803333 4288085770
6.8617554 0.80205727 -1.7939024 4288085770
5.0410156 0.65512562 -1.7822747 4288085770
6.581955 0.81066179 -1.7850561 4288085770
4.8900909 0.66886234 -1.7832725 4288085770
6.3610535 0.82329893 -1.7840662 4288085770
4.7481537 0.68260527 -1.7853963 4288085770
6.1331635 0.83494186 -1.7809715 4288085770
4.6082153 0.69635916 -1.7865484 4288085770
5.8944092 0.84361839 -1.7716997 4288085770
4.4792786 0.71012974 -1.7878544 4288085770
5.7134552 0.85730886 -1.7722783 4288085770
4.3692932 0.72489691 -1.7934337 4288085770
5.5295715 0.86901999 -1.7697992 4288085770
4.2493744 0.73868942 -1.7938662 4288085770
5.3686523 0.88274097 -1.7706578 4288085770
4.1195526 0.75050831 -1.7891436 4288085770
5.1958008 0.89448595 -1.7663333 4288085770
4.0235596 0.76630545 -1.7939274 4288085770
5.062851 0.90923452 -1.7695916 4288085770
3.9196472 0.78012323 -1.794584 4288085770
4.9199219 0.92299128 -1.7697027 4288085770
3.8077698 0.79295349 -1.7921212 4288085770
4.7860107 0.93676281 -1.7699397 4288085770
3.7078857 0.80579376 -1.7908261 4288085770
4.6640778 0.95054388 -1.7713442 4288085770
3.6109924 0.81963921 -1.7895813 4288085770
4.5611115 0.96732998 -1.7760386 4288085770
4.4481812 0.98213387 -1.7765775 4288085770
4.3422546 0.99694014 -1.7782147 4288085770
4.2204285 1.0087714 -1.7736046 4288085770
4.1304474 1.0255942 -1.7764814 4288085770
4.0235901 1.0384407 -1.7730892 4288085770
3.9306946 1.0532832 -1.7729087 4288085770
3.8487701 1.0691342 -1.7738898 4288085770
3.7638702 1.0839906 -1.7738211 4288085770
3.6779938 1.0988603 -1.771739 4288085770
3.602066 1.1147294 -1.7718046 4288085770
3.6524963 3.2950964 -1.7028134 4288085770
3.7485504 3.3572707 -1.7006431 4288085770
3.8466187 3.4184482 -1.6984921 4288085770
3.962616 3.4896286 -1.6996715 4288085770
4.0836334 3.5618167 -1.7009277 4288085770
4.2156067 3.6400206 -1.7023852 4288085770
4.3396759 3.7112386 -1.7006745 4288085770
4.4985809 3.8024521 -1.7066107 4288085770
4.6426086 3.8816915 -1.7062411 4288085770
3.5604858 3.2828705 -1.7063484 4288085770
4.8145294 3.9769411 -1.7103894 4288085770
3.6625671 3.3350627 -1.7031779 4288085770
5.0004272 4.079195 -1.7167881 4288085770
3.788559 3.4002423 -1.7064445 4288085770
5.192337 4.1814671 -1.7222686 4288085770
3.903656 3.4574549 -1.7034938 4288085770
5.3802948 4.2797661 -1.7236612 4288085770
4.0316772 3.5196614 -1.7037625 4288085770
5.5812378 4.3830767 -1.7262735 4288085770
4.1657104 3.5838785 -1.7041309 4288085770
5.761322 4.4714136 -1.7214727 4288085770
4.3146973 3.6550937 -1.7077627 4288085770
5.982254 4.5817633 -1.7234175 4288085770
4.4846191 3.7363236 -1.7137663 4288085770
6.205246 4.6901321 -1.7233734 4288085770
4.6306915 3.8015835 -1.7113075 4288085770
6.4491882 4.8075261 -1.7246921 4288085770
4.7917175 3.8728418 -1.7121038 4288085770
6.7071381 4.9299488 -1.7252448 4288085770
4.9766541 3.9551036 -1.7173214 4288085770
6.9601288 5.0473804 -1.7236867 4288085770
5.1516571 4.0303917 -1.7173431 4288085770
7.2321014 5.1698418 -1.7224312 4288085770
5.3297272 4.1036925 -1.7163892 4288085770
7.536026 5.3093352 -1.7237558 4288085770
5.5137482 4.1780033 -1.7155261 4288085770
7.8758545 5.4638596 -1.7286997 4288085770
5.7326813 4.2693257 -1.7202842 4288085770
8.2366943 5.6254153 -1.7339897 4288085770
5.9556274 4.3606625 -1.724097 4288085770
8.5946198 5.7810087 -1.7341883 4288085770
6.1746521 4.4450264 -1.7237973 4288085770
8.9814758 5.9486299 -1.7368844 4288085770
6.4165955 4.5393925 -1.7278957 4288085770
9.3674316 6.1092906 -1.7345085 4288085770
6.6486359 4.6237936 -1.7257736 4288085770
9.8282166 6.3040171 -1.739445 4288085770
6.9085999 4.7212038 -1.7281437 4288085770
10.300049 6.5007772 -1.742548 4288085770
7.180542 4.8206244 -1.7316945 4288085770
10.764954 6.6865759 -1.7394633 4288085770
7.4176483 4.8980665 -1.7255821 4288085770
11.217957 6.8603892 -1.7321134 4288085770
7.7185974 5.00454 -1.7285888 4288085770
11.692978 7.0382538 -1.7230983 4288085770
8.0155792 5.1050234 -1.7294905 4288085770
12.171051 7.2101555 -1.7100744 4288085770
8.335556 5.212544 -1.7307653 4288085770
12.697113 7.4001312 -1.6978586 4288085770
8.6755066 5.3250861 -1.7333562 4288085770
13.306 7.6261849 -1.6930804 4288085770
9.0383911 5.4456468 -1.7383287 4288085770
13.989822 7.8793449 -1.6905558 4288085770
9.422287 5.57024 -1.7436221 4288085770
9.8032532 5.6878705 -1.7438159 4288085770
10.172287 5.793499 -1.741745 4288085770
10.592239 5.9181886 -1.7425313 4288085770
11.015228 6.0368838 -1.7433083 4288085770
11.415314 6.1406021 -1.7366447 4288085770
11.856323 6.2563577 -1.7336435 4288085770
12.295395 6.3641281 -1.7285473 4288085770
12.789413 6.4889655 -1.7263465 4288085770
13.293427 6.6108274 -1.7232573 4288085770
13.811462 6.731719 -1.7193511 4288085770
14.334564 6.8466358 -1.7134633 4288085770
14.916565 6.9776173 -1.7115166 4288085770
15.475662 7.0916185 -1.7041247 4288085770
16.132614 7.2367086 -1.7043252 4288085770
16.72374 7.3457561 -1.6963208 4288085770
17.477631 7.5079799 -1.6999917 4288085770
18.30545 7.689301 -1.7068348 4288085770
18.373718 -1.9805427 -1.8694882 4288085770
17.670929 -2.0286765 -1.8644681 4288085770
16.911194 -2.0588422 -1.8518181 4288085770
16.325317 -2.1028352 -1.8534329 4288085770
15.693512 -2.1328435 -1.8475356 4288085770
15.167587 -2.1657453 -1.8500638 4288085770
14.617737 -2.1916423 -1.8473227 4288085770
14.129822 -2.2184844 -1.8504214 4288085770
13.647903 -2.2403007 -1.8516445 4288085770
13.179016 -2.2570815 -1.8510876 4288085770
12.727127 -2.2698359 -1.8507965 4288085770
12.310196 -2.2845531 -1.8529682 4288085770
11.892288 -2.2932611 -1.8541763 4288085770
11.485397 -2.2979312 -1.8525689 4288085770
17.912445 -3.5325866 -1.8901854 4288085770
11.093491 -2.3005843 -1.8521831 4288085770
17.030487 -3.4740119 -1.8846059 4288085770
10.703598 -2.2982106 -1.8488672 4288085770
16.300415 -3.4362636 -1.8889325 4288085770
10.348694 -2.2978053 -1.8490133 4288085770
15.542419 -3.3835044 -1.8860009 4288085770
10.005768 -2.2953839 -1.8493404 4288085770
14.80249 -3.324676 -1.8783665 4288085770
9.714798 -2.2989211 -1.8553288 4288085770
14.160477 -3.2787423 -1.877965 4288085770
9.3679352 -2.2874646 -1.8506768 4288085770
13.571472 -3.2367454 -1.8802559 4288085770
9.071991 -2.2829776 -1.8526638 4288085770
12.972504 -3.1836972 -1.8745019 4288085770
8.7690887 -2.272469 -1.8506055 4288085770
12.4505 -3.1425862 -1.8767021 4288085770
8.4891663 -2.2639422 -1.8508453 4288085770
11.933533 -3.0954366 -1.875021 4288085770
8.2102509 -2.2534118 -1.8511157 4288085770
11.444534 -3.0502419 -1.8737068 4288085770
7.9233856 -2.2358546 -1.8463354 4288085770
10.985565 -3.0050015 -1.8728032 4288085770
7.6914215 -2.2282767 -1.8502238 4288085770
10.529648 -2.9547238 -1.8679829 4288085770
7.427536 -2.210691 -1.8467584 4288085770
10.102692 -2.9064002 -1.8635428 4288085770
7.1896362 -2.1960807 -1.8456235 4288085770
9.7217255 -2.8660474 -1.8646655 4288085770
6.9776764 -2.1854634 -1.8488107 4288085770
9.3657227 -2.8276467 -1.865114 4288085770
6.7437897 -2.165832 -1.8457725 4288085770
9.0257568 -2.7892213 -1.8657818 4288085770
6.5597839 -2.1571975 -1.8523262 4288085770
8.7007599 -2.7507815 -1.8676543 4288085770
6.3478699 -2.1385398 -1.8505807 4288085770
8.3788147 -2.7093024 -1.8655939 4288085770
6.1399994 -2.1188664 -1.8478985 4288085770
8.0728607 -2.6698079 -1.8647356 4288085770
5.9460754 -2.1001897 -1.8473995 4288085770
7.7659302 -2.6252913 -1.8609056 4288085770
5.793045 -2.0915141 -1.8553774 4288085770
7.4740143 -2.5817494 -1.8572726 4288085770
5.6151428 -2.0728116 -1.8550973 4288085770
7.2210541 -2.5461802 -1.8581066 4288085770
5.4073181 -2.0420833 -1.8455071 4288085770
6.977066 -2.5105987 -1.8590634 4288085770
5.2483826 -2.0263686 -1.8474622 4288085770
6.759079 -2.4810004 -1.8633263 4288085770
5.0844574 -2.0056357 -1.8463905 4288085770
6.5141602 -2.4393773 -1.8593202 4288085770
4.927536 -1.984901 -1.8464143 4288085770
6.2962036 -2.4037471 -1.8596334 4288085770
4.7836151 -1.967155 -1.8475912 4288085770
6.0753021 -2.365088 -1.8559308 4288085770
4.6277161 -1.9433932 -1.8446541 4288085770
5.8633881 -2.3264146 -1.8523514 4288085770
4.491806 -1.9246268 -1.8449488 4288085770
5.6734467 -2.2927403 -1.8530312 4288085770
4.35289 -1.9028554 -1.8442278 4288085770
5.4894867 -2.259048 -1.8527932 4288085770
4.2329254 -1.8850884 -1.8477325 4288085770
5.3065796 -2.2233377 -1.8505857 4288085770
4.1060028 -1.8642983 -1.8471673 4288085770
5.1326294 -2.188622 -1.8494928 4288085770
3.9860687 -1.8445153 -1.8486891 4288085770
4.9657135 -2.1548867 -1.8474879 4288085770
3.8542023 -1.8187013 -1.8440974 4288085770
4.837677 -2.1321721 -1.8559237 4288085770
3.7352905 -1.7968907 -1.8426499 4288085770
4.6707916 -2.0944123 -1.8509521 4288085770
3.6313324 -1.778091 -1.8453822 4288085770
4.5019531 -2.0546317 -1.8429704 4288085770
4.3590088 -2.0218682 -1.8422852 4288085770
4.2220917 -1.990087 -1.8406739 4288085770
4.1200562 -1.9693236 -1.8484492 4288085770
3.9811859 -1.9325137 -1.8428524 4288085770
3.8612671 -1.9027219 -1.843457 4288085770
3.744339 -1.8729091 -1.8421028 4288085770
3.6413727 -1.8461061 -1.8449147 4288085770
3.6575775 0.2049408 -1.7890289 4288085770
3.7667084 0.21612263 -1.7885847 4288085770
3.8917847 0.22831297 -1.7903643 4288085770
3.996994 0.23952961 -1.7848661 4288085770
4.1290588 0.25173092 -1.7867393 4288085770
4.2601929 0.26295567 -1.7855916 4288085770
4.4003143 0.27418613 -1.7855647 4288085770
4.5414581 0.2854352 -1.7835515 4288085770
3.6593781 0.28591728 -1.7886596 4288085770
4.6975861 0.29669094 -1.7837403 4288085770
3.7824554 0.2951045 -1.7903872 4288085770
4.8527222 0.30796051 -1.7819154 4288085770
3.9145508 0.30430555 -1.7922361 4288085770
5.0318146 0.31924438 -1.7834136 4288085770
4.0496521 0.3135128 -1.7941248 4288085770
5.2139587 0.33054781 -1.7829525 4288085770
4.1708374 0.32175398 -1.7888179 4288085770
5.4000854 0.34186697 -1.7815452 4288085770
4.3209381 0.32998371 -1.7909007 4288085770
5.6351013 0.35419798 -1.7888055 4288085770
4.4680939 0.3392415 -1.7889516 4288085770
5.8472443 0.36555719 -1.7877483 4288085770
4.6082764 0.34651375 -1.7838922 4288085770
6.0843506 0.3769331 -1.7900276 4288085770
4.7913361 0.35577059 -1.789427 4288085770
6.3753204 0.38932705 -1.8010418 4288085770
4.9554901 0.36306381 -1.7866907 4288085770
6.6753387 0.40276003 -1.8091855 4288085770
5.1396179 0.37037039 -1.7862234 4288085770
6.9414978 0.41321993 -1.8068473 4288085770
5.3626404 0.37967587 -1.794297 4288085770
7.1887665 0.42271423 -1.7962453 4288085770
5.5568085 0.38601446 -1.7919562 4288085770
7.4949341 0.43324614 -1.7934458 4288085770
5.7480164 0.3923831 -1.7855749 4288085770
7.8221283 0.44380951 -1.7909291 4288085770
6.0080414 0.40075207 -1.7931385 4288085770
8.1503448 0.45340824 -1.7844179 4288085770
6.2910461 0.40815067 -1.8020036 4288085770
