# .PCD v0.7 - Point Cloud Data file format
VERSION 0.7
FIELDS x y z rgb
SIZE 4 4 4 4
TYPE F F F U
COUNT 1 1 1 1
WIDTH 1124
HEIGHT 1
VIEWPOINT 0 0 0 1 0 0 0
POINTS 1124
DATA ascii
0.59527588 2.914161 -1.6520879 4288085770
1.84758 3.4848123 -1.6431839 4288085770
0.59028625 2.9540012 -1.6460249 4288085770
1.8644104 3.5428712 -1.6412628 4288085770
0.59420776 2.9989629 -1.6430752 4288085770
1.8911438 3.6080334 -1.6414349 4288085770
0.60113525 3.0449195 -1.6391799 4288085770
1.9079742 3.6680686 -1.6384676 4288085770
0.61698914 3.0949745 -1.6374204 4288085770
1.9505768 3.74137 -1.6408613 4288085770
0.62496948 3.1419139 -1.6325276 4288085770
1.9873199 3.8125439 -1.6391504 4288085770
0.66456604 3.2052455 -1.6370776 4288085770
2.0458374 3.8939846 -1.6437666 4288085770
0.68739319 3.2593417 -1.6354043 4288085770
2.1024323 3.9763439 -1.6453102 4288085770
0.72015381 3.319541 -1.6358464 4288085770
2.1441803 4.0495234 -1.6426804 4288085770
0.74108887 3.371556 -1.6311696 4288085770
2.2077942 4.1339006 -1.6433566 4288085770
0.79072571 3.4409001 -1.6338365 4288085770
2.2703857 4.2202711 -1.6439607 4288085770
0.82058716 3.4979899 -1.6302731 4288085770
2.3350372 4.3066072 -1.642616 4288085770
0.86732483 3.5652475 -1.6299107 4288085770
2.4017029 4.3949313 -1.6402771 4288085770
0.9140625 3.6334815 -1.6285255 4288085770
2.4792938 4.4893427 -1.6390789 4288085770
0.98062134 3.7119472 -1.6324174 4288085770
2.5747833 4.5949039 -1.640085 4288085770
1.0333557 3.7832162 -1.6311157 4288085770
2.6643524 4.6973839 -1.6390083 4288085770
1.0980225 3.8605778 -1.6309803 4288085770
2.7460327 4.7947254 -1.6338441 4288085770
1.1706543 3.9430091 -1.6319339 4288085770
2.8535309 4.90731 -1.6329949 4288085770
1.2323914 4.0192838 -1.6287463 4288085770
2.9640503 5.0228658 -1.6301529 4288085770
1.3169708 4.1087847 -1.6298435 4288085770
3.0855103 5.1455069 -1.6284292 4288085770
1.4094696 4.2043772 -1.6330044 4288085770
3.217926 5.2742128 -1.626847 4288085770
1.506958 4.3019753 -1.6352465 4288085770
3.3474274 5.401854 -1.6232121 4288085770
1.6144104 4.405632 -1.6376054 4288085770
3.4987946 5.5426455 -1.6208365 4288085770
1.7486267 4.5275822 -1.6462333 4288085770
3.6581573 5.6884837 -1.6185496 4288085770
1.8393707 4.619956 -1.6404159 4288085770
3.8482971 5.8555694 -1.6195657 4288085770
1.94104 4.7194157 -1.6357167 4288085770
4.0524139 6.031713 -1.6197307 4288085770
2.0496521 4.8219395 -1.6321261 4288085770
4.2843475 6.2260871 -1.6231911 4288085770
2.1613159 4.926434 -1.6265657 4288085770
4.5104675 6.4153113 -1.6216171 4288085770
2.3047333 5.0512285 -1.6263568 4288085770
4.7663879 6.6257544 -1.6223199 4288085770
2.4393158 5.1688805 -1.6220825 4288085770
5.0432129 6.8493185 -1.6232569 4288085770
2.590744 5.2986751 -1.6199625 4288085770
5.3737335 7.1093102 -1.6297367 4288085770
2.7719879 5.4467125 -1.6211889 4288085770
5.7004089 7.3671389 -1.6301615 4288085770
2.9473419 5.5906467 -1.6193559 4288085770
6.0083313 7.6106954 -1.6234286 4288085770
3.1426392 5.7466955 -1.6177557 4288085770
6.3818817 7.8987498 -1.6223576 4288085770
3.3528442 5.9118552 -1.6173284 4288085770
6.7913208 8.2099876 -1.620672 4288085770
3.5740356 6.0830545 -1.6160424 4288085770
3.8210602 6.27245 -1.6170018 4288085770
4.0930023 6.4760127 -1.6192734 4288085770
4.3888397 6.694715 -1.6218097 4288085770
4.6996613 6.9214816 -1.623543 4288085770
5.0502319 7.1755466 -1.628669 4288085770
5.3910675 7.4183936 -1.6267979 4288085770
5.7508698 7.6723042 -1.6231577 4288085770
6.1753082 7.9687052 -1.6251981 4288085770
6.6018677 8.2620268 -1.6233618 4288085770
15.183746 -0.66616631 -2.0865119 4288085770
14.271957 -0.72016478 -2.0823314 4288085770
13.280533 -0.7600174 -2.0597627 4288085770
12.403 -0.79514551 -2.0420144 4288085770
11.684204 -0.83013821 -2.036351 4288085770
10.954544 -0.85834074 -2.024245 4288085770
10.280853 -0.88223362 -2.0124781 4288085770
9.6860352 -0.90556335 -2.0067298 4288085770
9.1222382 -0.92475557 -1.9996808 4288085770
8.5834961 -0.93986988 -1.9901793 4288085770
14.827835 -1.5225663 -2.1203659 4288085770
8.0677185 -0.95184898 -1.9811952 4288085770
13.820816 -1.5132165 -2.109256 4288085770
7.6228333 -0.96531105 -1.9780719 4288085770
12.812012 -1.4950938 -2.0888898 4288085770
7.1281586 -0.96930742 -1.9634407 4288085770
11.917099 -1.4772677 -2.0724609 4288085770
6.7411957 -0.9803772 -1.963752 4288085770
11.065292 -1.4562793 -2.0530636 4288085770
6.3732452 -0.98938179 -1.9625037 4288085770
10.324356 -1.4395366 -2.0406206 4288085770
5.9366302 -0.98612881 -1.9451935 4288085770
9.6394501 -1.4215064 -2.0275867 4288085770
5.5279999 -0.98270941 -1.9285996 4288085770
9.0294647 -1.4059596 -2.0195386 4288085770
5.1662598 -0.97991657 -1.9172289 4288085770
8.427597 -1.3865056 -2.0056059 4288085770
4.856369 -0.98167229 -1.9133017 4288085770
7.8746948 -1.3677382 -1.9939487 4288085770
4.5604706 -0.98036671 -1.9086621 4288085770
7.380722 -1.3505712 -1.9858453 4288085770
4.2676239 -0.97709322 -1.9020541 4288085770
6.9177856 -1.3332419 -1.977536 4288085770
3.9907837 -0.97272301 -1.8958313 4288085770
6.5127258 -1.3184724 -1.974777 4288085770
3.7179718 -0.96640062 -1.8866651 4288085770
6.0818329 -1.2980256 -1.9642174 4288085770
3.476059 -0.96277571 -1.8833597 4288085770
5.638092 -1.2718205 -1.9461877 4288085770
3.2600708 -0.9609251 -1.883765 4288085770
5.2433014 -1.2482781 -1.9314806 4288085770
3.0381622 -0.95520496 -1.8799245 4288085770
4.9013519 -1.2302747 -1.9242666 4288085770
2.8163147 -0.94753265 -1.874038 4288085770
4.5714569 -1.2102494 -1.915313 4288085770
2.6173553 -0.9416523 -1.8717849 4288085770
4.2476044 -1.1882348 -1.9044669 4288085770
2.4224396 -0.9337945 -1.8675883 4288085770
3.9556885 -1.1689816 -1.8965085 4288085770
2.2305298 -0.92491961 -1.8634446 4288085770
3.70961 -1.1552906 -1.8968632 4288085770
2.0536041 -0.91793251 -1.8607309 4288085770
3.4596405 -1.1377163 -1.8930237 4288085770
1.8836823 -0.90990353 -1.8581736 4288085770
3.2176819 -1.1201191 -1.8883893 4288085770
1.7048187 -0.89802313 -1.8512938 4288085770
2.9747772 -1.1005983 -1.8806841 4288085770
1.5428925 -0.88797045 -1.8478935 4288085770
2.7428894 -1.0810356 -1.8722608 4288085770
1.3820496 -0.87698269 -1.8414977 4288085770
2.543869 -1.0641356 -1.8707488 4288085770
1.2361145 -0.86683464 -1.8385065 4288085770
2.3489075 -1.0472813 -1.8663399 4288085770
1.0922241 -0.85569811 -1.8345439 4288085770
2.1619263 -1.0303555 -1.8631356 4288085770
0.95428467 -0.8455019 -1.8317573 4288085770
1.9799805 -1.0124235 -1.8590357 4288085770
0.83329773 -0.83615875 -1.8314283 4288085770
1.8010559 -0.99449825 -1.8540137 4288085770
0.72521973 -0.82864189 -1.8354762 4288085770
1.6390991 -0.97744656 -1.8504484 4288085770
0.58047485 -0.81270123 -1.8233745 4288085770
1.4731903 -0.95849085 -1.8437359 4288085770
0.47346497 -0.80325079 -1.8244026 4288085770
1.3212128 -0.94038105 -1.8404028 4288085770
1.1712952 -0.92230606 -1.8351228 4288085770
1.0343475 -0.906106 -1.8322208 4288085770
0.90235901 -0.88887787 -1.8294222 4288085770
0.77641296 -0.87261248 -1.8268015 4288085770
0.64547729 -0.85344791 -1.8209832 4288085770
0.52453613 -0.83617687 -1.8174665 4288085770
0.43339539 -0.8235364 -1.8228304 4288085770
0.53283691 1.0424538 -1.7546756 4288085770
0.64393616 1.0560117 -1.7531912 4288085770
0.75602722 1.0695744 -1.7517316 4288085770
0.8790741 1.083251 -1.7525513 4288085770
1.0121155 1.0979862 -1.7536013 4288085770
1.1531219 1.1137919 -1.755831 4288085770
1.2911987 1.1275096 -1.7550333 4288085770
0.4724884 1.0371404 -1.7562163 4288085770
1.4303436 1.1402092 -1.7532852 4288085770
0.59350586 1.0478535 -1.7590549 4288085770
1.5962982 1.1561885 -1.7571499 4288085770
0.70661926 1.0564246 -1.7577407 4288085770
1.7752075 1.1732926 -1.7633202 4288085770
0.81782532 1.0639114 -1.7534006 4288085770
1.9462585 1.1882296 -1.7643378 4288085770
0.95387268 1.0746908 -1.7556217 4288085770
2.1352386 1.2043214 -1.7677877 4288085770
1.1047974 1.0866523 -1.7621987 4288085770
2.3262482 1.2193999 -1.770313 4288085770
1.2161102 1.0910454 -1.7539322 4288085770
2.5054474 1.2312665 -1.7666085 4288085770
1.3750763 1.1020083 -1.7587368 4288085770
2.7164764 1.2464414 -1.7686431 4288085770
1.5321503 1.1108885 -1.7605412 4288085770
2.9494476 1.262794 -1.7732131 4288085770
1.7239532 1.1231647 -1.7711589 4288085770
3.1735382 1.276999 -1.7736037 4288085770
1.8960266 1.1321335 -1.7733438 4288085770
3.4354706 1.2935491 -1.7799108 4288085770
2.0641632 1.1390076 -1.7724769 4288085770
3.7044678 1.3100672 -1.783397 4288085770
2.2333527 1.1448393 -1.7696598 4288085770
3.9964294 1.3267703 -1.7894676 4288085770
2.4443359 1.1541123 -1.7758358 4288085770
4.3312531 1.3468237 -1.8005588 4288085770
2.6593475 1.1623597 -1.7801378 4288085770
4.6313629 1.3614321 -1.800884 4288085770
2.854538 1.1663475 -1.7780306 4288085770
4.9594727 1.3752074 -1.8019459 4288085770
3.0885925 1.1726851 -1.7818644 4288085770
5.3125305 1.3901544 -1.8046186 4288085770
3.3366089 1.1801305 -1.7870305 4288085770
5.7363739 1.4106884 -1.8159754 4288085770
3.6085663 1.1877642 -1.7948058 4288085770
6.1623383 1.4281406 -1.823456 4288085770
3.8915405 1.1944408 -1.8018854 4288085770
6.6690979 1.4511914 -1.8378761 4288085770
4.1607208 1.1968689 -1.801708 4288085770
7.1620941 1.4689937 -1.8450625 4288085770
4.478714 1.2027545 -1.8097022 4288085770
7.7089996 1.4881635 -1.8555982 4288085770
4.7550201 1.2011294 -1.8058012 4288085770
8.2859802 1.5054412 -1.8639467 4288085770
5.1050262 1.2051806 -1.813657 4288085770
8.9358978 1.5261993 -1.8760803 4288085770
5.4671021 1.206233 -1.8188927 4288085770
9.6606903 1.5484505 -1.8920968 4288085770
5.9049225 1.2129498 -1.8349369 4288085770
10.408676 1.5666962 -1.9027965 4288085770
6.3558197 1.215673 -1.8484089 4288085770
11.235657 1.5853872 -1.9145076 4288085770
6.8218231 1.2153916 -1.8583372 4288085770
12.180573 1.6068025 -1.9301732 4288085770
7.2889404 1.2120204 -1.8643639 4288085770
13.235428 1.6288714 -1.9486372 4288085770
7.8269348 1.2091923 -1.8771951 4288085770
14.425262 1.6517191 -1.9695361 4288085770
8.3671112 1.2032084 -1.8831522 4288085770
8.9881744 1.1958027 -1.8952162 4288085770
9.6741791 1.1878061 -1.9099576 4288085770
10.400253 1.176002 -1.9238131 4288085770
11.203323 1.162631 -1.9386761 4288085770
12.024567 1.1412497 -1.9491918 4288085770
13.087402 1.1255927 -1.977762 4288085770
14.142548 1.0996504 -1.9963729 4288085770
15.250977 1.0638123 -2.0075781 4288085770
2.6969604 -4.8758025 -0.464679 4293729569
2.4814606 -4.729279 -0.49066949 4293729569
2.3963165 -4.6728854 -0.52516341 4293729569
2.3823547 -4.6629834 -0.5655973 4293729569
2.4184723 -4.6867251 -0.61012244 4293729569
2.4254913 -4.6876473 -0.65335488 4293729569
2.4375 -4.6885381 -0.69671321 4293729569
2.4485016 -4.6884379 -0.74001622 4293729569
2.4584808 -4.6843419 -0.78320384 4293729569
2.4714966 -4.681252 -0.82549119 4293729569
2.7499084 -4.8307862 -0.45597506 4293729569
2.493515 -4.6820827 -0.86910415 4293729569
2.6235657 -4.7246728 -0.48721623 4293729569
2.5095062 -4.6759496 -0.91239524 4293729569
2.5824585 -4.6760154 -0.52302003 4293729569
2.5355072 -4.6757817 -0.95508599 4293729569
2.5964355 -4.6629462 -0.56409144 4293729569
2.565506 -4.6755404 -0.99987674 4293729569
2.6695709 -4.6874661 -0.60958076 4293729569
2.6034851 -4.6782508 -1.0449431 4293729569
2.7015533 -4.6822639 -0.65230203 4293729569
2.6304626 -4.6710534 -1.0884888 4293729569
2.7505951 -4.684958 -0.69564891 4293729569
2.6694489 -4.6707816 -1.1325085 4293729569
2.8026428 -4.6886325 -0.73909593 4293729569
2.7054138 -4.6655068 -1.1773303 4293729569
2.8416595 -4.6824117 -0.78097177 4293729569
2.7494202 -4.6652293 -1.2204773 4293729569
2.9037323 -4.6880527 -0.82372117 4293729569
2.793396 -4.6619287 -1.2645504 4293729569
2.9547272 -4.6847339 -0.86697316 4293729569
2.8593445 -4.6703973 -1.3134716 4293729569
3.004776 -4.678473 -0.9081285 4293729569
2.9173126 -4.6709886 -1.3589971 4293729569
2.9702911 -4.6676345 -1.4032991 4293729569
5.4468079 -6.2069612 -1.9379632 4293729569
5.15979 -5.9687839 -1.922888 4293729569
4.9358215 -5.7740731 -1.916476 4293729569
4.7358856 -5.5931945 -1.9120109 4293729569
4.562027 -5.4301276 -1.9096425 4293729569
8.47612 -7.6625876 -2.0094492 4293729569
4.3842316 -5.2641587 -1.9041007 4293729569
8.0936584 -7.3499236 -1.9931405 4293729569
4.2055206 -5.0982699 -1.8955348 4293729569
7.7682953 -7.0748391 -1.982198 4293729569
4.0767517 -4.9639049 -1.8960102 4293729569
7.4940186 -6.8333659 -1.976373 4293729569
3.9340668 -4.8217235 -1.891938 4293729569
7.2638092 -6.6185536 -1.9753168 4293729569
3.8274231 -4.7012448 -1.8923118 4293729569
6.4681702 -6.0842032 -1.8690565 4293729569
3.7078094 -4.5739226 -1.8891861 4293729569
5.5428314 -5.4862256 -1.7339318 4293729569
3.6111908 -4.4593844 -1.8899586 4293729569
5.5528259 -5.4194589 -1.7625949 4293729569
3.5156555 -4.3469129 -1.8878062 4293729569
5.6027527 -5.3733029 -1.7987797 4293729569
3.4350739 -4.2423024 -1.8882272 4293729569
6.0292816 -5.5285411 -1.903476 4293729569
3.4293823 -4.1798949 -1.9055865 4293729569
6.0592499 -5.4666295 -1.9337666 4293729569
3.536377 -4.1772418 -1.9502814 4293729569
5.9205017 -5.3144259 -1.9295509 4293729569
3.6593475 -4.1814427 -1.9975498 4288085770
5.8746948 -5.2123647 -1.9409268 4293729569
3.7433929 -4.1620774 -2.0352509 4288085770
5.8089447 -5.099524 -1.9475296 4293729569
3.697937 -4.0742517 -2.0369723 4288085770
5.6614075 -4.9465671 -1.935065 4293729569
3.5946503 -3.9570956 -2.0234997 4288085770
5.5039368 -4.789742 -1.9192512 4293729569
3.538269 -3.865459 -2.0198467 4288085770
5.4033966 -4.6633782 -1.9136312 4293729569
3.4829102 -3.7738166 -2.0162189 4288085770
5.3258667 -4.5488257 -1.9108856 4293729569
3.4246216 -3.6812644 -2.0094917 4288085770
5.2534027 -4.4372897 -1.9063399 4293729569
3.366333 -3.5897126 -2.0027893 4288085770
5.2138672 -4.3424077 -1.9090407 4293729569
3.3340149 -3.5109048 -2.0010593 4288085770
5.2272797 -4.2710586 -1.9196651 4293729569
3.3087006 -3.4350562 -1.9995792 4288085770
5.3704376 -4.2594132 -1.9560578 4293729569
3.2525177 -3.3465877 -1.989002 4288085770
5.572464 -4.2691913 -2.0034764 4293729569
3.2372284 -3.2766767 -1.987921 4288085770
5.7834778 -4.2798915 -2.0521462 4288085770
3.2249451 -3.2077479 -1.9869406 4288085770
5.9007263 -4.2475991 -2.0793722 4288085770
3.1957703 -3.1310668 -1.9793375 4288085770
5.8953094 -4.1625838 -2.080179 4288085770
3.1795807 -3.0622344 -1.9752572 4288085770
5.8560028 -4.0649447 -2.0728104 4288085770
3.1773376 -2.9972682 -1.9736273 4288085770
5.8426819 -3.9770751 -2.0693433 4288085770
3.16716 -2.9314246 -1.9687717 4288085770
5.7974701 -3.8775697 -2.0577762 4288085770
3.164978 -2.8675065 -1.9651668 4288085770
5.7861786 -3.7917361 -2.052408 4288085770
3.1727905 -2.8085046 -1.9629362 4288085770
5.802887 -3.7166629 -2.0510161 4288085770
3.1746216 -2.7465863 -1.9584816 4288085770
5.8026581 -3.6357875 -2.045049 4288085770
3.1984406 -2.6924405 -1.9587772 4288085770
5.8114319 -3.5588317 -2.0404069 4288085770
3.2082825 -2.6344743 -1.954622 4288085770
5.850174 -3.4906259 -2.0397418 4288085770
3.2361298 -2.5813518 -1.9530447 4288085770
5.8649902 -3.4156833 -2.0333011 4288085770
3.2569885 -2.5272946 -1.9502647 4288085770
5.8888092 -3.3436618 -2.0281608 4288085770
3.280899 -2.4742436 -1.9465859 4288085770
5.9525604 -3.2852788 -2.029372 4288085770
3.3267059 -2.4269633 -1.9476082 4288085770
5.9963989 -3.2191377 -2.024884 4288085770
3.3555908 -2.3748832 -1.9440806 4288085770
6.0601959 -3.1588283 -2.0230472 4288085770
3.4124298 -2.3305373 -1.9454544 4288085770
6.1290436 -3.0994868 -2.0213621 4288085770
3.4433746 -2.277493 -1.9399536 4288085770
6.2208099 -3.0469365 -2.0234277 4288085770
3.5032196 -2.2341542 -1.940428 4288085770
6.2976532 -2.989573 -2.0209939 4288085770
3.5581207 -2.1888938 -1.9387276 4288085770
6.3964996 -2.9370532 -2.0202386 4288085770
3.6209869 -2.1445594 -1.9382546 4288085770
6.4983521 -2.8845143 -2.0195591 4288085770
3.6809082 -2.0982928 -1.9356568 4288085770
6.6281281 -2.8387351 -2.0227573 4288085770
3.7458191 -2.054997 -1.9332583 4288085770
6.7430115 -2.7871432 -2.0214312 4288085770
3.8287048 -2.0145192 -1.9343879 4288085770
6.885849 -2.742312 -2.0239832 4288085770
3.8986359 -1.9692178 -1.9310682 4288085770
7.0466461 -2.699348 -2.0280397 4288085770
4.0054626 -1.9335465 -1.9349258 4288085770
7.1775513 -2.6477103 -2.02512 4288085770
4.0874176 -1.8901744 -1.931958 4288085770
7.3573914 -2.6066585 -2.0287063 4288085770
4.2221985 -1.8592629 -1.9396455 4288085770
7.5372467 -2.5636525 -2.0302446 4288085770
4.3260803 -1.8196855 -1.9403307 4288085770
7.7281189 -2.521584 -2.0320861 4288085770
4.4300385 -1.77918 -1.9379933 4288085770
7.9339905 -2.4804006 -2.035331 4288085770
4.5260162 -1.7347722 -1.933356 4288085770
8.1488647 -2.4382129 -2.0367806 4288085770
4.668869 -1.6999125 -1.9371498 4288085770
8.4036865 -2.4017138 -2.0423877 4288085770
4.8237305 -1.6659818 -1.9412715 4288085770
8.6466064 -2.3603835 -2.0435712 4288085770
4.9347534 -1.6215358 -1.935015 4288085770
8.9025269 -2.3199773 -2.0451076 4288085770
5.0956421 -1.5855927 -1.9382403 4288085770
9.2153473 -2.2861314 -2.0522563 4288085770
5.2555389 -1.5487065 -1.9394166 4288085770
9.511261 -2.2464871 -2.0548308 4288085770
5.4284515 -1.5127406 -1.9409459 4288085770
9.8601227 -2.2124772 -2.0608914 4288085770
5.6621399 -1.4841933 -1.9532101 4288085770
10.204041 -2.1745706 -2.0637295 4288085770
5.8809662 -1.4508586 -1.959976 4288085770
10.569962 -2.1355348 -2.0671008 4288085770
6.1217499 -1.4183679 -1.968322 4288085770
10.971893 -2.0973086 -2.0704081 4288085770
6.3735504 -1.3858371 -1.9759471 4288085770
11.464706 -2.0674195 -2.0812371 4288085770
6.6074524 -1.3475347 -1.9779713 4288085770
11.958588 -2.0335965 -2.0889947 4288085770
6.8583527 -1.3091321 -1.980427 4288085770
12.461502 -1.9967952 -2.0939085 4288085770
7.1202545 -1.2706647 -1.9831612 4288085770
13.065353 -1.9662957 -2.1055491 4288085770
7.4121246 -1.232995 -1.9876783 4288085770
13.71019 -1.9345765 -2.1172035 4288085770
7.6960907 -1.1914945 -1.9868972 4288085770
14.42897 -1.9043927 -2.1317799 4288085770
8.0229492 -1.1516414 -1.9912517 4288085770
15.153961 -1.8663707 -2.1383173 4288085770
8.3818207 -1.111599 -1.9964168 4288085770
8.7806244 -1.0722694 -2.0046175 4288085770
9.1765289 -1.0290809 -2.0076468 4288085770
9.5944519 -0.98281193 -2.0091603 4288085770
10.068268 -0.93811131 -2.0161388 4288085770
10.567184 -0.89136124 -2.0197031 4288085770
11.127014 -0.84320021 -2.0267861 4288085770
11.725861 -0.79283333 -2.033808 4288085770
12.414581 -0.74088383 -2.0450823 4288085770
13.155365 -0.68667555 -2.0556262 4288085770
14.002045 -0.62881374 -2.0697787 4288085770
14.949707 -0.56737804 -2.0854161 4288085770
14.723846 1.6036201 -1.9784191 4288085770
13.988663 1.6674061 -1.9651806 4288085770
13.27861 1.7242427 -1.9487498 4288085770
12.605637 1.7762265 -1.9303782 4288085770
12.02858 1.829854 -1.9174001 4288085770
11.507462 1.881815 -1.9058836 4288085770
11.046295 1.9351807 -1.8978536 4288085770
10.626114 1.9888153 -1.891856 4288085770
10.212021 2.0373878 -1.8821371 4288085770
9.7631836 2.0775819 -1.8647416 4288085770
9.4259949 2.1276851 -1.859937 4288085770
9.0799713 2.1736121 -1.8500087 4288085770
8.787796 2.2219596 -1.8453891 4288085770
8.4758301 2.2640395 -1.834419 4288085770
8.2276306 2.3136473 -1.8308833 4288085770
15.138443 3.4564567 -1.9016349 4288085770
7.9616089 2.3570256 -1.8220475 4288085770
14.686111 3.5130248 -1.8997486 4288085770
7.7285309 2.4026494 -1.8159916 4288085770
14.154129 3.5508995 -1.8873031 4288085770
7.5164032 2.4494219 -1.8114388 4288085770
13.741898 3.6036065 -1.8825276 4288085770
7.2934113 2.4920306 -1.8027127 4288085770
13.274979 3.6407933 -1.8687465 4288085770
7.0644684 2.5325546 -1.7918856 4288085770
12.889877 3.6895623 -1.8607547 4288085770
6.8963013 2.5805883 -1.7884171 4288085770
12.54068 3.7415688 -1.854594 4288085770
6.7202148 2.6265249 -1.7827981 4288085770
12.226532 3.7957585 -1.8482664 4288085770
6.5382233 2.6683531 -1.7741301 4288085770
11.939301 3.8531566 -1.8445427 4288085770
6.3742218 2.7122869 -1.7658651 4288085770
11.64122 3.9053664 -1.8356698 4288085770
6.2311249 2.759419 -1.7610519 4288085770
11.398972 3.9650064 -1.8320305 4288085770
6.1010284 2.8086286 -1.7565176 4288085770
11.139893 4.0184231 -1.8231151 4288085770
5.9520264 2.8516264 -1.7476561 4288085770
10.918732 4.0781131 -1.8170073 4288085770
5.8339539 2.8998821 -1.742449 4288085770
10.709534 4.1398735 -1.8111508 4288085770
5.7208862 2.9481428 -1.7363684 4288085770
10.501419 4.1985912 -1.803396 4288085770
5.6277313 3.00157 -1.7326648 4288085770
10.369049 4.2739029 -1.8031518 4288085770
5.5385742 3.0540206 -1.7290866 4288085770
10.235733 4.347136 -1.7999337 4288085770
5.4594574 3.1065068 -1.7247612 4288085770
10.097504 4.4183149 -1.7956407 4288085770
5.3604279 3.1558001 -1.7170088 4288085770
10.00209 4.4998202 -1.7951777 4288085770
5.291275 3.2103691 -1.7138846 4288085770
9.8957977 4.5771875 -1.7915404 4288085770
5.2360687 3.2690201 -1.7110126 4288085770
9.8263702 4.6668205 -1.7905328 4288085770
5.1640015 3.3224976 -1.7048395 4288085770
9.7559662 4.7534223 -1.7885749 4288085770
5.1237488 3.3852611 -1.7032435 4288085770
9.713501 4.8482385 -1.7891209 4288085770
5.0885162 3.4500289 -1.7007244 4288085770
9.6442261 4.9347477 -1.783191 4288085770
5.0632629 3.5168796 -1.6994064 4288085770
9.6077881 5.0315232 -1.7808392 4288085770
5.0201263 3.577527 -1.6937878 4288085770
9.5823364 5.1323633 -1.7786639 4288085770
5.0167542 3.6525569 -1.6948211 4288085770
9.5579529 5.23316 -1.7745149 4288085770
5.0154114 3.7275724 -1.694906 4288085770
9.542511 5.337009 -1.7705166 4288085770
5.006134 3.8014915 -1.6928146 4288085770
9.5520172 5.4510274 -1.7678969 4288085770
5.0048828 3.8764334 -1.6899011 4288085770
9.5476074 5.5589156 -1.7630756 4288085770
5.0036011 3.9523745 -1.6869614 4288085770
9.5611877 5.672883 -1.7575572 4288085770
5.0311432 4.0395832 -1.6884735 4288085770
9.638443 5.8143716 -1.75897 4288085770
5.0349274 4.1165047 -1.683636 4288085770
9.7336426 5.963964 -1.7606356 4288085770
5.0665131 4.206686 -1.6831744 4288085770
9.8587189 6.1267667 -1.764725 4288085770
5.1269531 4.3090973 -1.686137 4288085770
9.9838257 6.2925563 -1.7677438 4288085770
5.1764984 4.4073839 -1.6859281 4288085770
10.120911 6.4643641 -1.768914 4288085770
5.2349854 4.510746 -1.6868198 4288085770
10.278915 6.6473184 -1.7713373 4288085770
5.2915649 4.6140213 -1.6846626 4288085770
10.37529 6.8057141 -1.7648041 4288085770
5.3610382 4.7234221 -1.6846802 4288085770
10.537384 6.9925671 -1.7622287 4288085770
5.4474335 4.8409462 -1.6859243 4288085770
10.629883 7.1528125 -1.7505472 4288085770
5.522934 4.9563313 -1.683943 4288085770
10.779144 7.3404374 -1.7416213 4288085770
5.6113892 5.0777903 -1.6821382 4288085770
11.003036 7.5656462 -1.739651 4288085770
5.7098236 5.204308 -1.6804593 4288085770
11.191147 7.7745199 -1.7321784 4288085770
5.8142548 5.336834 -1.6777809 4288085770
11.408203 8.0015106 -1.7229846 4288085770
5.9196777 5.4703407 -1.6741025 4288085770
11.652161 8.2446814 -1.7150676 4288085770
6.0718536 5.6282434 -1.6760018 4288085770
6.2468872 5.8003268 -1.6801269 4288085770
6.4190063 5.9723186 -1.6811779 4288085770
6.5991211 6.1513062 -1.6802552 4288085770
6.8289642 6.3577056 -1.6849096 4288085770
7.0171204 6.544662 -1.6809871 4288085770
7.2679138 6.7671309 -1.683768 4288085770
7.5515747 7.0118132 -1.6878259 4288085770
7.8213959 7.2502646 -1.6856844 4288085770
8.0912323 7.4916902 -1.6824672 4288085770
8.4079132 7.7643847 -1.6796539 4288085770
8.7316132 8.0420437 -1.6738913 4288085770
14.952423 -0.17581081 -2.0554378 4288085770
13.772751 -0.21046972 -2.0395043 4288085770
12.620255 -0.23919725 -2.0151036 4288085770
11.642578 -0.26378775 -1.9990184 4288085770
10.765884 -0.28480673 -1.9843953 4288085770
9.9621887 -0.30144262 -1.9695055 4288085770
9.2663574 -0.31633997 -1.9613001 4288085770
8.5926514 -0.32725859 -1.9475496 4288085770
14.873306 -0.60198116 -2.0721653 4288085770
7.9968262 -0.33761549 -1.9397557 4288085770
13.592529 -0.59535265 -2.0486352 4288085770
7.4360809 -0.34489107 -1.927768 4288085770
12.453735 -0.58693266 -2.0266473 4288085770
6.933197 -0.35072184 -1.9212091 4288085770
11.455917 -0.57965279 -2.0092504 4288085770
6.4584045 -0.35546255 -1.9123299 4288085770
10.551056 -0.57084513 -1.9931643 4288085770
5.9876709 -0.35725689 -1.9004772 4288085770
9.7472076 -0.56046677 -1.9785903 4288085770
5.5429688 -0.3579731 -1.8862541 4288085770
9.038269 -0.55247259 -1.9684765 4288085770
5.1482239 -0.35734367 -1.8752601 4288085770
8.3784027 -0.54226446 -1.9565446 4288085770
4.8162231 -0.35911083 -1.8749182 4288085770
7.7715454 -0.53276777 -1.9449699 4288085770
4.4794006 -0.35708809 -1.8673537 4288085770
7.1907654 -0.52021933 -1.9299743 4288085770
4.160553 -0.35594797 -1.8612616 4288085770
6.694809 -0.5110302 -1.9232075 4288085770
3.890564 -0.35440063 -1.8604033 4288085770
6.2368927 -0.50065184 -1.9153755 4288085770
3.6077423 -0.35108328 -1.8531716 4288085770
5.762146 -0.48655128 -1.9000199 4288085770
3.3577728 -0.34844255 -1.8517907 4288085770
5.3423309 -0.47407436 -1.8880947 4288085770
3.1089325 -0.34389877 -1.8463867 4288085770
4.9664307 -0.4622612 -1.8802979 4288085770
2.8670654 -0.33833933 -1.8401334 4288085770
4.6195068 -0.4512496 -1.874254 4288085770
2.6531219 -0.33353662 -1.8376067 4288085770
4.30159 -0.44006586 -1.8689382 4288085770
2.4502106 -0.32866955 -1.835356 4288085770
3.9896851 -0.42789745 -1.8617494 4288085770
2.2462921 -0.32185888 -1.8310311 4288085770
3.7166901 -0.41739559 -1.8595874 4288085770
2.0653534 -0.31686163 -1.8293331 4288085770
3.4497681 -0.40593529 -1.854553 4288085770
1.8824615 -0.30992651 -1.8255355 4288085770
3.1839142 -0.39354563 -1.8465197 4288085770
1.7105408 -0.30292654 -1.8220136 4288085770
2.9430237 -0.38098097 -1.8401139 4288085770
1.5386963 -0.29497766 -1.8164685 4288085770
2.7320099 -0.37011194 -1.8395088 4288085770
1.3559875 -0.28524637 -1.8045995 4288085770
2.5260162 -0.3592391 -1.8380301 4288085770
1.2050171 -0.2770977 -1.8025792 4288085770
2.3151398 -0.34652328 -1.8313782 4288085770
1.0651245 -0.26990795 -1.7998612 4288085770
2.1261902 -0.33460045 -1.8283021 4288085770
0.95498657 -0.26333714 -1.8059165 4288085770
1.9472198 -0.32261944 -1.8254769 4288085770
0.81910706 -0.25517464 -1.8012745 4288085770
1.7772827 -0.31158304 -1.8229029 4288085770
0.70210266 -0.24677372 -1.8021066 4288085770
1.6103668 -0.29858017 -1.8183548 4288085770
0.5692749 -0.2376442 -1.7955163 4288085770
1.4147339 -0.28402901 -1.8020351 4288085770
0.45930481 -0.22822666 -1.7954991 4288085770
1.28862 -0.27358007 -1.8065879 4288085770
1.1387177 -0.26050282 -1.8014672 4288085770
1.0007935 -0.24832869 -1.7976725 4288085770
0.88873291 -0.23684692 -1.8005526 4288085770
0.75979614 -0.22461891 -1.7969835 4288085770
0.64578247 -0.21222639 -1.7967894 4288085770
0.52093506 -0.19905233 -1.7902977 4288085770
0.44250488 1.6653938 -1.7013624 4288085770
0.55154419 1.685977 -1.7015798 4288085770
0.67045593 1.7076945 -1.7050192 4288085770
0.78549194 1.7272882 -1.7044127 4288085770
0.9065094 1.7479415 -1.7049305 4288085770
1.0315399 1.7675929 -1.7045739 4288085770
1.1734467 1.7914462 -1.7085383 4288085770
1.3045044 1.8111081 -1.7073333 4288085770
0.48930359 1.6258307 -1.71052 4288085770
1.453476 1.833952 -1.7095001 4288085770
0.60235596 1.6394396 -1.7110169 4288085770
1.6044464 1.8558083 -1.7117422 4288085770
0.72531128 1.6561828 -1.7146852 4288085770
1.7386475 1.8713603 -1.7057178 4288085770
0.84042358 1.6687522 -1.713259 4288085770
1.9145203 1.89644 -1.7115071 4288085770
0.96247864 1.6814151 -1.7140071 4288085770
2.0934601 1.9214859 -1.7153733 4288085770
1.0796051 1.6919713 -1.7116826 4288085770
2.2625122 1.9413462 -1.7141192 4288085770
1.2176208 1.7067528 -1.7137792 4288085770
2.4584045 1.9665189 -1.7194107 4288085770
1.3487091 1.7184429 -1.7137783 4288085770
2.6583405 1.9906626 -1.7228286 4288085770
1.4857941 1.7301421 -1.7129285 4288085770
2.8603516 2.0127687 -1.7243488 4288085770
1.6556549 1.7472401 -1.720772 4288085770
3.0852356 2.0390859 -1.7293408 4288085770
1.8037262 1.7590303 -1.7211969 4288085770
3.3261108 2.0665226 -1.7357075 4288085770
1.9657745 1.7709293 -1.7229722 4288085770
3.5521545 2.087719 -1.7358558 4288085770
2.129837 1.7818394 -1.7248232 4288085770
3.8040771 2.1131706 -1.7405498 4288085770
2.3197327 1.7980046 -1.7311938 4288085770
4.0978699 2.143971 -1.7501662 4288085770
2.494812 1.8079548 -1.7323468 4288085770
4.3519592 2.1642823 -1.7490427 4288085770
2.6918335 1.8200865 -1.7359979 4288085770
4.6369781 2.1878262 -1.7506173 4288085770
2.8878632 1.8311853 -1.7386506 4288085770
4.9608307 2.2167277 -1.7580373 4288085770
3.0879517 1.8392587 -1.7394807 4288085770
5.2947845 2.2436118 -1.7627609 4288085770
3.31987 1.8526726 -1.7469809 4288085770
5.6804657 2.2789798 -1.7755768 4288085770
3.5439148 1.8619375 -1.750386 4288085770
6.0473785 2.3060846 -1.7821262 4288085770
3.7809143 1.8713059 -1.7551157 4288085770
6.4542389 2.3364244 -1.7896001 4288085770
4.0060883 1.8764768 -1.7546513 4288085770
6.8930817 2.3679781 -1.7988498 4288085770
4.2671204 1.8839617 -1.7590344 4288085770
7.3717957 2.402844 -1.812022 4288085770
4.5391541 1.8915114 -1.7636931 4288085770
7.8607025 2.4336166 -1.8195517 4288085770
4.817215 1.8970714 -1.767554 4288085770
8.3666077 2.462491 -1.8275578 4288085770
5.113266 1.9017639 -1.7728908 4288085770
8.9543304 2.499949 -1.8414099 4288085770
5.4531555 1.9108181 -1.7832239 4288085770
9.5591888 2.5324059 -1.8518188 4288085770
5.8070984 1.9179287 -1.7929604 4288085770
10.219971 2.5672455 -1.8655779 4288085770
6.144165 1.9198384 -1.7984021 4288085770
10.911819 2.6001911 -1.8771665 4288085770
6.5490265 1.9263024 -1.8114402 4288085770
11.658707 2.63241 -1.88816 4288085770
6.9331055 1.9254913 -1.8181365 4288085770
12.450562 2.6648955 -1.9002798 4288085770
7.3561096 1.9269609 -1.8277571 4288085770
13.286545 2.6935401 -1.9096081 4288085770
7.8130493 1.9266829 -1.8402789 4288085770
14.192551 2.7205462 -1.9187419 4288085770
8.2512054 1.919116 -1.8455098 4288085770
15.175522 2.7490077 -1.9297788 4288085770
8.7322998 1.9108543 -1.853842 4288085770
9.2882233 1.9071884 -1.8699458 4288085770
9.8154297 1.8921237 -1.8766129 4288085770
10.397507 1.8784862 -1.8886287 4288085770
11.038544 1.8622241 -1.903199 4288085770
11.70166 1.8430405 -1.9163992 4288085770
12.400803 1.818047 -1.9296563 4288085770
13.15596 1.7883854 -1.9444444 4288085770
13.988083 1.7562051 -1.9622386 4288085770
14.838394 1.7150064 -1.9757183 4288085770
5.7420807 -5.4027848 -0.28019238 4293729569
5.6787415 -5.371448 -0.84616017 4293729569
5.6782837 -5.4330449 -0.32239676 4293729569
5.6179657 -5.4046884 -0.88851762 4293729569
5.6484833 -5.480021 -0.36889076 4293729569
5.6052246 -5.4625592 -0.93572164 4293729569
5.655777 -5.545773 -0.41680312 4293729569
5.6144867 -5.5312457 -0.98576093 4293729569
7.9683075 -7.6223912 -2.0016062 4293729569
7.4759674 -7.3681188 -1.9926608 4293729569
6.9817657 -7.1060414 -1.9764621 4293729569
6.5735321 -6.8931842 -1.9737051 4293729569
6.1784515 -6.6823506 -1.9673269 4293729569
3.0007477 -4.6649566 -1.4019773 4293729569
2.9598389 -4.6641393 -1.4419558 4293729569
2.9139404 -4.6593785 -1.4807065 4293729569
2.9850159 -4.6742883 -1.0846231 4293729569
2.8779907 -4.6575074 -1.5217836 4293729569
2.9580078 -4.6743131 -1.1279757 4293729569
2.8390503 -4.6526809 -1.5617077 4293729569
2.9250641 -4.6684241 -1.1690242 4293729569
2.7941284 -4.6409431 -1.5993025 4293729569
2.9020996 -4.6674762 -1.2104523 4293729569
2.7631989 -4.6370673 -1.6394532 4293729569
2.8820801 -4.6654582 -1.2539279 4293729569
2.7431641 -4.6380219 -1.684006 4293729569
2.8641052 -4.6634297 -1.2974541 4293729569
2.7221985 -4.6370349 -1.7264836 4293729569
2.8490906 -4.6613822 -1.3410552 4293729569
2.675293 -4.6163621 -1.7617958 4293729569
2.8381042 -4.6593375 -1.3837569 4293729569
2.6622925 -4.6153016 -1.8054726 4293729569
2.8310852 -4.658217 -1.4285834 4293729569
2.6313171 -4.6004548 -1.8443391 4293729569
2.8310547 -4.6600537 -1.4736626 4293729569
2.5245514 -4.5335402 -1.8619401 4293729569
2.8300629 -4.6589227 -1.5176399 4293729569
2.3889465 -4.4450612 -1.8682525 4293729569
2.8250275 -4.6528172 -1.5613873 4293729569
2.2224121 -4.3319793 -1.8651445 4293729569
2.8339539 -4.654551 -1.60869 4293729569
2.0828705 -4.2366538 -1.8661773 4293729569
2.8359375 -4.6484036 -1.6526124 4293729569
1.9453735 -4.1403441 -1.8662345 4293729569
2.8348846 -4.6382756 -1.6963561 4293729569
1.9055481 -4.1078153 -1.8944142 4293729569
2.8538361 -4.6409726 -1.7429364 4293729569
1.9095917 -4.1027341 -1.9354141 4293729569
2.846817 -4.6229615 -1.783324 4293729569
1.9266357 -4.1045203 -1.9789197 4288085770
2.8638153 -4.6187253 -1.8276732 4293729569
1.9067841 -4.0797935 -2.0108049 4288085770
2.8508148 -4.5928283 -1.8647048 4293729569
1.7674561 -3.9737306 -2.0015581 4288085770
2.7201843 -4.4893756 -1.8687532 4293729569
1.6321564 -3.8706679 -1.9914892 4288085770
2.5815735 -4.3790507 -1.8694208 4293729569
1.4968872 -3.7646604 -1.9793432 4288085770
2.4609833 -4.2795901 -1.8718231 4293729569
1.383606 -3.6724133 -1.9721086 4288085770
2.3304901 -4.172318 -1.8687713 4293729569
1.2822876 -3.5870404 -1.9673545 4288085770
2.2947235 -4.1248994 -1.8916638 4293729569
1.178009 -3.4987397 -1.9604485 4288085770
2.3347321 -4.1235528 -1.9356663 4293729569
1.087738 -3.4183269 -1.9550993 4288085770
2.3767395 -4.1211944 -1.9796932 4288085770
1.000473 -3.3398719 -1.950877 4288085770
2.3778839 -4.0913711 -2.0109746 4288085770
0.91722107 -3.2624421 -1.9447806 4288085770
2.2615051 -3.9881186 -2.0043781 4288085770
0.85093689 -3.1957803 -1.9443929 4288085770
2.140213 -3.8810019 -1.9935548 4288085770
0.77371216 -3.1213155 -1.9385245 4288085770
2.0358582 -3.7826791 -1.9873879 4288085770
0.70353699 -3.0508094 -1.932935 4288085770
1.9375458 -3.6893449 -1.9805014 4288085770
0.64826965 -2.9881072 -1.931926 4288085770
1.8472443 -3.5989356 -1.9748924 4288085770
0.57318115 -2.9137588 -1.9211104 4288085770
1.7659607 -3.5164723 -1.9697158 4288085770
0.52099609 -2.8540893 -1.9182556 4288085770
1.6887054 -3.43401 -1.963639 4288085770
0.46383667 -2.7895293 -1.9121468 4288085770
1.6224365 -3.3584285 -1.9600184 4288085770
1.5511932 -3.28093 -1.954222 4288085770
1.4879761 -3.2063823 -1.9487031 4288085770
1.4446869 -3.1435838 -1.948993 4288085770
1.3904877 -3.0739818 -1.9438283 4288085770
1.3323364 -3.0024562 -1.9365137 4288085770
1.2991028 -2.9436231 -1.9361575 4288085770
1.2410278 -2.8721747 -1.9258444 4288085770
1.190918 -2.8056264 -1.9178598 4288085770
1.1766663 -2.7566266 -1.9202368 4288085770
1.144516 -2.6988912 -1.9159338 4288085770
1.119339 -2.6440616 -1.913882 4288085770
1.0912628 -2.5883536 -1.9077322 4288085770
1.0850372 -2.5433059 -1.9104125 4288085770
1.0629425 -2.4905353 -1.9054897 4288085770
1.0568085 -2.444592 -1.9041464 4288085770
1.0486755 -2.3986592 -1.9027536 4288085770
1.0355988 -2.3498349 -1.8981588 4288085770
1.0345154 -2.3068852 -1.8960197 4288085770
1.0343933 -2.263905 -1.8949044 4288085770
1.0432587 -2.2238441 -1.8950913 4288085770
1.0501556 -2.1838222 -1.8942282 4288085770
1.0521088 -2.1409068 -1.8901641 4288085770
1.0630493 -2.1028857 -1.8884537 4288085770
1.0779266 -2.064816 -1.8878429 4288085770
1.0888672 -2.0248208 -1.8850806 4288085770
1.1038513 -1.9868274 -1.8814719 4288085770
1.1297455 -1.9536653 -1.8822644 4288085770
1.1556549 -1.9205289 -1.8820579 4288085770
1.1855927 -1.8873687 -1.8819516 4288085770
1.1986389 -1.8484654 -1.8752673 4288085770
1.2206726 -1.8124833 -1.8698857 4288085770
1.2585754 -1.782248 -1.8710563 4288085770
1.2985535 -1.7520547 -1.8702781 4288085770
1.3414764 -1.7228169 -1.8706 4288085770
1.3864594 -1.6935916 -1.8699725 4288085770
1.425415 -1.6624303 -1.8681428 4288085770
1.4883423 -1.6380219 -1.8710935 4288085770
0.45782471 -1.3318925 -1.8482473 4288085770
1.5392914 -1.6097617 -1.8706415 4288085770
0.48391724 -1.301909 -1.8421214 4288085770
1.6012268 -1.5843854 -1.8725412 4288085770
0.53187561 -1.2776408 -1.8426979 4288085770
1.666153 -1.558991 -1.8745158 4288085770
0.57687378 -1.2534146 -1.8421996 4288085770
1.7221832 -1.5307813 -1.8711903 4288085770
0.63676453 -1.2329965 -1.8461778 4288085770
1.7980957 -1.5072942 -1.874491 4288085770
0.68577576 -1.2087722 -1.8447802 4288085770
1.8670807 -1.4819283 -1.8745663 4288085770
0.7427063 -1.1854243 -1.8466065 4288085770
1.9320984 -1.454639 -1.8724911 4288085770
0.79275513 -1.161222 -1.8442342 4288085770
2.0041046 -1.428308 -1.8706167 4288085770
0.85076904 -1.1379457 -1.8430874 4288085770
2.0900574 -1.4058146 -1.8721936 4288085770
0.90878296 -1.1156688 -1.8419664 4288085770
2.1800232 -1.3822989 -1.8738453 4288085770
0.97080994 -1.0913692 -1.840893 4288085770
2.2839508 -1.3616481 -1.8779233 4288085770
1.0497284 -1.0718651 -1.844372 4288085770
2.3540802 -1.3334584 -1.8709486 4288085770
1.1177521 -1.0495286 -1.8435009 4288085770
2.4759521 -1.314651 -1.877527 4288085770
1.1927185 -1.0271268 -1.8438032 4288085770
2.5829163 -1.2920604 -1.878629 4288085770
1.2846222 -1.0085201 -1.8486321 4288085770
2.6939087 -1.2694736 -1.8788316 4288085770
1.3487244 -0.98331261 -1.8435848 4288085770
2.826828 -1.2506499 -1.8836858 4288085770
1.4506226 -0.96662045 -1.849715 4288085770
2.934906 -1.2261591 -1.8807633 4288085770
1.5386353 -0.94516706 -1.8493688 4288085770
3.1017151 -1.2110081 -1.891567 4288085770
1.6555023 -0.92736101 -1.8568466 4288085770
3.2227936 -1.1874666 -1.887995 4288085770
1.7386017 -0.90504217 -1.8523519 4288085770
3.3996582 -1.1713071 -1.8970249 4288085770
1.8445892 -0.88445759 -1.8534801 4288085770
3.5456848 -1.1485658 -1.8961017 4288085770
1.973465 -0.86660671 -1.8602583 4288085770
3.6897736 -1.1258888 -1.893131 4288085770
2.0944214 -0.84789467 -1.8638074 4288085770
3.8816681 -1.1077094 -1.9004762 4288085770
2.2035065 -0.82539749 -1.8609583 4288085770
4.0576782 -1.0877657 -1.9013774 4288085770
2.3334656 -0.80664492 -1.863735 4288085770
4.2616272 -1.0685792 -1.9060018 4288085770
2.4674683 -0.785923 -1.8645604 4288085770
4.4795837 -1.0513101 -1.9110277 4288085770
2.6064606 -0.76614332 -1.8665364 4288085770
4.6925812 -1.0321226 -1.9138787 4288085770
2.7524261 -0.74632406 -1.8686864 4288085770
4.9315491 -1.0127835 -1.9173772 4288085770
2.9094391 -0.72646475 -1.8701122 4288085770
5.1875153 -0.99531698 -1.9223526 4288085770
3.0545349 -0.70478201 -1.8671882 4288085770
5.4624481 -0.97771454 -1.9288008 4288085770
3.2384491 -0.68568754 -1.8723114 4288085770
5.7932281 -0.96362495 -1.9427483 4288085770
3.4343872 -0.66752195 -1.8777611 4288085770
6.1161499 -0.94674015 -1.9504211 4288085770
3.6015015 -0.64473581 -1.8743598 4288085770
6.4879456 -0.93343639 -1.9644182 4288085770
3.796524 -0.62370682 -1.8747084 4288085770
6.8020935 -0.90986586 -1.9616892 4288085770
4.0204926 -0.60343027 -1.8788054 4288085770
7.1641235 -0.88990927 -1.9642603 4288085770
4.2375183 -0.58227158 -1.8797028 4288085770
7.5631104 -0.87068415 -1.9697797 4288085770
4.4924316 -0.56178665 -1.8855722 4288085770
7.9841919 -0.8504324 -1.9718244 4288085770
4.74646 -0.5404129 -1.8873928 4288085770
8.4741211 -0.83164644 -1.9806406 4288085770
5.0274353 -0.51982784 -1.8919122 4288085770
8.9980621 -0.81268692 -1.9893057 4288085770
5.3373566 -0.49904633 -1.898155 4288085770
9.5520935 -0.79262924 -1.9956954 4288085770
5.673233 -0.47808695 -1.9060452 4288085770
10.177048 -0.77313042 -2.0048826 4288085770
6.0142059 -0.4561758 -1.9110358 4288085770
10.884933 -0.75606585 -2.0192182 4288085770
6.4290161 -0.43567514 -1.9239228 4288085770
11.620956 -0.7350173 -2.0271523 4288085770
6.8239746 -0.41247416 -1.9292352 4288085770
12.492828 -0.71604443 -2.0435555 4288085770
7.2300262 -0.38631344 -1.9307468 4288085770
13.454727 -0.69659376 -2.0602067 4288085770
7.7228851 -0.36345959 -1.9415295 4288085770
14.568542 -0.67622519 -2.0816514 4288085770
8.2467651 -0.33747721 -1.9510086 4288085770
8.8445892 -0.31100988 -1.9643328 4288085770
9.4316101 -0.28184128 -1.9683096 4288085770
10.153381 -0.25364637 -1.9847028 4288085770
10.902298 -0.22247601 -1.994694 4288085770
11.770111 -0.1905303 -2.0106542 4288085770
12.716965 -0.1542263 -2.0244825 4288085770
13.9095 -0.11722088 -2.0544708 4288085770
15.106369 -0.074582577 -2.0694101 4288085770
14.162445 7.7729225 -0.84917283 4293729569
13.978821 7.8312812 -0.78296876 4293729569
13.421371 7.7262611 -0.70150733 4293729569
13.520935 7.8953843 -0.64561963 4293729569
13.496918 8.0117025 -0.58396077 4293729569
13.514816 8.1462078 -0.52089381 4293729569
14.646133 0.14539766 -2.0439832 4288085770
13.356384 0.13024187 -2.023957 4288085770
12.177765 0.11757231 -2.0006568 4288085770
11.181946 0.10909081 -1.9868472 4288085770
10.275192 0.10199356 -1.9702375 4288085770
9.3956451 0.09684515 -1.9462569 4288085770
8.7157135 0.094164848 -1.9392369 4288085770
14.977417 0.047091961 -2.0467598 4288085770
8.0499268 0.092410088 -1.9265459 4288085770
13.650482 0.049818993 -2.0293434 4288085770
7.4202423 0.091732979 -1.9097316 4288085770
12.36795 0.054388046 -1.9969871 4288085770
6.8724365 0.092634678 -1.898937 4288085770
11.374008 0.058992386 -1.9858911 4288085770
6.3954926 0.093050957 -1.8939388 4288085770
10.444168 0.065757751 -1.9683464 4288085770
5.8818817 0.09594059 -1.8759472 4288085770
9.5575256 0.072618008 -1.9458807 4288085770
5.4540558 0.098483562 -1.8661258 4288085770
8.8754883 0.078975201 -1.9405782 4288085770
5.0642242 0.10227346 -1.858227 4288085770
8.2066345 0.086225033 -1.9285791 4288085770
4.7132874 0.10636473 -1.8543003 4288085770
7.5868073 0.093708038 -1.9158061 4288085770
4.3665009 0.11132526 -1.8444512 4288085770
7.0050812 0.10230732 -1.8999593 4288085770
4.0794678 0.11586571 -1.8451211 4288085770
6.5111694 0.11057043 -1.8923314 4288085770
3.7915344 0.1212697 -1.8407428 4288085770
6.0263672 0.11975718 -1.8799064 4288085770
3.5017242 0.12755966 -1.8322923 4288085770
5.578598 0.12810516 -1.8664329 4288085770
3.2418518 0.13307333 -1.8266156 4288085770
5.175705 0.13784218 -1.8590539 4288085770
3.0039368 0.13976812 -1.8234613 4288085770
4.840683 0.14607763 -1.8574221 4288085770
2.763092 0.1463418 -1.8162344 4288085770
4.4868622 0.15599585 -1.8472693 4288085770
2.5690765 0.15336752 -1.8171766 4288085770
4.174942 0.16526079 -1.8421891 4288085770
2.3591919 0.16114426 -1.8116972 4288085770
3.8721313 0.17447424 -1.8333366 4288085770
2.1652832 0.16804123 -1.8076432 4288085770
3.5982056 0.18493176 -1.8281801 4288085770
1.9933014 0.17614222 -1.8071101 4288085770
3.3382874 0.19447184 -1.8233993 4288085770
1.8154449 0.18407965 -1.8014314 4288085770
3.0864716 0.20495415 -1.8147948 4288085770
1.6574707 0.19226265 -1.8012483 4288085770
2.8694763 0.21479368 -1.8130863 4288085770
1.4717712 0.20097113 -1.788348 4288085770
2.6506348 0.2244935 -1.8063314 4288085770
1.3278351 0.20918322 -1.7865164 4288085770
2.4606476 0.23448992 -1.8052976 4288085770
1.1938477 0.21747828 -1.7859333 4288085770
2.271698 0.24544001 -1.802264 4288085770
1.0698242 0.22688246 -1.7875721 4288085770
2.0897675 0.25540543 -1.7984316 4288085770
0.9359436 0.23607349 -1.7829664 4288085770
1.922821 0.26648235 -1.7959473 4288085770
1.777771 0.27579212 -1.7980616 4288085770
1.6158905 0.28682041 -1.7927043 4288085770
1.4580536 0.29781961 -1.7854488 4288085770
1.3111877 0.30793619 -1.7804921 4288085770
1.1693268 0.31905556 -1.7746351 4288085770
1.0453644 0.32938099 -1.7732508 4288085770
0.93634033 0.34184599 -1.7741868 4288085770
0.94093323 2.540309 -1.6693175 4288085770
1.0688019 2.5790286 -1.6715009 4288085770
1.196701 2.6147232 -1.6727631 4288085770
1.321701 2.6483216 -1.6710055 4288085770
1.4516907 2.6809497 -1.6693976 4288085770
1.6104736 2.7248974 -1.6742189 4288085770
1.7544708 2.7606058 -1.6728804 4288085770
1.9163055 2.8025193 -1.6758292 4288085770
0.91426086 2.4331493 -1.6713979 4288085770
2.0653076 2.8362303 -1.6736677 4288085770
1.0431519 2.4619298 -1.6758668 4288085770
2.2292633 2.8750782 -1.6737473 4288085770
1.1730804 2.4896379 -1.677388 4288085770
2.4091034 2.9170697 -1.6761439 4288085770
1.3119812 2.5184503 -1.6811059 4288085770
2.588028 2.9570036 -1.6765687 4288085770
1.4449921 2.5431242 -1.6807816 4288085770
2.7709961 2.995908 -1.6751206 4288085770
1.5770111 2.565793 -1.6804845 4288085770
2.9877472 3.0451884 -1.6812513 4288085770
1.7130737 2.588459 -1.6792881 4288085770
3.1976013 3.0893247 -1.6833413 4288085770
1.8699646 2.6173491 -1.6824529 4288085770
3.415451 3.1345072 -1.6856029 4288085770
2.0259247 2.6432076 -1.6846731 4288085770
3.6483154 3.1817753 -1.6881855 4288085770
2.1819305 2.6680145 -1.6849201 4288085770
3.8891602 3.2280908 -1.6909935 4288085770
2.3598175 2.6970506 -1.6896064 4288085770
4.1270905 3.2723098 -1.6907804 4288085770
2.5327454 2.7230077 -1.6922481 4288085770
4.3929138 3.3217678 -1.6941302 4288085770
2.7325439 2.7562208 -1.699374 4288085770
4.6756897 3.3743472 -1.6988223 4288085770
2.9026031 2.7770565 -1.6980746 4288085770
4.9734497 3.428014 -1.703861 4288085770
3.0906219 2.8000481 -1.6991684 4288085770
5.3120728 3.4920173 -1.7136543 4288085770
3.3014984 2.8302743 -1.7046483 4288085770
5.6766205 3.5601947 -1.7249873 4288085770
3.4747009 2.8430259 -1.6996353 4288085770
6.0661163 3.631541 -1.7378623 4288085770
3.6697998 2.8609803 -1.698036 4288085770
6.4159393 3.6864276 -1.7411683 4288085770
3.8907471 2.8862131 -1.7018955 4288085770
6.8105774 3.7506747 -1.7493532 4288085770
4.1117554 2.9073951 -1.7038615 4288085770
7.2928925 3.8366556 -1.7681687 4288085770
4.3497314 2.9307001 -1.707197 4288085770
7.7205963 3.9000406 -1.7752006 4288085770
4.5956726 2.9550507 -1.7107041 4288085770
8.2389221 3.9861763 -1.7929113 4288085770
4.8615265 2.9805949 -1.7176807 4288085770
8.7037048 4.0486956 -1.7978904 4288085770
5.1155853 2.9999409 -1.7195194 4288085770
9.1964569 4.1133757 -1.8035128 4288085770
5.4293213 3.0308371 -1.7305548 4288085770
9.7539978 4.1895561 -1.8154581 4288085770
5.7301788 3.0565829 -1.7384012 4288085770
10.279861 4.2503233 -1.8180082 4288085770
6.0460358 3.080415 -1.7466714 4288085770
10.896439 4.3277903 -1.8293941 4288085770
6.3689423 3.1022615 -1.7541692 4288085770
11.621704 4.4260616 -1.8499587 4288085770
6.7078552 3.1251743 -1.761039 4288085770
12.300354 4.5027809 -1.8589132 4288085770
7.0995331 3.1555717 -1.776036 4288085770
12.999084 4.5745649 -1.8664968 4288085770
7.4435425 3.1684644 -1.7812936 4288085770
13.806534 4.6661272 -1.8822858 4288085770
7.82547 3.1876254 -1.7893355 4288085770
14.412964 4.6979189 -1.8705928 4288085770
8.2472534 3.21012 -1.8022902 4288085770
15.517715 4.836545 -1.9065959 4288085770
8.666153 3.2255218 -1.8123562 4288085770
9.0493011 3.2285631 -1.8158457 4288085770
9.491272 3.2380462 -1.8246415 4288085770
9.9591827 3.2477312 -1.8360808 4288085770
10.388351 3.244014 -1.8398979 4288085770
10.870392 3.2427049 -1.8489759 4288085770
11.427231 3.2499547 -1.8647039 4288085770
11.9543 3.2439075 -1.8750317 4288085770
12.411697 3.2192261 -1.8750975 4288085770
12.999695 3.2105823 -1.8890178 4288085770
13.649597 3.203372 -1.90745 4288085770
14.164017 3.1670501 -1.9102461 4288085770
14.773224 3.138402 -1.9202158 4288085770
15.431396 3.1070893 -1.93348 4288085770
15.323074 -6.0938239 -2.1404345 4293729569
14.629837 -6.0057406 -2.1248043 4293729569
14.022507 -5.934998 -2.1177804 4293729569
11.696564 -5.2724767 -1.8951833 4293729569
11.624878 -5.3595471 -1.9457109 4293729569
11.722321 -5.4749436 -1.1936772 4293729569
11.610138 -5.4641252 -2.0041244 4293729569
11.689529 -5.5736289 -1.2514856 4293729569
11.537384 -5.5461507 -2.0564945 4293729569
11.012054 -5.4640174 -2.048219 4293729569
10.521729 -5.384685 -2.0408919 4293729569
10.005432 -5.2886376 -2.0274737 4293729569
9.4851685 -5.1846681 -2.0117471 4293729569
9.0248871 -5.0972695 -2.0009563 4293729569
8.5576019 -4.9979692 -1.9876773 4293729569
8.1253204 -4.9084353 -1.9765294 4293729569
14.518082 -7.5759568 -2.1252182 4293729569
7.7050323 -4.8168349 -1.965627 4293729569
13.705948 -7.357307 -2.1142008 4293729569
7.3407288 -4.7428002 -1.9605868 4293729569
12.834885 -7.1002994 -2.0896966 4293729569
6.971405 -4.660851 -1.9532125 4293729569
12.011917 -6.8550372 -2.0657012 4293729569
6.5991516 -4.5719991 -1.9425814 4293729569
11.344955 -6.6656232 -2.0560758 4293729569
6.2349091 -4.4831395 -1.9311454 4293729569
10.703033 -6.4791017 -2.0461462 4293729569
5.9126282 -4.4059176 -1.9250705 4293729569
10.082153 -6.2905269 -2.0336912 4293729569
5.6063232 -4.3306022 -1.9194448 4293729569
9.4923401 -6.1088214 -2.0201914 4293729569
5.3609161 -4.2806897 -1.9250128 4293729569
8.9116058 -5.9221463 -2.0037858 4293729569
5.1844025 -4.2581096 -1.9430263 4293729569
