# .PCD v0.7 - Point Cloud Data file format
VERSION 0.7
FIELDS x y z rgb
SIZE 4 4 4 4
TYPE F F F U
COUNT 1 1 1 1
WIDTH 1104
HEIGHT 1
VIEWPOINT 0 0 0 1 0 0 0
POINTS 1104
DATA ascii
0.67030334 -0.19984734 -1.804727 4288085770
3.0092812 -0.34516478 -1.7929103 4288085770
0.377491 -0.19052303 -1.8046148 4288085770
2.5765457 -0.32780659 -1.7967807 4288085770
0.11868286 -0.18252265 -1.807277 4288085770
2.1557961 -0.3094846 -1.7976018 4288085770
-0.12311363 -0.17367494 -1.8108567 4288085770
1.7700462 -0.29245555 -1.7991927 4288085770
-0.3799324 -0.16257524 -1.8075711 4288085770
1.4102974 -0.27461088 -1.799647 4288085770
-0.57971764 -0.15511417 -1.8138775 4288085770
1.0825424 -0.25905442 -1.8018689 4288085770
-0.81654549 -0.14415216 -1.8094738 4288085770
0.76178741 -0.24149573 -1.8010905 4288085770
-1.0153465 -0.13460243 -1.810818 4288085770
0.49604797 -0.22752094 -1.8079168 4288085770
-1.2281685 -0.12282836 -1.8062904 4288085770
0.21328735 -0.21127868 -1.8078904 4288085770
-1.4029598 -0.11350584 -1.8094906 4288085770
-0.042470932 -0.19526672 -1.8087009 4288085770
-1.5767593 -0.10313356 -1.809706 4288085770
-0.30124664 -0.17815447 -1.8055519 4288085770
-1.7295456 -0.094002485 -1.813773 4288085770
-0.52900505 -0.1633811 -1.8071738 4288085770
-1.8943462 -0.082681656 -1.8129554 4288085770
-0.75177574 -0.14758861 -1.8057873 4288085770
-2.040144 -0.072547674 -1.8140022 4288085770
-0.95954132 -0.13193309 -1.8053101 4288085770
-2.1829357 -0.062437534 -1.8150318 4288085770
-1.1593075 -0.11634028 -1.8047851 4288085770
-2.3137226 -0.052459717 -1.8179882 4288085770
-1.3370705 -0.1019578 -1.8061059 4288085770
-2.4405041 -0.041494131 -1.8199403 4288085770
-1.5188427 -0.086486459 -1.8044732 4288085770
-2.5642929 -0.030532718 -1.8208754 4288085770
-1.6695957 -0.07337296 -1.8086098 4288085770
-2.6780777 -0.020687938 -1.8237299 4288085770
-1.8153572 -0.060278893 -1.8117172 4288085770
-1.987154 -0.043789625 -1.8050476 4288085770
-2.1159077 -0.030848145 -1.8090519 4288085770
-2.2406616 -0.017938018 -1.8130323 4288085770
-2.3664207 -0.0039818287 -1.81504 4288085770
-2.4841805 0.0099122524 -1.8169991 4288085770
-2.6069584 0.023902893 -1.815991 4288085770
-2.6565399 1.950635 -1.812161 4288085770
-2.5392303 1.9737139 -1.8127899 4288085770
-2.423954 1.9948664 -1.8103936 4288085770
-2.3227482 2.0112231 -1.8029971 4288085770
-2.1833954 2.0380952 -1.8055478 4288085770
-2.0551243 2.0601599 -1.8040854 4288085770
-1.9077816 2.0859897 -1.8055573 4288085770
-1.7624779 2.1098931 -1.8040035 4288085770
-2.6420708 1.8935544 -1.8107448 4288085770
-1.6191959 2.1318314 -1.8014239 4288085770
-2.5187893 1.9115691 -1.8122301 4288085770
-1.451849 2.158509 -1.8027728 4288085770
-2.395525 1.9286036 -1.812695 4288085770
-1.2935524 2.181314 -1.8011056 4288085770
-2.2803268 1.9407771 -1.8091189 4288085770
-1.1282558 2.2050846 -1.7984079 4288085770
-2.1540985 1.9558277 -1.8075249 4288085770
-0.9429245 2.2316446 -1.79863 4288085770
-2.0118198 1.9736983 -1.8088739 4288085770
-0.72348595 2.2648098 -1.8057454 4288085770
-1.8735847 1.9886577 -1.8071921 4288085770
-0.56731415 2.2808239 -1.7939528 4288085770
-1.7343655 2.0016098 -1.8054638 4288085770
-0.32385063 2.3157866 -1.8019363 4288085770
-1.5851326 2.0164859 -1.8037031 4288085770
-0.11756516 2.3392649 -1.7979456 4288085770
-1.4108257 2.0350552 -1.8078432 4288085770
0.11078072 2.3664978 -1.7978764 4288085770
-1.2716656 2.0440855 -1.8020346 4288085770
0.34509659 2.3927431 -1.7947445 4288085770
-1.0873756 2.0626175 -1.8041023 4288085770
0.59643555 2.4208202 -1.7935302 4288085770
-0.91514969 2.0753 -1.8031373 4288085770
0.84674072 2.4449444 -1.7902442 4288085770
-0.71887589 2.0917411 -1.8050798 4288085770
1.1351166 2.4767199 -1.7898442 4288085770
-0.52764511 2.1052792 -1.8039981 4288085770
1.4294662 2.5054698 -1.7883421 4288085770
-0.33543777 2.1168292 -1.8018694 4288085770
1.7358284 2.535109 -1.7877724 4288085770
-0.13422775 2.1283109 -1.7996764 4288085770
2.0802345 2.5684204 -1.7890114 4288085770
0.066957474 2.1378124 -1.7964431 4288085770
2.4155769 2.5968781 -1.7862147 4288085770
0.29820633 2.1520078 -1.7970937 4288085770
2.8050117 2.6328268 -1.7881901 4288085770
0.53141212 2.1622274 -1.7956519 4288085770
3.2084274 2.6676893 -1.789045 4288085770
0.76258087 2.1705012 -1.7921864 4288085770
3.6308174 2.7014456 -1.7877477 4288085770
1.0398407 2.184309 -1.7945086 4288085770
4.0832253 2.7359543 -1.7872524 4288085770
1.3050385 2.1932859 -1.7928169 4288085770
4.5676498 2.7722197 -1.7865669 4288085770
1.5952682 2.2040148 -1.7939854 4288085770
5.1001167 2.8120613 -1.7886164 4288085770
1.8904724 2.2127447 -1.7930781 4288085770
5.6896477 2.85743 -1.7923759 4288085770
2.1876259 2.217499 -1.7900779 4288085770
6.3412056 2.9052882 -1.7977523 4288085770
2.545887 2.2296534 -1.7937989 4288085770
7.0247459 2.951942 -1.8008788 4288085770
2.8880539 2.2350464 -1.7914958 4288085770
7.842453 3.0124004 -1.8123435 4288085770
3.253231 2.2392268 -1.7910086 4288085770
8.673069 3.0658774 -1.8175758 4288085770
3.6383858 2.2422743 -1.7893585 4288085770
9.5256081 3.1142845 -1.8175508 4288085770
4.0435638 2.2461319 -1.7895826 4288085770
10.437149 3.1622436 -1.8171024 4288085770
4.45467 2.2440221 -1.7856468 4288085770
11.46072 3.2143307 -1.8169525 4288085770
4.8887558 2.239738 -1.7815073 4288085770
5.3698883 2.2380199 -1.7810887 4288085770
5.8960457 2.2369213 -1.782367 4288085770
6.4842262 2.2362747 -1.7872212 4288085770
7.129425 2.235157 -1.7936679 4288085770
7.7495041 2.2243474 -1.7940944 4288085770
8.4766579 2.2176085 -1.7998532 4288085770
9.1937027 2.2010446 -1.8004856 4288085770
9.9506874 2.1792164 -1.7987335 4288085770
10.722595 2.1493342 -1.7937157 4288085770
11.56749 2.1168599 -1.7901345 4288085770
4.7630043 -5.2178841 -0.25591207 4293729569
4.6929359 -5.2790422 -0.29222515 4293729569
4.6497955 -5.3514395 -0.3301293 4293729569
4.6644745 -5.450326 -0.37010911 4293729569
2.7570076 -4.927269 -0.51382858 4293729569
2.7060585 -4.9766297 -0.55323756 4293729569
2.6511497 -5.0199618 -0.59279019 4293729569
2.5972519 -5.0633206 -0.63333595 4293729569
2.4845085 -5.1450582 -0.71756309 4293729569
2.5083809 -5.2271657 -0.76580518 4293729569
1.987236 -5.0682201 -0.82359886 4293729569
1.5777473 -4.8963289 -0.83884513 4293729569
1.5391579 -4.8970013 -0.35800132 4293729569
1.5030441 -4.9135165 -0.87904674 4293729569
1.4824448 -4.9193997 -0.40197206 4293729569
1.3357086 -4.8728256 -0.91102749 4293729569
1.4466515 -4.9529719 -0.44657737 4293729569
0.72302628 -4.5668612 -0.9003163 4293729569
1.4198494 -4.9896493 -0.49305797 4293729569
0.67529297 -4.5882511 -0.94024259 4293729569
1.414978 -5.0375276 -0.54116493 4293729569
0.57675171 -4.5791688 -0.97612172 4293729569
1.1900215 -4.9514861 -0.57843447 4293729569
0.63467026 -4.6616454 -1.0301131 4293729569
0.72703552 -4.7172608 -0.59827036 4293729569
0.72148895 -4.7614121 -1.0875638 4293729569
0.78098679 -4.7926531 -0.64942378 4293729569
2.1924553 -5.7703657 -1.3785567 4293729569
0.6678009 -4.8044171 -0.73599803 4293729569
2.797451 -6.202765 -1.5208781 4293729569
0.65805435 -4.8372788 -0.78542864 4293729569
0.76505661 -4.9646921 -1.2953173 4293729569
0.6503067 -4.8691368 -0.83386362 4293729569
2.335598 -6.0093079 -1.5809097 4293729569
0.086805344 -4.545682 -0.8301416 4293729569
0.11885643 -4.6277857 -1.3014375 4293729569
0.049211502 -4.552207 -0.87327832 4293729569
0.010492325 -4.5915389 -1.3329079 4293729569
0.034528732 -4.5719395 -0.91799521 4293729569
0.096450806 -4.6794119 -1.3965912 4293729569
-0.0080184937 -4.5714097 -0.96030247 4293729569
0.6009407 -5.0409303 -1.5339956 4293729569
-0.05452919 -4.5658498 -1.0027347 4293729569
0.86432648 -5.2459064 -1.636147 4293729569
-0.041265488 -4.5989032 -1.0529928 4293729569
0.6125412 -5.1091261 -1.6455826 4293729569
0.07859993 -4.699029 -1.1161897 4293729569
0.31791115 -4.939784 -1.6429528 4293729569
-0.013696671 -4.6579785 -1.1516333 4293729569
0.040231705 -4.7775888 -1.6410635 4293729569
0.14706612 -4.7815957 -1.2240809 4293729569
-0.2175293 -4.6255422 -1.638835 4293729569
0.056785583 -4.7385607 -1.2595474 4293729569
-0.4055233 -4.5172572 -1.6482617 4293729569
0.098035812 -4.7799344 -1.3154386 4293729569
-0.57755852 -4.4171476 -1.6604164 4293729569
1.6028938 -5.7941885 -1.6100352 4293729569
-0.74661446 -4.3170047 -1.6695497 4293729569
1.1998672 -5.5368772 -1.6008794 4293729569
-0.85386086 -4.2555833 -1.691492 4293729569
1.0269852 -5.4310236 -1.6271468 4293729569
-0.86939812 -4.2552733 -1.7345971 4293729569
0.77937698 -5.2712789 -1.6369904 4293729569
-0.88393593 -4.2529325 -1.7757335 4293729569
0.51879692 -5.1003084 -1.6401449 4293729569
-0.89545631 -4.2506518 -1.8188454 4288085770
0.24128151 -4.9151001 -1.6376948 4293729569
-0.96279716 -4.2076397 -1.8461426 4288085770
0.012573242 -4.7623858 -1.6412674 4293729569
-1.1108932 -4.1085796 -1.8511012 4288085770
-0.20317459 -4.61375 -1.6436665 4293729569
-1.2629795 -4.004416 -1.8521863 4288085770
-0.39701653 -4.4793143 -1.6476344 4293729569
-1.4200535 -3.8951588 -1.8504055 4288085770
-0.53902817 -4.37745 -1.6606001 4293729569
-1.5511951 -3.800189 -1.8531612 4288085770
-0.67605782 -4.2766047 -1.6725093 4293729569
-1.6883392 -3.7010994 -1.8520401 4288085770
-0.68949509 -4.2571998 -1.7099553 4293729569
-1.822506 -3.6029959 -1.8488785 4288085770
-0.66902161 -4.2581959 -1.7547617 4293729569
-1.9486866 -3.5079703 -1.8465991 4288085770
-0.64254761 -4.2602549 -1.8005022 4288085770
-2.0429535 -3.4333491 -1.8526964 4288085770
-0.64798355 -4.2409096 -1.837886 4288085770
-2.1442146 -3.3525844 -1.8539618 4288085770
-0.78102684 -4.134964 -1.8428618 4288085770
-2.2524662 -3.2666926 -1.8513768 4288085770
-0.92404938 -4.0208521 -1.843067 4288085770
-2.3487511 -3.1869268 -1.8505864 4288085770
-1.0491371 -3.9179106 -1.844927 4288085770
-2.4480247 -3.1041021 -1.8478765 4288085770
-1.1891899 -3.8037453 -1.8411115 4288085770
-2.5223732 -3.0365748 -1.8506908 4288085770
-1.2923641 -3.7140036 -1.8445585 4288085770
-2.6007271 -2.9669614 -1.8505754 4288085770
-1.4114952 -3.6120329 -1.8423569 4288085770
-2.6870594 -2.8902149 -1.8466539 4288085770
-1.5027199 -3.5273619 -1.844618 4288085770
-1.6089096 -3.4334869 -1.8421662 4288085770
-1.6981659 -3.3497744 -1.8413949 4288085770
-1.7764339 -3.2712002 -1.843444 4288085770
-1.8587189 -3.1905217 -1.841563 4288085770
-1.925045 -3.1190362 -1.8433884 4288085770
-2.0033512 -3.040369 -1.84044 4288085770
-2.0696907 -2.9678278 -1.8392855 4288085770
-2.1260548 -2.9003983 -1.839959 4288085770
-2.1854248 -2.8319087 -1.8386755 4288085770
-2.2378216 -2.7664714 -1.8372812 4288085770
-2.2862301 -2.7040815 -1.8367995 4288085770
-2.3336506 -2.6406627 -1.8343294 4288085770
-2.3680973 -2.5854144 -1.8356068 4288085770
-2.3995609 -2.5321884 -1.8368235 4288085770
-2.4450169 -2.470747 -1.8323019 4288085770
-2.4635048 -2.4226551 -1.8353224 4288085770
-2.5020409 -2.3652225 -1.8296738 4288085770
-2.5205555 -2.3180947 -1.8306814 4288085770
-2.5270844 -2.2761111 -1.8345006 4288085770
-2.5486069 -2.2269049 -1.8325697 4288085770
-2.5611458 -2.1818032 -1.8324926 4288085770
-2.5856838 -2.1305003 -1.8266236 4288085770
-2.5882435 -2.0905094 -1.8283737 4288085770
-2.6057968 -2.0422769 -1.8233926 4288085770
-2.6053734 -2.0032897 -1.8241001 4288085770
-2.6039505 -1.9643101 -1.8247993 4288085770
-2.5975513 -1.9273485 -1.8244215 4288085770
-2.5851498 -1.8934876 -1.8269395 4288085770
-2.5747585 -1.8585743 -1.827492 4288085770
-2.556366 -1.8257574 -1.8299429 4288085770
-2.5479832 -1.7897919 -1.82853 4288085770
-2.534605 -1.7548639 -1.8270581 4288085770
-2.5122375 -1.7240583 -1.8284394 4288085770
-2.4908695 -1.6912078 -1.8278655 4288085770
-2.4625168 -1.6624466 -1.8291609 4288085770
-2.4241619 -1.6368157 -1.8333195 4288085770
-2.3998089 -1.6049689 -1.8317024 4288085770
-2.3544655 -1.5803899 -1.8357857 4288085770
-2.3191204 -1.5526809 -1.8370047 4288085770
-2.2847824 -1.5229086 -1.8352692 4288085770
-2.2414551 -1.4972588 -1.8363862 4288085770
-2.2061253 -1.4684936 -1.834623 4288085770
-2.151804 -1.4459621 -1.8375945 4288085770
-2.0864811 -1.4255503 -1.8424399 4288085770
-2.0441685 -1.3978189 -1.8396007 4288085770
-1.9888554 -1.3732396 -1.8396003 4288085770
-1.9305515 -1.3496827 -1.8395565 4288085770
-1.8662357 -1.3272074 -1.8414448 4288085770
-1.8119411 -1.3015651 -1.8384697 4288085770
-1.7436428 -1.2790829 -1.8383251 4288085770
-1.6303463 -1.2691573 -1.8495924 4288085770
-1.582058 -1.2403961 -1.84272 4288085770
-1.4997673 -1.2200364 -1.8434229 4288085770
-1.4024792 -1.202844 -1.8469479 4288085770
-2.5463657 -0.91296518 -1.8413936 4288085770
-1.3291988 -1.1783241 -1.8427969 4288085770
-2.4730911 -0.89555609 -1.8431158 4288085770
-1.2479267 -1.156901 -1.8405246 4288085770
-2.4048157 -0.87607348 -1.8429151 4288085770
-1.1356468 -1.1408199 -1.8439071 4288085770
-2.3435574 -0.8544637 -1.8388082 4288085770
-1.0333672 -1.1216091 -1.8444256 4288085770
-2.2833004 -0.83284676 -1.8347086 4288085770
-0.90508652 -1.1076845 -1.8496391 4288085770
-2.210043 -0.81336391 -1.8324656 4288085770
-0.80682182 -1.0863694 -1.8462257 4288085770
-2.1157608 -0.79714859 -1.8359953 4288085770
-0.68255234 -1.0693408 -1.8475258 4288085770
-2.0355034 -0.77771771 -1.8336943 4288085770
-0.56128883 -1.0502344 -1.8458867 4288085770
-1.9512577 -0.75931633 -1.8313421 4288085770
-0.42002106 -1.034351 -1.8480287 4288085770
-1.8609943 -0.7409972 -1.8309394 4288085770
-0.29376793 -1.0142447 -1.8443655 4288085770
-1.7447205 -0.72696388 -1.8352499 4288085770
-0.12649727 -1.0016104 -1.8492368 4288085770
-1.6624794 -0.70547426 -1.828967 4288085770
0.013742447 -0.98360813 -1.8454206 4288085770
-1.5462151 -0.69040406 -1.8312943 4288085770
0.16298866 -0.96569145 -1.8425293 4288085770
-1.4379768 -0.67318189 -1.8287235 4288085770
0.34424782 -0.95110643 -1.8443202 4288085770
-1.3267269 -0.65498173 -1.8261459 4288085770
0.50548363 -0.93224227 -1.8393476 4288085770
-1.1874561 -0.64112008 -1.830264 4288085770
0.6957283 -0.91768682 -1.8390623 4288085770
-1.042202 -0.62726605 -1.8323324 4288085770
0.86395264 -0.89681947 -1.8310672 4288085770
-0.9319706 -0.60698473 -1.8257972 4288085770
1.0641823 -0.88128293 -1.8277164 4288085770
-0.77370834 -0.5932461 -1.8287569 4288085770
1.2994232 -0.86909974 -1.8290219 4288085770
-0.63047028 -0.57628441 -1.825894 4288085770
1.5036316 -0.85050094 -1.8206911 4288085770
-0.49624825 -0.55718207 -1.8191411 4288085770
1.7438545 -0.83526242 -1.8170083 4288085770
-0.33200645 -0.54141402 -1.8180856 4288085770
1.9940758 -0.82008016 -1.8122416 4288085770
-0.15476036 -0.52574301 -1.8169221 4288085770
2.2752953 -0.80616605 -1.809201 4288085770
0.037490845 -0.51122069 -1.8176156 4288085770
2.5795135 -0.79344213 -1.806951 4288085770
0.2127018 -0.49344218 -1.8115054 4288085770
2.9127197 -0.78295195 -1.8054267 4288085770
0.43495369 -0.48016191 -1.8129315 4288085770
3.2779541 -0.77173841 -1.8056533 4288085770
0.6481781 -0.46472204 -1.8094672 4288085770
3.6601524 -0.76159537 -1.8027196 4288085770
0.87842941 -0.44844615 -1.80788 4288085770
4.0973778 -0.75293648 -1.8033129 4288085770
1.1286621 -0.43431902 -1.8060899 4288085770
4.5405769 -0.74223006 -1.7988911 4288085770
1.3778801 -0.41711068 -1.800362 4288085770
5.0397797 -0.73399603 -1.7969688 4288085770
1.6721344 -0.40336776 -1.801206 4288085770
5.5879784 -0.72612798 -1.7946403 4288085770
1.9813614 -0.38866222 -1.7979435 4288085770
6.180172 -0.71756923 -1.7909645 4288085770
2.326622 -0.37531757 -1.7993634 4288085770
6.8573761 -0.71271837 -1.7905294 4288085770
2.6898651 -0.3610698 -1.798651 4288085770
7.6475754 -0.71280158 -1.7940854 4288085770
3.0690994 -0.34588635 -1.7948232 4288085770
8.4847679 -0.70914352 -1.792323 4288085770
3.5023689 -0.33221638 -1.7965283 4288085770
9.4839745 -0.71285903 -1.7981087 4288085770
3.9315872 -0.31636834 -1.7903008 4288085770
10.492134 -0.71042025 -1.7919245 4288085770
4.4568596 -0.30442119 -1.7932223 4288085770
11.625275 -0.70889437 -1.783703 4288085770
5.0071144 -0.28956783 -1.7909895 4288085770
5.6543884 -0.27754855 -1.7939147 4288085770
6.3156509 -0.26254153 -1.7917769 4288085770
7.1119347 -0.2506516 -1.79448 4288085770
7.9592094 -0.23606813 -1.7928113 4288085770
9.0405693 -0.22650635 -1.804145 4288085770
10.171883 -0.21213305 -1.8051503 4288085770
11.304127 -0.19354522 -1.7942135 4288085770
11.972668 0.10970473 -1.7810345 4288085770
10.539803 0.1214292 -1.7848287 4288085770
9.2659149 0.1320163 -1.7850958 4288085770
8.0719795 0.14511585 -1.7786483 4288085770
7.0820999 0.15659273 -1.7772363 4288085770
6.2062378 0.16819513 -1.7767448 4288085770
5.4333839 0.18002141 -1.7762794 4288085770
12.172199 0.090417862 -1.7675729 4288085770
4.7635498 0.19103742 -1.7778226 4288085770
10.780495 0.11371708 -1.7781907 4288085770
4.1437187 0.20168483 -1.7788854 4288085770
9.493721 0.13736212 -1.7808183 4288085770
3.5939064 0.21176541 -1.7822744 4288085770
8.2678452 0.16072834 -1.7728637 4288085770
3.0780792 0.22364628 -1.7823714 4288085770
7.2610359 0.18132758 -1.7717799 4288085770
2.6202583 0.23406577 -1.7838928 4288085770
6.4152679 0.20063841 -1.7751437 4288085770
2.2074623 0.24410248 -1.7879806 4288085770
5.5994263 0.21884739 -1.7712049 4288085770
1.8116455 0.25506485 -1.788923 4288085770
4.9046402 0.23706281 -1.7721159 4288085770
1.4558411 0.26569855 -1.7914803 4288085770
4.2908478 0.25366449 -1.7732294 4288085770
1.1170311 0.27724075 -1.7918915 4288085770
3.7410698 0.26976049 -1.7757262 4288085770
0.80621719 0.28755999 -1.7930163 4288085770
3.2342834 0.2845397 -1.7777921 4288085770
0.52343369 0.29862154 -1.7968878 4288085770
2.7715111 0.29997778 -1.7804513 4288085770
0.24861717 0.30867529 -1.7976665 4288085770
2.3387184 0.31522882 -1.7808224 4288085770
-0.012187958 0.32062566 -1.7983449 4288085770
1.9389305 0.33021963 -1.7818756 4288085770
-0.23796082 0.33125007 -1.8026676 4288085770
1.5911674 0.34375918 -1.7864093 4288085770
-0.45474625 0.34182525 -1.8059044 4288085770
1.2463722 0.3573451 -1.7869159 4288085770
-0.69760895 0.3537451 -1.8004121 4288085770
0.93057251 0.37071729 -1.7871432 4288085770
-0.88337708 0.36405778 -1.8053498 4288085770
0.65982819 0.38465559 -1.7929517 4288085770
-1.0631561 0.37434316 -1.8092304 4288085770
0.39105225 0.39864719 -1.7947425 4288085770
-1.2499866 0.38476574 -1.8081808 4288085770
0.13726234 0.41152847 -1.7963728 4288085770
-1.4217854 0.3960433 -1.8090024 4288085770
-0.10752869 0.42536038 -1.7969331 4288085770
-1.587595 0.40729344 -1.808767 4288085770
-0.33031654 0.43801337 -1.798264 4288085770
-1.7393875 0.41840655 -1.8103958 4288085770
-0.55212593 0.45170969 -1.7966036 4288085770
-1.902235 0.4297027 -1.8061329 4288085770
-0.7559185 0.46523947 -1.7967689 4288085770
-2.0309944 0.4415952 -1.8105563 4288085770
-0.93567276 0.47852427 -1.8007016 4288085770
-2.1347103 0.45221859 -1.8197201 4288085770
-1.118475 0.4908995 -1.8006479 4288085770
-2.2635078 0.4641791 -1.820145 4288085770
-1.2802429 0.50406891 -1.8034074 4288085770
-2.3953285 0.47519583 -1.8185829 4288085770
-1.4440365 0.51730388 -1.8031874 4288085770
-2.5231628 0.48721695 -1.8149997 4288085770
-1.5998325 0.53048015 -1.8028904 4288085770
-2.620903 0.49884713 -1.8211241 4288085770
-1.7436104 0.5435338 -1.8044772 4288085770
-1.8763866 0.55650645 -1.8059576 4288085770
-2.0212212 0.56865263 -1.8025389 4288085770
-2.1199093 0.58323866 -1.8117224 4288085770
-2.2256603 0.59596157 -1.8159415 4288085770
-2.3504772 0.60894334 -1.8133463 4288085770
-2.4542484 0.62168521 -1.8155466 4288085770
-2.5650482 0.63554657 -1.8138332 4288085770
-2.6678467 0.64833224 -1.813025 4288085770
-2.1510601 2.8673544 -1.7944731 4288085770
-2.0135784 2.9122705 -1.7961255 4288085770
-1.8650589 2.9600697 -1.7997389 4288085770
-1.7256165 3.0030215 -1.7983409 4288085770
-1.561058 3.0546818 -1.8028911 4288085770
-1.4116173 3.097558 -1.801412 4288085770
-1.2420826 3.1482148 -1.8039042 4288085770
-1.059536 3.2007725 -1.8063247 4288085770
-2.1728954 2.7664018 -1.7988402 4288085770
-0.86192894 3.2581663 -1.8117071 4288085770
-2.0425205 2.7983902 -1.79933 4288085770
-0.6482811 3.3194213 -1.8180267 4288085770
-1.9031334 2.8323104 -1.7997807 4288085770
-0.44674301 3.3728688 -1.8183092 4288085770
-1.7687912 2.8623025 -1.7982043 4288085770
-0.2663269 3.4165778 -1.8125939 4288085770
-1.6244354 2.8932021 -1.7975637 4288085770
-0.03068924 3.4787002 -1.816751 4288085770
-1.4589844 2.9318748 -1.8008864 4288085770
0.19688606 3.5359344 -1.8178886 4288085770
-1.3126602 2.9607933 -1.7981957 4288085770
0.45254517 3.6009049 -1.8219329 4288085770
-1.1382103 2.9993978 -1.8014448 4288085770
0.70615768 3.6619248 -1.8239261 4288085770
-0.93968582 3.0437529 -1.8085995 4288085770
0.97679901 3.7268157 -1.8258482 4288085770
-0.7743454 3.0745277 -1.8057874 4288085770
1.2684822 3.7955308 -1.8286667 4288085770
-0.57487679 3.1139097 -1.8108495 4288085770
1.5671501 3.863193 -1.8314111 4288085770
-0.40659142 3.1407132 -1.8049459 4288085770
1.8898773 3.936656 -1.8350611 4288085770
-0.20417595 3.17714 -1.8059335 4288085770
2.2386436 4.014905 -1.8395836 4288085770
-0.0048065186 3.2096243 -1.8048781 4288085770
2.5823517 4.088243 -1.8410623 4288085770
0.2146225 3.2469063 -1.8067437 4288085770
2.9480743 4.163415 -1.8423958 4288085770
0.45611382 3.2889709 -1.8115143 4288085770
3.328804 4.2394729 -1.843624 4288085770
0.67847061 3.3212981 -1.8092716 4288085770
3.7907906 4.3397641 -1.8536129 4288085770
0.9369545 3.3632512 -1.8129038 4288085770
4.2406349 4.4292645 -1.8565148 4288085770
1.1923828 3.4002616 -1.8144763 4288085770
4.7626877 4.5370841 -1.8671499 4288085770
1.462822 3.439158 -1.8159604 4288085770
5.3518753 4.6583281 -1.8814752 4288085770
1.7392349 3.4750266 -1.8163453 4288085770
5.8717461 4.7523165 -1.8828912 4288085770
2.0337029 3.5147085 -1.8196504 4288085770
6.4768333 4.8665409 -1.8909678 4288085770
2.3612213 3.5601063 -1.824788 4288085770
7.0777969 4.9708991 -1.8929096 4288085770
2.6716499 3.5967016 -1.8259125 4288085770
7.7729836 5.0974255 -1.9014726 4288085770
2.9900475 3.6312532 -1.8259386 4288085770
8.4530182 5.2101684 -1.9039221 4288085770
3.3555679 3.6753483 -1.8317494 4288085770
9.191124 5.3314548 -1.9070511 4288085770
3.703968 3.7096739 -1.8315315 4288085770
10.002335 5.4631371 -1.9127706 4288085770
4.0844269 3.7487063 -1.8341367 4288085770
10.892651 5.6072044 -1.919066 4288085770
4.4778709 3.7856417 -1.8366026 4288085770
11.940277 5.7819123 -1.9346212 4288085770
4.8963165 3.8233876 -1.8388821 4288085770
5.3448219 3.8648562 -1.8439842 4288085770
5.7882309 3.8984313 -1.844993 4288085770
6.2566338 3.9318175 -1.8457996 4288085770
6.7721252 3.9707646 -1.8513228 4288085770
7.381794 4.0248652 -1.8643498 4288085770
7.9683113 4.0662589 -1.8703463 4288085770
8.5627823 4.1015935 -1.8761768 4288085770
9.0939903 4.1145921 -1.8711348 4288085770
9.6872787 4.1330547 -1.8696895 4288085770
10.282501 4.1455197 -1.8671268 4288085770
10.915726 4.1566982 -1.8642387 4288085770
11.625027 4.1732187 -1.865833 4288085770
12.377354 4.1903644 -1.8700939 4288085770
11.940487 -5.6288681 -1.6253437 4293729569
10.962704 -5.4560671 -1.6080586 4293729569
10.566952 -5.3945732 -0.72310996 4293729569
10.25555 -5.3556557 -1.6094068 4293729569
10.462841 -5.4846973 -0.77847725 4293729569
9.7071724 -5.2976484 -1.621781 4293729569
10.459553 -5.60569 -0.83952636 4293729569
9.1997757 -5.2459979 -1.6367215 4293729569
10.57103 -5.7666907 -0.90799528 4293729569
8.6464844 -5.1708574 -1.6434168 4293729569
8.1241875 -5.099 -1.6528089 4293729569
7.5390434 -4.9985261 -1.6541768 4293729569
6.9838753 -4.8992605 -1.6542832 4293729569
6.4497147 -4.7981381 -1.6532506 4293729569
5.9764748 -4.7135539 -1.6564565 4293729569
5.5621567 -4.6445098 -1.664933 4293729569
12.682861 -7.4247441 -1.557869 4293729569
5.1458702 -4.5684032 -1.6705412 4293729569
11.662018 -7.1550241 -1.5665317 4293729569
4.8114548 -4.5210896 -1.6860186 4293729569
10.676147 -6.8855033 -1.5709083 4293729569
4.5299454 -4.4902544 -1.7057999 4293729569
6.0426521 -5.1226096 -1.2561504 4293729569
4.3053703 -4.4779749 -1.7328188 4293729569
6.0147171 -5.1974211 -1.3181609 4293729569
4.1027641 -4.4708939 -1.7615758 4288085770
8.3174286 -6.2458558 -1.6024402 4293729569
3.9141541 -4.4659343 -1.7911855 4288085770
7.494339 -5.9944139 -1.5962056 4293729569
3.7076035 -4.450808 -1.8191065 4288085770
6.8877792 -5.8269343 -1.6078502 4293729569
3.4371834 -4.4060082 -1.8360281 4288085770
5.9061203 -5.4858046 -1.5733604 4293729569
3.1498146 -4.3479686 -1.8463019 4288085770
4.8576279 -5.1028676 -1.5210922 4293729569
2.882431 -4.2941279 -1.8593462 4288085770
4.7220573 -5.1156468 -1.5709877 4293729569
2.4653473 -4.1686807 -1.8447678 4288085770
3.9499741 -4.8361864 -1.5397958 4293729569
2.1550674 -4.0873084 -1.8456076 4288085770
3.9291649 -4.8930211 -1.600045 4293729569
1.8428116 -3.9998741 -1.8435624 4288085770
3.7118225 -4.8569131 -1.6343993 4293729569
1.5295639 -3.9073849 -1.8386072 4288085770
3.4276505 -4.7850957 -1.6568761 4293729569
1.2652397 -3.8343902 -1.8409392 4288085770
3.0876312 -4.6826982 -1.6703031 4293729569
0.99394226 -3.7532806 -1.8394597 4288085770
2.7176781 -4.5619316 -1.675271 4293729569
0.73962021 -3.6773305 -1.8397588 4288085770
2.3926353 -4.4585819 -1.6845921 4293729569
0.49028778 -3.6003852 -1.8380336 4288085770
2.1793518 -4.404345 -1.7092088 4293729569
0.25793457 -3.5285997 -1.8380872 4288085770
2.052887 -4.3899999 -1.7474738 4293729569
0.026586533 -3.4537897 -1.8361815 4288085770
1.9513702 -4.3869071 -1.7893537 4293729569
-0.18478966 -3.3851628 -1.836014 4288085770
1.8438797 -4.3767209 -1.8283975 4288085770
-0.36522865 -3.330864 -1.8413627 4288085770
1.6695518 -4.3318248 -1.8555475 4288085770
-0.57459259 -3.2572036 -1.8382607 4288085770
1.3814774 -4.2246399 -1.8576312 4288085770
-0.76997948 -3.1886802 -1.8369616 4288085770
1.0704613 -4.1011548 -1.8521656 4288085770
-0.94540596 -3.1283555 -1.8383677 4288085770
0.764431 -3.977675 -1.8446589 4288085770
-1.1038437 -3.0732064 -1.8425523 4288085770
0.48733902 -3.8654609 -1.8397347 4288085770
-1.2872562 -3.0037084 -1.8371716 4288085770
0.25216103 -3.7716732 -1.8411713 4288085770
-1.4327202 -2.9516568 -1.8412006 4288085770
0.0090065002 -3.6707621 -1.838788 4288085770
-1.5711918 -2.9016743 -1.8461392 4288085770
-0.21618652 -3.5760016 -1.8371589 4288085770
-1.7316284 -2.8373814 -1.8424881 4288085770
-0.41644478 -3.4924765 -1.8381451 4288085770
-1.8670998 -2.7843728 -1.8444513 4288085770
-0.61968422 -3.4048963 -1.837221 4288085770
-2.0085697 -2.7262549 -1.8425457 4288085770
-0.8099575 -3.321414 -1.8361251 4288085770
-2.1460361 -2.6681666 -1.8406074 4288085770
-0.9872551 -3.2430611 -1.8368409 4288085770
-2.2575397 -2.6223869 -1.8452588 4288085770
-1.1485882 -3.1708441 -1.8383269 4288085770
-1.2979412 -3.1027479 -1.8416491 4288085770
-1.4582787 -3.0274901 -1.8401761 4288085770
-1.6076374 -2.9563308 -1.8395475 4288085770
-1.7480125 -2.8882542 -1.8397957 4288085770
-1.878418 -2.8242531 -1.8398968 4288085770
-2.0028229 -2.7613125 -1.8409319 4288085770
-2.1262302 -2.6973643 -1.8409752 4288085770
-2.2336826 -2.6415668 -1.8427565 4288085770
-2.1817417 -0.25538969 -1.8087593 4288085770
-2.0725231 -0.24424422 -1.810039 4288085770
-1.9683113 -0.23101318 -1.8083925 4288085770
-1.8470917 -0.21995735 -1.8095716 4288085770
-1.742897 -0.20567822 -1.8049412 4288085770
-1.5996628 -0.19583452 -1.8089206 4288085770
-1.46945 -0.18381357 -1.8080404 4288085770
-1.3312473 -0.17183661 -1.8060937 4288085770
-1.1840305 -0.16097426 -1.8070552 4288085770
-2.2310982 -0.047155619 -1.8174713 4288085770
-1.0278206 -0.14914763 -1.8059579 4288085770
-2.1229038 -0.034937978 -1.8147743 4288085770
-0.86361313 -0.13839662 -1.8057774 4288085770
-2.0006981 -0.024873018 -1.8149283 4288085770
-0.70042038 -0.1276058 -1.8036054 4288085770
-1.883503 -0.012722731 -1.812156 4288085770
-0.51821136 -0.11698902 -1.8032743 4288085770
-1.7513065 -0.0027161837 -1.8112262 4288085770
-0.3139801 -0.10658491 -1.8057593 4288085770
-1.6030827 0.0081224442 -1.8131784 4288085770
-0.10076523 -0.097231627 -1.8071529 4288085770
-1.4638958 0.019108653 -1.8102061 4288085770
0.14047241 -0.088135719 -1.8113126 4288085770
-1.2986698 0.028804421 -1.813 4288085770
0.36166191 -0.077777863 -1.8086555 4288085770
-1.1284618 0.038495183 -1.8137521 4288085770
0.60485077 -0.067584157 -1.8058146 4288085770
-0.96127701 0.048256636 -1.8115294 4288085770
0.88106918 -0.05871737 -1.8076816 4288085770
-0.77207184 0.057805419 -1.8121227 4288085770
1.1432381 -0.047617555 -1.8016981 4288085770
-0.56684685 0.067202806 -1.8145819 4288085770
1.4394302 -0.037835717 -1.799414 4288085770
-0.36465645 0.076686978 -1.8130662 4288085770
1.7646217 -0.029286265 -1.7978715 4288085770
-0.16348076 0.087226748 -1.808575 4288085770
2.1238327 -0.02103889 -1.7990445 4288085770
0.056697845 0.096592426 -1.8059088 4288085770
2.5010338 -0.011893988 -1.7980829 4288085770
0.31691933 0.10557938 -1.8079076 4288085770
2.9002037 -0.0038650036 -1.7939218 4288085770
0.57811356 0.11460686 -1.8068984 4288085770
3.3704338 0.0035216808 -1.7961669 4288085770
0.85129929 0.12356126 -1.8047887 4288085770
3.8456116 0.010951281 -1.7933704 4288085770
1.1565018 0.13122845 -1.8053949 4288085770
4.3737984 0.017969251 -1.7911304 4288085770
1.4706841 0.13987672 -1.802942 4288085770
4.9649925 0.023484945 -1.7903479 4288085770
1.8198814 0.14721584 -1.8031805 4288085770
5.6362038 0.029370904 -1.7909127 4288085770
2.1920509 0.15537953 -1.8002326 4288085770
6.3653831 0.033786893 -1.7899673 4288085770
2.6002464 0.16227531 -1.7999781 4288085770
7.2486305 0.036973953 -1.795745 4288085770
3.0394402 0.16995549 -1.7984803 4288085770
8.1438026 0.040215611 -1.7924223 4288085770
3.5096245 0.17640388 -1.7967073 4288085770
9.3341064 0.038933635 -1.8066015 4288085770
4.0298042 0.1824795 -1.7945161 4288085770
10.559299 0.039630413 -1.8055211 4288085770
4.6480293 0.18771076 -1.7985053 4288085770
11.899448 0.040548444 -1.7984961 4288085770
5.2601852 0.19313097 -1.7935448 4288085770
5.9863853 0.19658768 -1.7946144 4288085770
6.8506432 0.1999017 -1.8015457 4288085770
7.7728577 0.20184648 -1.8039763 4288085770
8.871109 0.2023809 -1.8109345 4288085770
10.113354 0.2018398 -1.8166887 4288085770
11.443497 0.2008177 -1.8107076 4288085770
11.822845 0.48774034 -1.807043 4288085770
10.556175 0.51415026 -1.8177611 4288085770
9.2873383 0.53781819 -1.8124622 4288085770
8.1875153 0.56018645 -1.8086324 4288085770
7.2577362 0.58120155 -1.8092608 4288085770
6.373867 0.59999692 -1.8014472 4288085770
5.6240692 0.61867613 -1.8004321 4288085770
12.579746 0.77922422 -1.794275 4288085770
4.9702644 0.63662767 -1.7995478 4288085770
11.152935 0.79795861 -1.7973405 4288085770
4.384491 0.65402883 -1.8010459 4288085770
9.9030952 0.81439424 -1.797784 4288085770
3.8406982 0.67114854 -1.8001648 4288085770
8.8342972 0.83142585 -1.800614 4288085770
3.3579254 0.68777001 -1.8017303 4288085770
7.8514442 0.84587997 -1.7986362 4288085770
2.9121399 0.70311689 -1.8029457 4288085770
6.9545631 0.85972619 -1.7938799 4288085770
2.4993553 0.71923393 -1.8028779 4288085770
6.2027435 0.87440509 -1.7938348 4288085770
2.1235657 0.73406118 -1.8034596 4288085770
5.5069084 0.8886832 -1.7922829 4288085770
1.7667732 0.74976254 -1.8028854 4288085770
4.894104 0.90329981 -1.7929918 4288085770
1.4600258 0.76501685 -1.8068557 4288085770
4.3433037 0.91744113 -1.7941376 4288085770
1.1422195 0.77944404 -1.804914 4288085770
3.8445091 0.93219638 -1.7948267 4288085770
0.865448 0.79450613 -1.8066138 4288085770
3.3857193 0.94663948 -1.7961528 4288085770
0.60266113 0.80847943 -1.8071725 4288085770
2.9549103 0.95989013 -1.7962106 4288085770
0.36491013 0.82322156 -1.8105186 4288085770
2.5520859 0.97296345 -1.794015 4288085770
0.14415359 0.83885252 -1.8127258 4288085770
2.2073174 0.98751479 -1.7973205 4288085770
-0.07963562 0.85253656 -1.8129319 4288085770
1.8745384 1.0020075 -1.7985183 4288085770
-0.28141022 0.86704183 -1.8139528 4288085770
1.5697556 1.0152774 -1.8004465 4288085770
-0.45915031 0.88230872 -1.8187712 4288085770
1.2869644 1.0293995 -1.8011924 4288085770
-0.66701126 0.89498019 -1.8118205 4288085770
1.0101662 1.0434917 -1.8008827 4288085770
-0.83877945 0.90924764 -1.8135697 4288085770
0.77241516 1.0582339 -1.8042319 4288085770
-0.99554634 0.92340374 -1.8151824 4288085770
0.54165268 1.072939 -1.8065183 4288085770
-1.1653652 0.93673229 -1.811901 4288085770
0.31986237 1.0866079 -1.8067089 4288085770
-1.307127 0.95076191 -1.8143777 4288085770
0.096040726 1.0993375 -1.8039042 4288085770
-1.4408798 0.96573216 -1.816797 4288085770
-0.0826931 1.1146111 -1.8087319 4288085770
-1.5836945 0.97884512 -1.8142704 4288085770
-0.2865181 1.127192 -1.8057463 4288085770
-1.7154789 0.99284601 -1.813658 4288085770
-0.46731186 1.1415716 -1.8045805 4288085770
-1.8242188 1.0086153 -1.8168651 4288085770
-0.63007927 1.1557722 -1.8062499 4288085770
-1.9440155 1.0215273 -1.816129 4288085770
-0.78887367 1.1699886 -1.804884 4288085770
-2.0477524 1.0372596 -1.8192914 4288085770
-0.92861176 1.1859879 -1.8083737 4288085770
-2.1475086 1.0519773 -1.8214023 4288085770
-1.0834236 1.1991898 -1.8059577 4288085770
-1.2262268 1.2122877 -1.8044323 4288085770
-1.3449726 1.2281462 -1.8067312 4288085770
-1.4687557 1.2430875 -1.8060623 4288085770
-1.5774994 1.258857 -1.8092716 4288085770
-1.6912899 1.2737393 -1.807512 4288085770
-1.7960548 1.2885094 -1.8086699 4288085770
-1.9058533 1.303377 -1.8058751 4288085770
-1.9976025 1.3190354 -1.807929 4288085770
-2.0823345 1.3366414 -1.8099492 4288085770
-2.172102 1.3523151 -1.8099861 4288085770
-2.1323166 3.6227374 -1.8194073 4288085770
-2.0095558 3.6997261 -1.8253939 4288085770
-1.8868427 3.7747612 -1.8283505 4288085770
-1.7520638 3.8556762 -1.8332814 4288085770
-1.6032124 3.9434557 -1.840183 4288085770
-1.4755516 4.0175295 -1.8380736 4288085770
-1.3015842 4.1170774 -1.8479149 4288085770
-1.1387329 4.2087994 -1.85174 4288085770
-0.99807549 4.2848058 -1.8475335 4288085770
-0.81918907 4.3814082 -1.8512788 4288085770
-2.1115799 3.6884217 -1.8269519 4288085770
-0.63632011 4.4780116 -1.8529844 4288085770
-1.9577618 3.7681212 -1.8366826 4288085770
-0.45448303 4.5726528 -1.8526683 4288085770
-1.8070049 3.844903 -1.8423963 4288085770
-0.24048233 4.6829796 -1.8572853 4288085770
-1.6562881 3.918716 -1.8460639 4288085770
-0.0094070435 4.8011489 -1.863858 4288085770
-1.5267506 3.978807 -1.8417213 4288085770
0.24073982 4.9281774 -1.8703827 4288085770
-1.3680382 4.0535755 -1.8443252 4288085770
0.50291443 5.0581017 -1.8778358 4288085770
-1.1791553 4.1430297 -1.8528658 4288085770
0.77508545 5.1909957 -1.8822365 4288085770
-1.0215263 4.2128825 -1.8504021 4288085770
1.0371475 5.3150268 -1.8825959 4288085770
-0.85184288 4.2866149 -1.8498809 4288085770
1.3223114 5.4488554 -1.8848815 4288085770
-0.66912079 4.3652358 -1.8503102 4288085770
1.6325645 5.5934682 -1.8890921 4288085770
-0.47737503 4.4467902 -1.850697 4288085770
1.9759445 5.7518044 -1.8951942 4288085770
-0.27560806 4.5312705 -1.8510314 4288085770
2.3383675 5.9170146 -1.9002171 4288085770
-0.043689728 4.6294508 -1.8562865 4288085770
2.7620926 6.112649 -1.9131169 4288085770
0.19623375 4.7285728 -1.8614783 4288085770
3.2772293 6.3504543 -1.9357861 4288085770
0.47636414 4.8473058 -1.8725841 4288085770
3.8315239 6.6049223 -1.9613318 4288085770
0.73631287 4.9502792 -1.8776398 4288085770
4.4128342 6.8672528 -1.9827348 4288085770
1.0042534 5.0542235 -1.8806322 4288085770
4.91362 7.0814357 -1.9871669 4288085770
1.2912598 5.1650114 -1.8845448 4288085770
5.4102592 7.2847567 -1.9844688 4288085770
1.5912666 5.2777181 -1.8873606 4288085770
5.9902534 7.5253372 -1.9895394 4288085770
1.8841782 5.3815236 -1.8871065 4288085770
6.6405106 7.7953372 -1.9983828 4288085770
2.2132454 5.5009999 -1.8907437 4288085770
7.3690224 8.0957108 -2.0099363 4288085770
2.5653954 5.6292753 -1.8962921 4288085770
2.9546623 5.7692304 -1.9046615 4288085770
3.3820648 5.9228578 -1.915872 4288085770
3.8254585 6.0793967 -1.9249728 4288085770
4.3371391 6.2623091 -1.9418173 4288085770
4.8125343 6.4206419 -1.9486305 4288085770
5.3441277 6.599483 -1.9602149 4288085770
5.9540062 6.807653 -1.9774925 4288085770
6.5517197 7.000989 -1.9896564 4288085770
7.124218 7.1756334 -1.9937724 4288085770
7.7096634 7.3462129 -1.9956992 4288085770
8.3401985 7.5284586 -1.9973668 4288085770
9.079113 7.7487497 -2.0085702 4288085770
9.8560867 7.976759 -2.0195203 4288085770
10.582672 8.1693401 -2.0174096 4288085770
12.57378 -2.7765169 -1.8241012 4288085770
11.829857 -2.7799764 -1.8273222 4288085770
11.09697 -2.7765031 -1.8295437 4288085770
10.423111 -2.7714801 -1.8322107 4288085770
9.7902527 -2.7667742 -1.8354726 4288085770
9.1834259 -2.7592754 -1.839524 4288085770
8.555645 -2.738534 -1.8379849 4288085770
7.9268684 -2.7097125 -1.8315805 4288085770
7.3601112 -2.6854229 -1.8294997 4288085770
6.8033562 -2.6561627 -1.8243984 4288085770
6.3166084 -2.6355224 -1.8254788 4288085770
5.8078766 -2.6046309 -1.8209338 4288085770
5.3651543 -2.5803151 -1.8216401 4288085770
11.952393 -4.1402574 -1.8369044 4288085770
4.8994408 -2.5467424 -1.8167158 4288085770
11.043266 -4.0344663 -1.8404404 4288085770
4.5207214 -2.5269575 -1.8207262 4288085770
10.168106 -3.9268675 -1.8396723 4288085770
4.1530113 -2.505239 -1.8236589 4288085770
9.3689308 -3.8248577 -1.8400726 4288085770
3.7483177 -2.4691162 -1.8181775 4288085770
8.6456871 -3.7344508 -1.8425527 4288085770
3.4036179 -2.4435534 -1.8199446 4288085770
7.8894882 -3.6256542 -1.8356376 4288085770
3.0949135 -2.4233003 -1.8242774 4288085770
7.2082367 -3.5284705 -1.8318096 4288085770
2.7752266 -2.3969221 -1.8258132 4288085770
6.5789566 -3.4376969 -1.8293742 4288085770
2.4615479 -2.366559 -1.8253508 4288085770
6.0056305 -3.3553662 -1.8282602 4288085770
2.1838493 -2.3445349 -1.8294084 4288085770
5.467308 -3.2743073 -1.827783 4288085770
1.8841782 -2.3112459 -1.8268546 4288085770
4.9799423 -3.2026682 -1.829662 4288085770
1.6174965 -2.2842736 -1.8288805 4288085770
4.5145607 -3.1321764 -1.8303081 4288085770
1.342823 -2.2521834 -1.8270643 4288085770
4.0631752 -3.0587578 -1.8288614 4288085770
1.0881538 -2.221271 -1.827033 4288085770
3.64077 -2.9895682 -1.8280661 4288085770
0.84148026 -2.190402 -1.8259233 4288085770
3.2613411 -2.9277387 -1.8297354 4288085770
0.59880447 -2.1575484 -1.8238051 4288085770
2.8819046 -2.8628654 -1.8284528 4288085770
0.38713264 -2.1309967 -1.8262855 4288085770
2.5614357 -2.8105292 -1.8333977 4288085770
0.17546082 -2.1034307 -1.8277826 4288085770
2.2109947 -2.7458692 -1.8318276 4288085770
-0.031209946 -2.0728717 -1.8272759 4288085770
1.9025154 -2.6905627 -1.8327014 4288085770
-0.22588158 -2.0454307 -1.8286043 4288085770
1.6020317 -2.6343007 -1.8325117 4288085770
-0.3935585 -2.0232472 -1.8335871 4288085770
1.3235207 -2.5822139 -1.8330429 4288085770
-0.57422638 -1.9949101 -1.8347915 4288085770
1.0520287 -2.5281792 -1.8335341 4288085770
-0.74289894 -1.9686753 -1.8368461 4288085770
0.78651047 -2.4741597 -1.8319671 4288085770
-0.93556786 -1.9321615 -1.8322948 4288085770
0.53899574 -2.4233027 -1.8321749 4288085770
-1.0752373 -1.9122142 -1.8389685 4288085770
0.30447006 -2.3735409 -1.8322381 4288085770
-1.2439079 -1.8789061 -1.8361317 4288085770
0.086923599 -2.3279185 -1.833071 4288085770
-1.4045925 -1.848672 -1.8341705 4288085770
-0.12361526 -2.2813482 -1.8338495 4288085770
-1.5462589 -1.8216366 -1.8359725 4288085770
-0.34416771 -2.2296295 -1.8298062 4288085770
-1.6899338 -1.7925574 -1.835826 4288085770
-0.55772972 -2.1779485 -1.8246936 4288085770
-1.82061 -1.7666031 -1.8375037 4288085770
-0.75129318 -2.131474 -1.8233045 4288085770
-1.9492874 -1.7406634 -1.839162 4288085770
-0.92486191 -2.0901899 -1.8246391 4288085770
-2.0749664 -1.7137312 -1.839806 4288085770
-1.1034412 -2.0448103 -1.8220859 4288085770
-2.1996384 -1.6858066 -1.8404557 4288085770
-1.246027 -2.0118284 -1.8279884 4288085770
-1.3886223 -1.9768022 -1.8309222 4288085770
-1.5372124 -1.9377023 -1.8319778 4288085770
-1.6718082 -1.9027346 -1.8348323 4288085770
-1.8114128 -1.8636864 -1.8347994 4288085770
-1.9470196 -1.8246528 -1.8337263 4288085770
-2.0646362 -1.7918102 -1.8363808 4288085770
-2.1952534 -1.7527989 -1.8342589 4288085770
-2.1970291 0.39110947 -1.8187503 4288085770
-2.0697842 0.40211272 -1.8215501 4288085770
-1.9586124 0.4143514 -1.816535 4288085770
-1.8364277 0.42548007 -1.8133869 4288085770
-1.6962051 0.43641794 -1.8140452 4288085770
-1.5499802 0.447312 -1.8146384 4288085770
-1.3917408 0.45910347 -1.8161166 4288085770
-1.2275181 0.46986586 -1.816515 4288085770
-2.1612015 0.48756516 -1.835636 4288085770
-1.0653172 0.4806726 -1.8149338 4288085770
-2.0510635 0.49682653 -1.8295852 4288085770
-0.88007927 0.49226665 -1.8161194 4288085770
-1.9258957 0.50593382 -1.8263725 4288085770
-0.69787979 0.50292748 -1.8143216 4288085770
-1.8198071 0.51428384 -1.8163484 4288085770
-0.50468254 0.51350766 -1.8124046 4288085770
-1.6605682 0.52303886 -1.819769 4288085770
-0.26136208 0.52455926 -1.8209641 4288085770
-1.5033607 0.5318532 -1.8202105 4288085770
-0.051187515 0.53504497 -1.8168622 4288085770
-1.3421707 0.53965312 -1.8195928 4288085770
0.16197777 0.54552352 -1.8117265 4288085770
-1.1669559 0.54832095 -1.8208385 4288085770
0.42121124 0.55657679 -1.8121103 4288085770
-0.99880219 0.55611426 -1.8171448 4288085770
0.68940735 0.56659418 -1.810382 4288085770
-0.77150345 0.56428379 -1.8258291 4288085770
0.96058655 0.57661921 -1.8066187 4288085770
-0.58435059 0.57193822 -1.8219278 4288085770
1.2778397 0.58721924 -1.8083738 4288085770
-0.37516403 0.57938755 -1.8207884 4288085770
1.6130638 0.59771705 -1.8079333 4288085770
-0.15799713 0.58579332 -1.8185471 4288085770
1.9582596 0.60818624 -1.8043835 4288085770
0.085193634 0.59297919 -1.8180393 4288085770
2.3534851 0.61823094 -1.8042934 4288085770
0.33337021 0.5991438 -1.8164612 4288085770
2.7777252 0.6280489 -1.8048884 4288085770
0.59152222 0.60526466 -1.8127739 4288085770
3.2339592 0.63864762 -1.8041512 4288085770
0.88171387 0.61109287 -1.8127404 4288085770
3.7231827 0.64800537 -1.8030407 4288085770
1.1778679 0.61592168 -1.8096256 4288085770
4.2744331 0.65788031 -1.8032742 4288085770
1.5160675 0.62138414 -1.8100708 4288085770
4.8466339 0.66766101 -1.799278 4288085770
1.8582344 0.62584728 -1.8084558 4288085770
5.504879 0.67673916 -1.7993509 4288085770
2.2283936 0.63012064 -1.8055369 4288085770
6.2651749 0.68701237 -1.8023494 4288085770
2.6525993 0.6339255 -1.8070329 4288085770
7.152523 0.69728351 -1.8089883 4288085770
3.106781 0.63652599 -1.8071878 4288085770
8.0427399 0.70569575 -1.8045599 4288085770
3.5889359 0.63795179 -1.8050231 4288085770
9.2171707 0.7167505 -1.8161343 4288085770
4.1351166 0.63986546 -1.8051798 4288085770
10.419453 0.72577882 -1.815372 4288085770
4.7253075 0.64044309 -1.8058419 4288085770
11.660591 0.73170024 -1.8021353 4288085770
5.3634605 0.63969976 -1.8039672 4288085770
6.1026573 0.63814449 -1.8059967 4288085770
6.9639091 0.63560903 -1.8127024 4288085770
7.868084 0.629834 -1.8138936 4288085770
8.9403267 0.62372786 -1.8202761 4288085770
10.171562 0.61443079 -1.8269024 4288085770
11.447632 0.60098326 -1.8209754 4288085770
4.6712608 -5.4599085 -0.28825074 4293729569
4.6555595 -5.3654199 -0.33178523 4293729569
4.6717072 -5.2871175 -0.37172231 4293729569
4.7447166 -5.233285 -0.41465893 4293729569
4.8720512 -5.1912594 0.20228818 4293729569
4.8825302 -5.2069378 -0.45746025 4293729569
5.9355888 -5.2945213 -0.64315724 4293729569
6.0704956 -5.2511096 -0.68323475 4293729569
10.418907 -5.7245359 -1.2276679 4293729569
10.532543 -5.6143951 -0.33480948 4293729569
10.40731 -5.5847735 -1.2507967 4293729569
10.476055 -5.4613223 -0.35964239 4293729569
10.459583 -5.4665179 -1.2758857 4293729569
10.591183 -5.3625221 -0.38373238 4293729569
12.338154 0.9465754 -1.7841259 4288085770
11.129524 0.98750377 -1.7900695 4288085770
10.048847 1.0245143 -1.7934369 4288085770
9.067112 1.0578328 -1.7935759 4288085770
8.1392899 1.0878315 -1.7880263 4288085770
7.3304901 1.1149045 -1.7850211 4288085770
6.6067009 1.1423436 -1.7820117 4288085770
5.9388809 1.1673894 -1.7773033 4288085770
5.3761635 1.1935536 -1.7793642 4288085770
12.374462 1.6804 -1.779276 4288085770
4.8674355 1.2193242 -1.7807779 4288085770
11.198509 1.6901941 -1.7773824 4288085770
4.4087067 1.2437161 -1.7825783 4288085770
10.19767 1.7036107 -1.7804626 4288085770
3.978981 1.2678969 -1.7840313 4288085770
9.320858 1.7190942 -1.7840998 4288085770
3.5902786 1.2927495 -1.7870071 4288085770
8.4809532 1.730381 -1.7822375 4288085770
3.2145195 1.3145515 -1.7867846 4288085770
7.7310791 1.7429829 -1.7813251 4288085770
2.8777924 1.3380399 -1.7881233 4288085770
7.0551872 1.7550598 -1.7785263 4288085770
2.5610657 1.3603681 -1.7902079 4288085770
6.4303093 1.7677505 -1.7761309 4288085770
2.2663307 1.3825506 -1.7910291 4288085770
5.8564262 1.7800696 -1.7731242 4288085770
1.9926033 1.4045655 -1.7925986 4288085770
5.3445892 1.7938931 -1.772403 4288085770
1.7328606 1.426493 -1.7930005 4288085770
4.8877563 1.8093153 -1.7710513 4288085770
1.4770737 1.4454209 -1.7913119 4288085770
4.4900246 1.82822 -1.7750491 4288085770
1.2764168 1.4698311 -1.7970489 4288085770
4.1192856 1.8469282 -1.7787237 4288085770
1.0526619 1.4904962 -1.7970055 4288085770
3.7554817 1.8636434 -1.7782862 4288085770
0.83687973 1.5101324 -1.7948519 4288085770
3.433712 1.8810235 -1.7793595 4288085770
0.66118622 1.5323895 -1.7982613 4288085770
3.1369934 1.9011773 -1.7831757 4288085770
0.47944832 1.5537341 -1.7987286 4288085770
2.8552513 1.9202511 -1.7847983 4288085770
0.30770302 1.5740058 -1.7990617 4288085770
2.5764465 1.9373468 -1.7833569 4288085770
0.14596367 1.5952046 -1.7992896 4288085770
2.3226814 1.956231 -1.7836441 4288085770
-0.0077762604 1.6163452 -1.7994215 4288085770
2.0809097 1.9740279 -1.7837733 4288085770
-0.14749718 1.638369 -1.8003999 4288085770
1.8741989 1.9955257 -1.78654 4288085770
-0.29326439 1.6574661 -1.7994075 4288085770
1.6523857 2.0132203 -1.7834302 4288085770
-0.41395569 1.6803222 -1.8021721 4288085770
1.4526291 2.032711 -1.783085 4288085770
-0.52966309 1.7031566 -1.8038771 4288085770
1.2678947 2.0530629 -1.7845738 4288085770
-0.66848564 1.7212608 -1.7987872 4288085770
1.1031761 2.075269 -1.785852 4288085770
-0.78323555 1.7411172 -1.7984376 4288085770
0.93743134 2.0954971 -1.7861133 4288085770
-0.89096069 1.7629079 -1.7990327 4288085770
0.78068924 2.1166596 -1.7862813 4288085770
-0.98163986 1.7875452 -1.8014669 4288085770
0.64901733 2.1415956 -1.7892066 4288085770
-1.0904217 1.8073872 -1.7990458 4288085770
0.5042572 2.1626856 -1.7882313 4288085770
-1.179142 1.8300394 -1.7994276 4288085770
0.38056755 2.187578 -1.790061 4288085770
-1.2598209 1.8546038 -1.8017418 4288085770
0.2568512 2.210485 -1.7908622 4288085770
-1.3395233 1.8781756 -1.8030299 4288085770
0.13713074 2.2343774 -1.7906301 4288085770
-1.4172249 1.9017328 -1.8042941 4288085770
0.0083332062 2.2543941 -1.7864491 4288085770
-1.5009861 1.9233922 -1.8016022 4288085770
-0.10241508 2.2762356 -1.7850806 4288085770
-1.5726929 1.9479201 -1.8018091 4288085770
-0.19507217 2.3038871 -1.7875816 4288085770
-1.6454258 1.9704701 -1.8009994 4288085770
-0.29580688 2.3276556 -1.7861218 4288085770
-1.7081108 1.9959178 -1.8021127 4288085770
-0.380476 2.3552632 -1.7875276 4288085770
-1.7778568 2.0184605 -1.8002671 4288085770
-0.47624207 2.3780243 -1.7839938 4288085770
-1.8234997 2.0467548 -1.8032192 4288085770
-0.55694008 2.4036179 -1.7843227 4288085770
-1.8771896 2.0721369 -1.8042245 4288085770
-0.62157822 2.4340649 -1.7865316 4288085770
-1.9288826 2.0985188 -1.8042206 4288085770
-0.70633125 2.4587457 -1.7828948 4288085770
-1.9926376 2.1210322 -1.8013033 4288085770
-0.76696777 2.4891634 -1.7850555 4288085770
-2.0403328 2.1473849 -1.8012514 4288085770
-0.83466339 2.5166764 -1.7842579 4288085770
-2.0759678 2.1766062 -1.8040979 4288085770
-0.89938354 2.5441964 -1.7814243 4288085770
-2.1236897 2.2029881 -1.8020465 4288085770
-0.94598579 2.5784974 -1.7844748 4288085770
-2.170414 2.228363 -1.7999684 4288085770
-0.99966049 2.6089079 -1.7835522 4288085770
-2.2030678 2.2585912 -1.8007939 4288085770
-1.0463085 2.6412525 -1.7835743 4288085770
-1.0798931 2.6774585 -1.7864974 4288085770
-1.1366253 2.7049346 -1.7825682 4288085770
-1.1652088 2.7431183 -1.7844604 4288085770
-1.2119179 2.7735214 -1.7804545 4288085770
-1.2294559 2.8145952 -1.7842574 4288085770
-1.2671146 2.8489027 -1.7822007 4288085770
-1.2836742 2.8899989 -1.7839921 4288085770
-1.2992344 2.931087 -1.7857715 4288085770
-1.3027477 2.977073 -1.7884786 4288085770
-1.3223591 3.0162342 -1.7872777 4288085770
-1.3248634 3.0632124 -1.7899872 4288085770
-1.3384609 3.1043301 -1.7887431 4288085770
