# .PCD v0.7 - Point Cloud Data file format
VERSION 0.7
FIELDS x y z rgb
SIZE 4 4 4 4
TYPE F F F U
COUNT 1 1 1 1
WIDTH 1126
HEIGHT 1
VIEWPOINT 0 0 0 1 0 0 0
POINTS 1126
DATA ascii
9.2332325 3.1016734 -1.7834356 4288085770
6.2971287 2.3850141 -1.7708341 4288085770
9.7083654 3.1546144 -1.7843337 4288085770
6.5572414 2.3989837 -1.7686598 4288085770
10.189486 3.2025599 -1.7821962 4288085770
6.8683872 2.4219365 -1.7732651 4288085770
10.717609 3.2554994 -1.7808503 4288085770
7.1755114 2.4388986 -1.7728794 4288085770
11.290738 3.3114324 -1.780302 4288085770
7.473629 2.4508629 -1.7715272 4288085770
11.908877 3.3723569 -1.7815547 4288085770
7.8087559 2.4668198 -1.7720112 4288085770
12.553 3.430284 -1.779683 4288085770
8.1408691 2.4787827 -1.7695026 4288085770
13.232123 3.4872079 -1.7776488 4288085770
8.4839859 2.4877422 -1.7679387 4288085770
13.989257 3.5531201 -1.7772698 4288085770
8.8220797 2.4917092 -1.7623898 4288085770
14.773376 3.6140332 -1.7747582 4288085770
9.217207 2.5036604 -1.7625915 4288085770
15.676522 3.6889262 -1.7767214 4288085770
9.6343307 2.5136094 -1.7626884 4288085770
16.581636 3.75283 -1.7716583 4288085770
10.041443 2.5165646 -1.7598205 4288085770
17.563747 3.8187261 -1.7662439 4288085770
10.483558 2.520514 -1.7577931 4288085770
10.922659 2.5194688 -1.7527717 4288085770
11.411774 2.5194139 -1.7505215 4288085770
11.928896 2.518353 -1.7501413 4288085770
12.46701 2.5132926 -1.7476575 4288085770
13.026117 2.5052319 -1.7440729 4288085770
13.616232 2.4941666 -1.7413404 4288085770
14.208328 2.4771063 -1.7355896 4288085770
14.896448 2.4620275 -1.7343997 4288085770
15.566545 2.436959 -1.7282771 4288085770
16.259642 2.4068885 -1.7220408 4288085770
17.011738 2.3738101 -1.7165279 4288085770
15.975659 -5.1900525 -0.35606372 4293729569
15.990896 -5.3331065 -0.38475746 4293729569
9.4896288 -5.1992774 -0.26280218 4293729569
9.4329395 -5.2593503 -0.30595973 4293729569
9.4169416 -5.2784629 -0.95100832 4293729569
9.4172611 -5.3384328 -0.35189721 4293729569
9.3842669 -5.3485436 -0.99703872 4293729569
9.3635931 -5.4236283 -1.0440058 4293729569
9.3389292 -5.4977145 -1.0929925 4293729569
12.682539 -7.1617036 -1.4488684 4293729569
12.092731 -6.9846663 -1.4618673 4293729569
11.477887 -6.7856135 -1.467018 4293729569
10.960075 -6.6255851 -1.4796586 4293729569
10.436246 -6.4565482 -1.4883416 4293729569
9.9324036 -6.2865071 -1.493935 4293729569
9.4685774 -6.1314797 -1.5033197 4293729569
9.031745 -5.982451 -1.5115706 4293729569
8.6569328 -5.8594365 -1.5244937 4293729569
8.2761068 -5.7294183 -1.5344559 4293729569
7.9172783 -5.6044021 -1.5443089 4293729569
7.5914602 -5.4903913 -1.5559925 4293729569
11.67271 -7.7206073 -1.4185238 4293729569
7.2366161 -5.3573689 -1.5618409 4293729569
10.998905 -7.4285579 -1.4301021 4293729569
6.9057732 -5.2313466 -1.5675677 4293729569
10.420122 -7.1815295 -1.4471692 4293729569
6.5989304 -5.1133313 -1.5741711 4293729569
9.8393049 -6.9244876 -1.4562626 4293729569
6.2860718 -4.9883065 -1.5768139 4293729569
9.3364983 -6.7034583 -1.4689379 4293729569
6.0922918 -4.9263263 -1.5978049 4293729569
8.8646908 -6.4934335 -1.4814527 4293729569
5.8234444 -4.8173127 -1.6032192 4293729569
8.4528961 -6.3114209 -1.4966452 4293729569
5.5055466 -4.6762719 -1.5969124 4293729569
8.0660973 -6.1384101 -1.5117081 4293729569
5.2637024 -4.5752625 -1.6031895 4293729569
7.6702776 -5.9553895 -1.5218294 4293729569
5.0328541 -4.4772506 -1.6084112 4293729569
7.3334713 -5.8013816 -1.5356313 4293729569
4.7859783 -4.3652291 -1.6077302 4293729569
6.979641 -5.6323619 -1.5435368 4293729569
4.5651169 -4.2662139 -1.609908 4293729569
6.6578159 -5.4783502 -1.5532702 4293729569
4.374279 -4.1822114 -1.617923 4293729569
6.3539877 -5.330337 -1.5619112 4293729569
4.1924324 -4.1002078 -1.6238935 4293729569
6.0611544 -5.1843228 -1.5694988 4293729569
3.9825516 -3.9981866 -1.6220263 4293729569
5.8013268 -5.0563159 -1.5789044 4293729569
3.8527431 -3.9432044 -1.6367129 4293729569
5.5484953 -4.928309 -1.5872782 4293729569
3.8150253 -3.9432683 -1.6728846 4293729569
5.3116646 -4.8063025 -1.5955687 4293729569
3.7713032 -3.9373288 -1.7070941 4288085770
5.0467911 -4.6642785 -1.5950214 4293729569
3.7345734 -3.933392 -1.7422682 4288085770
4.8359432 -4.5522714 -1.6021761 4293729569
3.6938496 -3.9254527 -1.7764674 4288085770
4.6120853 -4.4302564 -1.6044073 4293729569
3.6000557 -3.8834805 -1.7949674 4282675967
4.4052277 -4.3152452 -1.6075488 4293729569
3.427166 -3.7884593 -1.7909194 4288085770
4.2283897 -4.2172427 -1.6145241 4293729569
3.2612743 -3.6964393 -1.7868344 4288085770
4.0675545 -4.126246 -1.6234146 4293729569
3.0983734 -3.6034169 -1.7807372 4288085770
3.8536491 -4.0012145 -1.6156056 4293729569
2.9444771 -3.5143962 -1.7755922 4288085770
3.7568645 -3.9452434 -1.6351433 4293729569
2.8155975 -3.4383855 -1.7743107 4288085770
3.7241383 -3.9293056 -1.6693202 4293729569
2.6947269 -3.3663783 -1.7749858 4288085770
3.7224445 -3.9313817 -1.7103245 4288085770
3.7277565 -3.934463 -1.7522953 4288085770
3.6970272 -3.9145226 -1.78547 4288085770
3.5611629 -3.8265157 -1.7872415 4288085770
3.4032707 -3.723496 -1.7821391 4288085770
3.2623825 -3.6294808 -1.7789437 4288085770
3.124485 -3.5354609 -1.7737348 4288085770
3.0146179 -3.4584584 -1.7753687 4288085770
2.8807106 -3.365437 -1.76914 4288085770
2.8068752 -3.3074489 -1.7775769 4288085770
2.7130032 -3.2374454 -1.778126 4288085770
2.6261349 -3.1694446 -1.7796397 4288085770
2.6676407 -1.0928326 -1.8051782 4288085770
2.743763 -1.0758476 -1.8058667 4288085770
2.8178806 -1.056859 -1.8045681 4288085770
2.9040031 -1.039876 -1.8052117 4288085770
3.0001431 -1.0248985 -1.8088069 4288085770
3.0912647 -1.0079141 -1.8084284 4288085770
3.1823788 -0.98992777 -1.8070517 4288085770
3.2694874 -0.97093725 -1.803695 4288085770
3.3716049 -0.95495176 -1.8022654 4288085770
3.4697151 -0.93596411 -1.7998594 4288085770
3.5888443 -0.92098618 -1.8013518 4288085770
3.7019558 -0.90499973 -1.7988729 4288085770
3.8120594 -0.88700962 -1.7944115 4288085770
2.6581192 -0.69188023 -1.7929615 4288085770
3.9491882 -0.8720336 -1.7958231 4288085770
2.7502327 -0.674891 -1.7905788 4288085770
4.0672855 -0.85404301 -1.790326 4288085770
2.8523579 -0.65990973 -1.7911478 4288085770
4.2134113 -0.84006596 -1.7906957 4288085770
2.9714966 -0.64693546 -1.7946366 4288085770
4.3775444 -0.82709408 -1.7929825 4288085770
3.0746078 -0.63094759 -1.7922032 4288085770
4.5656948 -0.81613255 -1.799158 4288085770
3.1867199 -0.61596203 -1.7897276 4288085770
4.7207966 -0.79914761 -1.7944931 4288085770
3.2968254 -0.5999732 -1.7862629 4288085770
4.9099293 -0.78617811 -1.7966681 4288085770
3.4289551 -0.5859971 -1.7876956 4288085770
5.0820312 -0.77019501 -1.7919254 4288085770
3.5560646 -0.5710125 -1.7851529 4288085770
5.2951641 -0.7572279 -1.7939929 4288085770
3.6771641 -0.55502129 -1.7796391 4288085770
5.4802561 -0.74124289 -1.787192 4288085770
3.8403015 -0.54205227 -1.7829311 4288085770
5.7173843 -0.72827673 -1.788152 4288085770
3.9984245 -0.52807617 -1.7832475 4288085770
5.9565029 -0.71530819 -1.7871032 4288085770
4.1545353 -0.5130949 -1.7805749 4288085770
6.189599 -0.69932938 -1.7810872 4288085770
4.3336601 -0.49912071 -1.7807975 4288085770
6.4547148 -0.68536139 -1.7789237 4288085770
4.5247879 -0.48615026 -1.7819643 4288085770
6.738822 -0.67239332 -1.7756735 4288085770
4.7389336 -0.47318983 -1.7870277 4288085770
7.0319271 -0.65842438 -1.771385 4288085770
4.9440479 -0.45921564 -1.7851341 4288085770
7.3880587 -0.64647341 -1.7728099 4288085770
5.1591682 -0.44424391 -1.7841972 4288085770
7.7561808 -0.63452005 -1.7721813 4288085770
5.3892879 -0.43027353 -1.7831916 4288085770
8.13729 -0.62156296 -1.7684965 4288085770
5.6424122 -0.41630793 -1.7830827 4288085770
8.5834246 -0.61162281 -1.7705144 4288085770
5.8825026 -0.40133095 -1.7780342 4288085770
9.0455313 -0.59967661 -1.7684643 4288085770
6.1626158 -0.38636494 -1.7758064 4288085770
9.5416441 -0.58673286 -1.765264 4288085770
6.4477253 -0.37139702 -1.7725565 4288085770
10.071746 -0.57478952 -1.75991 4288085770
6.758832 -0.35643005 -1.7681901 4288085770
10.654847 -0.56185102 -1.75432 4288085770
7.112958 -0.34247732 -1.7686292 4288085770
11.295945 -0.5499177 -1.7474686 4288085770
7.4880762 -0.32752275 -1.7669761 4288085770
12.006042 -0.5369916 -1.7403097 4288085770
7.9152069 -0.31357956 -1.7680879 4288085770
12.854167 -0.52709198 -1.7395266 4288085770
8.3523245 -0.29863167 -1.7661573 4288085770
13.806288 -0.5182023 -1.7372754 4288085770
8.8454494 -0.28469276 -1.7659739 4288085770
14.874408 -0.50932503 -1.7345046 4288085770
9.3875751 -0.26975965 -1.7655729 4288085770
16.011484 -0.49743843 -1.7224307 4288085770
9.9756947 -0.25382996 -1.7639679 4288085770
17.37258 -0.48658276 -1.7133511 4288085770
10.568784 -0.23588657 -1.7553449 4288085770
11.275904 -0.21996927 -1.753207 4288085770
12.052013 -0.20305586 -1.7487624 4288085770
12.93012 -0.18515301 -1.7438626 4288085770
14.096317 -0.17031717 -1.7576665 4288085770
15.176403 -0.1504283 -1.7478664 4288085770
16.412487 -0.12855434 -1.7363715 4288085770
17.440792 0.12375879 -1.7276279 4288085770
16.025959 0.12788963 -1.741593 4288085770
14.804127 0.13299751 -1.7557476 4288085770
13.686267 0.13810921 -1.7624638 4288085770
12.583343 0.14424801 -1.7551178 4288085770
11.720476 0.15133429 -1.7597649 4288085770
10.879578 0.15743303 -1.7573162 4288085770
10.194717 0.16549492 -1.763216 4288085770
16.355701 0.20384645 -1.7314581 4288085770
9.5768509 0.17355251 -1.7678336 4288085770
15.102869 0.21595907 -1.7447518 4288085770
8.9849682 0.18161535 -1.7683415 4288085770
14.001032 0.22705603 -1.7574086 4288085770
8.4490843 0.18967247 -1.7686137 4288085770
12.886111 0.2381959 -1.7501184 4288085770
7.9512014 0.19872522 -1.7687278 4288085770
11.98024 0.24928856 -1.7539502 4288085770
7.4863091 0.20677853 -1.7667007 4288085770
11.175372 0.26036787 -1.7583573 4288085770
7.0674248 0.2158227 -1.7664825 4288085770
10.441491 0.27144575 -1.7594657 4288085770
6.7065601 0.22585058 -1.7710223 4288085770
9.7906141 0.28251314 -1.7612255 4288085770
6.3546724 0.23488569 -1.7715217 4288085770
9.2147398 0.29356527 -1.7656693 4288085770
6.0237923 0.2439189 -1.771933 4288085770
8.6758614 0.30562067 -1.76696 4288085770
5.7299242 0.25394058 -1.7751908 4288085770
8.1739731 0.31567621 -1.766091 4288085770
5.4740639 0.26395464 -1.7802892 4288085770
7.7210951 0.32672167 -1.7670182 4288085770
5.1971798 0.27398396 -1.7794751 4288085770
7.2972059 0.33776855 -1.7658231 4288085770
4.9352875 0.28301287 -1.7775958 4288085770
6.9183311 0.34980392 -1.7674413 4288085770
4.6903915 0.29304314 -1.774647 4288085770
6.5824614 0.36083078 -1.7708768 4288085770
4.4575005 0.3030715 -1.7716476 4288085770
6.2655945 0.37185526 -1.7742324 4288085770
4.2616348 0.31308079 -1.775493 4288085770
5.9627171 0.383883 -1.7755309 4288085770
4.0657578 0.32309675 -1.7763383 4288085770
5.6768398 0.39490843 -1.7767559 4288085770
3.8838787 0.33411169 -1.7771268 4288085770
5.4209728 0.40692663 -1.7798573 4288085770
3.6969891 0.3441329 -1.7749338 4288085770
5.1730938 0.41894817 -1.7809247 4288085770
3.5391216 0.35514069 -1.7776216 4288085770
4.9201965 0.42898083 -1.7770085 4288085770
3.3832359 0.36515427 -1.7772986 4288085770
4.7003136 0.44100142 -1.7769581 4288085770
3.2323589 0.37616587 -1.7779565 4288085770
4.4744148 0.45203161 -1.7729305 4288085770
3.0934792 0.38717508 -1.7785641 4288085770
4.2805405 0.46304703 -1.7737687 4288085770
2.9485836 0.39719248 -1.7761942 4288085770
4.0976562 0.47506142 -1.7745627 4288085770
2.8377304 0.40918636 -1.7826866 4288085770
3.9297867 0.48707056 -1.777294 4288085770
2.7218628 0.42018938 -1.7851976 4288085770
3.7709122 0.4990797 -1.7789873 4288085770
3.6110325 0.51109457 -1.7786849 4288085770
3.4581432 0.52210999 -1.7773507 4288085770
3.3312817 0.53610992 -1.7819141 4288085770
3.1903973 0.54712391 -1.7805295 4288085770
3.0535107 0.5591383 -1.7791301 4288085770
2.9156113 0.57115889 -1.7747347 4288085770
2.8197594 0.58415127 -1.7811661 4288085770
2.7168884 0.59715271 -1.7836264 4288085770
2.612009 0.61015892 -1.784095 4288085770
2.6815529 2.9327054 -1.7792075 4288085770
2.797678 2.981688 -1.7788432 4288085770
2.9408226 3.0426579 -1.7833945 4288085770
3.0779572 3.098635 -1.7849599 4288085770
3.2190857 3.1546135 -1.7855092 4288085770
3.3752251 3.2165842 -1.7890104 4288085770
3.5263443 3.2745624 -1.7895232 4288085770
3.7195168 3.3515139 -1.7999063 4288085770
2.6164646 2.8516583 -1.7873317 4288085770
3.8816357 3.410495 -1.7983773 4288085770
2.7225647 2.8846536 -1.7819741 4288085770
4.0577641 3.4734702 -1.7988001 4288085770
2.8536968 2.9286311 -1.7835386 4288085770
4.2559109 3.5464344 -1.8031549 4288085770
2.98382 2.9696131 -1.7831007 4288085770
4.4550495 3.6164033 -1.8054996 4288085770
3.1219425 3.0125942 -1.7826347 4288085770
4.6761951 3.6953654 -1.8097743 4288085770
3.268074 3.0585704 -1.7841429 4288085770
4.8913288 3.7673342 -1.8110585 4288085770
3.4312096 3.1095419 -1.7885898 4288085770
5.1274624 3.847301 -1.8142731 4288085770
3.6063576 3.1645064 -1.7940009 4288085770
5.3826084 3.9312596 -1.8184227 4288085770
3.7614746 3.2074885 -1.7924678 4288085770
5.6317453 4.0122232 -1.8205907 4288085770
3.9346066 3.257462 -1.7938768 4288085770
5.8988791 4.0961876 -1.8216923 4288085770
4.1097393 3.3054354 -1.7952737 4288085770
6.1780176 4.1831489 -1.8237523 4288085770
4.3018723 3.3574052 -1.7976103 4288085770
6.4881687 4.2791004 -1.8287058 4288085770
4.4849911 3.4043841 -1.7959733 4288085770
6.7933025 4.37006 -1.8296698 4288085770
4.7031441 3.4633427 -1.8022199 4288085770
7.0884171 4.452033 -1.8256555 4288085770
4.913269 3.5163105 -1.8044859 4288085770
7.4785872 4.5719633 -1.8363363 4288085770
5.1344051 3.5712774 -1.8067127 4288085770
7.8727503 4.6889 -1.8439962 4288085770
5.356535 3.6242461 -1.8079313 4288085770
8.2448807 4.7898555 -1.8437115 4288085770
5.6156874 3.6882005 -1.8140236 4288085770
8.6540194 4.9018035 -1.8453009 4288085770
5.850811 3.7391722 -1.8131858 4288085770
9.1071787 5.0267382 -1.8507404 4288085770
6.1009388 3.7921405 -1.8132921 4288085770
9.5743275 5.1516762 -1.8541238 4288085770
6.3650694 3.8491051 -1.8143505 4288085770
10.054472 5.2746153 -1.8564512 4288085770
6.6411991 3.9050686 -1.8153583 4288085770
10.550604 5.3985591 -1.8557165 4288085770
6.930335 3.9640288 -1.8173205 4288085770
11.079737 5.5285001 -1.8548616 4288085770
7.2164574 4.0169954 -1.8162822 4288085770
11.709912 5.6894088 -1.8636649 4288085770
7.5405998 4.0809479 -1.8201141 4288085770
12.306049 5.8313408 -1.8635662 4288085770
7.8717394 4.1429019 -1.8229138 4288085770
12.982205 5.9932556 -1.867187 4288085770
8.1918573 4.1968675 -1.8207415 4288085770
13.68936 6.1591678 -1.8706923 4288085770
8.5590057 4.2618136 -1.8254029 4288085770
14.479528 6.3420653 -1.8768988 4288085770
8.8881149 4.3087831 -1.8211803 4288085770
15.331698 6.5389566 -1.8828856 4288085770
9.2662439 4.3677368 -1.8217852 4288085770
16.21986 6.7358484 -1.886728 4288085770
9.6693821 4.4316835 -1.8243003 4288085770
17.056976 6.9037681 -1.880716 4288085770
10.110533 4.5016198 -1.8296752 4288085770
10.531659 4.5595713 -1.829106 4288085770
10.960781 4.6145248 -1.8274986 4288085770
11.425914 4.6734676 -1.8287548 4288085770
11.894034 4.7284169 -1.826991 4288085770
12.404172 4.7883534 -1.8290687 4288085770
12.888284 4.8343058 -1.8252224 4288085770
13.465431 4.8992314 -1.8290415 4288085770
14.026554 4.9531689 -1.8279027 4288085770
14.629694 5.0100946 -1.8306012 4288085770
15.198803 5.0500407 -1.8254018 4288085770
15.78791 5.0869827 -1.8211159 4288085770
16.426029 5.1279159 -1.8186413 4288085770
17.074146 5.162848 -1.8161145 4288085770
17.106936 -4.2421899 -1.6925859 4288085770
16.516083 -4.2391505 -1.700961 4288085770
15.932228 -4.2311091 -1.708318 4288085770
15.35137 -4.2150674 -1.7146796 4288085770
14.809513 -4.2010303 -1.7218806 4288085770
14.223636 -4.1669745 -1.7222998 4288085770
13.690767 -4.1389327 -1.726494 4288085770
13.153892 -4.1018834 -1.727723 4288085770
12.589995 -4.0518212 -1.7240868 4288085770
12.111129 -4.0177846 -1.7280767 4288085770
11.668271 -3.9877553 -1.7339139 4288085770
15.940847 -5.2784247 -1.3821007 4293729569
11.198391 -3.94171 -1.7338928 4288085770
15.829215 -5.3625598 -1.4463741 4293729569
10.800537 -3.9116874 -1.7405498 4288085770
15.591545 -5.40766 -1.5012337 4293729569
10.373657 -3.8666492 -1.7413538 4288085770
14.953753 -5.3256488 -1.5239602 4293729569
9.9707842 -3.8236156 -1.7430577 4288085770
14.212917 -5.2005963 -1.5331899 4293729569
9.591918 -3.7835898 -1.7466593 4288085770
13.44205 -5.0565257 -1.5355793 4293729569
9.2250481 -3.7415614 -1.7492169 4288085770
12.727186 -4.9214597 -1.5377257 4293729569
8.8761816 -3.7005372 -1.7527001 4288085770
12.096334 -4.8044114 -1.5434977 4293729569
8.518302 -3.651504 -1.7522362 4288085770
11.51749 -4.6963725 -1.5510424 4293729569
8.1784248 -3.6034741 -1.7526982 4288085770
10.988644 -4.5973392 -1.5583684 4293729569
7.8535461 -3.5554452 -1.7531 4288085770
10.493799 -4.5043082 -1.5665455 4293729569
7.5606833 -3.515429 -1.7573568 4288085770
10.034964 -4.4172883 -1.5765657 4293729569
7.2568083 -3.467402 -1.7576745 4288085770
9.6111269 -4.3362699 -1.5864331 4293729569
6.9629259 -3.4183755 -1.7569541 4288085770
9.210289 -4.2582545 -1.5962023 4293729569
6.6910524 -3.3733544 -1.7581372 4288085770
8.8654718 -4.1962581 -1.6117138 4293729569
6.4171705 -3.3243279 -1.7573366 4288085770
8.6266956 -4.1702943 -1.6377251 4293729569
6.1622972 -3.2783084 -1.7584537 4288085770
8.4419546 -4.1623597 -1.6734828 4288085770
5.9124184 -3.2312875 -1.758553 4288085770
8.2672062 -4.1544213 -1.7072004 4288085770
5.7085705 -3.1992879 -1.7664365 4288085770
8.1134691 -4.1524901 -1.7438215 4288085770
5.5087128 -3.1652875 -1.7733079 4288085770
7.8836803 -4.1175256 -1.7678154 4282675967
5.2728214 -3.1142607 -1.7703594 4288085770
7.5968456 -4.0555263 -1.7790946 4282675967
5.0639534 -3.0722489 -1.7722838 4288085770
7.1939335 -3.9414649 -1.7689469 4288085770
4.8700829 -3.031239 -1.7751464 4288085770
6.8500423 -3.8464246 -1.7645234 4288085770
4.6662025 -2.9852209 -1.7740592 4288085770
6.5161457 -3.7523818 -1.7590574 4288085770
4.4733257 -2.9402065 -1.7749258 4288085770
6.2272711 -3.6733575 -1.75938 4288085770
4.2854462 -2.8951898 -1.7737726 4288085770
5.9463959 -3.5953336 -1.7596684 4288085770
4.1215858 -2.8591876 -1.7785044 4288085770
5.6995325 -3.526319 -1.762802 4288085770
3.9406986 -2.8121691 -1.7763271 4288085770
5.4686718 -3.4623094 -1.766861 4288085770
3.7698154 -2.7671533 -1.7751058 4288085770
5.2327995 -3.393292 -1.7679507 4288085770
3.6259499 -2.732151 -1.7787557 4288085770
5.0159302 -3.3292785 -1.7699537 4288085770
3.4600658 -2.6851335 -1.7765185 4288085770
4.7900486 -3.2592549 -1.7680051 4288085770
3.3352127 -2.6551394 -1.7830817 4288085770
4.5881786 -3.1962428 -1.769946 4288085770
3.192337 -2.6141315 -1.78374 4288085770
4.3782902 -3.1282196 -1.7669295 4288085770
3.0694771 -2.5811334 -1.7883015 4288085770
4.1964264 -3.069212 -1.7697821 4288085770
2.9165764 -2.5321107 -1.7830166 4288085770
4.0145493 -3.0081973 -1.7696389 4288085770
2.7977085 -2.4981108 -1.786564 4288085770
3.8366623 -2.9481807 -1.768477 4288085770
2.6908493 -2.4671173 -1.7920573 4288085770
3.6757927 -2.8931723 -1.7702372 4288085770
3.5389404 -2.847178 -1.7768825 4288085770
3.3940697 -2.7961717 -1.7785703 4288085770
3.2501945 -2.744163 -1.7792562 4288085770
3.1123199 -2.6931548 -1.779916 4288085770
2.9844494 -2.6441507 -1.7815318 4288085770
2.8655872 -2.5991502 -1.7851032 4288085770
2.7507172 -2.5541487 -1.7876586 4288085770
2.6368465 -2.5081453 -1.789212 4288085770
2.6655521 -0.2215724 -1.7786595 4288085770
2.767662 -0.20858002 -1.775303 4288085770
2.852747 -0.19457245 -1.7660141 4288085770
2.9928913 -0.18360519 -1.7725084 4288085770
3.1220169 -0.17162418 -1.7730472 4288085770
3.2571392 -0.15964413 -1.7735635 4288085770
3.3982563 -0.14766359 -1.7740568 4288085770
3.5223541 -0.13466597 -1.7676179 4288085770
3.6754723 -0.12268448 -1.7670664 4288085770
2.6915913 -0.055624485 -1.782975 4288085770
3.8365955 -0.11170626 -1.7674823 4288085770
2.8097019 -0.04463625 -1.7805542 4288085770
4.0137196 -0.099728584 -1.7678398 4288085770
2.9308147 -0.033647537 -1.7781219 4288085770
4.2058468 -0.088757992 -1.7701383 4288085770
3.0629349 -0.022663593 -1.7776482 4288085770
4.3959675 -0.07777977 -1.7694446 4288085770
3.1780224 -0.01166153 -1.7692394 4288085770
4.6151028 -0.065813541 -1.772643 4288085770
3.3451653 -0.0016946793 -1.7746305 4288085770
4.8292198 -0.054837704 -1.7718587 4288085770
3.5052929 0.0082821846 -1.7760485 4288085770
5.0513363 -0.042860508 -1.7700468 4288085770
3.6614037 0.019267559 -1.7734843 4288085770
5.3174725 -0.031900406 -1.7740655 4288085770
3.8385258 0.029244423 -1.7738385 4288085770
5.5946035 -0.020937443 -1.7760427 4288085770
4.0256481 0.039220333 -1.7741547 4288085770
5.8727217 -0.0099668503 -1.7750169 4288085770
4.2147636 0.049201012 -1.7724639 4288085770
6.1778421 0.0019989014 -1.7748911 4288085770
4.4328976 0.059166908 -1.7756629 4288085770
6.461935 0.013984203 -1.7668457 4288085770
4.6550236 0.068137169 -1.776845 4288085770
6.7990484 0.024951458 -1.7645972 4288085770
4.8971519 0.07810688 -1.7779537 4288085770
7.1741657 0.035912514 -1.7632049 4288085770
5.1492748 0.088074684 -1.779025 4288085770
7.5952969 0.046863556 -1.7646385 4288085770
5.4153996 0.097043991 -1.7790413 4288085770
8.0374203 0.057813644 -1.7649932 4288085770
5.7015209 0.10601139 -1.7789822 4288085770
8.5225401 0.068763256 -1.7641854 4288085770
5.9746227 0.11599064 -1.7739754 4288085770
9.0796757 0.079697609 -1.7671051 4288085770
6.2947416 0.12495756 -1.7727882 4288085770
9.6397896 0.091644287 -1.7640169 4288085770
6.6438589 0.13392067 -1.7714916 4288085770
10.285908 0.10257864 -1.7626011 4288085770
7.0009727 0.14188623 -1.7691633 4288085770
10.94601 0.11352348 -1.7561337 4288085770
7.4010897 0.15084553 -1.7676746 4288085770
11.781151 0.12442875 -1.7600033 4288085770
7.8572254 0.15778828 -1.7709699 4288085770
12.627256 0.13635254 -1.7548355 4288085770
8.3303413 0.16574097 -1.7692039 4288085770
13.702408 0.14722824 -1.7607986 4288085770
8.8744736 0.1736784 -1.7711697 4288085770
14.80851 0.1571312 -1.7536443 4288085770
9.4596052 0.18061209 -1.7729789 4288085770
16.014595 0.16903353 -1.7421179 4288085770
10.073712 0.18755674 -1.7686794 4288085770
17.404671 0.17992449 -1.7278945 4288085770
10.752824 0.19449329 -1.765135 4288085770
11.517934 0.20042229 -1.761264 4288085770
12.428066 0.20632219 -1.7638448 4288085770
13.426191 0.21122122 -1.763093 4288085770
14.60633 0.21609449 -1.7656542 4288085770
15.764403 0.21900892 -1.7512966 4288085770
17.179497 0.22088623 -1.7419672 4288085770
15.955748 -5.2165513 -0.34655407 4293729569
16.292633 0.47427607 -1.7375579 4288085770
15.093779 0.49832821 -1.7475985 4288085770
14.037926 0.52037144 -1.7571594 4288085770
13.008031 0.53844118 -1.7546226 4288085770
12.15916 0.55748415 -1.7584878 4288085770
11.41929 0.57651901 -1.7629914 4288085770
10.700405 0.59356308 -1.7624193 4288085770
17.336357 0.86124158 -1.7141387 4288085770
10.097541 0.61158419 -1.7684652 4288085770
16.06551 0.87329507 -1.7253824 4288085770
9.5336637 0.628613 -1.7703787 4288085770
14.850628 0.88136578 -1.7274294 4288085770
9.0167913 0.64463663 -1.7731336 4288085770
13.834753 0.89142036 -1.7308218 4288085770
8.5439167 0.66065693 -1.7757424 4288085770
12.939887 0.90346098 -1.7368178 4288085770
8.0900278 0.67568779 -1.7732854 4288085770
12.158025 0.91549277 -1.7434393 4288085770
7.694149 0.69170427 -1.7756381 4288085770
11.441153 0.92752504 -1.7478449 4288085770
7.3222752 0.70771885 -1.7779113 4288085770
10.78128 0.93855643 -1.7510589 4288085770
6.9854002 0.72273111 -1.7800659 4288085770
10.197409 0.95058084 -1.7550236 4288085770
6.6515131 0.73675346 -1.7782079 4288085770
9.6865482 0.96459436 -1.7617515 4288085770
6.3576374 0.75276327 -1.7802218 4288085770
9.185667 0.97662115 -1.7624409 4288085770
6.0827627 0.7677722 -1.7821705 4288085770
8.7277889 0.98864317 -1.7639874 4288085770
5.805871 0.78179312 -1.7791227 4288085770
8.3049126 1.000663 -1.7654182 4288085770
5.5599918 0.79580259 -1.7799724 4288085770
7.914031 1.0126832 -1.7657424 4288085770
5.3411198 0.81181622 -1.7827349 4288085770
7.5631533 1.0257065 -1.7679338 4288085770
5.1102276 0.82483387 -1.7795316 4288085770
7.2332745 1.0387211 -1.7690579 4288085770
4.8963375 0.83784866 -1.7772717 4288085770
6.9324036 1.0527289 -1.7720884 4288085770
4.7204723 0.85384464 -1.781894 4288085770
6.6465244 1.0657401 -1.7730668 4288085770
4.5385914 0.86885262 -1.781533 4288085770
6.3706436 1.0787537 -1.7730117 4288085770
4.3667126 0.88385773 -1.7821389 4288085770
6.1387796 1.0947533 -1.7778188 4288085770
4.2218456 0.8998518 -1.7866583 4288085770
5.8999033 1.1087596 -1.7796434 4288085770
4.053957 0.91386366 -1.7842482 4288085770
5.6650152 1.1207752 -1.7774502 4288085770
3.9150829 0.92986226 -1.7867471 4288085770
5.4711428 1.1367745 -1.7811309 4288085770
3.7762032 0.94486523 -1.7872435 4288085770
5.2462425 1.1477964 -1.7759017 4288085770
3.6453266 0.95986533 -1.7887136 4288085770
5.0383549 1.1598132 -1.7726185 4288085770
3.5164433 0.97486997 -1.7881769 4288085770
4.8854904 1.1778052 -1.7781687 4288085770
3.3865566 0.98887992 -1.7856407 4288085770
4.7036018 1.1908178 -1.775802 4288085770
3.2886925 1.0068686 -1.7910089 4288085770
4.5437183 1.2048242 -1.7753652 4288085770
3.167799 1.0198801 -1.7874407 4288085770
4.3908367 1.2198305 -1.7749076 4288085770
3.0549145 1.0348864 -1.7858505 4288085770
4.2599678 1.2368259 -1.7783823 4288085770
2.952034 1.0498896 -1.7852275 4288085770
4.1350937 1.2538238 -1.7808371 4288085770
2.8691635 1.0678823 -1.788546 4288085770
4.0132236 1.2708211 -1.7832818 4288085770
2.7762852 1.0828829 -1.7888898 4288085770
3.8853378 1.2858281 -1.7817413 4288085770
2.6934071 1.0998805 -1.7902055 4288085770
3.7704639 1.3028276 -1.7831627 4288085770
3.6655865 1.3198261 -1.7845514 4288085770
3.5567036 1.3358297 -1.7839504 4288085770
3.4438152 1.3508382 -1.7813599 4288085770
3.3579426 1.3698335 -1.7836907 4288085770
3.2500477 1.3838465 -1.7790811 4288085770
3.1731758 1.4038391 -1.7823844 4288085770
3.06427 1.415859 -1.7747731 4288085770
2.9994049 1.4368482 -1.7790393 4288085770
2.9255257 1.4558477 -1.7793299 4288085770
2.8556519 1.4748442 -1.7806075 4288085770
2.7897758 1.4948406 -1.7818742 4288085770
2.7238903 1.5138416 -1.7811384 4288085770
2.6730251 1.5358303 -1.7853606 4288085770
2.6562195 3.3425789 -1.7919294 4288085770
2.7833996 3.4405274 -1.8087581 4288085770
2.843502 3.4965334 -1.8027031 4288085770
2.9456444 3.5775092 -1.8085724 4288085770
3.0567875 3.6644845 -1.8144275 4288085770
3.14991 3.7374749 -1.8143072 4288085770
3.2630463 3.8234549 -1.8181537 4288085770
3.3671608 3.9024496 -1.8160129 4288085770
3.4953022 3.9944263 -1.8208262 4288085770
3.6204281 4.0844126 -1.8216448 4288085770
3.7585621 4.1803942 -1.8244361 4288085770
3.9127026 4.2863693 -1.8292001 4288085770
2.6616631 3.5834782 -1.8115399 4288085770
4.0598297 4.385355 -1.8299702 4288085770
2.8018265 3.6764379 -1.8233171 4288085770
4.2529869 4.5133166 -1.8396622 4288085770
2.908947 3.7464299 -1.8221455 4288085770
4.3970947 4.607316 -1.8344309 4288085770
3.0150585 3.8144269 -1.8189726 4288085770
4.6072483 4.7412796 -1.8430839 4288085770
3.1562023 3.9034009 -1.8247378 4288085770
4.8203964 4.8762474 -1.8497297 4288085770
3.2753143 3.9753971 -1.8215333 4288085770
5.0385418 5.0122175 -1.8553627 4288085770
3.4204464 4.0633779 -1.8242842 4288085770
5.267683 5.1521897 -1.8599702 4288085770
3.5755825 4.1553555 -1.8280126 4288085770
5.5088224 5.2981634 -1.8635541 4288085770
3.7427197 4.2533331 -1.8317174 4288085770
5.7729673 5.4551311 -1.8690914 4288085770
3.912859 4.3513103 -1.8354129 4288085770
6.0631189 5.6260953 -1.8755795 4288085770
4.0949955 4.4542871 -1.8390825 4288085770
6.3542614 5.7950644 -1.8800601 4288085770
4.2851315 4.5592632 -1.8427312 4288085770
6.6764107 5.9790277 -1.8864778 4288085770
4.4622459 4.6542544 -1.8403986 4288085770
7.0345707 6.182981 -1.8958291 4288085770
4.6994038 4.7842145 -1.8499578 4288085770
7.4477491 6.4159203 -1.9100747 4288085770
4.9215431 4.9011893 -1.8535345 4288085770
7.8429003 6.6348791 -1.9163451 4288085770
5.1626892 5.0271559 -1.8600725 4288085770
8.278059 6.8728318 -1.924534 4288085770
5.4168301 5.1591272 -1.8645838 4288085770
8.7132034 7.1067934 -1.9287144 4288085770
5.6749687 5.2891002 -1.8680781 4288085770
9.1923542 7.361752 -1.9338053 4288085770
5.9521122 5.4270678 -1.8735313 4288085770
9.7175179 7.639698 -1.9428056 4288085770
6.2482538 5.5730367 -1.8779438 4288085770
10.326697 7.9606276 -1.9566416 4288085770
6.5674019 5.7279997 -1.8843049 4288085770
6.8925467 5.8829651 -1.8896476 4288085770
7.2366858 6.0439339 -1.8929449 4288085770
7.6398516 6.2348809 -1.9041264 4288085770
8.0670156 6.4358277 -1.9152563 4288085770
8.4851646 6.6237888 -1.9203848 4288085770
8.9093084 6.809752 -1.9244903 4288085770
9.3624468 7.0067158 -1.9275306 4288085770
9.8465948 7.214674 -1.9324995 4288085770
10.380745 7.4446268 -1.938363 4288085770
10.946902 7.6825743 -1.9461449 4288085770
11.565061 7.9425192 -1.9538153 4288085770
17.148317 -1.9356494 -1.7461016 4288085770
16.379444 -1.9706278 -1.7504075 4288085770
15.609556 -1.9925938 -1.7497463 4288085770
14.853664 -2.0055532 -1.7460625 4288085770
14.145773 -2.0185194 -1.7442293 4288085770
13.527897 -2.034502 -1.7471101 4288085770
12.919013 -2.0434766 -1.7469788 4288085770
12.349133 -2.0504565 -1.7477312 4288085770
11.845263 -2.0594478 -1.7522742 4288085770
11.380403 -2.069448 -1.7596936 4288085770
10.859508 -2.0634179 -1.7553239 4288085770
17.399403 -3.1826015 -1.7044767 4288085770
10.502668 -2.0794392 -1.7693944 4288085770
16.406532 -3.1225691 -1.7086952 4288085770
10.0928 -2.0804348 -1.773664 4288085770
15.549673 -3.0745525 -1.716464 4288085770
9.6479101 -2.0704131 -1.7710674 4288085770
14.720808 -3.022532 -1.7221551 4288085770
9.2610369 -2.0664062 -1.7742767 4288085770
13.952941 -2.9715109 -1.7266545 4288085770
8.8611507 -2.055388 -1.7725426 4288085770
13.249077 -2.9244976 -1.7329463 4288085770
8.5152817 -2.0493865 -1.7766296 4288085770
12.571205 -2.8734779 -1.7361665 4288085770
8.176403 -2.0413775 -1.7776992 4288085770
11.932331 -2.8224578 -1.7382655 4288085770
7.8575306 -2.0323744 -1.7807091 4288085770
11.350459 -2.7764421 -1.7411764 4288085770
7.5486565 -2.0223699 -1.7826904 4288085770
10.822595 -2.735436 -1.7469081 4288085770
7.2397757 -2.0083604 -1.7826807 4288085770
10.336733 -2.6964345 -1.7535051 4288085770
6.9548969 -1.9953537 -1.7835945 4288085770
9.8798704 -2.6584311 -1.75901 4288085770
6.702033 -1.986361 -1.7893995 4288085770
9.4239979 -2.6154203 -1.7615228 4288085770
6.4371548 -1.9723549 -1.7902534 4288085770
9.0111313 -2.5774164 -1.765891 4288085770
6.1882772 -1.9573498 -1.79106 4288085770
8.6072569 -2.5374074 -1.7682358 4288085770
5.9444008 -1.942348 -1.7928509 4288085770
8.2223825 -2.4964004 -1.7705239 4288085770
5.7225323 -1.9293513 -1.796569 4288085770
7.8665123 -2.4593959 -1.7737129 4288085770
5.4986506 -1.9123478 -1.7973025 4288085770
7.5286398 -2.4213929 -1.7768481 4288085770
5.2707615 -1.8923364 -1.7950553 4288085770
7.2127686 -2.3873925 -1.7809061 4288085770
5.054882 -1.8733306 -1.7947683 4288085770
6.9149027 -2.3533931 -1.7849082 4288085770
4.8289852 -1.8493128 -1.7895241 4288085770
6.6150255 -2.3153863 -1.7859255 4288085770
4.6431084 -1.8323126 -1.7911396 4288085770
6.3081331 -2.2713675 -1.7819786 4288085770
4.4552269 -1.8133078 -1.790766 4288085770
6.0312529 -2.2333598 -1.7819247 4288085770
4.2793484 -1.7943068 -1.7913554 4288085770
5.799387 -2.2053657 -1.7867084 4288085770
4.1164799 -1.7783122 -1.7948972 4288085770
5.5405016 -2.1653538 -1.7846034 4288085770
3.9415913 -1.7563038 -1.7924901 4288085770
5.3016205 -2.1303468 -1.7844247 4288085770
3.7877197 -1.7393069 -1.7950065 4288085770
5.0717373 -2.0943384 -1.7832205 4288085770
3.6418457 -1.722311 -1.797498 4288085770
4.8518543 -2.0583324 -1.7829852 4288085770
3.4939671 -1.7033105 -1.7980002 4288085770
4.6519775 -2.0263295 -1.7836788 4288085770
3.3470879 -1.6823072 -1.7975041 4288085770
4.4631023 -1.9963298 -1.7853336 4288085770
3.2232208 -1.6673174 -1.8019229 4288085770
4.2842312 -1.9663329 -1.7879577 4288085770
3.0933437 -1.6483197 -1.8033693 4288085770
4.1163616 -1.9383392 -1.7915429 4288085770
2.956459 -1.6263151 -1.8018445 4288085770
3.9434814 -1.9073348 -1.7911503 4288085770
2.8495979 -1.61233 -1.8082081 4288085770
3.7776031 -1.8763342 -1.7917361 4288085770
2.7357292 -1.5943384 -1.811603 4288085770
3.6167221 -1.8453302 -1.7913064 4288085770
2.6238556 -1.5763435 -1.8139912 4288085770
3.4698467 -1.8163319 -1.7928289 4288085770
3.3249683 -1.7873325 -1.7933451 4288085770
3.1870937 -1.7583337 -1.7948396 4288085770
3.0642242 -1.7343416 -1.7982759 4288085770
2.9413509 -1.7073469 -1.8007196 4288085770
2.8124676 -1.6773419 -1.7991885 4288085770
2.7055969 -1.6543503 -1.8025731 4288085770
2.6393452 0.37417603 -1.7760519 4288085770
2.7654724 0.38716316 -1.7777131 4288085770
2.8875942 0.39915228 -1.7783841 4288085770
2.9956913 0.41116238 -1.7710966 4288085770
3.1428223 0.42314291 -1.774694 4288085770
3.2869415 0.43613291 -1.7753025 4288085770
3.4350605 0.44812441 -1.7748973 4288085770
3.5941849 0.4611125 -1.7754623 4288085770
2.6722565 0.44312668 -1.7811472 4288085770
3.7663097 0.47309923 -1.7769865 4288085770
2.7973804 0.45211649 -1.7818024 4288085770
3.941433 0.48508692 -1.7775023 4288085770
2.9294987 0.46210814 -1.7814398 4288085770
4.1175461 0.49808264 -1.7750176 4288085770
3.0656147 0.47110271 -1.7800629 4288085770
4.3476925 0.51204777 -1.7843761 4288085770
3.2127399 0.48008966 -1.781654 4288085770
4.5257931 0.52305508 -1.7768813 4288085770
3.3718643 0.49007511 -1.7832119 4288085770
4.7639236 0.53603983 -1.7812115 4288085770
3.5139694 0.49808407 -1.7788125 4288085770
5.0000458 0.54902649 -1.7815506 4288085770
3.6830902 0.50707531 -1.778339 4288085770
5.2401657 0.56201649 -1.7808787 4288085770
3.9012432 0.51803589 -1.789726 4288085770
5.484272 0.57401514 -1.7761928 4288085770
4.0873642 0.5260272 -1.7892005 4288085770
5.7733984 0.58699894 -1.7773769 4288085770
4.2524586 0.53303766 -1.7807349 4288085770
6.0715151 0.59898758 -1.7765324 4288085770
4.45858 0.54102564 -1.7811512 4288085770
6.3836346 0.61197472 -1.7756495 4288085770
4.6877079 0.54900837 -1.7834997 4288085770
6.7457666 0.62595177 -1.7786222 4288085770
4.9178276 0.55699587 -1.7838454 4288085770
7.0968752 0.63794422 -1.7756227 4288085770
5.1569405 0.56399059 -1.7811629 4288085770
7.5009966 0.65192413 -1.7764727 4288085770
5.4040527 0.56998444 -1.7784547 4288085770
7.9271164 0.66490984 -1.775256 4288085770
5.6791744 0.57697105 -1.7786669 4288085770
8.3712263 0.67690182 -1.7709848 4288085770
5.9772968 0.58395672 -1.7788115 4288085770
8.8683405 0.69088793 -1.7685628 4288085770
6.3004198 0.58993959 -1.7798808 4288085770
9.4374704 0.70486021 -1.7709297 4288085770
6.6275377 0.59492779 -1.7789361 4288085770
10.045593 0.71983624 -1.7711852 4288085770
7.0036659 0.60090685 -1.7808505 4288085770
10.632682 0.72984219 -1.7594911 4288085770
7.377779 0.60489798 -1.7777662 4288085770
11.34079 0.74282837 -1.7544495 4288085770
7.7918959 0.60888386 -1.7765652 4288085770
12.138902 0.75780916 -1.750149 4288085770
8.2470169 0.611866 -1.7762417 4288085770
13.007007 0.77079391 -1.7436395 4288085770
8.7431412 0.61484528 -1.7767982 4288085770
13.993114 0.78477383 -1.7377865 4288085770
9.2692547 0.61683083 -1.7742651 4288085770
15.137228 0.79974461 -1.7334735 4288085770
9.8433733 0.61781263 -1.7725892 4288085770
16.38632 0.81372738 -1.7228512 4288085770
10.468485 0.6167984 -1.7687596 4288085770
11.156598 0.61477995 -1.7657435 4288085770
11.927709 0.6107583 -1.7634795 4288085770
12.74881 0.60574675 -1.7560682 4288085770
13.685921 0.59772539 -1.7513102 4288085770
14.769035 0.588696 -1.7481232 4288085770
15.929138 0.57567406 -1.7407022 4288085770
17.274237 0.5576539 -1.7307285 4288085770
14.133055 -7.7741761 -1.4248124 4293729569
9.3761654 -5.4251981 -1.0608333 4293729569
9.4275064 -5.3367095 -0.44590536 4293729569
9.358366 -5.3282704 -1.0891285 4293729569
9.4297142 -5.2487855 -0.47612283 4293729569
9.44559 -5.2793651 -1.1260135 4293729569
9.5229244 -5.1998687 -0.50799119 4293729569
12.839667 -6.7012696 -1.4690886 4293729569
12.608824 -6.4842982 -1.4812733 4293729569
12.371968 -6.2663159 -1.4894767 4293729569
12.218129 -6.08635 -1.5033556 4293729569
12.012268 -5.8893628 -1.5094209 4293729569
11.836406 -5.7053771 -1.5153704 4293729569
11.704552 -5.5434003 -1.5241432 4293729569
11.519679 -5.3604035 -1.5261149 4293729569
11.412819 -5.2114205 -1.5327861 4293729569
11.318956 -5.0704389 -1.5394011 4293729569
11.215087 -4.9254489 -1.5430539 4293729569
11.131224 -4.7904639 -1.5486264 4293729569
11.080363 -4.6674819 -1.5550778 4293729569
11.0355 -4.5484958 -1.5605028 4293729569
11.049649 -4.4485259 -1.5707171 4293729569
11.036788 -4.3385434 -1.577031 4293729569
11.248995 -4.304625 -1.6075344 4293729569
11.62025 -4.316751 -1.6554843 4288085770
12.042515 -4.3388877 -1.707269 4288085770
15.83017 -5.358726 -1.1992712 4293729569
12.294722 -4.3029685 -1.7376674 4288085770
15.937318 -5.2527547 -1.2092459 4293729569
12.31085 -4.1949801 -1.7408969 4288085770
12.244946 -4.0639586 -1.7314099 4288085770
12.251064 -3.9539609 -1.7306718 4288085770
12.258175 -3.8439555 -1.726931 4288085770
12.378322 -3.7639823 -1.7358038 4288085770
12.458438 -3.6729903 -1.7378135 4288085770
12.508551 -3.572988 -1.7349292 4288085770
12.569667 -3.475987 -1.7330074 4288085770
12.717802 -3.398005 -1.7377982 4288085770
12.797914 -3.3040013 -1.7348167 4288085770
12.965046 -3.227016 -1.7385529 4288085770
13.061152 -3.1320086 -1.7335299 4288085770
13.26929 -3.061029 -1.7391386 4288085770
13.418403 -2.9750261 -1.7359474 4288085770
13.63653 -2.9010367 -1.7375363 4288085770
13.831648 -2.8200397 -1.7362063 4288085770
14.042761 -2.7390404 -1.7338324 4288085770
14.312887 -2.6650515 -1.7352786 4288085770
14.581007 -2.5890574 -1.7347357 4288085770
14.900137 -2.5170708 -1.7370425 4288085770
15.221255 -2.4410768 -1.7363542 4288085770
15.520361 -2.3590732 -1.7317413 4288085770
15.992504 -2.2961016 -1.7396058 4288085770
16.393621 -2.2181058 -1.7377032 4288085770
16.892754 -2.1471262 -1.7415141 4288085770
17.36787 -2.0661302 -1.7394162 4288085770
16.530724 0.89720941 -1.7221721 4288085770
15.510855 0.94017887 -1.7288646 4288085770
14.576982 0.98015118 -1.7343311 4288085770
13.716103 1.0151348 -1.7355998 4288085770
12.960223 1.0491171 -1.7375998 4288085770
12.296354 1.0830922 -1.743367 4288085770
11.721487 1.1170659 -1.7499086 4288085770
11.134605 1.1470537 -1.7504698 4288085770
10.641737 1.1780314 -1.7557957 4288085770
17.410675 1.7582474 -1.7031671 4288085770
10.157851 1.2060213 -1.7560909 4288085770
16.355793 1.7712245 -1.7058675 4288085770
9.7429819 1.2360001 -1.7612165 4288085770
15.46093 1.788192 -1.7131739 4288085770
9.3611088 1.264982 -1.7652562 4288085770
14.663059 1.8061666 -1.7182373 4288085770
8.9602222 1.2899778 -1.7633332 4288085770
13.904181 1.8221464 -1.7211964 4288085770
8.6213484 1.3169603 -1.7672585 4288085770
13.261314 1.8431184 -1.7278749 4288085770
8.2924662 1.3429525 -1.7671559 4288085770
12.64844 1.8610983 -1.7314698 4288085770
7.9835835 1.367945 -1.7669998 4288085770
12.097567 1.8800797 -1.7349102 4288085770
7.7047062 1.3939331 -1.7687703 4288085770
11.605694 1.9010596 -1.7392067 4288085770
7.4498301 1.4199197 -1.7714803 4288085770
11.13482 1.9210417 -1.742447 4288085770
7.2149553 1.4469066 -1.7741419 4288085770
10.725948 1.9440203 -1.7475383 4288085770
6.9600677 1.4689047 -1.7718413 4288085770
10.31507 1.9640086 -1.7486267 4288085770
6.7421875 1.4938962 -1.7724546 4288085770
9.9471951 1.984993 -1.751609 4288085770
6.5333071 1.518888 -1.7730452 4288085770
9.6113195 2.0079777 -1.7545152 4288085770
6.3404264 1.5428805 -1.7735927 4288085770
9.2874403 2.0289671 -1.7553861 4288085770
6.16255 1.5688682 -1.7761072 4288085770
8.984561 2.0509553 -1.7572062 4288085770
5.9696608 1.5908694 -1.7726493 4288085770
8.6966829 2.0729456 -1.7579881 4288085770
5.8307896 1.6198509 -1.7780727 4288085770
8.4328012 2.0959339 -1.7597119 4288085770
5.6769114 1.6458411 -1.779526 4288085770
8.1729126 2.1169319 -1.7574205 4288085770
5.5310326 1.6708314 -1.780957 4288085770
7.9480391 2.1419187 -1.7600508 4288085770
5.4191666 1.7018137 -1.786317 4288085770
7.7271576 2.1649106 -1.7606658 4288085770
5.2582703 1.721818 -1.7817729 4288085770
7.5122709 2.1889067 -1.759268 4288085770
5.1303883 1.7468135 -1.7811579 4288085770
7.3273964 2.2148941 -1.7617996 4288085770
5.0305157 1.7767978 -1.7854848 4288085770
7.1435165 2.2408864 -1.7623284 4288085770
4.8946247 1.7988026 -1.7808821 4288085770
6.976635 2.2668786 -1.7628144 4288085770
4.8277664 1.8337736 -1.7911384 4288085770
6.8097525 2.2918735 -1.7622979 4288085770
4.6788559 1.8487945 -1.7795511 4288085770
6.6458664 2.3168714 -1.7607734 4288085770
4.5909805 1.8787837 -1.7818474 4288085770
6.5009861 2.3448637 -1.7612084 4288085770
4.5071068 1.9087729 -1.7841333 4288085770
6.3751097 2.3758526 -1.7636031 4288085770
4.3972111 1.9297783 -1.7794626 4288085770
6.2572298 2.4068434 -1.7649776 4288085770
4.2993202 1.9547815 -1.7757711 4288085770
6.1393509 2.4378347 -1.7663518 4288085770
4.2354488 1.9867687 -1.7790117 4288085770
6.0354757 2.4708235 -1.7686958 4288085770
4.177578 2.0197515 -1.7842396 4288085770
5.9275923 2.5008197 -1.7680427 4288085770
4.0906792 2.0437574 -1.7795179 4288085770
5.8317089 2.534811 -1.7693684 4288085770
3.9947815 2.0647697 -1.7718114 4288085770
5.75984 2.5737932 -1.7746465 4288085770
3.9499092 2.1007528 -1.7770138 4288085770
5.6359396 2.5968058 -1.7670156 4288085770
3.8890305 2.1307473 -1.7772416 4288085770
5.5620632 2.634795 -1.7692962 4288085770
3.8231411 2.1587489 -1.7744766 4288085770
5.4761791 2.6677914 -1.7685943 4288085770
3.7582512 2.1867523 -1.7707093 4288085770
5.4183006 2.7077813 -1.7708396 4288085770
3.7003651 2.2157521 -1.7689267 4288085770
5.3654308 2.7507665 -1.7750795 4288085770
3.6694889 2.2537401 -1.7720988 4288085770
5.3095512 2.7897589 -1.7763172 4288085770
3.6256084 2.2867346 -1.7722908 4288085770
5.2436657 2.8267577 -1.7745748 4288085770
3.5857277 2.3207293 -1.7724755 4288085770
5.1857815 2.8657551 -1.7738172 4288085770
3.5458431 2.3547263 -1.7716597 4288085770
5.1358986 2.9067497 -1.7740444 4288085770
3.501955 2.3867283 -1.7688495 4288085770
5.0970211 2.9507422 -1.7752516 4288085770
3.4720745 2.423723 -1.7690161 4288085770
5.0911579 3.007719 -1.783408 4288085770
3.4481945 2.4617162 -1.7701702 4288085770
5.0312614 3.0427275 -1.7776453 4288085770
3.4313183 2.5027041 -1.7733142 4288085770
4.9983788 3.0877249 -1.77684 4288085770
3.3964272 2.5357087 -1.7694837 4288085770
4.9925079 3.1437087 -1.7819937 4288085770
3.3775444 2.5757041 -1.7696298 4288085770
4.9616184 3.1897092 -1.7801851 4288085770
3.3736706 2.6216903 -1.7737533 4288085770
4.9497433 3.2437 -1.782349 4288085770
3.3577881 2.662688 -1.7728946 4288085770
4.9538689 3.3036861 -1.7864876 4288085770
3.339901 2.7026877 -1.7710384 4288085770
4.9439869 3.3586819 -1.7866488 4288085770
3.3390255 2.7496786 -1.773157 4288085770
4.9441109 3.4166729 -1.7887924 4288085770
3.3271389 2.7916789 -1.7712907 4288085770
4.961237 3.4826593 -1.7929133 4288085770
3.3262596 2.8396723 -1.7724117 4288085770
4.9673576 3.5446534 -1.7940515 4288085770
3.3273754 2.8876681 -1.7725276 4288085770
4.9894829 3.6136427 -1.7971672 4288085770
3.3314953 2.9366636 -1.7726384 4288085770
5.01861 3.6856298 -1.8012729 4288085770
3.3586273 2.9966459 -1.7787189 4288085770
5.0437317 3.7566216 -1.803386 4288085770
3.371748 3.0496397 -1.7798171 4288085770
5.0688515 3.8266153 -1.8044965 4288085770
3.3898716 3.1066308 -1.7819127 4288085770
5.1169815 3.9086008 -1.8095794 4288085770
3.4139919 3.1656227 -1.7839983 4288085770
5.1440964 3.9825997 -1.8086948 4288085770
3.4451218 3.2276096 -1.7880739 4288085770
5.1872196 4.0615921 -1.8107827 4288085770
3.4742413 3.2896037 -1.7891542 4288085770
5.2423401 4.1485844 -1.8128604 4288085770
3.5093651 3.354593 -1.7922271 4288085770
5.3164711 4.2455678 -1.8189154 4288085770
3.5785065 3.4385648 -1.8032618 4288085770
5.3835926 4.3395586 -1.8219804 4288085770
3.5986156 3.4955704 -1.7993526 4288085770
5.4517136 4.4355512 -1.8240476 4288085770
3.6557426 3.5745556 -1.8044052 4288085770
5.5098267 4.5265536 -1.8221278 4288085770
3.6988621 3.6445525 -1.8044705 4288085770
5.6289654 4.6505289 -1.8321371 4288085770
3.7469788 3.7175493 -1.804531 4288085770
5.7310915 4.7665181 -1.8361691 4288085770
3.8211136 3.8055305 -1.8115633 4288085770
5.8442192 4.8895044 -1.8411911 4288085770
3.8752289 3.8825278 -1.8116187 4288085770
5.9543409 5.010499 -1.8432158 4288085770
3.9543552 3.9745159 -1.8156487 4288085770
6.0964756 5.1514797 -1.8512099 4288085770
4.0304794 4.0635066 -1.8186789 4288085770
6.2215939 5.2834764 -1.8522245 4288085770
4.1146049 4.1594977 -1.8217064 4288085770
6.3777227 5.4344621 -1.8582087 4288085770
4.1987228 4.2544932 -1.8227316 4288085770
6.5438528 5.5914483 -1.8641827 4288085770
4.3048515 4.3634801 -1.8277365 4288085770
6.7159767 5.7544398 -1.868157 4288085770
4.409977 4.4714689 -1.8317416 4288085770
6.9091063 5.9294271 -1.8741086 4288085770
4.506094 4.5724673 -1.8317522 4288085770
7.1402464 6.1284027 -1.8850248 4288085770
4.634222 4.6954551 -1.8367373 4288085770
7.381381 6.3363838 -1.8939383 4288085770
4.779356 4.8294353 -1.844707 4288085770
7.6525202 6.5633612 -1.9048244 4288085770
4.9314861 4.9674187 -1.8516694 4288085770
7.936656 6.8013411 -1.914705 4288085770
5.072607 5.0994139 -1.8536448 4288085770
8.2077761 7.0313377 -1.9175991 4288085770
5.240736 5.2474003 -1.8595928 4288085770
8.5129013 7.2833281 -1.923463 4288085770
5.4298706 5.4103823 -1.8675252 4288085770
8.8600292 7.5643229 -1.9322857 4288085770
5.5989828 5.5583906 -1.8684632 4288085770
9.2421656 7.8663044 -1.9430832 4288085770
5.7991085 5.7273808 -1.8733845 4288085770
6.0312443 5.9183621 -1.8822802 4288085770
6.2763786 6.116344 -1.8911617 4288085770
6.5415106 6.3283286 -1.8990282 4288085770
6.841651 6.5643053 -1.9108671 4288085770
7.1617918 6.8112822 -1.9226843 4288085770
7.4869242 7.0622663 -1.9314991 4288085770
7.8240499 7.3202581 -1.9373022 4288085770
8.2001781 7.6032467 -1.9450709 4288085770
8.6173182 7.9142265 -1.956807 4288085770
16.730654 -0.91331053 -1.7180798 4288085770
15.754791 -0.94837332 -1.7262355 4288085770
14.876931 -0.97943354 -1.7351761 4288085770
14.016056 -1.0014791 -1.738097 4288085770
13.250187 -1.0235305 -1.7448007 4288085770
12.544313 -1.0405717 -1.7483782 4288085770
11.937455 -1.0586247 -1.7587274 4288085770
11.371595 -1.0736742 -1.7679895 4288085770
10.815723 -1.0837111 -1.7722396 4288085770
17.087746 -1.6833563 -1.7356614 4288085770
10.317859 -1.0947537 -1.7803546 4288085770
16.038895 -1.6644378 -1.7500992 4288085770
9.7959757 -1.0967784 -1.779544 4288085770
15.016023 -1.6374974 -1.7554946 4288085770
9.3231001 -1.0998063 -1.7816192 4288085770
14.062145 -1.6095467 -1.7577342 4288085770
8.884223 -1.1018338 -1.7836186 4288085770
13.196259 -1.5805893 -1.7587751 4288085770
8.4693441 -1.10186 -1.7855678 4288085770
12.414384 -1.5546327 -1.7616175 4288085770
8.0864668 -1.1008849 -1.7874459 4288085770
11.770519 -1.536684 -1.7701284 4288085770
7.7405949 -1.1019144 -1.7922351 4288085770
11.192662 -1.5217409 -1.7824817 4288085770
7.3637037 -1.0949244 -1.7881122 4288085770
10.530766 -1.489759 -1.7760628 4288085770
7.0568333 -1.0939527 -1.7928165 4288085770
9.9438782 -1.4627843 -1.7744621 4288085770
6.7539568 -1.0889764 -1.7955208 4288085770
9.416995 -1.4378109 -1.7747201 4288085770
6.4780865 -1.0870023 -1.8001564 4288085770
8.9611244 -1.4178462 -1.7798053 4288085770
6.1902008 -1.0790157 -1.7988324 4288085770
8.5422554 -1.3998823 -1.785802 4288085770
5.9303255 -1.0730371 -1.8014402 4288085770
8.1153717 -1.376905 -1.7858273 4288085770
5.711463 -1.0710707 -1.8099458 4288085770
7.7454996 -1.3579359 -1.7907141 4288085770
5.465579 -1.0620823 -1.8085281 4288085770
7.3846216 -1.3369608 -1.7925845 4288085770
5.2276955 -1.0520959 -1.808094 4288085770
7.0437422 -1.3169837 -1.794407 4288085770
5.0248241 -1.0461192 -1.8125715 4288085770
6.7128601 -1.2950015 -1.7942109 4288085770
4.7889252 -1.0331187 -1.806139 4288085770
6.4159842 -1.2760253 -1.7969308 4288085770
4.6110611 -1.0271449 -1.8125596 4288085770
6.1281023 -1.255043 -1.7976346 4288085770
4.3841591 -1.0111399 -1.8041128 4288085770
5.8702288 -1.2370672 -1.8012633 4288085770
4.2132835 -1.0021572 -1.8065237 4288085770
