# .PCD v0.7 - Point Cloud Data file format
VERSION 0.7
FIELDS x y z rgb
SIZE 4 4 4 4
TYPE F F F U
COUNT 1 1 1 1
WIDTH 1128
HEIGHT 1
VIEWPOINT 0 0 0 1 0 0 0
POINTS 1128
DATA ascii
4.8475304 -0.38709515 -1.8172729 4288085770
3.0921822 -0.2421245 -1.8180704 4288085770
5.1247635 -0.37551862 -1.8144407 4288085770
3.2744217 -0.23006266 -1.8141494 4288085770
5.4389572 -0.36412925 -1.8150325 4288085770
3.4826241 -0.21813232 -1.8135262 4288085770
5.7651863 -0.35280317 -1.8127615 4288085770
3.7157917 -0.20632762 -1.8161893 4288085770
6.1443481 -0.34274501 -1.8160985 4288085770
3.9499855 -0.19552988 -1.8158646 4288085770
6.5684738 -0.33391529 -1.8219512 4288085770
4.1842365 -0.18273449 -1.8115389 4288085770
6.9896774 -0.32407385 -1.8217692 4288085770
4.4633961 -0.17216498 -1.8147295 4288085770
7.471838 -0.3155424 -1.8252864 4288085770
4.77355 -0.16175401 -1.818275 4288085770
8.0169697 -0.3073315 -1.8315256 4288085770
5.0727692 -0.15028948 -1.816694 4288085770
8.6131115 -0.29938191 -1.8373487 4288085770
5.4069576 -0.14000267 -1.8175147 4288085770
9.2452831 -0.29161781 -1.8405845 4288085770
5.7741489 -0.12888455 -1.8187129 4288085770
9.97542 -0.28435308 -1.8469431 4288085770
6.1643353 -0.1178841 -1.8201745 4288085770
10.773577 -0.27743715 -1.8520803 4288085770
6.6005077 -0.10811776 -1.823163 4288085770
11.707659 -0.27221316 -1.8637764 4288085770
7.0676975 -0.097511292 -1.8245065 4288085770
12.760759 -0.26759797 -1.8748355 4288085770
7.5798626 -0.088133454 -1.828366 4288085770
13.926893 -0.26256186 -1.8841889 4288085770
8.1640129 -0.078122973 -1.8340492 4288085770
15.352919 -0.26185054 -1.9025223 4288085770
8.8001423 -0.06937772 -1.8413289 4288085770
9.4903164 -0.059910595 -1.8452265 4288085770
10.246489 -0.050780594 -1.8498802 4288085770
11.17856 -0.042545378 -1.8645494 4288085770
12.148737 -0.034509957 -1.8696542 4288085770
13.255896 -0.026174188 -1.8773274 4288085770
14.625933 -0.01917696 -1.8970134 4288085770
15.925867 0.19305927 -1.8997245 4288085770
14.399145 0.21094084 -1.883497 4288085770
13.058443 0.22786003 -1.8663678 4288085770
11.931704 0.2446751 -1.853651 4288085770
10.956915 0.25970745 -1.8456488 4288085770
10.084116 0.27421296 -1.8387971 4288085770
9.3323078 0.28909445 -1.8343091 4288085770
8.6305218 0.30271548 -1.8273861 4288085770
14.868853 0.38047323 -1.8816073 4288085770
8.0107231 0.31691375 -1.822387 4288085770
13.452185 0.39678353 -1.8606265 4288085770
7.4349308 0.33088407 -1.8168845 4288085770
12.268457 0.41289315 -1.8462715 4288085770
6.931118 0.34348336 -1.8131943 4288085770
11.313631 0.42782485 -1.8414972 4288085770
6.4742718 0.35684201 -1.8130331 4288085770
10.395887 0.44256061 -1.8301413 4288085770
6.0454578 0.37005374 -1.8101883 4288085770
9.6041088 0.45764691 -1.8222051 4288085770
5.66362 0.38302448 -1.8098731 4288085770
8.9202824 0.47217819 -1.8194859 4288085770
5.3077831 0.39686072 -1.8098507 4288085770
8.2855034 0.48545307 -1.8123205 4288085770
4.9719658 0.40859175 -1.8070555 4288085770
7.7246838 0.49934766 -1.8089883 4288085770
4.6701126 0.42214978 -1.8086417 4288085770
7.2048664 0.51303053 -1.8061187 4288085770
4.3603249 0.43474519 -1.8041391 4288085770
6.7350483 0.52745521 -1.8038118 4288085770
4.0954876 0.4471108 -1.8041437 4288085770
6.3062363 0.54066741 -1.8009682 4288085770
3.8476486 0.45938858 -1.8043399 4288085770
5.9203968 0.55365878 -1.8006089 4288085770
3.6068382 0.47262901 -1.8026147 4288085770
5.5605698 0.56751525 -1.7995424 4288085770
3.3949795 0.4857223 -1.8052158 4288085770
5.2107735 0.58031797 -1.7955897 4288085770
3.2070885 0.49969372 -1.8110869 4288085770
4.9139252 0.59485042 -1.7972324 4288085770
2.9803333 0.5108577 -1.8035216 4288085770
4.6290855 0.60832024 -1.7980115 4288085770
2.7835236 0.52287006 -1.8012934 4288085770
4.3552666 0.62173176 -1.7969146 4288085770
2.6316338 0.5366556 -1.8075702 4288085770
4.1084251 0.63600528 -1.7981212 4288085770
2.4628162 0.54952407 -1.8066571 4288085770
3.8755894 0.6492058 -1.7984865 4288085770
2.2979984 0.56237197 -1.8057888 4288085770
3.6547546 0.6623444 -1.7989872 4288085770
2.1451778 0.57515776 -1.8050561 4288085770
3.432951 0.67548597 -1.7964768 4288085770
1.9983597 0.58791268 -1.8043909 4288085770
3.2441082 0.68945992 -1.7983372 4288085770
1.8655167 0.60059667 -1.8058832 4288085770
3.0453224 0.7014814 -1.7940872 4288085770
1.7217331 0.61233342 -1.8012531 4288085770
2.8655071 0.71540695 -1.7930496 4288085770
1.5869484 0.62502432 -1.7977235 4288085770
2.7066593 0.72922587 -1.7952485 4288085770
1.481081 0.63957089 -1.8025188 4288085770
2.5398579 0.74308342 -1.7933576 4288085770
1.3762302 0.65311086 -1.805326 4288085770
2.3840523 0.75588417 -1.7915914 4288085770
1.2723904 0.66664517 -1.8071449 4288085770
2.2332573 0.7686584 -1.7888815 4288085770
1.1805344 0.68111873 -1.8110981 4288085770
2.0984287 0.78235209 -1.789351 4288085770
1.9726086 0.79699916 -1.7899213 4288085770
1.8507843 0.81062567 -1.7905376 4288085770
1.7469196 0.82616192 -1.7953548 4288085770
1.6261368 0.83978051 -1.7919827 4288085770
1.5213032 0.85431987 -1.7937896 4288085770
1.412508 0.86787719 -1.7915525 4288085770
1.3256664 0.88332427 -1.7945616 4288085770
1.2248783 0.8978402 -1.7924144 4288085770
1.1300774 0.91232586 -1.7913344 4288085770
1.2084999 3.2005234 -1.7402146 4288085770
1.3259277 3.2609107 -1.7414807 4288085770
1.4493351 3.322269 -1.7448133 4288085770
1.5767746 3.3846047 -1.7461898 4288085770
1.7162132 3.45188 -1.7496971 4288085770
1.8846569 3.5330093 -1.759519 4288085770
2.0331154 3.602237 -1.7621253 4288085770
2.1935902 3.6744027 -1.7648637 4288085770
2.3670654 3.7535028 -1.7707427 4288085770
1.1973438 3.1715412 -1.7420714 4288085770
2.5475521 3.832566 -1.7756994 4288085770
1.3377075 3.2308133 -1.7485948 4288085770
2.7230644 3.9076517 -1.7766032 4288085770
1.463089 3.2801595 -1.748957 4288085770
2.9185944 3.9906361 -1.7797253 4288085770
1.6174545 3.3423595 -1.7566347 4288085770
3.1141243 4.0716195 -1.7818482 4288085770
1.7628384 3.3986034 -1.7602158 4288085770
3.319664 4.1545501 -1.7840815 4288085770
1.8872414 3.4419508 -1.7555707 4288085770
3.5262146 4.2354751 -1.7843273 4288085770
2.0686321 3.5130126 -1.7655437 4288085770
3.7858028 4.3411307 -1.7931485 4288085770
2.2230358 3.5672076 -1.7662261 4288085770
4.0363998 4.4398298 -1.7978737 4288085770
2.3854427 3.6223612 -1.7669976 4288085770
4.3170185 4.549376 -1.8059266 4288085770
2.5668583 3.6854186 -1.7709756 4288085770
4.5906448 4.6519547 -1.8099058 4288085770
2.7472763 3.7464805 -1.7739437 4288085770
4.8693047 4.7545061 -1.8109405 4288085770
2.9466991 3.8134451 -1.7791197 4288085770
5.1509552 4.8530402 -1.8110116 4288085770
3.1291351 3.8694935 -1.7781134 4288085770
5.4346237 4.950563 -1.8091049 4288085770
3.329565 3.9314506 -1.7803037 4288085770
5.7533283 5.059906 -1.8095815 4288085770
3.5290089 3.9914119 -1.780484 4288085770
6.067028 5.1642733 -1.8080053 4288085770
3.7424545 4.0543008 -1.7818189 4288085770
6.4477844 5.2942977 -1.8141601 4288085770
3.9599152 4.1151676 -1.7811997 4288085770
6.8445683 5.4282389 -1.8194907 4288085770
4.2003613 4.1849189 -1.7858307 4288085770
7.2843914 5.5769587 -1.8282914 4288085770
4.4798393 4.2694712 -1.7948875 4288085770
7.7392559 5.7265987 -1.8342588 4288085770
4.7423172 4.3411064 -1.7977631 4288085770
8.2661762 5.9028707 -1.848012 4288085770
5.0237923 4.4186454 -1.8038464 4288085770
8.8661594 6.1047678 -1.8685629 4288085770
5.2772789 4.478323 -1.8006289 4288085770
9.5212269 6.3233795 -1.8897164 4288085770
5.5647545 4.549829 -1.8037827 4288085770
10.200319 6.5458651 -1.9101348 4288085770
5.8522453 4.6173329 -1.8039391 4288085770
10.903433 6.7682266 -1.9288211 4288085770
6.1587486 4.6897388 -1.8053043 4288085770
11.550531 6.9558668 -1.9329047 4288085770
6.507267 4.774929 -1.8111293 4288085770
12.238672 7.1522956 -1.9374397 4288085770
6.8547707 4.8541236 -1.8159471 4288085770
13.054956 7.3950644 -1.9513724 4288085770
7.2052917 4.9303017 -1.8178003 4288085770
13.858225 7.6198969 -1.9581714 4288085770
7.5587959 5.0034633 -1.8196883 4288085770
14.75659 7.8722386 -1.9700122 4288085770
7.9483261 5.0844388 -1.822973 4288085770
8.3838711 5.1781802 -1.8317623 4288085770
8.8094082 5.26297 -1.8364453 4288085770
9.2449474 5.3437061 -1.8392427 4288085770
9.682478 5.4204311 -1.8410647 4288085770
10.218054 5.5266542 -1.8529601 4288085770
10.817656 5.6485496 -1.870559 4288085770
11.359213 5.7407384 -1.8775301 4288085770
12.045851 5.8771844 -1.8990896 4288085770
12.639425 5.9701014 -1.9056394 4288085770
13.302015 6.0796657 -1.9189477 4288085770
14.052641 6.207778 -1.938225 4288085770
14.846281 6.338666 -1.9579797 4288085770
15.795988 6.5087528 -1.990448 4288085770
15.997698 -3.2938876 -1.9821897 4288085770
15.274885 -3.2951431 -1.9701366 4288085770
14.576109 -3.2905245 -1.9583473 4288085770
13.960238 -3.2913318 -1.9524858 4288085770
13.38735 -3.2923603 -1.9491036 4288085770
12.779593 -3.2802119 -1.9393234 4288085770
12.254705 -3.2774897 -1.9374735 4288085770
11.698977 -3.2606115 -1.9282696 4288085770
11.210135 -3.2500763 -1.9258158 4288085770
10.744303 -3.2386603 -1.9236181 4288085770
10.272551 -3.2182159 -1.9183476 4288085770
9.8497143 -3.2050228 -1.9176273 4288085770
9.413969 -3.1827645 -1.9127569 4288085770
8.9862347 -3.1585481 -1.9079745 4288085770
15.508932 -4.8934526 -1.9838326 4288085770
8.5685482 -3.1293857 -1.9013007 4288085770
14.774328 -4.8176317 -1.9895968 4288085770
8.1828251 -3.1033823 -1.8969829 4288085770
14.044836 -4.7308369 -1.9904077 4288085770
7.801136 -3.0724056 -1.8917086 4288085770
13.30744 -4.6340079 -1.9871259 4288085770
7.4563904 -3.0476196 -1.8888505 4288085770
12.554205 -4.5231013 -1.9756572 4288085770
7.1186562 -3.0198696 -1.8860681 4288085770
11.857924 -4.4184909 -1.9658275 4288085770
6.7789745 -2.9871099 -1.8812609 4288085770
11.192652 -4.3140426 -1.955343 4288085770
6.4901714 -2.9656122 -1.8820283 4288085770
10.613214 -4.2270336 -1.9518278 4288085770
6.2014084 -2.9391148 -1.8817928 4288085770
10.085707 -4.1492949 -1.9508972 4288085770
5.9176636 -2.9116447 -1.8806124 4288085770
9.5293751 -4.0554113 -1.9416339 4288085770
5.639925 -2.8822045 -1.8794978 4288085770
9.0110035 -3.9667239 -1.9337971 4288085770
5.3602467 -2.8477573 -1.8753574 4288085770
8.5265942 -3.8822126 -1.9273415 4288085770
5.1134872 -2.8204787 -1.8755891 4288085770
8.0363007 -3.7886748 -1.9148138 4288085770
4.8598042 -2.7871654 -1.8717394 4288085770
7.6098423 -3.7114635 -1.9100089 4288085770
4.6439857 -2.764045 -1.875319 4288085770
7.1994038 -3.6343374 -1.9033825 4288085770
4.4112663 -2.7328401 -1.8737042 4288085770
6.8268738 -3.5664043 -1.901185 4288085770
4.177597 -2.6966314 -1.8700755 4288085770
6.481308 -3.5026112 -1.9002907 4288085770
3.9728374 -2.6685698 -1.8707745 4288085770
6.1387939 -3.4348359 -1.8964274 4288085770
3.757143 -2.634454 -1.8683474 4288085770
5.8262157 -3.3732142 -1.8959022 4288085770
3.5683861 -2.6064751 -1.8692248 4288085770
5.512701 -3.30759 -1.8913634 4288085770
3.3687019 -2.572443 -1.8659761 4288085770
5.221138 -3.2470794 -1.8890729 4288085770
3.1750126 -2.537441 -1.8637934 4288085770
4.974432 -3.1987953 -1.8942907 4288085770
2.9863434 -2.5024669 -1.8596668 4288085770
4.6759911 -3.1292534 -1.8849168 4288085770
2.810627 -2.4695575 -1.858686 4288085770
4.4273758 -3.0739634 -1.8851085 4288085770
2.6409092 -2.4376795 -1.8577726 4288085770
4.1798077 -3.0156815 -1.8823094 4288085770
2.4861679 -2.4078779 -1.8580275 4288085770
3.9492054 -2.9624865 -1.880703 4288085770
2.3284492 -2.3760622 -1.8572478 4288085770
3.7246208 -2.9073238 -1.8781619 4288085770
2.1468925 -2.3321285 -1.8471937 4288085770
3.5199833 -2.8582635 -1.8778474 4288085770
2.0051689 -2.3013957 -1.8465924 4288085770
3.2855339 -2.794055 -1.8671899 4288085770
1.8485374 -2.2635894 -1.8408206 4288085770
3.0819569 -2.7400014 -1.8638835 4288085770
1.6989021 -2.2258189 -1.8351264 4288085770
2.8903618 -2.6890113 -1.8607128 4288085770
1.58111 -2.2012076 -1.8377967 4288085770
2.7117329 -2.6400864 -1.859688 4288085770
1.4523907 -2.1695428 -1.8373399 4288085770
2.5291634 -2.5881438 -1.8546171 4288085770
1.3326588 -2.139924 -1.8369846 4288085770
2.3496227 -2.5352185 -1.847579 4288085770
1.2139416 -2.1093116 -1.83564 4288085770
2.1969528 -2.4914279 -1.847847 4288085770
2.0363693 -2.4425993 -1.8430228 4288085770
1.9006767 -2.4028971 -1.8434825 4288085770
1.759037 -2.3581653 -1.8418727 4288085770
1.6174335 -2.3124354 -1.8372622 4288085770
1.4887695 -2.2707705 -1.8357987 4288085770
1.3760509 -2.2341866 -1.8375165 4288085770
1.2474422 -2.1895247 -1.8330514 4288085770
1.1397343 -2.1529672 -1.8338251 4288085770
1.1152878 0.012689888 -1.817488 4288085770
1.2124996 0.025176525 -1.8155465 4288085770
1.3047581 0.037685812 -1.80955 4288085770
1.4029999 0.049164772 -1.8046203 4288085770
1.5122166 0.060587943 -1.8018117 4288085770
1.6493664 0.071870029 -1.8053114 4288085770
1.7656002 0.084255934 -1.8015792 4288085770
1.8947983 0.095575869 -1.7999909 4288085770
2.0339909 0.10684437 -1.7995124 4288085770
1.1710148 0.14935988 -1.8169606 4288085770
2.1941452 0.11700577 -1.8022661 4288085770
1.282217 0.15977353 -1.8151743 4288085770
2.3583145 0.12814546 -1.8040631 4288085770
1.4004002 0.16915131 -1.814466 4288085770
2.5155392 0.13931739 -1.8007829 4288085770
1.5096416 0.17857206 -1.8086586 4288085770
2.6907139 0.14939892 -1.8017015 4288085770
1.6418133 0.18787766 -1.8091042 4288085770
2.8918476 0.16034818 -1.8069057 4288085770
1.7660389 0.19622099 -1.8044627 4288085770
3.0700817 0.1714099 -1.8028564 4288085770
1.9082203 0.20547378 -1.8040185 4288085770
3.2892323 0.18126357 -1.8062596 4288085770
2.0573959 0.21368986 -1.803652 4288085770
3.5084076 0.19011468 -1.8066635 4288085770
2.2225456 0.22282511 -1.8064606 4288085770
3.7346058 0.20092869 -1.8061426 4288085770
2.3947086 0.23092234 -1.8073473 4288085770
3.976799 0.21065903 -1.8057988 4288085770
2.6107674 0.23979807 -1.8187177 4288085770
4.2310104 0.22032511 -1.803587 4288085770
2.7789955 0.2479111 -1.8135602 4288085770
4.5181942 0.23082173 -1.8047378 4288085770
2.9562321 0.25497621 -1.8075025 4288085770
4.8213673 0.24023479 -1.8060653 4288085770
3.1564274 0.26292479 -1.805697 4288085770
5.1694965 0.24941665 -1.8118885 4288085770
3.3726063 0.27079093 -1.8050678 4288085770
5.5196819 0.25958389 -1.8127327 4288085770
3.6107597 0.27754366 -1.8066814 4288085770
5.8509483 0.26784343 -1.8053689 4288085770
3.8639145 0.28421825 -1.80846 4288085770
6.2670956 0.27666897 -1.8099403 4288085770
4.1081219 0.29093558 -1.8051395 4288085770
6.6973076 0.28541642 -1.808666 4288085770
4.4022617 0.29739708 -1.8083692 4288085770
7.1834736 0.29487509 -1.812007 4288085770
4.6814842 0.30293024 -1.8034346 4288085770
7.7026672 0.30315924 -1.8127122 4288085770
5.023592 0.30814308 -1.8091931 4288085770
8.3117847 0.31097889 -1.8204081 4288085770
5.3607769 0.31337625 -1.8078969 4288085770
8.9449711 0.31866843 -1.8223679 4288085770
5.7479057 0.31835279 -1.8121507 4288085770
9.677103 0.32584509 -1.8294177 4288085770
6.1490688 0.32225287 -1.8125594 4288085770
10.505236 0.33352101 -1.8375235 4288085770
6.5702477 0.32504696 -1.8111887 4288085770
11.384417 0.33992681 -1.8411911 4288085770
7.0563698 0.3275063 -1.8155332 4288085770
12.437529 0.34642932 -1.8517733 4288085770
7.5735321 0.32980049 -1.8162189 4288085770
13.626635 0.35222262 -1.8638527 4288085770
8.1666164 0.33070341 -1.8237417 4288085770
15.093637 0.35757267 -1.8869913 4288085770
8.8077374 0.33135253 -1.8277924 4288085770
9.5248318 0.33060697 -1.8346803 4288085770
10.335897 0.32837239 -1.8436038 4288085770
11.202009 0.32484621 -1.8481326 4288085770
12.238058 0.31843701 -1.8585339 4288085770
13.403101 0.31035376 -1.8693552 4288085770
14.83901 0.29986554 -1.8931594 4288085770
9.2238827 -5.3744078 -0.29382849 4293729569
9.2439709 -5.2884827 -0.33796793 4293729569
9.3568478 -5.2420459 -0.38315409 4293729569
12.419939 -5.7798982 -0.7510069 4293729569
11.993242 -5.5076418 -0.77010715 4293729569
12.430552 -5.5439 -0.82990181 4293729569
13.636126 -5.8361692 -0.93029964 4293729569
13.791578 -5.6279321 -1.0117964 4293729569
13.780058 -5.4928503 -1.0435438 4293729569
13.612886 -5.3089581 -1.065551 4293729569
15.434431 0.53713197 -1.8828661 4288085770
14.102808 0.57318223 -1.8675263 4288085770
12.910208 0.60449117 -1.8486843 4288085770
11.95249 0.63656604 -1.8433642 4288085770
11.064798 0.66526502 -1.8337998 4288085770
10.282087 0.69240898 -1.8263645 4288085770
9.5853596 0.71809727 -1.8198543 4288085770
8.966608 0.74337429 -1.8161819 4288085770
15.707304 1.0646386 -1.8671784 4288085770
8.3688869 0.76653624 -1.8087378 4288085770
14.355612 1.0767908 -1.846652 4288085770
7.8381557 0.78834313 -1.8020141 4288085770
13.247854 1.0926569 -1.8357408 4288085770
7.3793812 0.81077266 -1.8000629 4288085770
12.249117 1.1069427 -1.8230019 4288085770
6.927639 0.83116108 -1.7941892 4288085770
11.436296 1.1252506 -1.8202548 4288085770
6.5158863 0.85233867 -1.7897444 4288085770
10.667521 1.1403208 -1.812984 4288085770
6.148119 0.87228423 -1.7867732 4288085770
9.9797421 1.1559616 -1.8065822 4288085770
5.8353004 0.89394319 -1.7893901 4288085770
9.3549633 1.1722689 -1.8008561 4288085770
5.524519 0.91458768 -1.7880301 4288085770
8.785181 1.1862838 -1.7947228 4288085770
5.2467079 0.93506026 -1.7900243 4288085770
8.2713909 1.203004 -1.7911882 4288085770
4.9749203 0.95449817 -1.7890842 4288085770
7.811594 1.2194378 -1.7882335 4288085770
4.7091484 0.9729023 -1.7862098 4288085770
7.3808041 1.2347174 -1.7845912 4288085770
4.4783535 0.99312395 -1.7867093 4288085770
6.9910088 1.2517804 -1.7823873 4288085770
4.2735271 1.0142108 -1.7904868 4288085770
6.6212177 1.2677367 -1.7793994 4288085770
4.0497704 1.0313905 -1.7860649 4288085770
6.2894135 1.2834924 -1.7778194 4288085770
3.8479805 1.0494566 -1.784878 4288085770
5.9836178 1.3011106 -1.7765164 4288085770
3.6482124 1.0665101 -1.781714 4288085770
5.6988106 1.3186185 -1.7764394 4288085770
3.4863949 1.0873682 -1.7849536 4288085770
5.433012 1.3360245 -1.7755663 4288085770
3.3126163 1.1052849 -1.7830677 4288085770
5.1742229 1.3533927 -1.7737687 4288085770
3.1378555 1.122205 -1.7791722 4288085770
4.9354191 1.3696558 -1.7731867 4288085770
2.9920578 1.1409755 -1.7795861 4288085770
4.7236156 1.388777 -1.7738917 4288085770
2.8532524 1.1607099 -1.7810738 4288085770
4.5178146 1.4068654 -1.7736621 4288085770
2.7154713 1.1784359 -1.7795746 4288085770
4.3370037 1.4268233 -1.7756987 4288085770
2.5786915 1.1961567 -1.7780864 4288085770
4.1541996 1.4457908 -1.7767153 4288085770
2.4449368 1.2128586 -1.7736316 4288085770
3.9774094 1.4637244 -1.7757971 4288085770
2.3271484 1.2314796 -1.7733459 4288085770
3.798645 1.4796656 -1.7718599 4288085770
2.2173481 1.2500594 -1.7741466 4288085770
3.6338634 1.4975348 -1.770071 4288085770
2.1255322 1.2715464 -1.7781372 4288085770
3.4850788 1.5163202 -1.7694528 4288085770
2.0097771 1.2881531 -1.7738757 4288085770
3.3412991 1.5340779 -1.7678893 4288085770
1.9189873 1.3086319 -1.774878 4288085770
3.223484 1.5557029 -1.7716002 4288085770
1.8202019 1.3261514 -1.7737978 4288085770
3.0787315 1.5724632 -1.7670276 4288085770
1.7224426 1.3436636 -1.7707288 4288085770
2.944973 1.5901659 -1.7635717 4288085770
1.6326733 1.3621342 -1.7687442 4288085770
2.8261929 1.6087912 -1.7622758 4288085770
1.5459042 1.3805891 -1.7667918 4288085770
2.7224121 1.6303393 -1.7631377 4288085770
1.4801006 1.4029375 -1.7700608 4288085770
2.6186314 1.6508861 -1.7630006 4288085770
1.40732 1.4233202 -1.7702568 4288085770
2.5278492 1.672365 -1.7640021 4288085770
1.3335514 1.4437072 -1.7694421 4288085770
2.4230976 1.6919142 -1.7608556 4288085770
1.26577 1.4630625 -1.768693 4288085770
2.3413067 1.7153466 -1.7629516 4288085770
1.1999969 1.4844081 -1.7689631 4288085770
2.2535439 1.7368077 -1.7619855 4288085770
1.1392155 1.5047271 -1.7692878 4288085770
2.1747704 1.7582221 -1.7621157 4288085770
2.0940056 1.779646 -1.7612249 4288085770
2.0042801 1.7981129 -1.7552407 4288085770
1.9414997 1.8224444 -1.7575396 4288085770
1.8737392 1.8447995 -1.7567871 4288085770
1.8019962 1.8661737 -1.7539928 4288085770
1.7392521 1.8895013 -1.752293 4288085770
1.6884918 1.9157681 -1.7537187 4288085770
1.6337414 1.9400544 -1.7531037 4288085770
1.5830002 1.9653194 -1.7525307 4288085770
1.5312595 1.9895887 -1.750948 4288085770
1.4765358 2.012872 -1.7473344 4288085770
1.4437809 2.0420444 -1.7499499 4288085770
1.3950615 2.0662956 -1.7463996 4288085770
1.3573132 2.093493 -1.7469639 4288085770
1.3235931 2.1216667 -1.7455702 4288085770
1.2968597 2.1528065 -1.7472483 4288085770
1.2701302 2.182945 -1.7479273 4288085770
1.2214432 2.2051926 -1.7403793 4288085770
1.1857452 2.231374 -1.7359664 4288085770
1.1730137 2.2654405 -1.7387915 4288085770
1.1463089 2.2945764 -1.7364717 4288085770
1.162981 2.9594121 -1.7248951 4288085770
1.1973667 3.0142281 -1.7272018 4288085770
1.2367496 3.0700183 -1.7305609 4288085770
1.2661648 3.1218567 -1.7288171 4288085770
1.3095818 3.180624 -1.730216 4288085770
1.3609886 3.2433519 -1.7346963 4288085770
1.4134254 3.3070722 -1.7371863 4288085770
1.4558697 3.3648415 -1.7355751 4288085770
1.5213108 3.4344952 -1.740198 4288085770
1.6247673 3.526957 -1.7552036 4288085770
1.6622581 3.5807467 -1.7475432 4288085770
1.7407513 3.6583302 -1.7512966 4288085770
1.8342533 3.7448378 -1.7592012 4288085770
1.9197903 3.8263822 -1.7610252 4288085770
2.0123272 3.9118907 -1.76492 4288085770
2.1098862 3.9993725 -1.7678661 4288085770
2.2224636 4.096777 -1.7739623 4288085770
2.3390579 4.1951594 -1.7791002 4288085770
2.4356709 4.2806401 -1.7760372 4288085770
1.1712017 3.5863245 -1.7532536 4288085770
2.5693169 4.3889327 -1.7813466 4288085770
1.2796955 3.6737537 -1.7623171 4288085770
2.7289829 4.513093 -1.7929173 4288085770
1.3512096 3.7363651 -1.7570103 4288085770
2.8996887 4.6431937 -1.8035991 4288085770
1.455719 3.8188117 -1.7620358 4288085770
3.0544147 4.762372 -1.8071213 4288085770
1.5682545 3.9062154 -1.7671418 4288085770
3.2011547 4.8765888 -1.8065627 4288085770
1.6798038 3.9926229 -1.7702379 4288085770
3.3508987 4.9897895 -1.805037 4288085770
1.7783623 4.0680928 -1.767206 4288085770
3.4966736 5.1000061 -1.7994714 4288085770
1.9079514 4.1634054 -1.7714851 4288085770
3.6634769 5.2221146 -1.7971179 4288085770
2.0355568 4.2557254 -1.7727456 4288085770
3.8493385 5.3551226 -1.794956 4288085770
2.1821632 4.3589497 -1.7791977 4288085770
4.0522175 5.4980431 -1.7959654 4288085770
2.3298149 4.4621649 -1.7816603 4288085770
4.2901745 5.6617813 -1.8003273 4288085770
2.5365028 4.6030817 -1.7997141 4288085770
4.5632019 5.8463373 -1.8090415 4288085770
2.7212086 4.7271051 -1.8075504 4288085770
4.8642826 6.0477471 -1.8210373 4288085770
2.8868961 4.8352237 -1.8091996 4288085770
5.1964436 6.266993 -1.8343456 4288085770
3.0546188 4.9443283 -1.807869 4288085770
5.5366554 6.4891939 -1.8447359 4288085770
3.2363682 5.060359 -1.8076806 4288085770
5.9189529 6.7361765 -1.859549 4288085770
3.4051094 5.164454 -1.8023653 4288085770
6.2822628 6.9672503 -1.8651752 4288085770
3.5928783 5.278451 -1.7992423 4288085770
6.6536179 7.2002773 -1.8678842 4288085770
3.8046951 5.4073229 -1.7993603 4288085770
7.065073 7.4550948 -1.8719976 4288085770
4.0455627 5.5520434 -1.8027713 4288085770
7.5286751 7.7416368 -1.8786337 4288085770
4.3184872 5.7135978 -1.8095064 4288085770
8.0233536 8.0430145 -1.8855848 4288085770
4.5864239 5.8701749 -1.8121934 4288085770
4.9284649 6.0703702 -1.8276248 4288085770
5.2675343 6.2655764 -1.8380289 4288085770
5.6416721 6.4785995 -1.8507881 4288085770
6.0588932 6.7153978 -1.8679812 4288085770
6.4370785 6.921391 -1.8727891 4288085770
6.8383312 7.1372604 -1.876832 4288085770
7.2626152 7.36201 -1.8821104 4288085770
7.7109737 7.5966291 -1.8856344 4288085770
8.2244549 7.8649087 -1.8948169 4288085770
15.448362 -1.5169909 -1.9336443 4288085770
14.6173 -1.5495837 -1.9288566 4288085770
13.916132 -1.584857 -1.9334507 4288085770
13.181158 -1.606962 -1.9266722 4288085770
12.454241 -1.6211116 -1.9179709 4288085770
11.803282 -1.6366613 -1.9130774 4288085770
11.179377 -1.6463566 -1.9064651 4288085770
10.593477 -1.6542532 -1.9002542 4288085770
10.069529 -1.6634741 -1.8987024 4288085770
9.5656033 -1.669802 -1.8963604 4288085770
9.1096516 -1.6763828 -1.8965278 4288085770
15.241732 -2.5929334 -1.9485378 4288085770
8.7126446 -1.6852722 -1.9013233 4288085770
14.15233 -2.5281682 -1.9279089 4288085770
8.2907372 -1.6860342 -1.9008458 4288085770
13.238791 -2.4763281 -1.9161599 4288085770
7.907793 -1.6880007 -1.9027836 4288085770
12.452097 -2.4371543 -1.9127707 4288085770
7.4710522 -1.6776943 -1.8921371 4288085770
11.664549 -2.3869836 -1.9013605 4288085770
7.0842361 -1.6706476 -1.8870242 4288085770
10.965887 -2.3462791 -1.8959038 4288085770
6.6885071 -1.6565592 -1.8768089 4288085770
10.316263 -2.3038371 -1.8889654 4288085770
6.3287334 -1.6446576 -1.869978 4288085770
9.7724667 -2.2749484 -1.8911645 4288085770
6.0079136 -1.6359601 -1.8665638 4288085770
9.2088146 -2.2349613 -1.8861413 4288085770
5.7200336 -1.6304331 -1.8675025 4288085770
8.6861591 -2.1971931 -1.8805552 4288085770
5.4222374 -1.6188586 -1.8633296 4288085770
8.2074432 -2.1636546 -1.8784401 4288085770
5.1523914 -1.610429 -1.8624568 4288085770
7.7617397 -2.129292 -1.8756742 4288085770
4.9095058 -1.6031396 -1.8648715 4288085770
7.3470135 -2.098093 -1.8742406 4288085770
4.6277714 -1.5856535 -1.8578629 4288085770
6.9502869 -2.065989 -1.872997 4288085770
4.3919334 -1.5754042 -1.8573492 4288085770
6.5466557 -2.0278549 -1.8656738 4288085770
4.1730728 -1.565243 -1.8590157 4288085770
6.1929398 -1.9959805 -1.8638868 4288085770
3.9482708 -1.5520549 -1.8566158 4288085770
5.8432617 -1.9621308 -1.8591406 4288085770
3.7334747 -1.537919 -1.8543215 4288085770
5.5594425 -1.9386215 -1.8631041 4288085770
3.5186977 -1.5217848 -1.8510249 4288085770
5.2587109 -1.9090283 -1.8618817 4288085770
3.3149204 -1.5057089 -1.8478453 4288085770
4.977972 -1.8805406 -1.8608727 4288085770
3.1579971 -1.4988723 -1.8541727 4288085770
4.6843166 -1.8459899 -1.8547204 4288085770
2.9383488 -1.47472 -1.8428159 4288085770
4.4584846 -1.8247886 -1.8593016 4288085770
2.7974148 -1.467967 -1.8503132 4288085770
4.2087574 -1.7954669 -1.8576207 4288085770
2.6097069 -1.4469805 -1.8432989 4288085770
4.0069084 -1.7753911 -1.8634579 4288085770
2.477766 -1.4392741 -1.8518906 4288085770
3.745306 -1.7390149 -1.8536434 4288085770
2.2811451 -1.4132469 -1.8387764 4288085770
3.5256042 -1.7088544 -1.85028 4288085770
2.1353397 -1.3984759 -1.8382132 4288085770
3.3348122 -1.685842 -1.8522313 4288085770
1.9895535 -1.3817065 -1.8366482 4288085770
3.1291218 -1.6557567 -1.8480167 4288085770
1.8587208 -1.3680131 -1.8382454 4288085770
2.9284306 -1.6266992 -1.8428564 4288085770
1.7279072 -1.3523211 -1.8388405 4288085770
2.7477074 -1.5987442 -1.840909 4288085770
1.5941353 -1.3346162 -1.8364019 4288085770
2.5809288 -1.5748603 -1.842114 4288085770
1.458395 -1.3149035 -1.8319404 4288085770
2.4092255 -1.5469551 -1.8382623 4288085770
1.357502 -1.3043647 -1.8378584 4288085770
2.2584553 -1.5231574 -1.8386374 4288085770
1.2247944 -1.28267 -1.8314269 4288085770
2.1047173 -1.4973454 -1.8369784 4288085770
1.1120129 -1.2650754 -1.8302112 4288085770
1.9798775 -1.4786808 -1.8416338 4288085770
1.8291759 -1.4508882 -1.8370054 4288085770
1.6974163 -1.4271915 -1.8365822 4288085770
1.5656872 -1.4014976 -1.8341568 4288085770
1.4429264 -1.3778491 -1.8338287 4288085770
1.328146 -1.3552423 -1.8345866 4288085770
1.2183666 -1.3336613 -1.8353987 4288085770
1.1176662 0.60238528 -1.8098228 4288085770
1.22188 0.61482453 -1.8079021 4288085770
1.3071613 0.62435532 -1.7977848 4288085770
1.4054089 0.6358217 -1.7918022 4288085770
1.5276051 0.64716655 -1.7910719 4288085770
1.6558056 0.6594795 -1.7904034 4288085770
1.7979603 0.67172277 -1.7938821 4288085770
1.9281864 0.68302155 -1.7902358 4288085770
1.1388359 0.65123844 -1.8079655 4288085770
2.076376 0.69522941 -1.7907774 4288085770
1.2430439 0.65867531 -1.8040502 4288085770
2.220583 0.70545495 -1.7882795 4288085770
1.3522434 0.66708678 -1.8011861 4288085770
2.3867664 0.71856838 -1.790009 4288085770
1.4694405 0.67445588 -1.7984073 4288085770
2.5649319 0.73061919 -1.792866 4288085770
1.5876446 0.68181837 -1.7946391 4288085770
2.736145 0.7417013 -1.7906506 4288085770
1.7218227 0.69009942 -1.7940376 4288085770
2.9173546 0.75273025 -1.7885399 4288085770
1.8689804 0.69831365 -1.7955728 4288085770
3.1135445 0.76368195 -1.7885871 4288085770
2.0221367 0.70649612 -1.7971711 4288085770
3.3646469 0.77835321 -1.7992079 4288085770
2.1633415 0.71373653 -1.7936442 4288085770
3.5469246 0.78736866 -1.7901101 4288085770
2.3125381 0.71993428 -1.7902026 4288085770
3.7781239 0.79813331 -1.789525 4288085770
2.4956818 0.7279585 -1.7931163 4288085770
4.0313015 0.80978328 -1.7911701 4288085770
2.7107544 0.73682094 -1.8033648 4288085770
4.2875214 0.82041264 -1.7888477 4288085770
2.8929291 0.74284589 -1.8022697 4288085770
4.5507355 0.83100486 -1.7865989 4288085770
3.0651569 0.74691671 -1.7950718 4288085770
4.8589249 0.84236157 -1.787822 4288085770
3.2673244 0.75183535 -1.794188 4288085770
5.1731167 0.85268509 -1.7881091 4288085770
3.5054436 0.75856888 -1.7986805 4288085770
5.5492516 0.86568683 -1.7950447 4288085770
3.7146473 0.76244557 -1.7938716 4288085770
5.8785038 0.87392247 -1.7884917 4288085770
3.9627857 0.76612204 -1.7954721 4288085770
6.255724 0.88390779 -1.7864406 4288085770
4.2169571 0.76976323 -1.7941356 4288085770
6.6769314 0.89366072 -1.7858522 4288085770
4.4711418 0.77240205 -1.7908003 4288085770
7.1710739 0.90603399 -1.7930274 4288085770
4.7642918 0.7748372 -1.7908747 4288085770
7.6512966 0.91547102 -1.791059 4288085770
5.0844116 0.77713239 -1.7942328 4288085770
8.2134609 0.92647946 -1.7959499 4288085770
5.401577 0.77843773 -1.7925606 4288085770
8.8595829 0.9400475 -1.8067203 4288085770
5.7546959 0.77955639 -1.7952662 4288085770
9.5417347 0.95141977 -1.8138711 4288085770
6.1288376 0.77855992 -1.7951949 4288085770
10.291914 0.9624272 -1.8187366 4288085770
6.5489521 0.77732158 -1.7976067 4288085770
11.128084 0.97197765 -1.8245068 4288085770
6.9940681 0.77595037 -1.8002813 4288085770
12.050245 0.98207128 -1.8311796 4288085770
7.4691811 0.77241862 -1.802273 4288085770
13.062433 0.99068326 -1.8357992 4288085770
8.0132465 0.76852494 -1.8089898 4288085770
14.358515 1.0048008 -1.8553958 4288085770
8.6053219 0.76337391 -1.8142118 4288085770
15.827593 1.0189979 -1.8758092 4288085770
9.2154064 0.75412381 -1.8166275 4288085770
9.8854961 0.74455404 -1.8186738 4288085770
10.665518 0.73240548 -1.8268776 4288085770
11.516554 0.71787614 -1.8328295 4288085770
12.465559 0.69982737 -1.8408141 4288085770
13.533548 0.67814523 -1.8490524 4288085770
14.817438 0.65332365 -1.8665621 4288085770
3.9070663 -5.1384339 -0.085345566 4293729569
3.8918915 -5.1053042 -0.13014558 4293729569
3.895668 -5.0832782 -0.17415696 4293729569
3.9133949 -5.0683241 -0.21932271 4293729569
3.9162025 -5.0422926 -0.26231894 4293729569
6.1792603 -5.4803419 -1.2204363 4293729569
6.2324162 -5.3982711 -0.67785645 4293729569
6.1385689 -5.3880939 -1.2488949 4293729569
6.2116451 -5.3151274 -0.70953387 4293729569
6.1496887 -5.3211174 -1.2829248 4293729569
6.2148037 -5.2431097 -0.7424745 4293729569
6.170784 -5.2591934 -1.317065 4293729569
6.2518654 -5.1872697 -0.77678847 4293729569
6.2207737 -5.2124214 -1.353525 4293729569
6.3018951 -5.1385021 -0.81024623 4293729569
6.2996674 -5.1777997 -1.3933015 4293729569
6.3977852 -5.1119766 -0.84620941 4293729569
8.2617207 -6.1209316 -1.6979262 4293729569
7.7512321 -5.7210431 -0.99206936 4293729569
7.9035072 -5.8450446 -1.6768446 4293729569
7.7694492 -5.6421075 -1.0231572 4293729569
8.0312786 -5.8186755 -1.7241399 4293729569
8.6107845 -5.967483 -1.129326 4293729569
7.8274345 -5.6255922 -1.7217708 4293729569
8.5024967 -5.8198872 -1.1470094 4293729569
7.6604671 -5.4537044 -1.7208123 4293729569
8.5018559 -5.7238569 -1.1728787 4293729569
7.5124245 -5.2939167 -1.7210661 4293729569
8.5251369 -5.6399522 -1.2000124 4293729569
7.369379 -5.1361566 -1.7203745 4293729569
7.8129768 -5.2142062 -1.1520572 4293729569
7.2532272 -4.9945378 -1.7219833 4293729569
7.7715073 -5.1039691 -1.1684834 4293729569
7.1839142 -4.8731623 -1.7291051 4293729569
7.8137684 -5.0321712 -1.1918296 4293729569
7.1474705 -4.7699585 -1.7395922 4293729569
9.0430546 -5.4805727 -1.3381901 4293729569
7.1080551 -4.665741 -1.7480471 4293729569
9.1382046 -5.4200501 -1.3671006 4293729569
7.1862011 -4.6111321 -1.7737887 4293729569
8.5067844 -5.0507407 -1.3150572 4293729569
7.3759117 -4.6040983 -1.8177516 4293729569
8.7694302 -5.0610991 -1.3568004 4293729569
7.6184616 -4.6153378 -1.868288 4293729569
11.258841 -5.9790683 -1.6438692 4293729569
7.8201866 -4.6073685 -1.9113743 4288085770
9.7682552 -5.2632847 -1.4914445 4293729569
7.8755016 -4.5366468 -1.9288568 4288085770
9.7518749 -5.1501899 -1.5011265 4293729569
7.8212624 -4.4213643 -1.9261425 4288085770
11.935595 -5.883564 -1.7547771 4293729569
7.7470894 -4.2989779 -1.9202113 4288085770
10.416021 -5.1876402 -1.5910765 4293729569
7.6828918 -4.1826472 -1.9133916 4288085770
10.183382 -4.9904237 -1.5714008 4293729569
7.6575623 -4.0815167 -1.9119954 4288085770
11.886862 -5.4972982 -1.768764 4293729569
7.6491737 -3.9874744 -1.9127848 4288085770
11.858694 -5.364151 -1.7682965 4293729569
7.6428127 -3.8924451 -1.9115937 4288085770
11.715864 -5.1934094 -1.7535881 4293729569
7.6334591 -3.7994027 -1.9083738 4288085770
11.926008 -5.1445074 -1.7777066 4293729569
7.6251068 -3.7063661 -1.9051645 4288085770
11.99859 -5.0468917 -1.7833319 4293729569
7.6327152 -3.6184134 -1.9031274 4288085770
12.093126 -4.9563937 -1.7901943 4293729569
7.6513042 -3.5345182 -1.9012096 4288085770
12.227575 -4.8761029 -1.8004844 4293729569
7.6778717 -3.4536662 -1.8993785 4288085770
12.476736 -4.8314142 -1.821013 4293729569
7.7034588 -3.3718104 -1.8965359 4288085770
12.861551 -4.8234334 -1.855999 4293729569
7.7609615 -3.2991204 -1.8970368 4288085770
13.340204 -4.8359447 -1.8979864 4293729569
7.8055096 -3.2223649 -1.8953974 4288085770
13.834845 -4.8495417 -1.940141 4288085770
7.8510799 -3.1476176 -1.8907712 4288085770
14.182932 -4.8143778 -1.9637084 4288085770
7.9375229 -3.0820799 -1.8935819 4288085770
14.471212 -4.757905 -1.9786267 4288085770
8.0040531 -3.010442 -1.8911772 4288085770
14.769526 -4.6994872 -1.9916463 4288085770
8.0636311 -2.9357708 -1.8856962 4288085770
14.937201 -4.6043911 -1.9882603 4288085770
8.1790581 -2.8743894 -1.8878131 4288085770
15.187708 -4.5267296 -1.9917576 4288085770
8.2705688 -2.8058848 -1.8856716 4288085770
15.435263 -4.4470553 -1.9922211 4288085770
8.3990002 -2.7465734 -1.8869257 4288085770
15.692831 -4.3674364 -1.9917884 4288085770
8.5164852 -2.6832078 -1.8850608 4288085770
16.086134 -4.3165293 -2.0028026 4288085770
8.6499424 -2.622925 -1.8843651 4288085770
8.8023739 -2.5647433 -1.8848696 4288085770
8.9837666 -2.5087121 -1.8886776 4288085770
9.1282673 -2.4454927 -1.8850925 4288085770
9.33465 -2.3925958 -1.8881638 4288085770
9.573988 -2.3438723 -1.8935823 4288085770
9.7924023 -2.2890422 -1.8947754 4288085770
10.026812 -2.2342975 -1.8961344 4288085770
10.31016 -2.1838086 -1.9020073 4288085770
10.564611 -2.1271741 -1.9005716 4288085770
10.881968 -2.0768681 -1.9057972 4288085770
11.202364 -2.0225809 -1.9090486 4288085770
11.549761 -1.9684381 -1.9115808 4288085770
11.931154 -1.9144759 -1.9154656 4288085770
12.435362 -1.8731551 -1.9316423 4288085770
12.874773 -1.8175032 -1.9351265 4288085770
13.361151 -1.7630997 -1.9410996 4288085770
13.853598 -1.7037337 -1.9431283 4288085770
14.350142 -1.6363947 -1.9401891 4288085770
14.877695 -1.568223 -1.9365699 4288085770
15.455244 -1.4993167 -1.9344685 4288085770
15.191858 1.0326513 -1.8661847 4288085770
14.143343 1.0822462 -1.8493941 4288085770
13.229792 1.1301219 -1.8359861 4288085770
12.405214 1.1745232 -1.8244925 4288085770
11.734571 1.2201091 -1.8205712 4288085770
11.110933 1.2624412 -1.8151348 4288085770
10.535276 1.303512 -1.8111882 4288085770
9.9986286 1.3413761 -1.8046482 4288085770
9.511961 1.3769729 -1.7986224 4288085770
9.0572987 1.4123986 -1.7929239 4288085770
8.6586094 1.4485288 -1.7907968 4288085770
15.245409 2.1392715 -1.8291173 4288085770
8.250946 1.4807006 -1.7835832 4288085770
14.397669 2.1618016 -1.8214204 4288085770
7.9252338 1.5174429 -1.7842014 4288085770
13.598967 2.1810632 -1.8092291 4288085770
7.6055298 1.5521508 -1.7828839 4288085770
12.868242 2.1999621 -1.7987335 4288085770
7.2968349 1.5847973 -1.7796819 4288085770
12.280497 2.2271044 -1.7956872 4288085770
7.0051346 1.6163528 -1.7766547 4288085770
11.714769 2.2531266 -1.790868 4288085770
6.7524223 1.6497025 -1.7760239 4288085770
11.232016 2.281709 -1.7898927 4288085770
6.5047131 1.6820241 -1.7744458 4288085770
10.777277 2.3111403 -1.788203 4288085770
6.2610264 1.7123203 -1.7699115 4288085770
10.289572 2.3297374 -1.7781913 4288085770
6.0463047 1.7444668 -1.7696707 4288085770
9.887846 2.3578827 -1.7750454 4288085770
5.8515835 1.7785077 -1.770632 4288085770
9.5321102 2.3887846 -1.7743654 4288085770
5.6488914 1.8085847 -1.7665169 4288085770
9.166399 2.4137332 -1.7685916 4288085770
5.4891529 1.843441 -1.7698345 4288085770
8.8466778 2.4434397 -1.7662816 4288085770
5.3094559 1.8743966 -1.7669537 4288085770
8.5509548 2.4730184 -1.7642171 4288085770
5.1387482 1.9043038 -1.7641661 4288085770
8.2532558 2.4986024 -1.7581378 4288085770
4.9890385 1.9371014 -1.7635893 4288085770
7.9925423 2.5299935 -1.7564285 4288085770
4.8263493 1.9659634 -1.758885 4288085770
7.7758217 2.566153 -1.7581619 4288085770
4.7196178 2.0045376 -1.7637393 4288085770
7.5251274 2.5934856 -1.7525605 4288085770
4.5719299 2.0323179 -1.7581899 4288085770
7.3224239 2.6285682 -1.7524389 4288085770
4.4582195 2.0669243 -1.7589784 4288085770
7.1287308 2.6625998 -1.7504107 4288085770
4.3495083 2.1015041 -1.7598181 4288085770
6.9490299 2.6985588 -1.7505229 4288085770
4.2617855 2.1399753 -1.7638668 4288085770
6.7903423 2.737406 -1.7508457 4288085770
4.1451054 2.1705911 -1.7596304 4288085770
6.6276474 2.7732728 -1.7501317 4288085770
4.047411 2.2051094 -1.7585827 4288085770
6.4709778 2.8091052 -1.7474794 4288085770
3.9737053 2.2445045 -1.7617732 4288085770
6.3472996 2.8517661 -1.7491547 4288085770
3.8780212 2.2770095 -1.7587489 4288085770
6.1996307 2.886549 -1.7455958 4288085770
3.7973347 2.3124368 -1.7578737 4288085770
6.0969524 2.9310992 -1.7484829 4288085770
3.7276402 2.3508079 -1.7591069 4288085770
5.9723015 2.969759 -1.7451537 4288085770
3.6249847 2.3783436 -1.751018 4288085770
5.8716354 3.0122957 -1.7460643 4288085770
3.5822868 2.4235754 -1.7565175 4288085770
5.7919807 3.0617228 -1.74918 4288085770
3.4986229 2.4540124 -1.7506188 4288085770
5.6943417 3.1042392 -1.7471212 4288085770
3.4529381 2.4962561 -1.7530916 4288085770
5.6246948 3.1536114 -1.7493392 4288085770
3.3852787 2.53161 -1.7493497 4288085770
5.5520687 3.201997 -1.7495281 4288085770
3.3376179 2.5738618 -1.7498025 4288085770
5.5014553 3.2572675 -1.7519321 4288085770
3.2819595 2.6111531 -1.7471803 4288085770
5.4448318 3.31057 -1.7542775 4288085770
3.2503071 2.657321 -1.7487912 4288085770
5.3852348 3.3608832 -1.7525966 4288085770
3.1946621 2.6936092 -1.7441707 4288085770
5.3536358 3.4210529 -1.7561878 4288085770
3.1650181 2.7387645 -1.7448032 4288085770
5.3090439 3.476289 -1.7566534 4288085770
3.1453686 2.7878697 -1.7475326 4288085770
5.2724667 3.5344822 -1.7571967 4288085770
3.1197319 2.8350036 -1.7482035 4288085770
5.2399025 3.593652 -1.7567794 4288085770
3.1200905 2.8910053 -1.7541277 4288085770
5.2223511 3.6587443 -1.7585075 4288085770
3.0914803 2.9361506 -1.7507707 4288085770
5.2037888 3.7218421 -1.7602277 4288085770
3.0668697 2.982275 -1.7484533 4288085770
5.204258 3.7928395 -1.7631311 4288085770
3.0652599 3.0382841 -1.7513572 4288085770
5.2067451 3.864825 -1.765054 4288085770
3.0716496 3.0962508 -1.75534 4288085770
5.1912231 3.9299026 -1.7638023 4288085770
3.0500622 3.143357 -1.7510519 4288085770
5.2067337 4.0068183 -1.765851 4288085770
3.0634708 3.2052865 -1.755101 4288085770
5.210247 4.0807958 -1.7657816 4288085770
3.0519047 3.2563388 -1.7509096 4288085770
5.2287788 4.1596937 -1.7668581 4288085770
3.0743313 3.3212202 -1.7550464 4288085770
5.2823448 4.2544107 -1.7732706 4288085770
3.085783 3.3831551 -1.755075 4288085770
5.331913 4.3481493 -1.7786434 4288085770
3.1002235 3.445075 -1.756134 4288085770
5.3775082 4.4409037 -1.7809768 4288085770
3.1386852 3.5188715 -1.7614219 4288085770
5.4361248 4.5395899 -1.7844348 4288085770
3.1561718 3.5837715 -1.7595078 4288085770
5.4967651 4.6412644 -1.7869093 4288085770
3.1856594 3.6546116 -1.7607081 4288085770
5.5454102 4.7379994 -1.7862682 4288085770
3.2241573 3.7294044 -1.7629946 4288085770
5.6140842 4.8436298 -1.7878189 4288085770
3.2726727 3.8091445 -1.7663765 4288085770
5.682785 4.9502568 -1.7873683 4288085770
3.3272133 3.8938529 -1.7698131 4288085770
5.7625122 5.064827 -1.7880192 4288085770
3.3737583 3.9736001 -1.7701745 4288085770
5.8482666 5.1813636 -1.7877285 4288085770
3.4303322 4.0602946 -1.7716289 4288085770
5.9580612 5.3117752 -1.7906642 4288085770
3.4899082 4.1479735 -1.7731121 4288085770
6.0899029 5.4550714 -1.7958064 4288085770
3.5635185 4.2435789 -1.7757275 4288085770
6.2257881 5.602344 -1.7989843 4288085770
3.6501484 4.3471169 -1.7804646 4288085770
6.3937244 5.7674499 -1.8064642 4288085770
3.7768211 4.4734502 -1.7925792 4288085770
6.5937271 5.9513884 -1.8172452 4288085770
3.8945141 4.5958271 -1.8016069 4288085770
6.8458405 6.167057 -1.8345137 4288085770
3.9862099 4.7043338 -1.8023884 4288085770
7.0939903 6.3817406 -1.8477423 4288085770
4.0799236 4.813827 -1.8021886 4288085770
7.3752327 6.6192513 -1.8642766 4288085770
4.1796741 4.928287 -1.8010437 4288085770
7.6364975 6.8478603 -1.8736191 4288085770
4.2794285 5.0417461 -1.7988999 4288085770
7.8697662 7.0616083 -1.874696 4288085770
4.3932323 5.1641297 -1.7968869 4288085770
8.1120796 7.2823067 -1.874855 4288085770
4.5380878 5.3063545 -1.8001628 4288085770
8.3854961 7.52384 -1.8763022 4288085770
4.6589355 5.4336972 -1.7962143 4288085770
8.6649647 7.7693372 -1.8748052 4288085770
4.8258686 5.5898042 -1.7996957 4288085770
9.024622 8.0664167 -1.8820539 4288085770
5.0248756 5.7667427 -1.8064752 4288085770
5.24193 5.9555879 -1.8154218 4288085770
5.5030956 6.1732016 -1.8287783 4288085770
5.7683029 6.3947921 -1.8401697 4288085770
6.0836391 6.6501203 -1.8570254 4288085770
6.3659649 6.8846121 -1.8635726 4288085770
6.6353054 7.111167 -1.8639979 4288085770
6.9307308 7.3545818 -1.8656652 4288085770
7.2612724 7.6218114 -1.8686569 4288085770
7.6620045 7.9366732 -1.8782973 4288085770
15.636641 -0.73901981 -1.897074 4288085770
14.489653 -0.76287371 -1.8875496 4288085770
13.425749 -0.78017896 -1.8738537 4288085770
12.559725 -0.79953247 -1.8721538 4288085770
11.698824 -0.81092352 -1.8624952 4288085770
10.942888 -0.82187361 -1.8568938 4288085770
10.23498 -0.830082 -1.8507726 4288085770
9.6110554 -0.83673805 -1.8474951 4288085770
9.0351238 -0.84265035 -1.8457007 4288085770
15.292101 -1.3642068 -1.9143403 4288085770
8.4862423 -0.84471101 -1.8411734 4288085770
14.184309 -1.3392603 -1.9121511 4288085770
7.9743614 -0.84597009 -1.837018 4288085770
13.101652 -1.3074627 -1.8992066 4288085770
7.5124607 -0.84749478 -1.8353667 4288085770
12.144953 -1.279336 -1.8905354 4288085770
7.0626068 -0.84508783 -1.8308313 4288085770
11.265287 -1.2496278 -1.878638 4288085770
6.6637115 -0.84495002 -1.8298123 4288085770
10.478575 -1.2234144 -1.8706813 4288085770
6.2708549 -0.84084707 -1.8268492 4288085770
9.8307514 -1.2049363 -1.8711326 4288085770
5.9199829 -0.83796829 -1.8253105 4288085770
9.2089825 -1.1826029 -1.8678417 4288085770
5.58811 -0.83419079 -1.8239622 4288085770
8.6441708 -1.1625724 -1.8671279 4288085770
5.295187 -0.8326171 -1.827009 4288085770
8.1243763 -1.1427848 -1.8658671 4288085770
4.9913368 -0.82699126 -1.8249404 4288085770
7.5837078 -1.1158965 -1.8553872 4288085770
4.7015076 -0.81944185 -1.8220105 4288085770
7.1488857 -1.0985632 -1.8559852 4288085770
4.4396343 -0.81403869 -1.822365 4288085770
6.6971664 -1.0751479 -1.8494058 4288085770
4.194767 -0.80772668 -1.8228898 4288085770
6.2734566 -1.0518844 -1.8421082 4288085770
3.9608974 -0.80147332 -1.8235254 4288085770
5.8907223 -1.0308392 -1.8362262 4288085770
3.7360325 -0.79426831 -1.8242505 4288085770
5.5489178 -1.0130072 -1.8357606 4288085770
3.5122185 -0.78507417 -1.8209836 4288085770
5.2221317 -0.99425656 -1.8344452 4288085770
3.3093605 -0.77698702 -1.8219292 4288085770
4.9163666 -0.97462147 -1.8313401 4288085770
3.1324539 -0.77103561 -1.826139 4288085770
4.6325703 -0.95710164 -1.8304589 4288085770
2.9236889 -0.75892562 -1.82002 4288085770
4.3677731 -0.93968362 -1.8297691 4288085770
2.7468414 -0.74997944 -1.8202267 4288085770
4.1159744 -0.92233509 -1.8292105 4288085770
2.5560703 -0.73796612 -1.8142891 4288085770
3.8701992 -0.90402168 -1.8267117 4288085770
2.3952274 -0.72810596 -1.8146555 4288085770
3.6473846 -0.88782746 -1.8274462 4288085770
2.2413788 -0.71928257 -1.815094 4288085770
3.4325905 -0.87067896 -1.8262603 4288085770
2.0925331 -0.70948607 -1.8155818 4288085770
3.2188225 -0.85253781 -1.8230839 4288085770
1.9497032 -0.69872373 -1.8151286 4288085770
2.9931297 -0.83033949 -1.8147821 4288085770
1.7999134 -0.68692738 -1.8116043 4288085770
2.8143139 -0.81538254 -1.8149614 4288085770
1.6660824 -0.67621285 -1.8112419 4288085770
2.6414967 -0.79945642 -1.8162003 4288085770
1.5591583 -0.66863257 -1.8191545 4288085770
2.4786758 -0.78358394 -1.8175395 4288085770
1.4393234 -0.65699166 -1.819932 4288085770
2.3069172 -0.76566988 -1.813786 4288085770
1.3175182 -0.6453442 -1.8176892 4288085770
2.1591072 -0.74987894 -1.8142767 4288085770
1.998373 -0.73102635 -1.8086331 4288085770
1.8754997 -0.71736306 -1.8143773 4288085770
1.726757 -0.69957465 -1.8088562 4288085770
1.5919895 -0.68185776 -1.8064754 4288085770
1.5010567 -0.67136043 -1.8165452 4288085770
1.38027 -0.65471691 -1.8153067 4288085770
1.2624855 -0.63909096 -1.8130999 4288085770
1.1560535 1.1988673 -1.7681005 4288085770
1.2532825 1.2123346 -1.7650456 4288085770
1.3704853 1.2287 -1.7661862 4288085770
1.5046616 1.2479793 -1.7714918 4288085770
1.600935 1.2584438 -1.7624309 4288085770
1.741127 1.2766881 -1.7657974 4288085770
1.880331 1.2929351 -1.7671561 4288085770
2.0155468 1.3082008 -1.7664764 4288085770
1.2008591 1.1865925 -1.7705352 4288085770
2.1697426 1.3253684 -1.7689826 4288085770
1.3210316 1.1989429 -1.7727101 4288085770
2.3129787 1.3405883 -1.7663825 4288085770
1.4382114 1.209307 -1.7728577 4288085770
2.4701939 1.3557355 -1.7659209 4288085770
1.5573978 1.219659 -1.7720253 4288085770
2.6503773 1.373765 -1.7696843 4288085770
1.6716022 1.2270336 -1.768147 4288085770
2.8215981 1.389837 -1.7693603 4288085770
1.8097782 1.2382859 -1.7695017 4288085770
2.9918365 1.4039102 -1.7660291 4288085770
1.9579315 1.249487 -1.7729559 4288085770
3.203022 1.4227738 -1.7710989 4288085770
2.1021042 1.2587057 -1.7733724 4288085770
3.4122391 1.4406428 -1.7721498 4288085770
2.2393093 1.2659568 -1.7697222 4288085770
3.6444168 1.4603949 -1.7784264 4288085770
2.3914852 1.2741311 -1.7692196 4288085770
3.8606472 1.475222 -1.7765503 4288085770
2.5726242 1.2861573 -1.7749999 4288085770
4.0888672 1.4899859 -1.7757933 4288085770
2.7388 1.2942562 -1.7746358 4288085770
4.3261089 1.5046988 -1.7731256 4288085770
2.9119701 1.3013176 -1.7743428 4288085770
4.5723476 1.5193634 -1.7705472 4288085770
3.1061249 1.3102701 -1.7772555 4288085770
4.8475647 1.5358758 -1.7712541 4288085770
3.2932987 1.3162546 -1.7761025 4288085770
5.1467781 1.5532604 -1.7731979 4288085770
3.5094357 1.3250899 -1.7802334 4288085770
5.4580059 1.5695779 -1.773262 4288085770
3.7206059 1.3319468 -1.7803171 4288085770
5.7822285 1.5858254 -1.7734551 4288085770
3.917799 1.3338721 -1.7752681 4288085770
6.1224594 1.6009855 -1.7728083 4288085770
4.144949 1.3376429 -1.7755144 4288085770
6.5076694 1.6189075 -1.775604 4288085770
4.3881054 1.3433278 -1.7759168 4288085770
6.904892 1.6357623 -1.7765203 4288085770
4.6432495 1.345948 -1.7764421 4288085770
7.334116 1.6524448 -1.7777538 4288085770
4.8984203 1.3475637 -1.7739685 4288085770
7.8023376 1.6709189 -1.7803717 4288085770
5.1885452 1.3509983 -1.7768393 4288085770
8.2955608 1.6872571 -1.7822406 4288085770
5.4926834 1.3523548 -1.7778518 4288085770
8.8587704 1.7082227 -1.7877975 4288085770
5.8028164 1.3516777 -1.7779262 4288085770
9.464983 1.7279557 -1.7927823 4288085770
6.1279545 1.3499184 -1.7771504 4288085770
10.112192 1.7464679 -1.7981751 4288085770
6.491066 1.3489587 -1.7797506 4288085770
10.835409 1.7675713 -1.8043184 4288085770
6.85919 1.3449681 -1.7794037 4288085770
