# .PCD v0.7 - Point Cloud Data file format
VERSION 0.7
FIELDS x y z rgb
SIZE 4 4 4 4
TYPE F F F U
COUNT 1 1 1 1
WIDTH 1126
HEIGHT 1
VIEWPOINT 0 0 0 1 0 0 0
POINTS 1126
DATA ascii
10.468639 -5.9678807 -1.6586478 4293729569
9.9841461 -5.8165851 -1.6575195 4293729569
9.3957901 -5.6049852 -1.6376134 4293729569
9.0771408 -5.520154 -1.6521682 4293729569
8.6755943 -5.3890834 -1.652898 4293729569
9.2341881 -5.6859231 -1.1637377 4293729569
8.3020325 -5.2670884 -1.6545767 4293729569
9.1562958 -5.7127862 -1.2158134 4293729569
7.9764214 -5.163229 -1.6611654 4293729569
9.1073647 -5.7537332 -1.2718302 4293729569
7.6757889 -5.0674386 -1.6697088 4293729569
9.0774269 -5.8027339 -1.3308104 4293729569
7.4061356 -4.9837341 -1.6801934 4293729569
9.0724564 -5.8628078 -1.3927413 4293729569
7.1314926 -4.893012 -1.6876938 4293729569
9.1074448 -5.9419932 -1.4605924 4293729569
6.8818283 -4.8113608 -1.698148 4293729569
10.005348 -6.4856448 -1.6426432 4293729569
6.6111946 -4.714643 -1.7006507 4293729569
9.4910278 -6.2692704 -1.6426398 4293729569
6.3935089 -4.6430802 -1.7130473 4293729569
8.9687347 -6.0418696 -1.6376613 4293729569
6.2617226 -4.6167693 -1.7412655 4293729569
8.5083771 -5.8406386 -1.6355633 4293729569
6.166893 -4.6075625 -1.7744105 4293729569
8.1379051 -5.683661 -1.6432827 4293729569
6.0980415 -4.6114345 -1.8135026 4288085770
7.7904129 -5.5357432 -1.6509585 4293729569
6.0152168 -4.6052661 -1.8506269 4288085770
7.4758911 -5.4009199 -1.6615717 4293729569
5.8724632 -4.5629168 -1.8718814 4288085770
7.163372 -5.2640953 -1.6681846 4293729569
5.6468201 -4.4693193 -1.8743173 4288085770
6.8938026 -5.1473918 -1.6797117 4293729569
5.4081993 -4.3646803 -1.8707856 4288085770
6.6322327 -5.0307093 -1.6892279 4293729569
5.1615868 -4.2530107 -1.8612739 4288085770
6.3786583 -4.9150438 -1.6967314 4293729569
4.9539413 -4.1594586 -1.8606849 4288085770
6.113102 -4.7893414 -1.7002647 4293729569
4.7512894 -4.0669146 -1.8570873 4288085770
5.8455505 -4.6596284 -1.6998056 4293729569
4.5696182 -3.9834323 -1.8574492 4288085770
5.6928635 -4.5932498 -1.7201055 4293729569
4.3869514 -3.8969445 -1.8558161 4288085770
5.6330566 -4.5811472 -1.7592063 4293729569
4.2272606 -3.8215232 -1.857137 4288085770
5.5942268 -4.5781059 -1.8032663 4288085770
4.0505943 -3.7340484 -1.8524969 4288085770
5.5653839 -4.5810933 -1.8483046 4288085770
3.896904 -3.6576409 -1.8528107 4288085770
5.4456711 -4.5258079 -1.8715445 4288085770
3.7492027 -3.5832467 -1.8511137 4288085770
5.212101 -4.4001794 -1.8660333 4288085770
3.6095047 -3.510879 -1.8524029 4288085770
4.9875298 -4.2765732 -1.8595071 4288085770
3.4747963 -3.4395204 -1.8506839 4288085770
4.7989082 -4.1730704 -1.8579049 4288085770
3.3460846 -3.3701787 -1.849954 4288085770
4.6182785 -4.0715885 -1.856289 4288085770
3.2083855 -3.2938066 -1.8442457 4288085770
4.4346619 -3.9660964 -1.8526827 4288085770
3.0946655 -3.2305079 -1.8454872 4288085770
4.2820053 -3.8776932 -1.8540113 4288085770
2.9819374 -3.1672091 -1.8447273 4288085770
4.1283493 -3.7872839 -1.8523438 4288085770
3.9707069 -3.6918612 -1.8486882 4288085770
3.8400269 -3.6125126 -1.8489757 4288085770
3.7013626 -3.5251422 -1.8462833 4288085770
3.5866623 -3.4518409 -1.8475397 4288085770
3.4579887 -3.368494 -1.8428284 4288085770
3.3512802 -3.2972131 -1.8430712 4288085770
3.2405815 -3.2229176 -1.8403232 4288085770
3.1328735 -3.1486282 -1.8365715 4288085770
3.0551376 -3.0914302 -1.8407559 4288085770
2.961422 -3.0241795 -1.8379756 4288085770
2.9494743 -0.96932793 -1.8050613 4288085770
3.0176277 -0.95150995 -1.8030032 4288085770
3.0937767 -0.93471599 -1.8029335 4288085770
3.1609268 -0.91589212 -1.7988784 4288085770
3.230072 -0.89807248 -1.7938193 4288085770
3.332222 -0.88435316 -1.7977124 4288085770
3.4033623 -0.86553597 -1.7906526 4288085770
3.5035095 -0.85080862 -1.7925501 4288085770
3.6026535 -0.83607531 -1.792449 4288085770
3.695797 -0.81932068 -1.7883586 4288085770
3.8059425 -0.80461645 -1.7882438 4288085770
3.9150887 -0.78890705 -1.786132 4288085770
2.9035759 -0.6252265 -1.7906574 4288085770
4.0392303 -0.77524161 -1.7869982 4288085770
3.0207253 -0.61455297 -1.7985276 4288085770
4.1753731 -0.76260972 -1.7888479 4288085770
3.1018639 -0.5987649 -1.7934513 4288085770
4.2995148 -0.74693847 -1.7857176 4288085770
3.1910057 -0.58299947 -1.7893649 4288085770
4.4496574 -0.73434353 -1.7875499 4288085770
3.3031464 -0.56930399 -1.7912464 4288085770
4.5817986 -0.71969199 -1.7834084 4288085770
3.4012909 -0.55456376 -1.7881473 4288085770
4.7369423 -0.70610714 -1.7832363 4288085770
3.5154305 -0.54187059 -1.7880254 4288085770
4.9070778 -0.6935637 -1.784044 4288085770
3.6465683 -0.52922654 -1.7908818 4288085770
5.0782166 -0.68002009 -1.7828519 4288085770
3.7737122 -0.5155673 -1.7907449 4288085770
5.2733574 -0.66854596 -1.7856269 4288085770
3.9058495 -0.50292015 -1.7896007 4288085770
5.4584961 -0.65503621 -1.7824178 4288085770
4.0259895 -0.48723412 -1.7834761 4288085770
5.6666374 -0.64159203 -1.78218 4288085770
4.1821289 -0.47565627 -1.7863004 4288085770
5.9077759 -0.63124108 -1.7858962 4288085770
4.3312683 -0.46205401 -1.7851366 4288085770
6.1429138 -0.61886811 -1.7856233 4288085770
4.4954109 -0.44849324 -1.7849541 4288085770
6.4000511 -0.60755539 -1.7863215 4288085770
4.6625481 -0.43593717 -1.7827667 4288085770
6.649189 -0.59421396 -1.7820331 4288085770
4.8496857 -0.42344022 -1.7845544 4288085770
6.924324 -0.58194423 -1.7797108 4288085770
5.0628319 -0.41201496 -1.7883078 4288085770
7.2364616 -0.57077527 -1.7793405 4288085770
5.2739716 -0.39958 -1.7890656 4288085770
7.5555916 -0.55862236 -1.7769636 4288085770
5.4711037 -0.38610053 -1.784843 4288085770
7.8967323 -0.54652619 -1.7735595 4288085770
5.7122459 -0.37374663 -1.7865636 4288085770
8.2588654 -0.53448534 -1.7701292 4288085770
5.9393845 -0.36034632 -1.7823038 4288085770
8.6349983 -0.52147722 -1.7636833 4288085770
6.2055244 -0.34805894 -1.7839936 4288085770
9.0811272 -0.51166201 -1.7621456 4288085770
6.4916611 -0.33682227 -1.7846572 4288085770
9.5642586 -0.50094509 -1.7605633 4288085770
6.8108025 -0.32567787 -1.78828 4288085770
10.133396 -0.4934659 -1.7658694 4288085770
7.1079407 -0.31246352 -1.7839335 4288085770
10.675522 -0.48189759 -1.759216 4288085770
7.4470787 -0.29936433 -1.7825352 4288085770
11.331657 -0.47264004 -1.7584171 4288085770
7.7952156 -0.28528214 -1.7761271 4288085770
12.009781 -0.46243238 -1.7515932 4288085770
8.1913528 -0.27333546 -1.7756566 4288085770
12.915916 -0.45785332 -1.7614766 4288085770
8.589489 -0.25938368 -1.7681869 4288085770
13.707043 -0.44493318 -1.7465177 4288085770
9.1036301 -0.24875855 -1.773568 4288085770
14.638165 -0.4353919 -1.7373799 4288085770
9.6447716 -0.2372005 -1.7759176 4288085770
15.679283 -0.42413545 -1.7231086 4288085770
10.150906 -0.22253227 -1.7663164 4288085770
16.930405 -0.41644406 -1.7145715 4288085770
10.823048 -0.21132374 -1.7705036 4288085770
11.505188 -0.1981318 -1.7676824 4288085770
12.265324 -0.18514752 -1.7657647 4288085770
13.158466 -0.17251897 -1.765682 4288085770
13.981598 -0.15767932 -1.748691 4288085770
15.021736 -0.14242649 -1.7394319 4288085770
16.170868 -0.1274581 -1.7270384 4288085770
17.583008 -0.11319304 -1.7193186 4288085770
17.860874 0.1019299 -1.7073637 4288085770
16.392006 0.11273813 -1.7167941 4288085770
15.197144 0.12282372 -1.7309602 4288085770
14.134285 0.13357043 -1.7420011 4288085770
13.266434 0.14479494 -1.7608563 4288085770
12.377563 0.15510082 -1.7647285 4288085770
11.585697 0.16615605 -1.7675095 4288085770
10.841831 0.17709184 -1.7672435 4288085770
16.731998 0.23485732 -1.7047569 4288085770
10.164959 0.18785477 -1.765913 4288085770
15.482147 0.24908876 -1.7169795 4288085770
9.5630913 0.19942188 -1.7645121 4288085770
14.423298 0.26381755 -1.7320207 4288085770
9.0642281 0.20970654 -1.7710105 4288085770
13.488453 0.27822852 -1.7439425 4288085770
8.5793686 0.22096181 -1.773497 4288085770
12.660603 0.29235935 -1.7567616 4288085770
8.1435013 0.23208761 -1.7769364 4288085770
11.841736 0.3044858 -1.7585675 4288085770
7.7476387 0.2431078 -1.7813371 4288085770
11.143879 0.31728864 -1.7652593 4288085770
7.3737717 0.25407577 -1.7827165 4288085770
10.408005 0.3292172 -1.7569846 4288085770
7.0309105 0.26595926 -1.7860682 4288085770
9.8581505 0.34263277 -1.7645363 4288085770
6.7090454 0.276788 -1.7893976 4288085770
9.287281 0.35412097 -1.7621037 4288085770
6.3911781 0.28861547 -1.7877245 4288085770
8.8244247 0.36731303 -1.7675716 4288085770
6.1153107 0.29932618 -1.7900096 4288085770
8.3755569 0.37947643 -1.7690237 4288085770
5.8164368 0.31011176 -1.7843162 4288085770
7.9867058 0.39247608 -1.7744205 4288085770
5.5635719 0.32076788 -1.7835791 4288085770
7.5818329 0.40353346 -1.7708285 4288085770
5.3277054 0.33237791 -1.7838273 4288085770
7.2229652 0.41546392 -1.7711942 4288085770
5.1008377 0.34296846 -1.7820648 4288085770
6.9141121 0.42825699 -1.775514 4288085770
4.8909721 0.35451078 -1.782288 4288085770
6.6282578 0.44198823 -1.7808137 4288085770
4.6911049 0.36602712 -1.7825013 4288085770
6.3303871 0.45376325 -1.7791209 4288085770
4.4972382 0.37653148 -1.7807072 4288085770
6.0935326 0.46636343 -1.7863718 4288085770
4.3223686 0.38798296 -1.7808969 4288085770
5.8246651 0.4780668 -1.7826509 4288085770
4.1425018 0.39945459 -1.7770908 4288085770
5.5787964 0.48970461 -1.781908 4288085770
3.9866409 0.41085446 -1.778262 4288085770
5.3269272 0.50136912 -1.7751706 4288085770
3.8397751 0.42223096 -1.7794245 4288085770
5.1330681 0.51386237 -1.7793802 4288085770
3.7039108 0.43457711 -1.7815784 4288085770
4.924202 0.52540791 -1.7766018 4288085770
3.5550423 0.44596612 -1.7787426 4288085770
4.7263336 0.53792429 -1.7738146 4288085770
3.4251785 0.45730174 -1.7778889 4288085770
4.5634804 0.55133712 -1.7779961 4288085770
3.3143196 0.46957719 -1.7830189 4288085770
4.391613 0.56278408 -1.7761822 4288085770
3.1924515 0.48189259 -1.7821591 4288085770
4.2247391 0.57521808 -1.7743654 4288085770
3.0565758 0.49225688 -1.7743087 4288085770
4.072876 0.58761132 -1.7735341 4288085770
2.96772 0.50547302 -1.7804195 4288085770
3.9380188 0.60095477 -1.7756888 4288085770
3.80616 0.6132921 -1.7768387 4288085770
3.6923065 0.62757719 -1.7809753 4288085770
3.5474319 0.63896108 -1.7751352 4288085770
3.4335709 0.65125334 -1.7752678 4288085770
3.3107033 0.66357458 -1.7724087 4288085770
3.2248573 0.67878115 -1.7795204 4288085770
3.1149902 0.69206858 -1.7766509 4288085770
3.0161285 0.70532393 -1.7757708 4288085770
2.9312782 0.71953499 -1.7788795 4288085770
2.9841309 2.9321361 -1.745331 4288085770
3.0833549 2.9788826 -1.7413366 4288085770
3.2096176 3.0385439 -1.745343 4288085770
3.3398819 3.098197 -1.7483461 4288085770
3.474144 3.1588411 -1.7503475 4288085770
3.637455 3.2333953 -1.76035 4288085770
3.8007545 3.3069549 -1.7673508 4288085770
3.9740677 3.3824887 -1.7743468 4288085770
4.1814232 3.4739189 -1.7893432 4288085770
2.9819336 2.8971088 -1.7453083 4288085770
4.3917732 3.5653472 -1.8013376 4288085770
3.1131783 2.9487572 -1.7492956 4288085770
4.612133 3.6587481 -1.8143269 4288085770
3.2333946 2.9924438 -1.7482778 4288085770
4.8334846 3.7501516 -1.8243121 4288085770
3.3706322 3.0430787 -1.7512583 4288085770
5.0598335 3.8415446 -1.833293 4288085770
3.5289001 3.1026516 -1.7582376 4288085770
5.1890297 3.8812401 -1.8152614 4288085770
3.6691284 3.1512828 -1.7592117 4288085770
5.3712883 3.9457757 -1.8092302 4288085770
3.8464088 3.2168007 -1.769186 4288085770
5.5926018 4.0261965 -1.8101956 4288085770
4.0126686 3.2733583 -1.7731533 4288085770
5.8609848 4.1274829 -1.8181597 4288085770
4.1909409 3.3348832 -1.7781196 4288085770
6.1123199 4.2168241 -1.8201163 4288085770
4.3932304 3.4043365 -1.7880802 4288085770
6.379673 4.3111238 -1.8220689 4288085770
4.6435928 3.4956439 -1.8090407 4288085770
6.637001 4.3974576 -1.8200154 4288085770
4.8348579 3.5551388 -1.8119925 4288085770
6.900322 4.4827776 -1.816955 4288085770
5.064167 3.6305218 -1.8219417 4288085770
7.1806564 4.5720534 -1.8138877 4288085770
5.2393837 3.676074 -1.8168817 4288085770
7.4479637 4.6523724 -1.805815 4288085770
5.3925667 3.7096946 -1.8058183 4288085770
7.7623215 4.7495604 -1.8027339 4288085770
5.6218452 3.7750893 -1.8097492 4288085770
8.0696602 4.8407726 -1.7966477 4288085770
5.8881683 3.8553748 -1.8206766 4288085770
8.4370575 4.9538155 -1.7975514 4288085770
6.1284409 3.918745 -1.8225948 4288085770
8.850502 5.0827312 -1.8024457 4288085770
6.3677101 3.9801216 -1.8225102 4288085770
9.3059883 5.2265334 -1.8103323 4288085770
6.619976 4.0424604 -1.8244166 4288085770
9.770462 5.3663173 -1.8152039 4288085770
6.8672256 4.0998225 -1.8213181 4288085770
10.323021 5.5378566 -1.8290602 4288085770
7.1244774 4.1571569 -1.819211 4288085770
11.026745 5.7669754 -1.8578956 4288085770
7.3406639 4.1936159 -1.8071002 4288085770
11.670372 5.9622769 -1.8727198 4288085770
7.5938911 4.2419701 -1.7999803 4288085770
12.254898 6.1237564 -1.8745315 4288085770
7.8601265 4.2932873 -1.7948549 4288085770
12.831394 6.2752638 -1.8723317 4288085770
8.1513786 4.3505344 -1.7917194 4288085770
13.470943 6.4446049 -1.8721123 4288085770
8.4786644 4.4186802 -1.793574 4288085770
14.065407 6.5860801 -1.8628794 4288085770
8.8429718 4.4957256 -1.7974139 4288085770
14.675869 6.7265191 -1.8506312 4288085770
9.2172775 4.5717449 -1.8012434 4288085770
15.541584 6.9572558 -1.8603357 4288085770
9.5925674 4.642766 -1.8030633 4288085770
16.310154 7.1382737 -1.8540301 4288085770
9.994873 4.7187176 -1.8048694 4288085770
17.089695 7.3112721 -1.8437008 4288085770
10.493259 4.8233976 -1.8186482 4288085770
17.912258 7.4891648 -1.8303444 4288085770
11.090736 4.9578009 -1.8423988 4288085770
11.701202 5.0881734 -1.8651311 4288085770
12.18652 5.1679077 -1.8678751 4288085770
12.69083 5.245595 -1.8695992 4288085770
13.147072 5.3014221 -1.8633237 4288085770
13.612301 5.3532271 -1.8570323 4288085770
14.057495 5.3910942 -1.8447326 4288085770
14.476646 5.4140377 -1.8284272 4288085770
14.987865 5.4597244 -1.8210866 4288085770
15.612167 5.533102 -1.8227025 4288085770
16.127346 5.5657868 -1.8113346 4288085770
16.700554 5.6063147 -1.8039325 4288085770
17.395836 5.6735082 -1.8054775 4288085770
17.578854 -3.6720409 -1.7299496 4288085770
17.018909 -3.6926155 -1.7393777 4288085770
16.449993 -3.7031641 -1.7468324 4288085770
15.851105 -3.6996245 -1.7493384 4288085770
15.254234 -3.6890864 -1.7498559 4288085770
14.656387 -3.6695409 -1.7483915 4288085770
14.130527 -3.6561933 -1.7518554 4288085770
13.665646 -3.6530099 -1.7592486 4288085770
13.170799 -3.6347399 -1.7616957 4288085770
12.69096 -3.6135058 -1.7631359 4288085770
12.236118 -3.5933433 -1.7675531 4288085770
11.835266 -3.5793238 -1.7739136 4288085770
11.45541 -3.5663629 -1.7822546 4288085770
11.050583 -3.541327 -1.7856393 4288085770
17.585812 -5.4081426 -1.750631 4288085770
10.679745 -3.5203829 -1.7909878 4288085770
16.814178 -5.3101778 -1.7634602 4288085770
10.321911 -3.4964728 -1.7963312 4288085770
16.006596 -5.1891022 -1.7673635 4288085770
9.9680901 -3.4695706 -1.8006769 4288085770
15.227013 -5.0670953 -1.7692455 4288085770
9.6332664 -3.4437184 -1.8050051 4288085770
14.559376 -4.9693899 -1.7769876 4288085770
9.2934532 -3.4128509 -1.8083464 4288085770
13.908749 -4.8677254 -1.7837229 4288085770
8.9666405 -3.3800154 -1.8106811 4288085770
13.241146 -4.7530041 -1.7834977 4288085770
8.6548309 -3.3492208 -1.8139991 4288085770
12.603539 -4.6393561 -1.7812452 4288085770
8.3480263 -3.3144364 -1.8163208 4288085770
12.041901 -4.5419164 -1.7848986 4288085770
8.0502243 -3.2786713 -1.8166368 4288085770
11.559216 -4.4636884 -1.7924495 4288085770
7.7684212 -3.2439537 -1.8199372 4288085770
11.082535 -4.3814754 -1.8000031 4288085770
7.4866219 -3.2062311 -1.8202436 4288085770
10.641846 -4.3033562 -1.8075191 4288085770
7.2168236 -3.1685381 -1.82054 4288085770
10.203163 -4.2222328 -1.8110387 4288085770
6.9540291 -3.1308665 -1.8218304 4288085770
9.788475 -4.1431756 -1.8155349 4288085770
6.7052307 -3.0922279 -1.8221112 4288085770
9.4067688 -4.0702047 -1.8209921 4288085770
6.4854202 -3.0606723 -1.8263544 4288085770
9.0250778 -3.992229 -1.8244586 4288085770
6.2286453 -3.0140047 -1.8216571 4288085770
8.6593781 -3.9152913 -1.82591 4288085770
6.0238304 -2.9834876 -1.8258857 4288085770
8.3176727 -3.84342 -1.8293318 4288085770
5.8060341 -2.9449315 -1.8271406 4288085770
7.9789772 -3.7675495 -1.8297586 4288085770
5.6052322 -2.9094195 -1.8283756 4288085770
7.658268 -3.6947255 -1.8301648 4288085770
5.3984375 -2.8698883 -1.827623 4288085770
7.345562 -3.6209207 -1.8295662 4288085770
5.1986465 -2.8293743 -1.8268667 4288085770
7.048851 -3.5491581 -1.8289505 4288085770
5.010849 -2.791894 -1.8270948 4288085770
6.7741241 -3.4834566 -1.8313048 4288085770
4.8410378 -2.7584658 -1.8303 4288085770
6.5083961 -3.4177732 -1.8306518 4288085770
4.6662407 -2.7210193 -1.8305172 4288085770
6.2466736 -3.3501 -1.8299992 4288085770
4.4934425 -2.6825747 -1.8297344 4288085770
6.0119362 -3.290504 -1.8333088 4288085770
4.320652 -2.6411276 -1.8269577 4288085770
5.7752037 -3.2268934 -1.8316277 4288085770
4.1608543 -2.6037197 -1.8271624 4288085770
5.5554581 -3.1683335 -1.8329229 4288085770
4.0160484 -2.5703545 -1.8293469 4288085770
5.3377228 -3.1067734 -1.8322223 4288085770
3.8552628 -2.5269332 -1.824564 4288085770
5.1269836 -3.0462303 -1.830514 4288085770
3.7224464 -2.4956017 -1.8277347 4288085770
4.9252357 -2.98771 -1.8287941 4288085770
3.5756569 -2.4552202 -1.8249344 4288085770
4.746479 -2.935257 -1.8310438 4288085770
3.4558411 -2.4249239 -1.8290924 4288085770
4.5707207 -2.8828077 -1.831291 4288085770
3.3260384 -2.3885894 -1.8272704 4288085770
4.3959656 -2.8283567 -1.8295412 4288085770
3.2012367 -2.3522716 -1.8274443 4288085770
4.2282066 -2.7749281 -1.8297838 4288085770
3.0694389 -2.3129258 -1.8226297 4288085770
4.0664444 -2.7215095 -1.8270214 4288085770
2.9536362 -2.2776294 -1.8217942 4288085770
3.9216728 -2.6751418 -1.8282313 4288085770
3.76791 -2.6217437 -1.8254623 4288085770
3.6331329 -2.5764003 -1.8256621 4288085770
3.5043564 -2.5320749 -1.8268551 4288085770
3.3655891 -2.4807129 -1.8230698 4288085770
3.2577934 -2.4434485 -1.8282317 4288085770
3.1340218 -2.3961282 -1.8254265 4288085770
2.9982605 -2.3417645 -1.8166447 4288085770
2.9004631 -2.3045244 -1.8207984 4288085770
2.9681396 -0.16198254 -1.7814074 4288085770
3.0732727 -0.15025568 -1.7813598 4288085770
3.1824112 -0.13853836 -1.7813096 4288085770
3.2965469 -0.12683439 -1.7812558 4288085770
3.3976784 -0.11408448 -1.7752137 4288085770
3.5268135 -0.10242295 -1.7771494 4288085770
3.6609497 -0.090772152 -1.7780818 4288085770
3.7810822 -0.079072952 -1.7730244 4288085770
3.9472198 -0.068514347 -1.778932 4288085770
3.000412 -0.013092279 -1.7817301 4288085770
4.0783539 -0.055841208 -1.772869 4288085770
3.1085396 -0.0023684502 -1.7796788 4288085770
4.2274818 -0.045219898 -1.7697891 4288085770
3.2436752 0.007273674 -1.7836065 4288085770
4.4186211 -0.034725666 -1.7756792 4288085770
3.3608055 0.017976522 -1.7805494 4288085770
4.5917511 -0.023169994 -1.7745848 4288085770
3.4819298 0.027671099 -1.7764875 4288085770
4.8008881 -0.012719393 -1.7794625 4288085770
3.6290627 0.03728652 -1.7784071 4288085770
4.9750175 -0.0011558533 -1.7733676 4288085770
3.7781944 0.046899557 -1.7793254 4288085770
5.2041512 0.0092453957 -1.7772318 4288085770
3.9183235 0.056545734 -1.7752506 4288085770
5.4402924 0.020631313 -1.7800932 4288085770
4.0874557 0.066102982 -1.778155 4288085770
5.6884232 0.030990839 -1.7809441 4288085770
4.2755852 0.075609446 -1.782046 4288085770
5.9585571 0.041287661 -1.7847799 4288085770
4.4607162 0.084130049 -1.7829373 4288085770
6.2346916 0.052577496 -1.7846137 4288085770
4.6388435 0.093677282 -1.7798363 4288085770
6.5438232 0.062776566 -1.7874222 4288085770
4.8639717 0.10208488 -1.7856997 4288085770
6.8589554 0.072966814 -1.787227 4288085770
5.0831032 0.11151886 -1.7865697 4288085770
7.2080956 0.084065437 -1.78901 4288085770
5.297226 0.11897349 -1.7834395 4288085770
7.5382195 0.094232321 -1.781805 4288085770
5.5373535 0.12735605 -1.7832932 4288085770
7.9133492 0.1042757 -1.7785685 4288085770
5.7984772 0.13568234 -1.7841324 4288085770
8.305481 0.11428165 -1.7723204 4288085770
6.0776062 0.14296269 -1.7849572 4288085770
8.7566071 0.1241281 -1.770031 4288085770
6.3907356 0.15114975 -1.7887599 4288085770
9.2357368 0.13390541 -1.7667223 4288085770
6.7058601 0.15833831 -1.78956 4288085770
9.8038673 0.14444447 -1.7683533 4288085770
7.0349808 0.1654973 -1.7873504 4288085770
10.352993 0.15405369 -1.7599967 4288085770
7.3871078 0.17259765 -1.785125 4288085770
11.060127 0.16323113 -1.7645288 4288085770
7.7632256 0.17863655 -1.7828811 4288085770
11.814262 0.17329669 -1.765031 4288085770
8.1613464 0.18562555 -1.7776244 4288085770
12.633392 0.18220258 -1.7624862 4288085770
8.6194649 0.19045091 -1.7773218 4288085770
13.451515 0.19113421 -1.7489434 4288085770
9.1105843 0.1961956 -1.7749984 4288085770
14.373631 0.19980669 -1.7323284 4288085770
9.601696 0.20095587 -1.7656738 4288085770
15.43475 0.20711946 -1.7176149 4288085770
10.228817 0.20534039 -1.7692542 4288085770
16.687874 0.21493483 -1.70577 4288085770
10.91293 0.20858359 -1.7707933 4288085770
11.657047 0.21167827 -1.7702913 4288085770
12.40115 0.21279144 -1.7607862 4288085770
13.30426 0.21348166 -1.7591707 4288085770
14.158352 0.21133757 -1.7385845 4288085770
15.268444 0.20951128 -1.7308224 4288085770
16.464531 0.20448256 -1.7149957 4288085770
16.908421 0.44133878 -1.7093335 4288085770
15.645599 0.47142732 -1.7149025 4288085770
14.69178 0.50272834 -1.7323538 4288085770
13.770954 0.52996409 -1.7427821 4288085770
13.031128 0.55773664 -1.7611411 4288085770
12.183289 0.57982838 -1.7565271 4288085770
11.463444 0.60159373 -1.7568626 4288085770
10.796593 0.62123799 -1.7531723 4288085770
16.953335 0.9042412 -1.7024862 4288085770
10.229748 0.6416204 -1.7564446 4288085770
15.779484 0.9191097 -1.7079806 4288085770
9.6898956 0.65994763 -1.7547011 4288085770
14.915646 0.94117665 -1.7303727 4288085770
9.2120476 0.67911577 -1.7559354 4288085770
14.047791 0.95827913 -1.7417536 4288085770
8.7741966 0.69818568 -1.757154 4288085770
13.297951 0.97808695 -1.7550951 4288085770
8.3783493 0.71714747 -1.7603557 4288085770
12.639103 0.9976666 -1.7704009 4288085770
8.005497 0.73505759 -1.7615457 4288085770
11.809216 1.0027363 -1.7557364 4288085770
7.5906296 0.74909878 -1.7507423 4288085770
11.142345 1.0143824 -1.7510248 4288085770
7.2527771 0.76493001 -1.7489135 4288085770
10.531471 1.0238905 -1.7462865 4288085770
7.0159378 0.78647971 -1.7610598 4288085770
10.016609 1.0381515 -1.7465224 4288085770
6.7100754 0.80123913 -1.7562156 4288085770
9.5307426 1.0503459 -1.7447418 4288085770
6.4632263 0.81883478 -1.7593558 4288085770
9.0798759 1.063454 -1.7429498 4288085770
6.212368 0.83544719 -1.7594949 4288085770
8.7130241 1.0793371 -1.7491322 4288085770
5.9845123 0.85200083 -1.7606249 4288085770
8.3421669 1.0942442 -1.7493135 4288085770
5.8056679 0.87241507 -1.7697455 4288085770
7.9993019 1.1080801 -1.7504814 4288085770
5.5978127 0.88892186 -1.7698674 4288085770
7.6294212 1.1170058 -1.7416476 4288085770
5.4079628 0.90538204 -1.7709824 4288085770
7.3945847 1.1375529 -1.7527901 4288085770
5.2281075 0.92181754 -1.7720933 4288085770
7.1897469 1.1600193 -1.7669258 4288085770
5.0572548 0.93923342 -1.7722031 4288085770
6.9639015 1.179556 -1.7730623 4288085770
4.8933945 0.95462966 -1.7733052 4288085770
6.7400475 1.1970901 -1.7781929 4288085770
4.7155342 0.96907675 -1.7674103 4288085770
6.4471664 1.2048339 -1.7663261 4288085770
4.5566788 0.98446763 -1.7655103 4288085770
6.1742897 1.2125281 -1.7544512 4288085770
4.4338264 1.0027562 -1.7696036 4288085770
5.9764328 1.2280102 -1.7545667 4288085770
4.312973 1.0200421 -1.7726938 4288085770
5.8185883 1.2483774 -1.7616788 4288085770
4.1921196 1.0373328 -1.7737838 4288085770
5.6507339 1.2657788 -1.7647873 4288085770
4.0472565 1.050701 -1.7668732 4288085770
5.4798775 1.2821944 -1.7648945 4288085770
3.918396 1.0650207 -1.7639589 4288085770
5.3230286 1.2995735 -1.7659987 4288085770
3.817543 1.0832574 -1.7670435 4288085770
5.1691704 1.3159473 -1.7660992 4288085770
3.7076874 1.0995281 -1.7651267 4288085770
5.0133133 1.3303307 -1.7641956 4288085770
3.6158371 1.1177448 -1.7672077 4288085770
4.8864632 1.3496337 -1.7662928 4288085770
3.5329895 1.136935 -1.7712877 4288085770
4.7466049 1.3649802 -1.7633855 4288085770
3.4351349 1.1531761 -1.7693659 4288085770
4.6157417 1.3803 -1.7624744 4288085770
3.3472824 1.170388 -1.769443 4288085770
4.5028954 1.3995708 -1.7635661 4288085770
3.2584267 1.1876068 -1.7675203 4288085770
4.3920479 1.4178369 -1.7646546 4288085770
3.1985855 1.2087334 -1.7745961 4288085770
4.2731857 1.4331341 -1.7607388 4288085770
3.1087265 1.2239619 -1.7696689 4288085770
4.1743355 1.4513705 -1.7618228 4288085770
3.0388756 1.2431273 -1.7707436 4288085770
4.0594788 1.4666629 -1.7559054 4288085770
2.9690285 1.2612948 -1.770816 4288085770
3.9686279 1.4848797 -1.7569861 4288085770
3.8927879 1.507055 -1.7600707 4288085770
3.8049355 1.5252715 -1.7581502 4288085770
3.7140808 1.5424976 -1.7552284 4288085770
3.6452408 1.5646582 -1.7573103 4288085770
3.5753975 1.5848258 -1.7573878 4288085770
3.5135536 1.6069691 -1.7594671 4288085770
3.4166832 1.6192265 -1.7495353 4288085770
3.3658447 1.6423404 -1.7526126 4288085770
3.2939911 1.6605222 -1.748686 4288085770
3.2561684 1.6875997 -1.7537682 4288085770
3.1813087 1.7037961 -1.7468376 4288085770
3.1604958 1.7348223 -1.755923 4288085770
3.0916328 1.751004 -1.7489903 4288085770
3.0618057 1.7790616 -1.754072 4288085770
3.0159683 1.802175 -1.7521476 4288085770
2.9821396 1.8282497 -1.7542257 4288085770
2.9443016 1.8533387 -1.7543031 4288085770
2.9104729 1.8794181 -1.7543815 4288085770
2.9415054 3.0192902 -1.7352223 4288085770
3.0027695 3.0831249 -1.7403589 4288085770
3.0540161 3.1409965 -1.7404847 4288085770
3.1172791 3.206831 -1.7436255 4288085770
3.1715317 3.2666976 -1.7427555 4288085770
3.2558212 3.3424714 -1.7499135 4288085770
3.3431206 3.4212403 -1.7560779 4288085770
3.4274139 3.4980214 -1.7602386 4288085770
3.5387497 3.5897222 -1.7704265 4288085770
3.6530876 3.6834154 -1.7806181 4288085770
3.7574043 3.7701478 -1.7847967 4288085770
3.8607216 3.8568873 -1.7869756 4288085770
4.0211258 3.9784493 -1.8052197 4288085770
4.1354523 4.0691643 -1.8064052 4288085770
4.2497826 4.1598821 -1.8065906 4288085770
2.9269981 3.4162238 -1.7562422 4288085770
4.3781281 4.258563 -1.8077906 4288085770
3.0282936 3.4939609 -1.7614 4288085770
4.5084724 4.3562417 -1.8079879 4288085770
3.125576 3.5667152 -1.7635473 4288085770
4.6558418 4.4658747 -1.8102086 4288085770
3.2659302 3.6673357 -1.7777474 4288085770
4.8132172 4.5784798 -1.8134331 4288085770
3.3712234 3.7440758 -1.7779021 4288085770
4.9675903 4.6891026 -1.8126543 4288085770
3.502552 3.835732 -1.7860841 4288085770
5.1490059 4.8146472 -1.8169028 4288085770
3.6338806 3.926399 -1.7902641 4288085770
5.3344231 4.9421892 -1.8181551 4288085770
3.7792244 4.0250239 -1.7974588 4288085770
5.5238419 5.0707245 -1.8184085 4288085770
3.9315796 4.1266322 -1.8046585 4288085770
5.7553215 5.2241402 -1.8257086 4288085770
4.083931 4.2262473 -1.8088537 4288085770
6.0138435 5.393487 -1.8340386 4288085770
4.2322655 4.3208799 -1.8100384 4288085770
6.2643471 5.5548611 -1.8393524 4288085770
4.3946266 4.4244761 -1.8122405 4288085770
6.5038185 5.7072811 -1.8366483 4288085770
4.57901 4.5390081 -1.8184617 4288085770
6.7783508 5.8796048 -1.8389814 4288085770
4.7413559 4.6376162 -1.815652 4288085770
7.064888 6.0569005 -1.8403227 4288085770
4.9217262 4.7451715 -1.8168583 4288085770
7.3574219 6.2351894 -1.8386649 4288085770
5.1301308 4.8686504 -1.8210943 4288085770
7.6739922 6.4254174 -1.8380286 4288085770
5.3515549 4.9980974 -1.8253406 4288085770
8.0356255 6.6415286 -1.8404405 4288085770
5.5509338 5.1106138 -1.8235534 4288085770
8.4643555 6.8964567 -1.8509251 4288085770
5.8144073 5.260951 -1.8308371 4288085770
8.8780479 7.1364431 -1.8523788 4288085770
6.0959015 5.4202385 -1.8411367 4288085770
9.3698463 7.4232206 -1.8619205 4288085770
6.3503418 5.5586152 -1.841395 4288085770
9.8856812 7.719945 -1.8694795 4288085770
6.6137886 5.6989727 -1.8406554 4288085770
10.418518 8.0206366 -1.8730433 4288085770
6.9162865 5.8602257 -1.8439542 4288085770
7.193737 6.0015559 -1.8402134 4288085770
7.516243 6.16677 -1.8395159 4288085770
7.8477554 6.3339591 -1.8398209 4288085770
8.2183151 6.520052 -1.8411595 4288085770
8.6709862 6.750917 -1.8535804 4288085770
9.0986099 6.9618654 -1.8569617 4288085770
9.5622673 7.1877217 -1.862368 4288085770
10.072971 7.4334612 -1.8688082 4288085770
10.679806 7.7309418 -1.8853433 4288085770
11.290627 8.0224304 -1.8948636 4288085770
17.713509 -1.6320119 -1.713915 4288085770
16.93951 -1.6741567 -1.7210405 4288085770
16.209518 -1.7134137 -1.7301599 4288085770
15.526543 -1.7467799 -1.7372798 4288085770
14.923573 -1.7803493 -1.7483758 4288085770
14.24963 -1.7997222 -1.7495269 4288085770
13.721668 -1.8274765 -1.7616147 4288085770
13.257702 -1.8573947 -1.7776783 4288085770
12.705769 -1.8710718 -1.7818074 4288085770
12.189857 -1.8818355 -1.7859328 4288085770
11.666954 -1.8845725 -1.78608 4288085770
11.133064 -1.8792653 -1.77925 4288085770
17.097843 -2.8185678 -1.7212011 4288085770
10.693165 -1.8812089 -1.7813747 4288085770
16.234032 -2.7845068 -1.7325382 4288085770
10.272266 -1.8832002 -1.7844936 4288085770
15.408234 -2.7455282 -1.7398763 4288085770
9.8593826 -1.8802066 -1.7856224 4288085770
14.54847 -2.6924472 -1.7392586 4288085770
9.4924812 -1.8813314 -1.7897273 4288085770
13.895641 -2.6659021 -1.7525153 4288085770
9.111599 -1.874413 -1.7898561 4288085770
13.260818 -2.633389 -1.7607814 4288085770
8.7927055 -1.8746624 -1.7969491 4288085770
12.630013 -2.5948772 -1.7660608 4288085770
8.4398346 -1.8648067 -1.795077 4288085770
12.009228 -2.5513787 -1.7663494 4288085770
8.1199532 -1.857038 -1.7961899 4288085770
11.440426 -2.5110078 -1.7676154 4288085770
7.816082 -1.8483081 -1.7973007 4288085770
10.930618 -2.4757895 -1.7728511 4288085770
7.5292091 -1.8406229 -1.7994035 4288085770
10.44381 -2.4406247 -1.7770802 4288085770
7.251339 -1.8299584 -1.8015114 4288085770
10.004997 -2.4075785 -1.7822899 4288085770
6.9814682 -1.8183117 -1.802619 4288085770
9.5771828 -2.3735566 -1.7864989 4288085770
6.7296028 -1.8077106 -1.8047189 4288085770
9.1673737 -2.3395739 -1.7887022 4288085770
6.4717407 -1.7920856 -1.802833 4288085770
8.7935524 -2.307682 -1.7928901 4288085770
6.242878 -1.7815428 -1.8059258 4288085770
8.4107475 -2.2707601 -1.7930927 4288085770
6.0140152 -1.7669954 -1.8070288 4288085770
8.0869217 -2.2419925 -1.7982584 4288085770
5.8191414 -1.7585402 -1.8121066 4288085770
7.7411156 -2.2051563 -1.7974502 4288085770
5.5842934 -1.7379627 -1.8072261 4288085770
7.4422913 -2.1764469 -1.8016081 4288085770
5.40942 -1.7295618 -1.8142978 4288085770
7.1414833 -2.1427178 -1.8027811 4288085770
5.1855888 -1.7059984 -1.8074229 4288085770
6.8556709 -2.1100307 -1.8029441 4288085770
5.0117264 -1.6935916 -1.8115036 4288085770
6.6098366 -2.084455 -1.8090781 4288085770
4.8288689 -1.6771502 -1.8105968 4288085770
6.3580132 -2.0548511 -1.8102237 4288085770
4.6919937 -1.669848 -1.8206545 4288085770
6.0912056 -2.0182023 -1.8073912 4288085770
4.4941559 -1.6453536 -1.8127719 4288085770
5.8723755 -1.9916873 -1.8115197 4288085770
4.3253098 -1.6259441 -1.8108685 4288085770
5.6545525 -1.9631696 -1.813653 4288085770
4.168457 -1.6085687 -1.8109566 4288085770
5.424736 -1.9296088 -1.8108021 4288085770
4.0265999 -1.5932367 -1.8140354 4288085770
5.2109184 -1.8970914 -1.8089441 4288085770
3.8907394 -1.5789196 -1.8171101 4288085770
5.0160904 -1.8686261 -1.8100705 4288085770
3.7478905 -1.5595758 -1.8161991 4288085770
4.82827 -1.8401761 -1.810195 4288085770
3.598053 -1.5372045 -1.8112974 4288085770
4.6514397 -1.8127546 -1.8113139 4288085770
3.4831886 -1.5239432 -1.8163636 4288085770
4.4816132 -1.7843504 -1.8124332 4288085770
3.3643341 -1.5076652 -1.8184382 4288085770
4.3067932 -1.7539239 -1.8095589 4288085770
3.2524757 -1.4924061 -1.8215082 4288085770
4.1539612 -1.727561 -1.8106681 4288085770
3.1656113 -1.4832253 -1.8315561 4288085770
4.0061302 -1.7022123 -1.8127736 4288085770
3.0607529 -1.4679854 -1.8356239 4288085770
3.8572998 -1.6748538 -1.8118844 4288085770
3.7154694 -1.6475124 -1.8109928 4288085770
3.5886307 -1.6242175 -1.8140873 4288085770
3.4588013 -1.5979052 -1.81319 4288085770
3.3329659 -1.5716045 -1.8132915 4288085770
3.2391167 -1.5544019 -1.8213613 4288085770
3.1472702 -1.5362036 -1.8294331 4288085770
3.0414314 -1.5129571 -1.8315215 4288085770
2.9500961 0.42698979 -1.7736323 4288085770
3.0722389 0.44068193 -1.7776394 4288085770
3.1903763 0.45239174 -1.7786423 4288085770
3.3005066 0.46413147 -1.7756474 4288085770
3.4316444 0.4768101 -1.7766497 4288085770
3.553772 0.4885205 -1.773652 4288085770
3.7029152 0.50115347 -1.77565 4288085770
3.8490486 0.51379883 -1.775649 4288085770
2.9860306 0.48585904 -1.7797887 4288085770
3.9981766 0.52543974 -1.7746445 4288085770
3.1001549 0.49558663 -1.7777876 4288085770
4.1683159 0.53902245 -1.7766399 4288085770
3.2152786 0.50431395 -1.7747837 4288085770
4.3364487 0.55061495 -1.776631 4288085770
3.3624115 0.51394141 -1.7807747 4288085770
4.5185852 0.56317163 -1.7776212 4288085770
3.4855347 0.52265239 -1.776769 4288085770
4.7067223 0.57571626 -1.7776101 4288085770
3.6326637 0.53129041 -1.7787573 4288085770
4.8948517 0.58726859 -1.7745963 4288085770
3.7767906 0.53994071 -1.7787467 4288085770
5.1139908 0.59973383 -1.7765776 4288085770
3.9439201 0.549528 -1.7817329 4288085770
5.3501282 0.61315548 -1.7795573 4288085770
4.1020432 0.55714726 -1.7807164 4288085770
5.5782623 0.62460959 -1.7775341 4288085770
4.269165 0.56474483 -1.7796975 4288085770
5.8374023 0.63797879 -1.7795082 4288085770
4.4552956 0.57328928 -1.7816767 4288085770
6.0945358 0.64936316 -1.7774781 4288085770
4.6684227 0.58275867 -1.7876519 4288085770
6.3066521 0.6568923 -1.7614489 4288085770
4.8425446 0.5883553 -1.7806265 4288085770
6.6047859 0.66917598 -1.7604111 4288085770
5.0486641 0.5948571 -1.7805959 4288085770
6.9139175 0.68043578 -1.7583685 4288085770
5.2827873 0.6022861 -1.7825609 4288085770
7.2380524 0.69166744 -1.7533224 4288085770
5.5279121 0.60968685 -1.7855234 4288085770
7.6191902 0.70474434 -1.7552673 4288085770
5.7590294 0.61514163 -1.7804843 4288085770
8.0853348 0.72159398 -1.766202 4288085770
6.0061455 0.61955321 -1.7774386 4288085770
8.4754639 0.73167276 -1.7591372 4288085770
6.2552528 0.62296736 -1.7713901 4288085770
8.9175949 0.7426194 -1.7550626 4288085770
6.5373688 0.62729466 -1.7683363 4288085770
9.4047279 0.75346053 -1.749977 4288085770
6.8174782 0.62963736 -1.7612779 4288085770
9.9628677 0.76611578 -1.7508798 4288085770
7.1475906 0.63284731 -1.7592099 4288085770
10.592003 0.77959824 -1.7527676 4288085770
7.4977074 0.63600922 -1.7571371 4288085770
11.302151 0.79488146 -1.7566413 4288085770
7.9468269 0.64190018 -1.7680479 4288085770
12.132298 0.81186116 -1.7664908 4288085770
8.3529358 0.64293027 -1.7649566 4288085770
12.996445 0.82677782 -1.7693274 4288085770
8.7850418 0.64289856 -1.7618567 4288085770
13.742558 0.83104289 -1.7471647 4288085770
9.2951508 0.6436671 -1.7637402 4288085770
14.733692 0.8426789 -1.7409635 4288085770
9.8302536 0.64238024 -1.7636129 4288085770
15.692806 0.8464359 -1.7177496 4288085770
10.400352 0.63901544 -1.761472 4288085770
16.958939 0.85741794 -1.7094821 4288085770
11.02145 0.63453329 -1.7573161 4288085770
11.766548 0.63073051 -1.7621331 4288085770
12.617641 0.62566376 -1.7709221 4288085770
13.364719 0.61290348 -1.7577159 4288085770
14.202785 0.59693038 -1.7424802 4288085770
15.179844 0.57861149 -1.7322057 4288085770
16.249901 0.55707741 -1.7189016 4288085770
17.58395 0.53288758 -1.7145287 4288085770
9.117836 -5.9332309 -0.39037549 4293729569
9.1384811 -5.9766574 -1.0222926 4293729569
9.10709 -5.8483005 -0.43055594 4293729569
9.108757 -5.8826776 -1.0574833 4293729569
9.1303062 -5.7814326 -0.46871406 4293729569
9.1110001 -5.8047671 -1.0946552 4293729569
9.1934891 -5.7336459 -0.50785047 4293729569
9.1412163 -5.7399135 -1.1328123 4293729569
9.1844177 -5.6820874 -1.1719609 4293729569
9.322525 -5.668467 -1.2190603 4293729569
13.124802 -7.4969563 -1.6609713 4293729569
12.785461 -7.2152934 -1.6634176 4293729569
12.453106 -6.9426389 -1.6638476 4293729569
12.169693 -6.697084 -1.6652429 4293729569
11.919247 -6.4706006 -1.6686133 4293729569
11.708755 -6.2651954 -1.6729575 4293729569
10.721371 -5.6735044 -0.87975484 4293729569
11.466286 -6.0477176 -1.6723125 4293729569
10.685688 -5.5604887 -0.9029851 4293729569
10.683327 -5.5940175 -1.6009127 4293729569
10.729931 -5.4836378 -0.93017662 4293729569
10.713585 -5.5081367 -1.6271169 4293729569
10.762829 -5.4312963 -1.6543109 4293729569
10.81208 -5.3524542 -1.6805094 4293729569
10.74543 -5.2243466 -1.6897576 4293729569
10.61684 -5.071094 -1.6890297 4293729569
10.516216 -4.9329009 -1.6902831 4293729569
10.637405 -4.8832068 -1.7194542 4288085770
11.09832 -4.9632835 -1.7935126 4288085770
11.255493 -4.9206648 -1.8246868 4282675967
11.190845 -4.7935429 -1.8259343 4282675967
11.10622 -4.6583686 -1.8211895 4282675967
11.012589 -4.5241742 -1.815438 4288085770
10.962929 -4.4050722 -1.8126758 4288085770
10.942253 -4.2960358 -1.8129063 4288085770
10.919571 -4.1869898 -1.8111358 4288085770
10.890896 -4.0779295 -1.8083624 4288085770
18.282585 -6.3064208 -1.7622112 4288085770
10.899193 -3.9799495 -1.8085834 4288085770
18.21204 -6.1302724 -1.7565647 4288085770
10.928474 -3.8890128 -1.8097998 4288085770
18.253418 -5.990356 -1.7568954 4288085770
10.921783 -3.7889943 -1.806018 4288085770
18.237839 -5.8343167 -1.7522329 4288085770
10.951065 -3.6980515 -1.8042346 4288085770
18.294216 -5.6974244 -1.7495649 4288085770
10.976357 -3.6060982 -1.8014513 4288085770
10.995647 -3.5121284 -1.7966696 4288085770
11.050919 -3.4282365 -1.7948842 4288085770
11.127178 -3.3493905 -1.7950983 4288085770
11.185455 -3.2654982 -1.7903146 4288085770
11.276707 -3.1896806 -1.79053 4288085770
11.358971 -3.1108384 -1.7867475 4288085770
11.472218 -3.0380626 -1.7859676 4288085770
11.558483 -2.9572229 -1.7801918 4288085770
11.682735 -2.8844643 -1.7774175 4288085770
11.815987 -2.8117242 -1.7746482 4288085770
11.983223 -2.7460575 -1.7748806 4288085770
12.194443 -2.6864843 -1.7781222 4288085770
12.395676 -2.6218843 -1.7783697 4288085770
12.647892 -2.5653934 -1.7826258 4288085770
12.880119 -2.5018549 -1.7828873 4288085770
13.136349 -2.4393635 -1.783159 4288085770
13.439564 -2.3829727 -1.7874413 4288085770
13.700809 -2.3134804 -1.7827313 4288085770
13.91407 -2.2358794 -1.7720147 4288085770
14.167332 -2.1613598 -1.7623119 4288085770
14.540558 -2.0991011 -1.7636439 4288085770
14.926846 -2.0358615 -1.7629875 4288085770
15.387066 -1.9757762 -1.7663593 4288085770
15.744331 -1.8984575 -1.7557166 4288085770
16.157585 -1.8252554 -1.7480935 4288085770
16.679825 -1.7572789 -1.7455151 4288085770
17.19508 -1.6822824 -1.7399489 4288085770
17.757343 -1.6053724 -1.7324114 4288085770
17.460819 0.86405313 -1.7159257 4288085770
16.45002 0.91597378 -1.7234851 4288085770
15.56921 0.96564007 -1.7331117 4288085770
14.861408 1.0169578 -1.7498392 4288085770
14.154587 1.0612917 -1.7585504 4288085770
13.522766 1.1044815 -1.767301 4288085770
13.018955 1.1524023 -1.7861341 4288085770
12.402122 1.1865908 -1.7828715 4288085770
11.767288 1.21483 -1.7725843 4288085770
11.230446 1.2438695 -1.767354 4288085770
17.852726 1.8553405 -1.6995201 4288085770
10.74361 1.2728105 -1.7631516 4288085770
16.938866 1.8800735 -1.7070687 4288085770
10.287769 1.300694 -1.7579637 4288085770
16.134014 1.9055948 -1.71568 4288085770
9.9359283 1.3333547 -1.7628455 4288085770
15.45517 1.9358672 -1.7273734 4288085770
9.5220871 1.3571668 -1.7536716 4288085770
14.926338 1.9768331 -1.7471763 4288085770
9.1932449 1.3867924 -1.754559 4288085770
14.507523 2.0265694 -1.7750615 4288085770
8.8904037 1.4163682 -1.7554611 4288085770
13.984676 2.0575442 -1.7858438 4288085770
8.5995598 1.4449209 -1.7563671 4288085770
13.393818 2.0776772 -1.784562 4288085770
8.3557243 1.477374 -1.7613088 4288085770
12.974983 2.1134481 -1.7974139 4288085770
8.0918846 1.5038816 -1.7592252 4288085770
12.481129 2.1343951 -1.7961884 4288085770
7.8240356 1.5274038 -1.7541323 4288085770
11.858238 2.1306379 -1.7738317 4288085770
7.578186 1.5508839 -1.7490516 4288085770
11.349365 2.1386411 -1.7605668 4288085770
7.384346 1.5802457 -1.752014 4288085770
10.928501 2.1554594 -1.7543721 4288085770
7.2675209 1.6214291 -1.7680477 4288085770
10.531639 2.1712337 -1.7471886 4288085770
7.1316833 1.6586632 -1.7780614 4288085770
10.190784 2.192889 -1.7450503 4288085770
7.0198631 1.697844 -1.7910932 4288085770
9.9029388 2.2194333 -1.7469535 4288085770
6.8690224 1.7291231 -1.7940843 4288085770
9.6270905 2.2449594 -1.746861 4288085770
6.6971779 1.7554539 -1.7920517 4288085770
9.3492432 2.2674956 -1.7437602 4288085770
6.3822937 1.7521333 -1.7578682 4288085770
9.085392 2.2900054 -1.7406672 4288085770
6.225441 1.7764379 -1.7548391 4288085770
8.8785439 2.3213897 -1.744627 4288085770
6.075592 1.801731 -1.7508163 4288085770
8.6497002 2.3468301 -1.7425605 4288085770
5.9947662 1.8408592 -1.7608654 4288085770
8.4448547 2.3742218 -1.7415122 4288085770
5.9069328 1.8760079 -1.7679011 4288085770
8.2670174 2.405555 -1.7434884 4288085770
5.8030968 1.9071989 -1.7699183 4288085770
8.0881729 2.4338965 -1.7424569 4288085770
5.7322693 1.9463125 -1.7779728 4288085770
7.9393463 2.4691718 -1.7454587 4288085770
5.6204262 1.9735281 -1.7759759 4288085770
7.7975082 2.5024359 -1.7474598 4288085770
5.5255928 2.0047066 -1.7759984 4288085770
7.6746826 2.5406587 -1.7514836 4288085770
5.4397545 2.0368629 -1.778028 4288085770
7.5748672 2.5838308 -1.7585316 4288085770
5.3449173 2.0670457 -1.7760477 4288085770
7.467041 2.6240225 -1.7635683 4288085770
5.2620811 2.098201 -1.7760767 4288085770
7.388237 2.6711514 -1.7716377 4288085770
5.1682434 2.1263866 -1.7720923 4288085770
7.3024216 2.714299 -1.7776939 4288085770
5.0824051 2.1555548 -1.7691149 4288085770
7.2346115 2.7634094 -1.7847742 4288085770
5.016571 2.1896749 -1.7701603 4288085770
7.1227837 2.798625 -1.7827967 4288085770
4.9197273 2.2138782 -1.7611648 4288085770
7.0439682 2.8417659 -1.7858567 4288085770
4.8769073 2.2529473 -1.7652352 4288085770
6.9561501 2.8819308 -1.7859046 4288085770
4.7970619 2.2801085 -1.7602564 4288085770
6.8713303 2.9220924 -1.7849542 4288085770
4.7712517 2.3251379 -1.7673504 4288085770
6.7875099 2.9612522 -1.7840019 4288085770
4.7044144 2.355274 -1.7623858 4288085770
6.7176971 3.0053825 -1.7840692 4288085770
4.6836014 2.4012942 -1.7694851 4288085770
6.6678925 3.0544679 -1.7871599 4288085770
4.6347733 2.4363914 -1.7665427 4288085770
6.6100845 3.1005754 -1.7872388 4288085770
4.5889511 2.4724779 -1.7656043 4288085770
6.5862961 3.1576037 -1.793363 4288085770
4.5301094 2.5026035 -1.7586442 4288085770
6.5565033 3.2136483 -1.7974813 4288085770
4.5052948 2.5466425 -1.7607367 4288085770
6.5377121 3.2726696 -1.8026133 4288085770
4.4754791 2.5866966 -1.7608168 4288085770
6.5159264 3.3307014 -1.8057411 4288085770
4.4656754 2.6347024 -1.764927 4288085770
6.5061493 3.3927054 -1.8108851 4288085770
4.412838 2.6658187 -1.7569729 4288085770
6.5023766 3.4577005 -1.8150396 4288085770
4.4050331 2.7138233 -1.7600845 4288085770
6.4945984 3.5207052 -1.8181872 4288085770
4.3902245 2.7598481 -1.7601874 4288085770
6.4978294 3.5886846 -1.8233529 4288085770
4.3824196 2.8088574 -1.7613014 4288085770
6.4860497 3.6507063 -1.8224962 4288085770
4.3716164 2.8558745 -1.7614088 4288085770
6.4782753 3.7137179 -1.8226436 4288085770
4.3668098 2.9048805 -1.7615246 4288085770
6.4785004 3.7797127 -1.8238031 4288085770
4.3680077 2.9568727 -1.7626506 4288085770
6.4697227 3.8427336 -1.8209503 4288085770
4.3932343 3.0198071 -1.7688165 4288085770
6.4649544 3.9077468 -1.8181045 4288085770
4.3934364 3.0728059 -1.7679446 4288085770
6.4661903 3.9747486 -1.815267 4288085770
4.3986435 3.1267927 -1.7680779 4288085770
6.4794273 4.0477228 -1.8144505 4288085770
4.4408836 3.1986902 -1.776275 4288085770
6.4986763 4.1226883 -1.8126423 4288085770
4.4781151 3.2686017 -1.7824645 4288085770
6.5229301 4.2006435 -1.8108441 4288085770
4.4973335 3.3295615 -1.7826225 4288085770
6.5581932 4.2845736 -1.8110663 4288085770
4.5505829 3.4084358 -1.7918425 4288085770
6.6044693 4.3754816 -1.8113115 4288085770
4.6078415 3.4903045 -1.8000718 4288085770
6.6577492 4.4683752 -1.8125654 4288085770
4.6751022 3.5771518 -1.809319 4288085770
6.7270432 4.5702362 -1.8148499 4288085770
4.7193527 3.6530595 -1.811527 4288085770
6.7813301 4.6641369 -1.812107 4288085770
4.78862 3.7419057 -1.8197801 4288085770
6.8506317 4.7680044 -1.8113964 4288085770
4.8288651 3.8158281 -1.8189812 4288085770
6.913929 4.867888 -1.8086729 4288085770
4.8791199 3.8947289 -1.8191999 4288085770
7.0012474 4.9807205 -1.8079941 4288085770
4.9343834 3.9776206 -1.8194311 4288085770
7.0975761 5.099535 -1.8083348 4288085770
5.0046577 4.0684762 -1.8226899 4288085770
7.2139282 5.2303076 -1.8097154 4288085770
5.0769386 4.1613331 -1.8239547 4288085770
7.3392982 5.3670645 -1.8111156 4288085770
5.1251945 4.240252 -1.8181728 4288085770
7.4796753 5.5127869 -1.8145458 4288085770
5.164444 4.3131952 -1.8093715 4288085770
7.6150513 5.6575289 -1.8139708 4288085770
5.2467308 4.4120359 -1.8096564 4288085770
7.7554436 5.8052664 -1.8114063 4288085770
5.3370361 4.5158629 -1.8089579 4288085770
7.9528885 5.987874 -1.8179569 4288085770
5.4483566 4.6316385 -1.8132999 4288085770
8.1843719 6.191412 -1.8265775 4288085770
5.5476685 4.7414513 -1.8116211 4288085770
8.4088554 6.3929729 -1.8311893 4288085770
5.6890259 4.8771648 -1.818028 4288085770
8.6403503 6.5995226 -1.8348174 4288085770
5.8564186 5.02882 -1.828488 4288085770
8.9179039 6.8369761 -1.8425456 4288085770
5.9947777 5.1635513 -1.8298911 4288085770
9.2074661 7.0824132 -1.8472998 4288085770
6.1741829 5.3251905 -1.837382 4288085770
9.5240746 7.3477969 -1.8531173 4288085770
6.3225517 5.46591 -1.8358054 4288085770
9.8817291 7.6390953 -1.8620205 4288085770
6.4939575 5.6225786 -1.8372804 4288085770
10.245396 7.9363928 -1.8669415 4288085770
6.6803741 5.7882166 -1.8397853 4288085770
6.8848152 5.9658232 -1.8413293 4288085770
7.1092758 6.1563864 -1.844916 4288085770
7.3247299 6.3419785 -1.8434855 4288085770
7.5742302 6.5495 -1.8451273 4288085770
7.8357315 6.763 -1.8457907 4288085770
8.1773453 7.0323219 -1.8576332 4288085770
8.4949303 7.2857156 -1.8584244 4288085770
8.8575668 7.5680151 -1.8633106 4288085770
9.2662621 7.8822203 -1.8712997 4288085770
17.620926 -0.81160688 -1.713812 4288085770
16.541954 -0.84659481 -1.7200421 4288085770
15.630989 -0.87991381 -1.7323836 4288085770
14.792034 -0.90736079 -1.7417846 4288085770
14.005085 -0.93090153 -1.749228 4288085770
13.283146 -0.95056486 -1.7567219 4288085770
12.506237 -0.95909333 -1.7512062 4288085770
11.89431 -0.97295928 -1.756784 4288085770
11.302399 -0.98286033 -1.7613835 4288085770
17.501492 -1.5124228 -1.7181295 4288085770
10.762478 -0.99185705 -1.7650183 4288085770
16.409618 -1.4954014 -1.7304717 4288085770
10.256569 -0.99791765 -1.768682 4288085770
15.400753 -1.4745271 -1.7388761 4288085770
9.7826614 -1.0020368 -1.7713704 4288085770
14.545872 -1.4609571 -1.7533619 4288085770
9.3367577 -1.0042057 -1.7730814 4288085770
13.735996 -1.44346 -1.7628857 4288085770
8.9168587 -1.0054238 -1.774811 4288085770
12.981133 -1.4240592 -1.7694491 4288085770
8.5439568 -1.0067377 -1.7795706 4288085770
12.187298 -1.3945541 -1.7630106 4288085770
8.1730614 -1.006048 -1.7813362 4288085770
11.554432 -1.3753788 -1.7676516 4288085770
7.8351631 -1.0054259 -1.7851226 4288085770
10.937576 -1.3532281 -1.7703093 4288085770
7.5102692 -1.0028255 -1.787922 4288085770
10.383713 -1.3341994 -1.7740002 4288085770
7.1973801 -0.99824286 -1.7887336 4288085770
9.9088402 -1.3183286 -1.7817346 4288085770
6.9104881 -0.99571657 -1.7925569 4288085770
9.4179802 -1.2974133 -1.7834702 4288085770
6.612606 -0.98815513 -1.7903849 4288085770
8.9861145 -1.279614 -1.7872363 4288085770
6.3647156 -0.98370218 -1.7942379 4288085770
8.5562592 -1.2578063 -1.7860129 4288085770
6.0978355 -0.97519922 -1.792088 4288085770
8.1813927 -1.2401147 -1.7898154 4288085770
5.870945 -0.97078633 -1.7959542 4288085770
7.8105354 -1.2204254 -1.7916249 4288085770
5.647068 -0.96337366 -1.7978294 4288085770
7.4676743 -1.2017868 -1.79245 4288085770
5.4431725 -0.95800614 -1.8027126 4288085770
7.1438103 -1.1831861 -1.7942871 4288085770
5.2163048 -0.94657612 -1.7995951 4288085770
6.8399506 -1.1646209 -1.7951369 4288085770
5.0004311 -0.93516469 -1.7954845 4288085770
6.5450935 -1.1450701 -1.7949948 4288085770
