# .PCD v0.7 - Point Cloud Data file format
VERSION 0.7
FIELDS x y z rgb
SIZE 4 4 4 4
TYPE F F F U
COUNT 1 1 1 1
WIDTH 1101
HEIGHT 1
VIEWPOINT 0 0 0 1 0 0 0
POINTS 1101
DATA ascii
-0.53453064 5.5233083 -1.6765798 4288085770
2.7844086 7.5099578 -1.6651515 4288085770
-0.38833618 5.6652322 -1.6746033 4288085770
2.9458008 7.6796803 -1.6430486 4288085770
-0.20019531 5.8332009 -1.6787771 4288085770
3.2900085 7.9635663 -1.6445946 4288085770
-0.017028809 5.9991317 -1.6789225 4288085770
3.5983124 8.2283564 -1.6349803 4288085770
0.18913269 6.1790743 -1.6811532 4288085770
0.40031433 6.3629861 -1.6803933 4288085770
0.65447998 6.5769324 -1.6847547 4288085770
0.88970947 6.7778168 -1.6820611 4288085770
1.1239777 6.9766622 -1.675378 4288085770
1.4041901 7.2085409 -1.6738156 4288085770
1.6904602 7.442379 -1.6682922 4288085770
1.888855 7.6160793 -1.6455082 4288085770
2.2620697 7.9079461 -1.646257 4288085770
2.6013641 8.1757374 -1.6379138 4288085770
11.129715 -0.42480135 -1.8302172 4288085770
10.13269 -0.46731997 -1.8399693 4288085770
9.026886 -0.49302197 -1.8264996 4288085770
8.1299591 -0.52067995 -1.826075 4288085770
7.2890625 -0.54337311 -1.8241447 4288085770
6.5800781 -0.56504774 -1.8294843 4288085770
5.8482208 -0.57882357 -1.8235232 4288085770
5.1713562 -0.58960438 -1.8190662 4288085770
4.5794525 -0.60139322 -1.8174428 4288085770
10.933304 -1.0985522 -1.854936 4288085770
4.032547 -0.61018562 -1.8172265 4288085770
9.8233337 -1.0850897 -1.8580426 4288085770
3.5216522 -0.61699867 -1.8163396 4288085770
8.753479 -1.0637164 -1.8534592 4288085770
3.04776 -0.62182236 -1.8157922 4288085770
7.818573 -1.0453753 -1.8512148 4288085770
2.6088562 -0.62565613 -1.815574 4288085770
6.9447021 -1.0250812 -1.846542 4288085770
2.1819763 -0.62751436 -1.8134531 4288085770
6.1478271 -1.0048099 -1.8426164 4288085770
1.8120575 -0.63035011 -1.8158942 4288085770
5.4219666 -0.9845686 -1.8383795 4288085770
1.4361877 -0.62922382 -1.8142384 4288085770
4.7760773 -0.96734142 -1.8359476 4288085770
1.0793152 -0.6271224 -1.8107573 4288085770
4.1762085 -0.94814014 -1.8329426 4288085770
0.76541138 -0.62599421 -1.8117026 4288085770
3.6063538 -0.92795563 -1.8292187 4288085770
0.45950317 -0.62286901 -1.8127056 4288085770
3.1144409 -0.91176558 -1.8292903 4288085770
0.18559265 -0.6217432 -1.815039 4288085770
2.6355896 -0.89360952 -1.8264686 4288085770
-0.10127258 -0.61567307 -1.8111976 4288085770
2.1996918 -0.87645626 -1.8250736 4288085770
-0.33221436 -0.61452103 -1.8179473 4288085770
1.7947998 -0.85930204 -1.8249789 4288085770
-0.60005188 -0.60646582 -1.8132707 4288085770
1.4039459 -0.84118176 -1.8220111 4288085770
-0.81898499 -0.60234737 -1.8171076 4288085770
1.0361023 -0.8230772 -1.818266 4288085770
-1.0319061 -0.59724998 -1.8189932 4288085770
0.70219421 -0.80595398 -1.8178605 4288085770
-1.248764 -0.5901804 -1.8178207 4288085770
0.39430237 -0.79082918 -1.8187264 4288085770
-1.476593 -0.58015728 -1.8115121 4288085770
0.10740662 -0.77471018 -1.8197864 4288085770
-1.6634979 -0.57306814 -1.8136305 4288085770
-0.17944336 -0.75763083 -1.816837 4288085770
-1.843399 -0.56600046 -1.8138162 4288085770
-0.42637634 -0.74350309 -1.820304 4288085770
-2.0232697 -0.55693245 -1.8139828 4288085770
-0.67524719 -0.72641563 -1.819723 4288085770
-2.2011414 -0.54689503 -1.8111593 4288085770
-0.91213989 -0.71033144 -1.8192679 4288085770
-2.3739777 -0.53686857 -1.8073844 4288085770
-1.1150665 -0.69721794 -1.8231717 4288085770
-2.5468292 -0.52485228 -1.8025895 4288085770
-1.3628693 -0.67620945 -1.8145617 4288085770
-2.6937103 -0.5157938 -1.8030761 4288085770
-1.5587463 -0.66113806 -1.8145143 4288085770
-2.851532 -0.50379229 -1.7974273 4288085770
-1.7586365 -0.64407396 -1.8134083 4288085770
-2.9854279 -0.49372816 -1.7990302 4288085770
-1.9444885 -0.62801409 -1.8124481 4288085770
-3.1173096 -0.48368502 -1.7986525 4288085770
-2.1243439 -0.61096668 -1.8105365 4288085770
-3.2312317 -0.47560692 -1.8024687 4288085770
-2.2971954 -0.59394073 -1.806693 4288085770
-3.3521118 -0.46556759 -1.8021978 4288085770
-2.4560852 -0.57787991 -1.8069943 4288085770
-3.470993 -0.45352793 -1.8019267 4288085770
-2.6199341 -0.56085587 -1.8032378 4288085770
-2.7787628 -0.5428443 -1.7985202 4288085770
-2.9116516 -0.52778101 -1.8000838 4288085770
-3.059494 -0.51078272 -1.7944828 4288085770
-3.175415 -0.49670553 -1.7982208 4288085770
-3.2902985 -0.48264742 -1.7999686 4288085770
-3.4201508 -0.46464396 -1.7955326 4288085770
-3.5180664 -0.45156193 -1.8004547 4288085770
-3.1516571 1.4459105 -1.7484096 4288085770
-3.0245514 1.4618945 -1.7484635 4288085770
-2.879425 1.4798989 -1.7506696 4288085770
-2.7362976 1.4968929 -1.7518667 4288085770
-2.628067 1.5067644 -1.7408003 4288085770
-2.5278168 1.5135946 -1.7256881 4288085770
-2.3627014 1.5305991 -1.7280961 4288085770
-2.1586761 1.5546851 -1.7388059 4288085770
-3.0907745 1.4168959 -1.7512637 4288085770
-1.973587 1.5737 -1.7423848 4288085770
-2.9506683 1.4289007 -1.7534829 4288085770
-1.7625122 1.5947456 -1.7491928 4288085770
-2.8025665 1.4409151 -1.7567788 4288085770
-1.5943298 1.606658 -1.7426809 4288085770
-2.675415 1.4478483 -1.7519244 4288085770
-1.4191437 1.6195807 -1.7372259 4288085770
-2.5531921 1.4527512 -1.7440435 4288085770
-1.2299652 1.6325035 -1.7319053 4288085770
-2.4190063 1.4586735 -1.7382668 4288085770
-0.92900085 1.662662 -1.7504834 4288085770
-2.2658691 1.4656382 -1.7366616 4288085770
-0.67289734 1.6836772 -1.7547227 4288085770
-2.0817871 1.477653 -1.7403024 4288085770
-0.43974304 1.6976209 -1.7518135 4288085770
-1.8926697 1.4886689 -1.7440013 4288085770
-0.17462158 1.7155943 -1.7521697 4288085770
-1.6956024 1.4986839 -1.7477869 4288085770
0.092544556 1.7315383 -1.7495662 4288085770
-1.5024719 1.5056586 -1.7475652 4288085770
0.37768555 1.7474923 -1.7481347 4288085770
-1.3392334 1.5075412 -1.7381076 4288085770
0.69482422 1.7654672 -1.7489897 4288085770
-1.0822144 1.5216289 -1.7494272 4288085770
1.0069733 1.7804008 -1.7458273 4288085770
-0.8052063 1.535737 -1.7629381 4288085770
1.3441315 1.7963448 -1.7438945 4288085770
-0.58404541 1.5406804 -1.7600054 4288085770
1.7192841 1.8143096 -1.7443053 4288085770
-0.35986328 1.5426044 -1.7551318 4288085770
2.1194153 1.8322635 -1.7439557 4288085770
-0.10173035 1.5475798 -1.7555534 4288085770
2.5335693 1.8481979 -1.7417606 4288085770
0.15542603 1.5495248 -1.7529958 4288085770
2.9707489 1.8631225 -1.7387968 4288085770
0.43855286 1.5524902 -1.7526776 4288085770
3.4678802 1.8820872 -1.7403666 4288085770
0.73370361 1.5544558 -1.7524842 4288085770
3.9620819 1.8959818 -1.7349592 4288085770
1.0448456 1.5544105 -1.7514647 4288085770
4.5252228 1.9139266 -1.7351719 4288085770
1.3869629 1.556397 -1.7537214 4288085770
5.1953125 1.9379344 -1.7423488 4288085770
1.7520905 1.5573735 -1.7552091 4288085770
5.9433899 1.9629407 -1.7502629 4288085770
2.1242371 1.5543289 -1.7548045 4288085770
6.7734222 1.9919896 -1.7629217 4288085770
2.5323486 1.5523057 -1.7567347 4288085770
7.5536346 2.006865 -1.7582453 4288085770
2.963501 1.5472522 -1.755916 4288085770
8.4567719 2.0257916 -1.7597069 4288085770
3.4056549 1.5391884 -1.7542332 4288085770
9.4799347 2.0457096 -1.7613081 4288085770
3.8628387 1.5281043 -1.7507249 4288085770
10.495163 2.0585446 -1.7549042 4288085770
4.3610077 1.5170202 -1.7476095 4288085770
11.683365 2.0734024 -1.752138 4288085770
4.9231567 1.5039682 -1.7481273 4288085770
5.6201782 1.4970393 -1.7618769 4288085770
6.3452454 1.4850707 -1.7719461 4288085770
7.0623779 1.4650087 -1.7730204 4288085770
7.7516022 1.4348569 -1.7649289 4288085770
8.7476044 1.4159403 -1.7826658 4288085770
9.6997223 1.3838921 -1.787114 4288085770
10.568008 1.3386903 -1.7758907 4288085770
11.685135 1.2946129 -1.7790424 4288085770
2.5733185 -7.4504657 -1.784032 4293729569
2.1524353 -7.1414533 -1.7808629 4293729569
1.7895508 -6.8714185 -1.7806443 4293729569
1.4546356 -6.6203713 -1.7818865 4293729569
1.1487427 -6.3863454 -1.7815787 4293729569
0.87382507 -6.1732945 -1.7837807 4293729569
0.56100464 -5.9313502 -1.7753261 4293729569
0.28218079 -5.7133927 -1.7684408 4293729569
0.0652771 -5.5363507 -1.7705635 4293729569
-0.13764954 -5.3672976 -1.7739006 4293729569
3.1274719 -7.4375052 -1.7880801 4293729569
-0.33155823 -5.2042632 -1.7753855 4293729569
2.7386169 -7.1305032 -1.7842389 4293729569
-0.53239441 -5.0362916 -1.770754 4293729569
2.4326935 -6.8784461 -1.7867483 4293729569
-0.70629883 -4.8852782 -1.770552 4293729569
2.1247864 -6.6254106 -1.7872292 4293729569
-0.85420227 -4.7512307 -1.7737712 4293729569
1.7999725 -6.3624663 -1.778448 4293729569
-1.0000916 -4.6192164 -1.7740301 4293729569
1.5231171 -6.1304774 -1.7744392 4293729569
-1.1399841 -4.4892001 -1.7743667 4293729569
1.2892303 -5.9284682 -1.7731458 4293729569
-1.2748566 -4.362206 -1.7727822 4293729569
1.0543671 -5.7254682 -1.7708334 4293729569
-1.3967285 -4.2451978 -1.7724231 4293729569
0.84648132 -5.5404668 -1.7689615 4293729569
-1.4826965 -4.1491189 -1.7796201 4293729569
0.67358398 -5.3774333 -1.7706469 4293729569
-1.6244812 -4.0182052 -1.7699295 4293729569
0.50967407 -5.2203984 -1.7724792 4293729569
-1.6475525 -3.960999 -1.7901226 4293729569
0.36776733 -5.077353 -1.775664 4293729569
-1.5888214 -3.9545941 -1.8306135 4293729569
0.19493103 -4.9163909 -1.7703713 4293729569
-1.429306 -4.0089402 -1.8966845 4288085770
0.057037354 -4.7763848 -1.7696255 4293729569
-1.3575897 -4.0045152 -1.9393188 4288085770
-0.093795776 -4.6304212 -1.7646955 4293729569
-1.4574432 -3.8965487 -1.9352621 4288085770
-0.18173218 -4.5213513 -1.7707409 4293729569
-1.5452728 -3.7945809 -1.9313811 4288085770
-0.28263855 -4.4043345 -1.7715818 4293729569
-1.6321106 -3.6936336 -1.9255196 4288085770
-0.38552856 -4.2873273 -1.7714041 4293729569
-1.7468567 -3.5777707 -1.9112405 4288085770
-0.48538208 -4.1733508 -1.7682859 4293729569
-1.8256836 -3.4838328 -1.9045268 4288085770
-0.5592804 -4.0733323 -1.7695571 4293729569
-1.8825531 -3.401854 -1.9021446 4288085770
-0.5663147 -4.0111661 -1.7858514 4293729569
-1.9384155 -3.3198638 -1.900772 4288085770
-0.46354675 -4.0077825 -1.8247906 4293729569
-1.9872742 -3.2428946 -1.8975168 4288085770
-0.32885742 -4.0193334 -1.8701857 4288085770
-2.0391235 -3.1639266 -1.8942133 4288085770
-0.20411682 -4.0229182 -1.9124051 4288085770
-2.0700073 -3.0969148 -1.8952314 4288085770
-0.19015503 -3.9667621 -1.9279598 4288085770
-2.0879059 -3.0378823 -1.8984543 4288085770
-0.24102783 -3.8767629 -1.9275526 4288085770
-2.136734 -2.9599538 -1.8911897 4288085770
-0.31584167 -3.7758355 -1.9198056 4288085770
-2.1656036 -2.8949723 -1.8892475 4288085770
-0.37266541 -3.6838861 -1.9143213 4288085770
-2.1954498 -2.8280015 -1.8862756 4288085770
-0.41152954 -3.5998969 -1.9130894 4288085770
-2.2133331 -2.7680097 -1.8854891 4288085770
-0.44140625 -3.5219073 -1.9120041 4288085770
-2.2461548 -2.7010713 -1.8794893 4288085770
-0.47325134 -3.4429364 -1.9088904 4288085770
-2.256012 -2.6450791 -1.8788196 4288085770
-0.48812866 -3.3719354 -1.9090191 4288085770
-2.2539215 -2.5950561 -1.8813246 4288085770
-0.51597595 -3.2959857 -1.9039739 4288085770
-2.2757416 -2.5321155 -1.87547 4288085770
-0.52186584 -3.2289844 -1.9042288 4288085770
-2.2676392 -2.4851022 -1.8770629 4288085770
-0.53471375 -3.1600137 -1.9013973 4288085770
-2.2864532 -2.4251733 -1.8702677 4288085770
-0.54356384 -3.0930429 -1.8986245 4288085770
-2.2773438 -2.3781695 -1.8708702 4288085770
-0.54742432 -3.0290713 -1.8959295 4288085770
-2.2672119 -2.3311753 -1.8704826 4288085770
-0.52731323 -2.9740672 -1.8965541 4288085770
-2.2550964 -2.284183 -1.8701137 4288085770
-0.51217651 -2.9170737 -1.8961109 4288085770
-2.249939 -2.2352109 -1.8676583 4288085770
-0.4990387 -2.8580918 -1.8946284 4288085770
-2.234787 -2.1902385 -1.8653384 4288085770
-0.49685669 -2.7961602 -1.8880116 4288085770
-2.2206573 -2.1442647 -1.8629991 4288085770
-0.4627533 -2.7451587 -1.8888096 4288085770
-2.1995239 -2.1012731 -1.8627564 4288085770
-0.42063904 -2.6991439 -1.8907348 4288085770
-2.1813965 -2.0573096 -1.8594757 4288085770
-0.40248108 -2.6421914 -1.8863205 4288085770
-2.1442719 -2.0192952 -1.861436 4288085770
-0.36433411 -2.592217 -1.8841673 4288085770
-2.1181335 -1.9773211 -1.8592516 4288085770
-0.32720947 -2.5432429 -1.8820149 4288085770
-2.0969696 -1.9333787 -1.8539993 4288085770
-0.26509094 -2.5012288 -1.8841707 4288085770
-2.0618439 -1.8933949 -1.8529202 4288085770
-0.2169342 -2.4532647 -1.8811325 4288085770
-2.0177155 -1.8573995 -1.8529676 4288085770
-0.15382385 -2.4102693 -1.8812877 4288085770
-1.9915314 -1.8144574 -1.847773 4288085770
-0.10864258 -2.3613267 -1.8762115 4288085770
-1.934433 -1.7814517 -1.8489739 4288085770
-0.035522461 -2.3213315 -1.8764919 4288085770
-1.9042664 -1.7405086 -1.8438376 4288085770
0.024658203 -2.2763867 -1.8715986 4288085770
-1.8461456 -1.7075133 -1.8440481 4288085770
0.10377502 -2.2374015 -1.8709463 4288085770
-1.772049 -1.6774879 -1.8474406 4288085770
0.19689941 -2.1994052 -1.8714367 4288085770
-1.7029114 -1.6464829 -1.8487757 4288085770
0.27204895 -2.1574502 -1.8677162 4288085770
-1.6408081 -1.6124969 -1.848014 4288085770
0.37017822 -2.1214747 -1.8662745 4288085770
-1.5736542 -1.5805116 -1.8473202 4288085770
0.47232056 -2.0854888 -1.8658708 4288085770
-1.5175018 -1.5435672 -1.8424712 4288085770
0.58247375 -2.0495114 -1.8645431 4288085770
-1.4144287 -1.5185199 -1.8481895 4288085770
0.70158386 -2.0155253 -1.8643206 4288085770
-1.3502502 -1.4835753 -1.8434368 4288085770
0.83570862 -1.9835267 -1.865261 4288085770
-1.2381897 -1.4595265 -1.8492502 4288085770
0.96885681 -1.9505391 -1.8651816 4288085770
-1.1550446 -1.4275517 -1.8477081 4288085770
1.0920105 -1.9145932 -1.8609771 4288085770
-1.0409698 -1.4015241 -1.8515202 4288085770
1.2381439 -1.8816257 -1.8590208 4288085770
-0.94381714 -1.3705468 -1.8501209 4288085770
1.3892975 -1.8486676 -1.8561121 4288085770
-0.82272339 -1.3445296 -1.8529993 4288085770
1.5774078 -1.8226476 -1.859625 4288085770
-0.71856689 -1.3135629 -1.8506664 4288085770
1.7635345 -1.7936578 -1.8600882 4288085770
-0.60743713 -1.2835975 -1.8484095 4288085770
1.9476776 -1.7636876 -1.8585225 4288085770
-0.50524902 -1.2496619 -1.843027 4288085770
2.1508026 -1.7337089 -1.8581368 4288085770
-0.36813354 -1.2226624 -1.844047 4288085770
2.3779449 -1.7077174 -1.8590189 4288085770
-0.23199463 -1.193686 -1.8430372 4288085770
2.6010742 -1.6797471 -1.8578428 4288085770
-0.09085083 -1.1657071 -1.842085 4288085770
2.841217 -1.6507764 -1.8568174 4288085770
0.066268921 -1.1387196 -1.8422943 4288085770
3.1203308 -1.6267838 -1.8582124 4288085770
0.23039246 -1.1107407 -1.8415598 4288085770
3.3974762 -1.5998092 -1.8575577 4288085770
0.39454651 -1.0817709 -1.8398153 4288085770
3.6776428 -1.5718675 -1.8539215 4288085770
0.57067871 -1.0537915 -1.8391942 4288085770
4.0127563 -1.5488725 -1.8558565 4288085770
0.75883484 -1.0258226 -1.8376867 4288085770
4.372879 -1.524878 -1.8580185 4288085770
0.96896362 -0.99883127 -1.8383979 4288085770
4.7630005 -1.5028892 -1.8594846 4288085770
1.1791077 -0.97086143 -1.837099 4288085770
5.1661377 -1.4799123 -1.8600637 4288085770
1.4042358 -0.94189119 -1.8359314 4288085770
5.6082611 -1.4569345 -1.8610119 4288085770
1.6503754 -0.91390991 -1.8359734 4288085770
6.0704193 -1.4319749 -1.860129 4288085770
1.9035187 -0.88593721 -1.8350812 4288085770
6.6135254 -1.412972 -1.8640743 4288085770
2.1806641 -0.85696507 -1.834406 4288085770
7.2186127 -1.395947 -1.8706266 4288085770
2.4727936 -0.82799196 -1.8338729 4288085770
7.8527374 -1.3769622 -1.8734332 4288085770
2.803894 -0.80098677 -1.8367289 4288085770
8.6028137 -1.3619218 -1.8823785 4288085770
3.1370697 -0.77103186 -1.8345739 4288085770
9.2870026 -1.3360152 -1.877587 4288085770
3.4862061 -0.74006701 -1.8335596 4288085770
10.068192 -1.3110852 -1.8757242 4288085770
3.8833313 -0.71008921 -1.8340102 4288085770
10.94635 -1.2881627 -1.8737997 4288085770
4.2855072 -0.67715406 -1.8304771 4288085770
4.7206726 -0.64321613 -1.8272465 4288085770
5.2797546 -0.61516237 -1.8362502 4288085770
5.8338928 -0.58118963 -1.8371457 4288085770
6.4499969 -0.54720545 -1.8396276 4288085770
7.1111298 -0.51122904 -1.8415152 4288085770
7.7583771 -0.46836519 -1.8321997 4288085770
8.5924835 -0.43035221 -1.838704 4288085770
9.5815277 -0.39130402 -1.8496646 4288085770
10.621658 -0.34532499 -1.8540367 4288085770
11.610947 -0.28952074 -1.8408252 4288085770
11.635361 2.0046339 -1.7458099 4288085770
11.036469 2.0846434 -1.7443548 4288085770
10.434601 2.1606231 -1.7399122 4288085770
9.9926605 2.2437015 -1.7459069 4288085770
9.4937897 2.3146763 -1.741486 4288085770
9.1018524 2.3917274 -1.7450134 4288085770
8.7039642 2.463738 -1.7445349 4288085770
8.2601318 2.5256662 -1.7357241 4288085770
7.8822784 2.5906277 -1.7305053 4288085770
7.5594025 2.6586328 -1.7297746 4288085770
7.2934875 2.7306604 -1.731541 4288085770
7.0425568 2.8036885 -1.7334327 4288085770
6.7597198 2.867646 -1.7281262 4288085770
6.510849 2.9346356 -1.7261096 4288085770
6.2590027 2.9975944 -1.721105 4288085770
5.9611969 3.0484805 -1.7087876 4288085770
5.6664429 3.0983474 -1.6945091 4288085770
5.4536133 3.1602981 -1.6888818 4288085770
5.2128448 3.2111773 -1.676102 4288085770
5.0749512 3.2831819 -1.6760811 4288085770
4.9251099 3.3501458 -1.6719977 4288085770
4.8321838 3.4291725 -1.6743301 4288085770
4.711319 3.5001488 -1.6714798 4288085770
4.6463928 3.5831866 -1.6750363 4288085770
4.5505524 3.6571538 -1.6713916 4288085770
4.5216064 3.7472034 -1.676217 4288085770
4.4976959 3.8392532 -1.6810697 4288085770
4.4498138 3.9262519 -1.6807467 4288085770
4.461853 4.0273142 -1.6868483 4288085770
4.4489594 4.1223345 -1.6887747 4288085770
4.4650421 4.2263765 -1.6928843 4288085770
4.5290527 4.34447 -1.7023052 4288085770
4.4812469 4.4294081 -1.6960031 4288085770
4.527298 4.5444508 -1.7002851 4288085770
4.5454254 4.6504431 -1.6993941 4288085770
4.5845337 4.7644453 -1.6996208 4288085770
4.6046906 4.8724165 -1.6967288 4288085770
4.6697998 4.9954195 -1.6971103 4288085770
4.7229309 5.1174021 -1.6953889 4288085770
4.8170166 5.2534266 -1.6979135 4288085770
4.8931732 5.3863993 -1.6952988 4288085770
4.9932861 5.5283837 -1.6938204 4288085770
5.0994263 5.6743679 -1.6923584 4288085770
5.2265472 5.8313532 -1.6909841 4288085770
5.3996582 6.0073705 -1.6928529 4288085770
5.5338135 6.1693349 -1.689495 4288085770
5.7209167 6.3553319 -1.6893958 4288085770
5.9929657 6.5814033 -1.6966964 4288085770
6.2440643 6.8014321 -1.6998597 4288085770
6.5501251 7.0504932 -1.7062508 4288085770
6.8162537 7.2844729 -1.7044159 4288085770
6.9705353 7.4703069 -1.688008 4288085770
7.32164 7.750319 -1.6895136 4288085770
7.6268311 8.0132484 -1.682757 4288085770
7.9020538 8.2641172 -1.6698383 4288085770
11.31601 0.001493454 -1.8253733 4288085770
10.158951 -0.024330139 -1.8406354 4288085770
9.0189819 -0.042284012 -1.8429788 4288085770
7.6983795 -0.049592495 -1.8094915 4288085770
6.8743591 -0.062474728 -1.8197886 4288085770
6.0444794 -0.071476936 -1.8179888 4288085770
5.1707153 -0.073644161 -1.7997001 4288085770
4.4888458 -0.077656746 -1.7972571 4288085770
10.729858 -0.29946423 -1.8318952 4288085770
3.8929138 -0.081633091 -1.7986313 4288085770
9.4489441 -0.28646183 -1.8295816 4288085770
3.3350067 -0.083627224 -1.7983464 4288085770
8.2111359 -0.26957512 -1.8156368 4288085770
2.8450775 -0.085586548 -1.8017083 4288085770
7.2112274 -0.25758219 -1.8130058 4288085770
2.3651733 -0.084584713 -1.8011349 4288085770
6.3892517 -0.24750471 -1.8190879 4288085770
1.9003296 -0.082633018 -1.7956945 4288085770
5.4974518 -0.23161411 -1.8064433 4288085770
1.5074158 -0.080605507 -1.7979382 4288085770
4.7506104 -0.21766376 -1.8001984 4288085770
1.1175385 -0.077618599 -1.7962004 4288085770
4.1106873 -0.20565462 -1.7999913 4288085770
0.76263428 -0.074618816 -1.7957953 4288085770
3.5297699 -0.19363165 -1.801345 4288085770
0.44073486 -0.070606709 -1.7966939 4288085770
3.0088501 -0.18260336 -1.8032793 4288085770
0.14779663 -0.066572189 -1.7998682 4288085770
2.5059814 -0.16963577 -1.7993652 4288085770
-0.14108276 -0.061567783 -1.8000704 4288085770
2.056076 -0.15762329 -1.7999648 4288085770
-0.40101624 -0.056531906 -1.8035485 4288085770
1.6162262 -0.14465046 -1.7966498 4288085770
-0.66986084 -0.05056572 -1.7999309 4288085770
1.2263184 -0.13265371 -1.7958199 4288085770
-0.90579224 -0.044547081 -1.801627 4288085770
0.85745239 -0.12067604 -1.7931901 4288085770
-1.1446381 -0.036580086 -1.7982746 4288085770
0.52954102 -0.10866451 -1.7939502 4288085770
-1.3665161 -0.029601097 -1.7960938 4288085770
0.23461914 -0.097621918 -1.7980341 4288085770
-1.5654144 -0.022591114 -1.7971317 4288085770
-0.059295654 -0.085618019 -1.7981175 4288085770
-1.7253876 -0.017486095 -1.8075598 4288085770
-0.34416199 -0.07263422 -1.7962762 4288085770
-1.9411926 -0.007578373 -1.7984062 4288085770
-0.60003662 -0.060637474 -1.7957212 4288085770
-2.1190948 0.0004234314 -1.7986337 4288085770
-0.83398438 -0.049600601 -1.7993852 4288085770
-2.2959442 0.0093855858 -1.7948605 4288085770
-1.0688477 -0.036612511 -1.7980198 4288085770
-2.4518433 0.017398834 -1.7962972 4288085770
-1.2996979 -0.023654461 -1.7936922 4288085770
-2.6156921 0.026361465 -1.7926477 4288085770
-1.5135651 -0.011685848 -1.7905368 4288085770
-2.7775421 0.036303997 -1.7870072 4288085770
-1.6665497 -0.0015730858 -1.8019811 4288085770
-2.9164124 0.045299053 -1.7865952 4288085770
-1.8753815 0.012356758 -1.7948529 4288085770
-3.0493011 0.054294586 -1.7862407 4288085770
-2.0552521 0.024337769 -1.7930206 4288085770
-3.1711884 0.063309669 -1.7879905 4288085770
-2.2191467 0.036351204 -1.7943405 4288085770
-2.3810272 0.049334049 -1.7926694 4288085770
-2.5398865 0.061306477 -1.7900368 4288085770
-2.6927338 0.074269295 -1.7864512 4288085770
-2.8445892 0.087212563 -1.7808753 4288085770
-2.9824371 0.10018682 -1.7784327 4288085770
-3.09935 0.11220264 -1.7801994 4288085770
-3.1755981 2.1341825 -1.7225057 4288085770
-3.0485077 2.1611981 -1.72446 4288085770
-2.9064178 2.1922445 -1.7295185 4288085770
-2.7623444 2.2222819 -1.7336062 4288085770
-2.6601257 2.236176 -1.723452 4288085770
-2.5578766 2.2500501 -1.7112981 4288085770
-2.4087524 2.2760482 -1.711475 4288085770
-2.2077637 2.3181801 -1.724991 4288085770
-3.159729 2.0581632 -1.7244381 4288085770
-2.0296936 2.3502302 -1.7303866 4288085770
-3.0266266 2.0782003 -1.7285205 4288085770
-1.8615723 2.3772202 -1.7297369 4288085770
-2.8945312 2.0972166 -1.7306038 4288085770
-1.7024078 2.4001799 -1.726041 4288085770
-2.7763519 2.1101727 -1.7266132 4288085770
-1.5522003 2.4190984 -1.7182995 4288085770
-2.6502075 2.1251392 -1.7236794 4288085770
-1.4029694 2.4349966 -1.7085785 4288085770
-2.5340271 2.1340752 -1.7177101 4288085770
-1.2028503 2.4639997 -1.7092172 4288085770
-2.3898926 2.151063 -1.7169298 4288085770
-0.92488098 2.5131583 -1.7254056 4288085770
-2.1619873 2.1882777 -1.7387553 4288085770
-0.71174622 2.541153 -1.7251803 4288085770
-2.0018768 2.2062879 -1.7401191 4288085770
-0.50257874 2.5651164 -1.7219568 4288085770
-1.83078 2.2243085 -1.7425889 4288085770
-0.27944946 2.5910816 -1.7188483 4288085770
-1.6616516 2.2393088 -1.7430698 4288085770
-0.052276611 2.615027 -1.7137991 4288085770
-1.516449 2.2462277 -1.7354008 4288085770
0.21385193 2.6470361 -1.7150449 4288085770
-1.3822174 2.2491155 -1.7246662 4288085770
0.46401978 2.6719942 -1.7112073 4288085770
-1.2260132 2.2560358 -1.7171034 4288085770
0.76512146 2.7070165 -1.7137605 4288085770
-0.96603394 2.2861838 -1.7323097 4288085770
1.0582733 2.7349987 -1.7123073 4288085770
-0.76091003 2.3001885 -1.7331482 4288085770
1.3534546 2.761951 -1.7078842 4288085770
-0.5667572 2.3091512 -1.7299315 4288085770
1.7095184 2.7999983 -1.7129377 4288085770
-0.36659241 2.3171115 -1.7267796 4288085770
2.0307159 2.8249383 -1.7077824 4288085770
-0.15942383 2.3240662 -1.7227086 4288085770
2.3888702 2.8539066 -1.7049464 4288085770
0.080688477 2.3360734 -1.7239047 4288085770
2.7440643 2.8788435 -1.6991223 4288085770
0.33581543 2.3480816 -1.7252456 4288085770
3.1332397 2.9068043 -1.6955959 4288085770
0.57995605 2.3550601 -1.7235311 4288085770
3.5573883 2.9377778 -1.6933767 4288085770
0.83810425 2.363049 -1.7229415 4288085770
4.009552 2.9697547 -1.6914176 4288085770
1.1012726 2.3670182 -1.7204407 4288085770
4.4627533 2.9967012 -1.686519 4288085770
1.3943939 2.374011 -1.720199 4288085770
4.97789 3.0286741 -1.6841677 4288085770
1.7214661 2.385056 -1.7252444 4288085770
5.6169281 3.0807865 -1.6958102 4288085770
2.0256195 2.3880405 -1.7241493 4288085770
6.3828888 3.1479816 -1.7155262 4288085770
2.3357697 2.3880153 -1.7221423 4288085770
7.0320435 3.1849766 -1.7154177 4288085770
2.6819153 2.3900132 -1.7224625 4288085770
7.6652527 3.2129111 -1.7092465 4288085770
3.0160675 2.3859801 -1.7197274 4288085770
8.4143829 3.2509158 -1.7100927 4288085770
3.4151764 2.3880029 -1.7225589 4288085770
9.4413452 3.3251345 -1.7322565 4288085770
3.777359 2.3799534 -1.7181345 4288085770
10.190613 3.3440113 -1.720296 4288085770
4.1755066 2.3729472 -1.7180475 4288085770
11.062836 3.3729479 -1.7144209 4288085770
4.5966492 2.3639331 -1.7172021 4288085770
5.1027374 2.3629961 -1.7240959 4288085770
5.5888367 2.3530188 -1.7268881 4288085770
6.2358246 2.3571849 -1.7440902 4288085770
6.825882 2.3462577 -1.7518953 4288085770
7.3291016 2.317183 -1.7450436 4288085770
7.8643188 2.285121 -1.7395309 4288085770
8.5573883 2.264194 -1.7474307 4288085770
9.22052 2.2301946 -1.7481724 4288085770
9.8957062 2.1871672 -1.746121 4288085770
10.554932 2.1370988 -1.7399865 4288085770
11.336075 2.0881019 -1.7410182 4288085770
10.147949 -5.2742972 -0.35843062 4293729569
8.3500977 -4.8524308 -0.34383571 4293729569
8.1000214 -4.8972383 -0.36387205 4293729569
8.1109009 -5.022984 -0.39024079 4293729569
8.1187439 -5.1497016 -0.41959023 4293729569
3.2245331 -4.9618821 -0.20840573 4293729569
3.2075653 -4.9666848 -0.83035111 4293729569
3.1582642 -5.0134816 -0.24928629 4293729569
3.1342926 -5.016294 -0.87014389 4293729569
3.1359711 -5.0840669 -0.29178202 4293729569
3.1040192 -5.083879 -0.91253221 4293729569
3.1406708 -5.1833959 -0.96188807 4293729569
6.4689789 -7.5812383 -1.7941531 4293729569
5.8470612 -7.3412681 -1.7907387 4293729569
5.3500671 -7.1611724 -1.8001322 4293729569
4.8031464 -6.9441943 -1.7976729 4293729569
4.2652893 -6.7242427 -1.792271 4293729569
3.7784119 -6.5232778 -1.7885519 4293729569
3.3234863 -6.3362775 -1.788282 4293729569
2.801712 -6.1034379 -1.7719053 4293729569
2.4237671 -5.9473977 -1.7756895 4293729569
2.0318451 -5.7774119 -1.7741987 4293729569
1.6400146 -5.6004748 -1.7676386 4293729569
1.3360443 -5.471417 -1.7734085 4293729569
1.0071411 -5.3224235 -1.7727369 4293729569
4.7764282 -7.5653186 -1.792642 4293729569
0.70126343 -5.1824355 -1.7713782 4293729569
4.1435699 -7.2384124 -1.7822503 4293729569
0.41934204 -5.0524268 -1.7723509 4293729569
3.6995697 -7.0203137 -1.7917756 4293729569
0.13642883 -4.9174476 -1.7702643 4293729569
3.2126465 -6.7683225 -1.7905453 4293729569
-0.13745117 -4.7834764 -1.767275 4293729569
2.6908417 -6.4904428 -1.7777175 4293729569
-0.4112854 -4.6475358 -1.7612659 4293729569
2.2789001 -6.2734313 -1.7785627 4293729569
-0.64318848 -4.5335307 -1.7618824 4293729569
1.8330536 -6.0315127 -1.7698296 4293729569
-0.85612488 -4.4275136 -1.7637626 4293729569
1.4481812 -5.8215575 -1.7650067 4293729569
-1.0560455 -4.3264832 -1.7668186 4293729569
1.1092682 -5.6375461 -1.7658881 4293729569
-1.2180328 -4.2473788 -1.7774616 4293729569
0.79335022 -5.462543 -1.7660819 4293729569
-1.4248962 -4.1374097 -1.7743603 4293729569
0.5124054 -5.3065047 -1.7698046 4293729569
-1.6347351 -4.0204825 -1.7671603 4293729569
0.23748779 -5.1494956 -1.7705752 4293729569
-1.7617645 -3.9553552 -1.7802819 4293729569
-0.046356201 -4.9855475 -1.7651893 4293729569
-1.805954 -3.9420257 -1.8137246 4293729569
-0.30525208 -4.8335662 -1.7631646 4293729569
-1.8132629 -3.950603 -1.8567449 4293729569
-0.54812622 -4.6886039 -1.7593654 4293729569
-1.83255 -3.9502015 -1.897559 4288085770
-0.74906921 -4.5675559 -1.7642118 4293729569
-1.8916931 -3.9209352 -1.9246973 4288085770
-0.95796204 -4.4405684 -1.7629212 4293729569
-2.055542 -3.8219819 -1.9201225 4288085770
-1.1458588 -4.3235593 -1.7639338 4293729569
-2.2044067 -3.7300172 -1.9167625 4288085770
-1.3078308 -4.2205071 -1.7693373 4293729569
-2.3602448 -3.632092 -1.9092749 4288085770
-1.4667664 -4.1184716 -1.7727803 4293729569
-2.5130615 -3.5331779 -1.9008065 4288085770
-1.6665802 -3.988565 -1.7635473 4293729569
-2.6259613 -3.4601579 -1.9029847 4288085770
-1.7227325 -3.9493079 -1.7896153 4293729569
-2.760788 -3.3702207 -1.8967806 4288085770
-1.7110138 -3.9508729 -1.8337501 4293729569
-2.877655 -3.2912631 -1.8928603 4288085770
-1.6045685 -4.012176 -1.9044024 4288085770
-2.9765625 -3.221251 -1.8942038 4288085770
-1.6736755 -3.957973 -1.9251951 4288085770
-3.0963745 -3.136333 -1.8861951 4288085770
-1.8285065 -3.8480382 -1.9185978 4288085770
-3.1872711 -3.0703311 -1.8866562 4288085770
-1.9673615 -3.7470832 -1.9142452 4288085770
-2.1091766 -3.6431575 -1.9068335 4288085770
-2.2430115 -3.5432229 -1.9005395 4288085770
-2.3548889 -3.4552541 -1.8975779 4288085770
-2.4567566 -3.3732629 -1.8967732 4288085770
-2.5586395 -3.2912917 -1.8939685 4288085770
-2.6484985 -3.2153096 -1.8923401 4288085770
-2.7413483 -3.1363492 -1.8886527 4288085770
-2.824234 -3.062367 -1.8871118 4288085770
-2.9051056 -2.9903932 -1.8846105 4288085770
-2.9889221 -2.9144597 -1.8780407 4288085770
-3.0558014 -2.8494744 -1.8767449 4288085770
-3.1326447 -2.7775416 -1.8702825 4288085770
-3.1775665 -2.7235055 -1.8743094 4288085770
-3.1821289 -1.1432033 -1.8185719 4288085770
-3.1319885 -1.1212134 -1.8178405 4288085770
-3.0828552 -1.0972457 -1.8150796 4288085770
-3.0317078 -1.073276 -1.8123382 4288085770
-2.956604 -1.0562353 -1.8168994 4288085770
-2.8815308 -1.0372033 -1.8204411 4288085770
-2.8183899 -1.0162225 -1.8188463 4288085770
-2.7402954 -0.99720192 -1.8214175 4288085770
-2.6761475 -0.97424078 -1.8178128 4288085770
-2.5970154 -0.95523882 -1.8183938 4288085770
-2.5029449 -0.93920565 -1.8221503 4288085770
-2.421814 -0.91922283 -1.8207411 4288085770
-2.3336792 -0.90022945 -1.8204101 4288085770
-2.2435608 -0.88024664 -1.8190886 4288085770
-2.1414337 -0.86324167 -1.8199137 4288085770
-2.0382996 -0.84424639 -1.8197287 4288085770
-3.1332397 -0.62533903 -1.8108877 4288085770
-1.9181976 -0.82822037 -1.822739 4288085770
-3.0680542 -0.6053977 -1.8053235 4288085770
-1.8210297 -0.80727577 -1.8174766 4288085770
-2.9829254 -0.58739567 -1.8059732 4288085770
-1.7028961 -0.79027891 -1.8174578 4288085770
-2.8977966 -0.57042265 -1.8036331 4288085770
-1.5458679 -0.77819872 -1.8258678 4288085770
-2.7937012 -0.55538845 -1.8074974 4288085770
-1.4695892 -0.75234604 -1.8113519 4288085770
-2.6985779 -0.53839397 -1.8072547 4288085770
-1.281601 -0.74421215 -1.8251034 4288085770
-2.6024323 -0.52142 -1.8050219 4288085770
-1.1394806 -0.72622442 -1.8243088 4288085770
-2.4803619 -0.5073719 -1.8100718 4288085770
-0.9853363 -0.71023273 -1.823651 4288085770
-2.3811951 -0.48840857 -1.8068484 4288085770
-0.85414124 -0.68931437 -1.8157204 4288085770
-2.2471161 -0.47436953 -1.811015 4288085770
-0.6640625 -0.67627001 -1.8204426 4288085770
-2.134964 -0.45640421 -1.8079284 4288085770
-0.49888611 -0.65830755 -1.816873 4288085770
-2.0098419 -0.44041586 -1.8069884 4288085770
-0.31373596 -0.64132357 -1.8155073 4288085770
-1.8627319 -0.42538643 -1.8102721 4288085770
-0.11361694 -0.62532806 -1.8152982 4288085770
-1.7086487 -0.41035748 -1.813624 4288085770
0.10549927 -0.61032057 -1.8162838 4288085770
-1.5784607 -0.39240885 -1.8087133 4288085770
0.32165527 -0.59435225 -1.8132309 4288085770
-1.4383087 -0.37445831 -1.8039001 4288085770
0.54881287 -0.5773735 -1.8112751 4288085770
-1.2592163 -0.36041498 -1.8085057 4288085770
0.79995728 -0.56239176 -1.8095733 4288085770
-1.0661163 -0.34638119 -1.8122479 4288085770
1.082077 -0.54837656 -1.8111829 4288085770
-0.8740387 -0.33135557 -1.8149701 4288085770
1.364212 -0.53339243 -1.8097833 4288085770
-0.70783997 -0.31242418 -1.8084008 4288085770
1.6773529 -0.51840401 -1.8086854 4288085770
-0.51766968 -0.29546833 -1.8040851 4288085770
2.0294647 -0.50537157 -1.8119875 4288085770
-0.29655457 -0.27945995 -1.8050808 4288085770
2.3945923 -0.49136734 -1.8124064 4288085770
-0.074401855 -0.26248169 -1.8030766 4288085770
2.7787628 -0.47539139 -1.8099915 4288085770
0.17272949 -0.24649 -1.8023263 4288085770
3.2098694 -0.46236944 -1.8120638 4288085770
0.43388367 -0.23049831 -1.8017119 4288085770
3.664032 -0.44738483 -1.8103408 4288085770
0.71600342 -0.21349382 -1.8022927 4288085770
4.1681824 -0.43338585 -1.810115 4288085770
1.0011597 -0.19652748 -1.7989031 4288085770
4.7053223 -0.41840172 -1.8082014 4288085770
1.3322906 -0.18050766 -1.8009714 4288085770
5.3354645 -0.40636826 -1.8112236 4288085770
1.6754303 -0.16351509 -1.8001467 4288085770
6.0475464 -0.39628601 -1.819064 4288085770
2.0545654 -0.14650011 -1.8016728 4288085770
6.8236694 -0.38424587 -1.8225094 4288085770
2.4557037 -0.12950182 -1.8014139 4288085770
7.5828857 -0.36730719 -1.8157407 4288085770
2.8968353 -0.11248922 -1.8025447 4288085770
8.5699615 -0.35722494 -1.8232623 4288085770
3.3679657 -0.094483852 -1.8029581 4288085770
9.7519836 -0.35005045 -1.8397135 4288085770
3.8581238 -0.075514793 -1.7995473 4288085770
10.858231 -0.3341136 -1.8323375 4288085770
4.4422455 -0.057487488 -1.8020626 4288085770
5.0723877 -0.038473129 -1.8030163 4288085770
5.8534393 -0.020343781 -1.8154508 4288085770
6.6994781 -0.0022368431 -1.8255192 4288085770
7.4737549 0.021673203 -1.8158289 4288085770
8.7016296 0.039971828 -1.8446194 4288085770
9.8737335 0.064054966 -1.8518072 4288085770
10.986084 0.092903137 -1.8353635 4288085770
10.656189 0.31602764 -1.8351952 4288085770
9.5191345 0.31508923 -1.8492984 4288085770
8.1794128 0.31678295 -1.8264333 4288085770
7.0476227 0.32055473 -1.8105422 4288085770
6.2026978 0.32352591 -1.8134094 4288085770
5.3318787 0.32835817 -1.8020109 4288085770
4.5321045 0.33317232 -1.788294 4288085770
10.838135 0.33087158 -1.8206896 4288085770
3.920166 0.33916044 -1.7913665 4288085770
9.730011 0.34099531 -1.8409692 4288085770
3.3662415 0.34413671 -1.7930053 4288085770
8.4821625 0.3528161 -1.8308936 4288085770
2.8493347 0.35110044 -1.7929798 4288085770
7.2285156 0.36345482 -1.8017741 4288085770
2.345459 0.35802746 -1.7890805 4288085770
6.3655548 0.37442303 -1.8043967 4288085770
1.9045715 0.36499357 -1.7887841 4288085770
5.5856171 0.38538361 -1.8058144 4288085770
1.4667358 0.37290001 -1.782508 4288085770
4.7558594 0.39617348 -1.7897564 4288085770
1.1058044 0.38090563 -1.7859687 4288085770
4.0969849 0.40610552 -1.7873441 4288085770
0.74493408 0.38885546 -1.7834302 4288085770
3.5220795 0.41705847 -1.7867268 4288085770
0.41703796 0.3968277 -1.783208 4288085770
3.0221405 0.42807245 -1.7918278 4288085770
0.12814331 0.40482569 -1.7853593 4288085770
2.5082855 0.43797827 -1.7858061 4288085770
-0.14079285 0.41283607 -1.7887019 4288085770
2.050415 0.44992161 -1.783301 4288085770
-0.38871765 0.4218502 -1.7922364 4288085770
1.6395264 0.46088028 -1.782256 4288085770
-0.62265015 0.43086576 -1.795905 4288085770
1.2446594 0.47181416 -1.7783648 4288085770
-0.87350464 0.44081259 -1.7924026 4288085770
0.88975525 0.48278236 -1.7778565 4288085770
-1.066452 0.44986296 -1.7994639 4288085770
0.56489563 0.49375629 -1.7776357 4288085770
-1.2753601 0.45984459 -1.7993633 4288085770
0.279953 0.5047636 -1.7807974 4288085770
-1.4532776 0.46987963 -1.8045594 4288085770
0.011032104 0.51676416 -1.7831029 4288085770
-1.6481628 0.47984266 -1.8025936 4288085770
-0.25585938 0.5277462 -1.7834378 4288085770
-1.7971039 0.48991108 -1.8110667 4288085770
-0.4728241 0.53979349 -1.7902411 4288085770
-1.9829712 0.49984741 -1.806188 4288085770
-0.72865295 0.55071926 -1.7846829 4288085770
-2.1747742 0.50974417 -1.7972525 4288085770
-0.91960144 0.56276941 -1.7917353 4288085770
-2.3246613 0.5197444 -1.7987179 4288085770
-1.1035461 0.57581282 -1.7978455 4288085770
-2.5014648 0.52963352 -1.7889262 4288085770
-1.3044128 0.58778667 -1.7968036 4288085770
-2.6692657 0.53952503 -1.7792209 4288085770
-1.4843445 0.59879017 -1.798972 4288085770
-2.8011322 0.55050802 -1.7788495 4288085770
-1.6452789 0.61181784 -1.8033031 4288085770
-2.9270325 0.56050205 -1.7795449 4288085770
-1.8131561 0.62379503 -1.8025774 4288085770
-3.0548859 0.57145643 -1.7762126 4288085770
-1.9860077 0.63574314 -1.7988044 4288085770
-3.1637878 0.58246279 -1.778061 4288085770
-2.1338959 0.64774275 -1.8002702 4288085770
-2.3136902 0.65862274 -1.7894412 4288085770
-2.4874573 0.66849327 -1.7776798 4288085770
-2.6203308 0.68046665 -1.7762898 4288085770
-2.7501984 0.69243097 -1.7739288 4288085770
-2.8780518 0.70438576 -1.7705868 4288085770
-2.9889374 0.71637249 -1.7704078 4288085770
-3.0977936 0.72834969 -1.7692479 4288085770
-3.1583252 2.9492528 -1.6999305 4288085770
-3.0093079 3.008364 -1.7107741 4288085770
-2.8961639 3.0493364 -1.7074503 4288085770
-2.7969666 3.081259 -1.6990806 4288085770
-2.6847687 3.1192029 -1.6927761 4288085770
-2.5636139 3.1591663 -1.6885375 4288085770
-2.4244995 3.2051718 -1.6884116 4288085770
-2.2793579 3.2531679 -1.6873232 4288085770
-3.1904907 2.8712966 -1.7093481 4288085770
-2.1152649 3.3082051 -1.6903471 4288085770
-3.0823364 2.9002688 -1.7060918 4288085770
-1.970108 3.3511732 -1.6863068 4288085770
-2.9512482 2.9403114 -1.709947 4288085770
-1.8009796 3.4041829 -1.6863972 4288085770
-2.8141479 2.9793456 -1.7128688 4288085770
-1.622879 3.4592028 -1.6875535 4288085770
-2.6989899 3.0083091 -1.7086784 4288085770
-1.4277649 3.5182455 -1.6908325 4288085770
-2.5658569 3.042304 -1.7076102 4288085770
-1.2406616 3.5722477 -1.6900834 4288085770
-2.4496765 3.0672491 -1.7014676 4288085770
-1.0205841 3.638303 -1.6945313 4288085770
-2.3155212 3.0982254 -1.6984376 4288085770
-0.81047058 3.697319 -1.6949519 4288085770
-2.1743927 3.131212 -1.6964544 4288085770
-0.61628723 3.7462749 -1.6893169 4288085770
-2.0182648 3.1672201 -1.6965841 4288085770
-0.39215088 3.8062835 -1.6888603 4288085770
-1.8860626 3.1931577 -1.6895832 4288085770
-0.17201233 3.8612628 -1.6854135 4288085770
-1.7159576 3.2311878 -1.691826 4288085770
0.081115723 3.9252851 -1.6861924 4288085770
-1.5199127 3.2782586 -1.698228 4288085770
0.33026123 3.987278 -1.6839527 4288085770
-1.3657227 3.3052096 -1.6924251 4288085770
0.60638428 4.0553041 -1.6849104 4288085770
-1.1656342 3.349263 -1.6968936 4288085770
0.89050293 4.123312 -1.6839439 4288085770
-0.98451233 3.3822467 -1.6942879 4288085770
1.2106018 4.2013636 -1.6872216 4288085770
-0.79136658 3.4182513 -1.6937672 4288085770
1.5297241 4.2743864 -1.687538 4288085770
-0.58726501 3.455267 -1.6943401 4288085770
1.8678284 4.3514214 -1.688995 4288085770
-0.40107727 3.482223 -1.6888393 4288085770
2.2479095 4.4394913 -1.6937438 4288085770
-0.18693542 3.5172215 -1.6875261 4288085770
2.6419983 4.5275545 -1.697625 4288085770
0.030212402 3.5502205 -1.6862601 4288085770
3.0710754 4.623642 -1.7037598 4288085770
0.27032471 3.589242 -1.6871542 4288085770
3.5221405 4.722723 -1.7090739 4288085770
0.51246643 3.6252542 -1.6870955 4288085770
3.9542694 4.8077445 -1.7083424 4288085770
0.76957703 3.6632783 -1.6881591 4288085770
4.3734589 4.8837261 -1.7035738 4288085770
1.0217133 3.697283 -1.6872138 4288085770
4.8685608 4.9807758 -1.7053224 4288085770
1.2878418 3.7312994 -1.6874007 4288085770
5.3647156 5.069797 -1.7041565 4288085770
1.5819397 3.7713389 -1.6897942 4288085770
5.9118195 5.170846 -1.7053577 4288085770
1.8650665 3.8033485 -1.6891605 4288085770
6.4829559 5.2708879 -1.7057947 4288085770
2.1572113 3.8353593 -1.6886114 4288085770
7.1530151 5.3970032 -1.7129182 4288085770
2.4573669 3.8643525 -1.6861666 4288085770
7.8101501 5.509059 -1.7140528 4288085770
2.7734985 3.8953679 -1.6858534 4288085770
8.581192 5.6481991 -1.7230054 4288085770
3.0876617 3.9213636 -1.6835693 4288085770
9.2883453 5.7572341 -1.7216402 4288085770
3.4297791 3.9523919 -1.6845011 4288085770
10.049484 5.8742776 -1.720708 4288085770
3.8438263 3.998498 -1.6929692 4288085770
10.826675 5.9832864 -1.7160035 4288085770
4.2199554 4.027523 -1.693241 4288085770
11.629852 6.0902891 -1.7105631 4288085770
4.5561676 4.0414839 -1.6872786 4288085770
4.979248 4.0745444 -1.6909553 4288085770
5.4453278 4.1116505 -1.6989995 4288085770
5.9633484 4.1577921 -1.7104484 4288085770
6.5043793 4.2029381 -1.7221235 4288085770
6.9585114 4.217967 -1.7222637 4288085770
7.429657 4.2309885 -1.7215832 4288085770
7.9767151 4.2560873 -1.7285053 4288085770
8.5907745 4.2872272 -1.7390019 4288085770
9.0939484 4.2862353 -1.7367562 4288085770
9.7420044 4.3083706 -1.7466592 4288085770
10.302139 4.3054066 -1.7469698 4288085770
10.852325 4.2904139 -1.7443002 4288085770
11.356552 4.2593656 -1.736349 4288085770
11.142349 -4.5558238 -1.8977569 4288085770
10.525452 -4.5268989 -1.8946701 4288085770
9.9205627 -4.4939618 -1.8926581 4288085770
9.3836365 -4.4709868 -1.8943814 4288085770
8.8926849 -4.4529729 -1.8995851 4288085770
8.3977509 -4.4269824 -1.9026753 4288085770
7.9278107 -4.4019666 -1.9080101 4288085770
7.5098114 -4.3859143 -1.9169198 4288085770
7.0778656 -4.3578925 -1.9225839 4288085770
10.028732 -5.3322997 -1.4436013 4293729569
6.6578979 -4.3288693 -1.9283515 4288085770
6.2609406 -4.2998357 -1.9353355 4288085770
8.2529449 -4.9955411 -1.4306685 4293729569
5.8839569 -4.2727857 -1.9435266 4288085770
11.75975 -6.2606158 -1.8217627 4293729569
5.48703 -4.2327886 -1.9464065 4288085770
10.81987 -6.0727429 -1.8151208 4293729569
5.0721283 -4.1838241 -1.9460312 4288085770
9.8500519 -5.8619504 -1.7999784 4293729569
4.6842194 -4.1348462 -1.9469103 4288085770
9.0331726 -5.6900744 -1.792647 4293729569
4.2573853 -4.0689492 -1.9392611 4288085770
8.4341431 -5.5869985 -1.805024 4293729569
3.8675079 -4.0090108 -1.9360167 4288085770
7.7282257 -5.4360766 -1.8019377 4293729569
3.4786682 -3.9460988 -1.9297539 4288085770
7.1042938 -5.3061099 -1.8028232 4293729569
3.1217957 -3.8871655 -1.92583 4288085770
6.5353546 -5.1871161 -1.806331 4293729569
2.772934 -3.8272271 -1.9219722 4288085770
5.9094849 -5.0402293 -1.7990369 4293729569
2.4500275 -3.7732587 -1.9214159 4288085770
5.3126373 -4.8943553 -1.7900254 4293729569
2.1201782 -3.711329 -1.9167181 4288085770
4.7447815 -4.7534766 -1.7813345 4293729569
1.8342743 -3.6623425 -1.9175576 4288085770
4.2608948 -4.6385274 -1.7796816 4293729569
1.5463715 -3.6083779 -1.9163309 4288085770
3.8089752 -4.5295711 -1.778387 4293729569
1.2655029 -3.5524297 -1.9131516 4288085770
3.4210205 -4.439548 -1.7838751 4293729569
0.9866333 -3.4944835 -1.9099718 4288085770
3.0031433 -4.3326039 -1.7809201 4293729569
0.72875977 -3.4405122 -1.9090279 4288085770
2.5982361 -4.2266517 -1.779097 4293729569
0.48085022 -3.3885407 -1.9081968 4288085770
2.2942657 -4.1565948 -1.7875665 4293729569
0.23100281 -3.3305974 -1.9042903 4288085770
2.0921326 -4.1263661 -1.8133754 4293729569
0.012084961 -3.2836013 -1.90578 4288085770
1.9588928 -4.1240296 -1.8500992 4288085770
-0.2197876 -3.2286563 -1.9020716 4288085770
1.8456421 -4.1276593 -1.8900687 4288085770
-0.44664001 -3.1717095 -1.8983914 4288085770
1.6824646 -4.1073861 -1.9203392 4288085770
-0.64653015 -3.1237206 -1.8990504 4288085770
1.4614105 -4.0582385 -1.9377893 4288085770
-0.84942627 -3.0717511 -1.8976434 4288085770
1.161499 -3.9692664 -1.9371165 4288085770
-1.0373077 -3.0237699 -1.8974158 4288085770
0.84466553 -3.8693671 -1.9291798 4288085770
-1.2451477 -2.9628587 -1.8898767 4288085770
0.56678772 -3.7824121 -1.9267334 4288085770
-1.4270325 -2.9128957 -1.8876866 4288085770
0.28193665 -3.6884952 -1.9201549 4288085770
-1.592926 -2.8669 -1.8886849 4288085770
0.0091094971 -3.5975871 -1.9127184 4288085770
-1.784729 -2.8070064 -1.8793062 4288085770
-0.2237854 -3.522614 -1.9118098 4288085770
-1.9406281 -2.7610202 -1.8793987 4288085770
-0.43870544 -3.4516196 -1.9131087 4288085770
-2.0984955 -2.7120624 -1.8764442 4288085770
-0.67254639 -3.3696933 -1.9071246 4288085770
-2.2433777 -2.6670747 -1.8766502 4288085770
-0.87841797 -3.2977262 -1.9054991 4288085770
-2.3872681 -2.6211038 -1.8748559 4288085770
-1.1052551 -3.2128301 -1.8965532 4288085770
-2.5281372 -2.5741353 -1.8730804 4288085770
-1.2901154 -3.1468577 -1.8951823 4288085770
-2.6540222 -2.5331426 -1.8735031 4288085770
-1.4859924 -3.072927 -1.8896323 4288085770
-2.7918854 -2.484201 -1.8687371 4288085770
-1.6658478 -3.0039821 -1.8852805 4288085770
-2.9107666 -2.4422088 -1.8692166 4288085770
-1.8287048 -2.9420075 -1.8841552 4288085770
-3.0476074 -2.390285 -1.8624316 4288085770
-1.9975586 -2.8740621 -1.8799165 4288085770
-3.1644592 -2.347321 -1.8599204 4288085770
-2.1464539 -2.8150859 -1.8789514 4288085770
-2.2893524 -2.7571063 -1.8780524 4288085770
-2.4242401 -2.7011266 -1.8772475 4288085770
-2.5641022 -2.6411757 -1.8733579 4288085770
-2.690979 -2.586205 -1.8716384 4288085770
-2.8317871 -2.5222926 -1.8637019 4288085770
-2.9396973 -2.4742885 -1.8652273 4288085770
-3.0565643 -2.4203334 -1.8616115 4288085770
-3.1743927 -2.3643994 -1.8559674 4288085770
-3.1163177 -0.11339235 -1.7838591 4288085770
-3.0042419 -0.10133886 -1.7887944 4288085770
-2.9120636 -0.087367058 -1.7855235 4288085770
-2.816925 -0.073392391 -1.782281 4288085770
-2.7037964 -0.061387062 -1.7822262 4288085770
-2.5836945 -0.048371315 -1.7832273 4288085770
-2.4226685 -0.038252354 -1.7946404 4288085770
-2.3144836 -0.02430582 -1.78852 4288085770
-2.1703796 -0.012275219 -1.7907554 4288085770
-3.1293945 0.073643208 -1.7909402 4288085770
-2.0272522 -0.00027370453 -1.7899817 4288085770
-3.024231 0.085628986 -1.7888106 4288085770
-1.8681641 0.011768818 -1.7933575 4288085770
-2.9111176 0.096634388 -1.7887648 4288085770
-1.7100372 0.023781776 -1.7937244 4288085770
-2.7870026 0.10765982 -1.7908224 4288085770
-1.5399017 0.035798073 -1.7942036 4288085770
-2.6648712 0.11964846 -1.7888519 4288085770
-1.3637848 0.047804356 -1.7937394 4288085770
-2.5506897 0.13160658 -1.7838064 4288085770
-1.1836548 0.06081295 -1.7933029 4288085770
-2.3986206 0.14266634 -1.7891263 4288085770
-0.98052979 0.071835995 -1.7941011 4288085770
-2.2574768 0.15365791 -1.7873431 4288085770
-0.7684021 0.083858967 -1.7949737 4288085770
-2.0734406 0.16376257 -1.7969719 4288085770
-0.54727173 0.09587431 -1.7949313 4288085770
-1.9083252 0.17378616 -1.7984232 4288085770
-0.32014465 0.10788155 -1.7939447 4288085770
-1.7342377 0.18482208 -1.8009495 4288085770
-0.052047729 0.11893463 -1.7973522 4288085770
-1.5540924 0.19584036 -1.8015319 4288085770
0.19114685 0.13189793 -1.7915066 4288085770
-1.3709564 0.20683956 -1.8001424 4288085770
0.46629333 0.1429038 -1.7899798 4288085770
-1.175827 0.21684074 -1.798875 4288085770
0.76043701 0.15491295 -1.7886215 4288085770
-0.9836731 0.22782326 -1.7955703 4288085770
1.0875702 0.16693926 -1.7885724 4288085770
-0.75454712 0.23784971 -1.7966212 4288085770
1.445694 0.17797852 -1.7898237 4288085770
-0.5483551 0.248806 -1.7904478 4288085770
1.8268127 0.18901396 -1.79029 4288085770
-0.28025818 0.25886869 -1.7948643 4288085770
2.2419586 0.20005703 -1.7910756 4288085770
-0.023132324 0.26887226 -1.793178 4288085770
2.6970673 0.21111488 -1.7932357 4288085770
0.233078 0.27883768 -1.7874826 4288085770
3.1891937 0.22216988 -1.7947425 4288085770
0.53520203 0.28885841 -1.787218 4288085770
3.7093658 0.2341938 -1.7925028 4288085770
0.88529968 0.29892635 -1.7914029 4288085770
4.2765198 0.24521446 -1.7897128 4288085770
1.2014923 0.30889368 -1.7852701 4288085770
4.9246521 0.25628853 -1.7916819 4288085770
1.5985718 0.31696939 -1.7899143 4288085770
5.7766418 0.26654434 -1.8105716 4288085770
2.0286865 0.3270421 -1.7938491 4288085770
6.5967712 0.27664042 -1.8131627 4288085770
2.4768219 0.33609104 -1.7949623 4288085770
7.3990479 0.28859043 -1.8005666 4288085770
2.9809113 0.34416819 -1.7986096 4288085770
8.7468719 0.29806852 -1.8381139 4288085770
3.4920807 0.35317993 -1.7953132 4288085770
9.9550018 0.30922556 -1.8433317 4288085770
4.060257 0.36121273 -1.7935609 4288085770
11.071365 0.32111168 -1.8206795 4288085770
4.6834106 0.36925364 -1.7923237 4288085770
5.55336 0.37754107 -1.8143998 4288085770
6.3604736 0.38464546 -1.8178965 4288085770
7.1916962 0.39165926 -1.8116184 4288085770
8.4675751 0.39807749 -1.8435181 4288085770
9.7006531 0.40327835 -1.8530256 4288085770
10.820023 0.40818405 -1.8324667 4288085770
10.59787 0.62731552 -1.8136209 4288085770
9.5817108 0.65139008 -1.836778 4288085770
8.3908997 0.66810656 -1.8243469 4288085770
7.1522675 0.68162537 -1.7914907 4288085770
6.3473206 0.6995306 -1.7937025 4288085770
5.5884094 0.71642017 -1.7933592 4288085770
4.831604 0.73020697 -1.7820638 4288085770
11.178955 0.93703651 -1.7762319 4288085770
