# .PCD v0.7 - Point Cloud Data file format
VERSION 0.7
FIELDS x y z rgb
SIZE 4 4 4 4
TYPE F F F U
COUNT 1 1 1 1
WIDTH 1121
HEIGHT 1
VIEWPOINT 0 0 0 1 0 0 0
POINTS 1121
DATA ascii
4.4007568 -5.5795078 -1.2904668 4293729569
3.2103119 -4.9196839 -1.6252742 4293729569
4.9473724 -5.9515138 -1.4241462 4293729569
2.9530334 -4.7934728 -1.6277187 4293729569
5.0985107 -6.0824728 -1.5091989 4293729569
2.7708282 -4.7110944 -1.6422913 4293729569
5.033371 -6.0749259 -1.5619407 4293729569
2.5596008 -4.6077647 -1.6488338 4293729569
4.6848755 -5.8890214 -1.5712605 4293729569
2.362381 -4.5093985 -1.6564155 4293729569
4.3904572 -5.7319689 -1.5836856 4293729569
2.1561737 -4.4020348 -1.6589997 4293729569
4.1090698 -5.5798736 -1.5951459 4293729569
2.0110168 -4.3315506 -1.6746821 4293729569
3.7946472 -5.4038334 -1.5975718 4293729569
1.8468323 -4.2460847 -1.6823509 4293729569
3.5473022 -5.2646308 -1.6081235 4293729569
1.6576385 -4.1416616 -1.6829977 4293729569
3.3079681 -5.1293998 -1.6176925 4293729569
1.493454 -4.0511813 -1.6876905 4293729569
3.0426025 -4.9732084 -1.6192443 4293729569
1.3492889 -3.9706516 -1.6944258 4293729569
2.8373108 -4.8538709 -1.6278903 4293729569
1.177124 -3.8711624 -1.6921256 4293729569
2.6220245 -4.7245488 -1.633539 4293729569
1.0870209 -3.8215232 -1.7099564 4293729569
2.4497681 -4.6211271 -1.6452579 4293729569
1.0659485 -3.8167639 -1.7458837 4293729569
2.2605133 -4.5047321 -1.6519618 4293729569
1.0659027 -3.8219705 -1.7878575 4288085770
2.0992737 -4.4032626 -1.6607208 4293729569
1.0348053 -3.8062215 -1.8197923 4288085770
1.9460602 -4.3047695 -1.6695015 4293729569
0.92169189 -3.735599 -1.8266196 4288085770
1.8018494 -4.2112498 -1.6782992 4293729569
0.7905426 -3.6499968 -1.8264382 4288085770
1.6486359 -4.1087327 -1.6820991 4293729569
0.65640259 -3.5603895 -1.8232622 4288085770
1.4904327 -4.0022206 -1.6838958 4293729569
0.54629517 -3.4857337 -1.8251226 4288085770
1.354248 -3.9086528 -1.6877298 4293729569
0.45117188 -3.4200525 -1.831008 4288085770
1.2560883 -3.8370094 -1.6996303 4293729569
0.33206177 -3.3363905 -1.825871 4288085770
1.256012 -3.8271923 -1.736676 4293729569
0.22996521 -3.2627015 -1.825763 4288085770
1.2859497 -3.8343186 -1.780776 4288085770
1.2768555 -3.8155093 -1.8138247 4288085770
1.1667175 -3.7308588 -1.8167329 4288085770
1.074585 -3.6571689 -1.8226702 4288085770
0.95742798 -3.5655103 -1.8195808 4288085770
0.86831665 -3.4908066 -1.8245363 4288085770
0.78518677 -3.4180751 -1.8275094 4288085770
0.69406128 -3.3403533 -1.8274705 4288085770
0.60997009 -3.2666106 -1.8274441 4288085770
0.49584961 -3.172905 -1.8163781 4288085770
0.41877747 -3.1021361 -1.8153689 4288085770
0.34967041 -3.0353489 -1.815377 4288085770
0.27859497 -2.9665575 -1.8133855 4288085770
0.23452759 -2.9127238 -1.8194442 4288085770
0.24864197 -1.3659098 -1.826894 4288085770
0.2986908 -1.3427653 -1.82723 4288085770
0.36073303 -1.3215947 -1.8296106 4288085770
0.42077637 -1.3004253 -1.8309824 4288085770
0.48382568 -1.2792467 -1.8323677 4288085770
0.56285095 -1.2610396 -1.837811 4288085770
0.62091064 -1.2368568 -1.8351882 4288085770
0.66299438 -1.2086929 -1.8265121 4288085770
0.73304749 -1.1874839 -1.8259294 4288085770
0.81610107 -1.1682503 -1.8283954 4288085770
0.90414429 -1.1500016 -1.8308799 4288085770
0.98020935 -1.1287651 -1.8283241 4288085770
1.0702667 -1.1095005 -1.8288221 4288085770
1.165329 -1.0902263 -1.8303428 4288085770
1.2663879 -1.071929 -1.8308859 4288085770
1.3664398 -1.0526347 -1.8314292 4288085770
0.24082947 -0.82299501 -1.8244562 4288085770
1.4745178 -1.0343163 -1.8320038 4288085770
0.31088257 -0.80277616 -1.8218687 4288085770
1.5835724 -1.01599 -1.8315833 4288085770
0.39196777 -0.7845341 -1.821321 4288085770
1.6846313 -0.99466884 -1.827141 4288085770
0.47602844 -0.76627797 -1.8197873 4288085770
1.8036957 -0.97530806 -1.8257704 4288085770
0.56610107 -0.74800891 -1.8192806 4288085770
1.9237823 -0.95593929 -1.8234046 4288085770
0.66714478 -0.73171669 -1.8208144 4288085770
2.0448608 -0.93555778 -1.8190479 4288085770
0.76922607 -0.71441615 -1.8213573 4288085770
2.1809235 -0.91814584 -1.8177447 4288085770
0.87528992 -0.69810408 -1.8219135 4288085770
2.3120117 -0.89772987 -1.8124335 4288085770
0.99133301 -0.68177116 -1.8245149 4288085770
2.4560699 -0.87928921 -1.8101716 4288085770
1.1014252 -0.66443741 -1.8230939 4288085770
2.5991669 -0.85883725 -1.8049147 4288085770
1.2124939 -0.64609545 -1.8206825 4288085770
2.774231 -0.84231293 -1.8047836 4288085770
1.3355713 -0.62872744 -1.8203206 4288085770
2.9642944 -0.82674921 -1.8057153 4288085770
1.4776306 -0.61331666 -1.8230352 4288085770
3.1513672 -0.80917937 -1.8036432 4288085770
1.620697 -0.59689331 -1.8237591 4288085770
3.3624573 -0.7935521 -1.8046701 4288085770
1.7597656 -0.57946789 -1.8214698 4288085770
3.5885315 -0.77887523 -1.80476 4288085770
1.8938599 -0.56104743 -1.8171625 4288085770
3.8096008 -0.76119906 -1.8018422 4288085770
2.0579224 -0.54455626 -1.8169816 4288085770
4.057663 -0.74645615 -1.802032 4288085770
2.20401 -0.52509487 -1.8117337 4288085770
4.3177643 -0.73067224 -1.801281 4288085770
2.3620911 -0.50760245 -1.8075304 4288085770
4.6567841 -0.72070467 -1.8118584 4288085770
2.5481567 -0.49004078 -1.8064537 4288085770
4.9728699 -0.70676261 -1.8133516 4288085770
2.7462158 -0.47344756 -1.806427 4288085770
5.2749634 -0.68883371 -1.8088002 4288085770
2.9393158 -0.45585012 -1.8023822 4288085770
5.5610657 -0.66892391 -1.7981865 4288085770
3.1523895 -0.43820262 -1.8004282 4288085770
5.9211578 -0.65182096 -1.7938931 4288085770
3.355484 -0.41856086 -1.7934382 4288085770
6.2922516 -0.63468021 -1.78865 4288085770
3.6425323 -0.40472972 -1.7997999 4288085770
6.695343 -0.61643893 -1.7825565 4288085770
3.9016113 -0.38693941 -1.7970543 4288085770
7.1514282 -0.60004818 -1.7786932 4288085770
4.1846771 -0.36908662 -1.7964172 4288085770
7.6735077 -0.58647919 -1.7791145 4288085770
4.5107269 -0.35311949 -1.7989652 4288085770
8.2535858 -0.57173586 -1.779803 4288085770
4.8228149 -0.33416545 -1.7954643 4288085770
8.8936615 -0.55680799 -1.7797635 4288085770
5.1489105 -0.31415462 -1.7890317 4288085770
9.5177765 -0.53888476 -1.7706661 4288085770
5.5129852 -0.2950443 -1.7857664 4288085770
10.286896 -0.52356017 -1.7692108 4288085770
5.8790894 -0.27390432 -1.7775199 4288085770
11.125977 -0.50801647 -1.7660728 4288085770
6.3411407 -0.25551951 -1.7786937 4288085770
12.058075 -0.49118412 -1.7613609 4288085770
6.8042297 -0.23510754 -1.7748816 4288085770
13.061203 -0.47210968 -1.7509801 4288085770
7.3213043 -0.21453393 -1.7713144 4288085770
14.130341 -0.45080853 -1.7349081 4288085770
7.9063721 -0.19477046 -1.7710497 4288085770
8.6053925 -0.17469943 -1.778302 4288085770
9.2785034 -0.15163839 -1.7714508 4288085770
10.083557 -0.12821066 -1.7711973 4288085770
10.95462 -0.10257089 -1.7682528 4288085770
11.930695 -0.07560575 -1.7637885 4288085770
13.030762 -0.046259761 -1.7578957 4288085770
14.274826 -0.01547718 -1.7516599 4288085770
13.99263 0.20124686 -1.7528188 4288085770
12.663727 0.19619048 -1.7565992 4288085770
11.519821 0.19269061 -1.7612498 4288085770
10.488907 0.19155097 -1.7624383 4288085770
9.5410309 0.19168103 -1.7600193 4288085770
8.7581024 0.19327879 -1.7643774 4288085770
8.0142059 0.1950227 -1.7629178 4288085770
14.224457 0.20197833 -1.7409575 4288085770
7.3303223 0.19795787 -1.759743 4288085770
12.888489 0.20888996 -1.7467599 4288085770
6.7114258 0.20209301 -1.7558773 4288085770
11.715561 0.21630287 -1.7513244 4288085770
6.2314758 0.20657837 -1.7666621 4288085770
10.708588 0.22320044 -1.7596617 4288085770
5.736557 0.21106267 -1.7683766 4288085770
9.7336731 0.23125362 -1.7561531 4288085770
5.3026428 0.21672046 -1.7723811 4288085770
8.9107513 0.23974478 -1.7573557 4288085770
4.8987122 0.22246885 -1.7765262 4288085770
8.1708374 0.24849117 -1.7579467 4288085770
4.5227814 0.22931135 -1.7788069 4288085770
7.4899139 0.25742972 -1.7558138 4288085770
4.1568756 0.23619878 -1.7781341 4288085770
6.8820038 0.26658309 -1.7550228 4288085770
3.8359528 0.24320185 -1.7816722 4288085770
6.3690491 0.27598822 -1.7616763 4288085770
3.5350342 0.25027025 -1.7843037 4288085770
5.8741302 0.28348219 -1.7614038 4288085770
3.263092 0.25741601 -1.7890708 4288085770
5.4561615 0.29416847 -1.7695067 4288085770
2.9851837 0.26556861 -1.7888145 4288085770
5.0332489 0.30387402 -1.7705812 4288085770
2.7312775 0.27278841 -1.7896657 4288085770
4.6523132 0.31370139 -1.7728524 4288085770
2.4713593 0.28100932 -1.7864935 4288085770
4.2933807 0.32360005 -1.7742262 4288085770
2.2374573 0.28930438 -1.7844431 4288085770
3.9764709 0.33361483 -1.7777967 4288085770
2.0345612 0.29867268 -1.7865424 4288085770
3.6905212 0.34371817 -1.7825124 4288085770
1.8436127 0.30707228 -1.7896934 4288085770
3.3885956 0.35380328 -1.7811532 4288085770
1.6546936 0.3164928 -1.7898581 4288085770
3.1166687 0.36497366 -1.7809389 4288085770
1.4767914 0.32494116 -1.7910697 4288085770
2.8657532 0.3752023 -1.7818182 4288085770
1.3088531 0.33442008 -1.7923329 4288085770
2.6078491 0.38542962 -1.7786646 4288085770
1.147934 0.34391975 -1.7936289 4288085770
2.38591 0.3967458 -1.7796848 4288085770
1.0029907 0.35445273 -1.7980046 4288085770
2.1719971 0.40708578 -1.7807369 4288085770
0.85110474 0.36399436 -1.7963426 4288085770
1.9720764 0.41847789 -1.77986 4288085770
0.71916199 0.37357175 -1.7997742 4288085770
1.7991486 0.42992151 -1.785109 4288085770
0.57026672 0.38413715 -1.795131 4288085770
1.6202087 0.44037211 -1.7853255 4288085770
0.45732117 0.39476168 -1.8006566 4288085770
1.4432983 0.45183814 -1.783556 4288085770
0.34439087 0.40439618 -1.804177 4288085770
1.2873688 0.4633528 -1.7848847 4288085770
0.23345947 0.41504157 -1.8067117 4288085770
1.1334686 0.47387898 -1.785218 4288085770
1.0065002 0.4864608 -1.7906878 4288085770
0.87956238 0.49805319 -1.7941523 4288085770
0.73765564 0.50963008 -1.7915466 4288085770
0.61473083 0.52124894 -1.7920301 4288085770
0.50279236 0.53388631 -1.7955697 4288085770
0.39286804 0.5455395 -1.7971139 4288085770
0.279953 0.55719864 -1.7956443 4288085770
0.30410767 2.8119402 -1.7571461 4288085770
0.41513062 2.8512893 -1.75387 4288085770
0.52116394 2.8866334 -1.7485507 4288085770
0.65414429 2.9330292 -1.7494142 4288085770
0.78512573 2.9774289 -1.7482586 4288085770
0.94007874 3.0308762 -1.7522616 4288085770
1.1069946 3.0873542 -1.7573369 4288085770
1.2619476 3.1368217 -1.7573206 4288085770
0.23632812 2.7057147 -1.7523141 4288085770
1.4378815 3.1943316 -1.7614439 4288085770
0.35334778 2.7380729 -1.7510321 4288085770
1.6287842 3.2558775 -1.7676585 4288085770
0.47238159 2.7694368 -1.7497549 4288085770
1.8057404 3.309411 -1.7677674 4288085770
0.60636902 2.805831 -1.7515743 4288085770
1.9837036 3.3599582 -1.7658663 4288085770
0.74636841 2.842248 -1.7524221 4288085770
2.1726685 3.4135327 -1.7650328 4288085770
0.87940979 2.8746538 -1.7512169 4288085770
2.3686371 3.4671335 -1.7632325 4288085770
1.026413 2.9110918 -1.7520983 4288085770
2.5546265 3.5147238 -1.7573552 4288085770
1.1923828 2.9535718 -1.7561002 4288085770
2.7725677 3.5723815 -1.7576802 4288085770
1.3483734 2.9900379 -1.7570248 4288085770
2.9546204 3.6139793 -1.7477546 4288085770
1.5442963 3.0405841 -1.7662096 4288085770
3.1895599 3.6736937 -1.7471709 4288085770
1.7541962 3.0951581 -1.7784805 4288085770
3.4155579 3.7263999 -1.7425098 4288085770
1.9102478 3.1246481 -1.7743711 4288085770
3.6525269 3.7821398 -1.7379162 4288085770
2.0782928 3.1571698 -1.7713339 4288085770
3.9034882 3.838922 -1.7333946 4288085770
2.2513123 3.1887064 -1.7683158 4288085770
4.1814117 3.9037652 -1.7330415 4288085770
2.4343567 3.2212682 -1.7663503 4288085770
4.4823151 3.9736781 -1.7328229 4288085770
2.6124115 3.2508302 -1.7613466 4288085770
4.8082123 4.0496516 -1.7357535 4288085770
2.7864838 3.2753849 -1.7552991 4288085770
5.1590729 4.1316948 -1.7398336 4288085770
2.9695435 3.3009677 -1.749299 4288085770
5.5249176 4.213789 -1.7429855 4288085770
3.1616211 3.3275771 -1.7433476 4288085770
5.9087677 4.2979379 -1.7462332 4288085770
3.3886108 3.3642621 -1.7436128 4288085770
6.3046265 4.3811321 -1.7475338 4288085770
3.6086578 3.3949413 -1.7408149 4288085770
6.7115021 4.4633708 -1.7468824 4288085770
3.8347168 3.424643 -1.737041 4288085770
7.1573486 4.5537109 -1.7494571 4288085770
4.0727386 3.4563761 -1.7343345 4288085770
7.6321869 4.6481442 -1.7511904 4288085770
4.3377533 3.4921765 -1.7347767 4288085770
8.0840912 4.7275381 -1.7467401 4288085770
4.5977783 3.5239706 -1.7331755 4288085770
8.6538391 4.8412275 -1.7550216 4288085770
4.8867798 3.5618382 -1.7347424 4288085770
9.2515869 4.9560165 -1.7604425 4288085770
5.2007599 3.6027765 -1.7374442 4288085770
9.9092712 5.0839682 -1.7702146 4288085770
5.4927979 3.6346626 -1.7369964 4288085770
10.564011 5.2019353 -1.7749231 4288085770
5.800827 3.6656022 -1.7356203 4288085770
11.065033 5.2625365 -1.7586153 4288085770
6.1278534 3.698595 -1.7353449 4288085770
11.601044 5.3292403 -1.7435048 4288085770
6.4898224 3.7396674 -1.7402768 4288085770
12.278885 5.4293261 -1.7382362 4288085770
6.8318634 3.7677097 -1.7390492 4288085770
12.998718 5.5335398 -1.7331882 4288085770
7.184906 3.7957864 -1.7378743 4288085770
13.806488 5.6530037 -1.7316358 4288085770
7.5549469 3.8229136 -1.7367759 4288085770
14.65126 5.7725844 -1.7292607 4288085770
7.9529724 3.8531156 -1.7378263 4288085770
8.3410492 3.8743024 -1.7357848 4288085770
8.7550964 3.8965626 -1.7348726 4288085770
9.2420959 3.9320135 -1.7403738 4288085770
9.6392212 3.9402475 -1.7343121 4288085770
10.104294 3.9576626 -1.7336199 4288085770
10.671265 3.9943409 -1.7425098 4288085770
11.032516 3.9745107 -1.727138 4288085770
11.555588 3.9880915 -1.7287045 4288085770
12.121689 4.0008016 -1.7304718 4288085770
12.649811 3.9984164 -1.7279837 4288085770
13.212952 3.9951382 -1.7256582 4288085770
13.751144 3.9807935 -1.7211592 4288085770
14.344345 3.9676061 -1.7189283 4288085770
14.890579 3.9393015 -1.7113991 4288085770
15.042068 -4.7758203 -1.7390902 4288085770
13.208664 -4.4418764 -1.6329753 4293729569
12.623672 -4.4126701 -1.6343226 4293729569
12.069672 -4.3823705 -1.6358235 4293729569
11.561691 -4.3589463 -1.6405098 4293729569
11.061707 -4.3274884 -1.6432745 4293729569
10.584702 -4.2979655 -1.6471395 4293729569
10.135696 -4.2683635 -1.6521387 4293729569
9.7216949 -4.2446756 -1.6612759 4293729569
12.563995 -5.1705418 -1.1632679 4293729569
9.3106842 -4.2159634 -1.6674521 4293729569
12.490097 -5.2630692 -1.2224569 4293729569
8.9376678 -4.1941566 -1.6777761 4293729569
8.6036682 -4.1792469 -1.6912522 4293729569
14.155457 -6.041326 -1.4845698 4293729569
8.2716675 -4.1603312 -1.7047577 4293729569
13.714294 -6.01688 -1.5255816 4293729569
7.9636536 -4.1443429 -1.7183635 4288085770
13.038956 -5.9090381 -1.5448864 4293729569
7.6756592 -4.1303034 -1.7340553 4288085770
12.341629 -5.7832274 -1.5571747 4293729569
7.4016418 -4.1162276 -1.7508144 4288085770
11.614258 -5.6364779 -1.5634229 4293729569
7.1396179 -4.1051254 -1.7696161 4288085770
10.976944 -5.5124817 -1.5749891 4293729569
6.8585968 -4.0810504 -1.7823908 4288085770
10.357635 -5.3854051 -1.5816565 4293729569
6.5585632 -4.0460129 -1.7911286 4288085770
9.7993469 -5.2741642 -1.5925372 4293729569
6.2425232 -4.001009 -1.7968395 4288085770
9.2570801 -5.1608653 -1.6015046 4293729569
5.914444 -3.9470162 -1.7975373 4288085770
8.7738037 -5.0614028 -1.6136861 4293729569
5.6354065 -3.905911 -1.8054059 4288085770
8.2485504 -4.9390168 -1.6157799 4293729569
5.3313599 -3.8518462 -1.8062186 4288085770
7.7282562 -4.8116117 -1.6169221 4293729569
5.0452881 -3.8007321 -1.8081031 4288085770
7.2780151 -4.7060146 -1.6222916 4293729569
4.7352142 -3.7356658 -1.8049417 4288085770
6.8377838 -4.5973763 -1.6257241 4293729569
4.4871674 -3.6924562 -1.8109689 4288085770
6.482605 -4.5185218 -1.6374159 4293729569
4.2191315 -3.6372776 -1.8109591 4288085770
6.0363617 -4.3968673 -1.6338835 4293729569
3.9650574 -3.5830617 -1.8120122 4288085770
5.7142029 -4.3229079 -1.6447086 4293729569
3.7290192 -3.5338011 -1.8151264 4288085770
5.381012 -4.2379613 -1.6515357 4293729569
3.5119781 -3.4904933 -1.8203022 4288085770
5.086853 -4.1659164 -1.6624856 4293729569
3.2799225 -3.4362061 -1.8204606 4288085770
4.7917023 -4.08986 -1.6704502 4293729569
3.0818939 -3.3938406 -1.8257227 4288085770
4.5115509 -4.016758 -1.6784723 4293729569
2.8628387 -3.3395138 -1.8259435 4288085770
4.3184509 -3.9784579 -1.6997383 4293729569
2.6927795 -3.3040838 -1.8353052 4288085770
4.1823578 -3.9630299 -1.7301643 4293729569
2.5107422 -3.2596602 -1.8386543 4288085770
4.0772858 -3.9595332 -1.7656791 4288085770
2.3056946 -3.2032809 -1.8369517 4288085770
3.9702148 -3.9540377 -1.8001947 4288085770
2.1056519 -3.1458766 -1.8332787 4288085770
3.7991333 -3.9156661 -1.8205664 4288085770
1.9396057 -3.1014047 -1.8367045 4288085770
3.5459595 -3.8344574 -1.8237579 4288085770
1.7635651 -3.0509481 -1.8371117 4288085770
3.2938232 -3.7522311 -1.8239589 4288085770
1.6035461 -3.0054479 -1.8385711 4288085770
3.0577087 -3.6729507 -1.8232219 4288085770
1.4454956 -2.9579415 -1.8400502 4288085770
2.8616028 -3.61059 -1.8305926 4288085770
1.2664795 -2.8974538 -1.8324928 4288085770
2.6484985 -3.5382507 -1.8319314 4288085770
1.1064301 -2.8449337 -1.829987 4288085770
2.4513855 -3.4698677 -1.8343275 4288085770
0.95939636 -2.7963791 -1.8285239 4288085770
2.2372589 -3.390511 -1.8316963 4288085770
0.80738831 -2.7438297 -1.8250563 4288085770
2.0401764 -3.3181083 -1.8301117 4288085770
0.67337036 -2.6972408 -1.8246458 4288085770
1.8600769 -3.2496591 -1.8295894 4288085770
0.53933716 -2.649642 -1.8222401 4288085770
1.7029877 -3.1921649 -1.8341229 4288085770
0.42131042 -2.6080151 -1.8238814 4288085770
1.5469208 -3.1326582 -1.8366711 4288085770
0.31329346 -2.5703676 -1.8275511 4288085770
1.3818359 -3.0661583 -1.8352108 4288085770
1.2067566 -2.9926589 -1.8277373 4288085770
1.0696869 -2.9370942 -1.8303571 4288085770
0.9236145 -2.874537 -1.8289683 4288085770
0.76855469 -2.8059769 -1.8215661 4288085770
0.63050842 -2.7443852 -1.8182106 4288085770
0.52046204 -2.6957388 -1.8209255 4288085770
0.41041565 -2.6460924 -1.8236454 4288085770
0.29837036 -2.5934324 -1.8223705 4288085770
0.29478455 -0.2928251 -1.8100252 4288085770
0.39785767 -0.27952313 -1.811595 4288085770
0.49093628 -0.26522636 -1.8081212 4288085770
0.5980072 -0.25190234 -1.8077109 4288085770
0.68611145 -0.2366004 -1.8002181 4288085770
0.83314514 -0.22520065 -1.8089929 4288085770
0.95922852 -0.21282399 -1.8096704 4288085770
1.0653381 -0.19746768 -1.8022659 4288085770
1.1864471 -0.18408048 -1.7979245 4288085770
0.25314331 -0.098013043 -1.813818 4288085770
1.3444977 -0.17162728 -1.8027587 4288085770
0.36024475 -0.085683823 -1.8124027 4288085770
1.4915924 -0.15917659 -1.8015394 4288085770
0.47431946 -0.074338555 -1.812017 4288085770
1.6586456 -0.14668083 -1.8034179 4288085770
0.58241272 -0.060995936 -1.8086119 4288085770
1.8227386 -0.13317847 -1.8022869 4288085770
0.70550537 -0.048618197 -1.8072753 4288085770
1.9918365 -0.12065637 -1.8001757 4288085770
0.83758545 -0.037218451 -1.8069777 4288085770
2.1659241 -0.10711396 -1.7970941 4288085770
0.96369934 -0.024821281 -1.8036559 4288085770
2.3560181 -0.094528079 -1.7950854 4288085770
1.1147614 -0.013373852 -1.8054516 4288085770
2.5451202 -0.080929995 -1.7900774 4288085770
1.273819 -0.0019019842 -1.807286 4288085770
2.775177 -0.069242835 -1.7922597 4288085770
1.4049377 0.010530472 -1.7999892 4288085770
3.0132751 -0.056521416 -1.7924862 4288085770
1.5880127 0.021064639 -1.8039362 4288085770
3.2603455 -0.043767691 -1.7917571 4288085770
1.7670898 0.032602191 -1.8048692 4288085770
3.5124512 -0.030983567 -1.7880528 4288085770
1.9431915 0.044150949 -1.8017876 4288085770
3.7955475 -0.019125581 -1.7884951 4288085770
2.1352844 0.05574286 -1.7997844 4288085770
4.0966339 -0.0061980486 -1.7860308 4288085770
2.3283844 0.067353249 -1.7947867 4288085770
4.3997192 0.0067456961 -1.7815766 4288085770
2.5364838 0.078993797 -1.7928619 4288085770
4.7468262 0.018802881 -1.7813325 4288085770
2.7745667 0.089715123 -1.7930791 4288085770
5.1059265 0.031921387 -1.7761528 4288085770
3.0136719 0.10145521 -1.7903063 4288085770
5.4910431 0.045119286 -1.7711005 4288085770
3.2857361 0.11227465 -1.7916903 4288085770
5.9171295 0.057435751 -1.7672441 4288085770
3.5548553 0.12311029 -1.7880599 4288085770
6.3972321 0.069906354 -1.7656519 4288085770
3.8569641 0.1340363 -1.7865911 4288085770
6.9003448 0.083461642 -1.761178 4288085770
4.1700439 0.1450001 -1.7841766 4288085770
7.4924164 0.095261455 -1.76213 4288085770
4.5131531 0.15605533 -1.7819092 4288085770
8.1604919 0.10828686 -1.7644591 4288085770
4.880249 0.16718352 -1.7797592 4288085770
8.8895874 0.12150264 -1.7660873 4288085770
5.271347 0.17738926 -1.7767222 4288085770
9.6706848 0.13490593 -1.7619708 4288085770
5.6864624 0.18868291 -1.770808 4288085770
10.579758 0.14868236 -1.7614815 4288085770
6.1755524 0.19917107 -1.7712512 4288085770
11.59288 0.16177917 -1.7604973 4288085770
6.6676788 0.20969832 -1.7657096 4288085770
12.697998 0.17618036 -1.7549691 4288085770
7.2327728 0.22043657 -1.762526 4288085770
14.024094 0.19124162 -1.7525244 4288085770
7.9048462 0.23045909 -1.7678616 4288085770
8.6369324 0.24067891 -1.7704914 4288085770
9.4110413 0.25105131 -1.7683277 4288085770
10.316132 0.26080072 -1.7708011 4288085770
11.313248 0.27085459 -1.7687259 4288085770
12.406372 0.28121972 -1.7631218 4288085770
13.704498 0.29019666 -1.7605131 4288085770
13.91243 0.50508749 -1.7549562 4288085770
12.647476 0.52013814 -1.758677 4288085770
11.55249 0.5357033 -1.7632523 4288085770
10.643509 0.55083215 -1.7717626 4288085770
9.6756134 0.56286848 -1.7629592 4288085770
8.909668 0.57647431 -1.7651803 4288085770
8.1847382 0.58923757 -1.7616029 4288085770
14.598389 0.80529678 -1.7340059 4288085770
7.5098419 0.60116541 -1.7562718 4288085770
13.360382 0.81538618 -1.7458346 4288085770
6.9488831 0.61441195 -1.7575216 4288085770
12.200455 0.82276833 -1.7480407 4288085770
6.4679413 0.62787902 -1.7641747 4288085770
11.367401 0.83806241 -1.7699335 4288085770
6.0309601 0.64248669 -1.7700548 4288085770
10.50444 0.84833777 -1.7776484 4288085770
5.6259918 0.65618718 -1.777091 4288085770
9.4696655 0.84825194 -1.7524433 4288085770
5.2190704 0.66991866 -1.7771173 4288085770
8.7297211 0.85794795 -1.7527738 4288085770
4.8610992 0.68277943 -1.7813852 4288085770
8.0617981 0.86687577 -1.7514617 4288085770
4.4662323 0.69359529 -1.7724564 4288085770
7.457901 0.876001 -1.7504728 4288085770
4.1423035 0.70658195 -1.7728958 4288085770
6.9459534 0.88738286 -1.7549584 4288085770
3.8663483 0.72069514 -1.7775829 4288085770
6.4630127 0.89786971 -1.7565851 4288085770
3.6173859 0.73488128 -1.7844057 4288085770
6.0410614 0.9105283 -1.7615304 4288085770
3.3414612 0.74703157 -1.7820826 4288085770
5.6770782 0.92434967 -1.7697732 4288085770
3.0885468 0.75924718 -1.7808747 4288085770
5.2851562 0.93512714 -1.7698588 4288085770
2.8576202 0.77252018 -1.7817833 4288085770
4.9462128 0.94805157 -1.7732227 4288085770
2.6456757 0.78584635 -1.7837877 4288085770
4.5813293 0.95694387 -1.7674339 4288085770
2.4447479 0.79921162 -1.7848477 4288085770
4.2714081 0.96797907 -1.7669337 4288085770
2.2418365 0.81059158 -1.7818873 4288085770
3.9944763 0.98010504 -1.7686048 4288085770
2.0569 0.82401121 -1.782028 4288085770
3.7245331 0.9922632 -1.7683115 4288085770
1.8789825 0.83646333 -1.7801988 4288085770
3.4855957 1.0055007 -1.7711797 4288085770
1.7140503 0.84894454 -1.7804351 4288085770
3.2376862 1.0157424 -1.7679868 4288085770
1.5761108 0.86348784 -1.7848182 4288085770
3.0227509 1.0290595 -1.7699761 4288085770
1.4281769 0.87702167 -1.7851455 4288085770
2.8188324 1.042415 -1.7710209 4288085770
1.2842407 0.89057243 -1.7844932 4288085770
2.6329041 1.0558215 -1.7731566 4288085770
1.1593018 0.90516627 -1.7869418 4288085770
2.4519348 1.0702428 -1.7753227 4288085770
1.0214081 0.91774666 -1.7843144 4288085770
2.2750244 1.082692 -1.7744985 4288085770
0.90246582 0.93136418 -1.7857881 4288085770
2.1001129 1.0941533 -1.7726796 4288085770
0.79652405 0.94601643 -1.7883327 4288085770
1.9461823 1.1086634 -1.7739816 4288085770
0.69856262 0.96168268 -1.792923 4288085770
1.8152161 1.1242281 -1.7784054 4288085770
0.60661316 0.97736752 -1.7975433 4288085770
1.6643066 1.1367682 -1.7757125 4288085770
0.51365662 0.99305999 -1.8001587 4288085770
1.5343781 1.1513516 -1.7771361 4288085770
0.41075134 1.0057427 -1.798708 4288085770
1.3914642 1.163922 -1.7734835 4288085770
0.32577515 1.0224541 -1.8023691 4288085770
1.269516 1.1785353 -1.7739475 4288085770
0.22686768 1.0351597 -1.7989385 4288085770
1.1755371 1.1962036 -1.7805686 4288085770
1.0646057 1.2108561 -1.7800882 4288085770
0.94271851 1.2224964 -1.7755363 4288085770
0.8447876 1.2381841 -1.7761266 4288085770
0.76481628 1.2559003 -1.7818184 4288085770
0.67686462 1.2716185 -1.7824593 4288085770
0.59791565 1.2893533 -1.7851565 4288085770
0.50700378 1.304073 -1.7837768 4288085770
0.44900513 1.3248519 -1.7905955 4288085770
0.36309814 1.3395921 -1.7882414 4288085770
0.29115295 1.3563591 -1.7889681 4288085770
0.2182312 1.3731343 -1.7876902 4288085770
0.23152161 3.4120302 -1.7556796 4288085770
0.30450439 3.465281 -1.7503343 4288085770
0.39642334 3.5295744 -1.7481439 4288085770
0.4863739 3.590867 -1.7449276 4288085770
0.61021423 3.6722159 -1.7509897 4288085770
0.72009277 3.7435532 -1.7509279 4288085770
0.8449707 3.8229327 -1.7519851 4288085770
0.97085571 3.9013147 -1.7530417 4288085770
1.0817719 3.9696879 -1.7469702 4288085770
1.2315979 4.0601277 -1.7512128 4288085770
1.3695068 4.1405683 -1.7483418 4288085770
0.26835632 3.5330954 -1.7545345 4288085770
1.5661926 4.256115 -1.7599564 4288085770
0.37930298 3.5944357 -1.7544248 4288085770
1.7110901 4.3375878 -1.7551265 4288085770
0.49920654 3.6598058 -1.7543821 4288085770
1.918808 4.4561791 -1.7648132 4288085770
0.6181488 3.7231774 -1.7533243 4288085770
2.1006165 4.5557394 -1.7652671 4288085770
0.76699829 3.8026032 -1.7595038 4288085770
2.2684631 4.6452827 -1.7605975 4288085770
0.88395691 3.8609896 -1.7544093 4288085770
2.5031586 4.7729673 -1.7684696 4288085770
1.0248566 3.9324236 -1.7545059 4288085770
2.7458496 4.9026833 -1.7753932 4288085770
1.1727448 4.0048785 -1.7546432 4288085770
2.9546509 5.0093527 -1.7710226 4288085770
1.3316193 4.0823627 -1.7558634 4288085770
3.2043915 5.1361165 -1.7729664 4288085770
1.513443 4.1708961 -1.7612591 4288085770
3.4112244 5.234807 -1.7635436 4288085770
1.6912842 4.2554278 -1.7646132 4288085770
3.6480255 5.3495746 -1.7573583 4288085770
1.877121 4.3409948 -1.7660134 4288085770
3.9287262 5.4854431 -1.7575085 4288085770
2.0749512 4.4315934 -1.7685015 4288085770
4.2244263 5.6273642 -1.7567668 4288085770
2.277771 4.5222073 -1.7710152 4288085770
4.5480804 5.7813683 -1.7572315 4288085770
2.4646912 4.6008101 -1.7663836 4288085770
4.8976746 5.9454393 -1.7598817 4288085770
2.6994629 4.7035122 -1.7711239 4288085770
5.2503052 6.1075416 -1.7585371 4288085770
2.9292755 4.8002143 -1.7728071 4288085770
5.6707764 6.3038096 -1.7657192 4288085770
3.1571045 4.8929276 -1.7714593 4288085770
6.0863342 6.4910965 -1.7668281 4288085770
3.4039307 4.9926882 -1.7722452 4288085770
6.5348053 6.6914787 -1.7691748 4288085770
3.62883 5.0764241 -1.7648346 4288085770
7.0212555 6.906971 -1.7727942 4288085770
3.8587341 5.1601701 -1.7584496 4288085770
7.5077362 7.1174927 -1.7713878 4288085770
4.1434937 5.2690468 -1.7594774 4288085770
8.0261993 7.3371115 -1.7701924 4288085770
4.4362793 5.3799548 -1.7595563 4288085770
8.5995636 7.5788946 -1.7703938 4288085770
4.7510376 5.4959311 -1.759774 4288085770
9.2468414 7.8538885 -1.7741475 4288085770
5.0907593 5.6219668 -1.7631721 4288085770
9.9200897 8.1329756 -1.7760556 4288085770
5.4205322 5.737 -1.7614615 4288085770
5.7942352 5.8711462 -1.7640755 4288085770
6.1559753 5.9932775 -1.7625651 4288085770
6.5506897 6.1265001 -1.7632813 4288085770
6.9623871 6.262774 -1.7641003 4288085770
7.4230194 6.4171906 -1.7672646 4288085770
7.860733 6.5525656 -1.7642109 4288085770
8.3883057 6.7261658 -1.7718172 4288085770
8.908905 6.8887758 -1.7733305 4288085770
9.4255829 7.040391 -1.7717645 4288085770
9.9662476 7.1950912 -1.7683372 4288085770
10.523895 7.3508434 -1.7650023 4288085770
11.168442 7.5368299 -1.7682693 4288085770
11.772095 7.695735 -1.763185 4288085770
12.494568 7.8989639 -1.7669406 4288085770
13.155243 8.0620556 -1.7601681 4288085770
13.912766 8.2574072 -1.7610593 4288085770
14.714233 -1.9366913 -1.7535241 4288085770
14.044449 -1.9828081 -1.7578738 4288085770
13.469666 -2.0316641 -1.7686906 4288085770
12.828857 -2.0616646 -1.7682741 4288085770
12.242035 -2.0925202 -1.7721274 4288085770
11.721207 -2.1241882 -1.7793107 4288085770
11.140366 -2.1399927 -1.7772751 4288085770
10.617523 -2.1566401 -1.7795291 4288085770
10.16864 -2.179091 -1.7881277 4288085770
9.757782 -2.202436 -1.7989142 4288085770
9.2398987 -2.2010248 -1.7932909 4288085770
8.7770233 -2.2044706 -1.7929204 4288085770
15.189178 -3.394206 -1.7330358 4288085770
8.3031311 -2.1989236 -1.7875426 4288085770
14.317093 -3.3499694 -1.7408457 4288085770
7.853241 -2.191308 -1.7832978 4288085770
13.450012 -3.29368 -1.7417459 4288085770
7.4573364 -2.1895525 -1.7842956 4288085770
12.684937 -3.2481027 -1.748106 4288085770
7.0624542 -2.1817777 -1.7823308 4288085770
12.013901 -3.212256 -1.7588911 4288085770
6.7175446 -2.1788704 -1.7845936 4288085770
11.370834 -3.1733074 -1.766835 4288085770
6.3726196 -2.1729577 -1.7858727 4288085770
10.764786 -3.134244 -1.7749677 4288085770
6.0697021 -2.1719365 -1.7913384 4288085770
10.19574 -3.0970666 -1.7832775 4288085770
5.757782 -2.1629217 -1.7928016 4288085770
9.6186829 -3.0488873 -1.7866063 4288085770
5.4838409 -2.1598167 -1.7994258 4288085770
9.0406189 -2.9946835 -1.7849624 4288085770
5.1899109 -2.1487412 -1.7999916 4288085770
8.4995728 -2.9413602 -1.7825019 4288085770
4.9160004 -2.1386147 -1.8026538 4288085770
7.9895172 -2.8899465 -1.7811885 4288085770
4.6610413 -2.1304405 -1.8074019 4288085770
7.523468 -2.8434081 -1.7820721 4288085770
4.4570923 -2.1301465 -1.8193662 4288085770
7.039444 -2.785887 -1.7759233 4288085770
4.1971588 -2.1149607 -1.8191266 4288085770
6.6374054 -2.7451615 -1.7791007 4288085770
3.8702393 -2.0769005 -1.8036706 4288085770
6.264389 -2.7063465 -1.7824147 4288085770
3.6622925 -2.0675809 -1.8086634 4288085770
5.899353 -2.6645014 -1.784786 4288085770
3.4283447 -2.0493147 -1.8085725 4288085770
5.5573425 -2.6255851 -1.7872579 4288085770
3.2333984 -2.0379608 -1.8146424 4288085770
5.2622986 -2.5955563 -1.7959208 4288085770
3.0264587 -2.0206161 -1.8156834 4288085770
4.9522858 -2.5575361 -1.7975507 4288085770
2.8394928 -2.0062268 -1.8198106 4288085770
4.6792755 -2.5254283 -1.8043361 4288085770
2.657547 -1.9918216 -1.8239627 4288085770
4.4202576 -2.4952776 -1.8111825 4288085770
2.4655914 -1.9724261 -1.8240914 4288085770
4.1422424 -2.4561532 -1.8119807 4288085770
2.2806396 -1.9520085 -1.8242612 4288085770
3.8832245 -2.4189751 -1.8138652 4288085770
2.1206818 -1.9375353 -1.8285255 4288085770
3.6212311 -2.3787901 -1.8127503 4288085770
1.9587402 -1.9190576 -1.8308012 4288085770
3.3802032 -2.3415568 -1.8147266 4288085770
1.8217621 -1.9075356 -1.8391669 4288085770
3.1502075 -2.305284 -1.8157535 4288085770
1.6668091 -1.8890363 -1.8414786 4288085770
2.9521942 -2.2759342 -1.820905 4288085770
1.5018768 -1.8645408 -1.8387716 4288085770
2.7461853 -2.2425976 -1.824038 4288085770
1.3439178 -1.8410292 -1.8370953 4288085770
2.5601807 -2.2132053 -1.8282509 4288085770
1.2119598 -1.8234644 -1.8405185 4288085770
2.3621826 -2.1768284 -1.8284409 4288085770
1.0690002 -1.800917 -1.8409131 4288085770
2.1591949 -2.1374505 -1.8256216 4288085770
0.92306519 -1.775358 -1.8373086 4288085770
1.9951935 -2.1079903 -1.8299468 4288085770
0.792099 -1.7537739 -1.837759 4288085770
1.8261871 -2.0765345 -1.8322577 4288085770
0.64515686 -1.7252066 -1.832166 4288085770
1.6901855 -2.0530148 -1.8416929 4288085770
0.48822021 -1.6906374 -1.8205545 4288085770
1.5252075 -2.0185246 -1.8400404 4288085770
0.37428284 -1.6700062 -1.8220859 4288085770
1.3632202 -1.9830257 -1.8384085 4288085770
0.24632263 -1.6423804 -1.8165846 4288085770
1.2132263 -1.9495006 -1.8388271 4288085770
1.0602417 -1.9139681 -1.836241 4288085770
0.91825867 -1.880407 -1.8347003 4288085770
0.77130127 -1.8438452 -1.8301504 4288085770
0.62931824 -1.8072629 -1.8246264 4288085770
0.49536133 -1.771661 -1.8201375 4288085770
0.36637878 -1.7370491 -1.8166687 4288085770
0.25740051 -1.7083972 -1.8172691 4288085770
0.25695801 0.33605647 -1.8003931 4288085770
0.36604309 0.34839177 -1.8000176 4288085770
0.47315979 0.3607378 -1.7966318 4288085770
0.59022522 0.37310326 -1.7952974 4288085770
0.68836975 0.38445461 -1.7858601 4288085770
0.84040833 0.39688361 -1.7927046 4288085770
0.97050476 0.40930045 -1.7894368 4288085770
1.1156006 0.42174661 -1.7892456 4288085770
0.24357605 0.42198622 -1.7977998 4288085770
1.2656708 0.43421423 -1.7880802 4288085770
0.37765503 0.43336546 -1.8035467 4288085770
1.4217529 0.44569409 -1.7879398 4288085770
0.48477173 0.44272792 -1.7971447 4288085770
1.5798645 0.45820272 -1.7838156 4288085770
0.61985779 0.45213258 -1.7988858 4288085770
1.7489624 0.46973383 -1.7817421 4288085770
0.74993896 0.46253836 -1.7976069 4288085770
1.9360352 0.48231494 -1.7807662 4288085770
0.87506104 0.47095096 -1.7922916 4288085770
2.1221313 0.49390423 -1.7777801 4288085770
1.0231628 0.48040617 -1.7920997 4288085770
2.3452148 0.50657403 -1.7809885 4288085770
1.1742401 0.48987663 -1.7909231 4288085770
2.5832672 0.5202955 -1.7832792 4288085770
1.3303528 0.49837315 -1.7877665 4288085770
2.8093567 0.53200233 -1.781498 4288085770
1.5004425 0.50789702 -1.7876873 4288085770
3.0734253 0.54480422 -1.7839165 4288085770
1.6715546 0.51643431 -1.7856076 4288085770
3.3435211 0.55763543 -1.7843659 4288085770
1.8676453 0.5250324 -1.7866559 4288085770
3.6246185 0.56951153 -1.7828665 4288085770
2.064743 0.53364408 -1.7857096 4288085770
3.8997345 0.5813967 -1.7763364 4288085770
2.2698364 0.5412811 -1.7847984 4288085770
4.2058411 0.59336126 -1.772965 4288085770
2.4979248 0.54998267 -1.7850111 4288085770
4.5559235 0.6054498 -1.7718189 4288085770
2.7609863 0.55875933 -1.7914023 4288085770
4.9629669 0.61968076 -1.7769756 4288085770
3.0010986 0.56651461 -1.788671 4288085770
5.3600616 0.63192475 -1.7740705 4288085770
3.2512207 0.57331216 -1.7839854 4288085770
5.7911682 0.64426816 -1.7723393 4288085770
3.5263367 0.57916987 -1.7824221 4288085770
6.2243042 0.65565145 -1.7646136 4288085770
3.8174591 0.58608234 -1.7799463 4288085770
6.7014313 0.66816437 -1.7581186 4288085770
4.121582 0.59204066 -1.7765319 4288085770
7.2365417 0.67985046 -1.7529149 4288085770
4.478653 0.59813392 -1.778389 4288085770
7.8806152 0.69383276 -1.755281 4288085770
4.8777466 0.60435164 -1.7814608 4288085770
8.6206512 0.71009481 -1.7611494 4288085770
5.2518921 0.60853088 -1.7773941 4288085770
9.3637848 0.72242129 -1.7570114 4288085770
5.6790009 0.61386216 -1.7756045 4288085770
10.316803 0.74031627 -1.7679768 4288085770
6.1421356 0.61730421 -1.773988 4288085770
11.290894 0.75534284 -1.7670336 4288085770
6.5763092 0.61771262 -1.762207 4288085770
12.228073 0.76634967 -1.7488797 4288085770
7.1104431 0.62038457 -1.758949 4288085770
13.490173 0.78226268 -1.7494118 4288085770
7.7225494 0.62228549 -1.7580853 4288085770
14.78334 0.79534924 -1.7360871 4288085770
8.4456482 0.62448943 -1.7647901 4288085770
9.1687927 0.62374294 -1.7624786 4288085770
10.076889 0.6245054 -1.7721198 4288085770
11.020035 0.62142575 -1.7729192 4288085770
11.909286 0.61228549 -1.7544091 4288085770
13.179398 0.60617888 -1.7628615 4288085770
14.48259 0.59624636 -1.7584615 4288085770
4.6937714 -4.5017133 -0.41673219 4293729569
6.5940247 -5.109705 -0.038030028 4293729569
6.6199951 -5.136117 -0.65603137 4293729569
6.6017303 -5.0308957 -0.075516224 4293729569
6.600647 -5.0453811 -0.69144654 4293729569
6.6684875 -4.9768991 -0.11216557 4293729569
6.6724091 -4.99438 -0.73010468 4293729569
14.297287 -7.6111822 -1.5064523 4293729569
13.86438 -7.2925677 -1.5140357 4293729569
13.51358 -7.0117173 -1.5248268 4293729569
13.127762 -6.7249403 -1.5294719 4293729569
12.883118 -6.4957685 -1.5415156 4293729569
12.597458 -6.2546892 -1.547416 4293729569
12.336838 -6.0275259 -1.5523663 4293729569
12.153305 -5.8331494 -1.561527 4293729569
11.93277 -5.6268525 -1.5645652 4293729569
11.853348 -5.4741831 -1.5790243 4293729569
11.69989 -5.2946906 -1.5842552 4293729569
11.591461 -5.1330709 -1.5916166 4293729569
12.462021 -5.2749176 -0.80426311 4293729569
11.518066 -4.9843545 -1.6010847 4293729569
12.589767 -5.1846547 -0.82743382 4293729569
11.458694 -4.8405833 -1.608597 4293729569
11.403351 -4.7008004 -1.6161072 4293729569
11.352005 -4.5619941 -1.6216331 4293729569
11.327698 -4.4311094 -1.6282525 4293729569
11.466446 -4.3468022 -1.6494467 4293729569
11.90329 -4.3427358 -1.6997187 4288085770
12.38916 -4.34553 -1.7522042 4288085770
12.43187 -4.2274451 -1.7600968 4288085770
12.399582 -4.089529 -1.756716 4288085770
12.372284 -3.9535971 -1.7533498 4288085770
12.429047 -3.8384404 -1.7562981 4288085770
12.491791 -3.7232599 -1.7582777 4288085770
12.511551 -3.5981836 -1.7550919 4288085770
12.573318 -3.4829891 -1.7540669 4288085770
12.652084 -3.3717422 -1.7531071 4288085770
12.759872 -3.2644117 -1.753274 4288085770
12.890686 -3.1600103 -1.7535434 4288085770
13.021469 -3.0535975 -1.7518241 4288085770
13.161301 -2.9491515 -1.74914 4288085770
13.325089 -2.845643 -1.7485747 4288085770
13.509918 -2.7450585 -1.7461007 4288085770
13.743729 -2.6483402 -1.7468574 4288085770
14.024551 -2.5564888 -1.7498286 4288085770
14.316391 -2.4625976 -1.7518685 4288085770
14.376221 -2.33429 -1.7299094 4288085770
14.884033 -2.2628133 -1.7469342 4288085770
14.944611 0.83199775 -1.7404764 4288085770
13.766556 0.87229478 -1.7475517 4288085770
12.685532 0.90792453 -1.7491069 4288085770
11.804489 0.94314039 -1.7567062 4288085770
11.069397 0.98076403 -1.7720838 4288085770
10.267426 1.009281 -1.7700565 4288085770
9.4155579 1.0287441 -1.7507136 4288085770
8.812561 1.0558554 -1.7527194 4288085770
8.2176208 1.080021 -1.7497494 4288085770
14.610626 1.5451676 -1.698962 4288085770
7.6906586 1.1033891 -1.7481303 4288085770
13.641602 1.5660778 -1.7120159 4288085770
7.2056885 1.126881 -1.7477319 4288085770
12.670654 1.5790411 -1.7150121 4288085770
6.7807159 1.1515514 -1.7486544 4288085770
11.907608 1.6005968 -1.7271478 4288085770
6.4067383 1.176355 -1.7538445 4288085770
11.224579 1.6233972 -1.7397091 4288085770
6.0407562 1.2002069 -1.7550704 4288085770
10.527618 1.6392092 -1.743156 4288085770
5.7007904 1.2231325 -1.7574275 4288085770
9.7797546 1.6439456 -1.7322702 4288085770
5.3578644 1.2430903 -1.7527509 4288085770
9.1358643 1.6529778 -1.7259541 4288085770
5.0778809 1.2661947 -1.7564225 4288085770
8.611908 1.6693331 -1.7283092 4288085770
4.8148956 1.290351 -1.7601898 4288085770
8.0920105 1.6817349 -1.7246618 4288085770
4.5918884 1.3156065 -1.7681727 4288085770
7.6250763 1.6952878 -1.7232985 4288085770
4.3269653 1.3357981 -1.7649055 4288085770
7.2101288 1.711989 -1.7242262 4288085770
4.0310974 1.3489474 -1.7524345 4288085770
6.8181915 1.7277731 -1.7232685 4288085770
3.828125 1.3722941 -1.7555103 4288085770
6.4882202 1.7477175 -1.7276599 4288085770
3.6281433 1.3936616 -1.7565906 4288085770
6.1502686 1.7646676 -1.7269919 4288085770
3.4481812 1.4170793 -1.7597876 4288085770
5.820343 1.7796537 -1.724354 4288085770
3.2652435 1.4375054 -1.7599509 4288085770
5.5324249 1.7967573 -1.7239485 4288085770
3.1032562 1.4599837 -1.7622366 4288085770
5.270462 1.8159343 -1.7246916 4288085770
2.9293213 1.4804496 -1.7604473 4288085770
5.0354919 1.8381768 -1.7285936 4288085770
2.7833405 1.5029773 -1.7628169 4288085770
4.7945404 1.8554307 -1.7274351 4288085770
2.6413879 1.5255231 -1.7642076 4288085770
4.5835876 1.8767587 -1.7294576 4288085770
2.5194092 1.5501131 -1.7687149 4288085770
4.3526764 1.8930546 -1.7263455 4288085770
2.391449 1.5717081 -1.7691731 4288085770
4.1427307 1.9094154 -1.7233438 4288085770
2.2684937 1.5943125 -1.7706637 4288085770
3.9348297 1.925794 -1.7183526 4288085770
2.150528 1.6179377 -1.7711861 4288085770
3.7728577 1.9492668 -1.7216442 4288085770
2.0545197 1.6436018 -1.7768364 4288085770
3.6258698 1.9747857 -1.7250264 4288085770
1.9316101 1.6632355 -1.7733088 4288085770
3.4679108 1.9962882 -1.7253275 4288085770
1.8206482 1.6848944 -1.7718568 4288085770
3.3379517 2.0208597 -1.7287929 4288085770
1.7197113 1.7065786 -1.7714565 4288085770
3.2039948 2.044436 -1.7292318 4288085770
1.6137848 1.7272705 -1.7670245 4288085770
3.0879974 2.0710502 -1.7327828 4288085770
1.5158234 1.7479745 -1.7646351 4288085770
2.9530487 2.0916414 -1.7301989 4288085770
1.428894 1.770702 -1.7643144 4288085770
2.8610382 2.1213174 -1.7358937 4288085770
1.3289795 1.7894186 -1.7589025 4288085770
2.7411041 2.1439486 -1.7344003 4288085770
1.2520294 1.8131758 -1.7586405 4288085770
2.6551056 2.1736488 -1.7391269 4288085770
1.1810608 1.8379463 -1.7594159 4288085770
2.5561371 2.1993327 -1.7397614 4288085770
1.1220703 1.8647412 -1.7622664 4288085770
2.4801178 2.2300696 -1.7435462 4288085770
1.0401459 1.8855065 -1.7579606 4288085770
2.390152 2.2567816 -1.7442343 4288085770
0.98316956 1.9113137 -1.7598157 4288085770
2.3251648 2.2895522 -1.7480886 4288085770
0.92021179 1.9361202 -1.7586331 4288085770
2.2461853 2.3172975 -1.7488406 4288085770
0.85926819 1.9609331 -1.7574615 4288085770
2.1582336 2.3420391 -1.745527 4288085770
0.80929565 1.9877673 -1.7583592 4288085770
2.0962524 2.3738246 -1.7483916 4288085770
0.7583313 2.0146046 -1.7582517 4288085770
2.0162811 2.399591 -1.745126 4288085770
0.69737244 2.038435 -1.7540743 4288085770
1.9513245 2.4293847 -1.7449632 4288085770
0.63945007 2.0622687 -1.7509122 4288085770
1.8913422 2.4601946 -1.7448325 4288085770
0.62139893 2.0981665 -1.7580314 4288085770
1.829361 2.4900041 -1.7436852 4288085770
0.57444763 2.1250277 -1.755945 4288085770
1.780365 2.5228419 -1.7446244 4288085770
0.53646851 2.1539044 -1.7559178 4288085770
1.7343903 2.556695 -1.744585 4288085770
0.50450134 2.1847944 -1.7569342 4288085770
1.6903839 2.591547 -1.7455621 4288085770
0.45257568 2.2076645 -1.7507982 4288085770
1.6493835 2.6264148 -1.7455554 4288085770
0.41261292 2.2355533 -1.7477546 4288085770
1.5974274 2.6572723 -1.7414665 4288085770
0.39260864 2.2694745 -1.7498517 4288085770
1.5544586 2.6901464 -1.7394376 4288085770
0.37261963 2.3043947 -1.751955 4288085770
1.5324402 2.7310605 -1.7415659 4288085770
0.34764099 2.3363118 -1.7520139 4288085770
1.5034332 2.7689652 -1.7416401 4288085770
0.32167053 2.3672376 -1.750062 4288085770
1.4794312 2.8088856 -1.7417519 4288085770
0.30267334 2.4011736 -1.7501645 4288085770
1.4604187 2.8508148 -1.7429023 4288085770
0.2816925 2.4351144 -1.7482567 4288085770
1.4433899 2.8927565 -1.7430632 4288085770
0.26371765 2.4680591 -1.7473588 4288085770
1.4343719 2.9387164 -1.7442899 4288085770
0.25869751 2.5080256 -1.7495704 4288085770
1.4243317 2.9836736 -1.7455053 4288085770
0.24571228 2.5439911 -1.7477167 4288085770
1.4432373 3.0406837 -1.7529445 4288085770
0.23970032 2.5829606 -1.7489173 4288085770
1.4591522 3.0976968 -1.7583675 4288085770
0.23669434 2.6229453 -1.74914 4288085770
1.4441681 3.1396627 -1.7555394 4288085770
0.2416687 2.6659422 -1.7514222 4288085770
1.4521027 3.1926742 -1.7568972 4288085770
0.24563599 2.7099428 -1.7527053 4288085770
1.4361115 3.2346544 -1.7510638 4288085770
0.24662781 2.7509451 -1.751955 4288085770
1.4390869 3.2846684 -1.7493777 4288085770
0.24363708 2.7909422 -1.7501776 4288085770
1.457016 3.3417058 -1.7518122 4288085770
0.25064087 2.8349628 -1.7494767 4288085770
1.4649963 3.3947411 -1.7491703 4288085770
0.25460815 2.8779807 -1.7477543 4288085770
1.4809265 3.4507899 -1.7485886 4288085770
0.26757812 2.925014 -1.7481029 4288085770
1.5068512 3.5128555 -1.7490938 4288085770
0.29052734 2.9770589 -1.7505326 4288085770
1.5447388 3.5809474 -1.7526987 4288085770
0.30749512 3.0261106 -1.7499144 4288085770
1.5796509 3.6470485 -1.7532763 4288085770
0.3324585 3.079175 -1.7513618 4288085770
1.6105804 3.7121487 -1.7518272 4288085770
0.35140991 3.1292391 -1.7497602 4288085770
1.6494751 3.780262 -1.7524378 4288085770
0.36940002 3.1783123 -1.7461472 4288085770
1.6824188 3.8453746 -1.7499995 4288085770
0.41230774 3.2414136 -1.7507486 4288085770
1.7352753 3.9215307 -1.7507315 4288085770
0.43029785 3.2894979 -1.7451305 4288085770
1.7891541 3.9996948 -1.7504809 4288085770
0.47419739 3.3526154 -1.7477376 4288085770
1.8430634 4.0758657 -1.7492182 4288085770
0.51113892 3.4117336 -1.7462845 4288085770
1.9118958 4.1620712 -1.7500942 4288085770
0.56202698 3.4798722 -1.7489581 4288085770
1.9857483 4.2502913 -1.7510085 4288085770
0.59799194 3.5379996 -1.7454939 4288085770
2.0795135 4.3505487 -1.7560992 4288085770
0.65788269 3.6101661 -1.748239 4288085770
2.1733246 4.451818 -1.7591958 4288085770
0.71775818 3.682343 -1.7489848 4288085770
2.2581482 4.54809 -1.7572162 4288085770
0.78364563 3.7575331 -1.7507794 4288085770
2.3469849 4.6453738 -1.7552633 4288085770
0.85549927 3.8367414 -1.75263 4288085770
2.4677124 4.7627201 -1.759598 4288085770
0.91740417 3.9089427 -1.7503862 4288085770
2.6173706 4.8991308 -1.7681978 4288085770
0.97634888 3.9791527 -1.7451153 4288085770
2.723175 5.0064783 -1.7643948 4288085770
1.0641785 4.0684042 -1.7481096 4288085770
2.8638763 5.137898 -1.7669184 4288085770
1.1510315 4.1546698 -1.748081 4288085770
3.0066071 5.2683353 -1.7674468 4288085770
1.2398682 4.2429423 -1.7480755 4288085770
3.1293945 5.3867459 -1.7617991 4288085770
1.3616333 4.3522806 -1.7543678 4288085770
3.2830811 5.5252347 -1.759434 4288085770
1.4624634 4.4475946 -1.7534671 4288085770
3.4108887 5.6456842 -1.7498252 4288085770
1.6121216 4.5739999 -1.7630084 4288085770
3.5895386 5.799243 -1.7486808 4288085770
1.7000275 4.6593165 -1.7549803 4288085770
3.7941284 5.9698706 -1.7497747 4288085770
1.8517151 4.786746 -1.7615385 4288085770
4.0166931 6.1505523 -1.7510228 4288085770
2.0084076 4.9152021 -1.7661295 4288085770
4.2731628 6.35532 -1.7555933 4288085770
2.1611328 5.0416584 -1.768688 4288085770
4.5326385 6.561121 -1.7561858 4288085770
2.339798 5.185183 -1.7734845 4288085770
4.8379974 6.7960272 -1.7631934 4288085770
2.530426 5.3347363 -1.7793798 4288085770
5.1563568 7.0399961 -1.7663233 4288085770
2.7051239 5.4722834 -1.7781208 4288085770
5.4777374 7.2839918 -1.7664697 4288085770
2.8509369 5.5887952 -1.7675846 4288085770
5.7951355 7.5250053 -1.7615783 4288085770
3.0316467 5.727385 -1.7623637 4288085770
6.2102814 7.8312597 -1.7675893 4288085770
3.2293396 5.8770137 -1.7592978 4288085770
6.6503906 8.1536026 -1.7718279 4288085770
3.4410095 6.0326915 -1.755342 4288085770
3.7045288 6.2234936 -1.7578683 4288085770
3.9969635 6.4333601 -1.7646608 4288085770
4.3153687 6.6573172 -1.7696743 4288085770
4.6308136 6.8772831 -1.7716486 4288085770
4.9642181 7.1073122 -1.772778 4288085770
5.3275757 7.3534317 -1.7741613 4288085770
5.7098999 7.6106148 -1.7747109 4288085770
6.124176 7.8858957 -1.775537 4288085770
6.5973206 8.19734 -1.7798889 4288085770
15.084946 -0.7858389 -1.7301395 4288085770
14.195145 -0.84067923 -1.7420807 4288085770
13.422333 -0.89217877 -1.757664 4288085770
12.665512 -0.93560475 -1.7693803 4288085770
11.802719 -0.96426129 -1.7646198 4288085770
11.14386 -0.99736863 -1.7739186 4288085770
10.477036 -1.0234647 -1.7772157 4288085770
9.8441925 -1.0434446 -1.7787302 4288085770
9.2823486 -1.0642241 -1.7836173 4288085770
8.8514404 -1.0906732 -1.801168 4288085770
15.023834 -1.7131716 -1.7422984 4288085770
8.2635956 -1.0964608 -1.7940054 4288085770
14.023834 -1.702358 -1.7550433 4288085770
7.7587433 -1.1050236 -1.7922683 4288085770
13.174805 -1.6991103 -1.7735465 4288085770
7.2808685 -1.1105036 -1.790693 4288085770
12.180862 -1.6691645 -1.7674363 4288085770
6.8629913 -1.1188229 -1.7934198 4288085770
11.357864 -1.6497531 -1.7721734 4288085770
6.469101 -1.1250747 -1.797287 4288085770
10.692886 -1.6419042 -1.7856822 4288085770
6.1381836 -1.1351631 -1.8064661 4288085770
10.055893 -1.6289452 -1.7953706 4288085770
5.8052826 -1.1402392 -1.8126643 4288085770
9.3819275 -1.6050402 -1.7949271 4288085770
5.4873657 -1.1442637 -1.8179491 4288085770
8.8199615 -1.5908387 -1.8030214 4288085770
5.1844635 -1.1482481 -1.8243132 4288085770
8.1849823 -1.5607719 -1.7958217 4288085770
4.8955383 -1.1501893 -1.8307643 4288085770
7.6280365 -1.5344892 -1.7930143 4288085770
4.537674 -1.1392405 -1.8199244 4288085770
7.1450806 -1.5150031 -1.7945602 4288085770
4.2207947 -1.1301961 -1.8142912 4288085770
6.6880951 -1.4944371 -1.7962508 4288085770
3.9228973 -1.1210933 -1.8087599 4288085770
