# .PCD v0.7 - Point Cloud Data file format
VERSION 0.7
FIELDS x y z rgb
SIZE 4 4 4 4
TYPE F F F U
COUNT 1 1 1 1
WIDTH 1117
HEIGHT 1
VIEWPOINT 0 0 0 1 0 0 0
POINTS 1117
DATA ascii
9.3707314 0.63796198 -1.7938592 4288085770
8.2908401 0.65322948 -1.7913978 4288085770
7.3979301 0.66864693 -1.7963529 4288085770
6.6040192 0.68313074 -1.801532 4288085770
5.8651161 0.69763792 -1.8028339 4288085770
5.1602325 0.71014404 -1.797219 4288085770
11.267223 0.89910716 -1.7791374 4288085770
4.6063194 0.72479618 -1.804933 4288085770
9.9983253 0.9082635 -1.7802792 4288085770
4.0744095 0.73944938 -1.8086963 4288085770
8.8654366 0.91649741 -1.7777274 4288085770
3.6095047 0.75315112 -1.8136121 4288085770
7.9175301 0.92687255 -1.78058 4288085770
3.1636009 0.76685894 -1.8165703 4288085770
7.0706329 0.93730843 -1.7816576 4288085770
2.7187119 0.77954668 -1.8135349 4288085770
6.3597183 0.94985622 -1.7890307 4288085770
2.343811 0.79329872 -1.8156515 4288085770
5.6548271 0.95937717 -1.7874279 4288085770
1.9539261 0.8050167 -1.8107421 4288085770
5.0599251 0.97098923 -1.7910628 4288085770
1.6090317 0.81677866 -1.8099329 4288085770
4.5240135 0.98364401 -1.7958256 4288085770
1.2871437 0.82954931 -1.8071715 4288085770
4.0361099 0.99633098 -1.8006952 4288085770
1.0072403 0.84236187 -1.8085035 4288085770
3.6032066 1.0090551 -1.8056872 4288085770
0.77032471 0.8562237 -1.8159275 4288085770
3.1753082 1.0207686 -1.8066943 4288085770
0.49345016 0.86801422 -1.8102701 4288085770
2.7714119 1.0314949 -1.8067579 4288085770
0.25155258 0.88084561 -1.8096869 4288085770
2.4005165 1.0432435 -1.8068918 4288085770
0.045646667 0.89471805 -1.8141803 4288085770
2.0426254 1.0539904 -1.8040582 4288085770
-0.18124008 0.9065457 -1.8096342 4288085770
1.7117386 1.0647589 -1.8022848 4288085770
-0.39912415 0.91737932 -1.8051118 4288085770
1.4208374 1.0775645 -1.8035932 4288085770
-0.58801651 0.93024623 -1.8046467 4288085770
1.1539383 1.0903859 -1.8049551 4288085770
-0.75491714 0.94413817 -1.8072273 4288085770
0.91303253 1.1042318 -1.8083712 4288085770
-0.92980957 0.9560076 -1.8047972 4288085770
0.63515854 1.1130154 -1.8007232 4288085770
-1.0857048 0.96890002 -1.8054056 4288085770
0.41725922 1.1268733 -1.8031906 4288085770
-1.2316093 0.98280269 -1.8070331 4288085770
0.21236038 1.1397365 -1.8046906 4288085770
-1.3724976 0.99570507 -1.807675 4288085770
0.0084648132 1.1525935 -1.8041928 4288085770
-1.5203857 1.007586 -1.8033053 4288085770
-0.18443298 1.165458 -1.8037198 4288085770
-1.6562767 1.0204852 -1.8019586 4288085770
-0.37032318 1.1773237 -1.8022656 4288085770
-1.7781754 1.0334004 -1.8026432 4288085770
-0.55720901 1.1881785 -1.7978129 4288085770
-1.8930779 1.0473206 -1.8033396 4288085770
-0.72010422 1.2010598 -1.7964066 4288085770
-1.992981 1.0622574 -1.8060662 4288085770
-0.84402084 1.2180012 -1.8050728 4288085770
-2.1048737 1.0751761 -1.8057729 4288085770
-1.011898 1.2288622 -1.7986628 4288085770
-2.193779 1.0901239 -1.8095241 4288085770
-1.1487961 1.2417641 -1.7983143 4288085770
-2.2946777 1.1040497 -1.809252 4288085770
-1.2826881 1.2556646 -1.7969692 4288085770
-1.4045906 1.2705835 -1.7986473 4288085770
-1.5234795 1.284494 -1.7973356 4288085770
-1.635376 1.2984163 -1.7980394 4288085770
-1.7512665 1.3113222 -1.7947381 4288085770
-1.8531647 1.3262475 -1.7944608 4288085770
-1.9490623 1.3411802 -1.7951969 4288085770
-2.0349655 1.3581266 -1.7979482 4288085770
-2.1148605 1.3740735 -1.7997164 4288085770
-2.1957626 1.3900197 -1.8014824 4288085770
-2.2836571 1.4049478 -1.7992367 4288085770
-2.297245 3.5755005 -1.8149008 4288085770
-2.1941757 3.6455684 -1.8178928 4288085770
-2.0841141 3.7176404 -1.8208936 4288085770
-1.965065 3.7947254 -1.8258973 4288085770
-1.848999 3.8677945 -1.826908 4288085770
-1.7159424 3.9508882 -1.8319222 4288085770
-1.5709 4.0399923 -1.8379426 4288085770
-1.423851 4.1280909 -1.8419709 4288085770
-1.2618103 4.2232056 -1.8480083 4288085770
-1.1037598 4.3143082 -1.8510505 4288085770
-2.3312111 3.6444235 -1.8196126 4288085770
-0.94470215 4.4044008 -1.8510984 4288085770
-2.2021523 3.7165141 -1.8246552 4288085770
-0.74767303 4.5155478 -1.8601589 4288085770
-2.0690918 3.7876077 -1.8297095 4288085770
-0.57361984 4.6106496 -1.8602229 4288085770
-1.9300385 3.8617048 -1.834767 4288085770
-0.33063126 4.7458487 -1.8763034 4288085770
-1.7610092 3.9518437 -1.8468366 4288085770
-0.13058472 4.8509703 -1.8773907 4288085770
-1.6409225 4.0108991 -1.8429029 4288085770
0.061473846 4.9500737 -1.8744806 4288085770
-1.4848671 4.0890031 -1.8469843 4288085770
0.27152252 5.0571918 -1.8725833 4288085770
-1.3178177 4.1721172 -1.8520727 4288085770
0.55751801 5.2064071 -1.8857108 4288085770
-1.1577454 4.2472105 -1.852173 4288085770
0.87549591 5.3706527 -1.9018583 4288085770
-0.98868942 4.3263159 -1.854279 4288085770
1.1305313 5.4958014 -1.9009988 4288085770
-0.80763245 4.410429 -1.856395 4288085770
1.4315414 5.6429992 -1.9061661 4288085770
-0.62656784 4.4915385 -1.8575208 4288085770
1.7455597 5.7942019 -1.9103482 4288085770
-0.40454102 4.5937004 -1.8666656 4288085770
2.0935478 5.9614353 -1.9175513 4288085770
-0.16750717 4.7008681 -1.8748267 4288085770
2.4955139 6.1547236 -1.9307851 4288085770
0.064525604 4.8030262 -1.8809932 4288085770
2.9494514 6.374063 -1.9500452 4282675967
0.2675972 4.8851361 -1.8781637 4288085770
3.4014091 6.5853782 -1.9623278 4288085770
0.53762054 5.0023274 -1.887363 4288085770
3.883358 6.8077126 -1.9746391 4288085770
0.85061264 5.1385689 -1.9035925 4288085770
4.3942947 7.0400677 -1.9879801 4282675967
1.0856781 5.2286954 -1.8998057 4288085770
4.9012604 7.2643938 -1.9933393 4282675967
1.3427353 5.3258424 -1.8980432 4288085770
5.4022408 7.4776988 -1.9937216 4288085770
1.6417694 5.4430346 -1.9023055 4288085770
5.9122314 7.6900001 -1.991127 4288085770
1.9308167 5.5502076 -1.9025792 4288085770
6.4991875 7.9363618 -1.9925865 4288085770
2.2718315 5.6814361 -1.909886 4288085770
7.1001511 8.1817226 -1.9910797 4288085770
2.6048698 5.8016405 -1.911212 4288085770
2.9808846 5.9408865 -1.917568 4288085770
3.4038734 6.100183 -1.9299597 4288085770
3.8578529 6.2675047 -1.9443916 4288085770
4.3488235 6.4478498 -1.958861 4282675967
4.8637924 6.6332092 -1.9733654 4282675967
5.3747749 6.8095527 -1.983891 4282675967
5.9137611 6.9899101 -1.9934638 4282675967
6.4367638 7.1562414 -1.9980483 4282675967
6.9168053 7.2945085 -1.9916321 4282675967
7.4738121 7.4628534 -1.9942831 4282675967
8.0508232 7.6302042 -1.9949806 4288085770
8.6458359 7.7985587 -1.9937134 4288085770
9.2838402 7.9769444 -1.9935058 4288085770
9.9648399 8.164361 -1.9953616 4288085770
10.486931 8.2736082 -1.9751306 4288085770
10.84111 8.3016939 -1.9378036 4288085770
11.500744 8.269536 -0.86032689 4293729569
11.49588 8.1845379 -1.7776026 4293729569
11.499092 8.1382923 -0.78975439 4293729569
11.657158 8.1164446 -1.722174 4293729569
12.237259 8.2087231 -1.7011223 4293729569
12.023705 7.9862952 -1.6143911 4293729569
12.361774 -1.9827992 -1.7909478 4288085770
11.618908 -2.0142593 -1.7894604 4288085770
10.979031 -2.0506382 -1.7942078 4288085770
10.345158 -2.0790195 -1.7969431 4288085770
9.7972679 -2.1123295 -1.8058769 4288085770
9.1943893 -2.1296978 -1.8066437 4288085770
8.6355019 -2.1430387 -1.8074913 4288085770
8.0586243 -2.1474032 -1.8042729 4288085770
7.517746 -2.1517401 -1.803131 4288085770
7.0038528 -2.1530595 -1.8020371 4288085770
6.5359726 -2.1573448 -1.8030505 4288085770
6.0550804 -2.151648 -1.8010052 4288085770
5.6391869 -2.1528955 -1.8041201 4288085770
12.168083 -3.4690728 -1.788113 4288085770
5.2482872 -2.1531239 -1.8082849 4288085770
11.333145 -3.4145551 -1.7961602 4288085770
4.8503952 -2.1463695 -1.8084131 4288085770
10.500214 -3.3510509 -1.799184 4288085770
4.4935036 -2.1435814 -1.8116409 4288085770
9.6852798 -3.280549 -1.7982243 4288085770
4.1336021 -2.135797 -1.8138471 4288085770
9.0113411 -3.2319331 -1.8066331 4288085770
3.7757034 -2.1240182 -1.8140448 4288085770
8.3044167 -3.1663647 -1.8059193 4288085770
3.4518051 -2.115212 -1.8163244 4288085770
7.6854897 -3.1127281 -1.8104298 4288085770
3.1539078 -2.1083808 -1.8216654 4288085770
7.0735588 -3.0530992 -1.8109372 4288085770
2.8470039 -2.0955677 -1.8229687 4288085770
6.5106354 -2.9964375 -1.8125579 4288085770
2.5741043 -2.0867252 -1.8273568 4288085770
5.9497147 -2.9347873 -1.8101678 4288085770
2.2832069 -2.0699053 -1.8276819 4288085770
5.4467926 -2.8800955 -1.8099226 4288085770
2.0213051 -2.0570607 -1.8300811 4288085770
4.998867 -2.8343544 -1.8148227 4288085770
1.7424088 -2.03724 -1.8284227 4288085770
4.5499458 -2.7836237 -1.8167055 4288085770
1.4775085 -2.016407 -1.8277907 4288085770
4.1130257 -2.7298942 -1.8156044 4288085770
1.2286072 -1.9965616 -1.8281962 4288085770
3.7361031 -2.6871138 -1.8196652 4288085770
0.99470901 -1.9787041 -1.8296396 4288085770
3.3661804 -2.6413317 -1.8227317 4288085770
0.7598114 -1.9578558 -1.8280717 4288085770
3.0132599 -2.5965424 -1.8248377 4288085770
0.54690933 -1.9389857 -1.8295568 4288085770
2.6933403 -2.5567269 -1.8290292 4288085770
0.31001282 -1.911148 -1.8249632 4288085770
2.3614235 -2.5089312 -1.8291709 4288085770
0.13610458 -1.8992378 -1.8315532 4288085770
2.0625076 -2.4681091 -1.8314044 4288085770
-0.076789856 -1.872383 -1.8280137 4288085770
1.7695923 -2.4242864 -1.8326415 4288085770
-0.25969315 -1.8534938 -1.829563 4288085770
1.4756775 -2.3784738 -1.8308705 4288085770
-0.44659042 -1.8306135 -1.8290913 4288085770
1.2047615 -2.3346405 -1.8311546 4288085770
-0.63049316 -1.8057379 -1.82662 4288085770
0.94385529 -2.2918048 -1.8304632 4288085770
-0.79839706 -1.7838393 -1.828192 4288085770
0.70793533 -2.2529473 -1.8318375 4288085770
-0.96529007 -1.76095 -1.826763 4288085770
0.47202682 -2.2120967 -1.8312056 4288085770
-1.1151962 -1.7410382 -1.8293797 4288085770
0.24011612 -2.1692462 -1.8295764 4288085770
-1.2720985 -1.7171427 -1.8279692 4288085770
0.0062103271 -2.1234059 -1.8249335 4288085770
-1.4129982 -1.6962281 -1.8296019 4288085770
-0.20969391 -2.0815496 -1.8223416 4288085770
-1.5728951 -1.6673433 -1.8251696 4288085770
-0.40960312 -2.0426764 -1.821793 4288085770
-1.7047958 -1.6464235 -1.8268217 4288085770
-0.59351349 -2.0057912 -1.8222846 4288085770
-1.8356972 -1.625506 -1.8274759 4288085770
-0.77441788 -1.9688963 -1.8217863 4288085770
-1.9466057 -1.6075505 -1.8331854 4288085770
-0.95432281 -1.9300171 -1.8192806 4288085770
-2.0805054 -1.5816466 -1.8298185 4288085770
-1.1142426 -1.8971134 -1.8208365 4288085770
-2.1884117 -1.5637025 -1.8345309 4288085770
-1.2661476 -1.8642048 -1.822409 4288085770
-2.298317 -1.5427655 -1.8372301 4288085770
-1.417057 -1.8302993 -1.8229806 4288085770
-1.5589638 -1.7983874 -1.8235775 4288085770
-1.6938744 -1.7664691 -1.8251894 4288085770
-1.8267822 -1.7345515 -1.8258057 4288085770
-1.9576874 -1.7016369 -1.8254232 4288085770
-2.0795937 -1.6707133 -1.826066 4288085770
-2.1995049 -1.6397918 -1.8257133 4288085770
-2.300415 -1.6138405 -1.8314159 4288085770
-2.2258949 0.4683553 -1.8067955 4288085770
-2.1117859 0.47940707 -1.8049927 4288085770
-2.0056648 0.4914422 -1.7991704 4288085770
-1.8785553 0.50350463 -1.7983909 4288085770
-1.7524452 0.51456022 -1.7956123 4288085770
-1.5903473 0.52666008 -1.8009038 4288085770
-1.4382401 0.53873956 -1.8011749 4288085770
-1.2671394 0.55083561 -1.8034846 4288085770
-2.2150993 0.55531549 -1.808537 4288085770
-1.1050301 0.5619173 -1.8027787 4288085770
-2.0989838 0.56536531 -1.8057412 4288085770
-0.9279213 0.57400763 -1.8021003 4288085770
-1.9658699 0.57443082 -1.8049825 4288085770
-0.73181915 0.58611763 -1.8044602 4288085770
-1.8297653 0.583498 -1.8042299 4288085770
-0.54270935 0.59721148 -1.8028089 4288085770
-1.6826591 0.59257424 -1.8044996 4288085770
-0.29561996 0.61037123 -1.8122692 4288085770
-1.5285454 0.60165441 -1.8047835 4288085770
-0.06451416 0.6224978 -1.8137 4288085770
-1.3674393 0.61073577 -1.8040814 4288085770
0.13961029 0.6335789 -1.8050786 4288085770
-1.2013283 0.61981952 -1.8033893 4288085770
0.3877182 0.64470911 -1.8045464 4288085770
-1.0252151 0.6279093 -1.8027205 4288085770
0.6528244 0.65684855 -1.8040456 4288085770
-0.80612183 0.63704681 -1.8101358 4288085770
0.93693542 0.66799879 -1.803586 4288085770
-0.61700821 0.64514053 -1.8084929 4288085770
1.2500381 0.68017137 -1.8051822 4288085770
-0.40589905 0.65324962 -1.8078945 4288085770
1.5991364 0.69336987 -1.808848 4288085770
-0.15879822 0.66239703 -1.8133661 4288085770
1.9402504 0.70454299 -1.8055035 4288085770
0.061321259 0.66949892 -1.8087885 4288085770
2.3523445 0.71778286 -1.8112967 4288085770
0.30243683 0.67662179 -1.8072536 4288085770
2.7874527 0.7300266 -1.8141391 4288085770
0.57553864 0.68377161 -1.8087829 4288085770
3.225563 0.74226022 -1.8129873 4288085770
0.85365677 0.68991518 -1.8073257 4288085770
3.7036743 0.75350988 -1.8099191 4288085770
1.1627655 0.69708204 -1.8079276 4288085770
4.2087936 0.76576883 -1.8049024 4288085770
1.4878769 0.70325172 -1.806565 4288085770
4.7489128 0.77604723 -1.7999619 4288085770
1.8449783 0.70945144 -1.8092667 4288085770
5.3750229 0.78837991 -1.7971892 4288085770
2.2520866 0.71568513 -1.8140694 4288085770
6.043148 0.79973012 -1.7925041 4288085770
2.6721916 0.72091699 -1.815901 4288085770
6.8202515 0.81315333 -1.7920331 4288085770
3.1083031 0.7251519 -1.8157676 4288085770
7.7143631 0.82564515 -1.7928011 4288085770
3.5864143 0.72941005 -1.8157189 4288085770
8.5925026 0.83608282 -1.778542 4288085770
4.104538 0.73168468 -1.8137565 4288085770
9.7466011 0.8497262 -1.7818317 4288085770
4.6286621 0.73294759 -1.8068088 4288085770
11.037712 0.86443448 -1.7813945 4288085770
5.2317848 0.73326373 -1.8030235 4288085770
12.574818 0.87928641 -1.7834538 4288085770
5.873909 0.73259556 -1.7973194 4288085770
6.6430283 0.73201656 -1.7978712 4288085770
7.4831467 0.73047411 -1.7975692 4288085770
8.4272652 0.72598362 -1.7954854 4288085770
9.444397 0.71851623 -1.7875571 4288085770
10.706512 0.71121871 -1.7911226 4288085770
12.05365 0.69893551 -1.7838733 4288085770
3.6596909 -5.2301712 -0.35065553 4293729569
3.6446762 -5.1480646 -0.39338279 4293729569
3.6766739 -5.0879326 -0.43626276 4293729569
3.7276802 -5.0357943 -0.4782019 4293729569
8.9605827 -7.4583826 -0.73109543 4293729569
9.1535568 -7.4331055 -0.79637849 4293729569
9.7355919 -7.5855837 -0.87691021 4293729569
9.8355522 -7.5093708 -0.93686938 4293729569
9.986515 -7.451129 -0.99797714 4293729569
10.33551 -7.4797592 -1.0677099 4293729569
10.936337 -7.6019754 -0.17719267 4293729569
10.695499 -7.5073795 -1.1394604 4293729569
11.073486 -7.5359879 -1.2122477 4293729569
11.375309 -7.5164614 -0.28475609 4293729569
11.513477 -7.5845556 -1.2882097 4293729569
12.105427 -7.543891 -1.4211912 4293729569
12.318352 -7.3345194 -1.5209706 4293729569
11.911289 -7.0297098 -1.530314 4293729569
11.55724 -6.7528782 -1.5388385 4293729569
11.222195 -6.4880381 -1.5464343 4293729569
10.895164 -6.2262025 -1.5510544 4293729569
9.519104 -5.6031575 -1.4656558 4293729569
9.5351028 -5.4800854 -1.4913242 4293729569
9.652729 -5.3894191 -0.64428055 4293729569
9.7671089 -5.4308562 -1.5336128 4293729569
9.6967354 -5.2753372 -0.66802788 4293729569
10.335117 -5.4873719 -1.6048397 4293729569
10.190121 -5.3064356 -1.612038 4293729569
10.20713 -5.17838 -1.6316943 4293729569
10.151146 -5.0273881 -1.6421473 4293729569
10.032166 -4.8594465 -1.6464329 4293729569
10.085182 -4.7423806 -1.6631893 4293729569
10.455196 -4.715075 -1.7078016 4293729569
11.2132 -4.7904749 -1.7864403 4288085770
11.30822 -4.6763883 -1.8032844 4288085770
11.377247 -4.5543289 -1.8150569 4288085770
11.248283 -4.3794293 -1.8063048 4288085770
11.206329 -4.230464 -1.8047911 4288085770
11.181366 -4.0874906 -1.8033267 4288085770
11.245403 -3.9634562 -1.8070856 4288085770
11.25045 -3.825469 -1.8046929 4288085770
11.284496 -3.6964684 -1.8023802 4288085770
11.335556 -3.5684581 -1.8001029 4288085770
11.396606 -3.4414425 -1.7978475 4288085770
11.520653 -3.3273859 -1.798748 4288085770
11.610714 -3.2053609 -1.7945616 4288085770
11.720772 -3.0863266 -1.7904217 4288085770
11.921829 -2.9842248 -1.7935013 4288085770
12.120888 -2.876133 -1.7935605 4288085770
12.272953 -2.7590823 -1.7875055 4288085770
12.561008 -2.6609368 -1.7907608 4288085770
11.847961 0.9702307 -1.7830017 4288085770
10.671051 1.0066922 -1.784817 4288085770
9.59515 1.0401924 -1.7838194 4288085770
8.6602478 1.070755 -1.7820799 4288085770
7.8773346 1.1024063 -1.787607 4288085770
7.1424332 1.1310692 -1.7892271 4288085770
6.4805298 1.1587658 -1.7909796 4288085770
5.8926201 1.1854991 -1.7938659 4288085770
5.3227272 1.2092278 -1.7917923 4288085770
12.004585 1.6822486 -1.7903407 4288085770
4.8398209 1.2350097 -1.7948673 4288085770
10.785713 1.6856583 -1.7791731 4288085770
4.4029198 1.2608154 -1.7990239 4288085770
9.8028221 1.6962029 -1.7784044 4288085770
3.9790192 1.2836165 -1.7992115 4288085770
8.9439316 1.709807 -1.778847 4288085770
3.5821228 1.3064303 -1.7994473 4288085770
8.1740265 1.7234522 -1.7794473 4288085770
3.2282181 1.3292692 -1.8017592 4288085770
7.4841347 1.7381368 -1.7811866 4288085770
2.9113121 1.3531303 -1.8061339 4288085770
6.8862228 1.7568742 -1.7870779 4288085770
2.5934181 1.3749781 -1.8055125 4288085770
6.3183289 1.7716124 -1.7880332 4288085770
2.311512 1.39685 -1.8079545 4288085770
5.8054352 1.7873756 -1.7890831 4288085770
2.0156326 1.4156973 -1.8033803 4288085770
5.3215332 1.8021499 -1.7891872 4288085770
1.7407341 1.4345597 -1.8008432 4288085770
4.8766403 1.817942 -1.7893577 4288085770
1.5078316 1.4574542 -1.8033696 4288085770
4.4687462 1.8347512 -1.7895911 4288085770
1.2669411 1.4753323 -1.8008955 4288085770
4.1138458 1.8545953 -1.79391 4288085770
1.0580444 1.4962329 -1.8014698 4288085770
3.7549553 1.8694217 -1.7922354 4288085770
0.88513947 1.521163 -1.8070973 4288085770
3.4340591 1.8872736 -1.79362 4288085770
0.67625046 1.5390505 -1.8026799 4288085770
3.145153 1.9071425 -1.796056 4288085770
0.51734543 1.5629871 -1.8083349 4288085770
2.8842545 1.9300297 -1.8005335 4288085770
0.32545853 1.5798799 -1.8029505 4288085770
2.5973625 1.9438841 -1.7969892 4288085770
0.17355728 1.6018094 -1.8046234 4288085770
2.353466 1.9637688 -1.7975049 4288085770
0.027656555 1.6237415 -1.8063068 4288085770
2.1245689 1.983663 -1.7990474 4288085770
-0.13323212 1.6416538 -1.8029747 4288085770
1.8946762 2.0005488 -1.7975961 4288085770
-0.27312851 1.661581 -1.8016742 4288085770
1.693779 2.0214534 -1.7981852 4288085770
-0.42401505 1.6794956 -1.7973599 4288085770
1.4998779 2.0413611 -1.7987897 4288085770
-0.53191757 1.7024479 -1.8001082 4288085770
1.3109818 2.0612657 -1.797403 4288085770
-0.64781952 1.7243912 -1.8008451 4288085770
1.1360855 2.0811794 -1.7970411 4288085770
-0.76670456 1.7433257 -1.7985847 4288085770
0.96719742 2.1000934 -1.7956924 4288085770
-0.86860657 1.766278 -1.8003438 4288085770
0.82829285 2.1250315 -1.7983809 4288085770
-0.97250366 1.7872217 -1.7991045 4288085770
0.70038986 2.1499798 -1.8030885 4288085770
-1.0753937 1.8071634 -1.7968699 4288085770
0.54449844 2.1678917 -1.7987659 4288085770
-1.1562996 1.8311281 -1.7996633 4288085770
0.42760086 2.19384 -1.8014904 4288085770
-1.2611847 1.8500637 -1.795428 4288085770
0.30569839 2.2177806 -1.8022118 4288085770
-1.331089 1.8750361 -1.7992384 4288085770
0.17380524 2.2377064 -1.7989262 4288085770
-1.421978 1.894978 -1.7950251 4288085770
0.045917511 2.2576339 -1.7956479 4288085770
-1.4998779 1.9169362 -1.7948294 4288085770
-0.054985046 2.2825842 -1.7964036 4288085770
-1.572773 1.9408969 -1.7946374 4288085770
-0.15887833 2.3065281 -1.7951571 4288085770
-1.6436653 1.9638557 -1.7934517 4288085770
-0.2567749 2.3314772 -1.7949183 4288085770
-1.7075653 1.9888231 -1.7942728 4288085770
-0.3416748 2.3584344 -1.7956972 4288085770
-1.7624664 2.0147972 -1.7961073 4288085770
-0.45055771 2.3783631 -1.7894527 4288085770
-1.8313637 2.0377522 -1.7929252 4288085770
-0.52746964 2.4063249 -1.7902431 4288085770
-1.8942604 2.0607123 -1.7907538 4288085770
-0.57038498 2.44332 -1.7980696 4288085770
-1.9481544 2.0856814 -1.7905928 4288085770
-0.68525696 2.4582326 -1.786828 4288085770
-1.9930573 2.1136601 -1.7924398 4288085770
-0.73816299 2.4912128 -1.7906475 4288085770
-2.0339622 2.1416404 -1.7942939 4288085770
-0.80506516 2.5181732 -1.7894585 4288085770
-2.0768623 2.1686175 -1.7951471 4288085770
-0.8899498 2.5391104 -1.7822539 4288085770
-2.111763 2.1986032 -1.7980064 4288085770
-0.93185425 2.5740924 -1.7850877 4288085770
-2.1576576 2.2235684 -1.79486 4288085770
-0.99375153 2.6020529 -1.782905 4288085770
-2.2005539 2.25054 -1.7937132 4288085770
-1.0356522 2.6360302 -1.7837416 4288085770
-2.2314529 2.2815223 -1.7945774 4288085770
-1.0675583 2.6730194 -1.7875879 4288085770
-2.2473679 2.3155246 -1.8004595 4288085770
-1.1114616 2.7059908 -1.7864238 4288085770
-2.2882614 2.3414893 -1.7963194 4288085770
-1.1403694 2.742979 -1.7892754 4288085770
-2.3191566 2.3704665 -1.7951887 4288085770
-1.1752739 2.7779565 -1.789122 4288085770
-2.3320694 2.4074676 -1.8000686 4288085770
-1.2161674 2.8109241 -1.7859631 4288085770
-1.2400742 2.8499117 -1.7878186 4288085770
-1.265976 2.8878937 -1.787673 4288085770
-1.283886 2.9288821 -1.7885338 4288085770
-1.2997932 2.970871 -1.7893956 4288085770
-1.3166962 3.011857 -1.7892581 4288085770
-1.3226051 3.0568504 -1.7901294 4288085770
-1.3335152 3.0998387 -1.7899973 4288085770
-1.336422 3.1468334 -1.7908686 4288085770
-1.3363342 3.1938295 -1.7917454 4288085770
-1.3292427 3.2448311 -1.793624 4288085770
-1.3171577 3.2988377 -1.7965034 4288085770
-1.3080635 3.3498354 -1.7963855 4288085770
-1.2889824 3.4068449 -1.7992694 4288085770
-1.2748947 3.4618444 -1.7991499 4288085770
-1.2368202 3.5268705 -1.8050462 4288085770
-1.1977425 3.5948942 -1.8099364 4288085770
-1.1616631 3.6599116 -1.8128293 4288085770
-1.1185913 3.7299345 -1.8167212 4288085770
-1.0545235 3.8109765 -1.824621 4288085770
-0.99145508 3.8920159 -1.8315191 4288085770
-2.3300705 3.2653394 -1.7998214 4288085770
-0.95137405 3.9600272 -1.8314112 4288085770
-2.2859879 3.3283653 -1.8047338 4288085770
-0.87931061 4.0470676 -1.8373096 4288085770
-2.252903 3.3853765 -1.8056425 4288085770
-0.8182373 4.1270957 -1.840207 4288085770
-2.197834 3.4544101 -1.8115582 4288085770
-0.75716019 4.2091188 -1.8410993 4288085770
-2.1627426 3.5114164 -1.8104706 4288085770
-0.67209625 4.3021655 -1.8470045 4288085770
-2.1056671 3.5814481 -1.8153872 4288085770
-0.59502411 4.3921981 -1.8489038 4288085770
-2.0605774 3.6434588 -1.8143041 4288085770
-0.52095032 4.4802232 -1.8488032 4288085770
-1.9785194 3.7285171 -1.8252251 4288085770
-0.41589355 4.5872784 -1.8547069 4288085770
-1.9204407 3.7995391 -1.8261411 4288085770
-0.27685928 4.7143698 -1.8686177 4288085770
-1.8293839 3.8895988 -1.8360649 4288085770
-0.16779709 4.8244185 -1.8715205 4288085770
-1.7583046 3.9676285 -1.8379852 4288085770
-0.082717896 4.9194365 -1.866421 4288085770
-1.6672478 4.0586805 -1.8449064 4288085770
0.033344269 5.0334854 -1.8683256 4288085770
-1.5781784 4.1467261 -1.8498321 4288085770
0.16040039 5.1545372 -1.8692313 4288085770
-1.504097 4.226747 -1.8477526 4288085770
0.31044769 5.2886124 -1.8751432 4288085770
-1.3880501 4.3318176 -1.8576808 4288085770
0.47148895 5.4306893 -1.8800532 4288085770
-1.2949753 4.4218521 -1.8576081 4288085770
0.65152359 5.5857792 -1.8869624 4288085770
-1.1909065 4.5188956 -1.8595366 4288085770
0.86454391 5.7608943 -1.897877 4288085770
-1.0828362 4.617939 -1.8604667 4288085770
1.0955544 5.9480219 -1.9107915 4288085770
-0.94878387 4.7330074 -1.8664002 4288085770
1.342556 6.145155 -1.9227078 4288085770
-0.80373383 4.8560824 -1.873332 4288085770
1.6285477 6.3693166 -1.9396217 4288085770
-0.67966843 4.9631276 -1.872269 4288085770
1.9175339 6.5944724 -1.9535381 4288085770
-0.53660965 5.0831885 -1.8742054 4288085770
2.2375145 6.8396473 -1.969456 4288085770
-0.33058929 5.2433133 -1.8901467 4288085770
2.542511 7.0747948 -1.9773743 4288085770
-0.12257004 5.4054341 -1.9040866 4288085770
2.8435211 7.3069291 -1.9812933 4288085770
0.060474396 5.5485153 -1.9070324 4288085770
3.1595268 7.5470653 -1.9832175 4288085770
0.25551605 5.699604 -1.9109781 4288085770
3.5175133 7.8152237 -1.9871418 4288085770
0.39060593 5.8066206 -1.8969343 4288085770
3.908493 8.1044035 -1.9930687 4288085770
0.61763763 5.976728 -1.902886 4288085770
0.9905777 6.2449722 -1.9368362 4282675967
1.2955704 6.4641395 -1.9527959 4282675967
1.6425362 6.7113352 -1.9727556 4282675967
1.9635315 6.9374924 -1.9817247 4282675967
2.2875404 7.1636391 -1.986699 4282675967
2.6005669 7.3787656 -1.9856827 4288085770
2.970562 7.6299329 -1.9906716 4288085770
3.3685455 7.8971138 -1.9966674 4288085770
3.8095284 8.1903162 -2.0036702 4288085770
12.612324 -0.77962554 -1.7687055 4288085770
11.579449 -0.82205641 -1.7690842 4288085770
10.707565 -0.86140263 -1.7767236 4288085770
9.8586884 -0.89375412 -1.7783844 4288085770
9.1537933 -0.92802322 -1.7892901 4288085770
8.3989143 -0.94834316 -1.7880783 4288085770
7.7090378 -0.96763337 -1.7879728 4288085770
7.10215 -0.98687637 -1.7930056 4288085770
6.5332603 -1.0021061 -1.7970918 4288085770
5.9883728 -1.0133308 -1.7992083 4288085770
12.638767 -1.7426795 -1.7810614 4288085770
5.4774857 -1.0225438 -1.8003769 4288085770
11.556858 -1.7181112 -1.7881951 4288085770
4.9916 -1.0297464 -1.8015823 4288085770
10.543957 -1.6895233 -1.791434 4288085770
4.5757027 -1.038905 -1.8089091 4288085770
9.7810326 -1.68179 -1.8121405 4288085770
4.157814 -1.0440768 -1.8112228 4288085770
8.8901291 -1.6481673 -1.8095709 4288085770
3.7729225 -1.0482296 -1.8155892 4288085770
8.0962257 -1.6194936 -1.8111752 4288085770
3.4050293 -1.0513757 -1.8199816 4288085770
7.363327 -1.5907978 -1.8118812 4288085770
3.0641365 -1.0545102 -1.824419 4288085770
6.7024193 -1.5640668 -1.8147119 4288085770
2.7202454 -1.0526537 -1.8258393 4288085770
6.0615273 -1.53434 -1.8125691 4288085770
2.4093475 -1.0517758 -1.8303169 4288085770
5.4736252 -1.5055889 -1.8115171 4288085770
2.1054573 -1.0489 -1.8328016 4288085770
4.9497299 -1.4798058 -1.8125788 4288085770
1.7755775 -1.0380572 -1.8262234 4288085770
4.4668236 -1.4560038 -1.814714 4288085770
1.4836845 -1.0311862 -1.8247185 4288085770
4.0269203 -1.4351786 -1.818928 4288085770
1.2168007 -1.0252997 -1.8252575 4288085770
3.5860252 -1.4083668 -1.8181258 4288085770
0.95490265 -1.0174142 -1.8248001 4288085770
3.2321167 -1.3924936 -1.8274952 4288085770
0.72201538 -1.0105084 -1.8273934 4288085770
2.8622169 -1.3706445 -1.8298235 4288085770
0.49811935 -1.0035995 -1.8300017 4288085770
2.5283089 -1.3507754 -1.8342167 4288085770
0.29821777 -0.99967301 -1.8356572 4288085770
2.1974106 -1.3289102 -1.8366101 4288085770
0.094326019 -0.99175823 -1.8372964 4288085770
1.8845177 -1.3060399 -1.8380312 4288085770
-0.085575104 -0.98582065 -1.8439804 4288085770
1.5426254 -1.2762042 -1.8303872 4288085770
-0.27946854 -0.97590387 -1.8446316 4288085770
1.2667236 -1.2543162 -1.8328724 4288085770
-0.45635986 -0.96797526 -1.8473159 4288085770
0.98583221 -1.2304426 -1.8303447 4288085770
-0.65724564 -0.95307624 -1.8419433 4288085770
0.73093796 -1.2075533 -1.8298625 4288085770
-0.87112045 -0.93319499 -1.8315372 4288085770
0.51703262 -1.1916271 -1.8374655 4288085770
-1.0180244 -0.92524636 -1.8372716 4288085770
0.27113724 -1.1677419 -1.8339962 4288085770
-1.1819115 -0.91232216 -1.8359655 4288085770
0.070236206 -1.149815 -1.8396161 4288085770
-1.3058205 -0.90735662 -1.8447458 4288085770
-0.1496582 -1.1259159 -1.8371903 4288085770
-1.4557114 -0.89442384 -1.844463 4288085770
-0.33956146 -1.10699 -1.840826 4288085770
-1.6026039 -0.88049233 -1.8431828 4288085770
-0.50246811 -1.0920428 -1.8485166 4288085770
-1.7454987 -0.86655962 -1.8419095 4288085770
-0.7133522 -1.0651525 -1.8410985 4288085770
-1.893383 -0.84963858 -1.8366207 4288085770
-0.89424515 -1.0432349 -1.8397424 4288085770
-1.9932823 -0.84266293 -1.8454356 4288085770
-1.0611458 -1.0223092 -1.839412 4288085770
-2.1181755 -0.82871974 -1.8451923 4288085770
-1.2130432 -1.0043701 -1.8421139 4288085770
-2.230072 -0.81676686 -1.8469754 4288085770
-1.3589401 -0.98542821 -1.8448232 4288085770
-1.4968414 -0.96748555 -1.8465482 4288085770
-1.6357346 -0.94754565 -1.8472669 4288085770
-1.7966194 -0.92163742 -1.8389349 4288085770
-1.9205132 -0.90369141 -1.8396833 4288085770
-2.0314178 -0.88773 -1.8444583 4288085770
-2.1473122 -0.86877811 -1.8462176 4288085770
-2.2752037 -0.84684908 -1.8409503 4288085770
-2.2241669 1.0342953 -1.8049775 4288085770
-2.1280479 1.0453074 -1.7980973 4288085770
-2.0019379 1.0593476 -1.7982562 4288085770
-1.8828239 1.0713754 -1.7944089 4288085770
-1.7517166 1.0844148 -1.7935777 4288085770
-1.6026077 1.099466 -1.7947694 4288085770
-1.4514999 1.1135178 -1.7959664 4288085770
-2.2994308 1.041223 -1.8048221 4288085770
-1.2803993 1.1295838 -1.8001897 4288085770
-2.1763229 1.0512619 -1.8049859 4288085770
-1.1312828 1.1416225 -1.796388 4288085770
-2.0622063 1.0592878 -1.8011404 4288085770
-0.94817734 1.1576886 -1.7986294 4288085770
-1.9281006 1.0703332 -1.8023183 4288085770
-0.75507736 1.1727581 -1.8008884 4288085770
-1.7959862 1.0783706 -1.8005004 4288085770
-0.56896591 1.1868174 -1.8001387 4288085770
-1.6658707 1.0864021 -1.7966791 4288085770
-0.37885284 1.198871 -1.7964001 4288085770
-1.505764 1.0964618 -1.7998992 4288085770
-0.14974976 1.2159584 -1.8007091 4288085770
-1.346653 1.1055137 -1.8001201 4288085770
0.08335495 1.2310398 -1.802029 4288085770
-1.1835442 1.1145673 -1.800347 4288085770
0.31046677 1.2451116 -1.8003418 4288085770
-0.99843597 1.1246383 -1.804605 4288085770
0.57257462 1.2602036 -1.801706 4288085770
-0.83631897 1.1316788 -1.7998348 4288085770
0.85967255 1.2773094 -1.8051035 4288085770
-0.62921906 1.1417605 -1.8051267 4288085770
1.1367874 1.2913995 -1.8034928 4288085770
-0.40711594 1.1518474 -1.8104413 4288085770
1.4229012 1.3044877 -1.7998977 4288085770
-0.20999908 1.1579057 -1.8077266 4288085770
1.7500076 1.3206031 -1.8013586 4288085770
0.018104553 1.1659874 -1.8100549 4288085770
2.1071129 1.3367319 -1.8038651 4288085770
0.22922516 1.171048 -1.8063638 4288085770
2.4732246 1.3528541 -1.8023851 4288085770
0.47433472 1.1771309 -1.8067226 4288085770
2.8813286 1.3700014 -1.8049668 4288085770
0.73044968 1.183213 -1.8050979 4288085770
3.2934418 1.3831331 -1.8005641 4288085770
1.0275497 1.1903248 -1.8095337 4288085770
3.7435532 1.3982859 -1.7992146 4288085770
1.3086624 1.1944182 -1.8089517 4288085770
4.2236671 1.4124444 -1.7959131 4288085770
1.6117783 1.198517 -1.8074032 4288085770
4.7737732 1.4306381 -1.7967089 4288085770
1.9328957 1.2016225 -1.8058842 4288085770
5.3228912 1.4438143 -1.7905143 4288085770
2.2840118 1.204741 -1.8054113 4288085770
5.989994 1.4620528 -1.7924888 4288085770
2.6631203 1.2068722 -1.8059832 4288085770
6.685112 1.4772869 -1.7885125 4288085770
3.0682373 1.2080102 -1.8055968 4288085770
7.4552193 1.4945529 -1.7866455 4288085770
3.4973526 1.2081571 -1.8052493 4288085770
8.3003387 1.5108411 -1.7828952 4288085770
3.9384689 1.2063006 -1.8019245 4288085770
9.2454529 1.5271657 -1.7792974 4288085770
4.4185905 1.2034584 -1.7986614 4288085770
10.40955 1.5515915 -1.7850149 4288085770
4.9367104 1.1986297 -1.7954606 4288085770
11.752644 1.5790896 -1.7939982 4288085770
5.5118332 1.1928241 -1.7933491 4288085770
6.1599426 1.1870522 -1.7943486 4288085770
6.8390732 1.1762817 -1.7914066 4288085770
7.5662003 1.1645257 -1.7875397 4288085770
8.3873138 1.1508088 -1.7858206 4288085770
9.3194427 1.1341341 -1.7852775 4288085770
10.375561 1.1145091 -1.7869298 4288085770
11.549683 1.0909266 -1.7887708 4288085770
4.6016006 -7.3463926 -1.545611 4293729569
4.2426033 -7.052496 -1.5544013 4293729569
3.9126129 -6.7785931 -1.5622803 4293729569
3.6126289 -6.5256786 -1.5702517 4293729569
3.3106537 -6.2727757 -1.574221 4293729569
3.0676804 -6.0588422 -1.5823659 4293729569
2.8527145 -5.8628983 -1.5915926 4293729569
2.6397552 -5.6679597 -1.5978253 4293729569
2.4757996 -5.5059938 -1.6092048 4293729569
2.321846 -5.3490262 -1.6196104 4293729569
2.2028809 -5.2140408 -1.633118 4293729569
6.3008118 -7.4379463 -1.5370901 4293729569
2.0569382 -5.0640821 -1.6385521 4293729569
6.0088158 -7.177022 -1.5480551 4293729569
1.9189911 -4.918117 -1.6460071 4293729569
5.690834 -6.9041233 -1.5519561 4293729569
1.8120537 -4.7921381 -1.6545529 4293729569
5.4658585 -6.6871758 -1.5641196 4293729569
1.6871147 -4.6551776 -1.658048 4293729569
5.2408905 -6.4702349 -1.5732836 4293729569
1.598175 -4.5391917 -1.667643 4293729569
3.5979156 -5.4951611 -1.405683 4293729569
1.483242 -4.4102297 -1.6701715 4293729569
3.5579643 -5.3921294 -1.4283757 4293729569
1.471302 -4.3381991 -1.6879779 4293729569
3.5820122 -5.3240614 -1.45724 4293729569
1.5823593 -4.3300757 -1.7291063 4293729569
3.5270653 -5.2140489 -1.4738954 4293729569
1.7174072 -4.3329372 -1.773294 4293729569
3.5681152 -5.1519747 -1.5027977 4293729569
1.8854561 -4.348773 -1.823558 4288085770
3.677166 -5.1228666 -1.5378724 4293729569
1.9355164 -4.3027048 -1.8495119 4288085770
3.935215 -5.1656623 -1.5933236 4293729569
1.8485947 -4.1857433 -1.8481083 4288085770
3.9092751 -5.0656443 -1.6080433 4293729569
1.7146759 -4.048821 -1.8365928 4288085770
3.8133354 -4.9316697 -1.6135858 4293729569
1.6587563 -3.9498425 -1.8382751 4288085770
3.7514038 -4.8156819 -1.6202183 4293729569
1.5968361 -3.8498697 -1.8379469 4288085770
3.7144699 -4.7136817 -1.6289185 4293729569
1.597908 -3.7788515 -1.8487749 4288085770
3.7005272 -4.6206679 -1.6396724 4293729569
1.4909935 -3.6599212 -1.83634 4288085770
3.6955948 -4.531652 -1.650448 4293729569
1.4660797 -3.5769329 -1.8381034 4288085770
3.7316666 -4.4606142 -1.6653227 4293729569
1.4261665 -3.488956 -1.8368347 4288085770
3.8567314 -4.4275188 -1.6924102 4293729569
1.3882561 -3.4009809 -1.8345689 4288085770
4.0667915 -4.4273734 -1.7296927 4293729569
1.365345 -3.322998 -1.8333473 4288085770
4.3198471 -4.4442005 -1.7730746 4293729569
1.3434334 -3.2440128 -1.833125 4288085770
4.5189133 -4.4330668 -1.8063158 4288085770
1.3445206 -3.1740155 -1.8349558 4288085770
4.5779839 -4.3630285 -1.8182247 4288085770
1.3286133 -3.0980353 -1.831749 4288085770
4.590065 -4.2740221 -1.8230236 4288085770
1.3376999 -3.0320354 -1.8336004 4288085770
4.5701485 -4.1740437 -1.8197526 4288085770
1.3597908 -2.9700298 -1.8364789 4288085770
4.5652313 -4.0790582 -1.8175144 4288085770
1.3598824 -2.9000416 -1.8343087 4288085770
4.5743179 -3.9890661 -1.8163072 4288085770
1.3749771 -2.8370447 -1.8341756 4288085770
4.6214027 -3.9140501 -1.8201877 4288085770
1.3800735 -2.7700596 -1.8300194 4288085770
4.6404915 -3.8280573 -1.818004 4288085770
1.4031639 -2.7080603 -1.8298997 4288085770
4.6835785 -3.7500525 -1.817872 4288085770
1.4402618 -2.6520534 -1.8308134 4288085770
4.732666 -3.6740446 -1.8177531 4288085770
1.4713516 -2.5930533 -1.8297123 4288085770
4.7907524 -3.6010365 -1.8166543 4288085770
1.52845 -2.5430384 -1.8316675 4288085770
4.8618431 -3.5300217 -1.8165776 4288085770
1.5655441 -2.4860382 -1.8295791 4288085770
4.9199409 -3.4560189 -1.8134757 4288085770
1.6226387 -2.4340258 -1.8305298 4288085770
5.0110283 -3.3909984 -1.8134407 4288085770
1.674736 -2.3800216 -1.828469 4288085770
5.120121 -3.3299723 -1.8134395 4288085770
1.7418327 -2.3310056 -1.8294406 4288085770
5.2102165 -3.262958 -1.8103981 4288085770
1.8129311 -2.2809906 -1.8294152 4288085770
5.3243141 -3.2009354 -1.8084016 4288085770
1.9010277 -2.2359657 -1.8314248 4288085770
5.4634094 -3.1458969 -1.8094556 4288085770
1.9841232 -2.1889472 -1.8314229 4288085770
5.5915031 -3.0858717 -1.8064828 4288085770
2.0632248 -2.1409321 -1.8304131 4288085770
5.7426033 -3.0308342 -1.805553 4288085770
2.1433258 -2.0919213 -1.8274024 4288085770
5.8987007 -2.9767981 -1.8036326 4288085770
2.2484245 -2.0478935 -1.8284374 4288085770
6.0867958 -2.9267464 -1.8037652 4288085770
2.3595238 -2.0038657 -1.8284808 4288085770
6.298893 -2.8816857 -1.8049421 4288085770
2.463623 -1.9578451 -1.8265097 4288085770
6.5189896 -2.8346238 -1.8051254 4288085770
2.59972 -1.9178051 -1.8285967 4288085770
6.6970978 -2.7755947 -1.7972227 4288085770
2.7528191 -1.8797573 -1.8317114 4288085770
6.9341965 -2.7285328 -1.7954289 4288085770
2.8649216 -1.8317417 -1.8267465 4288085770
7.2542915 -2.6964264 -1.8017837 4288085770
3.010025 -1.7897032 -1.8268406 4288085770
7.5173988 -2.6483612 -1.7980226 4288085770
3.1601219 -1.7466685 -1.8249391 4288085770
7.8154984 -2.6062799 -1.7963232 4288085770
3.3282242 -1.7066232 -1.8250692 4288085770
8.1585999 -2.5671821 -1.7956923 4288085770
3.5103226 -1.6665736 -1.8252182 4288085770
8.4677048 -2.5191078 -1.7899933 4288085770
3.7094269 -1.627519 -1.8253926 4288085770
8.8948059 -2.4879751 -1.7934952 4288085770
3.9205246 -1.5884577 -1.8265834 4288085770
9.3039131 -2.448864 -1.7899531 4288085770
4.11063 -1.5444154 -1.8227335 4288085770
9.7820129 -2.4157205 -1.7915193 4288085770
4.3277321 -1.5023619 -1.8199251 4288085770
10.222118 -2.3716073 -1.7850072 4288085770
4.5578384 -1.4593047 -1.8171318 4288085770
10.783222 -2.3404388 -1.7856902 4288085770
4.8109436 -1.4172398 -1.8143718 4288085770
11.329334 -2.3022933 -1.7793357 4288085770
5.0970421 -1.3771559 -1.8156617 4288085770
11.945442 -2.26612 -1.7750809 4288085770
5.3971405 -1.3370725 -1.8149701 4288085770
5.7292404 -1.2969764 -1.815322 4288085770
6.0763435 -1.2558783 -1.8146917 4288085770
6.4014511 -1.2087983 -1.8090169 4288085770
6.7945518 -1.1656882 -1.8074439 4288085770
7.191658 -1.1175863 -1.8018641 4288085770
7.6517601 -1.0734557 -1.8003792 4288085770
8.1368675 -1.0263218 -1.7969207 4288085770
8.6409683 -0.9741863 -1.7914758 4288085770
9.253067 -0.92800415 -1.7921913 4288085770
9.8221779 -0.8708607 -1.7818218 4288085770
10.53228 -0.81765521 -1.7796528 4288085770
11.270386 -0.76045048 -1.7735115 4288085770
12.192474 -0.70517027 -1.7756239 4288085770
11.979572 1.5824339 -1.7886546 4288085770
11.11467 1.6371928 -1.785508 4288085770
10.346775 1.6889819 -1.7844827 4288085770
9.5818825 1.734759 -1.7774752 4288085770
8.9999771 1.7866083 -1.7816701 4288085770
8.4060745 1.8324417 -1.7798647 4288085770
7.9161758 1.8803111 -1.7821776 4288085770
7.472271 1.9291992 -1.7875427 4288085770
7.0043755 1.9710641 -1.7848957 4288085770
6.6224709 2.0179667 -1.7893392 4288085770
6.2305717 2.0578539 -1.7877865 4288085770
5.8756752 2.0997531 -1.7872732 4288085770
5.5517769 2.1426647 -1.7887944 4288085770
5.231884 2.1805687 -1.7863315 4288085770
4.9469872 2.2214885 -1.7869033 4288085770
12.112701 3.3214512 -1.8408647 4288085770
4.6720886 2.260407 -1.7854916 4288085770
11.542801 3.3593001 -1.8431077 4288085770
4.430191 2.3013382 -1.7861143 4288085770
10.893921 3.3781049 -1.8343008 4288085770
4.194294 2.3412709 -1.7867467 4288085770
10.18206 3.3778658 -1.8124626 4288085770
3.9863968 2.3822112 -1.7874094 4288085770
9.6751747 3.4047143 -1.806805 4288085770
3.7914963 2.4251571 -1.7890836 4288085770
9.2222824 3.4355812 -1.8032024 4288085770
3.6135979 2.4681096 -1.7917776 4288085770
8.878376 3.4834962 -1.80869 4288085770
3.4267006 2.5070512 -1.7904702 4288085770
8.5364761 3.5274029 -1.810189 4288085770
3.2568054 2.5480015 -1.7911785 4288085770
8.22258 3.5713172 -1.8117211 4288085770
3.1019096 2.5909538 -1.7908999 4288085770
7.9426727 3.620245 -1.8152821 4288085770
2.9450111 2.6309054 -1.790626 4288085770
7.671772 3.6681705 -1.8168561 4288085770
2.8011093 2.6728587 -1.7893634 4288085770
7.4068642 3.715096 -1.8174403 4288085770
2.6782074 2.7178237 -1.7911183 4288085770
7.1829605 3.7680364 -1.8200587 4288085770
2.5633125 2.7637999 -1.7928807 4288085770
6.94207 3.8139729 -1.8186731 4288085770
2.4534149 2.8087661 -1.7936515 4288085770
6.7391701 3.8669143 -1.8193169 4288085770
2.3545113 2.8557382 -1.7954305 4288085770
6.5682678 3.925869 -1.8219849 4288085770
2.2356224 2.8966937 -1.7921999 4288085770
6.3893623 3.9798174 -1.8226546 4288085770
2.1627159 2.9486763 -1.7959987 4288085770
6.2514572 4.0427823 -1.8263526 4288085770
2.08881 3.0006566 -1.7987963 4288085770
6.0685616 4.0917187 -1.8220289 4288085770
2.0099144 3.0476291 -1.798599 4288085770
5.9636574 4.1606951 -1.8267523 4288085770
1.9640083 3.1046209 -1.8034184 4288085770
5.8747444 4.233675 -1.8314855 4288085770
1.8881073 3.1535923 -1.8022207 4288085770
5.7778397 4.3026485 -1.8342184 4288085770
1.8452072 3.210583 -1.8060437 4288085770
5.690937 4.3746223 -1.8359566 4288085770
1.8053017 3.2685738 -1.8098681 4288085770
5.6270218 4.4526091 -1.8407084 4288085770
1.7763901 3.3305681 -1.8136965 4288085770
5.5981026 4.5426116 -1.8484745 4288085770
1.7384949 3.3895555 -1.8155214 4288085770
5.555191 4.6265988 -1.8512378 4288085770
1.7205849 3.4545548 -1.8203561 4288085770
5.5182762 4.7145925 -1.8559992 4288085770
1.6956749 3.5175455 -1.8221874 4288085770
5.5173569 4.8115993 -1.862783 4288085770
1.6757698 3.5815396 -1.8250223 4288085770
5.5054398 4.9075971 -1.866556 4288085770
1.6618614 3.6485333 -1.8268577 4288085770
5.4925308 5.0005922 -1.8693346 4288085770
1.6659546 3.7205381 -1.8317028 4288085770
5.4996147 5.1035948 -1.8731146 4288085770
1.6900406 3.8015542 -1.8395516 4288085770
5.5037041 5.2045941 -1.8758956 4288085770
1.7041283 3.8785591 -1.8433975 4288085770
5.5147858 5.3095918 -1.8766758 4288085770
1.7182198 3.956562 -1.8462414 4288085770
5.5198746 5.4115829 -1.875456 4288085770
1.7263107 4.0325613 -1.8480825 4288085770
5.5899467 5.5406075 -1.8822522 4288085770
1.7434006 4.1125627 -1.8499255 4288085770
5.6530266 5.6686263 -1.8870425 4288085770
1.7545013 4.1895561 -1.8487682 4288085770
5.761097 5.8146653 -1.8958455 4288085770
1.7875862 4.2755637 -1.8516167 4288085770
5.8891563 5.9697108 -1.9056519 4288085770
1.8276749 4.3655734 -1.8544645 4288085770
6.0912018 6.1597948 -1.9244673 4288085770
1.9107475 4.4766088 -1.8643162 4288085770
6.2562561 6.3378539 -1.9362664 4288085770
1.9438438 4.5646076 -1.8631604 4288085770
6.4353104 6.5229158 -1.9470661 4288085770
2.0119247 4.6686282 -1.86801 4288085770
6.6303635 6.7189817 -1.9588603 4288085770
2.1169968 4.7926688 -1.8778586 4288085770
6.8344193 6.9210467 -1.9686518 4288085770
2.1990738 4.9056935 -1.8827047 4288085770
7.0034752 7.1120896 -1.972427 4288085770
2.2811584 5.0207129 -1.8855467 4288085770
7.1475487 7.2911129 -1.9701995 4288085770
2.3612404 5.135726 -1.8853861 4288085770
7.3136177 7.4841452 -1.9689667 4288085770
2.4543228 5.2577462 -1.8872253 4288085770
7.5096817 7.6921835 -1.9677359 4288085770
2.5494041 5.3817649 -1.8880625 4288085770
7.7387352 7.9212351 -1.968497 4288085770
2.6654816 5.5177913 -1.8898976 4288085770
7.9608002 8.1482735 -1.9642545 4288085770
2.8085556 5.6688299 -1.894731 4288085770
2.9616203 5.8278742 -1.9005585 4288085770
3.160675 6.0129399 -1.911382 4288085770
3.3867264 6.2140145 -1.9232018 4288085770
3.6607666 6.4441171 -1.9420135 4288085770
3.9417992 6.6812177 -1.9598179 4288085770
4.2118416 6.9143028 -1.9716182 4288085770
4.4908867 7.1553874 -1.9814112 4288085770
4.7329445 7.3774414 -1.9822032 4288085770
5.0189857 7.6275182 -1.9879845 4288085770
5.2820435 7.867569 -1.9847614 4288085770
5.6050835 8.1446476 -1.9875262 4288085770
11.856041 -0.25564253 -1.768548 4288085770
10.694153 -0.283898 -1.7734061 4288085770
9.6492653 -0.30712879 -1.7773749 4288085770
8.6773834 -0.32435167 -1.7774069 4288085770
7.8524933 -0.34053123 -1.782588 4288085770
7.0616074 -0.35171282 -1.7827946 4288085770
6.368721 -0.36286628 -1.7861019 4288085770
5.7128334 -0.36902177 -1.7844375 4288085770
11.924999 -0.73569977 -1.7655267 4288085770
5.1339493 -0.37515175 -1.7868522 4288085770
10.616112 -0.7140013 -1.763136 4288085770
4.5890579 -0.37927377 -1.7892981 4288085770
9.5552101 -0.69922626 -1.7710142 4288085770
4.116169 -0.38437355 -1.7948198 4288085770
8.6113091 -0.68542469 -1.7790145 4288085770
3.6692772 -0.38746965 -1.7993644 4288085770
7.7184181 -0.66862643 -1.7800616 4288085770
3.2663841 -0.38955152 -1.8059523 4288085770
6.9795189 -0.6557771 -1.7892746 4288085770
2.8594971 -0.38964427 -1.8075324 4288085770
6.1856308 -0.63497102 -1.7834162 4288085770
2.4976006 -0.38872325 -1.8111565 4288085770
5.5717354 -0.62209976 -1.7897575 4288085770
2.1197205 -0.3848201 -1.8077587 4288085770
4.9478493 -0.60424936 -1.7870796 4288085770
1.8038254 -0.38288844 -1.8114284 4288085770
4.4439507 -0.59135091 -1.7945341 4288085770
1.4559441 -0.37598455 -1.8050555 4288085770
3.9540558 -0.57845604 -1.7990034 4288085770
1.1870499 -0.37403834 -1.8107736 4288085770
3.4981613 -0.56455553 -1.8025055 4288085770
0.91415787 -0.36910093 -1.8124816 4288085770
3.0932617 -0.55064118 -1.8070602 4288085770
0.64226913 -0.36217177 -1.810187 4288085770
2.700367 -0.53672683 -1.8106272 4288085770
0.41938019 -0.35921538 -1.8159503 4288085770
2.321476 -0.52181494 -1.8112071 4288085770
0.17049026 -0.35128081 -1.8136773 4288085770
1.9585876 -0.50590384 -1.8098011 4288085770
-0.056396484 -0.34433734 -1.8134289 4288085770
1.6326981 -0.49197805 -1.8114372 4288085770
-0.28327942 -0.33539999 -1.8101767 4288085770
1.3248062 -0.47705066 -1.8120897 4288085770
-0.46817398 -0.32943904 -1.8139733 4288085770
1.0239143 -0.46112549 -1.8107477 4288085770
-0.66506195 -0.32149065 -1.8127539 4288085770
0.75802231 -0.4471885 -1.8114455 4288085770
-0.85594559 -0.31254351 -1.8105386 4288085770
0.49113464 -0.43125618 -1.8101385 4288085770
-1.0208397 -0.30458176 -1.8123519 4288085770
0.25424194 -0.41731036 -1.811866 4288085770
-1.1867256 -0.2966224 -1.8131644 4288085770
0.019355774 -0.40237296 -1.8095939 4288085770
-1.3376198 -0.28865778 -1.8149921 4288085770
-0.19753647 -0.38842475 -1.810342 4288085770
-1.5035057 -0.27770889 -1.8107988 4288085770
-0.39842606 -0.37447274 -1.8111066 4288085770
-1.6313972 -0.27073061 -1.8166518 4288085770
-0.5833168 -0.36151373 -1.8138896 4288085770
-1.7602882 -0.26176083 -1.8185002 4288085770
-0.77120972 -0.3465656 -1.8116657 4288085770
-1.900177 -0.25180197 -1.8163356 4288085770
-0.95209503 -0.33161557 -1.8094488 4288085770
-2.0200691 -0.24282789 -1.8191935 4288085770
-1.1229935 -0.31765902 -1.8092448 4288085770
-2.1589546 -0.23087704 -1.813026 4288085770
-1.2688828 -0.30468905 -1.8130677 4288085770
-2.2648506 -0.22189784 -1.816898 4288085770
-1.4357681 -0.28974211 -1.8078657 4288085770
-1.5736656 -0.27677214 -1.810697 4288085770
-1.7065544 -0.26280558 -1.8115313 4288085770
-1.8334427 -0.24983513 -1.8133739 4288085770
-1.9563332 -0.23686385 -1.8152208 4288085770
-2.082222 -0.22190177 -1.8130605 4288085770
-2.1881142 -0.20992458 -1.8159267 4288085770
-2.251915 1.6442757 -1.8016554 4288085770
-2.1428032 1.6622864 -1.7997158 4288085770
-2.0286903 1.6813002 -1.7987783 4288085770
-1.920578 1.6973068 -1.7948416 4288085770
-1.7914696 1.7173254 -1.7949157 4288085770
-1.6663551 1.7353411 -1.79399 4288085770
-1.5222473 1.7563648 -1.7950755 4288085770
-1.3861351 1.7753805 -1.7931576 4288085770
-2.2380524 1.6072204 -1.7967217 4288085770
-1.2310295 1.7974081 -1.7952505 4288085770
-2.1219406 1.6202365 -1.796798 4288085770
-1.0839195 1.815424 -1.7923443 4288085770
-1.9978333 1.6342564 -1.7978796 4288085770
-0.91080856 1.8374549 -1.7944534 4288085770
-1.8797188 1.6462686 -1.7959594 4288085770
-0.73970413 1.8584794 -1.7935627 4288085770
-1.7446136 1.6612922 -1.7980486 4288085770
-0.5575943 1.8805099 -1.7946794 4288085770
-1.6254959 1.6702987 -1.7931353 4288085770
-0.36248398 1.9035449 -1.7968057 4288085770
-1.4713898 1.6863301 -1.7972392 4288085770
-0.14638138 1.928588 -1.800947 4288085770
-1.3212776 1.7003546 -1.7983435 4288085770
0.077724457 1.9546306 -1.8040931 4288085770
-1.1581764 1.7153859 -1.8014575 4288085770
0.32781982 1.9826887 -1.8122587 4288085770
-1.0180626 1.7233981 -1.7975646 4288085770
0.53193665 1.9997069 -1.8054044 4288085770
-0.83795547 1.7384344 -1.8016934 4288085770
0.75904846 2.0197353 -1.8015647 4288085770
-0.64784622 1.7544725 -1.805829 4288085770
1.0091591 2.0417767 -1.8017414 4288085770
-0.46474075 1.7665049 -1.8079664 4288085770
1.2742691 2.0648184 -1.8009292 4288085770
-0.30761719 1.7725121 -1.8000921 4288085770
1.5723724 2.0908725 -1.8031406 4288085770
-0.090511322 1.7875593 -1.8062534 4288085770
1.8554878 2.1119137 -1.8003482 4288085770
0.11459732 1.7985916 -1.806412 4288085770
2.1865921 2.137974 -1.8025885 4288085770
0.32070923 1.8076223 -1.8055749 4288085770
2.5127068 2.1620252 -1.8008279 4288085770
0.5258255 1.8136466 -1.8017431 4288085770
2.8648148 2.1860852 -1.8010904 4288085770
0.74993515 1.8226805 -1.8009218 4288085770
3.2349205 2.2101445 -1.7993685 4288085770
0.99704742 1.8317227 -1.8021212 4288085770
3.6280365 2.233206 -1.7966691 4288085770
1.2561646 1.8397632 -1.8013328 4288085770
4.0221481 2.2532613 -1.7909762 4288085770
1.5262718 1.8478098 -1.8025542 4288085770
4.48526 2.2803402 -1.7903303 4288085770
1.8043861 1.8548534 -1.8017843 4288085770
4.9453735 2.3024096 -1.7856914 4288085770
