# .PCD v0.7 - Point Cloud Data file format
VERSION 0.7
FIELDS x y z rgb
SIZE 4 4 4 4
TYPE F F F U
COUNT 1 1 1 1
WIDTH 1125
HEIGHT 1
VIEWPOINT 0 0 0 1 0 0 0
POINTS 1125
DATA ascii
3.1219788 -3.5317302 -1.8727899 4288085770
3.9168701 -3.9470408 -1.7412872 4293729569
3.0079651 -3.4599347 -1.874033 4288085770
3.906662 -3.9401562 -1.7792244 4288085770
2.8969879 -3.3901291 -1.8732955 4288085770
3.9194489 -3.9462442 -1.8223186 4288085770
2.7789917 -3.3133256 -1.8685181 4288085770
3.9102478 -3.9353549 -1.8592732 4288085770
2.6770172 -3.2455046 -1.8678498 4288085770
3.8051758 -3.8635612 -1.8675904 4288085770
3.6571655 -3.7628067 -1.8616252 4288085770
3.5241394 -3.6700339 -1.8587635 4288085770
3.433075 -3.602211 -1.8651855 4288085770
3.3250732 -3.5234008 -1.8644946 4288085770
3.2360229 -3.4535699 -1.8689375 4288085770
3.1440125 -3.3827367 -1.8703582 4288085770
3.0330505 -3.2979159 -1.863657 4288085770
2.9430542 -3.2250724 -1.8620992 4288085770
2.8700256 -3.1632092 -1.8646536 4288085770
2.8050079 -3.1043372 -1.869266 4288085770
2.7400208 -3.0444579 -1.8708813 4288085770
2.6700287 -2.9805822 -1.870465 4288085770
2.6341095 -1.2318017 -1.8414965 4288085770
2.6921997 -1.2107055 -1.8410249 4288085770
2.7512817 -1.1906077 -1.8405592 4288085770
2.8073883 -1.1695099 -1.8380718 4288085770
2.865509 -1.147409 -1.8356025 4288085770
2.9206085 -1.1253083 -1.8311095 4288085770
2.9947052 -1.1071872 -1.8317621 4288085770
3.0707855 -1.0880604 -1.831434 4288085770
3.1229401 -1.0639551 -1.8229206 4288085770
3.2200012 -1.0488045 -1.827755 4288085770
3.3070984 -1.030659 -1.8275146 4288085770
3.3862152 -1.0115199 -1.8242111 4288085770
3.4553528 -0.98938835 -1.8168328 4288085770
3.5694275 -0.97520638 -1.8208046 4288085770
2.6060028 -0.79190701 -1.8373365 4288085770
3.6525421 -0.95405555 -1.8155386 4288085770
2.6731262 -0.77278298 -1.8319342 4288085770
3.7616425 -0.93787289 -1.8154743 4288085770
2.7442474 -0.75365764 -1.8285644 4288085770
3.8577881 -0.91869986 -1.8103104 4288085770
2.8183899 -0.73552454 -1.8242173 4288085770
3.9828644 -0.90349209 -1.8113749 4288085770
2.9114838 -0.72037113 -1.8250189 4288085770
4.111969 -0.88727748 -1.812475 4288085770
2.9895935 -0.70122904 -1.8197072 4288085770
4.2480469 -0.87205124 -1.8136301 4288085770
3.0777283 -0.6840722 -1.8154724 4288085770
4.3941345 -0.85780787 -1.8148646 4288085770
3.1828156 -0.66889846 -1.8163729 4288085770
4.5412292 -0.84156018 -1.8151126 4288085770
3.2909088 -0.65271735 -1.8162999 4288085770
4.7063141 -0.82828689 -1.8175013 4288085770
3.4089966 -0.6385237 -1.8183045 4288085770
4.8763885 -0.81300306 -1.8189356 4288085770
3.4981689 -0.61935318 -1.809083 4288085770
5.0624695 -0.79969639 -1.8224967 4288085770
3.6422119 -0.60612524 -1.8152988 4288085770
5.286499 -0.78933966 -1.8323629 4288085770
3.750351 -0.58893001 -1.8092287 4288085770
5.4796143 -0.77501178 -1.831984 4288085770
3.8854523 -0.57370245 -1.8093755 4288085770
5.6587524 -0.75669295 -1.8255 4288085770
4.0405273 -0.5594486 -1.8126841 4288085770
5.8558655 -0.74034828 -1.8211591 4288085770
4.192627 -0.54519272 -1.812968 4288085770
6.0779877 -0.72496879 -1.8200212 4288085770
4.3547058 -0.53092229 -1.8143344 4288085770
6.3081207 -0.70856816 -1.8159516 4288085770
4.517807 -0.51464295 -1.8127139 4288085770
6.5193024 -0.68918562 -1.805733 4288085770
4.691925 -0.49934459 -1.8111813 4288085770
6.7604523 -0.67175901 -1.7987564 4288085770
4.8989868 -0.48600495 -1.8159146 4288085770
7.0295868 -0.65529001 -1.7940071 4288085770
5.1040802 -0.47066164 -1.817637 4288085770
7.3327332 -0.63976538 -1.7905352 4288085770
5.3032074 -0.45531845 -1.8153098 4288085770
7.6528778 -0.62520969 -1.7862005 4288085770
5.5023499 -0.43796837 -1.8099875 4288085770
8.0129852 -0.6105932 -1.7851944 4288085770
5.7214661 -0.42158926 -1.8068273 4288085770
8.4180908 -0.59790504 -1.7865534 4288085770
5.9515991 -0.40518641 -1.8017578 4288085770
8.8352203 -0.58318675 -1.7840161 4288085770
6.1847687 -0.38777363 -1.7947152 4288085770
9.3412781 -0.57133436 -1.7892029 4288085770
6.451889 -0.37131047 -1.7909496 4288085770
9.786499 -0.55354929 -1.7789032 4288085770
6.7450256 -0.35480523 -1.7883973 4288085770
10.308624 -0.53864563 -1.774229 4288085770
7.048172 -0.33827853 -1.7839279 4288085770
10.891769 -0.52363837 -1.7700565 4288085770
7.3693085 -0.32072127 -1.7796085 4288085770
11.574905 -0.51046836 -1.769701 4288085770
7.7394104 -0.30408299 -1.7766898 4288085770
12.246109 -0.49229419 -1.759259 4288085770
8.1305542 -0.28740919 -1.7739434 4288085770
13.090225 -0.47985089 -1.7602248 4288085770
8.6046143 -0.27160883 -1.7778771 4288085770
13.898453 -0.46043026 -1.7449117 4288085770
9.1236877 -0.25573432 -1.7831802 4288085770
14.808701 -0.441836 -1.7304349 4288085770
9.5938721 -0.23590732 -1.7730908 4288085770
15.916916 -0.42491293 -1.7205808 4288085770
10.151016 -0.21694684 -1.7697144 4288085770
17.273102 -0.4095757 -1.7157605 4288085770
10.788132 -0.19785273 -1.7679951 4288085770
11.50824 -0.1786226 -1.7689581 4288085770
12.2314 -0.15736353 -1.7599511 4288085770
13.090576 -0.13588262 -1.756062 4288085770
14.023743 -0.11226451 -1.7477863 4288085770
15.113907 -0.087382197 -1.7418034 4288085770
16.379059 -0.061202526 -1.7372618 4288085770
16.810669 0.12559187 -1.7294214 4288085770
15.470657 0.12331331 -1.7383153 4288085770
14.24971 0.12224782 -1.7411976 4288085770
13.207748 0.12347829 -1.746568 4288085770
12.2668 0.12588334 -1.7497776 4288085770
11.490799 0.1285522 -1.7593548 4288085770
10.725891 0.13225913 -1.7600253 4288085770
17.038467 0.15695143 -1.7204013 4288085770
10.026993 0.13708222 -1.758245 4288085770
15.679459 0.16464198 -1.7291572 4288085770
9.4450378 0.1420871 -1.7634346 4288085770
14.464462 0.17158079 -1.735105 4288085770
8.8951263 0.14815426 -1.7648911 4288085770
13.444458 0.17984188 -1.7436712 4288085770
8.3662415 0.15426457 -1.7625225 4288085770
12.460541 0.18818259 -1.743536 4288085770
7.8843384 0.15945363 -1.7605407 4288085770
11.675507 0.19783473 -1.7540526 4288085770
7.4554291 0.16672599 -1.7610025 4288085770
10.925568 0.20656037 -1.7578571 4288085770
7.0644989 0.17306197 -1.7617774 4288085770
10.214676 0.21636629 -1.754987 4288085770
6.7265625 0.18147743 -1.7669957 4288085770
9.6087341 0.22533834 -1.7569854 4288085770
6.3946381 0.18890715 -1.7702615 4288085770
9.0707855 0.23441875 -1.7615473 4288085770
6.1116638 0.19641399 -1.7759335 4288085770
8.5278931 0.24451065 -1.7570703 4288085770
5.8427429 0.20494461 -1.7817237 4288085770
8.0579834 0.25371528 -1.7571959 4288085770
5.5658417 0.21347451 -1.7814476 4288085770
7.6220703 0.26397908 -1.7566056 4288085770
5.3228912 0.22205234 -1.7854533 4288085770
7.2661285 0.27436018 -1.7636786 4288085770
5.0919647 0.23165238 -1.7885606 4288085770
6.9051971 0.28474402 -1.7657099 4288085770
4.8510742 0.24024677 -1.7865829 4288085770
6.5802612 0.29518795 -1.7680397 4288085770
4.6311798 0.24887371 -1.7857792 4288085770
6.2853088 0.30567718 -1.7726185 4288085770
4.446228 0.25854838 -1.7902677 4288085770
5.9993591 0.31618607 -1.7752714 4288085770
4.2423248 0.26820433 -1.7885988 4288085770
5.7364349 0.32673311 -1.778115 4288085770
4.0544434 0.27688694 -1.7870603 4288085770
5.4675446 0.33727884 -1.7769091 4288085770
3.8935242 0.28660572 -1.7897477 4288085770
5.2276459 0.34787035 -1.7769437 4288085770
3.7206421 0.29631555 -1.7873356 4288085770
5.0037079 0.35848451 -1.7791107 4288085770
3.5657349 0.30604863 -1.7880726 4288085770
4.7987823 0.37013006 -1.7814376 4288085770
3.4108429 0.31578803 -1.78581 4288085770
4.5779114 0.37976432 -1.7766273 4288085770
3.2789307 0.32655525 -1.7887399 4288085770
4.3999939 0.39145279 -1.7801776 4288085770
3.1659698 0.33734512 -1.7958272 4288085770
4.226059 0.40315199 -1.7817616 4288085770
3.0310822 0.34711814 -1.79373 4288085770
4.0641479 0.41387153 -1.7834427 4288085770
2.9051819 0.35790396 -1.7927096 4288085770
3.8972321 0.42558694 -1.7830844 4288085770
2.7792969 0.3676939 -1.7896874 4288085770
3.734375 0.43631339 -1.7807567 4288085770
2.671402 0.37850523 -1.7908161 4288085770
3.5774841 0.44804978 -1.7784815 4288085770
3.4495392 0.45982337 -1.7814462 4288085770
3.3206329 0.47159982 -1.782403 4288085770
3.1917267 0.48238063 -1.7813578 4288085770
3.0718231 0.49417472 -1.781389 4288085770
2.9599304 0.50597906 -1.7824862 4288085770
2.8450165 0.51778531 -1.7805591 4288085770
2.7441101 0.52960825 -1.7817478 4288085770
2.6441956 0.54243517 -1.7819471 4288085770
2.618576 2.7140279 -1.732301 4288085770
2.736618 2.7622156 -1.7343822 4288085770
2.8516693 2.8064017 -1.7344303 4288085770
2.975708 2.8546014 -1.7355616 4288085770
3.0907745 2.8967967 -1.7316058 4288085770
3.2248077 2.946012 -1.7328224 4288085770
3.3389282 2.984211 -1.7258501 4288085770
3.4789886 3.0334411 -1.7251167 4288085770
3.6031036 3.0726571 -1.7182298 4288085770
2.6915894 2.6740866 -1.7418163 4288085770
3.7601166 3.1259103 -1.719646 4288085770
2.794693 2.7032638 -1.7367342 4288085770
3.9022369 3.1701541 -1.7139192 4288085770
2.9157562 2.7384601 -1.7368138 4288085770
4.057312 3.2184148 -1.7103086 4288085770
3.0358429 2.7726579 -1.735883 4288085770
4.2393188 3.2777095 -1.7119455 4288085770
3.1659088 2.8098702 -1.7350416 4288085770
4.4143829 3.3310003 -1.7095118 4288085770
3.2750549 2.8350616 -1.7280009 4288085770
4.5964203 3.3843036 -1.7071366 4288085770
3.4011688 2.8652744 -1.724112 4288085770
4.8124084 3.4516501 -1.7110732 4288085770
3.5452271 2.9035091 -1.7243893 4288085770
5.0204468 3.5119915 -1.7109287 4288085770
3.6763458 2.9327326 -1.7195401 4288085770
5.2444611 3.5783577 -1.7119296 4288085770
3.8373871 2.9739919 -1.7209651 4288085770
5.4635162 3.6377211 -1.7098746 4288085770
3.98349 3.0062356 -1.7182472 4288085770
5.7105103 3.7061238 -1.7110715 4288085770
4.1335907 3.0384879 -1.7145624 4288085770
5.9455566 3.7685161 -1.7081561 4288085770
4.3305664 3.0877986 -1.7203035 4288085770
6.2025909 3.8349419 -1.7064326 4288085770
4.4946899 3.1210718 -1.7177374 4288085770
6.4656372 3.9003778 -1.7047565 4288085770
4.6537933 3.1503434 -1.712122 4288085770
6.7656097 3.9788675 -1.7064157 4288085770
4.839859 3.1886482 -1.7117493 4288085770
7.0855713 4.0603895 -1.7092474 4288085770
5.0329285 3.225965 -1.7114329 4288085770
7.4025726 4.1369123 -1.709044 4288085770
5.2320099 3.2632933 -1.7101667 4288085770
7.7515564 4.2224827 -1.7111254 4288085770
5.460022 3.3106589 -1.7141626 4288085770
8.0756226 4.2940269 -1.7059703 4288085770
5.6820679 3.3520212 -1.7150962 4288085770
8.4206696 4.3676028 -1.7019944 4288085770
5.8981628 3.3863816 -1.7119656 4288085770
8.8555603 4.4713063 -1.7088292 4288085770
6.1292267 3.4247608 -1.7119684 4288085770
9.3184814 4.5800591 -1.7149076 4288085770
6.3623352 3.4601488 -1.7089818 4288085770
9.7714539 4.6788025 -1.7168827 4288085770
6.616394 3.4995637 -1.7101779 4288085770
10.296295 4.7986522 -1.7255003 4288085770
6.8694611 3.5359826 -1.70836 4288085770
10.874161 4.9295845 -1.736582 4288085770
7.1305237 3.5724125 -1.7076089 4288085770
11.288269 4.996294 -1.7231679 4288085770
7.4145966 3.6118789 -1.7080555 4288085770
11.7314 5.0650516 -1.7099991 4288085770
7.6916809 3.6453366 -1.7064316 4288085770
12.187531 5.1338339 -1.6959388 4288085770
7.9687958 3.6747994 -1.7028 4288085770
12.69664 5.212697 -1.684341 4288085770
8.2928467 3.7163286 -1.7045841 4288085770
13.288681 5.3136859 -1.6794791 4288085770
8.5869751 3.7428212 -1.700088 4288085770
13.956635 5.4297938 -1.6772819 4288085770
8.9250336 3.7803755 -1.7009811 4288085770
14.623657 5.5369048 -1.6730576 4288085770
9.2740936 3.815948 -1.701962 4288085770
15.322662 5.6450739 -1.6661029 4288085770
9.6511536 3.8545637 -1.7041821 4288085770
16.060699 5.7543116 -1.6574755 4288085770
10.023254 3.886178 -1.7033467 4288085770
16.91864 5.8887348 -1.6558988 4288085770
10.300491 3.8846607 -1.6896534 4288085770
10.768463 3.9354138 -1.6986568 4288085770
11.192535 3.9671073 -1.7012548 4288085770
11.500778 3.9626403 -1.687814 4288085770
11.94487 3.989368 -1.6895692 4288085770
12.387955 4.0071011 -1.6882985 4288085770
12.862061 4.0288796 -1.6892941 4288085770
13.292236 4.0335989 -1.6838892 4288085770
13.755402 4.0373683 -1.680757 4288085770
14.258514 4.0451989 -1.6799669 4288085770
14.743713 4.0430059 -1.6760066 4288085770
15.201904 4.0287724 -1.6697977 4288085770
15.741074 4.023664 -1.668282 4288085770
16.306213 4.0165963 -1.6679795 4288085770
16.808472 3.9884372 -1.6611094 4288085770
17.347687 3.9613352 -1.6565502 4288085770
17.108017 -4.063674 -1.7576652 4288085770
16.49913 -4.0616822 -1.7555938 4288085770
15.920227 -4.0586452 -1.7557745 4288085770
15.368286 -4.0515642 -1.7561884 4288085770
14.881348 -4.0543861 -1.762125 4288085770
14.357422 -4.0412569 -1.7617834 4288085770
13.899475 -4.0370312 -1.7679753 4288085770
13.445511 -4.0277972 -1.7732103 4288085770
12.999557 -4.0135479 -1.7775221 4288085770
12.558594 -3.9962909 -1.7818809 4288085770
12.152634 -3.9809761 -1.7865281 4288085770
11.75766 -3.9636471 -1.7932706 4288085770
11.345688 -3.9363387 -1.7958908 4288085770
10.994705 -3.9209397 -1.8039966 4288085770
17.533844 -5.9580235 -1.7425997 4293729569
10.61174 -3.891583 -1.8068626 4288085770
14.814072 -5.2371969 -1.5783064 4293729569
10.213806 -3.8502414 -1.8046262 4288085770
14.36586 -5.2049999 -1.6066363 4293729569
9.8798218 -3.8238103 -1.8108952 4288085770
13.737747 -5.10606 -1.615593 4293729569
9.5048676 -3.779429 -1.8078568 4288085770
13.149597 -5.0130548 -1.6248717 4293729569
9.1469116 -3.7370236 -1.8069558 4288085770
12.617477 -4.9309626 -1.6365964 4293729569
8.8329468 -3.702554 -1.8104069 4288085770
12.07637 -4.8378763 -1.6442671 4293729569
8.5009766 -3.6591039 -1.8087249 4288085770
11.505264 -4.7278261 -1.6447203 4293729569
8.1930237 -3.6196184 -1.8092351 4288085770
10.995178 -4.631681 -1.6486549 4293729569
7.8760681 -3.5721436 -1.8076859 4288085770
10.521088 -4.5424786 -1.6538765 4293729569
7.5930939 -3.5326195 -1.8094046 4288085770
10.122986 -4.473165 -1.665694 4293729569
7.3201141 -3.4930787 -1.8112071 4288085770
9.6978912 -4.389883 -1.6713128 4293729569
7.0651398 -3.4565101 -1.8141539 4288085770
9.300827 -4.3095551 -1.6771593 4293729569
6.8021698 -3.4129491 -1.8140473 4288085770
8.9367371 -4.2381792 -1.686264 4293729569
6.561203 -3.3743577 -1.8171146 4288085770
8.643631 -4.1886988 -1.7019186 4293729569
6.3422241 -3.3407345 -1.8223555 4288085770
8.4404755 -4.171093 -1.7292631 4293729569
6.0922852 -3.2921457 -1.8193667 4288085770
8.2743225 -4.1664381 -1.7628906 4288085770
5.9012604 -3.2644825 -1.8278298 4288085770
8.1201324 -4.1607618 -1.7956212 4288085770
5.6833038 -3.2218478 -1.8280966 4288085770
7.9429626 -4.1451168 -1.8251784 4288085770
5.4693451 -3.1782064 -1.8283982 4288085770
7.6798859 -4.0905809 -1.8380926 4288085770
5.2773743 -3.1415348 -1.8318703 4288085770
7.3398895 -4.0001402 -1.8344333 4288085770
5.0963898 -3.104845 -1.8354337 4288085770
7.0328522 -3.9186506 -1.8340323 4288085770
4.9014282 -3.0611706 -1.8348942 4288085770
6.7438507 -3.8421338 -1.8347714 4288085770
4.723465 -3.0224738 -1.8374865 4288085770
6.4668274 -3.7655954 -1.8346109 4288085770
4.5484924 -2.9827707 -1.8391058 4288085770
6.1928101 -3.6880503 -1.8334773 4288085770
4.3935089 -2.9490404 -1.8438802 4288085770
5.9617767 -3.6254444 -1.8376734 4288085770
4.2385406 -2.9133081 -1.8476586 4288085770
5.714798 -3.552855 -1.836755 4288085770
4.0666046 -2.8665917 -1.8453162 4288085770
5.468811 -3.4772577 -1.8328509 4288085770
3.9326172 -2.8348293 -1.8512623 4288085770
5.2587891 -3.4146137 -1.8352222 4288085770
3.7966156 -2.8010676 -1.8561952 4288085770
5.056778 -3.3539562 -1.8376565 4288085770
3.6536713 -2.76231 -1.8570793 4288085770
4.8508148 -3.2872977 -1.8360684 4288085770
3.5206909 -2.7255378 -1.8590431 4288085770
4.6598053 -3.2256186 -1.8365963 4288085770
3.3977356 -2.6917551 -1.864084 4288085770
4.4858093 -3.1699154 -1.8392541 4288085770
3.2637787 -2.6509786 -1.8630471 4288085770
4.3108063 -3.1112099 -1.8399096 4288085770
3.1468048 -2.6171823 -1.8661385 4288085770
4.151825 -3.0584803 -1.8416867 4288085770
3.0388489 -2.5853746 -1.8713009 4288085770
4.0088196 -3.0117321 -1.8475862 4288085770
2.9078979 -2.5405874 -1.8672965 4288085770
3.8618469 -2.9599829 -1.8494616 4288085770
2.8208923 -2.5167551 -1.8776186 4288085770
3.7238312 -2.9112208 -1.8524063 4288085770
2.7109528 -2.4789414 -1.8777759 4288085770
3.5818634 -2.8584609 -1.8533251 4288085770
3.464859 -2.8166704 -1.8594317 4288085770
3.3368683 -2.7668881 -1.8604617 4288085770
3.2168884 -2.7200961 -1.8635526 4288085770
3.1099091 -2.6782856 -1.8677425 4288085770
2.9959259 -2.6314816 -1.8698833 4288085770
2.8889618 -2.5866652 -1.871079 4288085770
2.7879791 -2.5438428 -1.8743205 4288085770
2.6730347 -2.492027 -1.8694625 4288085770
2.6537781 -0.29036129 -1.8097167 4288085770
2.7438812 -0.27721405 -1.8074999 4288085770
2.8350067 -0.26306307 -1.8042934 4288085770
2.9291382 -0.24990737 -1.8011103 4288085770
3.034256 -0.23773742 -1.8000176 4288085770
3.1353912 -0.22356832 -1.7958951 4288085770
3.2514954 -0.21138072 -1.7948952 4288085770
3.3825989 -0.19917417 -1.7970212 4288085770
3.5116882 -0.18796694 -1.7971287 4288085770
2.6305084 -0.11643732 -1.8088574 4288085770
3.6477966 -0.17574656 -1.7962971 4288085770
2.7236328 -0.10427952 -1.8036642 4288085770
3.7699585 -0.16253829 -1.7893498 4288085770
2.8377533 -0.09309864 -1.8046453 4288085770
3.9210663 -0.15029371 -1.7886446 4288085770
2.9319153 -0.080935478 -1.7974603 4288085770
4.1001434 -0.13901484 -1.7941725 4288085770
3.0470276 -0.069747567 -1.79545 4288085770
4.2782288 -0.1277318 -1.7966921 4288085770
3.1711426 -0.059546947 -1.7945137 4288085770
4.451355 -0.11544812 -1.794172 4288085770
3.3192139 -0.04831636 -1.7987809 4288085770
4.6195068 -0.10216665 -1.7886119 4288085770
3.4473419 -0.03710556 -1.7958803 4288085770
4.8235931 -0.090839624 -1.7903507 4288085770
3.5944366 -0.026869416 -1.7961376 4288085770
5.0227203 -0.079511523 -1.7870476 4288085770
3.7525635 -0.016615152 -1.7964871 4288085770
5.2687836 -0.068122149 -1.79214 4288085770
3.8927002 -0.0053812265 -1.7916877 4288085770
5.4829407 -0.055765867 -1.7869654 4288085770
4.0688019 0.0049002171 -1.793189 4288085770
5.7440338 -0.044344902 -1.7881839 4288085770
4.2498932 0.014191508 -1.7937307 4288085770
5.9782104 -0.031950831 -1.7801781 4288085770
4.4290314 0.024485111 -1.7912576 4288085770
6.2523499 -0.020499229 -1.7765064 4288085770
4.6421204 0.03482461 -1.7940707 4288085770
6.5464935 -0.0090172291 -1.7740033 4288085770
4.8362579 0.045145988 -1.7897239 4288085770
6.8576355 0.0024961233 -1.7696435 4288085770
5.0733337 0.054524779 -1.792737 4288085770
7.1828003 0.015035629 -1.7634037 4288085770
5.2935028 0.064888477 -1.7886095 4288085770
7.5748901 0.025671601 -1.7647235 4288085770
5.558609 0.074315906 -1.7898586 4288085770
7.9750519 0.037328959 -1.7611132 4288085770
5.8107452 0.08373189 -1.7859986 4288085770
8.437149 0.048078537 -1.7630227 4288085770
6.0699005 0.093162298 -1.7801976 4288085770
8.9532471 0.059915423 -1.7653885 4288085770
6.3440857 0.10262132 -1.7725232 4288085770
9.4674225 0.071763635 -1.7597382 4288085770
6.6612091 0.11214077 -1.7702105 4288085770
10.040573 0.083706141 -1.7555842 4288085770
7.0023804 0.12170279 -1.7660999 4288085770
10.698715 0.094782829 -1.7541442 4288085770
7.3625031 0.1302954 -1.7621479 4288085770
11.449814 0.1060065 -1.7554874 4288085770
7.7796478 0.13897514 -1.7616754 4288085770
12.247986 0.11831772 -1.7512283 4288085770
8.2317657 0.14671171 -1.7614963 4288085770
13.105179 0.12973154 -1.7434652 4288085770
8.7458649 0.15554345 -1.7648406 4288085770
14.110367 0.14138615 -1.7369478 4288085770
9.2889862 0.16242933 -1.764426 4288085770
15.321533 0.15336573 -1.7371645 4288085770
9.847168 0.16934848 -1.7591381 4288085770
16.590744 0.16545904 -1.726871 4288085770
10.52327 0.1774466 -1.7618454 4288085770
11.254395 0.18363965 -1.7620125 4288085770
12.035583 0.19092262 -1.7576029 4288085770
12.870804 0.19630241 -1.7486451 4288085770
13.900955 0.20198607 -1.7483292 4288085770
15.059113 0.20688057 -1.7470894 4288085770
16.355331 0.21001029 -1.7410092 4288085770
16.75386 0.38663363 -1.7301455 4288085770
15.492844 0.40861201 -1.7383165 4288085770
14.359848 0.42880082 -1.7415879 4288085770
13.36087 0.44820118 -1.7460115 4288085770
12.452927 0.46575189 -1.7462165 4288085770
11.743881 0.48460317 -1.7581372 4288085770
11.026917 0.50245428 -1.7609875 4288085770
17.494415 0.72281122 -1.6970329 4288085770
10.337021 0.51735806 -1.757066 4288085770
16.23735 0.7367866 -1.7122242 4288085770
9.7351074 0.53239918 -1.7549028 4288085770
15.103317 0.74896646 -1.721473 4288085770
9.2271423 0.54858017 -1.7595506 4288085770
14.094299 0.7623446 -1.7308002 4288085770
8.7052612 0.56275058 -1.7560749 4288085770
13.165344 0.77385879 -1.7338138 4288085770
8.2513428 0.57702518 -1.7551849 4288085770
12.401306 0.78862381 -1.7452528 4288085770
7.8154602 0.59133124 -1.7524502 4288085770
11.745255 0.80455589 -1.7596247 4288085770
7.4345245 0.605721 -1.7521892 4288085770
11.112274 0.81853604 -1.7661912 4288085770
7.0995941 0.62017941 -1.7553244 4288085770
10.375488 0.82338166 -1.7508492 4288085770
6.8375702 0.63774157 -1.7670925 4288085770
9.745636 0.83138776 -1.7424335 4288085770
6.5626068 0.65329027 -1.7737458 4288085770
9.2766724 0.84462929 -1.7484119 4288085770
6.2836456 0.66883969 -1.7753649 4288085770
8.7697754 0.85482502 -1.7440584 4288085770
6.0317078 0.683429 -1.7792149 4288085770
8.3508606 0.86715245 -1.7454662 4288085770
5.7817993 0.69802713 -1.7790823 4288085770
7.9230042 0.87647557 -1.7397923 4288085770
5.546875 0.71164751 -1.7800772 4288085770
7.5800476 0.88992023 -1.7438562 4288085770
5.3469391 0.72731876 -1.7843769 4288085770
7.269104 0.90441513 -1.7481973 4288085770
5.1010895 0.73893452 -1.7762742 4288085770
6.9641724 0.91692376 -1.7495873 4288085770
4.8832245 0.75059032 -1.7714128 4288085770
6.7141876 0.93351054 -1.7574568 4288085770
4.6993256 0.76429415 -1.7708473 4288085770
6.469223 0.94910693 -1.7643678 4288085770
4.5274048 0.77901363 -1.7723863 4288085770
6.22229 0.96270704 -1.766259 4288085770
4.3704834 0.79375601 -1.7750547 4288085770
5.9674072 0.97430086 -1.7640784 4288085770
4.2325134 0.80952501 -1.7798879 4288085770
5.7424927 0.98793817 -1.7641587 4288085770
4.0875854 0.82428765 -1.7816596 4288085770
5.522583 1.0015855 -1.7632823 4288085770
3.9097748 0.83501363 -1.7721412 4288085770
5.3496246 1.0172966 -1.7698138 4288085770
3.7808533 0.84980249 -1.7730508 4288085770
5.1128082 1.0249305 -1.7587826 4288085770
3.6449585 0.86258316 -1.7718971 4288085770
4.9428864 1.0406537 -1.7603397 4288085770
3.52005 0.87738156 -1.7708406 4288085770
4.7610016 1.0523634 -1.7577882 4288085770
3.4330597 0.89522719 -1.7791164 4288085770
4.5821381 1.0640824 -1.7522621 4288085770
3.3101959 0.90803123 -1.7760744 4288085770
4.4442139 1.0798528 -1.7560947 4288085770
3.2062836 0.92285967 -1.777199 4288085770
4.3062744 1.0946281 -1.7569265 4288085770
3.1193237 0.93971086 -1.7814732 4288085770
4.1793365 1.1104176 -1.7598541 4288085770
3.013443 0.95354176 -1.778579 4288085770
4.0574341 1.1262164 -1.7618244 4288085770
2.9185486 0.96838737 -1.7777812 4288085770
3.9225464 1.1400018 -1.7586803 4288085770
2.8306274 0.98324132 -1.7790437 4288085770
3.8026428 1.1548076 -1.7576671 4288085770
2.7497253 0.99910617 -1.7803676 4288085770
3.7166595 1.1736565 -1.7649519 4288085770
2.6628113 1.0139654 -1.7786386 4288085770
3.6017761 1.1874728 -1.7619801 4288085770
3.4938965 1.2022996 -1.7600698 4288085770
3.3939819 1.2171369 -1.7592287 4288085770
3.3230286 1.2370107 -1.7656441 4288085770
3.2420807 1.2548742 -1.7679708 4288085770
3.1651459 1.2737436 -1.7703331 4288085770
3.0872498 1.2906153 -1.770684 4288085770
3.0153046 1.3084922 -1.7730882 4288085770
2.9354248 1.3243647 -1.7704206 4288085770
2.8675079 1.3422496 -1.7718587 4288085770
2.7886353 1.358125 -1.7681994 4288085770
2.7336884 1.3780293 -1.7707529 4288085770
2.6737823 1.3959291 -1.7712603 4288085770
2.6178589 1.4158344 -1.7718048 4288085770
2.6708221 3.2366724 -1.7426767 4288085770
2.7468414 3.2977872 -1.7424142 4288085770
2.8179169 3.3558989 -1.7391043 4288085770
2.8840027 3.410007 -1.7317462 4288085770
2.9740295 3.4771442 -1.7316124 4288085770
3.0461121 3.5322609 -1.7243073 4288085770
3.143158 3.6024117 -1.7222383 4288085770
3.2451782 3.6745682 -1.7212145 4288085770
3.3521881 3.747735 -1.7192357 4288085770
3.4721985 3.8279195 -1.7183783 4288085770
3.5762787 3.8970857 -1.7123682 4288085770
2.6108551 3.3675222 -1.743315 4288085770
3.7132416 3.9852958 -1.7126684 4288085770
2.7019043 3.4246631 -1.7411766 4288085770
3.8382721 4.0654922 -1.7088544 4288085770
2.8049316 3.4878216 -1.74015 4288085770
3.9872742 4.1567211 -1.7082622 4288085770
2.9029999 3.5469761 -1.7360747 4288085770
4.1412659 4.2509608 -1.706717 4288085770
3.0130463 3.6121464 -1.7341111 4288085770
4.3112183 4.3532205 -1.7083209 4288085770
3.1171112 3.670311 -1.7290866 4288085770
4.506134 4.4695172 -1.7121594 4288085770
3.2222137 3.7284808 -1.7220707 4288085770
4.66716 4.5617738 -1.7056725 4288085770
3.3711548 3.8127022 -1.7274694 4288085770
4.8900452 4.6911092 -1.7127697 4288085770
3.4862518 3.8738875 -1.7205441 4288085770
5.1199188 4.8214598 -1.7169292 4288085770
3.6262817 3.9481049 -1.7188516 4288085770
5.3408813 4.9438038 -1.7160003 4288085770
3.7713013 4.0233293 -1.7172039 4288085770
5.5987549 5.0861983 -1.7194176 4288085770
3.9133453 4.094553 -1.7125249 4288085770
5.8556519 5.225596 -1.7208226 4288085770
4.0783386 4.1778088 -1.7120609 4288085770
6.094635 5.3489733 -1.7150509 4288085770
4.2473602 4.2610698 -1.7106311 4288085770
6.3515778 5.4823761 -1.711448 4288085770
4.4413147 4.3583651 -1.7144361 4288085770
6.6444855 5.6328321 -1.7101786 4288085770
4.6273193 4.4466534 -1.71316 4288085770
6.9444122 5.7853031 -1.7069728 4288085770
4.8203125 4.5369544 -1.710947 4288085770
7.2723236 5.9488168 -1.7040234 4288085770
5.058197 4.6503148 -1.7171535 4288085770
7.6471405 6.1363945 -1.7075119 4288085770
5.2981262 4.7636809 -1.7213774 4288085770
8.0140076 6.3149695 -1.7039196 4288085770
5.5370789 4.8710494 -1.7225847 4288085770
8.4388123 6.5236297 -1.7058685 4288085770
5.7910156 4.9844418 -1.7239301 4288085770
8.910553 6.752358 -1.7102497 4288085770
6.0549469 5.0998483 -1.7253642 4288085770
9.3514404 6.9570537 -1.7043316 4288085770
6.3109436 5.2062492 -1.7217176 4288085770
9.8472137 7.1878295 -1.702924 4288085770
6.5749512 5.3146648 -1.718143 4288085770
10.315109 7.3975711 -1.6922467 4288085770
6.8499298 5.4240947 -1.7146652 4288085770
10.924805 7.6795192 -1.6958914 4288085770
7.1488953 5.5435619 -1.7114079 4288085770
11.566467 7.971518 -1.6968265 4288085770
7.4638672 5.6670537 -1.7092943 4288085770
7.7858276 5.7895579 -1.7062402 4288085770
8.1487427 5.9311218 -1.7065654 4288085770
8.5126801 6.0666914 -1.7038918 4288085770
8.9165802 6.2183194 -1.7035856 4288085770
9.3694153 6.3890176 -1.7087278 4288085770
9.8282776 6.5577283 -1.7109196 4288085770
10.294144 6.7224555 -1.7101669 4288085770
10.769073 6.8851991 -1.7064903 4288085770
11.258987 7.0479674 -1.7029433 4288085770
11.761932 7.2087579 -1.6965065 4288085770
12.269913 7.3655601 -1.687108 4288085770
12.911682 7.5795569 -1.6909437 4288085770
13.529572 7.7725253 -1.6865449 4288085770
14.16745 7.9655232 -1.6823194 4288085770
17.60878 -1.5708052 -1.7529514 4288085770
16.910919 -1.6321454 -1.7575831 4288085770
16.196106 -1.682515 -1.757041 4288085770
15.588226 -1.7326835 -1.7626245 4288085770
15.032333 -1.7817541 -1.7707555 4288085770
14.468414 -1.821838 -1.7758067 4288085770
14.003464 -1.866737 -1.7888968 4288085770
13.475571 -1.8987517 -1.79333 4288085770
12.878784 -1.9128928 -1.7860453 4288085770
12.355927 -1.9298952 -1.7835379 4288085770
11.932968 -1.9557118 -1.7920785 4288085770
11.523041 -1.9785032 -1.7997572 4288085770
11.129089 -1.9972634 -1.8066061 4288085770
17.180054 -2.9997153 -1.7448425 4288085770
10.744171 -2.0140059 -1.8125505 4288085770
16.437958 -2.9881432 -1.7600422 4288085770
10.389191 -2.0296924 -1.820811 4288085770
15.621902 -2.9537063 -1.7634735 4288085770
10.071213 -2.0463097 -1.8324604 4288085770
14.868881 -2.9231501 -1.7685654 4288085770
9.665329 -2.0450881 -1.8291917 4288085770
14.099899 -2.8796208 -1.7664952 4288085770
9.2245178 -2.0309293 -1.8175604 4288085770
13.448868 -2.8468699 -1.7716615 4288085770
8.8906097 -2.0315723 -1.8190484 4288085770
12.889801 -2.8259461 -1.7817907 4288085770
8.5267334 -2.0232697 -1.8142247 4288085770
12.326782 -2.7960277 -1.7878816 4288085770
8.1918793 -2.0149124 -1.8107061 4288085770
11.825729 -2.7729921 -1.796622 4288085770
7.8779602 -2.0075159 -1.8094077 4288085770
11.3237 -2.7429571 -1.8023551 4288085770
7.5940399 -2.0030637 -1.8114238 4288085770
10.842697 -2.7118812 -1.8063095 4288085770
7.322113 -1.9965882 -1.812567 4288085770
10.393661 -2.6817453 -1.8116 4288085770
7.0402222 -1.9851303 -1.8106072 4288085770
9.9376831 -2.6446197 -1.8118198 4288085770
6.7893066 -1.9776149 -1.8119717 4288085770
9.4647522 -2.599524 -1.8058646 4288085770
6.5453796 -1.9680859 -1.8134108 4288085770
9.0597839 -2.5633018 -1.8066206 4288085770
6.3144379 -1.9585323 -1.8149867 4288085770
8.6668243 -2.5260558 -1.8055031 4288085770
6.092514 -1.9489623 -1.817657 4288085770
8.2878723 -2.4877825 -1.8035336 4288085770
5.8825531 -1.9393696 -1.821454 4288085770
7.9399109 -2.452451 -1.8028891 4288085770
5.670639 -1.9267793 -1.8222308 4288085770
7.601944 -2.4150999 -1.8013508 4288085770
5.461731 -1.9131827 -1.8210399 4288085770
7.3059692 -2.3856707 -1.8042507 4288085770
5.2847443 -1.9035281 -1.8271837 4288085770
7.0220032 -2.3552179 -1.8062773 4288085770
5.1088104 -1.8938709 -1.8313382 4288085770
6.7440186 -2.3237538 -1.8073676 4288085770
4.9268646 -1.8792237 -1.8324316 4288085770
6.4800568 -2.293263 -1.8096046 4288085770
4.7649231 -1.8685393 -1.8367333 4288085770
6.2350922 -2.2637362 -1.812041 4288085770
4.5780182 -1.8478999 -1.8337767 4288085770
6.0060883 -2.2361798 -1.8156452 4288085770
4.3741913 -1.8212891 -1.8236437 4288085770
5.7701263 -2.2056344 -1.8161767 4288085770
4.2072754 -1.8026119 -1.8218966 4288085770
5.5591583 -2.1780434 -1.8189697 4288085770
4.0483704 -1.7839198 -1.8212333 4288085770
5.3591766 -2.1514313 -1.8228786 4288085770
3.8984528 -1.7662107 -1.8206646 4288085770
5.160202 -2.1228166 -1.8247988 4288085770
3.7485199 -1.7475017 -1.8200965 4288085770
4.9722137 -2.0961814 -1.8288333 4288085770
3.6065979 -1.7287772 -1.819612 4288085770
4.7842865 -2.066545 -1.8288696 4288085770
3.4816589 -1.7140218 -1.822305 4288085770
4.6132812 -2.0408781 -1.8330832 4288085770
3.3397675 -1.6922961 -1.8188219 4288085770
4.3744965 -1.9913309 -1.8155911 4288085770
3.2337952 -1.6805063 -1.8257132 4288085770
4.216507 -1.9646386 -1.8189416 4288085770
3.1188354 -1.664732 -1.828512 4288085770
4.0645599 -1.9389342 -1.8203547 4288085770
3.9066162 -1.9092402 -1.8197064 4288085770
3.7576752 -1.8815297 -1.8201518 4288085770
3.6017761 -1.8488302 -1.8165257 4288085770
3.4648438 -1.8210962 -1.8160975 4288085770
3.3438721 -1.7983336 -1.8198357 4288085770
3.2189026 -1.7715778 -1.8215332 4288085770
3.0989532 -1.7458116 -1.8222826 4288085770
3.1079407 0.36452723 -1.7732615 4288085770
3.2260895 0.37574577 -1.7695103 4288085770
3.3581848 0.38698912 -1.7689061 4288085770
3.4883423 0.39822984 -1.765281 4288085770
3.6344452 0.41049886 -1.7658248 4288085770
3.796524 0.4227984 -1.7675371 4288085770
3.9476776 0.43407845 -1.7641335 4288085770
4.1277618 0.44541168 -1.7660353 4288085770
3.1417542 0.42554832 -1.7706361 4288085770
4.3248138 0.458776 -1.7701166 4288085770
3.2639008 0.43377376 -1.7669258 4288085770
4.496994 0.46909618 -1.7649341 4288085770
3.4249573 0.44307017 -1.7726264 4288085770
4.7110596 0.48149276 -1.7681942 4288085770
3.5680847 0.45133495 -1.7701375 4288085770
4.9321594 0.49390316 -1.7695289 4288085770
3.7441406 0.46065903 -1.7759962 4288085770
5.1652679 0.50533628 -1.7709892 4288085770
3.899292 0.46794653 -1.7726336 4288085770
5.4133606 0.51779723 -1.7726078 4288085770
4.0724182 0.4762671 -1.7724605 4288085770
5.6594849 0.52925539 -1.7712057 4288085770
4.2405548 0.48357844 -1.7702351 4288085770
5.9276123 0.54075503 -1.7700353 4288085770
4.4456329 0.49195814 -1.7733991 4288085770
6.2107391 0.55128241 -1.7690227 4288085770
4.635788 0.49831128 -1.7704051 4288085770
6.5048981 0.56283188 -1.7651265 4288085770
4.8608704 0.50572848 -1.7727802 4288085770
6.7841339 0.57235503 -1.7540722 4288085770
5.0810242 0.51213813 -1.7711024 4288085770
7.1262512 0.58299375 -1.751682 4288085770
5.3510742 0.52063894 -1.7779517 4288085770
7.487442 0.59366894 -1.7474921 4288085770
5.5752563 0.52505708 -1.7713161 4288085770
7.8865814 0.60441542 -1.7447026 4288085770
5.8573608 0.53158164 -1.7732916 4288085770
8.3696594 0.6183176 -1.7497993 4288085770
6.1245422 0.53608012 -1.7681091 4288085770
8.8737488 0.63025975 -1.7521167 4288085770
6.4247131 0.54063988 -1.766274 4288085770
9.4128723 0.64226866 -1.7528036 4288085770
6.7178955 0.54318786 -1.7593653 4288085770
9.9790497 0.65332985 -1.7487748 4288085770
7.0311127 0.54577351 -1.7516673 4288085770
10.699066 0.66867542 -1.76037 4288085770
7.409256 0.54947901 -1.7526543 4288085770
11.446152 0.68107462 -1.7642496 4288085770
7.7924042 0.55119491 -1.7496941 4288085770
12.123444 0.68934655 -1.7513912 4288085770
8.2325439 0.55301714 -1.7503345 4288085770
12.944672 0.69888783 -1.7440507 4288085770
8.7366333 0.55495834 -1.7556493 4288085770
13.959793 0.71179152 -1.7467561 4288085770
9.2547607 0.55592704 -1.7571115 4288085770
15.01001 0.72176313 -1.7408302 4288085770
9.7839661 0.55391765 -1.7526898 4288085770
16.244232 0.73308063 -1.7358449 4288085770
10.470032 0.55420017 -1.7619231 4288085770
17.446655 0.73734236 -1.7135208 4288085770
11.188141 0.55254388 -1.767493 4288085770
11.890366 0.54586053 -1.7608943 4288085770
12.610703 0.53621268 -1.7484846 4288085770
13.612793 0.52808928 -1.7570474 4288085770
14.628036 0.51599383 -1.7527473 4288085770
15.797256 0.50118637 -1.7530696 4288085770
17.010605 0.4794662 -1.7408547 4288085770
7.0878754 -5.1300545 -0.3985076 4293729569
7.0884399 -5.0710659 -0.44052994 4293729569
7.1190491 -5.0280209 -0.48186731 4293729569
7.1706696 -4.9939365 -0.52342546 4293729569
14.788589 -7.7929473 -1.5696819 4293729569
14.369019 -7.4767361 -1.5752988 4293729569
14.042526 -7.2063503 -1.5848913 4293729569
13.660065 -6.9150701 -1.5868952 4293729569
13.414627 -6.6895347 -1.5983386 4293729569
13.131226 -6.450069 -1.6023817 4293729569
12.879852 -6.2285438 -1.6077607 4293729569
12.639542 -6.0139985 -1.6112545 4293729569
12.438217 -5.8183799 -1.6171582 4293729569
12.241943 -5.6277518 -1.6191142 4293729569
12.091675 -5.4570389 -1.6255534 4293729569
11.95842 -5.2972937 -1.631171 4293729569
11.829224 -5.1395407 -1.6348302 4293729569
11.737991 -4.9967184 -1.6418893 4293729569
12.964478 -5.3103848 -1.0007811 4293729569
11.625793 -4.8489337 -1.644727 4293729569
13.008194 -5.2093124 -1.0212622 4293729569
11.588593 -4.7290106 -1.6543539 4293729569
11.524429 -4.6001363 -1.6586964 4293729569
11.488251 -4.4812112 -1.6653335 4293729569
11.466095 -4.3692594 -1.6711173 4293729569
11.643829 -4.3199377 -1.7010083 4293729569
12.033432 -4.3362246 -1.7541325 4288085770
12.402023 -4.3375511 -1.8050365 4288085770
12.38591 -4.2195878 -1.8068843 4288085770
12.307861 -4.0857382 -1.7990785 4288085770
12.276794 -3.9658029 -1.7957678 4288085770
12.265717 -3.8528297 -1.7936678 4288085770
12.318634 -3.7567384 -1.7972419 4288085770
12.365555 -3.658658 -1.798753 4288085770
12.376511 -3.5516438 -1.7958844 4288085770
12.421448 -3.4525671 -1.7943745 4288085770
12.474426 -3.3554752 -1.7929485 4288085770
12.55838 -3.2643259 -1.7928493 4288085770
12.656326 -3.1751509 -1.7938979 4288085770
12.726334 -3.0790272 -1.7896512 4288085770
12.81929 -2.9888611 -1.7866471 4288085770
12.920288 -2.89868 -1.7837272 4288085770
13.040283 -2.8114636 -1.7810078 4288085770
13.201263 -2.7291715 -1.7807212 4288085770
13.347275 -2.6419067 -1.777276 4288085770
13.53125 -2.5615721 -1.7772324 4288085770
13.718262 -2.4782319 -1.7752206 4288085770
13.94725 -2.3988135 -1.774652 4288085770
14.085312 -2.3055634 -1.764123 4288085770
14.387268 -2.2320096 -1.7673254 4288085770
14.768188 -2.1663103 -1.7773621 4288085770
15.070206 -2.0847566 -1.7755651 4288085770
15.400192 -2.0051513 -1.7750642 4288085770
15.746201 -1.9215162 -1.7737324 4288085770
16.071243 -1.8319196 -1.7661791 4288085770
16.479248 -1.7471695 -1.764503 4288085770
16.962219 -1.6642804 -1.7656188 4288085770
17.432236 -1.5744153 -1.7625983 4288085770
17.94725 -1.4844673 -1.7600534 4288085770
17.067734 0.69628215 -1.7277536 4288085770
15.982651 0.74328423 -1.7332191 4288085770
14.982605 0.78444219 -1.7355886 4288085770
14.119537 0.82585239 -1.7414131 4288085770
13.297546 0.86233687 -1.7406745 4288085770
12.604507 0.89805937 -1.745306 4288085770
12.030396 0.93600178 -1.756201 4288085770
11.506332 0.9710362 -1.7666276 4288085770
10.932404 1.0009758 -1.7635243 4288085770
17.104843 1.4552867 -1.6810284 4288085770
10.326569 1.0228546 -1.7500832 4288085770
16.073822 1.4753883 -1.6850705 4288085770
9.7677612 1.0438201 -1.7361412 4288085770
15.174805 1.4967327 -1.6905143 4288085770
9.3847504 1.0731125 -1.7420666 4288085770
14.421738 1.5213461 -1.6995089 4288085770
8.9678497 1.0973401 -1.737632 4288085770
13.674728 1.5419695 -1.7035677 4288085770
8.5859222 1.1216331 -1.7345695 4288085770
13.010727 1.5627456 -1.7075088 4288085770
8.2459869 1.1460032 -1.7339525 4288085770
12.423721 1.5846634 -1.7132671 4288085770
7.9151001 1.1683896 -1.7304318 4288085770
11.9077 1.608712 -1.7197793 4288085770
7.6341248 1.1938686 -1.7324417 4288085770
11.473602 1.6379125 -1.7321615 4288085770
7.3651886 1.2173698 -1.732579 4288085770
10.928741 1.6499047 -1.7253685 4288085770
7.1242371 1.2429223 -1.7340133 4288085770
10.476822 1.6680691 -1.7235622 4288085770
6.8763123 1.2644613 -1.7323742 4288085770
10.017944 1.6812201 -1.7176826 4288085770
6.6862946 1.2921088 -1.7393498 4288085770
9.6509857 1.7025414 -1.7197783 4288085770
6.4573975 1.3136818 -1.7359123 4288085770
9.2082062 1.7107198 -1.7070699 4288085770
6.2624664 1.3373184 -1.7358358 4288085770
8.889267 1.7311292 -1.706676 4288085770
6.0845184 1.3619871 -1.7379394 4288085770
8.5863342 1.7515678 -1.7074516 4288085770
5.8995819 1.3836424 -1.7369692 4288085770
8.2934113 1.7700238 -1.7063341 4288085770
5.7306671 1.4073267 -1.7361684 4288085770
8.0344696 1.7915437 -1.7065771 4288085770
5.5847015 1.4310536 -1.7386124 4288085770
7.7825317 1.8120756 -1.7058949 4288085770
5.4168091 1.4517393 -1.7348228 4288085770
7.5356445 1.8316164 -1.7042656 4288085770
5.2629242 1.4734514 -1.7331817 4288085770
7.3246918 1.8542244 -1.7050183 4288085770
5.1409454 1.4992225 -1.7358797 4288085770
7.1357269 1.8788722 -1.7080042 4288085770
5.0060425 1.5209694 -1.7344403 4288085770
6.9268341 1.898483 -1.7047784 4288085770
4.8940735 1.5467591 -1.7362444 4288085770
6.7488861 1.923151 -1.7058811 4288085770
4.7332764 1.5624559 -1.7255304 4288085770
6.5919342 1.9488583 -1.7082067 4288085770
4.6133881 1.5832303 -1.7232506 4288085770
6.4259796 1.9715481 -1.7084372 4288085770
4.4954987 1.604008 -1.718992 4288085770
6.2570953 1.9922323 -1.7046363 4288085770
4.3975525 1.6278229 -1.7199452 4288085770
6.0962067 2.0129311 -1.7009203 4288085770
4.3006439 1.6526394 -1.7189085 4288085770
5.9822083 2.0427172 -1.7057014 4288085770
4.208725 1.6764653 -1.7179253 4288085770
5.839325 2.0644486 -1.7021763 4288085770
4.1098328 1.6972775 -1.7138684 4288085770
5.7034302 2.0871935 -1.6997254 4288085770
4.0378876 1.7241411 -1.7160966 4288085770
5.5825195 2.1119659 -1.6974332 4288085770
3.9589539 1.7499905 -1.7162509 4288085770
5.4695892 2.137753 -1.6972256 4288085770
3.8939972 1.7768664 -1.7175534 4288085770
5.3856201 2.169594 -1.700325 4288085770
3.8250732 1.8027346 -1.717814 4288085770
5.2737122 2.193383 -1.6971285 4288085770
3.7601318 1.8306108 -1.718116 4288085770
5.1717987 2.2191896 -1.6950378 4288085770
3.6981964 1.8574917 -1.7184505 4288085770
5.0778961 2.245012 -1.6920321 4288085770
3.6203461 1.8783424 -1.7126164 4288085770
4.9889984 2.2728429 -1.690079 4288085770
3.566391 1.9072378 -1.7130351 4288085770
4.9130554 2.3026977 -1.6902633 4288085770
3.5124664 1.9351337 -1.7124541 4288085770
4.8321533 2.3305435 -1.6873951 4288085770
3.4645233 1.9640405 -1.7129364 4288085770
4.7342987 2.3523564 -1.6803477 4288085770
3.4126129 1.9909396 -1.7113767 4288085770
4.6594086 2.3802133 -1.676543 4288085770
3.3786163 2.0238729 -1.7150071 4288085770
4.5904846 2.4090805 -1.6738019 4288085770
3.3297272 2.0507772 -1.7124789 4288085770
4.5295715 2.4399629 -1.6721454 4288085770
3.2967529 2.0827117 -1.7141199 4288085770
4.4796143 2.4748664 -1.6726046 4288085770
3.2687988 2.1166558 -1.7158132 4288085770
4.4426422 2.5117931 -1.674201 4288085770
3.2229004 2.1435652 -1.712317 4288085770
4.3957214 2.5467019 -1.6726921 4288085770
3.2009277 2.1795208 -1.7150736 4288085770
4.3527985 2.5816169 -1.6712253 4288085770
3.1749725 2.2134681 -1.7157876 4288085770
4.33078 2.6255722 -1.6749792 4288085770
3.1350861 2.2423885 -1.711355 4288085770
4.3068085 2.6675234 -1.6767125 4288085770
3.1151276 2.2783468 -1.7121325 4288085770
4.2948151 2.7134967 -1.680572 4288085770
3.097168 2.3143091 -1.7139311 4288085770
4.2728424 2.7564516 -1.6813259 4288085770
3.0752411 2.3492627 -1.7126875 4288085770
4.2688141 2.8064404 -1.6862693 4288085770
4.2588196 2.8534169 -1.6881499 4288085770
4.2518463 2.9023995 -1.6900613 4288085770
4.250824 2.9533925 -1.6930366 4288085770
4.2329102 2.9963531 -1.6898327 4288085770
4.2289276 3.0463405 -1.6897757 4288085770
4.2299347 3.0983377 -1.6907713 4288085770
4.2230072 3.1453185 -1.6876833 4288085770
4.2320251 3.2013302 -1.6887627 4288085770
4.2520142 3.2623615 -1.6909575 4288085770
4.2700043 3.3213892 -1.6911316 4288085770
4.2880249 3.3814168 -1.6913054 4288085770
4.3160095 3.4464631 -1.692584 4288085770
3.0786896 2.9162021 -1.7185566 4288085770
4.3350525 3.5064921 -1.6907682 4288085770
3.0947266 2.9672256 -1.7177117 4288085770
4.3600464 3.5705318 -1.6890152 4288085770
3.1237183 3.0242739 -1.7200029 4288085770
4.3811188 3.6315637 -1.68522 4288085770
3.1298065 3.0702786 -1.7150533 4288085770
4.4260864 3.7056413 -1.6866765 4288085770
3.1578217 3.1263242 -1.7153342 4288085770
4.4620972 3.7747006 -1.6850386 4288085770
3.178894 3.1793571 -1.7125416 4288085770
4.5110779 3.8517852 -1.6845365 4288085770
3.2188721 3.2434249 -1.7139475 4288085770
4.5590973 3.9278674 -1.6830239 4288085770
3.243927 3.2974648 -1.7101972 4288085770
4.6220703 4.0119772 -1.6826684 4288085770
3.2829437 3.3615303 -1.7095923 4288085770
4.706955 4.109128 -1.6875432 4288085770
3.3189697 3.4225898 -1.7069569 4288085770
4.7838898 4.2032647 -1.6883335 4288085770
3.3689728 3.4916768 -1.7074676 4288085770
4.8628387 4.2984033 -1.6881447 4288085770
3.4199829 3.5607643 -1.7069888 4288085770
4.941803 4.3935423 -1.6869559 4288085770
3.4690094 3.6288486 -1.7044892 4288085770
5.0457153 4.502727 -1.6900284 4288085770
3.516037 3.6959271 -1.6999683 4288085770
5.1615753 4.6199346 -1.6932263 4288085770
3.5840302 3.7750468 -1.7006669 4288085770
5.2984161 4.7501812 -1.6986437 4288085770
3.661972 3.8601847 -1.7024701 4288085770
5.4143219 4.8683882 -1.6988406 4288085770
3.7100677 3.9262648 -1.6939604 4288085770
5.5551758 5.0026417 -1.701299 4288085770
3.7940063 4.0154138 -1.6948259 4288085770
5.697052 5.1378951 -1.7017677 4288085770
3.8769989 4.1035595 -1.6936812 4288085770
5.8229828 5.2621188 -1.6980693 4288085770
3.9858856 4.2077546 -1.6978083 4288085770
5.9718933 5.4013848 -1.6956108 4288085770
4.0808563 4.3019223 -1.6957891 4288085770
6.1298065 5.5466676 -1.692246 4288085770
4.188797 4.4051142 -1.6959054 4288085770
6.3046722 5.702981 -1.6900587 4288085770
4.3027496 4.5123172 -1.6950843 4288085770
6.4945068 5.8693233 -1.6880279 4288085770
4.4306335 4.6275468 -1.6964095 4288085770
6.7282715 6.0627456 -1.6914566 4288085770
4.5805054 4.7568164 -1.6999643 4288085770
6.9520569 6.2511492 -1.6897802 4288085770
4.7213745 4.8800683 -1.7004254 4288085770
7.2048035 6.4586062 -1.6904066 4288085770
4.8792419 5.0143523 -1.7020636 4288085770
7.4895172 6.6871219 -1.6913664 4288085770
5.0142365 5.1315923 -1.6954625 4288085770
7.8001862 6.9326854 -1.6945975 4288085770
5.2150116 5.2929549 -1.7015493 4288085770
8.1068878 7.1742406 -1.6917875 4288085770
5.3749542 5.4252405 -1.696209 4288085770
8.4326019 7.4288297 -1.688175 4288085770
5.5807495 5.5886121 -1.6983485 4288085770
8.8221893 7.7265353 -1.68923 4288085770
5.7706757 5.7389526 -1.6933217 4288085770
9.2257996 8.0322685 -1.6874311 4288085770
6.013443 5.9253922 -1.696847 4288085770
6.2622223 6.1138415 -1.6974354 4288085770
6.5319672 6.31633 -1.6982431 4288085770
6.8217163 6.5298553 -1.6992595 4288085770
7.1413879 6.7634339 -1.7015889 4288085770
7.4740753 7.003037 -1.7020545 4288085770
7.8178101 7.2466588 -1.6996357 4288085770
8.1864929 7.5073266 -1.6974773 4288085770
8.6121063 7.8030982 -1.6969144 4288085770
17.420349 -0.70359778 -1.731982 4288085770
16.370514 -0.75351346 -1.7297959 4288085770
15.526581 -0.80304962 -1.739809 4288085770
14.776596 -0.84941316 -1.7528245 4288085770
14.111588 -0.89162201 -1.7667453 4288085770
13.486603 -0.92975712 -1.7810917 4288085770
12.743759 -0.95311564 -1.7761714 4288085770
12.082901 -0.97432375 -1.7741256 4288085770
11.559952 -0.99927557 -1.7835548 4288085770
11.03302 -1.0182371 -1.7879388 4288085770
17.085831 -1.5642619 -1.7508359 4288085770
10.521133 -1.0331726 -1.7894812 4288085770
16.0578 -1.5571324 -1.7588573 4288085770
10.054199 -1.047025 -1.7935033 4288085770
15.110779 -1.5468564 -1.7647419 4288085770
9.6202698 -1.058817 -1.7978768 4288085770
14.320679 -1.5442914 -1.7793064 4288085770
9.2652588 -1.0754623 -1.8100963 4288085770
13.622589 -1.5415585 -1.7948537 4288085770
8.8224182 -1.0772753 -1.8043692 4288085770
12.762741 -1.5151317 -1.7836599 4288085770
8.4265289 -1.0810006 -1.8031452 4288085770
12.040787 -1.4964501 -1.7819436 4288085770
8.0476532 -1.0826952 -1.8021011 4288085770
11.466751 -1.4874941 -1.7918119 4288085770
7.7027588 -1.0843277 -1.8014205 4288085770
10.935745 -1.4784606 -1.8001394 4288085770
7.3898621 -1.085901 -1.803081 4288085770
10.399765 -1.4624391 -1.8024104 4288085770
7.0989227 -1.0874337 -1.8059766 4288085770
9.8948212 -1.4463611 -1.8040121 4288085770
6.8259888 -1.0879335 -1.8090641 4288085770
9.4687958 -1.4371361 -1.8134608 4288085770
6.5850067 -1.0913728 -1.8174944 4288085770
9.047821 -1.4229041 -1.8179603 4288085770
6.3849792 -1.0977345 -1.8323636 4288085770
8.5719604 -1.397778 -1.8098679 4288085770
6.1270752 -1.0932086 -1.8316088 4288085770
8.1600494 -1.3785328 -1.807461 4288085770
5.9061432 -1.0916131 -1.8362501 4288085770
7.7721252 -1.3572443 -1.8043096 4288085770
5.6871948 -1.0880144 -1.8399119 4288085770
7.4321899 -1.3408664 -1.8056731 4288085770
5.4582977 -1.0814362 -1.8384659 4288085770
7.1082458 -1.3244599 -1.8062074 4288085770
5.2503967 -1.0748186 -1.8392437 4288085770
6.8253021 -1.3099773 -1.8101804 4288085770
4.9996033 -1.0602851 -1.8275588 4288085770
6.6042328 -1.3043772 -1.8248198 4288085770
4.7667999 -1.0457181 -1.8170662 4288085770
6.3612213 -1.29182 -1.8322208 4288085770
4.5928497 -1.0400378 -1.8202076 4288085770
6.0873108 -1.2733234 -1.8312879 4288085770
4.3990021 -1.0283976 -1.8151324 4288085770
5.8493652 -1.2577596 -1.8337407 4288085770
4.2101593 -1.0167489 -1.8091106 4288085770
5.6074524 -1.2392049 -1.8321495 4288085770
4.0592041 -1.0090271 -1.811497 4288085770
5.4224396 -1.2285416 -1.8411708 4288085770
3.8823853 -0.99535674 -1.8046021 4288085770
5.1885681 -1.207974 -1.836664 4288085770
3.7574005 -0.99058497 -1.8122668 4288085770
4.9606781 -1.1863956 -1.8312209 4288085770
3.5995483 -0.97787935 -1.8075755 4288085770
4.7248535 -1.1608341 -1.8206904 4288085770
3.4756165 -0.97010773 -1.8112495 4288085770
4.5349426 -1.1431847 -1.8196545 4288085770
3.3496552 -0.96133983 -1.8149016 4288085770
4.3420715 -1.1225424 -1.8145854 4288085770
3.2357025 -0.95354921 -1.8196821 4288085770
4.1551971 -1.1018895 -1.8095806 4288085770
3.1107941 -0.94178134 -1.8193433 4288085770
3.9723206 -1.0812292 -1.8036177 4288085770
3.8313599 -1.0674881 -1.8081071 4288085770
3.6864319 -1.0507562 -1.8085523 4288085770
3.5574799 -1.0359929 -1.813169 4288085770
3.4165802 -1.0182548 -1.8116565 4288085770
3.2906494 -1.0024884 -1.812305 4288085770
3.1637421 -0.98572391 -1.8119421 4288085770
3.1731567 0.93857455 -1.7620759 4288085770
3.2892914 0.95077515 -1.7573109 4288085770
3.40448 0.96197343 -1.7515359 4288085770
3.5545502 0.97724009 -1.754133 4288085770
