# .PCD v0.7 - Point Cloud Data file format
VERSION 0.7
FIELDS x y z rgb
SIZE 4 4 4 4
TYPE F F F U
COUNT 1 1 1 1
WIDTH 1123
HEIGHT 1
VIEWPOINT 0 0 0 1 0 0 0
POINTS 1123
DATA ascii
4.615509 0.75310135 -1.8391366 4288085770
6.4980469 0.8731432 -1.8345431 4288085770
4.8456116 0.76321411 -1.842859 4288085770
6.8260803 0.88871288 -1.8327173 4288085770
5.0757141 0.77232075 -1.8435842 4288085770
7.1841125 0.90543652 -1.833725 4288085770
5.3027954 0.78040123 -1.8403291 4288085770
7.5611572 0.92224026 -1.8306292 4288085770
5.5658875 0.78966808 -1.8418745 4288085770
7.9772339 0.93923759 -1.8303208 4288085770
5.8479919 0.80002785 -1.8443135 4288085770
8.4112854 0.9563179 -1.8279142 4288085770
6.1230469 0.80634212 -1.8418021 4288085770
8.8913574 0.97462463 -1.8272539 4288085770
6.4081726 0.81269932 -1.8372363 4288085770
9.3963928 0.9920454 -1.8244603 4288085770
6.7272339 0.82022953 -1.8364824 4288085770
9.9693909 1.0107956 -1.822293 4288085770
7.0673218 0.82686234 -1.8356167 4288085770
10.655487 1.0351171 -1.8304954 4288085770
7.4354553 0.83362865 -1.8345981 4288085770
11.373505 1.05758 -1.8325286 4288085770
7.8395691 0.84057236 -1.8353835 4288085770
12.110535 1.0771132 -1.8274674 4288085770
8.2626648 0.84560394 -1.8340712 4288085770
13.024597 1.103529 -1.833424 4288085770
8.7227478 0.85081482 -1.8335574 4288085770
14.005646 1.1292534 -1.8340183 4288085770
9.1718445 0.85195541 -1.8261147 4288085770
15.105682 1.1555548 -1.835964 4288085770
9.7700195 0.8598547 -1.8338426 4288085770
16.42572 1.1889334 -1.8436931 4288085770
10.377136 0.86378098 -1.8355333 4288085770
17.923767 1.2231627 -1.8494523 4288085770
10.982269 0.86367702 -1.8292463 4288085770
11.744415 0.86636162 -1.8350977 4288085770
12.561584 0.86730003 -1.836655 4288085770
13.457733 0.86661911 -1.8377882 4288085770
14.507935 0.86469269 -1.8430871 4288085770
15.693146 0.86241913 -1.8496537 4288085770
16.94632 0.85345268 -1.84787 4288085770
6.6697693 -5.2831116 -0.74410659 4293729569
6.6638184 -5.2250237 -0.78297555 4293729569
6.6990051 -5.1897273 -0.82469642 4293729569
6.7502441 -5.1633515 -0.86635947 4293729569
6.7944336 -5.1290131 -0.90703493 4293729569
6.8546753 -5.1025977 -0.94764978 4293729569
6.850647 -5.039515 -0.98149091 4293729569
6.8858032 -4.997232 -1.0181885 4293729569
6.9198914 -4.9529586 -1.0538855 4293729569
6.9519653 -4.9046969 -1.0885801 4293729569
6.9509277 -4.8386145 -1.1173944 4293729569
7.9757996 -5.2780299 -0.6773212 4293729569
6.9589233 -4.7754831 -1.14817 4293729569
7.9937744 -5.2118435 -0.71003503 4293729569
7.850708 -5.1717324 -1.2796929 4293729569
8.124054 -5.2030892 -0.74933213 4293729569
7.953949 -5.1491017 -1.32109 4293729569
10.92392 -6.531786 -0.9656505 4293729569
9.8829346 -6.0488787 -1.5856909 4293729569
9.3583679 -5.65764 -0.89223796 4293729569
9.7694397 -5.9013777 -1.6028483 4293729569
9.0413208 -5.4151635 -0.8991763 4293729569
9.0339966 -5.4481635 -1.538345 4293729569
9.0933228 -5.3558168 -0.92973024 4293729569
9.0579224 -5.3739586 -1.5670011 4293729569
10.608337 -5.983995 -1.0716795 4293729569
9.1851196 -5.3462095 -1.6082547 4293729569
9.5342102 -5.3854046 -1.0155147 4293729569
10.006439 -5.6417837 -1.7428426 4293729569
10.027374 -5.519803 -1.079336 4293729569
10.012268 -5.5486779 -1.7675349 4293729569
9.4656677 -5.1726117 -1.0572394 4293729569
9.8695984 -5.3883696 -1.7688024 4293729569
9.5725403 -5.1628876 -1.7466829 4293729569
11.988831 -6.087512 -1.3137646 4293729569
4.7462463 -2.9615164 -1.0823569 4293729569
10.519745 -5.3500113 -1.2062496 4293729569
4.7802734 -2.9203091 -1.0970556 4293729569
10.46933 -5.2292142 -1.2201507 4293729569
4.7701416 -2.8603382 -1.1049292 4293729569
5.366272 -3.0314956 -0.77529991 4293729569
4.7850952 -2.8102384 -1.1147006 4293729569
5.3291016 -2.9576635 -0.78127337 4293729569
4.8541565 -2.7828512 -1.1322563 4293729569
5.3209534 -2.8946877 -0.78812647 4293729569
4.9192505 -2.7514882 -1.1478204 4293729569
5.3138123 -2.8337092 -0.79398048 4293729569
5.0414429 -2.7428241 -1.1711533 4293729569
5.3156738 -2.774683 -0.80079204 4293729569
5.089447 -2.7025561 -1.1827793 4293729569
5.3426208 -2.7245331 -0.80849856 4293729569
5.2346802 -2.6977696 -1.2090019 4293729569
5.3725586 -2.6763678 -0.81619537 4293729569
5.2987366 -2.6614213 -1.221555 4293729569
5.42453 -2.6350956 -0.82379657 4293729569
5.6194153 -2.7167039 -1.2710377 4293729569
5.4935303 -2.5997348 -0.83332616 4293729569
5.7054443 -2.6842413 -1.285486 4293729569
5.7168884 -2.6155782 -0.85619926 4293729569
6.0130615 -2.7275963 -1.3320001 4293729569
5.8509827 -2.599884 -0.87044567 4293729569
6.1281433 -2.700983 -1.3493128 4293729569
15.33905 -5.6356707 -1.7867708 4293729569
9.9501953 -3.8875098 -1.9188236 4288085770
15.067932 -5.4140825 -1.7585173 4293729569
9.9438171 -3.7905555 -1.9145584 4288085770
15.271851 -5.3460369 -1.7742316 4293729569
9.9675293 -3.702445 -1.9131612 4288085770
15.582916 -5.3084369 -1.7994734 4293729569
9.9841919 -3.6133714 -1.910798 4288085770
15.772705 -5.2304754 -1.8102301 4293729569
10.027954 -3.5321641 -1.9093159 4288085770
15.871338 -5.1219921 -1.8103725 4293729569
10.115723 -3.4617233 -1.9136337 4288085770
15.963928 -5.0105491 -1.807537 4293729569
10.144379 -3.3756018 -1.908215 4288085770
16.144653 -4.9246535 -1.8113147 4293729569
10.199127 -3.2953434 -1.9056762 4288085770
16.625916 -4.9162054 -1.8417449 4293729569
10.271912 -3.2199974 -1.903057 4288085770
17.25235 -4.9370146 -1.882498 4293729569
10.376709 -3.1514797 -1.9052893 4288085770
17.864777 -4.946908 -1.9182909 4288085770
10.466461 -3.0790515 -1.9025885 4288085770
10.573242 -3.0095367 -1.9008061 4288085770
10.7211 -2.9488063 -1.9038339 4288085770
10.860901 -2.8841219 -1.9048913 4288085770
11.02478 -2.8233199 -1.9058328 4288085770
11.153534 -2.7537036 -1.9019318 4288085770
11.33139 -2.6928372 -1.9017985 4288085770
11.520233 -2.6329117 -1.9026093 4288085770
11.701019 -2.5680404 -1.899446 4288085770
11.907837 -2.5060353 -1.8981538 4288085770
12.135712 -2.4469285 -1.8967592 4288085770
12.468628 -2.4012685 -1.9068495 4288085770
12.722473 -2.3400373 -1.9043092 4288085770
13.053375 -2.2874041 -1.9093871 4288085770
13.352203 -2.2249532 -1.9066031 4288085770
13.677032 -2.1633725 -1.9046832 4288085770
14.05191 -2.1065383 -1.905513 4288085770
14.36264 -2.0350528 -1.8956349 4288085770
14.847565 -1.9826617 -1.9018937 4288085770
15.274353 -1.9185853 -1.8984228 4288085770
15.819244 -1.8619089 -1.9023483 4288085770
16.348083 -1.7973266 -1.9013327 4288085770
16.95694 -1.735343 -1.9029003 4288085770
17.64679 -1.6739559 -1.9070392 4288085770
17.827972 1.3118591 -1.8519468 4288085770
16.736847 1.349412 -1.8464917 4288085770
15.75177 1.3834896 -1.8404964 4288085770
14.907715 1.4202852 -1.8387541 4288085770
14.111603 1.4502869 -1.8318045 4288085770
13.381561 1.4806337 -1.8264941 4288085770
12.797485 1.5157356 -1.828403 4288085770
12.205444 1.5457783 -1.8253731 4288085770
11.704376 1.5772877 -1.8258624 4288085770
11.214355 1.6068382 -1.8233013 4288085770
10.767334 1.6356058 -1.8215189 4288085770
10.38028 1.6676874 -1.8234099 4288085770
17.226257 2.52777 -1.8212616 4288085770
9.9822693 1.6936893 -1.8193822 4288085770
16.349274 2.5333843 -1.8158123 4288085770
9.6271973 1.7229156 -1.818117 4288085770
15.570343 2.5424948 -1.8128376 4288085770
9.308197 1.7533283 -1.8186587 4288085770
14.87738 2.5550375 -1.8104 4288085770
8.9931641 1.7787457 -1.8151995 4288085770
14.204437 2.5616608 -1.8038818 4288085770
8.7131348 1.8083496 -1.8155408 4288085770
13.652435 2.5809145 -1.8046814 4288085770
8.4421082 1.8369923 -1.8138386 4288085770
13.132477 2.5993242 -1.8043176 4288085770
8.2110596 1.8688536 -1.8169146 4288085770
12.650482 2.6179142 -1.8017542 4288085770
7.9660645 1.8946199 -1.8140877 4288085770
12.209503 2.6377144 -1.8009721 4288085770
7.7420349 1.9224949 -1.8121427 4288085770
11.790497 2.6566153 -1.7980785 4288085770
7.5549927 1.9555721 -1.8149836 4288085770
11.418488 2.6807613 -1.7979186 4288085770
7.3479614 1.9815226 -1.8109572 4288085770
11.082489 2.7050905 -1.79857 4288085770
7.164978 2.0106087 -1.8107928 4288085770
10.750458 2.7294302 -1.7972001 4288085770
6.9929504 2.0407448 -1.8095665 4288085770
10.436462 2.7518511 -1.7937437 4288085770
6.8188782 2.0678625 -1.8063627 4288085770
10.188446 2.7866316 -1.7978935 4288085770
6.6868591 2.1032152 -1.8099065 4288085770
9.9104309 2.8092308 -1.7942486 4288085770
6.5458374 2.1335144 -1.8105173 4288085770
9.668396 2.840023 -1.7943826 4288085770
6.3997803 2.1627703 -1.8071584 4288085770
9.4473877 2.8709211 -1.7944065 4288085770
6.2807617 2.1961813 -1.8086416 4288085770
9.2433167 2.9039021 -1.794333 4288085770
6.1507568 2.2255211 -1.806198 4288085770
9.0262756 2.9308023 -1.7903516 4288085770
6.0317078 2.2559195 -1.8046927 4288085770
8.8442383 2.9648972 -1.7911586 4288085770
5.9106445 2.2842989 -1.8012061 4288085770
8.6592102 2.9959602 -1.7879932 4288085770
5.8125916 2.3188086 -1.8015743 4288085770
8.512146 3.0352364 -1.7905962 4288085770
5.7185364 2.3533354 -1.8009219 4288085770
8.3511047 3.0694237 -1.7882924 4288085770
5.6325378 2.3889093 -1.8022227 4288085770
8.2170105 3.1097546 -1.788823 4288085770
5.543457 2.422451 -1.7995473 4288085770
8.0869141 3.1481028 -1.7883403 4288085770
5.4794006 2.4631424 -1.8027128 4288085770
7.9678345 3.1895103 -1.788788 4288085770
5.405365 2.4997721 -1.8029463 4288085770
7.8587646 3.2319651 -1.789179 4288085770
5.3222961 2.53234 -1.7992432 4288085770
7.765686 3.2775059 -1.7904736 4288085770
5.288208 2.5791922 -1.8052262 4288085770
7.6565552 3.3189487 -1.787868 4288085770
5.2031555 2.6107407 -1.7995372 4288085770
7.5644836 3.3644848 -1.7871569 4288085770
5.1330872 2.6463737 -1.7957529 4288085770
7.478363 3.411046 -1.7854102 4288085770
5.0939941 2.6921883 -1.7987657 4288085770
7.4122314 3.4627247 -1.7875382 4288085770
5.0189514 2.7237835 -1.7920237 4288085770
7.3520813 3.516427 -1.7886263 4288085770
4.9668579 2.7625074 -1.7891325 4288085770
7.302948 3.573184 -1.7896444 4288085770
4.9007568 2.7961483 -1.782335 4288085770
7.2378235 3.6238499 -1.7877705 4288085770
4.8656921 2.84097 -1.7823298 4288085770
7.1886597 3.6805992 -1.7867879 4288085770
4.8025818 2.87362 -1.7745203 4288085770
7.1724548 3.7475328 -1.7905918 4288085770
4.7844543 2.9245348 -1.7764015 4288085770
7.14328 3.8103905 -1.7914796 4288085770
4.740387 2.9642878 -1.7704633 4288085770
7.0931091 3.8651199 -1.7875096 4288085770
4.7262573 3.0152187 -1.7713231 4288085770
7.079895 3.9330559 -1.7882926 4288085770
4.6991272 3.0610666 -1.7682709 4288085770
7.0716858 4.0030222 -1.7900409 4288085770
4.6910095 3.114028 -1.7690905 4288085770
7.0534668 4.0689201 -1.7878578 4288085770
4.6978455 3.1730747 -1.7728071 4288085770
7.037262 4.1358261 -1.7846594 4288085770
4.699707 3.2310848 -1.7735533 4288085770
7.0400085 4.2108364 -1.7843288 4288085770
4.6905823 3.2840281 -1.7713773 4288085770
7.0437622 4.2858486 -1.7829926 4288085770
4.7173767 3.3521824 -1.7769512 4288085770
7.0614624 4.3679342 -1.782554 4288085770
4.7551575 3.4273968 -1.7834386 4288085770
7.0751953 4.4479914 -1.7801442 4288085770
4.7779541 3.4945183 -1.7860368 4288085770
7.1048584 4.5361376 -1.7796174 4288085770
4.8007507 3.563633 -1.7866265 4288085770
7.1495361 4.6313648 -1.780983 4288085770
4.8005676 3.6206074 -1.7813857 4288085770
7.2061462 4.7326536 -1.7822607 4288085770
4.8183594 3.6866894 -1.7800136 4288085770
7.2477722 4.8268499 -1.7796456 4288085770
4.8301086 3.7497234 -1.7746848 4288085770
7.307373 4.9321442 -1.7788901 4288085770
4.8538818 3.8188305 -1.7722682 4288085770
7.4009399 5.0546293 -1.7828864 4288085770
4.8956299 3.8980389 -1.7727157 4288085770
7.4725037 5.1659794 -1.7810425 4288085770
4.9403687 3.9782572 -1.7721431 4288085770
7.5630188 5.2884264 -1.7800533 4288085770
4.9860535 4.0584764 -1.7705652 4288085770
7.6734924 5.4219856 -1.7819136 4288085770
5.03479 4.1417131 -1.7689586 4288085770
7.7859192 5.5565491 -1.7817591 4288085770
5.1214294 4.2451658 -1.7740701 4288085770
7.9043884 5.6971397 -1.7815472 4288085770
5.1930847 4.341527 -1.7752888 4288085770
8.0517273 5.8538857 -1.7831174 4288085770
5.278717 4.4459629 -1.7774007 4288085770
8.1920776 6.0085831 -1.7817314 4288085770
5.3473206 4.5412903 -1.7736385 4288085770
8.3883057 6.1955862 -1.7869197 4288085770
5.4578857 4.660862 -1.7785566 4288085770
8.5635376 6.373457 -1.7852544 4288085770
5.5455017 4.7682905 -1.7766441 4288085770
8.7637329 6.5664711 -1.7873951 4288085770
5.6620178 4.8928871 -1.7795092 4288085770
8.980835 6.7705593 -1.7874008 4288085770
5.7844849 5.0225058 -1.7813218 4288085770
9.2328796 6.9978333 -1.790127 4288085770
5.9059753 5.1511078 -1.7801429 4288085770
9.4598999 7.2129536 -1.786033 4288085770
6.0473938 5.2938213 -1.7818017 4288085770
9.7417908 7.462368 -1.7855099 4288085770
6.2017822 5.4455967 -1.7823536 4288085770
10.100464 7.7621956 -1.7923747 4288085770
6.3551331 5.5953588 -1.7809186 4288085770
10.466064 8.0680466 -1.7961768 4288085770
6.5484314 5.7723455 -1.7851615 4288085770
6.7416687 5.9493237 -1.7874037 4288085770
6.9329224 6.1262684 -1.7846556 4288085770
7.171051 6.3334789 -1.7885363 4288085770
7.407135 6.5406609 -1.7884264 4288085770
7.6791077 6.7720375 -1.7910274 4288085770
7.966095 7.013483 -1.7925074 4288085770
8.2449951 7.2508678 -1.7890451 4288085770
8.5867615 7.5295906 -1.7910813 4288085770
8.9613953 7.8324833 -1.7938435 4288085770
9.3739014 8.160574 -1.7983015 4288085770
16.990082 -0.73796463 -1.8731059 4288085770
15.82724 -0.76187515 -1.8681457 4288085770
14.823425 -0.78196526 -1.8663582 4288085770
13.923615 -0.79952335 -1.866029 4288085770
13.089783 -0.81375504 -1.8643478 4288085770
12.296906 -0.82179642 -1.8584278 4288085770
11.639069 -0.83211994 -1.8608325 4288085770
11.009247 -0.83930874 -1.8610792 4288085770
17.654083 -1.3415651 -1.8806899 4288085770
10.444427 -0.84615898 -1.8639936 4288085770
16.379028 -1.3150263 -1.8800601 4288085770
9.8894958 -0.8489809 -1.8618379 4288085770
15.217987 -1.2869263 -1.8758425 4288085770
9.4016418 -0.85144615 -1.8633395 4288085770
14.215973 -1.2630081 -1.8748354 4288085770
8.9427795 -0.85276699 -1.8646878 4288085770
13.314941 -1.2395744 -1.8743163 4288085770
8.4898376 -0.85008526 -1.8599867 4288085770
12.504913 -1.2166834 -1.8733364 4288085770
8.1140137 -0.85196877 -1.8649153 4288085770
11.797974 -1.1972551 -1.8758489 4288085770
7.7401123 -0.84986687 -1.8648142 4288085770
11.116974 -1.1757145 -1.8742186 4288085770
7.3852234 -0.84666443 -1.8656116 4288085770
10.486908 -1.1529207 -1.8713225 4288085770
7.0532837 -0.84235001 -1.8652864 4288085770
9.9079285 -1.1318684 -1.8691747 4288085770
6.7453918 -0.83890629 -1.866843 4288085770
9.3949585 -1.1134615 -1.8707038 4288085770
6.4354858 -0.83249187 -1.8643954 4288085770
8.9230042 -1.0948448 -1.8730233 4288085770
6.1756287 -0.82878685 -1.8697065 4288085770
8.460968 -1.0742025 -1.8702817 4288085770
5.9117432 -0.82312679 -1.8700283 4288085770
8.0450134 -1.0553083 -1.8713142 4288085770
5.6497803 -0.81546497 -1.8683298 4288085770
7.6500244 -1.0363216 -1.8692386 4288085770
5.4028625 -0.80672836 -1.8665502 4288085770
7.2900696 -1.019146 -1.8699942 4288085770
5.1869507 -0.80081177 -1.8696266 4288085770
6.9561157 -1.0008383 -1.8706121 4288085770
4.9860535 -0.79481506 -1.8736261 4288085770
6.6391602 -0.98344612 -1.8711475 4288085770
4.7601013 -0.78298664 -1.8687245 4288085770
6.3331299 -0.96500778 -1.869622 4288085770
4.5932312 -0.77880478 -1.8755596 4288085770
6.0601807 -0.9483881 -1.8709371 4288085770
4.3732605 -0.76496601 -1.8666174 4288085770
5.7922363 -0.93175411 -1.8702261 4288085770
4.1943359 -0.75587749 -1.8664898 4288085770
5.5462646 -0.91499996 -1.8714032 4288085770
4.0213928 -0.74575901 -1.8663265 4288085770
5.3043213 -0.89723396 -1.8705546 4288085770
3.8554688 -0.73561001 -1.8651272 4288085770
5.0813599 -0.88036728 -1.8706136 4288085770
3.70755 -0.72635651 -1.866841 4288085770
4.8743896 -0.86541176 -1.8726002 4288085770
3.5405884 -0.71423149 -1.861637 4288085770
4.6604004 -0.84651375 -1.8696035 4288085770
3.3826294 -0.70105743 -1.8573822 4288085770
4.4624329 -0.82953167 -1.867534 4288085770
3.2496948 -0.69173241 -1.8580189 4288085770
4.2694397 -0.81152916 -1.8644344 4288085770
3.1137695 -0.67943192 -1.8566564 4288085770
4.1034851 -0.79736233 -1.8672159 4288085770
3.9375 -0.78021336 -1.8659831 4288085770
3.7695618 -0.76308537 -1.8627596 4288085770
3.6115723 -0.74590015 -1.8604853 4288085770
3.4465637 -0.72677708 -1.853237 4288085770
3.3066101 -0.71049118 -1.8528755 4288085770
3.1716614 -0.69518757 -1.851493 4288085770
3.0567017 -0.68075848 -1.8550131 4288085770
3.1025391 1.2398233 -1.8120568 4288085770
3.2485962 1.2615948 -1.8172264 4288085770
3.3855896 1.2802963 -1.8174566 4288085770
3.5296326 1.3000336 -1.817647 4288085770
3.6766663 1.3187857 -1.8178275 4288085770
3.824707 1.336545 -1.8160086 4288085770
3.994751 1.3574266 -1.8180656 4288085770
3.0525513 1.2055902 -1.8195002 4288085770
4.1667786 1.3783121 -1.8191134 4288085770
3.1726379 1.2171898 -1.8168516 4288085770
4.3338013 1.3961506 -1.8162012 4288085770
3.3237 1.2339926 -1.8230233 4288085770
4.5148315 1.4150734 -1.8152146 4288085770
3.4657593 1.2467203 -1.8232604 4288085770
4.7178345 1.4371223 -1.8171037 4288085770
3.6008301 1.2573957 -1.8205431 4288085770
4.9338684 1.4592438 -1.8199288 4288085770
3.750885 1.2701645 -1.8207408 4288085770
5.1459045 1.4803286 -1.8197788 4288085770
3.9039307 1.2819433 -1.8199294 4288085770
5.3979492 1.5056448 -1.8244102 4288085770
4.0740356 1.2948198 -1.8210284 4288085770
5.6309509 1.5258331 -1.8231621 4288085770
4.2670898 1.3108387 -1.8269979 4288085770
5.8939819 1.5491896 -1.8247496 4288085770
4.4411621 1.3217192 -1.8250879 4288085770
6.1650085 1.5715828 -1.8253031 4288085770
4.6172485 1.3316069 -1.8221735 4288085770
6.428009 1.5909042 -1.8199123 4288085770
4.8052979 1.3415604 -1.8201996 4288085770
6.7290039 1.6144505 -1.820313 4288085770
5.0594177 1.3599224 -1.8318576 4288085770
7.0510254 1.6380997 -1.8196096 4288085770
5.2614441 1.3689365 -1.8278203 4288085770
7.39505 1.6618681 -1.8197979 4288085770
5.4865417 1.3790894 -1.8276641 4288085770
7.7560425 1.686717 -1.8188975 4288085770
5.7226562 1.3882942 -1.8264588 4288085770
8.1550598 1.7127752 -1.820804 4288085770
5.9917297 1.4016981 -1.8310699 4288085770
8.5570679 1.7368307 -1.8187068 4288085770
6.2238159 1.4068575 -1.8249059 4288085770
9.0010681 1.7641087 -1.8183864 4288085770
6.4898682 1.4142103 -1.8225639 4288085770
9.4810791 1.7905741 -1.8178936 4288085770
6.7909546 1.4237585 -1.8230382 4288085770
10.031067 1.8234215 -1.8220242 4288085770
7.0990601 1.4313374 -1.822489 4288085770
10.587067 1.8522816 -1.8221469 4288085770
7.4321289 1.4400549 -1.8238113 4288085770
11.205048 1.8844671 -1.8239479 4288085770
7.7712708 1.4457874 -1.8221198 4288085770
11.877014 1.9169302 -1.8254828 4288085770
8.1383362 1.4526749 -1.8222857 4288085770
12.597992 1.950635 -1.8247712 4288085770
8.5474548 1.4597864 -1.8242437 4288085770
13.435944 1.9899693 -1.8294559 4288085770
8.9545593 1.4628687 -1.8222333 4288085770
14.340912 2.0296373 -1.8318111 4288085770
9.4296875 1.4703341 -1.8268669 4288085770
15.329865 2.0697365 -1.8337523 4288085770
9.9188232 1.4738522 -1.8274528 4288085770
16.415833 2.110321 -1.8332157 4288085770
10.43396 1.4744978 -1.8269264 4288085770
17.69278 2.1609211 -1.8386903 4288085770
11.039124 1.4796476 -1.8339355 4288085770
11.637238 1.4787245 -1.8340114 4288085770
12.273407 1.4749918 -1.8329164 4288085770
12.976593 1.4706125 -1.8334966 4288085770
13.750763 1.4646072 -1.8357381 4288085770
14.644989 1.4592447 -1.8423882 4288085770
15.574219 1.4480343 -1.8438985 4288085770
16.620453 1.435441 -1.8478435 4288085770
17.799683 1.4195509 -1.8551551 4288085770
9.396759 -7.8189936 -0.97860855 4293729569
4.9136047 -4.775856 -0.67527801 4293729569
4.8828735 -4.770802 -0.71542114 4293729569
4.8501892 -4.7617559 -0.75555134 4293729569
4.7981262 -4.7543545 -0.88083071 4293729569
9.2785034 -7.8148518 -0.75837791 4293729569
9.2749939 -7.8144937 -0.82743013 4293729569
4.8534546 -4.8043284 -1.017915 4293729569
4.8527527 -4.8021054 -1.0599297 4293729569
4.9028931 -4.7900023 -0.67062354 4293729569
4.7486267 -4.7274938 -1.0880363 4293729569
4.8851013 -4.7698798 -0.71062046 4293729569
4.7428894 -4.7183018 -1.1290358 4293729569
4.7964783 -4.7487473 -1.179973 4293729569
4.8439331 -4.7722402 -1.2278998 4293729569
4.7859802 -4.7213626 -1.2609166 4293729569
4.8635559 -4.761672 -1.3137946 4293729569
4.9290771 -4.7910438 -1.3666694 4293729569
4.9493713 -4.7876987 -1.4105778 4293729569
4.9912109 -4.732748 -1.0030714 4293729569
4.9747314 -4.7853217 -1.4554676 4293729569
4.9632874 -4.6897035 -1.0379879 4293729569
4.8925781 -4.707623 -1.4784487 4293729569
4.7867432 -4.5475507 -1.0510589 4293729569
4.787262 -4.6120782 -1.4954401 4293729569
4.8562012 -4.5669456 -1.0958589 4293729569
4.8798828 -4.6502967 -1.5502355 4293729569
4.9436951 -4.5962257 -1.1446286 4293729569
4.715332 -4.5131416 -1.5522754 4293729569
6.9451294 -5.872962 -1.4852599 4293729569
4.6953735 -4.4710817 -1.5821576 4293729569
6.9573059 -5.8396521 -1.5300441 4293729569
5.0219727 -4.6558046 -1.6876593 4293729569
6.9664612 -5.8023624 -1.5738204 4293729569
5.2250061 -4.7553105 -1.7672738 4293729569
6.9555054 -5.7492051 -1.6126029 4293729569
5.1125793 -4.6468515 -1.7752243 4293729569
7.4656677 -6.0268521 -1.7397597 4293729569
4.9740601 -4.5215726 -1.7752042 4293729569
7.2859802 -5.8617353 -1.7487181 4293729569
4.8626404 -4.4121304 -1.7791429 4293729569
7.0892334 -5.6867394 -1.7517011 4293729569
4.7743225 -4.3165464 -1.7870476 4293729569
6.9065247 -5.5206776 -1.753665 4293729569
4.7733459 -4.2774038 -1.8138541 4288085770
6.7277832 -5.3575997 -1.754626 4293729569
4.8457336 -4.2797804 -1.8585453 4288085770
6.5621033 -5.202455 -1.7555687 4293729569
4.9190979 -4.2821522 -1.9032315 4288085770
6.4245605 -5.0661483 -1.7594821 4293729569
4.9412231 -4.2508674 -1.9339725 4282675967
6.2970276 -4.9347887 -1.7633749 4293729569
4.8528137 -4.1513224 -1.9348539 4282675967
6.1815186 -4.8113737 -1.7662539 4293729569
4.7654114 -4.0517845 -1.9337298 4282675967
6.0740662 -4.6929116 -1.7701217 4293729569
4.6619568 -3.9443626 -1.9266367 4282675967
5.9786377 -4.5813866 -1.7739704 4293729569
4.5614624 -3.8379312 -1.9185342 4282675967
5.8931885 -4.4768152 -1.7768101 4293729569
4.4801025 -3.7423792 -1.9144017 4282675967
5.8238831 -4.3811388 -1.7836227 4293729569
4.4268188 -3.6646466 -1.9162354 4282675967
5.8800354 -4.3546772 -1.8142295 4288085770
4.365509 -3.5819745 -1.9150789 4282675967
5.9602356 -4.3400617 -1.8497891 4288085770
4.2971497 -3.4953599 -1.909933 4288085770
6.0725708 -4.3412528 -1.8902855 4288085770
4.2529297 -3.4225926 -1.9097502 4288085770
6.152771 -4.3216534 -1.9228172 4282675967
4.2006531 -3.3448687 -1.9065754 4288085770
6.1114807 -4.2378216 -1.9285601 4282675967
4.1694336 -3.2780223 -1.9083633 4288085770
6.0420837 -4.1401954 -1.9263592 4282675967
4.1392212 -3.2131839 -1.9081571 4288085770
5.9877319 -4.0484858 -1.9251195 4282675967
4.1100159 -3.1483331 -1.9089458 4288085770
5.9072876 -3.9449453 -1.9179362 4282675967
4.0808105 -3.083499 -1.9067341 4288085770
5.8699951 -3.8641419 -1.9176761 4282675967
4.0585938 -3.0216174 -1.9065057 4288085770
5.830719 -3.7823544 -1.9164196 4282675967
4.0344238 -2.9597583 -1.9042864 4288085770
5.7924194 -3.7015667 -1.9141635 4282675967
4.0202637 -2.9028349 -1.904047 4288085770
5.7721863 -3.6306696 -1.9148773 4282675967
4.012085 -2.848875 -1.9047956 4288085770
5.737854 -3.5518737 -1.9106122 4288085770
4.0039368 -2.7949219 -1.9045439 4288085770
5.7276611 -3.4849186 -1.9123001 4288085770
3.9987793 -2.7419524 -1.9042834 4288085770
5.7134094 -3.4160066 -1.9099956 4288085770
3.9866333 -2.6860356 -1.9010388 4288085770
5.6891479 -3.343164 -1.9047154 4288085770
3.9994812 -2.6409554 -1.9037371 4288085770
5.6999512 -3.2850933 -1.9073529 4288085770
4.0144348 -2.5958662 -1.9064251 4282675967
5.672699 -3.2102838 -1.899075 4288085770
4.0032349 -2.5399609 -1.9001752 4288085770
5.7055969 -3.1630836 -1.9046692 4288085770
4.0201111 -2.4968715 -1.900865 4288085770
5.0803528 -2.8461695 -1.7578386 4293729569
4.0340271 -2.4518032 -1.9005574 4288085770
5.1553955 -2.8187094 -1.7703441 4293729569
4.0469055 -2.4057455 -1.8992487 4288085770
5.3056946 -2.819768 -1.7986565 4293729569
4.0808716 -2.3685513 -1.9028909 4288085770
5.7668762 -2.9378114 -1.8971678 4288085770
4.0957642 -2.3224945 -1.8995723 4288085770
5.7726746 -2.8778181 -1.8908155 4288085770
4.1106262 -2.2784376 -1.8962649 4288085770
5.8547058 -2.8453393 -1.9002603 4288085770
4.1596069 -2.2451534 -1.9018577 4288085770
5.9006042 -2.8001041 -1.8998024 4288085770
4.1765137 -2.201097 -1.8965404 4288085770
5.9344482 -2.7499433 -1.897373 4288085770
4.2134094 -2.16291 -1.8961618 4288085770
5.9953613 -2.7086253 -1.8978664 4288085770
4.2664185 -2.1306167 -1.8997409 4288085770
6.0432434 -2.662385 -1.8963928 4288085770
4.3073425 -2.0934072 -1.8993486 4288085770
6.1051636 -2.6210666 -1.8958811 4288085770
4.3382263 -2.0532737 -1.894987 4288085770
6.1800842 -2.5826697 -1.8973244 4288085770
4.3911743 -2.0199904 -1.8965601 4288085770
6.243988 -2.5403528 -1.8947972 4288085770
4.4401245 -1.983747 -1.8951352 4288085770
6.3218994 -2.4999509 -1.8942147 4288085770
4.5010986 -1.9514213 -1.8966758 4288085770
6.4058533 -2.4635119 -1.8946265 4288085770
4.5630493 -1.9191041 -1.896212 4288085770
6.4927673 -2.4240699 -1.8930068 4288085770
4.6410522 -1.8906794 -1.8996943 4288085770
6.5827026 -2.3866115 -1.8913844 4288085770
4.7090149 -1.8573303 -1.8991959 4288085770
6.679657 -2.3501172 -1.8897343 4288085770
4.7929993 -1.829875 -1.9026556 4282675967
6.7895813 -2.3165436 -1.8900397 4288085770
4.8749695 -1.8004408 -1.9041129 4282675967
6.9225769 -2.2868319 -1.8932574 4288085770
4.9429321 -1.7661085 -1.9006088 4282675967
7.0335083 -2.2512703 -1.8905468 4288085770
5.0128479 -1.7327662 -1.8971007 4288085770
7.1915283 -2.2264185 -1.8956758 4288085770
5.099823 -1.7023191 -1.8965291 4288085770
7.3465271 -2.1995926 -1.8988078 4288085770
5.1948242 -1.6738291 -1.895931 4288085770
7.4974976 -2.1688108 -1.8979359 4288085770
5.2837524 -1.6423798 -1.893344 4288085770
7.6554871 -2.1389923 -1.8970369 4288085770
5.357666 -1.606041 -1.8857999 4288085770
7.8094177 -2.105207 -1.8941338 4288085770
5.5007324 -1.5852499 -1.8940197 4288085770
7.9613953 -2.0714436 -1.8892404 4288085770
5.5936584 -1.5517988 -1.8884026 4288085770
8.1603699 -2.0453944 -1.8911703 4288085770
5.7416687 -1.5289984 -1.8935878 4288085770
8.3633423 -2.0173416 -1.8900698 4288085770
5.8456421 -1.4954901 -1.8879185 4288085770
8.5983887 -1.9940953 -1.8938468 4288085770
6.0006409 -1.4716587 -1.8920647 4288085770
8.8283691 -1.9678955 -1.8936305 4288085770
6.1165771 -1.4400949 -1.8853505 4288085770
9.0573425 -1.9397192 -1.8904077 4288085770
6.2655334 -1.412323 -1.8845024 4288085770
9.3183594 -1.9143596 -1.8900508 4288085770
6.4295654 -1.3864613 -1.885595 4288085770
9.6073608 -1.890842 -1.8915732 4288085770
6.5925598 -1.3576241 -1.8836755 4288085770
9.8452454 -1.8566532 -1.8822744 4288085770
6.7745361 -1.3326693 -1.8846881 4288085770
10.211365 -1.8406997 -1.8894778 4288085770
6.9665527 -1.3066673 -1.8846487 4288085770
10.544373 -1.8159709 -1.8877875 4288085770
7.1525269 -1.2787104 -1.8826265 4288085770
10.933441 -1.7959275 -1.8898613 4288085770
7.3735352 -1.2525511 -1.8834503 4288085770
11.319397 -1.7729216 -1.887933 4288085770
7.5805054 -1.2234945 -1.8793234 4288085770
11.752411 -1.7516594 -1.8877944 4288085770
7.8375244 -1.1991396 -1.8819891 4288085770
12.195435 -1.7263622 -1.884586 4288085770
8.0814819 -1.169878 -1.8796878 4288085770
12.738495 -1.7114992 -1.8889692 4288085770
8.3554688 -1.143445 -1.8802621 4288085770
13.312561 -1.693491 -1.8901892 4288085770
8.641449 -1.1149597 -1.8787684 4288085770
13.9216 -1.6743021 -1.8912393 4288085770
8.9534607 -1.086338 -1.8771526 4288085770
14.626678 -1.6585941 -1.8948597 4288085770
9.2834167 -1.0586195 -1.8764577 4288085770
15.318695 -1.6360064 -1.8895024 4288085770
9.6594238 -1.0306482 -1.877546 4288085770
16.156799 -1.6196051 -1.8924971 4288085770
10.038391 -1.0006733 -1.876609 4288085770
17.133881 -1.6074638 -1.8978658 4288085770
10.46637 -0.9714365 -1.876447 4288085770
10.886322 -0.93827057 -1.8713002 4288085770
11.392303 -0.90762234 -1.8717655 4288085770
11.932281 -0.87579632 -1.8720649 4288085770
12.522247 -0.84270954 -1.8721236 4288085770
13.174194 -0.80830002 -1.8718852 4288085770
13.900177 -0.77349377 -1.8732984 4288085770
14.703156 -0.73628616 -1.8743383 4288085770
15.630127 -0.69641495 -1.8777828 4288085770
16.65506 -0.65603256 -1.8807672 4288085770
17.830017 -0.61185741 -1.8850286 4288085770
17.716614 2.6792631 -1.8335326 4288085770
17.221344 2.7496195 -1.831284 4288085770
16.789062 2.8253212 -1.830719 4288085770
16.410797 2.900321 -1.8319174 4288085770
16.053497 2.9764309 -1.833014 4288085770
15.611267 3.0330143 -1.8226157 4288085770
15.375977 3.1208143 -1.8300914 4288085770
14.964783 3.1725416 -1.8165852 4288085770
14.748444 3.2574215 -1.8209939 4288085770
14.535156 3.3373051 -1.8234214 4288085770
14.332855 3.4182405 -1.8247919 4288085770
14.114594 3.4940643 -1.8222667 4288085770
13.901306 3.5669079 -1.8187379 4288085770
13.755951 3.65415 -1.8208119 4288085770
13.627625 3.7424822 -1.8228025 4288085770
13.44632 3.8174801 -1.8171154 4288085770
13.324982 3.9038363 -1.8170867 4288085770
13.223633 3.9952898 -1.8159347 4288085770
13.111298 4.0816813 -1.8138644 4288085770
13.046875 4.1803436 -1.8144996 4288085770
12.967529 4.2739067 -1.812234 4288085770
12.894104 4.3674965 -1.8089415 4288085770
12.885651 4.4814749 -1.8122252 4288085770
12.873199 4.5934181 -1.8135395 4288085770
12.876709 4.7094402 -1.8137553 4288085770
12.88324 4.8254786 -1.8139573 4288085770
12.903717 4.9475899 -1.8140562 4288085770
12.924164 5.0706873 -1.812148 4288085770
12.969635 5.2029314 -1.812068 4288085770
12.991058 5.3270197 -1.8081473 4288085770
13.102386 5.4826374 -1.811619 4288085770
13.220673 5.6442862 -1.8140187 4288085770
13.303009 5.7937059 -1.8106583 4288085770
13.479187 5.9796782 -1.8156387 4288085770
13.613403 6.1503935 -1.8149054 4288085770
13.771545 6.333231 -1.8139849 4288085770
13.961639 6.5312443 -1.8138213 4288085770
14.166626 6.7393379 -1.8135235 4288085770
14.388611 6.9585171 -1.8120759 4288085770
14.645477 7.194891 -1.8123587 4288085770
14.966248 7.4606247 -1.8151618 4288085770
15.331879 7.7516079 -1.8195974 4288085770
15.715393 8.0566788 -1.8228588 4288085770
16.694489 -0.22781944 -1.8710077 4288085770
15.442657 -0.24353886 -1.8684913 4288085770
14.310822 -0.25562763 -1.8644344 4288085770
13.329956 -0.26589108 -1.8627168 4288085770
12.400055 -0.2719202 -1.8557496 4288085770
11.628204 -0.27805233 -1.856106 4288085770
10.934357 -0.28176212 -1.8571112 4288085770
17.400665 -0.47705841 -1.873871 4288085770
10.310486 -0.28508568 -1.8598133 4288085770
15.95166 -0.46187782 -1.8649724 4288085770
9.7245789 -0.28623676 -1.858337 4288085770
14.752686 -0.4502964 -1.865029 4288085770
9.1546631 -0.2853241 -1.8537767 4288085770
13.640686 -0.43530083 -1.8576876 4288085770
8.6818237 -0.28483772 -1.8568038 4288085770
12.705688 -0.42232323 -1.8556031 4288085770
8.2199097 -0.28332138 -1.8557764 4288085770
11.935822 -0.41239643 -1.8628341 4288085770
7.8030396 -0.28055286 -1.8565469 4288085770
11.171814 -0.40050793 -1.8600246 4288085770
7.4031067 -0.27671337 -1.8542368 4288085770
10.475861 -0.38726044 -1.8569134 4288085770
7.0522156 -0.27358532 -1.8557218 4288085770
9.868927 -0.37551594 -1.8564322 4288085770
6.7413635 -0.27021599 -1.861034 4288085770
9.2929382 -0.36162758 -1.8528025 4288085770
6.4334717 -0.26586056 -1.8623258 4288085770
8.8169861 -0.35115147 -1.8567696 4288085770
6.1425476 -0.26042175 -1.8625369 4288085770
8.3240356 -0.33783817 -1.8507879 4288085770
5.8666382 -0.25490189 -1.8626832 4288085770
7.9281006 -0.32791328 -1.8574164 4288085770
5.5997009 -0.2483511 -1.860783 4288085770
7.5331726 -0.31603527 -1.8570256 4288085770
5.3507996 -0.2416954 -1.8598049 4288085770
7.1612244 -0.30404186 -1.8555353 4288085770
5.1108704 -0.23399925 -1.8577807 4288085770
6.8382568 -0.29275227 -1.8588408 4288085770
4.9009705 -0.22711563 -1.8596337 4288085770
6.5133667 -0.28150177 -1.8581542 4288085770
4.7010498 -0.2201786 -1.8614436 4288085770
6.2073975 -0.26915646 -1.8563784 4288085770
4.4971619 -0.21228981 -1.8592637 4288085770
5.9414673 -0.25757027 -1.8584373 4288085770
4.3032227 -0.20434952 -1.85704 4288085770
5.6805115 -0.24597263 -1.8584743 4288085770
4.1272888 -0.19629955 -1.856739 4288085770
5.4155884 -0.23342323 -1.8545209 4288085770
3.9593506 -0.18720818 -1.8563957 4288085770
5.1876526 -0.22163582 -1.856415 4288085770
3.7864075 -0.17816162 -1.8530742 4288085770
4.9797058 -0.20974159 -1.858223 4288085770
3.635498 -0.16997814 -1.8526645 4288085770
4.76474 -0.19791317 -1.8560606 4288085770
3.4795532 -0.16084385 -1.8492692 4288085770
4.566803 -0.18498707 -1.8548177 4288085770
3.3656921 -0.15240574 -1.8566999 4288085770
4.3778381 -0.17301369 -1.8535429 4288085770
3.2136841 -0.14226341 -1.8512799 4288085770
4.1878967 -0.16105938 -1.8502724 4288085770
3.0847778 -0.13297176 -1.8497676 4288085770
4.0429688 -0.14980125 -1.8558152 4288085770
3.8800354 -0.13769722 -1.8534279 4288085770
3.7401123 -0.12642574 -1.8569486 4288085770
3.5731201 -0.11338711 -1.8485711 4288085770
3.4321899 -0.10115719 -1.8470885 4288085770
3.3022461 -0.088862419 -1.8465587 4288085770
3.1802979 -0.076519012 -1.846994 4288085770
3.0483398 -0.06426239 -1.8424723 4288085770
3.0521851 1.9267092 -1.798317 4288085770
3.1791687 1.9564018 -1.8005692 4288085770
3.3241272 1.992219 -1.8067009 4288085770
3.4651184 2.0239954 -1.8098794 4288085770
3.6051025 2.0557566 -1.8120621 4288085770
3.7340698 2.0804081 -1.8073434 4288085770
3.8780212 2.1101675 -1.8065245 4288085770
4.0259705 2.1389523 -1.8056964 4288085770
3.0924988 1.8699551 -1.8095856 4288085770
4.1959534 2.1728811 -1.8087387 4288085770
3.200531 1.8865023 -1.8060147 4288085770
4.3539429 2.2017021 -1.8058686 4288085770
3.338562 1.9112692 -1.8102579 4288085770
4.5149231 2.2295389 -1.8029935 4288085770
3.4935303 1.9391489 -1.8174078 4288085770
4.7398071 2.2758226 -1.8137158 4288085770
3.6055603 1.9526939 -1.8108428 4288085770
4.9357605 2.3098745 -1.8146495 4288085770
3.7476196 1.9734526 -1.8110996 4288085770
5.1157227 2.3377991 -1.8096952 4288085770
3.8926392 1.9932203 -1.8103515 4288085770
5.3336792 2.3749771 -1.8115145 4288085770
4.0466309 2.0150499 -1.8115509 4288085770
5.5326233 2.4040012 -1.8064736 4288085770
4.2006531 2.0348644 -1.8107653 4288085770
5.765564 2.4402533 -1.8072376 4288085770
4.3726807 2.0577984 -1.8128817 4288085770
5.9955444 2.473465 -1.805037 4288085770
4.5487061 2.0797539 -1.8149893 4288085770
6.2904053 2.5231066 -1.8134446 4288085770
4.7097473 2.0945826 -1.8112121 4288085770
6.5633545 2.5625725 -1.8140194 4288085770
4.9057312 2.1186523 -1.8142213 4288085770
6.7863159 2.585681 -1.8029238 4288085770
5.0887756 2.1366158 -1.8123298 4288085770
7.0802612 2.6262569 -1.8034036 4288085770
5.290802 2.1577015 -1.8133365 4288085770
7.3911438 2.6669254 -1.8038124 4288085770
5.5098267 2.1809006 -1.8172573 4288085770
7.7100525 2.7066202 -1.8021955 4288085770
5.6798706 2.1877356 -1.8075033 4288085770
8.0559692 2.7494745 -1.8024436 4288085770
5.9059143 2.2079496 -1.8084178 4288085770
8.4268799 2.7944698 -1.8035722 4288085770
6.1639099 2.2333641 -1.8131608 4288085770
8.7977905 2.8354425 -1.8017311 4288085770
6.3929749 2.2485723 -1.8111005 4288085770
9.2396545 2.8898468 -1.8064958 4288085770
6.6410217 2.2658978 -1.8109459 4288085770
9.67453 2.9371777 -1.806343 4288085770
6.9060669 2.2833138 -1.8107204 4288085770
10.136383 2.985652 -1.80607 4288085770
7.1800842 2.3007841 -1.8114578 4288085770
10.660248 3.0414858 -1.8094856 4288085770
7.4901123 2.3214636 -1.8140222 4288085770
11.187164 3.0933075 -1.8089191 4288085770
7.7672119 2.3319139 -1.8098 4288085770
11.783997 3.1545391 -1.812993 4288085770
8.1122437 2.3538008 -1.8152114 4288085770
12.424805 3.2180119 -1.8178686 4288085770
8.4283142 2.3654833 -1.8138193 4288085770
13.088593 3.2785797 -1.8186716 4288085770
8.7723694 2.3793201 -1.8132957 4288085770
13.853424 3.3517389 -1.8259628 4288085770
9.1424255 2.3933125 -1.8146639 4288085770
14.619202 3.4168501 -1.8263108 4288085770
9.4924927 2.3991528 -1.8101759 4288085770
15.519928 3.4967422 -1.8339905 4288085770
9.9245605 2.4175053 -1.815256 4288085770
16.43869 3.5706873 -1.8356409 4288085770
10.332642 2.4236774 -1.813527 4288085770
17.526398 3.664608 -1.8464439 4288085770
10.781769 2.4330921 -1.8146045 4288085770
11.229858 2.4374714 -1.8117244 4288085770
11.735962 2.4462051 -1.8145726 4288085770
12.259064 2.4500151 -1.8153881 4288085770
12.835205 2.4561224 -1.8179681 4288085770
13.431366 2.4573393 -1.820503 4288085770
14.037537 2.4525776 -1.8190422 4288085770
14.706696 2.4481821 -1.8213195 4288085770
15.445831 2.4471836 -1.8262833 4288085770
16.20105 2.4372501 -1.8282487 4288085770
17.017303 2.4246483 -1.8309838 4288085770
17.942505 2.4136677 -1.8382579 4288085770
17.555054 -5.5411038 -0.26440829 4293729569
17.417847 -5.6456604 -0.28979871 4293729569
16.031464 -5.6396012 -0.3604984 4293729569
16.091553 -5.7920332 -0.39445058 4293729569
13.245667 -5.4334936 -0.5084421 4293729569
13.450684 -5.9611645 -0.67576748 4293729569
14.035004 -6.3075128 -0.74507922 4293729569
11.333557 -5.3305507 -0.67459077 4293729569
11.309296 -5.4183803 -0.71538979 4293729569
10.708405 -5.3542042 -0.77038974 4293729569
10.589935 -5.3935609 -0.80819893 4293729569
10.987762 -5.6589065 -0.87764913 4293729569
11.841705 -6.1182289 -0.24070087 4293729569
11.787689 -6.1098604 -0.97789639 4293729569
11.676117 -6.1407552 -0.28957483 4293729569
11.604797 -6.2027597 -0.34036961 4293729569
11.483612 -6.1638479 -1.0646021 4293729569
11.564545 -6.2785826 -0.39314479 4293729569
11.17157 -6.1122866 -1.0964993 4293729569
11.496216 -6.3375492 -0.44690433 4293729569
9.4875793 -5.4039431 -1.015903 4293729569
11.525146 -6.4429703 -0.50362718 4293729569
10.716949 -6.0761719 -1.1711199 4293729569
9.1022644 -5.353179 -0.47608933 4293729569
9.0728455 -5.3596849 -1.0812918 4293729569
9.0628662 -5.4060354 -0.52367967 4293729569
9.0384827 -5.4165134 -1.1288933 4293729569
9.0806274 -5.4875636 -0.57426012 4293729569
9.308075 -5.6264758 -1.2074435 4293729569
7.8803101 -4.973846 -1.1152203 4293729569
7.7956848 -4.9950056 -1.1547486 4293729569
7.7993774 -5.0596223 -1.2032541 4293729569
8.0322571 -5.2151008 -0.72050196 4293729569
7.822113 -5.1340995 -1.2567592 4293729569
7.9847717 -5.2490005 -0.76797885 4293729569
7.0822754 -4.8003707 -1.2182001 4293729569
7.9252319 -5.2769637 -0.8154586 4293729569
6.9815369 -4.8016391 -1.2546384 4293729569
7.0092773 -4.8710961 -1.3070837 4293729569
6.9958496 -4.9187956 -1.3565279 4293729569
6.9077759 -4.8829136 -0.88459903 4293729569
6.9633789 -4.9526219 -1.4029419 4293729569
6.9064026 -4.9295421 -0.93498617 4293729569
6.9579773 -5.0002556 -1.4553534 4293729569
6.8939209 -4.9692459 -0.98336476 4293729569
7.0057373 -5.0775418 -1.5157794 4293729569
6.8764343 -5.0049682 -1.0327327 4293729569
6.8066101 -5.0124459 -1.5381025 4293729569
6.8589172 -5.0386829 -1.0830857 4293729569
6.6566467 -4.9720306 -1.5674169 4293729569
6.8424683 -5.0713921 -1.1334265 4293729569
6.5056152 -4.9276385 -1.5947039 4293729569
6.5057678 -4.9161186 -1.1446059 4293729569
6.4088135 -4.9128842 -1.6310014 4293729569
6.4410706 -4.9151402 -1.1878805 4293729569
6.8330688 -5.205596 -1.7635764 4293729569
6.4787598 -4.9735041 -1.2452011 4293729569
6.5324402 -5.0662289 -1.7617317 4293729569
6.5987244 -5.0793347 -1.3145574 4293729569
6.2810059 -4.9515357 -1.767879 4293729569
6.686615 -5.16536 -1.3808905 4293729569
6.0264587 -4.8328905 -1.7700069 4293729569
6.7795105 -5.2523341 -1.4502113 4293729569
5.7930298 -4.7221251 -1.7731099 4293729569
6.6364746 -5.1958518 -1.4833721 4293729569
5.5735779 -4.6172762 -1.7772014 4293729569
6.6208496 -5.2135391 -1.5355937 4293729569
5.3611755 -4.5133986 -1.7802712 4293729569
7.1585388 -5.5695162 -1.6842086 4293729569
5.1477356 -4.4055405 -1.7813132 4293729569
7.2363586 -5.6425476 -1.7564842 4293729569
4.9633789 -4.3134966 -1.7863599 4293729569
6.9265747 -5.4751911 -1.7594566 4293729569
4.878418 -4.2807488 -1.8134661 4288085770
6.6127625 -5.3008957 -1.7573905 4293729569
4.8386841 -4.274673 -1.8515967 4288085770
6.3491211 -5.154284 -1.7613354 4293729569
4.815979 -4.2774758 -1.8937275 4288085770
6.0985107 -5.01261 -1.7642652 4293729569
4.774231 -4.2664266 -1.9298276 4282675967
5.8649292 -4.8798385 -1.7681944 4293729569
4.6259155 -4.1851735 -1.9368104 4282675967
5.6393738 -4.7480392 -1.7700981 4293729569
4.4635315 -4.0930505 -1.9367646 4282675967
5.4237671 -4.6201859 -1.7719907 4293729569
4.2911377 -3.9920125 -1.9326895 4282675967
5.2373352 -4.5091529 -1.7768962 4293729569
4.1226501 -3.8909683 -1.9265974 4282675967
5.0438232 -4.3911896 -1.7777755 4293729569
3.9481812 -3.7839885 -1.9164827 4282675967
4.89151 -4.2969518 -1.7856729 4293729569
3.8148804 -3.7027087 -1.9164015 4282675967
4.863678 -4.2798195 -1.8226689 4288085770
3.6785278 -3.6164703 -1.9132936 4282675967
4.8629456 -4.2765036 -1.8646636 4288085770
3.5562439 -3.5381403 -1.91219 4282675967
4.8833313 -4.2860274 -1.9126734 4282675967
3.4429626 -3.4647546 -1.912088 4288085770
4.8002014 -4.2273231 -1.9325672 4282675967
3.3286438 -3.3873982 -1.9089588 4288085770
4.6427917 -4.1211896 -1.93039 4282675967
3.2023315 -3.3021445 -1.9008156 4288085770
4.4923401 -4.0170188 -1.9281992 4282675967
3.1130981 -3.2396054 -1.9036999 4288085770
4.3408813 -3.9118838 -1.922004 4282675967
3.0228577 -3.1740961 -1.9035647 4288085770
4.181366 -3.800817 -1.9127941 4282675967
4.0570068 -3.7095056 -1.9105966 4288085770
3.930603 -3.6162219 -1.9063911 4288085770
3.8312988 -3.5387454 -1.9081997 4288085770
3.7119141 -3.4484391 -1.901988 4288085770
3.6257019 -3.376893 -1.9037895 4288085770
3.5333862 -3.3004093 -1.9015759 4288085770
3.4491272 -3.228869 -1.9013684 4288085770
3.3819275 -3.1672196 -1.9031693 4288085770
3.3106995 -3.1016011 -1.9039547 4288085770
3.2464905 -3.0399456 -1.9047428 4288085770
3.1742859 -2.972363 -1.9015163 4288085770
3.1070251 -2.9077449 -1.8992923 4288085770
3.0558777 -2.8520203 -1.9000733 4288085770
3.0490417 -1.3944492 -1.8750224 4288085770
3.0900574 -1.3692513 -1.8726676 4288085770
3.1410522 -1.3469849 -1.8722962 4288085770
3.2010498 -1.3276548 -1.8739122 4288085770
3.256073 -1.3053665 -1.8735247 4288085770
3.3211365 -1.2860165 -1.8741204 4288085770
3.3981628 -1.2685699 -1.8786839 4288085770
3.4611816 -1.2462473 -1.8772641 4288085770
3.5261841 -1.225913 -1.8758522 4288085770
3.6062317 -1.2074747 -1.8773955 4288085770
3.6842346 -1.188056 -1.8779393 4288085770
3.7592773 -1.1676693 -1.8764871 4288085770
3.8553162 -1.1511364 -1.8789823 4288085770
3.925293 -1.127799 -1.8745266 4288085770
4.0263672 -1.111248 -1.8760017 4288085770
4.1293945 -1.0936871 -1.8774608 4288085770
3.0402222 -0.87364388 -1.8660493 4288085770
4.2243958 -1.0741997 -1.8749365 4288085770
3.1192322 -0.85622025 -1.8666037 4288085770
4.3424377 -1.0575495 -1.8773431 4288085770
3.1932678 -0.83784485 -1.8641707 4288085770
4.4394836 -1.0380602 -1.873811 4288085770
3.2963257 -0.82424355 -1.8706601 4288085770
4.5585022 -1.0204287 -1.8732063 4288085770
3.3723755 -0.80487442 -1.8662112 4288085770
4.6835327 -1.0037546 -1.8735855 4288085770
3.464386 -0.78838825 -1.8657217 4288085770
4.818573 -0.98703098 -1.8739246 4288085770
3.5634155 -0.77185631 -1.8662041 4288085770
4.9516296 -0.9693222 -1.8732637 4288085770
3.6705017 -0.75626373 -1.8686621 4288085770
5.0956421 -0.95355701 -1.872575 4288085770
3.7885437 -0.74160576 -1.8720843 4288085770
5.2837524 -0.94147587 -1.8817412 4288085770
3.8915405 -0.72407627 -1.8695432 4288085770
5.4328003 -0.92370701 -1.8780169 4288085770
4.0005798 -0.7065134 -1.8669778 4288085770
5.599823 -0.90582561 -1.8762202 4288085770
4.133667 -0.69177437 -1.8703398 4288085770
5.7628174 -0.88798904 -1.8714403 4288085770
4.2576904 -0.67512512 -1.8687227 4288085770
5.9588623 -0.87292767 -1.8725514 4288085770
4.38974 -0.65842342 -1.8680731 4288085770
6.1499023 -0.85592556 -1.8696674 4288085770
4.5367737 -0.64262486 -1.8693718 4288085770
6.3649292 -0.83977127 -1.8696949 4288085770
4.6898499 -0.62680244 -1.8696463 4288085770
6.6030273 -0.82548523 -1.8706462 4288085770
4.8278503 -0.6091013 -1.8649654 4288085770
6.8270569 -0.80830574 -1.8676304 4288085770
5.0089417 -0.59409618 -1.869136 4288085770
7.0921021 -0.79388142 -1.8674742 4288085770
5.1879578 -0.57913399 -1.8693148 4288085770
7.3591309 -0.77846432 -1.8653028 4288085770
5.4030457 -0.56492424 -1.8763573 4288085770
7.6661987 -0.76379871 -1.866979 4288085770
5.5890808 -0.54794788 -1.873493 4288085770
7.9812622 -0.74911499 -1.8656236 4288085770
5.7810974 -0.52994823 -1.8695965 4288085770
8.3112793 -0.73235893 -1.8631927 4288085770
5.9931335 -0.51382542 -1.8676363 4288085770
8.6793518 -0.71838284 -1.8626339 4288085770
6.2412109 -0.49846935 -1.8705399 4288085770
9.0704041 -0.70229149 -1.8609678 4288085770
6.4622192 -0.47933006 -1.8645204 4288085770
9.5144653 -0.68988228 -1.8631215 4288085770
6.7332764 -0.46385765 -1.8663325 4288085770
9.97052 -0.67444134 -1.8612043 4288085770
7.0013123 -0.44644165 -1.8631412 4288085770
10.483612 -0.65967846 -1.8610673 4288085770
7.3013306 -0.42883873 -1.8618224 4288085770
11.068665 -0.64750576 -1.8636669 4288085770
7.6203613 -0.41213322 -1.8604356 4288085770
11.66568 -0.63131618 -1.8601876 4288085770
7.9694214 -0.39525032 -1.8609293 4288085770
12.326752 -0.61577606 -1.857461 4288085770
8.3144226 -0.37544632 -1.8544157 4288085770
13.127869 -0.60341835 -1.8622075 4288085770
8.7614746 -0.35998249 -1.8615342 4288085770
14.010956 -0.59162235 -1.866635 4288085770
9.1705322 -0.33982468 -1.8557655 4288085770
14.975006 -0.57642174 -1.866716 4288085770
9.699585 -0.32291889 -1.8625493 4288085770
16.081116 -0.56344509 -1.8682551 4288085770
10.205597 -0.30321884 -1.8594023 4288085770
17.359192 -0.54952812 -1.8711085 4288085770
10.769623 -0.28220558 -1.8560163 4288085770
11.441681 -0.2625494 -1.8602151 4288085770
12.17868 -0.24156094 -1.8621475 4288085770
12.998749 -0.22010994 -1.8657495 4288085770
13.894775 -0.19627476 -1.8660331 4288085770
14.881805 -0.17096424 -1.8649507 4288085770
16.140869 -0.14508152 -1.8757856 4288085770
17.480835 -0.1158371 -1.8772753 4288085770
17.986572 0.17210674 -1.8733269 4288085770
16.511719 0.1660347 -1.8727927 4288085770
15.162781 0.1625824 -1.8647718 4288085770
14.008911 0.16122627 -1.8600163 4288085770
13.026001 0.16183567 -1.8586164 4288085770
12.161072 0.16310501 -1.8587776 4288085770
11.368164 0.16472721 -1.8546714 4288085770
10.661255 0.16783524 -1.852236 4288085770
16.721222 0.21600533 -1.8586386 4288085770
9.9903564 0.17211056 -1.8466572 4288085770
15.432281 0.22097111 -1.8603162 4288085770
9.4714355 0.17632294 -1.8525232 4288085770
14.253357 0.22645092 -1.852585 4288085770
8.9254761 0.18127823 -1.84648 4288085770
13.260406 0.23202419 -1.8531724 4288085770
8.4705811 0.18681812 -1.8500984 4288085770
12.351501 0.23902607 -1.8504382 4288085770
8.0367126 0.19344616 -1.8506293 4288085770
11.563538 0.24570274 -1.8492641 4288085770
7.6357727 0.19924355 -1.8500472 4288085770
10.824585 0.25360012 -1.8428986 4288085770
7.2598572 0.2061758 -1.8493626 4288085770
10.232697 0.26141548 -1.8489965 4288085770
6.9269714 0.21237087 -1.8515273 4288085770
9.6487122 0.27019119 -1.8460555 4288085770
6.5929871 0.22050381 -1.8476775 4288085770
9.1228027 0.27830029 -1.844908 4288085770
6.321106 0.2280674 -1.8536061 4288085770
8.6428833 0.28665924 -1.8435899 4288085770
6.0542297 0.23562908 -1.8565165 4288085770
8.223938 0.29638672 -1.8460358 4288085770
5.7922974 0.24419117 -1.8563986 4288085770
7.8140259 0.30513477 -1.8454574 4288085770
5.5393372 0.25278282 -1.8542475 4288085770
7.4480896 0.31413174 -1.8457156 4288085770
5.326416 0.26163864 -1.8569472 4288085770
7.1071472 0.32426453 -1.8458716 4288085770
5.0864868 0.26927376 -1.8517566 4288085770
6.7892151 0.33453083 -1.8469421 4288085770
4.8765869 0.27811623 -1.8514452 4288085770
6.5003052 0.34395504 -1.8479142 4288085770
4.6896362 0.28809357 -1.8520392 4288085770
6.2373657 0.35453796 -1.8507805 4288085770
4.4986877 0.29702377 -1.8496572 4288085770
5.9854431 0.36518192 -1.8536059 4288085770
4.3287659 0.30609322 -1.8501972 4288085770
5.7454834 0.37587166 -1.8543867 4288085770
4.164856 0.31519604 -1.8507146 4288085770
5.4875488 0.38439083 -1.8472526 4288085770
4.0259705 0.32547283 -1.8551301 4288085770
