# .PCD v0.7 - Point Cloud Data file format
VERSION 0.7
FIELDS x y z rgb
SIZE 4 4 4 4
TYPE F F F U
COUNT 1 1 1 1
WIDTH 1121
HEIGHT 1
VIEWPOINT 0 0 0 1 0 0 0
POINTS 1121
DATA ascii
8.3442822 -2.6288805 -1.788505 4288085770
5.1907654 -1.8883009 -1.808447 4288085770
8.5704098 -2.5950189 -1.7891824 4288085770
5.3048897 -1.8503413 -1.8054808 4288085770
8.8135471 -2.5621824 -1.7918024 4288085770
5.4840374 -1.8255262 -1.8142066 4288085770
9.068676 -2.5303349 -1.7923794 4288085770
5.603157 -1.7855515 -1.8092453 4288085770
9.3568115 -2.5025325 -1.795825 4288085770
5.7632885 -1.7526627 -1.8111011 4288085770
9.6619473 -2.4737301 -1.7982315 4288085770
5.9454269 -1.7238035 -1.814857 4288085770
9.9280663 -2.4348426 -1.7938439 4288085770
6.1085491 -1.6878796 -1.8127328 4288085770
10.224182 -2.3979716 -1.7893522 4288085770
6.3016834 -1.6560082 -1.8144859 4288085770
10.546301 -2.3641229 -1.7857586 4288085770
6.5208206 -1.6271782 -1.8191367 4288085770
10.913425 -2.3333168 -1.7840089 4288085770
6.7289505 -1.5952969 -1.8188479 4288085770
11.332554 -2.3075657 -1.7850645 4288085770
6.9720898 -1.5654702 -1.8224403 4288085770
11.77268 -2.2818165 -1.7850609 4288085770
7.1962147 -1.5305877 -1.8211342 4288085770
12.217796 -2.2510338 -1.7810906 4288085770
7.4273338 -1.4956913 -1.817809 4288085770
12.721918 -2.2233005 -1.7789245 4288085770
7.6574516 -1.4557762 -1.8125335 4288085770
13.342054 -2.2077017 -1.7843157 4288085770
7.9555836 -1.4249611 -1.8139801 4288085770
13.970181 -2.1870623 -1.7847322 4288085770
8.2157001 -1.3870616 -1.8086015 4288085770
14.645304 -2.1654387 -1.784025 4288085770
8.5468254 -1.3542547 -1.8089728 4288085770
15.394423 -2.1458626 -1.7840879 4288085770
8.9089603 -1.3224831 -1.8112481 4288085770
16.211546 -2.1273241 -1.7839503 4288085770
9.2300758 -1.2826076 -1.8047156 4288085770
9.5891895 -1.243752 -1.7980664 4288085770
10.004316 -1.2069721 -1.7962393 4288085770
10.504456 -1.1732845 -1.7991422 4288085770
11.025587 -1.137589 -1.8000056 4288085770
11.538706 -1.0948253 -1.7939578 4288085770
12.10383 -1.0541077 -1.7897447 4288085770
12.744955 -1.0104408 -1.7863441 4288085770
13.445087 -0.96881485 -1.7837588 4288085770
14.199211 -0.92018986 -1.7780861 4288085770
15.036333 -0.87160969 -1.7721792 4288085770
16.083481 -0.82422447 -1.774667 4288085770
16.069666 1.770823 -1.7966673 4288085770
15.318815 1.8322997 -1.7961711 4288085770
14.64496 1.8917294 -1.7954575 4288085770
14.064117 1.9540563 -1.7995307 4288085770
13.51827 2.0123799 -1.801477 4288085770
12.983412 2.0667255 -1.8003579 4288085770
12.541571 2.1249676 -1.8040354 4288085770
12.073704 2.1752813 -1.8017064 4288085770
11.698862 2.2314825 -1.8051922 4288085770
11.289991 2.278779 -1.8006833 4288085770
8.307085 1.9555533 -1.4873726 4293729569
8.0472298 1.9987044 -1.4884412 4293729569
7.4882355 1.9924099 -1.4498224 4293729569
7.232811 1.9758298 -0.87930197 4293729569
7.2333603 2.0286043 -1.4458137 4293729569
7.4120941 2.080339 -0.91980731 4293729569
6.8824368 2.0449879 -1.4278687 4293729569
7.005188 2.0866652 -0.91191429 4293729569
6.5585136 2.0613549 -1.4098543 4293729569
6.6673012 2.1009121 -0.90791684 4293729569
6.3076191 2.0886028 -1.3997523 4293729569
6.319397 2.1082025 -0.89988065 4293729569
5.9896832 2.0989852 -1.3796668 4293729569
6.025507 2.1224225 -0.89576942 4293729569
5.6137104 2.0935147 -1.347584 4293729569
5.7726173 2.139617 -0.89157999 4293729569
5.3467846 2.1058471 -1.3293853 4293729569
5.5727501 2.1657419 -0.89133662 4293729569
5.1488838 2.1290631 -1.3191094 4293729569
5.2848358 2.1700141 -0.88111782 4293729569
4.8389206 2.1255155 -1.2908742 4293729569
5.1019592 2.1941473 -0.87881213 4293729569
4.7160492 2.1596107 -1.288506 4293729569
4.9160748 2.2142918 -0.87547731 4293729569
4.6011734 2.194711 -1.2851262 4293729569
4.7251854 2.2324574 -0.87013704 4293729569
4.4722939 2.2258375 -1.2797459 4293729569
4.5983181 2.2635374 -0.86975121 4293729569
4.3744259 2.2639174 -1.2773501 4293729569
4.4634438 2.2916408 -0.86735862 4293729569
4.270546 2.29702 -1.2729237 4293729569
4.398592 2.3346448 -0.87092346 4293729569
4.2206993 2.3450139 -1.2764958 4293729569
4.3477478 2.3816304 -0.87548918 4293729569
4.1778507 2.3930135 -1.2790502 4293729569
4.2978954 2.4286346 -0.87805247 4293729569
4.1660175 2.4499469 -1.2866076 4293729569
4.2450428 2.4726405 -0.8805958 4293729569
4.1791992 2.5138373 -1.2971648 4293729569
4.2592182 2.5365484 -0.88915056 4293729569
4.1723671 2.572777 -1.303728 4293729569
4.2283707 2.5885403 -0.89171106 4293729569
4.1345119 2.6227913 -1.304288 4293729569
4.2165298 2.6445112 -0.8952595 4293729569
4.1376781 2.6837339 -1.3098438 4293729569
4.1736717 2.6915293 -0.89580488 4293729569
4.1508522 2.7496514 -1.3174199 4293729569
4.1748352 2.7534916 -0.8993752 4293729569
4.1440086 2.808619 -1.3209832 4293729569
4.1829929 2.8164496 -0.9029367 4293729569
4.1231556 2.8636322 -1.3205458 4293729569
4.1841507 2.8774304 -0.90449804 4293729569
4.126318 2.9255934 -1.3241111 4293729569
4.1622944 2.9314446 -0.90405411 4293729569
4.1254749 2.988575 -1.3256962 4293729569
4.1584454 2.9904473 -0.90361005 4293729569
4.1306286 3.0515623 -1.3262658 4293729569
4.1615963 3.0524452 -0.90317565 4293729569
4.1367874 3.11654 -1.3278513 4293729569
4.1597424 3.1134651 -0.90074509 4293729569
4.1449432 3.1815255 -1.3284317 4293729569
4.1508865 3.1714892 -0.89830494 4293729569
4.1590977 3.2485161 -1.3280154 4293729569
4.1650352 3.2384987 -0.89588857 4293729569
4.1852608 3.3214808 -1.3296235 4293729569
4.1631756 3.298537 -0.89144903 4293729569
4.1793995 3.3815308 -1.3241942 4293729569
4.1763229 3.3655562 -0.88803542 4293729569
4.1515236 3.4336221 -1.315748 4293729569
4.1824627 3.4295986 -0.88261241 4293729569
4.1896858 3.5125976 -1.3153809 4293729569
4.2236156 3.5086 -0.87923759 4293729569
4.1978264 3.5786383 -1.3099711 4293729569
4.2477627 3.5806308 -0.87384206 4293729569
4.2319832 3.6566348 -1.3076051 4293729569
4.271904 3.6536705 -0.86745596 4293729569
4.2691402 3.7356384 -1.3042411 4293729569
4.3140545 3.7336898 -0.86208814 4293729569
8.554184 5.6978683 -1.9613872 4288085770
8.6794014 5.851757 -1.9644901 4288085770
8.8476391 6.0255909 -1.9706672 4288085770
9.0589085 6.2223406 -1.9829459 4288085770
9.2911835 6.432086 -1.9942909 4288085770
9.5885067 6.6767058 -2.0147915 4288085770
9.8227768 6.8944864 -2.0222058 4288085770
10.045031 7.1093206 -2.0246241 4288085770
10.25127 7.3202205 -2.0210471 4288085770
10.53956 7.5729837 -2.0266466 4288085770
10.947927 7.89254 -2.046556 4288085770
15.546146 -0.3948102 -1.7740372 4288085770
14.344259 -0.41405535 -1.7799827 4288085770
13.234365 -0.42832327 -1.7817357 4288085770
12.24247 -0.43965912 -1.7822093 4288085770
11.415594 -0.45017815 -1.7902603 4288085770
10.595697 -0.45560837 -1.7883419 4288085770
9.8097916 -0.4570241 -1.7823731 4288085770
9.1699104 -0.46162844 -1.7859936 4288085770
15.26276 -0.76970673 -1.7751414 4288085770
8.5770283 -0.46325541 -1.7885199 4288085770
13.987886 -0.74885702 -1.7766601 4288085770
8.0061359 -0.46184921 -1.7860175 4288085770
12.878021 -0.72913504 -1.7797378 4288085770
7.5242615 -0.46357584 -1.7912539 4288085770
11.920153 -0.71152163 -1.7833993 4288085770
7.0613823 -0.46228743 -1.7934691 4288085770
11.108297 -0.69706059 -1.79265 4288085770
6.6425037 -0.46003675 -1.7965791 4288085770
10.234398 -0.67338085 -1.7831503 4288085770
6.2306175 -0.45675421 -1.7956804 4288085770
9.491518 -0.65486193 -1.7812601 4288085770
5.848732 -0.45149994 -1.7957224 4288085770
8.8666515 -0.6394763 -1.7850325 4288085770
5.5038509 -0.44728851 -1.7976584 4288085770
8.287775 -0.62310219 -1.7866945 4288085770
5.18297 -0.4430933 -1.7995316 4288085770
7.7428989 -0.60675144 -1.7882676 4288085770
4.8750896 -0.43789721 -1.8003803 4288085770
7.2680321 -0.59246397 -1.7916384 4288085770
4.5832081 -0.43171167 -1.8011969 4288085770
6.8291645 -0.57821035 -1.795915 4288085770
4.3093281 -0.4245286 -1.8009757 4288085770
6.411293 -0.56395102 -1.7981372 4288085770
4.0364399 -0.41631794 -1.797762 4288085770
6.0114155 -0.54767656 -1.7973313 4288085770
3.7895565 -0.40815306 -1.79748 4288085770
5.6385365 -0.53241825 -1.7964457 4288085770
3.5406666 -0.39894867 -1.7932135 4288085770
5.2996635 -0.51720238 -1.7974708 4288085770
3.3327866 -0.39282751 -1.7948105 4288085770
4.9867916 -0.50301266 -1.7994186 4288085770
3.1239071 -0.3836875 -1.7944388 4288085770
4.6959209 -0.48984623 -1.8022993 4288085770
2.9340324 -0.37558746 -1.7970079 4288085770
4.3920326 -0.47259665 -1.7972528 4288085770
2.7371464 -0.366436 -1.7946051 4288085770
4.1141491 -0.45738316 -1.7941191 4288085770
2.5862827 -0.36039925 -1.8010527 4288085770
3.8672714 -0.44322681 -1.7948946 4288085770
2.4063969 -0.35025835 -1.7986155 4288085770
3.6434002 -0.4300952 -1.7966002 4288085770
2.230505 -0.33910275 -1.7941771 4288085770
3.4045124 -0.41489792 -1.7923648 4288085770
2.0716209 -0.32998562 -1.7926751 4288085770
3.1966381 -0.40076733 -1.7930385 4288085770
1.9287434 -0.32090712 -1.7941313 4288085770
2.992754 -0.38562059 -1.7917116 4288085770
1.7958698 -0.31184387 -1.7965609 4288085770
2.8248901 -0.37356329 -1.7972609 4288085770
1.6559849 -0.30073023 -1.7940283 4288085770
2.6440105 -0.35943174 -1.795864 4288085770
1.5230999 -0.29063034 -1.7924681 4288085770
2.4871407 -0.34735394 -1.7983851 4288085770
2.3172588 -0.33323002 -1.7969596 4288085770
2.1553764 -0.31810188 -1.7945229 4288085770
1.9944878 -0.30395508 -1.7900745 4288085770
1.8496094 -0.2898469 -1.7885835 4288085770
1.7217369 -0.27677917 -1.7900386 4288085770
1.5948582 -0.26270151 -1.7905004 4288085770
1.4599705 -0.24857235 -1.785984 4288085770
1.4169655 1.6736853 -1.7954845 4288085770
1.5050678 1.6877029 -1.7863655 4288085770
1.6592369 1.7194858 -1.797232 4288085770
1.7753563 1.7394273 -1.794091 4288085770
1.905489 1.762331 -1.793939 4288085770
2.0346107 1.7832632 -1.7907708 4288085770
2.1967621 1.8120878 -1.7965853 4288085770
2.3328857 1.8320153 -1.7933875 4288085770
1.4367981 1.6236331 -1.7939051 4288085770
2.5090351 1.8608303 -1.7991624 4288085770
1.5599327 1.6405227 -1.7957156 4288085770
2.681181 1.8886762 -1.8019387 4288085770
1.6850605 1.6564202 -1.7965107 4288085770
2.8463116 1.9115648 -1.8006871 4288085770
1.8031731 1.6693699 -1.7922969 4288085770
3.017437 1.934459 -1.7984183 4288085770
1.9383049 1.6852605 -1.7930634 4288085770
3.2035694 1.9603236 -1.7981353 4288085770
2.0934505 1.7050903 -1.7988114 4288085770
3.433733 1.9940722 -1.8068044 4288085770
2.2185593 1.7160447 -1.7935582 4288085770
3.6258602 2.0169516 -1.8044754 4288085770
2.3907032 1.7368534 -1.8002677 4288085770
3.8319817 2.0408216 -1.8021169 4288085770
2.5358219 1.7497652 -1.7979765 4288085770
4.0621223 2.0696368 -1.8037373 4288085770
2.7189713 1.7695658 -1.8046446 4288085770
4.2992611 2.0974469 -1.805328 4288085770
2.9111195 1.7903605 -1.8112963 4288085770
4.5493965 2.125267 -1.8048818 4288085770
3.0432053 1.7943759 -1.7989558 4288085770
4.8205395 2.1550536 -1.8063951 4288085770
3.2383442 1.8111968 -1.8025606 4288085770
5.0756645 2.1788988 -1.8028959 4288085770
3.4394836 1.8280132 -1.8061479 4288085770
5.0545826 2.1394749 -1.7425675 4293729569
3.6256008 1.838897 -1.8037206 4288085770
5.0385094 2.1020291 -1.684244 4293729569
3.828722 1.8517592 -1.8022637 4288085770
5.2195644 2.1041055 -1.6617442 4293729569
4.0428467 1.8635952 -1.802766 4288085770
5.3986168 2.1041927 -1.6382306 4293729569
4.265974 1.8764248 -1.8032519 4288085770
5.4926052 2.0854907 -1.5987762 4293729569
4.5101109 1.8912208 -1.8056968 4288085770
6.5972023 2.2645247 -1.7233664 4293729569
4.7572346 1.9030337 -1.8061045 4288085770
6.0888157 2.1202161 -1.5814068 4293729569
5.028368 1.916811 -1.8084629 4288085770
6.2268162 2.1034651 -1.5438462 4293729569
5.2984943 1.9276083 -1.808795 4288085770
6.2807674 2.0688858 -1.4943519 4293729569
5.5836182 1.9373951 -1.8090748 4288085770
6.4517784 2.0550735 -1.4607259 4293729569
5.9037514 1.9511197 -1.8132933 4288085770
6.7258282 2.0550771 -1.4389416 4293729569
6.2178707 1.9588959 -1.8124709 4288085770
6.9788647 2.0501416 -1.4121683 4293729569
6.5540009 1.9686282 -1.8146043 4288085770
7.1628666 2.0293493 -1.3754377 4293729569
6.8971195 1.9743841 -1.8136795 4288085770
7.3628654 2.0095458 -1.3386708 4293729569
7.2692451 1.9811008 -1.8146811 4288085770
7.5808659 1.9897206 -1.3028526 4293729569
7.6543674 1.9858181 -1.814626 4288085770
7.9999466 1.9975569 -1.2877301 4293729569
7.930418 1.9698007 -1.7946801 4288085770
8.3369789 1.9885728 -1.2596776 4293729569
8.4735985 1.9882379 -1.8123083 4288085770
15.008362 2.8693705 -1.8362128 4288085770
8.9607315 1.9938371 -1.8169707 4288085770
16.149546 2.9304676 -1.8445467 4288085770
9.4138355 1.9895451 -1.812634 4288085770
9.935957 1.9871483 -1.814119 4288085770
10.492075 1.9837282 -1.815497 4288085770
11.011166 1.9704094 -1.808884 4288085770
11.625277 1.9599683 -1.8080285 4288085770
12.289391 1.948473 -1.8090198 4288085770
12.999502 1.9339459 -1.8098501 4288085770
13.756613 1.9153867 -1.8105072 4288085770
14.543707 1.8908346 -1.8080202 4288085770
15.404808 1.8632121 -1.8072922 4288085770
9.030798 -7.6468382 -1.4227052 4293729569
8.50313 -7.3875675 -1.4357308 4293729569
7.9514599 -7.1042051 -1.4410598 4293729569
7.5147648 -6.8849983 -1.4534352 4293729569
7.1530609 -6.7069178 -1.4731956 4293729569
6.7803497 -6.5167637 -1.4861052 4293729569
6.3686333 -6.2965078 -1.4914199 4293729569
6.0008984 -6.0992994 -1.4983858 4293729569
3.678154 -4.6206379 -1.1974306 4293729569
3.69804 -4.60287 -0.80151409 4293729569
3.6433887 -4.624012 -1.2384896 4293729569
3.6722736 -4.6092596 -0.84351748 4293729569
3.6096249 -4.628397 -1.2805362 4293729569
3.6495113 -4.6156607 -0.88651198 4293729569
3.5748615 -4.6287613 -1.3206244 4293729569
3.6277504 -4.6200628 -0.92952269 4293729569
3.5741024 -4.6502256 -1.3684093 4293729569
3.6079903 -4.6244659 -0.97252727 4293729569
3.5593433 -4.6606522 -1.4133416 4293729569
3.6022301 -4.6358976 -1.0174229 4293729569
3.5485859 -4.67208 -1.4582523 4293729569
3.5894699 -4.6403065 -1.0604068 4293729569
3.5298271 -4.6744862 -1.5012734 4293729569
3.5947094 -4.655756 -1.106231 4293729569
3.5410786 -4.6969872 -1.5520124 4293729569
3.5839577 -4.6571856 -1.1512375 4293729569
3.4303074 -4.6341381 -1.575933 4293729569
3.5752029 -4.6596088 -1.1952285 4293729569
3.270525 -4.5361309 -1.5873368 4293729569
3.5724487 -4.6630421 -1.2401917 4293729569
3.0647297 -4.4039669 -1.5862057 4293729569
3.5646954 -4.6604557 -1.2832273 4293729569
2.9119396 -4.3059368 -1.5945897 4293729569
3.5609398 -4.6598701 -1.3262321 4293729569
2.7811489 -4.2199497 -1.6057932 4293729569
3.5501842 -4.6512842 -1.3693212 4293729569
2.6263409 -4.1158714 -1.6092302 4293729569
3.5604305 -4.6557398 -1.4152384 4293729569
2.4985409 -4.0278587 -1.6174473 4293729569
3.5626774 -4.6521702 -1.4592564 4293729569
2.3557301 -3.9287777 -1.6198153 4293729569
3.5519238 -4.6375542 -1.4994189 4293729569
2.2629318 -3.8618364 -1.6327264 4293729569
3.5451717 -4.6249504 -1.5405504 4293729569
2.2071457 -3.8180161 -1.6553051 4293729569
3.4794083 -4.5701809 -1.5692625 4293729569
2.2083702 -3.8123703 -1.6913477 4293729569
3.377634 -4.4892826 -1.5873332 4293729569
2.2066002 -3.801713 -1.7264471 4288085770
3.20084 -4.3571501 -1.5871198 4293729569
2.2388401 -3.8121729 -1.7712423 4288085770
3.0880566 -4.2661867 -1.5993205 4293729569
2.1720428 -3.7552795 -1.7869799 4288085770
2.9632645 -4.1671762 -1.6076348 4293729569
2.0472107 -3.6571441 -1.7822864 4288085770
2.8374653 -4.0661268 -1.6119717 4293729569
1.9343777 -3.5660267 -1.7784899 4288085770
2.7356644 -3.9781332 -1.6201118 4293729569
1.812542 -3.4678745 -1.7717885 4288085770
2.6128578 -3.8770657 -1.6224406 4293729569
1.7277145 -3.3938336 -1.7737452 4288085770
2.5840683 -3.8362646 -1.6449094 4293729569
1.6428852 -3.3187833 -1.7747116 4288085770
2.6062965 -3.825635 -1.6809357 4293729569
1.5680523 -3.2497497 -1.7765905 4288085770
2.6675377 -3.8381166 -1.7256234 4288085770
1.4852123 -3.1736622 -1.7735611 4288085770
2.711771 -3.8385401 -1.7654773 4288085770
1.4313889 -3.1166911 -1.7802618 4288085770
2.6749763 -3.7856855 -1.7830858 4288085770
2.5481358 -3.6755018 -1.7735156 4288085770
2.4643154 -3.5924616 -1.7755551 4288085770
2.3724842 -3.5033693 -1.7726773 4288085770
2.2796478 -3.4142561 -1.7678028 4288085770
2.2118168 -3.3402181 -1.7687087 4288085770
2.158989 -3.274219 -1.7724923 4288085770
2.0951557 -3.2011743 -1.772377 4288085770
2.04632 -3.1381588 -1.7741203 4288085770
1.9914837 -3.0691204 -1.7739397 4288085770
1.9546471 -3.0111227 -1.776599 4288085770
1.9017982 -2.9440565 -1.7733935 4288085770
1.8639603 -2.8860488 -1.7750564 4288085770
1.8331184 -2.8300362 -1.7756788 4288085770
1.7872658 -2.7669754 -1.7724142 4288085770
1.7894382 -2.7290721 -1.7817633 4288085770
1.7795982 -2.6851225 -1.7872066 4288085770
1.7597466 -2.6351175 -1.7877389 4288085770
1.7479019 -2.5881371 -1.7902176 4288085770
1.7340546 -2.5401368 -1.790712 4288085770
1.7242031 -2.4951487 -1.7921656 4288085770
1.7203579 -2.4521747 -1.7945818 4288085770
1.7145023 -2.4081697 -1.7940137 4288085770
1.7116508 -2.3651872 -1.7954268 4288085770
1.7107983 -2.3231959 -1.7958245 4288085770
1.7149429 -2.2832079 -1.7961878 4288085770
1.7140808 -2.2411981 -1.7945856 4288085770
1.7242279 -2.2042241 -1.7959017 4288085770
1.7353745 -2.1672506 -1.7972147 4288085770
1.7475109 -2.1302595 -1.796525 4288085770
1.7576523 -2.0922656 -1.7958508 4288085770
1.7847996 -2.0613236 -1.7990571 4288085770
1.8089409 -2.0283599 -1.8002921 4288085770
1.832077 -1.9943852 -1.8005402 4288085770
1.8612175 -1.9634252 -1.8017406 4288085770
1.8803482 -1.9274192 -1.7990198 4288085770
1.9184914 -1.8984752 -1.8011732 4288085770
1.9516296 -1.8675089 -1.8013612 4288085770
1.9897671 -1.8385458 -1.8015147 4288085770
2.0269032 -1.8085818 -1.8016809 4288085770
2.0710392 -1.7796235 -1.8018157 4288085770
2.1181736 -1.7516675 -1.801932 4288085770
2.1643105 -1.72471 -1.8020414 4288085770
2.2264519 -1.7007928 -1.8050725 4288085770
2.2765827 -1.6738286 -1.8041697 4288085770
2.3327198 -1.6478791 -1.8042387 4288085770
2.3938503 -1.6219239 -1.8032922 4288085770
2.4699917 -1.6000271 -1.8072606 4288085770
1.4223099 -1.305367 -1.8233106 4288085770
2.538126 -1.5750866 -1.8072826 4288085770
1.4884529 -1.2864628 -1.8272821 4288085770
2.6052532 -1.5501261 -1.8053076 4288085770
1.5315762 -1.2604647 -1.8233923 4288085770
2.6813869 -1.5261903 -1.8052951 4288085770
1.6087227 -1.2425876 -1.82932 4288085770
2.7665253 -1.5042815 -1.8072354 4288085770
1.684866 -1.2247005 -1.8342507 4288085770
2.8506546 -1.4813528 -1.8071884 4288085770
1.7179718 -1.1946373 -1.8244302 4288085770
2.9467926 -1.4614515 -1.8090751 4288085770
1.8001156 -1.1777544 -1.8293325 4288085770
3.0359192 -1.4385176 -1.8080125 4288085770
1.8642368 -1.1547809 -1.8263484 4288085770
3.1310482 -1.4165869 -1.8069214 4288085770
1.9293633 -1.1328187 -1.8243514 4288085770
3.2451897 -1.3987188 -1.810733 4288085770
1.989481 -1.1078238 -1.819399 4288085770
3.3533154 -1.3777981 -1.8095915 4288085770
2.0555973 -1.0848336 -1.8144084 4288085770
3.4754524 -1.3589168 -1.8113874 4288085770
2.1287212 -1.0628681 -1.8113866 4288085770
3.6045837 -1.3410411 -1.8131518 4288085770
2.2378635 -1.0470147 -1.8171949 4288085770
3.733717 -1.3211551 -1.8139353 4288085770
2.3129826 -1.0240312 -1.8121762 4288085770
3.8668442 -1.3012633 -1.8137063 4288085770
2.4161186 -1.0071449 -1.8150126 4288085770
4.0149765 -1.2843924 -1.8144015 4288085770
2.4962292 -0.98314571 -1.8079878 4288085770
4.1661072 -1.2655234 -1.8151065 4288085770
2.5903511 -0.9621954 -1.8048905 4288085770
4.3392448 -1.2497001 -1.8187139 4288085770
2.7745342 -0.95654297 -1.8253689 4288085770
4.5343876 -1.2369123 -1.8242241 4288085770
2.8446236 -0.92946959 -1.8114038 4288085770
4.6764965 -1.2119503 -1.8160143 4288085770
2.9717579 -0.91159201 -1.8131744 4288085770
4.869627 -1.1951127 -1.8165685 4288085770
3.0798721 -0.88962364 -1.8070426 4288085770
5.0567474 -1.1762428 -1.8141602 4288085770
3.2240067 -0.87276888 -1.8097503 4288085770
5.2808819 -1.161448 -1.8165982 4288085770
3.3561287 -0.85284758 -1.8065243 4288085770
5.5050125 -1.1446342 -1.8170549 4288085770
3.5202694 -0.83802652 -1.81115 4288085770
5.7421379 -1.1288218 -1.8164612 4288085770
3.6934071 -0.82220316 -1.8147572 4288085770
6.0132732 -1.1150622 -1.818742 4288085770
3.8305149 -0.80023813 -1.8065342 4288085770
6.2854023 -1.0992842 -1.8190387 4288085770
4.0386677 -0.78648949 -1.8150123 4288085770
6.6065388 -1.0875826 -1.8231437 4288085770
4.195776 -0.76554823 -1.807717 4288085770
6.884655 -1.0687618 -1.8184497 4288085770
4.3919067 -0.74771357 -1.8082707 4288085770
7.1897678 -1.0509524 -1.8126614 4288085770
4.6090393 -0.73190498 -1.8097394 4288085770
7.5218811 -1.0331726 -1.8077886 4288085770
4.8341713 -0.7130928 -1.8102115 4288085770
7.8980026 -1.0174546 -1.8057586 4288085770
5.0422821 -0.69320011 -1.8037463 4288085770
8.31213 -1.0037847 -1.8055902 4288085770
5.3064194 -0.67643642 -1.806077 4288085770
8.7652493 -0.98912573 -1.8033091 4288085770
5.5895538 -0.65968704 -1.8083477 4288085770
9.2173653 -0.9724369 -1.7980496 4288085770
5.8546734 -0.63986635 -1.8047032 4288085770
9.7254791 -0.95780039 -1.7935953 4288085770
6.1708069 -0.62313271 -1.8058701 4288085770
10.341616 -0.94832182 -1.7967546 4288085770
6.4809265 -0.60334682 -1.8020842 4288085770
10.967731 -0.93478346 -1.7929204 4288085770
6.8320541 -0.58462048 -1.80116 4288085770
11.673851 -0.92332554 -1.7908161 4288085770
7.2061825 -0.56491232 -1.8001728 4288085770
12.459972 -0.91092777 -1.7884699 4288085770
7.5782948 -0.54314423 -1.7932107 4288085770
13.325089 -0.89958143 -1.7848659 4288085770
8.020422 -0.52448702 -1.7920001 4288085770
14.307209 -0.88933182 -1.7818849 4288085770
8.4965496 -0.50384712 -1.7897018 4288085770
15.38732 -0.87813902 -1.7766056 4288085770
9.0346832 -0.48428154 -1.7901989 4288085770
9.5948067 -0.46370506 -1.7876358 4288085770
10.24194 -0.44221449 -1.7868091 4288085770
11.045109 -0.42496634 -1.7984538 4288085770
11.835241 -0.40158367 -1.7971961 4288085770
12.667362 -0.37619495 -1.7918248 4288085770
13.639492 -0.34993172 -1.788023 4288085770
14.767624 -0.32380629 -1.7857308 4288085770
16.145786 -0.29696751 -1.7926618 4288085770
7.2911968 1.9097538 -0.76409996 4293729569
7.4056244 2.0875037 -0.77846026 4293729569
7.4308281 2.1724308 -0.78320646 4293729569
7.3029652 2.2296064 -0.77618068 4293729569
6.72192 2.1984949 -0.73677093 4293729569
6.4349899 2.2189255 -0.71790528 4293729569
6.3292789 2.3441207 -0.70647067 4293729569
6.161377 2.3804007 -0.69237173 4293729569
5.6543293 2.3382087 -0.65461266 4293729569
5.4774132 2.3655167 -0.63845551 4293729569
5.3194962 2.3948085 -0.62225568 4293729569
5.2406158 2.4409833 -0.61096311 4293729569
5.2147522 2.5010929 -0.60163367 4293729569
5.3995266 2.8832793 -0.56375921 4293729569
5.4316711 2.9603581 -0.55240625 4293729569
5.4478016 3.0334702 -0.53906685 4293729569
5.4509277 3.1006031 -0.52471137 4293729569
5.4860649 3.1786985 -0.51135874 4293729569
5.5822086 3.2787318 -0.49902013 4293729569
5.6763649 3.3777766 -0.48568439 4293729569
5.8705654 3.5136943 -0.47638267 4293729569
15.897505 -0.018180847 -1.7821162 4288085770
14.488607 -0.020862579 -1.7826222 4288085770
13.304733 -0.021808624 -1.788422 4288085770
12.198832 -0.020747185 -1.7859898 4288085770
11.274956 -0.018929482 -1.7909801 4288085770
10.363049 -0.015015125 -1.7849513 4288085770
9.5581284 -0.010198593 -1.7785865 4288085770
16.195141 -0.09046936 -1.775489 4288085770
8.9222641 -0.0066723824 -1.7856714 4288085770
14.761272 -0.076164246 -1.7802457 4288085770
8.2903709 -0.0010619164 -1.7837627 4288085770
13.490395 -0.060979366 -1.7814859 4288085770
7.7294884 0.0044541359 -1.7846243 4288085770
12.380518 -0.046940804 -1.7821966 4288085770
7.2466164 0.0098609924 -1.7892344 4288085770
11.456654 -0.034131527 -1.7882972 4288085770
6.7857399 0.01727581 -1.7907927 4288085770
10.540754 -0.02021122 -1.7823813 4288085770
6.3468533 0.023690701 -1.79027 4288085770
9.7168579 -0.0053853989 -1.777178 4288085770
5.9409676 0.031075478 -1.7896502 4288085770
9.0549965 0.0071845055 -1.7824327 4288085770
5.5840969 0.038375854 -1.7928725 4288085770
8.4271164 0.019782543 -1.7815775 4288085770
5.229208 0.046724319 -1.7910976 4288085770
7.8572388 0.032307625 -1.7825348 4288085770
4.9263363 0.05497551 -1.794155 4288085770
7.3703709 0.044726849 -1.7862245 4288085770
4.6344566 0.062236786 -1.795167 4288085770
6.9155045 0.056117535 -1.7898009 4288085770
4.3425674 0.071537018 -1.7921985 4288085770
6.4646187 0.068563938 -1.787374 4288085770
4.0506668 0.08086729 -1.7862295 4288085770
6.0847511 0.080875874 -1.7917181 4288085770
3.8077888 0.089083672 -1.7870928 4288085770
5.7158756 0.093216896 -1.7920266 4288085770
3.5759048 0.098309517 -1.7859304 4288085770
5.3809986 0.10451794 -1.7932156 4288085770
3.3630257 0.10749865 -1.7867067 4288085770
5.0591221 0.11681604 -1.7933723 4288085770
3.1571445 0.11669064 -1.7864602 4288085770
4.7582436 0.12909555 -1.7934614 4288085770
2.957262 0.12588787 -1.7851943 4288085770
4.4513512 0.14142942 -1.7885693 4288085770
2.7843914 0.13501072 -1.7888411 4288085770
4.1764622 0.15271521 -1.7855645 4288085770
2.626524 0.14411974 -1.7924397 4288085770
3.9315815 0.16495323 -1.7844727 4288085770
2.461647 0.15426493 -1.7930706 4288085770
3.6926975 0.17719555 -1.7823616 4288085770
2.2817421 0.16450262 -1.7857498 4288085770
3.4878254 0.18835735 -1.7851309 4288085770
2.1348686 0.17362165 -1.7873125 4288085770
3.2799435 0.1995616 -1.7839098 4288085770
2.0069962 0.18370342 -1.7908239 4288085770
3.1010742 0.21169043 -1.7876049 4288085770
1.8651123 0.19384766 -1.7893803 4288085770
2.9071827 0.22291136 -1.7833388 4288085770
1.7482452 0.20291901 -1.7928463 4288085770
2.7473202 0.23501253 -1.7879726 4288085770
1.6153584 0.2140646 -1.7903835 4288085770
2.5734329 0.24720573 -1.7846516 4288085770
1.5004845 0.22415447 -1.7918527 4288085770
2.4135494 0.25836611 -1.7832755 4288085770
2.2626686 0.2705183 -1.7818804 4288085770
2.1247921 0.28263879 -1.7824432 4288085770
1.9919147 0.29476452 -1.7819899 4288085770
1.873045 0.30684781 -1.7844919 4288085770
1.7551727 0.3189404 -1.78599 4288085770
1.6382885 0.33106136 -1.7844853 4288085770
1.529417 0.34314537 -1.7859546 4288085770
1.4235401 0.35524678 -1.7854143 4288085770
1.5031033 2.4535913 -1.7922174 4288085770
1.6262646 2.4954371 -1.7952508 4288085770
1.7424088 2.5313292 -1.7942474 4288085770
1.8605556 2.5682192 -1.7932476 4288085770
1.9977131 2.6100612 -1.7952379 4288085770
2.1228561 2.6469545 -1.7932167 4288085770
2.2620106 2.6878142 -1.7931913 4288085770
2.4191761 2.7336173 -1.7971593 4288085770
1.474884 2.3795567 -1.7936021 4288085770
2.5703316 2.7764657 -1.7971165 4288085770
1.5970345 2.4114037 -1.7965405 4288085770
2.7314911 2.8202944 -1.7980528 4288085770
1.7191792 2.4412704 -1.7974592 4288085770
2.8886337 2.8601568 -1.7959625 4288085770
1.8433208 2.470145 -1.7973623 4288085770
3.0698051 2.9089463 -1.7988859 4288085770
1.9634495 2.4960532 -1.7942486 4288085770
3.2459583 2.9527802 -1.7977761 4288085770
2.1056004 2.529881 -1.7971448 4288085770
3.4341125 2.9995933 -1.7976587 4288085770
2.2407379 2.5577455 -1.7970042 4288085770
3.6562996 3.0573137 -1.8035439 4288085770
2.3778725 2.5856271 -1.7948577 4288085770
3.8944969 3.1189985 -1.8114191 4288085770
2.5400372 2.6214156 -1.7997121 4288085770
4.1016521 3.1658027 -1.8102435 4288085770
2.7001858 2.6542358 -1.8015434 4288085770
4.343832 3.2225237 -1.8140576 4288085770
2.8603287 2.6840756 -1.8013456 4288085770
4.6100235 3.2862012 -1.8198664 4288085770
3.018465 2.7129273 -1.8001442 4288085770
4.878212 3.3468871 -1.8246397 4288085770
3.1866055 2.7417595 -1.7999119 4288085770
5.1924324 3.421469 -1.8354082 4288085770
3.3767662 2.7775311 -1.8036803 4288085770
5.4886169 3.4851375 -1.8391247 4288085770
3.5589027 2.8073597 -1.8024147 4288085770
5.6456642 3.4972277 -1.8137622 4288085770
3.7420406 2.8351877 -1.8011266 4288085770
4.9078884 3.1948271 -1.6220579 4293729569
3.9311752 2.8620195 -1.7988102 4288085770
4.5374756 3.0253286 -1.505531 4293729569
4.1283131 2.8908238 -1.7984889 4288085770
4.4002819 2.9381592 -1.4340965 4293729569
4.3644772 2.9285405 -1.8031352 4288085770
4.444252 2.9114881 -1.3957 4293729569
4.5846233 2.9593129 -1.8037624 4288085770
4.4531898 2.87291 -1.351294 4293729569
4.8387871 2.9980125 -1.8083633 4288085770
4.4681339 2.8343062 -1.3088695 4293729569
5.1109581 3.0376754 -1.8149184 4288085770
4.4590569 2.7887661 -1.2624505 4293729569
5.3661041 3.0694137 -1.8154477 4288085770
4.467001 2.7471595 -1.2210178 4293729569
5.6642818 3.1110413 -1.8229423 4288085770
4.4709377 2.7035768 -1.1775779 4293729569
5.235815 2.9277382 -1.6924561 4293729569
4.4798813 2.6609695 -1.1361321 4293729569
4.7343025 2.7265749 -1.5550184 4293729569
4.4958344 2.6213357 -1.0966942 4293729569
4.4850273 2.6046731 -1.4675857 4293729569
4.5227947 2.5826712 -1.0592321 4293729569
4.4979782 2.562042 -1.4281274 4293729569
4.5507603 2.5449963 -1.0227765 4293729569
4.5059242 2.5164161 -1.3886548 4293729569
4.5757198 2.5053239 -0.98631054 4293729569
4.5168762 2.4717772 -1.350183 4293729569
4.5996838 2.4636528 -0.94982785 4293729569
4.5228252 2.4241428 -1.3116969 4293729569
4.6396542 2.4259467 -0.91533506 4293729569
4.53578 2.3784828 -1.2752087 4293729569
4.6736202 2.3862462 -0.88084102 4293729569
4.5607452 2.3357906 -1.2407131 4293729569
4.6905823 2.3415718 -0.84535033 4293729569
4.6187382 2.3010077 -1.2121936 4293729569
4.8256035 2.3246751 -0.82077003 4293729569
4.6707172 2.2622504 -1.1816533 4293729569
5.0176525 2.320673 -0.8011415 4293729569
4.7587318 2.2323887 -1.1580902 4293729569
5.2197037 2.3166614 -0.78148228 4293729569
4.8567429 2.2035172 -1.1345061 4293729569
5.3967381 2.3026941 -0.75980186 4293729569
4.9927826 2.18155 -1.1168731 4293729569
5.5477505 2.2817917 -0.73413318 4293729569
5.1228085 2.1566081 -1.0972295 4293729569
5.8148136 2.2826879 -0.71732247 4293729569
5.2438335 2.1276853 -1.0765742 4293729569
6.4110069 2.3500578 -0.72115475 4293729569
5.3858643 2.101722 -1.0578836 4293729569
6.4469566 2.2953656 -0.68550736 4293729569
5.6069336 2.0885932 -1.0480769 4293729569
6.5209236 2.2466073 -0.65280157 4293729569
5.9350567 2.0952621 -1.0481364 4293729569
6.177124 2.0791132 -1.0382353 4293729569
6.4692135 2.0698767 -1.0322491 4293729569
7.3590279 2.2053998 -0.58782518 4293729569
6.7693005 2.0586219 -1.0272186 4293729569
7.0863838 2.0453613 -1.021116 4293729569
7.4214706 2.0310733 -1.0159482 4293729569
7.8125706 2.0206916 -1.0146471 4293729569
8.1266308 1.9924638 -1.0054069 4293729569
15.095978 -5.3283558 -0.39929146 4293729569
15.11981 -5.3856487 -1.3327079 4293729569
15.106115 -5.4628935 -0.45094252 4293729569
15.130951 -5.5212088 -1.386346 4293729569
16.083031 -5.9494362 -1.511237 4293729569
15.329237 -5.8477049 -1.5135403 4293729569
14.588451 -5.737957 -1.5128829 4293729569
13.935658 -5.6473436 -1.5167689 4293729569
13.370859 -5.5758638 -1.5251981 4293729569
12.739069 -5.4752502 -1.5271177 4293729569
12.165279 -5.3837233 -1.5317711 4293729569
11.574492 -5.2801399 -1.5325942 4293729569
11.047699 -5.190649 -1.5360836 4293729569
10.592905 -5.1212845 -1.5451553 4293729569
9.9491158 -4.9715014 -1.5315936 4293729569
9.654232 -4.8996201 -0.86816579 4293729569
9.5203209 -4.8961449 -1.5386447 4293729569
9.6044331 -4.9670916 -0.9196583 4293729569
9.1505203 -4.838892 -1.5503377 4293729569
9.579628 -5.0435972 -0.97198564 4293729569
8.7027245 -4.7434578 -1.551644 4293729569
9.6348171 -5.1522694 -1.032753 4293729569
8.2889233 -4.6570635 -1.5537572 4293729569
14.103317 -7.0779848 -1.4462041 4293729569
7.9511261 -4.5958347 -1.5643915 4293729569
13.302677 -6.8552904 -1.4578396 4293729569
7.6143246 -4.5295734 -1.572072 4293729569
12.523027 -6.6325865 -1.4664104 4293729569
7.2755184 -4.4562941 -1.5778275 4293729569
11.854355 -6.4450483 -1.4802971 4293729569
6.9287148 -4.3759747 -1.5806764 4293729569
11.187679 -6.250453 -1.4882467 4293729569
6.6449108 -4.3187962 -1.5911057 4293729569
10.586988 -6.0749502 -1.4988073 4293729569
6.3461056 -4.2505636 -1.5976894 4293729569
10.057293 -5.9225664 -1.5139241 4293729569
6.0602989 -4.1833344 -1.6032237 4293729569
9.5065861 -5.7550821 -1.5212529 4293729569
5.778492 -4.1130972 -1.6077751 4293729569
8.9298782 -5.5664949 -1.5208682 4293729569
5.4896812 -4.0358248 -1.609417 4293729569
8.3731632 -5.3789053 -1.5184125 4293729569
5.270874 -3.9867201 -1.6205688 4293729569
7.9344311 -5.2395401 -1.5261232 4293729569
5.1040688 -3.9607534 -1.6403345 4293729569
7.5786877 -5.1353416 -1.542235 4293729569
5.0082703 -3.964983 -1.6725879 4293729569
7.1779461 -5.0019932 -1.5477704 4293729569
4.8784733 -3.9511127 -1.6981224 4293729569
6.8231964 -4.8877373 -1.5579778 4293729569
4.7586727 -3.9402599 -1.7245966 4288085770
6.4624424 -4.7644262 -1.5632924 4293729569
4.6638775 -3.9404812 -1.7558861 4288085770
6.1236858 -4.6481457 -1.5694706 4293729569
4.530077 -3.9185762 -1.7785116 4288085770
5.83992 -4.5539684 -1.5802642 4293729569
4.2932625 -3.8403358 -1.7780042 4288085770
5.5571518 -4.4577818 -1.5900743 4293729569
4.0634441 -3.7630901 -1.7764657 4288085770
5.2613811 -4.3495235 -1.5940424 4293729569
3.8396206 -3.6858511 -1.7749083 4288085770
4.9796009 -4.2452774 -1.5979282 4293729569
3.6297951 -3.6136241 -1.7732592 4288085770
4.6918221 -4.1339979 -1.5989014 4293729569
3.4209747 -3.5383997 -1.7716365 4288085770
4.4470348 -4.0417976 -1.603556 4293729569
3.2331467 -3.4712048 -1.770871 4288085770
4.2232513 -3.9566469 -1.6110778 4293729569
3.0563259 -3.4070406 -1.7720422 4288085770
4.0874691 -3.9157314 -1.6328968 4293729569
2.8824978 -3.3408589 -1.7712244 4288085770
4.0216923 -3.9100323 -1.6691573 4293729569
2.7106686 -3.2746701 -1.7694 4288085770
3.9669189 -3.9093618 -1.7073348 4293729569
2.5628414 -3.2185531 -1.7724038 4288085770
3.9071445 -3.9036684 -1.7435769 4288085770
2.3970108 -3.15136 -1.7695712 4288085770
3.8233662 -3.8828917 -1.7740403 4288085770
2.2661819 -3.1002698 -1.773474 4288085770
3.6105652 -3.7896633 -1.7726076 4288085770
2.1173477 -3.0381026 -1.77154 4288085770
3.4097595 -3.6994567 -1.7721086 4288085770
1.9845181 -2.9819808 -1.7724983 4288085770
3.2029514 -3.6042047 -1.7676771 4288085770
1.8606853 -2.9288774 -1.7743994 4288085770
3.0321465 -3.5260558 -1.7699683 4288085770
1.7428493 -2.8777699 -1.7752626 4288085770
2.8553314 -3.4418526 -1.7673371 4288085770
1.6260147 -2.8256636 -1.7761326 4288085770
2.6905174 -3.3636804 -1.7666099 4288085770
1.5041752 -2.7695222 -1.7740573 4288085770
2.5366993 -3.2885189 -1.7658199 4288085770
2.4008808 -3.2224145 -1.768886 4288085770
2.2640572 -3.1532784 -1.7689849 4288085770
2.1342392 -3.0871701 -1.7710328 4288085770
2.0064125 -3.0200338 -1.7700849 4288085770
1.8865852 -2.955904 -1.7690825 4288085770
1.7867622 -2.9018545 -1.773921 4288085770
1.6809387 -2.8427696 -1.7758269 4288085770
1.5791054 -2.784667 -1.7757112 4288085770
1.4812737 -2.7285795 -1.7765632 4288085770
1.6210613 -0.58637619 -1.8057691 4288085770
1.7001801 -0.57043266 -1.8027022 4288085770
1.7662983 -0.552423 -1.7946875 4288085770
1.87043 -0.53955412 -1.7965162 4288085770
1.9695568 -0.52566099 -1.7963698 4288085770
2.0626774 -0.5107317 -1.7932508 4288085770
2.1788063 -0.49787521 -1.795045 4288085770
2.2879276 -0.48397207 -1.7928698 4288085770
2.4160614 -0.471138 -1.7956291 4288085770
2.535181 -0.45724535 -1.7934252 4288085770
1.518343 -0.33012915 -1.7876425 4288085770
2.6673069 -0.44438505 -1.7931734 4288085770
1.6024513 -0.31616068 -1.7815402 4288085770
2.8004265 -0.43151617 -1.791919 4288085770
1.7416115 -0.30743694 -1.794227 4288085770
2.9285374 -0.41760302 -1.7866894 4288085770
1.8387222 -0.29450178 -1.7900772 4288085770
3.0776596 -0.40475082 -1.7853888 4288085770
1.9488411 -0.2816 -1.7878894 4288085770
3.2557964 -0.39297724 -1.7889937 4288085770
2.0579586 -0.26868677 -1.7847047 4288085770
3.4109116 -0.37910128 -1.7846861 4288085770
2.1990929 -0.25787544 -1.7884067 4288085770
3.5990391 -0.36831808 -1.7862525 4288085770
2.3262157 -0.24500132 -1.7871701 4288085770
3.8041706 -0.35656214 -1.7887797 4288085770
2.4903622 -0.23525333 -1.7947954 4288085770
4.0002918 -0.34374809 -1.7863435 4288085770
2.6254787 -0.22236681 -1.7915357 4288085770
4.2104111 -0.33195782 -1.7848569 4288085770
2.7805996 -0.21053076 -1.7912081 4288085770
4.4675522 -0.32229424 -1.7912136 4288085770
2.9277153 -0.19764614 -1.786914 4288085770
4.7306881 -0.31160784 -1.7945634 4288085770
3.1058445 -0.18685341 -1.7885098 4288085770
4.9838066 -0.29985094 -1.7919526 4288085770
3.2849674 -0.17504168 -1.788113 4288085770
5.2579269 -0.28712606 -1.7902914 4288085770
3.4700871 -0.1632266 -1.7866991 4288085770
5.5480423 -0.2753973 -1.7865739 4288085770
3.6762142 -0.15245152 -1.7872144 4288085770
5.8801746 -0.26477098 -1.788725 4288085770
3.8973465 -0.14171314 -1.7896863 4288085770
6.2062855 -0.25307846 -1.784904 4288085770
4.1334648 -0.12996864 -1.7901249 4288085770
6.5954094 -0.24250078 -1.78589 4288085770
4.3785954 -0.1192441 -1.7915276 4288085770
6.9845257 -0.23189211 -1.7838771 4288085770
4.6557312 -0.10958147 -1.795828 4288085770
7.4136467 -0.22032499 -1.7817585 4288085770
4.9468632 -0.098914623 -1.798098 4288085770
7.8877678 -0.20981359 -1.7805001 4288085770
5.2089691 -0.087127686 -1.7914629 4288085770
8.4088898 -0.19934988 -1.7791059 4288085770
5.5350952 -0.075475216 -1.7916425 4288085770
9.0040226 -0.19000196 -1.7814877 4288085770
5.8772182 -0.06483984 -1.7917659 4288085770
9.6031303 -0.17856741 -1.7748792 4288085770
6.2343369 -0.053189754 -1.7888565 4288085770
10.322258 -0.16833544 -1.7759135 4288085770
6.6464653 -0.043645382 -1.790768 4288085770
11.199408 -0.16134405 -1.7844608 4288085770
7.0725861 -0.032075882 -1.7886596 4288085770
12.049517 -0.15118504 -1.7791178 4288085770
7.5277023 -0.02152586 -1.7854577 4288085770
13.066643 -0.14224672 -1.7782823 4288085770
8.038826 -0.010052681 -1.7841043 4288085770
14.167755 -0.13235426 -1.7732151 4288085770
8.6259613 -0.00070714951 -1.7875113 4288085770
15.50889 -0.12478638 -1.7754345 4288085770
9.2320766 0.010689259 -1.7838845 4288085770
9.9562092 0.019895077 -1.7868966 4288085770
10.79936 0.029930115 -1.7945753 4288085770
11.665472 0.04004097 -1.7921885 4288085770
12.700613 0.049909592 -1.7963142 4288085770
13.778723 0.060833931 -1.7903274 4288085770
15.088858 0.070432663 -1.792661 4288085770
15.541508 0.3307538 -1.8061547 4288085770
14.209623 0.34528279 -1.8041073 4288085770
13.106766 0.35947752 -1.8094022 4288085770
12.017868 0.37277842 -1.8026481 4288085770
11.168009 0.38768291 -1.8082272 4288085770
10.309116 0.39970922 -1.8028029 4288085770
9.5742359 0.4125576 -1.8010325 4288085770
16.145477 0.56513953 -1.794767 4288085770
8.9583702 0.42621326 -1.8049304 4288085770
14.767595 0.57570148 -1.7948132 4288085770
8.4045105 0.43979025 -1.8096503 4288085770
13.58572 0.58701539 -1.7973064 4288085770
7.8566265 0.45243144 -1.8073434 4288085770
12.56085 0.59814548 -1.8003491 4288085770
7.4037704 0.46488667 -1.8127633 4288085770
11.594961 0.60827088 -1.797213 4288085770
7.0039234 0.47924232 -1.822051 4288085770
10.784086 0.62017369 -1.7986515 4288085770
6.5840416 0.49172235 -1.821377 4288085770
10.027199 0.63104773 -1.7969253 4288085770
6.1921635 0.50417066 -1.8206226 4288085770
9.3733253 0.64176655 -1.7989031 4288085770
5.820282 0.5166173 -1.8178108 4288085770
8.8094692 0.6553452 -1.8046522 4288085770
5.4944057 0.52798247 -1.8178568 4288085770
8.2675934 0.66595006 -1.8053086 4288085770
5.1595116 0.53941894 -1.811929 4288085770
7.7927322 0.67944002 -1.8098025 4288085770
4.893652 0.55267692 -1.8158227 4288085770
7.3718758 0.69286013 -1.8151414 4288085770
4.6097679 0.56402636 -1.8127483 4288085770
7.0010281 0.70618415 -1.8243364 4288085770
4.3588924 0.57630849 -1.8125893 4288085770
6.6161556 0.7186048 -1.8255622 4288085770
4.1150112 0.58860326 -1.8104103 4288085770
6.2732964 0.73194885 -1.8296773 4288085770
3.8501034 0.59901261 -1.7992721 4288085770
5.9064026 0.74242067 -1.8238318 4288085770
3.6442299 0.61124516 -1.7989838 4288085770
5.5825214 0.75380445 -1.8218727 4288085770
3.4293385 0.6215384 -1.7937015 4288085770
5.2776356 0.76517725 -1.8188592 4288085770
3.2484665 0.63473296 -1.7943518 4288085770
4.9907513 0.77653027 -1.8157939 4288085770
3.0856018 0.64688754 -1.7969398 4288085770
4.7448826 0.78878689 -1.8176208 4288085770
2.9157219 0.65909004 -1.7955486 4288085770
4.494997 0.80009866 -1.8144492 4288085770
2.7588463 0.67126822 -1.7951198 4288085770
4.2541142 0.81140065 -1.8112519 4288085770
4.0089474 0.81931758 -1.8046892 4288085770
2.4568443 0.69302583 -1.7931881 4288085770
3.7850513 0.82862592 -1.7973654 4288085770
2.3159618 0.70519352 -1.7906867 4288085770
3.598177 0.84181571 -1.7969928 4288085770
2.1880894 0.71731329 -1.7911519 4288085770
3.4022884 0.85206127 -1.7926092 4288085770
2.0782261 0.73137999 -1.7945938 4288085770
3.2324104 0.86524606 -1.7911936 4288085770
1.9653568 0.74447346 -1.7960323 4288085770
3.0835438 0.87936306 -1.7937356 4288085770
2.9316673 0.89153004 -1.7922627 4288085770
2.7937965 0.90564823 -1.7937769 4288085770
2.6469135 0.91783357 -1.7902915 4288085770
2.5270481 0.93192196 -1.7927598 4288085770
2.3881569 0.94312286 -1.7872429 4288085770
2.2722855 0.95723104 -1.7877012 4288085770
2.1634121 0.97134352 -1.7871419 4288085770
2.0605431 0.98542714 -1.7885671 4288085770
1.9556637 0.99854732 -1.7869862 4288085770
1.8728065 1.0155761 -1.7913949 4288085770
1.8543015 3.3589525 -1.8175272 4288085770
1.9785023 3.4307575 -1.8230346 4288085770
2.1077003 3.5045691 -1.8275518 4288085770
2.2419033 3.5793757 -1.8320671 4288085770
2.3831043 3.6561868 -1.835587 4288085770
2.5613556 3.7538416 -1.8492531 4288085770
2.7225723 3.8386083 -1.8548125 4288085770
2.8747692 3.917443 -1.8553257 4288085770
3.0539951 4.0091791 -1.8619183 4288085770
3.2221947 4.0929976 -1.8624464 4288085770
1.9244556 3.4087367 -1.8248802 4288085770
3.4104156 4.1857595 -1.8660262 4288085770
2.0536366 3.4685841 -1.8262324 4288085770
3.6116428 4.2834964 -1.8706291 4288085770
2.2188625 3.5472767 -1.8377098 4288085770
3.8268757 4.3862076 -1.8762525 4288085770
2.3570385 3.607127 -1.8380375 4288085770
4.0661278 4.4998693 -1.8839399 4288085770
2.5222473 3.6818781 -1.8444678 4288085770
4.2893505 4.6026187 -1.8855414 4288085770
2.6814365 3.7506831 -1.8468437 4288085770
4.5726395 4.7361641 -1.8993437 4288085770
2.8516388 3.822453 -1.8512247 4288085770
4.8589134 4.8667541 -1.9091027 4288085770
3.0378513 3.9021828 -1.8576561 4288085770
5.1631985 5.0043135 -1.9198945 4288085770
3.217041 3.9749675 -1.8600246 4288085770
5.463459 5.1369362 -1.9256386 4288085770
3.4072418 4.0507283 -1.8633976 4288085770
5.8027554 5.2854476 -1.937464 4288085770
3.6154594 4.1334352 -1.8698039 4288085770
6.1470432 5.4330001 -1.9452637 4288085770
3.818655 4.210207 -1.8711531 4288085770
6.5123348 5.5875435 -1.9520884 4288085770
4.0508823 4.300889 -1.8775877 4288085770
6.9166546 5.7569871 -1.9639828 4288085770
4.2860966 4.3885918 -1.8819784 4288085770
7.346981 5.9364152 -1.9749235 4288085770
4.5303192 4.4782615 -1.8883679 4288085770
7.8263416 6.1347456 -1.9899536 4288085770
4.767519 4.5610209 -1.887694 4288085770
8.3917675 6.372869 -2.0152192 4288085770
5.0767956 4.6785173 -1.9032347 4288085770
8.863081 6.5543375 -2.0190704 4288085770
5.383049 4.7880878 -1.9126893 4288085770
9.4214497 6.773633 -2.0301309 4288085770
5.692297 4.8956666 -1.9211119 4288085770
10.029846 7.0108414 -2.0442657 4288085770
6.0145454 5.0052447 -1.9285222 4288085770
10.56916 7.2062864 -2.0440943 4288085770
6.3537998 5.1187925 -1.9369328 4288085770
11.192528 7.436574 -2.0501049 4288085770
6.7100544 5.2353349 -1.9443318 4288085770
11.942972 7.7186232 -2.0653796 4288085770
7.110342 5.3687611 -1.9578099 4288085770
12.849518 8.0643682 -2.0929804 4288085770
7.4805851 5.4813247 -1.9621227 4288085770
7.9228783 5.6237068 -1.9755912 4288085770
8.3581524 5.7561569 -1.9839606 4288085770
8.8234386 5.8955507 -1.9943296 4288085770
9.315731 6.0399179 -2.004683 4288085770
9.8120136 6.1813045 -2.0129895 4288085770
10.306276 6.3127398 -2.0171831 4288085770
10.807531 6.4411917 -2.0193214 4288085770
11.403841 6.6024513 -2.0295875 4288085770
4.9165993 3.774653 -1.1248689 4293729569
4.8895321 3.70716 -1.0831383 4293729569
4.8604679 3.6396575 -1.0424131 4293729569
4.9074574 3.6019583 -1.0118324 4293729569
4.8583794 3.5244887 -0.9700442 4293729569
4.786293 3.4390428 -0.92822498 4293729569
4.7532368 3.3704975 -0.89149868 4293729569
4.7361946 3.3069005 -0.85778725 4293729569
4.7481689 3.2542386 -0.82712567 4293729569
4.8732224 3.2423177 -0.80863589 4293729569
5.0082722 3.2303863 -0.79011846 4293729569
5.113308 3.2075095 -0.76955372 4293729569
5.3704281 3.2333229 -0.76214755 4293729569
5.6565571 3.2660942 -0.75574368 4293729569
5.7194252 2.8310246 -0.57938027 4293729569
5.7314148 2.7682574 -0.55759853 4293729569
5.7974319 2.7193871 -0.53983265 4293729569
5.8214321 2.6595721 -0.52105272 4293729569
5.8374271 2.5967655 -0.50225973 4293729569
5.9084473 2.5468669 -0.48646766 4293729569
6.0074806 2.5029037 -0.47366863 4293729569
6.094511 2.4559529 -0.46086708 4293729569
6.2345562 2.4189243 -0.45003667 4293729569
6.4636364 2.4007444 -0.44418365 4293729569
6.6947098 2.3775632 -0.43826577 4293729569
7.0058079 2.3682642 -0.43529102 4293729569
16.121176 -2.9158659 -1.7719301 4288085770
15.391275 -2.9210658 -1.7688954 4288085770
14.731377 -2.9283843 -1.769641 4288085770
14.099487 -2.933743 -1.7713324 4288085770
13.502598 -2.9361262 -1.7719622 4288085770
12.949718 -2.9365902 -1.7754921 4288085770
12.388832 -2.9299984 -1.7751285 4288085770
11.864954 -2.9224563 -1.7756736 4288085770
11.393084 -2.9200263 -1.7810133 4288085770
10.883207 -2.9034758 -1.7796271 4288085770
10.448341 -2.8970842 -1.7849115 4288085770
10.025471 -2.8876805 -1.7881982 4288085770
9.6236076 -2.8763113 -1.7924501 4288085770
15.91304 -4.387681 -1.7568636 4288085770
9.1847363 -2.8508215 -1.7899731 4288085770
14.962254 -4.2746258 -1.7528572 4288085770
8.7938728 -2.8324289 -1.7912785 4288085770
14.112467 -4.172718 -1.7524365 4288085770
8.385004 -2.8039584 -1.7877541 4288085770
13.318674 -4.0748577 -1.7508119 4288085770
8.0191402 -2.7805781 -1.7880493 4288085770
12.626877 -3.9941835 -1.7556987 4288085770
7.6472759 -2.7511582 -1.7854334 4288085770
11.974083 -3.9145374 -1.7594646 4288085770
7.3234158 -2.729845 -1.7875872 4288085770
11.373281 -3.8409538 -1.7640134 4288085770
6.9845486 -2.700458 -1.7848792 4288085770
10.834482 -3.7754707 -1.7712929 4288085770
6.6856918 -2.6771708 -1.7869871 4288085770
10.292679 -3.7029366 -1.774665 4288085770
6.3918324 -2.6508651 -1.787117 4288085770
9.7808666 -3.6324224 -1.7769296 4288085770
6.1109734 -2.6255856 -1.7881987 4288085770
9.2390499 -3.5467834 -1.7714584 4288085770
5.8431187 -2.6003289 -1.7902442 4288085770
8.7242317 -3.4621716 -1.7658998 4288085770
5.5862617 -2.5740728 -1.7912707 4288085770
8.3044167 -3.4007626 -1.7687999 4288085770
5.3434067 -2.5498557 -1.7942343 4288085770
7.8665962 -3.3282762 -1.7668824 4288085770
5.1005497 -2.5226016 -1.7942339 4288085770
7.471777 -3.2638688 -1.7677488 4288085770
4.8226795 -2.480207 -1.7855116 4288085770
7.1039543 -3.2035012 -1.769492 4288085770
4.5978203 -2.451972 -1.7854731 4288085770
6.7541332 -3.143126 -1.769184 4288085770
4.392971 -2.4267912 -1.7883425 4288085770
6.4283066 -3.0878124 -1.7717532 4288085770
4.1921177 -2.4006152 -1.7912151 4288085770
6.1214848 -3.0345302 -1.775245 4288085770
3.9792595 -2.3683686 -1.7891935 4288085770
5.8156548 -2.9782138 -1.7757702 4288085770
3.7653904 -2.3330865 -1.7842108 4288085770
5.538826 -2.9279499 -1.7781422 4288085770
3.6005421 -2.3119831 -1.7899225 4288085770
5.2659931 -2.8746667 -1.7785388 4288085770
3.4176826 -2.2817793 -1.7887925 4288085770
5.012167 -2.825438 -1.7818342 4288085770
3.241827 -2.2526059 -1.7896311 4288085770
4.7583313 -2.7741742 -1.782154 4288085770
3.0679684 -2.2214108 -1.7884879 4288085770
4.5064907 -2.7198777 -1.7795042 4288085770
2.9021091 -2.1912241 -1.7873105 4288085770
4.2866573 -2.6746836 -1.7826566 4288085770
2.7452488 -2.1620588 -1.7870958 4288085770
4.0798244 -2.6305032 -1.7857603 4288085770
2.5993958 -2.1349282 -1.788826 4288085770
3.8469791 -2.5751901 -1.7800695 4288085770
2.4675426 -2.111835 -1.7924691 4288085770
3.6521378 -2.5309982 -1.7811399 4288085770
2.3346901 -2.0867286 -1.795139 4288085770
3.4883099 -2.4969201 -1.7890033 4288085770
2.1968327 -2.0575819 -1.7948709 4288085770
3.2674561 -2.4385843 -1.7803148 4288085770
2.0669746 -2.0294561 -1.7955682 4288085770
3.1076164 -2.4014626 -1.7842032 4288085770
1.9271126 -1.996273 -1.7923539 4288085770
