# .PCD v0.7 - Point Cloud Data file format
VERSION 0.7
FIELDS x y z rgb
SIZE 4 4 4 4
TYPE F F F U
COUNT 1 1 1 1
WIDTH 1118
HEIGHT 1
VIEWPOINT 0 0 0 1 0 0 0
POINTS 1118
DATA ascii
7.8498821 4.2287798 -1.8755738 4288085770
11.895138 6.0686998 -1.9668229 4288085770
7.9451389 4.3456097 -1.8851383 4288085770
12.045454 6.2414846 -1.9736443 4288085770
8.0283871 4.456471 -1.8916838 4288085770
12.262819 6.4461508 -1.9875609 4288085770
8.1046276 4.5643582 -1.8952212 4288085770
12.460169 6.6448698 -1.9964706 4288085770
8.2078896 4.6881967 -1.9018161 4288085770
12.597471 6.8177299 -1.9933108 4288085770
8.328167 4.8210039 -1.9104402 4288085770
12.817839 7.0334349 -2.0002894 4288085770
8.4394321 4.9508395 -1.9160595 4288085770
13.065224 7.2640972 -2.0093191 4288085770
8.5837269 5.0986137 -1.9257392 4288085770
13.318617 7.5027771 -2.0143883 4288085770
8.7130089 5.2404289 -1.9314044 4288085770
13.658072 7.7882986 -2.0296154 4288085770
8.8302746 5.3762875 -1.9320509 4288085770
8.9755688 5.5300903 -1.9367652 4288085770
9.1689014 5.7098031 -1.9475662 4288085770
9.3632336 5.8935323 -1.9553897 4288085770
9.6306324 6.1201053 -1.9753662 4288085770
9.838974 6.3158245 -1.9822415 4288085770
10.051317 6.515563 -1.9851351 4288085770
10.360746 6.7731066 -2.0022371 4288085770
10.646154 7.0197206 -2.0123074 4288085770
10.896524 7.2464342 -2.0123079 4288085770
11.218956 7.5200181 -2.0204868 4288085770
11.556404 7.8055897 -2.0277162 4288085770
18.967697 -0.73506451 -1.8193351 4288085770
17.607771 -0.75242472 -1.8072644 4288085770
16.470852 -0.7690897 -1.8028648 4288085770
15.55295 -0.78706551 -1.8081297 4288085770
14.668045 -0.8000555 -1.8093748 4288085770
13.864145 -0.80913258 -1.8095224 4288085770
13.138248 -0.81730509 -1.8105587 4288085770
12.488356 -0.82357645 -1.8134928 4288085770
11.855457 -0.82583141 -1.8104252 4288085770
17.861059 -1.2438574 -1.8179471 4288085770
11.260563 -0.82511759 -1.8053188 4288085770
16.614191 -1.2133822 -1.811994 4288085770
10.751673 -0.82654524 -1.8070707 4288085770
15.596331 -1.1902127 -1.8126546 4288085770
10.31279 -0.82907724 -1.8127117 4288085770
14.723473 -1.1722522 -1.8200675 4288085770
9.8639011 -0.82756138 -1.8123918 4288085770
13.860605 -1.1472368 -1.8165073 4288085770
9.431015 -0.82405186 -1.8100594 4288085770
13.10574 -1.126369 -1.8167607 4288085770
9.0651283 -0.82164907 -1.8126206 4288085770
12.442873 -1.1076188 -1.8188639 4288085770
8.7162476 -0.81927252 -1.8161563 4288085770
11.793003 -1.0858598 -1.8169655 4288085770
8.4053707 -0.81795692 -1.8226287 4288085770
11.201136 -1.0641675 -1.81498 4288085770
8.0994892 -0.81362391 -1.8251116 4288085770
10.677271 -1.0455713 -1.8158743 4288085770
7.7916088 -0.80726957 -1.8246096 4288085770
10.229408 -1.0310984 -1.8226305 4288085770
7.5007267 -0.80093479 -1.824082 4288085770
9.7615376 -1.0115428 -1.8194467 4288085770
7.2288437 -0.79362202 -1.8235317 4288085770
9.3326683 -0.99304962 -1.8191981 4288085770
6.9869652 -0.78836823 -1.8269244 4288085770
8.9548035 -0.97562695 -1.8208672 4288085770
6.7440872 -0.78008842 -1.8263365 4288085770
8.607935 -0.96025229 -1.8244773 4288085770
6.4932022 -0.76976967 -1.8207728 4288085770
8.2930698 -0.94591999 -1.8290337 4288085770
6.2813263 -0.76254368 -1.8231323 4288085770
7.9822044 -0.92958021 -1.8315959 4288085770
6.0554428 -0.75125408 -1.8175368 4288085770
7.6693325 -0.9122138 -1.8301671 4288085770
5.8625641 -0.7430439 -1.8188739 4288085770
7.3854656 -0.89489269 -1.8306947 4288085770
5.673687 -0.73383236 -1.8192109 4288085770
7.1065903 -0.87755442 -1.8272147 4288085770
5.486805 -0.72360516 -1.8165509 4288085770
6.85672 -0.86127329 -1.8276851 4288085770
5.304924 -0.71237755 -1.8128892 4288085770
6.6168537 -0.84500217 -1.8281406 4288085770
5.137043 -0.7021842 -1.8122005 4288085770
6.3609734 -0.82466555 -1.8206441 4288085770
4.9721622 -0.69098139 -1.8095133 4288085770
6.1541042 -0.80943298 -1.821044 4288085770
4.8282871 -0.68182755 -1.8107826 4288085770
5.9352283 -0.79116249 -1.8174798 4288085770
4.6764088 -0.66964102 -1.8080819 4288085770
5.7383556 -0.7749238 -1.8148705 4288085770
4.5405312 -0.65948391 -1.807345 4288085770
5.5524845 -0.75870943 -1.8142447 4288085770
4.4146576 -0.64935684 -1.8095932 4288085770
5.3636074 -0.74146748 -1.8096296 4288085770
4.3007889 -0.64025593 -1.8138174 4288085770
5.1977386 -0.7262764 -1.8089678 4288085770
5.0428658 -0.71110392 -1.8092893 4288085770
4.8869934 -0.69491243 -1.8066186 4288085770
4.7531242 -0.6807766 -1.8089027 4288085770
4.5902462 -0.66154003 -1.8002603 4288085770
4.4733772 -0.64843464 -1.8045127 4288085770
4.3505058 -0.63429928 -1.8047804 4288085770
4.2336349 -0.62017059 -1.8050389 4288085770
4.1361847 1.2453351 -1.7953842 4288085770
4.2533226 1.2651851 -1.7963344 4288085770
4.376461 1.2850223 -1.7982762 4288085770
4.4865818 1.2999165 -1.7932072 4288085770
4.5997086 1.3158069 -1.7881399 4288085770
4.7538567 1.3395777 -1.7950611 4288085770
4.8919907 1.3584144 -1.7939757 4288085770
5.0391235 1.3782353 -1.7938836 4288085770
4.1709919 1.2182531 -1.7951787 4288085770
5.2012653 1.4000199 -1.7967815 4288085770
4.2901192 1.2321072 -1.7950908 4288085770
5.3614006 1.4198191 -1.7976708 4288085770
4.4192524 1.2469311 -1.7979947 4288085770
5.5315399 1.4406064 -1.7985518 4288085770
4.5353699 1.2578063 -1.7948936 4288085770
5.7086735 1.4613798 -1.8004228 4288085770
4.6714973 1.2716279 -1.7967817 4288085770
5.8988152 1.4841433 -1.8012872 4288085770
4.8166294 1.2854331 -1.7996567 4288085770
6.0969543 1.5058916 -1.8031342 4288085770
4.9527531 1.2972784 -1.7975333 4288085770
6.3241081 1.5315757 -1.8099633 4288085770
5.1018791 1.3090966 -1.7973912 4288085770
6.5442448 1.5543036 -1.8107852 4288085770
5.2640095 1.3228812 -1.8002422 4288085770
6.7803917 1.5780005 -1.81359 4288085770
5.4221382 1.3346887 -1.8000876 4288085770
7.0205326 1.6006987 -1.8153836 4288085770
5.6092739 1.3494322 -1.804909 4288085770
7.2606659 1.6214209 -1.8131654 4288085770
5.7663879 1.3572702 -1.7997323 4288085770
7.5218048 1.6441059 -1.8129293 4288085770
5.9725266 1.3729792 -1.8065329 4288085770
7.8239536 1.6707129 -1.8176581 4288085770
6.1936684 1.3896701 -1.813318 4288085770
8.1301003 1.695333 -1.8193697 4288085770
6.4078007 1.4023879 -1.8170896 4288085770
8.4262333 1.7169886 -1.8170782 4288085770
6.6259289 1.4141121 -1.8188497 4288085770
8.745369 1.7396109 -1.81576 4288085770
6.8340492 1.4218724 -1.8166008 4288085770
9.0935097 1.7631929 -1.8154064 4288085770
7.0521622 1.4286261 -1.813332 4288085770
9.4806557 1.788717 -1.8170091 4288085770
7.3102951 1.4402909 -1.8170356 4288085770
9.8868008 1.815218 -1.8185912 4288085770
7.5554104 1.4480011 -1.8157344 4288085770
10.294931 1.8377411 -1.8161467 4288085770
7.845541 1.4596224 -1.8203926 4288085770
10.745075 1.8642018 -1.8156666 4288085770
8.1326637 1.4672709 -1.8210318 4288085770
11.263229 1.8945587 -1.8191131 4288085770
8.4337845 1.4739025 -1.8216455 4288085770
11.787374 1.9209259 -1.8195282 4288085770
8.7299004 1.4785581 -1.8192546 4288085770
12.340515 1.9482708 -1.8179082 4288085770
9.0600185 1.4831557 -1.8198156 4288085770
12.530516 1.9183545 -1.7644644 4293729569
9.4131393 1.4887195 -1.8213497 4288085770
12.409409 1.8460445 -1.6712105 4293729569
9.7742519 1.491292 -1.8198556 4288085770
12.326315 1.7786536 -1.5839319 4293729569
10.159365 1.4918303 -1.8193153 4288085770
12.698364 1.7664089 -1.5493352 4293729569
10.585482 1.4943075 -1.8207288 4288085770
13.00939 1.7432954 -1.5047609 4293729569
11.030598 1.4947624 -1.8221039 4288085770
16.90041 2.1288128 -1.8155372 4288085770
11.480701 1.4912353 -1.8194487 4288085770
18.038588 2.1743982 -1.8242005 4288085770
11.972807 1.4866462 -1.8187281 4288085770
12.494911 1.4810274 -1.8169594 4288085770
13.08202 1.4753077 -1.8190987 4288085770
13.693121 1.4655716 -1.819181 4288085770
14.34622 1.4537857 -1.8191921 4288085770
15.082317 1.4398892 -1.8210741 4288085770
15.835409 1.4209905 -1.8199033 4288085770
16.676497 1.3989816 -1.8195904 4288085770
17.652596 1.3787644 -1.8270983 4288085770
18.729689 1.3524277 -1.8344285 4288085770
10.773911 -7.9687934 -1.4596624 4293729569
10.276409 -7.654242 -1.4691855 4293729569
9.8208771 -7.3647408 -1.4774991 4293729569
9.4173145 -7.106319 -1.4885606 4293729569
9.07271 -6.8839908 -1.5033311 4293729569
8.7111149 -6.6465955 -1.5102118 4293729569
8.440464 -6.4683728 -1.5276241 4293729569
8.1628151 -6.2821183 -1.5410922 4293729569
7.8651772 -6.078794 -1.5466863 4293729569
7.6045151 -5.8995357 -1.5560896 4293729569
7.3598442 -5.7272792 -1.5624301 4293729569
10.28545 -7.660295 -1.4662111 4293729569
7.136158 -5.5680661 -1.5716661 4293729569
9.8699322 -7.3628545 -1.4765142 4293729569
6.9284611 -5.4178643 -1.5798277 4293729569
9.4773941 -7.0794282 -1.4847038 4293729569
6.7317562 -5.2726722 -1.5869445 4293729569
9.1668015 -6.8491397 -1.4994726 4293729569
6.5350494 -5.1264663 -1.5920672 4293729569
8.8462105 -6.6118054 -1.5082953 4293729569
6.3633289 -4.9953027 -1.599068 4293729569
8.5865803 -6.4135785 -1.5228076 4293729569
6.1976032 -4.8671403 -1.6050431 4293729569
8.3799114 -6.250443 -1.5420436 4293729569
6.0438652 -4.7459931 -1.6109608 4293729569
8.134264 -6.0591969 -1.5504954 4293729569
5.8951263 -4.6258378 -1.6148658 4293729569
7.904604 -5.8779721 -1.5588667 4293729569
5.745388 -4.5046782 -1.6177776 4293729569
7.6869354 -5.703753 -1.5661808 4293729569
5.6176357 -4.3975606 -1.6235777 4293729569
7.4722614 -5.5305266 -1.5714846 4293729569
5.4978771 -4.2944417 -1.6273439 4293729569
7.2985592 -5.3833728 -1.5805812 4293729569
5.399107 -4.2043757 -1.6360054 4293729569
7.1268559 -5.2382045 -1.586663 4293729569
5.2813416 -4.1012473 -1.6377681 4293729569
6.969141 -5.1000619 -1.5946847 4293729569
5.1785698 -4.0071483 -1.6414582 4293729569
6.8104229 -4.9618964 -1.5987079 4293729569
5.1677589 -3.9732938 -1.6676739 4293729569
6.6666965 -4.8317542 -1.6036637 4293729569
5.2109222 -3.9735847 -1.7076186 4293729569
6.5589504 -4.7256856 -1.6134311 4293729569
5.260088 -3.9758887 -1.7485436 4288085770
6.4132175 -4.5945125 -1.613395 4293729569
5.3032532 -3.9721665 -1.7865118 4288085770
6.3034668 -4.4864106 -1.6181761 4293729569
5.287447 -3.9292769 -1.8077866 4288085770
6.19771 -4.3803144 -1.6229399 4293729569
5.1866684 -3.8311334 -1.8034967 4288085770
6.1139431 -4.2882552 -1.6295927 4293729569
5.0988884 -3.7400169 -1.8011482 4288085770
6.0221767 -4.191174 -1.6342849 4293729569
5.0200977 -3.654911 -1.7987524 4288085770
5.9334087 -4.0940871 -1.636973 4293729569
4.9533062 -3.5768437 -1.8002995 4288085770
5.8826218 -4.0210853 -1.6464698 4293729569
4.8785114 -3.4937372 -1.7968864 4288085770
5.9217987 -4.0013194 -1.677537 4293729569
4.8237095 -3.4226775 -1.7973766 4288085770
6.008955 -4.0086694 -1.7183824 4293729569
4.7699089 -3.3516188 -1.797865 4288085770
6.1001148 -4.0150218 -1.7592281 4288085770
4.7181015 -3.2825575 -1.7973391 4288085770
6.1872768 -4.0173659 -1.7991027 4288085770
4.6782913 -3.219521 -1.798762 4288085770
6.1514835 -3.9473758 -1.8075618 4288085770
4.6374741 -3.1564784 -1.799186 4288085770
6.0806961 -3.8582864 -1.8061785 4288085770
4.5926609 -3.0914192 -1.7976271 4288085770
5.9989128 -3.7641535 -1.7998387 4288085770
4.5468502 -3.0243473 -1.7940809 4288085770
5.9331207 -3.6780524 -1.795431 4288085770
4.5350246 -2.9773741 -1.8003727 4288085770
5.8863258 -3.6020026 -1.7959393 4288085770
4.5052052 -2.9193387 -1.7997526 4288085770
5.8555222 -3.5349836 -1.7983736 4288085770
4.4983788 -2.8743658 -1.8050258 4288085770
5.818716 -3.4649401 -1.7978333 4288085770
4.4755554 -2.8203387 -1.8043729 4288085770
5.7789116 -3.3938875 -1.7963029 4288085770
4.4657288 -2.7723503 -1.8076675 4288085770
5.7540989 -3.330864 -1.7967057 4288085770
4.4489021 -2.7213302 -1.806989 4288085770
5.740284 -3.272871 -1.8000644 4288085770
4.4480705 -2.6783586 -1.8112421 4288085770
5.7064724 -3.2048078 -1.7955083 4288085770
4.417244 -2.6202869 -1.804623 4288085770
5.6896534 -3.1457882 -1.7948767 4288085770
4.4354057 -2.5863619 -1.8127984 4288085770
5.6978321 -3.0978394 -1.8011477 4288085770
4.4285755 -2.5393538 -1.8120826 4288085770
5.6810131 -3.0378079 -1.7985219 4288085770
4.4207401 -2.4923382 -1.8103685 4288085770
5.6831856 -2.987823 -1.7998123 4288085770
4.4169044 -2.4463286 -1.8086431 4288085770
5.6743622 -2.9318008 -1.7971525 4288085770
4.4170666 -2.4033237 -1.8068949 4288085770
5.7055321 -2.8938918 -1.8053343 4288085770
4.4332218 -2.3673663 -1.8100843 4288085770
5.7156944 -2.84691 -1.8055964 4288085770
4.4453831 -2.328392 -1.8112965 4288085770
5.717865 -2.7959075 -1.8038924 4288085770
4.4595413 -2.2904215 -1.8125002 4288085770
5.7350349 -2.7509398 -1.8051336 4288085770
4.4797001 -2.2554631 -1.8146784 4288085770
5.7551975 -2.7069707 -1.8053648 4288085770
4.4838543 -2.2134514 -1.8109189 4288085770
5.7753658 -2.6630015 -1.8055961 4288085770
4.5070095 -2.1794906 -1.8120872 4288085770
5.8015251 -2.6220388 -1.8058019 4288085770
4.5321636 -2.145534 -1.8132529 4288085770
5.8376884 -2.5831003 -1.8079826 4288085770
4.5583191 -2.1115766 -1.8144172 4288085770
5.8588467 -2.539115 -1.8052123 4288085770
4.5734749 -2.0725837 -1.8116252 4288085770
5.9100075 -2.5042 -1.8083498 4288085770
4.6196251 -2.0456738 -1.8167222 4288085770
5.9591618 -2.4712834 -1.8114783 4288085770
4.6397781 -2.0096865 -1.8139061 4288085770
5.9963188 -2.4313226 -1.8096635 4288085770
4.677927 -1.978745 -1.8150367 4288085770
6.0444756 -2.3953872 -1.8098106 4288085770
4.7250767 -1.9518251 -1.8181323 4288085770
6.1006298 -2.3614736 -1.8119355 4288085770
4.7432232 -1.9128122 -1.8113362 4288085770
6.1597824 -2.3295569 -1.813045 4288085770
4.8163738 -1.8939648 -1.8213507 4288085770
6.2179337 -2.2946262 -1.8121731 4288085770
4.8505211 -1.8599944 -1.8185041 4288085770
6.2890873 -2.2647367 -1.8152548 4288085770
4.8916645 -1.8290386 -1.8166308 4288085770
6.3622322 -2.2348366 -1.8163339 4288085770
4.9398136 -1.7990966 -1.8157425 4288085770
6.4363842 -2.203938 -1.8174174 4288085770
5.013958 -1.7782269 -1.8217672 4288085770
6.5195332 -2.1750507 -1.8184774 4288085770
5.0571041 -1.7462621 -1.8178973 4288085770
6.6136799 -2.1491885 -1.8215054 4288085770
5.1222515 -1.7203588 -1.819963 4288085770
6.7078285 -2.1223254 -1.8245391 4288085770
5.1933918 -1.6964617 -1.8220091 4288085770
6.8219738 -2.0994987 -1.8295232 4288085770
5.2605381 -1.669549 -1.8220781 4288085770
6.9221191 -2.0716267 -1.8295548 4288085770
5.3376827 -1.6456656 -1.8251163 4288085770
7.0312653 -2.0447698 -1.830569 4288085770
5.4198265 -1.6217828 -1.8271478 4288085770
7.1444111 -2.0189185 -1.8315718 4288085770
5.5079689 -1.5999126 -1.83016 4288085770
7.2615566 -1.993072 -1.8325696 4288085770
5.5901127 -1.5740175 -1.8302034 4288085770
7.3816986 -1.9662189 -1.8315691 4288085770
5.6842537 -1.5511494 -1.8322133 4288085770
7.5158424 -1.9423985 -1.8335326 4288085770
5.7703953 -1.5262537 -1.8312455 4288085770
7.6549816 -1.9185729 -1.8334895 4288085770
5.8605366 -1.5013628 -1.8302726 4288085770
7.8011227 -1.8937564 -1.8334434 4288085770
5.9776802 -1.4815397 -1.8352346 4288085770
7.9932652 -1.8790474 -1.8422778 4288085770
6.082819 -1.4576731 -1.835236 4288085770
8.155407 -1.8552499 -1.8422046 4288085770
6.2059574 -1.437851 -1.8391901 4288085770
8.3095417 -1.8284192 -1.8381594 4288085770
6.325098 -1.4150071 -1.8401673 4288085770
8.5096798 -1.8106971 -1.8430011 4288085770
6.4762383 -1.3982363 -1.8470672 4288085770
8.7068195 -1.7889419 -1.8428701 4288085770
6.5893764 -1.3713565 -1.8430754 4288085770
8.9029579 -1.7651744 -1.8407521 4288085770
6.7345181 -1.3505554 -1.8460066 4288085770
9.1090965 -1.7414188 -1.838621 4288085770
6.8616562 -1.3246927 -1.8419907 4288085770
9.3532314 -1.7227321 -1.8404108 4288085770
7.0127945 -1.3028822 -1.8419199 4288085770
9.5893688 -1.7010136 -1.8382286 4288085770
7.1679325 -1.2800703 -1.8408496 4288085770
9.8375034 -1.6783094 -1.8360364 4288085770
7.3300724 -1.2562666 -1.8397759 4288085770
10.161642 -1.6667547 -1.8436801 4288085770
7.5072098 -1.2344875 -1.8396708 4288085770
10.453777 -1.6451035 -1.8414245 4288085770
7.7053509 -1.2147512 -1.8425266 4288085770
10.782911 -1.6275153 -1.8420967 4288085770
7.9004879 -1.1919885 -1.8414037 4288085770
11.067043 -1.5998087 -1.8318865 4288085770
8.1096287 -1.1692486 -1.8412625 4288085770
11.463177 -1.5853128 -1.8344533 4288085770
8.3327675 -1.1475253 -1.841097 4288085770
11.842312 -1.5657673 -1.8320718 4288085770
8.5299015 -1.1207304 -1.833995 4288085770
12.287443 -1.551331 -1.8345743 4288085770
8.7620411 -1.0960007 -1.8308352 4288085770
12.772575 -1.5369387 -1.8360243 4288085770
9.008173 -1.0722823 -1.8266515 4288085770
13.312706 -1.5236173 -1.8383962 4288085770
9.2823105 -1.0486155 -1.8254305 4288085770
13.840834 -1.5042415 -1.8338189 4288085770
9.5804501 -1.024972 -1.8231783 4288085770
14.500969 -1.4940839 -1.8390158 4288085770
9.9285927 -1.0044241 -1.8268429 4288085770
15.174095 -1.4799085 -1.8382192 4288085770
10.254726 -0.97879791 -1.8215656 4288085770
15.848225 -1.4586868 -1.8294621 4288085770
10.588865 -0.95116949 -1.8142895 4288085770
16.62635 -1.4426165 -1.8245393 4288085770
10.968004 -0.9256196 -1.8109426 4288085770
17.598478 -1.4368434 -1.8303035 4288085770
11.412144 -0.90317011 -1.811493 4288085770
18.611603 -1.4250751 -1.8280492 4288085770
11.933292 -0.88185072 -1.8179364 4288085770
12.443434 -0.85647106 -1.8164176 4288085770
13.038582 -0.83222389 -1.8197814 4288085770
13.605719 -0.80187845 -1.8122172 4288085770
14.278866 -0.77470398 -1.8114964 4288085770
15.056015 -0.74666643 -1.8126448 4288085770
15.899164 -0.71569777 -1.8117241 4288085770
16.860317 -0.68488455 -1.8126488 4288085770
18.001476 -0.6533246 -1.8193429 4288085770
13.129776 1.7378368 -1.1632879 4293729569
12.516876 1.7587423 -1.1362205 4293729569
12.065006 1.7923937 -1.1190088 4293729569
11.552113 1.8131592 -1.094807 4293729569
11.139233 1.8407681 -1.0765095 4293729569
10.728348 1.8633857 -1.0561817 4293729569
11.79994 2.0539513 -0.53879368 4293729569
10.298439 1.8760495 -1.0318239 4293729569
11.432083 2.0824091 -0.53744072 4293729569
10.002569 1.9064915 -1.0173855 4293729569
11.127241 2.1187837 -0.53704739 4293729569
9.7917252 1.9477901 -1.0098938 4293729569
10.803383 2.1461933 -0.53462964 4293729569
9.5718708 1.9851105 -1.0003917 4293729569
10.442507 2.1636708 -0.52820635 4293729569
9.3970242 2.0283642 -0.99286258 4293729569
10.270679 2.2118759 -0.52870047 4293729569
9.3202095 2.0874524 -0.99329001 4293729569
10.207882 2.2799239 -0.53315872 4293729569
9.263401 2.1515048 -0.99571848 4293729569
10.2141 2.3618698 -0.54060197 4293729569
9.2265968 2.2175324 -0.99813074 4293729569
10.196312 2.4378681 -0.5440439 4293729569
9.1977978 2.2855496 -1.0005432 4293729569
10.190529 2.5178454 -0.54849166 4293729569
9.1880054 2.3585384 -1.0039579 4293729569
10.152735 2.5908794 -0.5499438 4293729569
9.1662045 2.4285529 -1.0053718 4293729569
10.167955 2.6758366 -0.55339092 4293729569
9.1754169 2.5055177 -1.0087829 4293729569
10.168169 2.7558289 -0.55383039 4293729569
9.1646214 2.5775242 -1.0091931 4293729569
10.181387 2.8407998 -0.55528015 4293729569
9.1748314 2.6554992 -1.0106082 4293729569
10.177597 2.9218082 -0.55373049 4293729569
9.1660328 2.7285142 -1.009021 4293729569
10.193815 3.007792 -0.55218154 4293729569
9.1512318 2.8005428 -1.0064365 4293729569
10.213036 3.0967779 -0.54964513 4293729569
9.1384354 2.8735671 -1.0028682 4293729569
10.247265 3.1887388 -0.54711521 4293729569
9.1586475 2.9555471 -1.0012861 4293729569
10.333509 3.2966368 -0.5455873 4293729569
9.1528416 3.0285816 -0.99568909 4293729569
10.244677 3.3548019 -0.53501827 4293729569
9.166048 3.1085868 -0.9911052 4293729569
9.1872597 3.191577 -0.98752701 4293729569
9.2434864 3.2855177 -0.98496246 4293729569
9.2827034 3.3754966 -0.97939849 4293729569
9.3219204 3.4664807 -0.97284013 4293729569
9.4291706 3.5783472 -0.97230572 4293729569
18.089544 -0.31508255 -1.8259635 4288085770
16.702637 -0.31932402 -1.8160651 4288085770
15.574738 -0.32392025 -1.8127667 4288085770
14.615849 -0.32676268 -1.8162184 4288085770
13.726959 -0.32766247 -1.8145741 4288085770
12.978075 -0.32876778 -1.8187133 4288085770
12.25919 -0.32688141 -1.817824 4288085770
18.501057 -0.49156189 -1.8152237 4288085770
11.552296 -0.32196617 -1.8089339 4288085770
17.05518 -0.47073698 -1.8065631 4288085770
10.957407 -0.31923246 -1.8078592 4288085770
15.88031 -0.45429373 -1.8064601 4288085770
10.403521 -0.31453753 -1.8047328 4288085770
14.861443 -0.4390521 -1.8081104 4288085770
9.9266415 -0.30996418 -1.8064872 4288085770
13.93557 -0.42290735 -1.8066229 4288085770
9.479763 -0.30542231 -1.8071955 4288085770
13.178713 -0.41003036 -1.815856 4288085770
9.0588818 -0.29990673 -1.8068694 4288085770
12.454844 -0.39614964 -1.8170449 4288085770
8.6900024 -0.29447651 -1.8104634 4288085770
11.703959 -0.37817049 -1.8062997 4288085770
8.3461304 -0.28807735 -1.8140237 4288085770
11.101088 -0.36443186 -1.8063017 4288085770
8.0312557 -0.28171396 -1.8175393 4288085770
10.545216 -0.34974098 -1.8042368 4288085770
7.7063751 -0.27430439 -1.8150769 4288085770
10.044348 -0.336133 -1.805081 4288085770
7.4104958 -0.26694298 -1.8145696 4288085770
9.5994778 -0.32360458 -1.8078327 4288085770
7.1276188 -0.2585907 -1.8130479 4288085770
9.1736088 -0.31008387 -1.8075612 4288085770
6.8697433 -0.25028038 -1.8134874 4288085770
8.7847347 -0.29760695 -1.8072265 4288085770
6.6278648 -0.24298429 -1.8128968 4288085770
8.4538727 -0.2852354 -1.8128016 4288085770
6.3929863 -0.23369074 -1.8113067 4288085770
8.1310081 -0.27286196 -1.8163648 4288085770
6.1721077 -0.22542048 -1.8106896 4288085770
7.8061352 -0.25945854 -1.8149371 4288085770
5.963232 -0.21615887 -1.8090594 4288085770
7.4922562 -0.24605274 -1.8104929 4288085770
5.7523499 -0.20687819 -1.8044327 4288085770
7.2213898 -0.23373175 -1.8119757 4288085770
5.5684738 -0.19765949 -1.8047639 4288085770
6.9445133 -0.22037601 -1.8084743 4288085770
5.394598 -0.18844604 -1.8040795 4288085770
6.7086449 -0.20809889 -1.809903 4288085770
5.229723 -0.17924929 -1.8043814 4288085770
6.4807739 -0.19481897 -1.8093252 4288085770
5.0608463 -0.16902637 -1.8006954 4288085770
6.2609005 -0.18255043 -1.8087296 4288085770
4.9169693 -0.15986061 -1.8019649 4288085770
6.0490227 -0.1702795 -1.8061219 4288085770
4.7740955 -0.1496911 -1.8022385 4288085770
5.8441448 -0.15701246 -1.8025091 4288085770
4.6452236 -0.14054966 -1.8044844 4288085770
5.6582756 -0.14377928 -1.8008665 4288085770
4.5213547 -0.13041401 -1.8067281 4288085770
5.4813995 -0.13155699 -1.7992042 4288085770
4.3894749 -0.12023592 -1.8029851 4288085770
5.3135262 -0.11934614 -1.7975283 4288085770
4.2726021 -0.11010408 -1.8042183 4288085770
5.160656 -0.1071701 -1.7988287 4288085770
5.0137844 -0.094989777 -1.79812 4288085770
4.8689137 -0.081812859 -1.7974139 4288085770
4.7350368 -0.069643021 -1.7956849 4288085770
4.6081696 -0.057493687 -1.7959454 4288085770
4.4902992 -0.045360088 -1.7971915 4288085770
4.3654213 -0.033190727 -1.7934492 4288085770
4.2575531 -0.020069599 -1.7946852 4288085770
4.2294064 1.9804161 -1.8008822 4288085770
4.3195343 2.0023446 -1.7928413 4288085770
4.4366875 2.0331912 -1.7938032 4288085770
4.5618477 2.0660172 -1.796762 4288085770
4.6829967 2.0958703 -1.7957113 4288085770
4.8201561 2.1306868 -1.79766 4288085770
4.9573116 2.1635089 -1.7985977 4288085770
5.1004658 2.1963294 -1.7985249 4288085770
4.2121754 1.9144168 -1.7974952 4288085770
5.2376156 2.2271683 -1.7964511 4288085770
4.3433342 1.9432194 -1.8034215 4288085770
5.40378 2.2649388 -1.8003656 4288085770
4.4394569 1.9591351 -1.7963369 4288085770
5.5599327 2.2977488 -1.7992696 4288085770
4.5646038 1.9829667 -1.7982459 4288085770
5.7390995 2.3365092 -1.8021667 4288085770
4.6877422 2.004817 -1.7971472 4288085770
5.9062519 2.3693061 -1.8010511 4288085770
4.813879 2.0256641 -1.7960376 4288085770
6.0994205 2.4100494 -1.8039343 4288085770
4.9660416 2.054441 -1.8019269 4288085770
6.296587 2.4497933 -1.8058048 4288085770
5.0881653 2.0713146 -1.7968019 4288085770
6.5007515 2.4885287 -1.8076576 4288085770
5.2873554 2.11198 -1.8126751 4288085770
6.7369366 2.5361977 -1.814504 4288085770
5.3964634 2.1219018 -1.8015338 4288085770
6.9661083 2.5788975 -1.8173347 4288085770
5.5536041 2.1447055 -1.8013806 4288085770
7.1832619 2.6146386 -1.8151474 4288085770
5.7557831 2.1803889 -1.8132204 4288085770
7.424427 2.6553349 -1.8159456 4288085770
5.8938999 2.193254 -1.8060449 4288085770
7.6825962 2.6990042 -1.8177307 4288085770
6.079052 2.2200072 -1.8088645 4288085770
7.9607735 2.7456391 -1.821497 4288085770
6.2912216 2.2516952 -1.817664 4288085770
8.2839756 2.8031917 -1.830245 4288085770
16.54534 -5.387465 -0.6851725 4293729569
16.449356 -5.4835544 -0.71863919 4293729569
18.889071 -7.9775014 -1.4862539 4293729569
18.063496 -7.7743039 -1.4927485 4293729569
11.017258 -4.9031043 -0.37283707 4293729569
17.269917 -7.5721469 -1.4981933 4293729569
10.937353 -4.9512658 -0.41361225 4293729569
10.981205 -5.0015121 -1.0342212 4293729569
10.922417 -5.0255427 -0.45712143 4293729569
10.949272 -5.0697637 -1.077795 4293729569
10.940456 -5.1138816 -0.50249046 4293729569
10.956327 -5.155108 -1.1261992 4293729569
14.60544 -6.8793464 -1.5284989 4293729569
14.028801 -6.7215323 -1.5363504 4293729569
13.439173 -6.5516667 -1.539302 4293729569
12.922516 -6.4039426 -1.547004 4293729569
12.405863 -6.2501988 -1.5517474 4293729569
11.956184 -6.1195807 -1.5602425 4293729569
11.532497 -5.9970155 -1.5706481 4293729569
11.100817 -5.8623977 -1.5751468 4293729569
10.674141 -5.7237821 -1.5786661 4293729569
10.207493 -5.5580382 -1.5724249 4293729569
9.7718315 -5.4033542 -1.5680668 4293729569
14.370207 -7.7896953 -1.4745334 4293729569
9.407135 -5.278831 -1.5714066 4293729569
13.686739 -7.5207505 -1.4872898 4293729569
9.1263962 -5.1924977 -1.5843725 4293729569
13.061235 -7.272881 -1.4978243 4293729569
8.8276711 -5.0930991 -1.5914521 4293729569
12.48171 -7.0400853 -1.5091935 4293729569
8.5249481 -4.985682 -1.5965919 4293729569
11.938166 -6.8193374 -1.5194325 4293729569
8.2662067 -4.8973613 -1.6065419 4293729569
11.434601 -6.6126485 -1.5295213 4293729569
8.0384502 -4.8231091 -1.6193539 4293729569
10.960022 -6.4149947 -1.5385092 4293729569
7.7487316 -4.7116761 -1.6195037 4293729569
10.49444 -6.2173409 -1.5454855 4293729569
7.4909973 -4.6123109 -1.6225278 4293729569
10.027864 -6.0116525 -1.5475179 4293729569
7.2382622 -4.5129533 -1.6255455 4293729569
9.5942688 -5.8180146 -1.5494236 4293729569
7.0205097 -4.4296689 -1.6314059 4293729569
9.250618 -5.6705766 -1.5608917 4293729569
6.8177509 -4.352427 -1.6402049 4293729569
8.9169655 -5.525147 -1.5713333 4293729569
6.6079998 -4.2671456 -1.6450683 4293729569
8.5913067 -5.3777013 -1.5777773 4293729569
6.3822594 -4.1688027 -1.6440425 4293729569
8.3006306 -5.2473283 -1.5870577 4293729569
6.1685104 -4.07447 -1.6419731 4293729569
8.0059566 -5.1099305 -1.5933915 4293729569
6.0257244 -4.0193496 -1.6555398 4293729569
7.7612514 -4.998632 -1.6034794 4293729569
5.959898 -4.0084577 -1.6857003 4293729569
7.4755745 -4.8592143 -1.604815 4293729569
5.9090652 -4.0046086 -1.7187921 4293729569
7.2228775 -4.7358623 -1.608996 4293729569
5.8732319 -4.0078149 -1.7568154 4288085770
7.0001659 -4.627584 -1.6170336 4293729569
5.8303986 -4.0059905 -1.7918825 4288085770
6.7794514 -4.5172887 -1.6220824 4293729569
5.727602 -3.9649701 -1.8112987 4288085770
6.5737247 -4.4140162 -1.6270628 4293729569
5.5358505 -3.8666301 -1.8032267 4288085770
6.3650074 -4.3047242 -1.6300883 4293729569
5.3730869 -3.7833805 -1.8020126 4288085770
6.1802711 -4.2084832 -1.6349924 4293729569
5.2093201 -3.6981087 -1.7978137 4288085770
6.0065327 -4.1152635 -1.6408607 4293729569
5.0715466 -3.625916 -1.7994899 4288085770
5.8397846 -4.0250411 -1.6446992 4293729569
4.919775 -3.5446553 -1.7942474 4288085770
5.791975 -4.0051837 -1.6758947 4293729569
4.7929916 -3.475472 -1.7948883 4288085770
5.7811432 -4.0074401 -1.7158893 4293729569
4.6742077 -3.4103079 -1.7964908 4288085770
5.772316 -4.0087066 -1.7568873 4288085770
5.7534943 -4.0019326 -1.7939538 4288085770
5.6477222 -3.9398751 -1.8085166 4288085770
5.4689846 -3.8315473 -1.799495 4288085770
5.3252296 -3.7423258 -1.798295 4288085770
5.182476 -3.652092 -1.7951007 4288085770
5.0607071 -3.5739164 -1.7957954 4288085770
4.9299412 -3.4886947 -1.7915505 4288085770
4.8281631 -3.4195623 -1.7941561 4288085770
4.7163792 -3.3433871 -1.7928241 4288085770
4.6106014 -3.2692161 -1.7904695 4288085770
4.6124592 -1.0666323 -1.8148432 4288085770
4.6875992 -1.0487356 -1.8128424 4288085770
4.7697258 -1.0328522 -1.8128172 4288085770
4.8598652 -1.0159979 -1.8137909 4288085770
4.9490013 -0.99912834 -1.8127661 4288085770
5.0451355 -0.98427629 -1.8127172 4288085770
5.1512737 -0.96945238 -1.8146527 4288085770
5.2704144 -0.9556613 -1.8185614 4288085770
5.3695488 -0.93879366 -1.815521 4288085770
5.484684 -0.92397022 -1.8154426 4288085770
5.6218204 -0.91120577 -1.8193166 4288085770
5.751955 -0.89741135 -1.8202082 4288085770
4.606266 -0.71663809 -1.8121644 4288085770
5.8850918 -0.88261366 -1.8201017 4288085770
4.7053986 -0.70178986 -1.8121105 4288085770
6.0262222 -0.86782837 -1.8199829 4288085770
4.8135338 -0.68796253 -1.8130361 4288085770
6.1753578 -0.85405588 -1.8198448 4288085770
4.9186649 -0.67311001 -1.8109727 4288085770
6.3374939 -0.84030867 -1.8206867 4288085770
5.0338001 -0.6592927 -1.8118871 4288085770
6.5016251 -0.82655716 -1.8205253 4288085770
5.1549339 -0.64547873 -1.8117923 4288085770
6.6917629 -0.81386518 -1.8233173 4288085770
5.2990742 -0.63273144 -1.816655 4288085770
6.8968983 -0.8032093 -1.8280725 4288085770
5.4232044 -0.61890745 -1.8145554 4288085770
7.0810299 -0.78846788 -1.8248868 4288085770
5.5623398 -0.60511923 -1.8144325 4288085770
7.297163 -0.77580786 -1.8266383 4288085770
5.7034721 -0.59032726 -1.8133131 4288085770
7.5162964 -0.76313877 -1.8263851 4288085770
5.8576031 -0.57756138 -1.8131603 4288085770
7.7394276 -0.748456 -1.8231388 4288085770
6.0227413 -0.56381893 -1.8139971 4288085770
7.9885578 -0.73582506 -1.821839 4288085770
6.1998749 -0.55109406 -1.8148086 4288085770
8.2416897 -0.72118711 -1.8185462 4288085770
6.3840084 -0.53738022 -1.8156157 4288085770
8.5298214 -0.70962715 -1.8191792 4288085770
6.5811424 -0.52468491 -1.8163961 4288085770
8.821949 -0.69605398 -1.8168193 4288085770
6.7862778 -0.51200199 -1.8171639 4288085770
9.1240768 -0.68247557 -1.8114438 4288085770
7.0134125 -0.49936533 -1.8198977 4288085770
9.462204 -0.66896343 -1.8080126 4288085770
7.2575474 -0.48675346 -1.8226051 4288085770
9.8473339 -0.65855503 -1.8094885 4288085770
7.493679 -0.47310305 -1.8213314 4288085770
10.262465 -0.64717817 -1.8089246 4288085770
7.7308083 -0.4584341 -1.8170629 4288085770
10.698595 -0.63582563 -1.807328 4288085770
8.0269451 -0.44590044 -1.8196895 4288085770
11.183722 -0.62455368 -1.8066555 4288085770
8.3020706 -0.43228817 -1.8153552 4288085770
11.77486 -0.61649227 -1.8137988 4288085770
8.6222057 -0.41877747 -1.8159511 4288085770
12.416998 -0.60950708 -1.8208563 4288085770
8.9493332 -0.40524864 -1.8125359 4288085770
13.033123 -0.59740973 -1.8169872 4288085770
9.2994652 -0.39075518 -1.8090917 4288085770
13.703243 -0.58536625 -1.8090343 4288085770
9.7055988 -0.37837887 -1.8105476 4288085770
14.538376 -0.57765579 -1.813799 4288085770
10.145739 -0.3650589 -1.8129569 4288085770
15.421503 -0.56796217 -1.8105028 4288085770
10.613869 -0.35176086 -1.8123229 4288085770
16.449635 -0.55951214 -1.8109748 4288085770
11.106998 -0.33747435 -1.8076566 4288085770
17.660763 -0.55235481 -1.8141568 4288085770
11.727144 -0.32445621 -1.8147867 4288085770
19.177906 -0.55073309 -1.828831 4288085770
12.420294 -0.31356764 -1.8247902 4288085770
13.115427 -0.29961443 -1.8248101 4288085770
13.840557 -0.28366661 -1.8187969 4288085770
14.739695 -0.270051 -1.8235004 4288085770
15.690832 -0.25446653 -1.8211361 4288085770
16.877981 -0.24030018 -1.8283989 4288085770
18.268135 -0.22545671 -1.8383533 4288085770
11.768124 2.1212714 -0.4504261 4293729569
11.448248 2.1579111 -0.42515856 4293729569
11.286417 2.216289 -0.40378875 4293729569
18.523304 0.042612076 -1.8303314 4288085770
17.125418 0.051710606 -1.8263448 4288085770
15.955545 0.060441017 -1.8270372 4288085770
14.935669 0.069936752 -1.8295246 4288085770
14.024794 0.079278469 -1.8308582 4288085770
13.146904 0.089640141 -1.8211508 4288085770
12.451036 0.09963274 -1.8271878 4288085770
18.915192 0.15805435 -1.8246149 4288085770
11.750151 0.10970783 -1.821231 4288085770
17.509315 0.17114496 -1.8236573 4288085770
11.095263 0.11872768 -1.8132027 4288085770
16.288443 0.18395638 -1.8234396 4288085770
10.579395 0.12946701 -1.8169923 4288085770
15.23457 0.19652081 -1.8229877 4288085770
10.088518 0.13920021 -1.8157401 4288085770
14.331703 0.20883131 -1.8273242 4288085770
9.6336441 0.14987469 -1.8154433 4288085770
13.443821 0.22118831 -1.8206384 4288085770
9.2157669 0.16048765 -1.8160939 4288085770
12.74295 0.23319411 -1.8256909 4288085770
8.8638973 0.17097855 -1.8206525 4288085770
12.032068 0.24428368 -1.8197504 4288085770
8.5180283 0.18146658 -1.8242022 4288085770
11.407192 0.25622129 -1.8176959 4288085770
8.1941605 0.19292879 -1.8267272 4288085770
10.838314 0.26808214 -1.8145627 4288085770
7.8832855 0.20338988 -1.8262272 4288085770
10.35745 0.28076959 -1.8183125 4288085770
7.5834084 0.2138412 -1.8247116 4288085770
9.9065781 0.29243088 -1.8190141 4288085770
7.3185368 0.22522879 -1.8251534 4288085770
9.4737015 0.30408525 -1.81669 4288085770
7.0726681 0.23657513 -1.8275682 4288085770
9.1098385 0.31659317 -1.8212758 4288085770
6.8057823 0.24601555 -1.8199995 4288085770
8.7589684 0.32910109 -1.8228432 4288085770
6.5769062 0.25736213 -1.81839 4288085770
8.4631062 0.34149623 -1.8293338 4288085770
6.3650341 0.268677 -1.8177569 4288085770
8.1652412 0.35491347 -1.8328331 4288085770
6.1661606 0.27896714 -1.818099 4288085770
7.8733673 0.3663466 -1.832311 4288085770
5.9752846 0.29025745 -1.8164361 4288085770
7.614502 0.37870598 -1.8357493 4288085770
5.790411 0.30153918 -1.8147644 4288085770
7.3656349 0.39206314 -1.8371795 4288085770
5.6055298 0.31183958 -1.8100864 4288085770
7.0997486 0.40249562 -1.8306143 4288085770
5.4336529 0.3231144 -1.8063965 4288085770
6.8438702 0.41391349 -1.8240409 4288085770
5.2887802 0.33431816 -1.8076687 4288085770
6.6309929 0.42523623 -1.8224078 4288085770
5.124897 0.34459376 -1.8019609 4288085770
6.4241199 0.43755007 -1.8207724 4288085770
4.9970303 0.35677195 -1.8032156 4288085770
6.2352467 0.44983125 -1.820112 4288085770
4.8771648 0.36892033 -1.8074592 4288085770
6.0623779 0.46207643 -1.8214293 4288085770
4.740284 0.38014317 -1.8037199 4288085770
5.8754997 0.47337961 -1.8167592 4288085770
4.6224136 0.39131951 -1.8029541 4288085770
5.7076244 0.48564196 -1.8140692 4288085770
5.5427475 0.49690652 -1.8103683 4288085770
5.3828678 0.50816989 -1.8056602 4288085770
5.2359924 0.52040768 -1.8019403 4288085770
5.1001167 0.53262329 -1.7992053 4288085770
4.9732456 0.54481268 -1.7984576 4288085770
4.864378 0.5579567 -1.8006914 4288085770
4.7284927 0.56820965 -1.7919431 4288085770
4.6296272 0.58233905 -1.7941689 4288085770
8.5644207 3.0551143 -4.7425132 4282675967
8.5986958 3.1318378 -4.7789483 4282675967
4.6703358 2.9429598 -1.8029307 4288085770
4.7935314 2.9987693 -1.8041164 4288085770
4.9237309 3.0565619 -1.8063052 4288085770
5.0829582 3.1282749 -1.8145427 4288085770
5.2361736 3.1950154 -1.8197571 4288085770
5.380373 3.2548003 -1.8199403 4288085770
5.5816326 3.3424144 -1.8342218 4288085770
5.7488461 3.4101529 -1.8364248 4288085770
4.5750465 2.8560634 -1.8045192 4288085770
5.930069 3.4828589 -1.8406403 4288085770
4.6932201 2.8988986 -1.8026314 4288085770
6.1232986 3.5595472 -1.8448648 4288085770
4.8304081 2.948669 -1.8067619 4288085770
6.3285389 3.6402054 -1.8510987 4288085770
4.972599 2.9994445 -1.8088923 4288085770
6.544775 3.7228537 -1.8563306 4288085770
5.1117802 3.0462308 -1.810002 4288085770
6.7690182 3.8074903 -1.8615649 4288085770
5.2649708 3.0979838 -1.8131245 4288085770
7.0042648 3.8941112 -1.866797 4288085770
5.4672127 3.1735911 -1.8283312 4288085770
7.2595215 3.98769 -1.8740467 4288085770
5.6223965 3.2223601 -1.8284329 4288085770
7.5177784 4.080277 -1.8792865 4288085770
5.810606 3.2840376 -1.8355719 4288085770
7.7940369 4.1778374 -1.8845341 4288085770
5.9797916 3.3347862 -1.8356681 4288085770
8.0983143 4.2843385 -1.8928008 4288085770
6.1629887 3.390502 -1.8377769 4288085770
8.4226036 4.3967986 -1.9030789 4288085770
6.3692017 3.4541593 -1.8439052 4288085770
8.7769146 4.5212016 -1.9153923 4288085770
6.5734081 3.5138321 -1.8480119 4288085770
9.138216 4.6416073 -1.9256722 4288085770
6.7986259 3.5804553 -1.8551345 4288085770
9.594595 4.8027873 -1.9500817 4288085770
7.0238342 3.6430976 -1.8592328 4288085770
9.9408627 4.9082766 -1.9502894 4288085770
7.2560482 3.7077236 -1.8643342 4288085770
10.539341 5.1221495 -1.9908425 4288085770
7.5032616 3.7743273 -1.8694291 4288085770
11.09676 5.3091698 -2.017283 4282675967
7.7504711 3.8379436 -1.8725055 4288085770
11.452993 5.4027128 -2.0064049 4282675967
8.0156898 3.9065213 -1.8775898 4288085770
11.770182 5.4733691 -1.9864358 4288085770
8.3059196 3.9810503 -1.884679 4288085770
12.151413 5.5658884 -1.9735199 4288085770
8.5761261 4.0436392 -1.8867203 4288085770
12.678751 5.7170825 -1.9787791 4288085770
8.9073734 4.1280894 -1.8968186 4288085770
13.232098 5.8712387 -1.9840236 4288085770
9.235611 4.2065568 -1.9048841 4288085770
13.854477 6.0462632 -1.9943087 4288085770
9.5658417 4.2820334 -1.910929 4288085770
14.582922 6.2570829 -2.0126796 4288085770
9.8670387 4.3415966 -1.9099129 4288085770
15.306339 6.4549541 -2.0239773 4288085770
10.151209 4.3882275 -1.9018393 4288085770
16.009718 6.6359038 -2.0271971 4288085770
10.630527 4.5093694 -1.9269758 4288085770
16.831161 6.8526249 -2.0394871 4288085770
11.168877 4.6454 -1.9561294 4288085770
17.703619 7.0772848 -2.0497613 4282675967
11.634155 4.7456307 -1.970156 4288085770
18.698132 7.3367224 -2.0670948 4282675967
11.946304 4.7832518 -1.9569924 4288085770
12.26445 4.8178649 -1.9438031 4288085770
12.704666 4.8912072 -1.9456969 4288085770
13.146877 4.959558 -1.945558 4288085770
13.651119 5.0427818 -1.9514321 4288085770
14.14934 5.1170325 -1.9542592 4288085770
9.58428 3.5025744 -1.3221292 4293729569
9.5422096 3.4199226 -1.2746767 4293729569
9.4981422 3.3372674 -1.2282265 4293729569
9.4931011 3.267518 -1.1878066 4293729569
9.483057 3.19577 -1.1483808 4293729569
9.4800186 3.1270056 -1.1099646 4293729569
10.339823 3.3555818 -0.6482712 4293729569
9.4799843 3.0572248 -1.0735383 4293729569
10.514864 3.3325012 -0.61891049 4293729569
9.4809513 2.9884295 -1.0391171 4293729569
10.599859 3.2805772 -0.58548689 4293729569
9.4849224 2.9216304 -1.0047045 4293729569
10.638832 3.2167263 -0.55104846 4293729569
9.4758873 2.8498435 -0.97127771 4293729569
10.700815 3.1558297 -0.51859927 4293729569
9.4658508 2.7780581 -0.93785238 4293729569
10.88685 3.127727 -0.49019486 4293729569
9.4458122 2.7032814 -0.9054215 4293729569
11.010859 3.0807152 -0.46175289 4293729569
9.4487839 2.6344588 -0.87499803 4293729569
11.105848 3.0247581 -0.43129283 4293729569
9.4517574 2.5646238 -0.84656864 4293729569
11.172829 2.9608417 -0.4008196 4293729569
9.4567356 2.4967794 -0.81914914 4293729569
9.6097755 2.4616518 -0.80274373 4293729569
9.7738209 2.4274955 -0.78833073 4293729569
9.8358212 2.3685315 -0.76689434 4293729569
9.9008179 2.3085566 -0.7464481 4293729569
9.9508114 2.2456102 -0.72500277 4293729569
10.078833 2.1965127 -0.70954436 4293729569
10.239862 2.1513548 -0.69606882 4293729569
10.453913 2.1150894 -0.68758148 4293729569
10.74798 2.0886886 -0.6820544 4293729569
11.162081 2.0780642 -0.68447369 4293729569
11.333097 2.0238798 -0.67293161 4293729569
11.756187 2.0052485 -0.67429155 4293729569
12.207273 1.9845645 -0.67760426 4293729569
19.240633 -4.1258187 -1.8031335 4288085770
18.576763 -4.1148601 -1.8040267 4288085770
17.931898 -4.0989213 -1.8039261 4288085770
17.29804 -4.0759921 -1.8028537 4288085770
16.646193 -4.0430131 -1.7978636 4288085770
16.071341 -4.0181851 -1.7987292 4288085770
15.533484 -3.9944072 -1.7995424 4288085770
15.009636 -3.9676566 -1.8013561 4288085770
14.51679 -3.9409509 -1.8031311 4288085770
14.035946 -3.9092517 -1.8029209 4288085770
13.562107 -3.8735623 -1.8027261 4288085770
13.177254 -3.8570561 -1.811306 4288085770
18.690773 -5.4609942 -1.6268556 4293729569
12.752415 -3.8234506 -1.8130376 4288085770
17.714115 -5.2985482 -1.6230454 4293729569
12.363571 -3.7939081 -1.8166999 4288085770
16.798443 -5.1411786 -1.617128 4293729569
11.899755 -3.7371855 -1.8086182 4288085770
15.972754 -4.9999576 -1.6140027 4293729569
11.549911 -3.709713 -1.8142198 4288085770
15.306023 -4.8970389 -1.6224506 4293729569
11.179081 -3.6711788 -1.8149136 4288085770
14.656294 -4.7891212 -1.6269072 4293729569
10.835249 -3.6357031 -1.8185556 4288085770
14.024567 -4.6802163 -1.6293471 4293729569
10.446428 -3.5821009 -1.8123615 4288085770
13.442829 -4.5783906 -1.6326823 4293729569
10.086609 -3.5305529 -1.8081193 4288085770
12.886089 -4.4786029 -1.6359779 4293729569
9.7617855 -3.4870758 -1.8067857 4288085770
12.456316 -4.4120622 -1.6499037 4293729569
9.4609547 -3.4476433 -1.8073901 4288085770
12.043541 -4.3465343 -1.661803 4293729569
9.1541328 -3.4001842 -1.8050506 4288085770
11.740728 -4.3142457 -1.6863673 4293729569
8.8763046 -3.3607855 -1.805627 4288085770
11.507896 -4.3031039 -1.7187188 4293729569
8.5944805 -3.3153696 -1.8042448 4288085770
11.286066 -4.2919869 -1.7520567 4293729569
8.3286572 -3.2719822 -1.8038307 4288085770
11.067236 -4.2778535 -1.7824092 4288085770
8.0718307 -3.2286029 -1.802406 4288085770
10.770441 -4.2315297 -1.8000512 4288085770
7.8579941 -3.1973271 -1.8078555 4288085770
10.387672 -4.1489873 -1.802017 4288085770
7.6351643 -3.1600204 -1.8103524 4288085770
10.006914 -4.0614343 -1.8020104 4288085770
7.4033356 -3.1166763 -1.8088969 4288085770
9.6471424 -3.9779058 -1.800954 4288085770
7.1825085 -3.073349 -1.807428 4288085770
9.3223667 -3.9034524 -1.8038001 4288085770
6.9846783 -3.0370784 -1.8098884 4288085770
9.0085869 -3.830009 -1.8056269 4288085770
6.7868481 -2.9978027 -1.8113669 4288085770
8.6958103 -3.7525487 -1.8044766 4288085770
6.5750256 -2.9504762 -1.807911 4288085770
8.4020329 -3.6781278 -1.8052847 4288085770
6.4011936 -2.9162412 -1.8103299 4288085770
8.1382446 -3.6137691 -1.8089956 4288085770
6.2133636 -2.8739676 -1.8098145 4288085770
7.8634605 -3.5413642 -1.8077683 4288085770
6.0415344 -2.8357234 -1.8102552 4288085770
7.6176701 -3.4770198 -1.8094573 4288085770
5.8627071 -2.7924504 -1.8077347 4288085770
7.3588829 -3.4036255 -1.8062165 4288085770
5.7168732 -2.7592673 -1.8121132 4288085770
7.1390839 -3.3443184 -1.8078432 4288085770
5.5590401 -2.7210379 -1.8115367 4288085770
6.9132881 -3.2799835 -1.8065075 4288085770
5.404211 -2.6808062 -1.8099686 4288085770
6.6854973 -3.2106295 -1.8022045 4288085770
5.2593803 -2.642601 -1.8103763 4288085770
6.4756985 -3.1473126 -1.7998431 4288085770
5.1045475 -2.5993519 -1.8058263 4288085770
6.2888908 -3.0920529 -1.8014051 4288085770
4.976717 -2.5651832 -1.8081887 4288085770
6.0970898 -3.0317683 -1.8000033 4288085770
4.8728752 -2.541091 -1.817461 4288085770
5.9282799 -2.980535 -1.801519 4288085770
4.7380371 -2.5008831 -1.8148685 4288085770
5.7734604 -2.9323401 -1.8059993 4288085770
4.6032047 -2.4586616 -1.810288 4288085770
5.6186466 -2.8831267 -1.8074857 4288085770
5.4598351 -2.8298898 -1.8060012 4288085770
5.3170223 -2.7817001 -1.8084667 4288085770
5.161211 -2.72545 -1.8039967 4288085770
5.0343914 -2.6822886 -1.8074123 4288085770
4.9115696 -2.6391344 -1.8108231 4288085770
4.7857494 -2.5919514 -1.8102615 4288085770
4.6739292 -2.5498056 -1.8126527 4288085770
4.6425037 -0.25096464 -1.7974974 4288085770
4.7626362 -0.2391634 -1.8014203 4288085770
4.8697624 -0.22629499 -1.7973653 4288085770
4.9888916 -0.21446085 -1.7962893 4288085770
5.1250248 -0.2026701 -1.7981925 4288085770
5.2651577 -0.19088459 -1.8000906 4288085770
5.403286 -0.1790781 -1.7989913 4288085770
5.5394115 -0.16724491 -1.7938944 4288085770
4.5785637 -0.10793781 -1.8044251 4288085770
5.7125454 -0.15552378 -1.7987517 4288085770
4.7026901 -0.097123623 -1.8053371 4288085770
5.8956814 -0.14481688 -1.8035908 4288085770
4.8218174 -0.086284161 -1.8032551 4288085770
6.0828114 -0.13409758 -1.8054248 4288085770
4.9599476 -0.076495647 -1.8051435 4288085770
6.271944 -0.12237501 -1.8062625 4288085770
5.0870724 -0.06566143 -1.8020517 4288085770
6.4730759 -0.11067581 -1.8080851 4288085770
5.2201958 -0.055835724 -1.7989464 4288085770
6.6882038 -0.099989891 -1.8088844 4288085770
5.3743248 -0.045063972 -1.7998211 4288085770
6.9353409 -0.088379383 -1.8146504 4288085770
5.5464535 -0.035328865 -1.8026676 4288085770
7.1604671 -0.077682972 -1.8114375 4288085770
5.730587 -0.026623726 -1.8074932 4288085770
7.4316006 -0.066094398 -1.8151737 4288085770
5.9237194 -0.016924381 -1.8113136 4288085770
7.7137318 -0.055515289 -1.8178904 4288085770
6.1138477 -0.0072026253 -1.8121378 4288085770
8.0068626 -0.04393959 -1.8185995 4288085770
6.3109741 0.0025143623 -1.8119533 4288085770
8.2989883 -0.033338547 -1.8153037 4288085770
6.5371037 0.011167526 -1.815727 4288085770
8.6191158 -0.021782398 -1.8129795 4288085770
6.7642288 0.020842075 -1.8155054 4288085770
8.9662418 -0.010271549 -1.8116219 4288085770
7.0113583 0.029470921 -1.8182532 4288085770
9.3343678 0.00021696091 -1.8092321 4288085770
7.2774906 0.039073467 -1.8209834 4288085770
9.7634983 0.010594845 -1.8107673 4288085770
7.5326118 0.046721458 -1.8187153 4288085770
10.224632 0.021921635 -1.8132684 4288085770
7.8317375 0.054276943 -1.8213927 4288085770
10.728762 0.032193661 -1.814711 4288085770
8.1328621 0.062853813 -1.8200737 4288085770
11.269892 0.042419434 -1.8151075 4288085770
8.4669895 0.071372032 -1.8207139 4288085770
11.917028 0.052453518 -1.8223732 4288085770
8.8241138 0.078858376 -1.8213197 4288085770
12.626167 0.063400745 -1.8295681 4288085770
9.1892338 0.086363316 -1.8169156 4288085770
13.33029 0.074426651 -1.8247695 4288085770
9.6033573 0.093768597 -1.817451 4288085770
14.242434 0.085068703 -1.8347137 4288085770
10.052481 0.10113096 -1.816943 4288085770
15.106552 0.094875336 -1.8287114 4288085770
10.582611 0.10834312 -1.8223351 4288085770
16.139683 0.10541296 -1.8275062 4288085770
11.101732 0.11461306 -1.8207345 4288085770
17.338816 0.11670446 -1.8281019 4288085770
11.699856 0.11975288 -1.8220305 4288085770
18.791954 0.12659025 -1.8363779 4288085770
12.433994 0.12564182 -1.8331645 4288085770
13.154102 0.13062239 -1.8323097 4288085770
14.013231 0.13435888 -1.8392774 4288085770
14.919352 0.13807106 -1.8391867 4288085770
15.948471 0.13960361 -1.839932 4288085770
17.105587 0.14096832 -1.8385193 4288085770
18.489704 0.1399827 -1.8418142 4288085770
16.455063 -5.5347619 -0.35483408 4293729569
16.420418 -5.4009595 -0.39665937 4293729569
19.173695 0.41060734 -1.8348159 4288085770
17.840837 0.43738079 -1.8339591 4288085770
16.668982 0.46193576 -1.8338493 4288085770
15.591112 0.48440123 -1.8275869 4288085770
14.727261 0.50752068 -1.832009 4288085770
13.896391 0.52863646 -1.8293701 4288085770
13.138521 0.54766178 -1.8256105 4288085770
12.488659 0.56652093 -1.8256884 4288085770
19.164143 0.87767291 -1.8264943 4288085770
11.872791 0.58535862 -1.8217155 4288085770
17.910267 0.88833451 -1.8264279 4288085770
11.344929 0.60305142 -1.8226047 4288085770
16.725376 0.89594579 -1.8192409 4288085770
10.855057 0.62169957 -1.8224428 4288085770
15.737494 0.90626788 -1.8167754 4288085770
10.420197 0.63926339 -1.8241922 4288085770
14.864618 0.91742635 -1.8161428 4288085770
10.013334 0.65679026 -1.8258998 4288085770
14.092745 0.9294405 -1.8173642 4288085770
9.6294689 0.67429233 -1.8265728 4288085770
13.37187 0.94040442 -1.8155032 4288085770
9.2816086 0.69174147 -1.8281916 4288085770
12.731993 0.95226192 -1.8135267 4288085770
8.9617462 0.70915341 -1.8297688 4288085770
12.155121 0.96502376 -1.8134609 4288085770
8.6588821 0.72654295 -1.8313202 4288085770
11.620245 0.97674203 -1.8113266 4288085770
8.4320431 0.74776864 -1.8437802 4288085770
11.146376 0.98936272 -1.8121063 4288085770
8.1761818 0.76509023 -1.846261 4288085770
10.733513 1.0048854 -1.8158114 4288085770
7.9143105 0.78044271 -1.8447396 4288085770
10.319639 1.0174384 -1.814501 4288085770
7.6754475 0.79675341 -1.8451891 4288085770
9.9567738 1.0319066 -1.8161254 4288085770
7.4465771 0.81306243 -1.8436239 4288085770
9.6169052 1.0453446 -1.8177096 4288085770
7.2287064 0.82735682 -1.8420305 4288085770
9.3030376 1.0607541 -1.8182662 4288085770
7.0348434 0.84460783 -1.8424183 4288085770
8.9901638 1.0731738 -1.8168041 4288085770
6.8159618 0.85793233 -1.835821 4288085770
