# .PCD v0.7 - Point Cloud Data file format
VERSION 0.7
FIELDS x y z rgb
SIZE 4 4 4 4
TYPE F F F U
COUNT 1 1 1 1
WIDTH 1118
HEIGHT 1
VIEWPOINT 0 0 0 1 0 0 0
POINTS 1118
DATA ascii
4.1517334 0.22627401 -1.7920432 4288085770
1.8158274 0.27507019 -1.8022804 4288085770
4.6368561 0.23709631 -1.7920387 4288085770
2.0889397 0.28498363 -1.7977302 4288085770
5.1939898 0.24787998 -1.7958789 4288085770
2.4090624 0.29386759 -1.7970752 4288085770
5.7541103 0.25968313 -1.7937171 4288085770
2.7581825 0.3027401 -1.7963579 4288085770
6.4002323 0.27044964 -1.793367 4288085770
3.1153021 0.31061459 -1.7946205 4288085770
7.0603456 0.28122807 -1.7879879 4288085770
3.5154238 0.31947041 -1.7937943 4288085770
7.8954821 0.29190826 -1.7932312 4288085770
3.9715548 0.3262887 -1.7978408 4288085770
8.7415981 0.30361462 -1.789456 4288085770
4.4446764 0.33411932 -1.7968551 4288085770
9.81674 0.31420088 -1.7971839 4288085770
4.9888048 0.34191084 -1.7997168 4288085770
10.922855 0.32382059 -1.7918438 4288085770
5.5739346 0.3486886 -1.8024876 4288085770
12.12896 0.3354187 -1.7822965 4288085770
6.1880484 0.35547638 -1.799197 4288085770
13.51906 0.34595966 -1.7703512 4288085770
6.8671665 0.36223841 -1.7967674 4288085770
7.6322842 0.36796951 -1.79415 4288085770
8.5424118 0.37362719 -1.798221 4288085770
9.5405378 0.37826443 -1.7991015 4288085770
10.720671 0.38282347 -1.8035917 4288085770
11.878767 0.38544989 -1.7911249 4288085770
13.293873 0.38696527 -1.7841039 4288085770
12.070976 -5.0485487 -0.38046184 4293729569
12.407086 0.64059353 -1.7785398 4288085770
11.208223 0.66494942 -1.7866541 4288085770
10.152363 0.68725967 -1.7945194 4288085770
9.1224785 0.70560408 -1.7903249 4288085770
8.2736063 0.72486591 -1.7928286 4288085770
7.5337362 0.74409056 -1.7961482 4288085770
6.8148565 0.76132441 -1.7944241 4288085770
13.450948 1.0273106 -1.7572657 4288085770
6.2119894 0.77949762 -1.799508 4288085770
12.180086 1.039686 -1.766452 4288085770
5.6481152 0.79667234 -1.8005221 4288085770
10.965206 1.0480742 -1.7665281 4288085770
5.1312418 0.81282854 -1.8024529 4288085770
9.9493294 1.0583928 -1.7682766 4288085770
4.6583691 0.82897091 -1.8043095 4288085770
9.0544586 1.070662 -1.772828 4288085770
4.2044878 0.84412479 -1.8011299 4288085770
8.2725897 1.0828917 -1.7781889 4288085770
3.8086109 0.86024237 -1.8028558 4288085770
7.5557146 1.095108 -1.7814399 4288085770
3.436738 0.87635183 -1.8045413 4288085770
6.8958406 1.1063097 -1.7835912 4288085770
3.099864 0.89145088 -1.806164 4288085770
6.3119669 1.1184833 -1.7866181 4288085770
2.7659845 0.90556288 -1.8037781 4288085770
5.8011007 1.1326237 -1.7925295 4288085770
2.4721098 0.9216485 -1.8053313 4288085770
5.3002224 1.1447816 -1.7924163 4288085770
2.1972361 0.93672752 -1.8068494 4288085770
4.8423462 1.1569223 -1.7932304 4288085770
1.9203539 0.95082474 -1.8033663 4288085770
4.4194708 1.1690516 -1.7939857 4288085770
1.6744785 0.96489763 -1.8038315 4288085770
4.0285931 1.1811748 -1.7936867 4288085770
1.4556046 0.98096609 -1.8062555 4288085770
3.6777163 1.1942878 -1.7953212 4288085770
1.2247219 0.99404812 -1.8026909 4288085770
3.3478394 1.2073882 -1.7959226 4288085770
1.0108395 1.0071216 -1.8000973 4288085770
3.0469675 1.2214715 -1.7984788 4288085770
0.83497238 1.0231588 -1.8044512 4288085770
2.7610912 1.2345572 -1.7990061 4288085770
0.65309525 1.0382149 -1.8038112 4288085770
2.4852142 1.2476435 -1.7985164 4288085770
0.48122025 1.0532646 -1.8041542 4288085770
2.2533464 1.2636981 -1.802964 4288085770
0.33635139 1.0692918 -1.8084557 4288085770
2.0144711 1.2777653 -1.8044153 4288085770
0.16846848 1.0833504 -1.805788 4288085770
1.7795897 1.2898457 -1.8018531 4288085770
0.029594421 1.0993829 -1.808079 4288085770
1.5857172 1.3058915 -1.8052362 4288085770
-0.10928154 1.1144216 -1.8083663 4288085770
1.3608284 1.3169792 -1.7996531 4288085770
-0.24015617 1.1294549 -1.8096403 4288085770
1.1529484 1.3290541 -1.7960448 4288085770
-0.36903191 1.1444941 -1.8089107 4288085770
1.0000801 1.34708 -1.8013666 4288085770
-0.49891281 1.158541 -1.8061789 4288085770
0.81819916 1.3601432 -1.7987183 4288085770
-0.59678078 1.1765494 -1.8114083 4288085770
0.65832138 1.3741925 -1.7980372 4288085770
-0.71766281 1.1895964 -1.807658 4288085770
0.50544357 1.3892393 -1.7973474 4288085770
-0.83054161 1.2046344 -1.8059011 4288085770
0.37457466 1.406265 -1.8006284 4288085770
-0.93341827 1.2196658 -1.8051276 4288085770
0.24970055 1.4232931 -1.8028991 4288085770
-1.0162888 1.2376764 -1.8083316 4288085770
0.12783051 1.4403198 -1.8051647 4288085770
-1.1091633 1.252701 -1.8085413 4288085770
-4.5776367e-05 1.4553623 -1.8034331 4288085770
-1.1920395 1.2697184 -1.8097414 4288085770
-0.11491966 1.4723904 -1.8046868 4288085770
-0.21979332 1.4894149 -1.8059241 4288085770
-0.32867241 1.5054479 -1.805164 4288085770
-0.44155312 1.520489 -1.8024067 4288085770
-0.52742386 1.5395045 -1.8046192 4288085770
-0.63530731 1.5535512 -1.79985 4288085770
-0.71217918 1.57356 -1.8030509 4288085770
-0.82106972 1.5856175 -1.7952758 4288085770
-0.88593674 1.6066186 -1.7994604 4288085770
-0.95981026 1.6256371 -1.7996525 4288085770
-1.0296822 1.6446507 -1.8008379 4288085770
-1.0955563 1.6646631 -1.8020202 4288085770
-1.1614323 1.6836824 -1.8011988 4288085770
-1.2122974 1.7056797 -1.8053633 4288085770
-1.2286415 3.5124245 -1.8139774 4288085770
-1.1014633 3.6103201 -1.8311256 4288085770
-1.0413361 3.6663175 -1.8252329 4288085770
-0.93918419 3.7472596 -1.8313614 4288085770
-0.82802773 3.8341985 -1.8374975 4288085770
-0.73488617 3.9071651 -1.8376126 4288085770
-0.62173271 3.9931107 -1.8417423 4288085770
-0.51759338 4.0720801 -1.8398616 4288085770
-0.38943672 4.1640177 -1.8449893 4288085770
-0.26428795 4.2539701 -1.846115 4288085770
-0.12613487 4.3499117 -1.8492415 4288085770
0.028024673 4.4558411 -1.8543785 4288085770
-1.2231674 3.7533 -1.8338729 4288085770
0.17517662 4.5547872 -1.8555018 4288085770
-1.0829983 3.846209 -1.8459852 4288085770
0.36835289 4.6826868 -1.8656554 4288085770
-0.97585869 3.9161742 -1.8450686 4288085770
0.51249313 4.7766542 -1.8607668 4288085770
-0.86972427 3.9841471 -1.8421465 4288085770
0.72266769 4.910552 -1.8699158 4288085770
-0.72856712 4.0730772 -1.8482438 4288085770
0.93584061 5.0454564 -1.8770639 4288085770
-0.60943031 4.1450458 -1.8453161 4288085770
1.1540108 5.1813626 -1.8832084 4288085770
-0.46428108 4.232985 -1.8484044 4288085770
1.3831806 5.321269 -1.8883499 4288085770
-0.3091259 4.3249173 -1.852491 4288085770
1.6243515 5.467175 -1.8924943 4288085770
-0.14196968 4.4228468 -1.8565806 4288085770
1.8885288 5.6240668 -1.8986421 4288085770
0.028188705 4.5207748 -1.8606659 4288085770
2.1787138 5.7949471 -1.9057992 4288085770
0.21034622 4.6236992 -1.8647504 4288085770
2.4698925 5.9638343 -1.9109482 4288085770
0.40050316 4.7286215 -1.8688295 4288085770
2.792079 6.1477051 -1.9181019 4288085770
0.57764816 4.8235683 -1.8668944 4288085770
3.1502771 6.3515539 -1.9282708 4288085770
0.81482315 4.953455 -1.8769892 4288085770
3.5634918 6.5843678 -1.943457 4288085770
1.0369854 5.0703673 -1.8810622 4288085770
3.9586906 6.803215 -1.9506226 4288085770
1.2781544 5.1962628 -1.8881376 4288085770
4.3938971 7.0410442 -1.9597936 4288085770
1.5323219 5.3281617 -1.8932146 4288085770
4.8290958 7.2748861 -1.9649515 4288085770
1.7904882 5.4580631 -1.8972785 4288085770
5.3083038 7.5297127 -1.9711159 4288085770
2.0676584 5.5959516 -1.9033418 4288085770
5.8335238 7.8075094 -1.9812907 4288085770
2.3638296 5.741837 -1.9084044 4288085770
6.4427643 8.1282635 -1.9964877 4288085770
2.6830082 5.8967085 -1.9154633 4288085770
3.0081844 6.0515819 -1.9215137 4288085770
3.3523607 6.2124567 -1.9255564 4288085770
3.7555561 6.403285 -1.9376141 4288085770
4.1827555 6.6041059 -1.9496707 4288085770
4.6009445 6.7919512 -1.9556962 4288085770
5.0251284 6.9777975 -1.9607062 4288085770
5.4783134 7.1746387 -1.9647111 4288085770
5.9625072 7.3824635 -1.9707075 4288085770
6.496707 7.6122694 -1.9777054 4288085770
7.0629129 7.8500586 -1.986683 4288085770
7.6811247 8.1098309 -1.995659 4288085770
13.262123 -1.7695665 -1.7857136 4288085770
12.493235 -1.804347 -1.7887262 4288085770
11.723344 -1.8261099 -1.7867852 4288085770
10.967455 -1.8388658 -1.7818546 4288085770
10.259565 -1.851644 -1.7788528 4288085770
9.6416817 -1.8674669 -1.7807082 4288085770
9.0327969 -1.8762813 -1.7795744 4288085770
8.4629135 -1.8831115 -1.7793899 4288085770
7.9590349 -1.8919754 -1.7831014 4288085770
7.4941607 -1.9018621 -1.7897516 4288085770
6.9732761 -1.895689 -1.7845399 4288085770
13.512948 -3.0165367 -1.7430676 4288085770
6.6164093 -1.911633 -1.7980105 4288085770
12.52009 -2.9562483 -1.7457368 4288085770
6.2065353 -1.9125257 -1.8016111 4288085770
11.663231 -2.9080148 -1.7521642 4288085770
5.761652 -1.9023833 -1.7983009 4288085770
10.834372 -2.855782 -1.756564 4288085770
5.3747759 -1.8982787 -1.8008842 4288085770
10.066512 -2.8045645 -1.7598706 4288085770
4.9748964 -1.8871531 -1.798511 4288085770
9.3626518 -2.7573729 -1.765069 4288085770
4.6290236 -1.8810644 -1.8020412 4288085770
8.6847897 -2.7061777 -1.767243 4288085770
4.2901449 -1.8729682 -1.8025677 4288085770
8.0459261 -2.6549921 -1.7683594 4288085770
3.9712706 -1.8638844 -1.8050684 4288085770
7.4640627 -2.6088262 -1.7703747 4288085770
3.6623964 -1.8538008 -1.8065577 4288085770
6.9361992 -2.567688 -1.7752932 4288085770
3.3535194 -1.8397102 -1.8060606 4288085770
6.4503403 -2.5285659 -1.7811431 4288085770
3.0686426 -1.8266296 -1.806525 4288085770
5.9934778 -2.490449 -1.7859468 4288085770
2.815773 -1.8175769 -1.8119283 4288085770
5.5376139 -2.4473205 -1.7877661 4288085770
2.5508976 -1.8035016 -1.8123665 4288085770
5.1247511 -2.4092126 -1.791505 4288085770
2.302022 -1.7884326 -1.8127847 4288085770
4.7208834 -2.369101 -1.7932376 4288085770
2.0581484 -1.7733684 -1.8141953 4288085770
4.3360176 -2.3279943 -1.7949454 4288085770
1.836277 -1.7603178 -1.8175668 4288085770
3.9801512 -2.2909007 -1.7975968 4288085770
1.6123991 -1.7432556 -1.8179549 4288085770
3.6422844 -2.2528119 -1.8002249 4288085770
1.3845196 -1.7231822 -1.8153591 4288085770
3.326417 -2.2187333 -1.8038071 4288085770
1.1686459 -1.7041183 -1.8147422 4288085770
3.028554 -2.18466 -1.8073627 4288085770
0.94276428 -1.6800346 -1.8091574 4288085770
2.7286844 -2.1465755 -1.807935 4288085770
0.75689125 -1.6629882 -1.8104894 4288085770
2.4218111 -2.1024709 -1.8035384 4288085770
0.5690136 -1.6439338 -1.8098315 4288085770
2.1449404 -2.0643902 -1.8030769 4288085770
0.39314079 -1.624886 -1.810156 4288085770
1.9130754 -2.0363398 -1.8075147 4288085770
0.23027039 -1.6088533 -1.8134507 4288085770
1.6542044 -1.9962578 -1.8050337 4288085770
0.055391312 -1.5867953 -1.8107839 4288085770
1.4153328 -1.9611878 -1.8045058 4288085770
-0.098480225 -1.5697613 -1.813069 4288085770
1.185461 -1.9251175 -1.8029684 4288085770
-0.24435234 -1.5527296 -1.8153422 4288085770
0.96558952 -1.8890538 -1.802416 4288085770
-0.39222527 -1.5336909 -1.8156252 4288085770
0.76572037 -1.8569989 -1.8028206 4288085770
-0.53910065 -1.5126491 -1.8149137 4288085770
0.57685089 -1.826951 -1.804202 4288085770
-0.6629715 -1.4976311 -1.8191479 4288085770
0.39798355 -1.7969098 -1.8065689 4288085770
-0.79284477 -1.4786005 -1.8204044 4288085770
0.23011589 -1.7688761 -1.8099127 4288085770
-0.92971992 -1.4565582 -1.8186817 4288085770
0.057245255 -1.7378259 -1.8092738 4288085770
-1.0365868 -1.442553 -1.8248873 4288085770
-0.10862923 -1.7067819 -1.8096249 4288085770
-1.1504574 -1.4245343 -1.8281171 4288085770
-0.26949883 -1.6757355 -1.8089685 4288085770
-1.262331 -1.4065137 -1.8303437 4288085770
-0.41636848 -1.6467009 -1.810285 4288085770
-0.56123924 -1.6176629 -1.8105983 4288085770
-0.69911003 -1.5886302 -1.8119013 4288085770
-0.82197762 -1.5646091 -1.815165 4288085770
-0.94484901 -1.5375848 -1.8174393 4288085770
-1.0737209 -1.5075445 -1.8157326 4288085770
-1.1805897 -1.484529 -1.8189694 4288085770
-1.2462692 0.54404545 -1.7946672 4288085770
-1.120142 0.5569973 -1.7965488 4288085770
-0.99801636 0.56895304 -1.7974327 4288085770
-0.88990402 0.58094311 -1.7903351 4288085770
-0.74277496 0.59288168 -1.794186 4288085770
-0.59865379 0.6058321 -1.7950444 4288085770
-0.45053291 0.61778498 -1.7948943 4288085770
-0.29140663 0.63073111 -1.7957336 4288085770
-1.2133465 0.61298132 -1.7998953 4288085770
-0.11928177 0.64266968 -1.797552 4288085770
-1.0882225 0.62193727 -1.8007647 4288085770
0.055845261 0.65461159 -1.7983669 4288085770
-0.95610046 0.63189459 -1.8006288 4288085770
0.23196411 0.66756344 -1.7961842 4288085770
-0.81997871 0.64085436 -1.7994841 4288085770
0.46210098 0.68145657 -1.8059338 4288085770
-0.67285347 0.64980078 -1.8013253 4288085770
0.64021301 0.69242668 -1.7987419 4288085770
-0.513731 0.65974331 -1.8031541 4288085770
0.87834167 0.70534325 -1.8034751 4288085770
-0.37161636 0.66771936 -1.7989954 4288085770
1.1144657 0.71826744 -1.804214 4288085770
-0.20249367 0.67666674 -1.7988079 4288085770
1.3545895 0.73119545 -1.8039482 4288085770
0.015645981 0.68755722 -1.810563 4288085770
1.5987062 0.74313498 -1.7996739 4288085770
0.20176697 0.69549942 -1.8103499 4288085770
1.8878326 0.75604105 -1.8013442 4288085770
0.3668766 0.7024765 -1.8021615 4288085770
2.1859541 0.76795149 -1.8009993 4288085770
0.57299995 0.71040964 -1.8029227 4288085770
2.4980774 0.78085804 -1.80064 4288085770
0.80212593 0.71832943 -1.8056539 4288085770
2.8602076 0.79473639 -1.8042188 4288085770
1.0322437 0.72625589 -1.8063838 4288085770
3.2113237 0.80663919 -1.8018054 4288085770
1.2713642 0.73319054 -1.804099 4288085770
3.615448 0.82051229 -1.8033301 4288085770
1.5184841 0.73912287 -1.8018005 4288085770
4.0415726 0.83338737 -1.8028227 4288085770
1.7936039 0.74603653 -1.802469 4288085770
4.4856911 0.84526682 -1.799289 4288085770
2.0917273 0.75294399 -1.8031075 4288085770
4.9828129 0.85912514 -1.7976933 4288085770
2.4148521 0.75884008 -1.8047103 4288085770
5.5519419 0.87294436 -1.8010037 4288085770
2.741972 0.76374292 -1.8043045 4288085770
6.1600666 0.88776016 -1.8022674 4288085770
3.1180973 0.7696209 -1.8068388 4288085770
6.7471762 0.89762497 -1.7915417 4288085770
3.4922142 0.77351761 -1.8043687 4288085770
7.4552937 0.91042995 -1.7876691 4288085770
3.9063349 0.77739573 -1.8038472 4288085770
8.2534151 0.92520571 -1.7846866 4288085770
4.3614569 0.7802577 -1.8042688 4288085770
9.1215315 0.93796968 -1.7796067 4288085770
4.8575792 0.78310633 -1.8056374 4288085770
10.107653 0.95169592 -1.7753769 4288085770
5.3836975 0.7849555 -1.803964 4288085770
11.251774 0.96637011 -1.7729458 4288085770
5.957818 0.78578854 -1.8032249 4288085770
12.500885 0.98003626 -1.7643752 4288085770
6.5829334 0.78461361 -1.8004129 4288085770
7.2710495 0.78241777 -1.798516 4288085770
8.0421619 0.77819538 -1.7975042 4288085770
8.8632727 0.77297592 -1.7914253 4288085770
9.8003864 0.76471329 -1.7881854 4288085770
10.883503 0.75540209 -1.7867532 4288085770
12.043612 0.74208355 -1.781208 4288085770
13.38872 0.72372007 -1.7734059 4288085770
10.245859 -7.6069298 -1.4528134 4293729569
5.4901857 -5.2562819 -1.0837771 4293729569
5.5425529 -5.1671019 -0.46903551 4293729569
5.4723663 -5.1593828 -1.1121542 4293729569
5.544734 -5.0792131 -0.49935737 4293729569
5.5595427 -5.1105413 -1.1492375 4293729569
5.6379051 -5.0303574 -0.5314337 4293729569
8.9526834 -6.5337334 -1.4962124 4293729569
8.7218771 -6.3167143 -1.5082697 4293729569
8.4850664 -6.0986805 -1.516337 4293729569
8.3312511 -5.9186888 -1.5301716 4293729569
8.125432 -5.7216549 -1.5361273 4293729569
7.9496088 -5.5376301 -1.5420012 4293729569
7.8177834 -5.3756285 -1.5507451 4293729569
7.6329556 -5.1925859 -1.5526254 4293729569
7.526124 -5.043582 -1.5592934 4293729569
7.4322872 -4.9025831 -1.565917 4293729569
7.3284502 -4.7575703 -1.5695668 4293729569
7.2446136 -4.62257 -1.5751575 4293729569
7.1937752 -4.4995804 -1.5816671 4293729569
7.1489334 -4.3805904 -1.5871555 4293729569
7.1630917 -4.2806349 -1.5975075 4293729569
7.1502495 -4.1706572 -1.6039267 4293729569
7.3624153 -4.1368294 -1.6348147 4293729569
7.7335882 -4.1491089 -1.6833557 4288085770
8.1557636 -4.1714153 -1.735803 4288085770
11.943972 -5.1916685 -1.2328094 4293729569
8.4079294 -4.1355982 -1.7666537 4282675967
12.05113 -5.0857372 -1.2430803 4293729569
8.4240818 -4.0276175 -1.7700334 4282675967
8.3582268 -3.8965673 -1.7605891 4288085770
8.3643742 -3.7865696 -1.7599872 4288085770
8.37152 -3.6765623 -1.7563841 4288085770
8.4916725 -3.5966301 -1.7655445 4288085770
8.5718098 -3.5056629 -1.7677891 4288085770
8.621954 -3.4056702 -1.7651013 4288085770
8.6830978 -3.3086824 -1.7633903 4288085770
8.8312454 -3.2307444 -1.768512 4288085770
8.9113865 -3.1367598 -1.7657689 4288085770
9.0785332 -3.059823 -1.7698659 4288085770
9.1746721 -2.9648347 -1.7651085 4288085770
9.3828192 -2.8939157 -1.7711378 4288085770
9.5319586 -2.8079491 -1.7682881 4288085770
9.750103 -2.7340193 -1.7703176 4288085770
9.9452438 -2.6530719 -1.7693985 4288085770
10.156382 -2.5721254 -1.7674614 4288085770
10.426525 -2.4982095 -1.7694328 4288085770
10.694664 -2.4222856 -1.7694141 4288085770
11.013808 -2.3503852 -1.7723236 4288085770
11.334948 -2.2744746 -1.7722458 4288085770
11.634081 -2.1925449 -1.7682145 4288085770
12.106228 -2.1297073 -1.7769206 4288085770
12.507368 -2.051815 -1.7757612 4288085770
13.006511 -1.9809704 -1.780467 4288085770
13.481653 -1.9000978 -1.7792364 4288085770
12.64531 1.0634816 -1.7640274 4288085770
11.625444 1.1067116 -1.7691069 4288085770
10.691576 1.1469238 -1.7730972 4288085770
9.8307037 1.1821325 -1.773003 4288085770
9.074832 1.2163117 -1.7738101 4288085770
8.410964 1.2504549 -1.7785342 4288085770
7.8360958 1.2845728 -1.784178 4288085770
7.2492208 1.3147144 -1.7838171 4288085770
6.7563543 1.3458159 -1.7883753 4288085770
13.525517 1.924309 -1.747444 4288085770
6.2724752 1.3739328 -1.7879139 4288085770
12.470636 1.937561 -1.7484401 4288085770
5.8576069 1.4040151 -1.7923977 4288085770
11.575768 1.9547563 -1.7543076 4288085770
5.4757347 1.4330928 -1.7958483 4288085770
10.777895 1.972935 -1.7580913 4288085770
5.0748587 1.4581966 -1.7933006 4288085770
10.019017 1.9891109 -1.7598319 4288085770
4.7359858 1.4852638 -1.7967046 4288085770
9.3761463 2.0102448 -1.7654867 4288085770
4.4071121 1.5113425 -1.7960957 4288085770
8.7632713 2.0283821 -1.7681034 4288085770
4.0982361 1.5364168 -1.795465 4288085770
8.2123985 2.0475044 -1.7706678 4288085770
3.8193636 1.5624766 -1.7968109 4288085770
7.7205257 2.0686085 -1.7741866 4288085770
3.5644903 1.5885267 -1.7991352 4288085770
7.249651 2.0887113 -1.7766825 4288085770
3.3296185 1.6155725 -1.801445 4288085770
6.8407793 2.1117918 -1.7811338 4288085770
3.0747414 1.6376402 -1.7987542 4288085770
6.4299059 2.131887 -1.7815754 4288085770
2.8568668 1.6626887 -1.7990412 4288085770
6.0620317 2.1529646 -1.7839823 4288085770
2.6479921 1.6877348 -1.7993199 4288085770
5.7261572 2.1760349 -1.7863674 4288085770
2.4551172 1.711777 -1.7995806 4288085770
5.4022827 2.1971087 -1.7867346 4288085770
2.2772446 1.7378089 -1.8018349 4288085770
5.0994072 2.2191744 -1.7880863 4288085770
2.0843658 1.759865 -1.798088 4288085770
4.8115339 2.2412393 -1.7884243 4288085770
1.9454937 1.788877 -1.8033183 4288085770
4.5476561 2.2642953 -1.7897443 4288085770
1.7916203 1.8149059 -1.8045505 4288085770
4.2877769 2.2853644 -1.7870535 4288085770
1.6457462 1.8399332 -1.8057725 4288085770
4.0629063 2.3104076 -1.7893459 4288085770
1.5338783 1.8709385 -1.8109857 4288085770
3.8420296 2.3334565 -1.7896273 4288085770
1.3729973 1.8909903 -1.8062023 4288085770
3.6271534 2.3575108 -1.7879068 4288085770
1.2451229 1.9160204 -1.8054075 4288085770
3.4422817 2.3835447 -1.7901669 4288085770
1.1452522 1.9460258 -1.8096062 4288085770
3.2584066 2.4095843 -1.7904258 4288085770
1.0093708 1.9680717 -1.8048073 4288085770
3.0915318 2.4356201 -1.7906697 4288085770
0.9425087 2.0030482 -1.8149947 4288085770
2.9246569 2.4606595 -1.7899098 4288085770
0.79362106 2.018122 -1.803182 4288085770
2.7607803 2.485702 -1.788147 4288085770
0.7057476 2.0481317 -1.8053694 4288085770
2.6159067 2.5137322 -1.788378 4288085770
0.62187958 2.0781403 -1.8075531 4288085770
2.4900341 2.5447514 -1.790603 4288085770
0.51199913 2.09918 -1.8027272 4288085770
2.3721609 2.5757718 -1.791821 4288085770
0.41411972 2.1242132 -1.798905 4288085770
2.2542887 2.6067924 -1.7930386 4288085770
0.35025024 2.1562138 -1.8020781 4288085770
2.1504183 2.6398058 -1.7952511 4288085770
0.29238129 2.1892056 -1.8072497 4288085770
2.0425434 2.6698313 -1.7944566 4288085770
0.20549774 2.2132399 -1.8024137 4288085770
1.9466667 2.7038462 -1.795665 4288085770
0.10961533 2.2342863 -1.794575 4288085770
1.8747997 2.7428417 -1.8008708 4288085770
0.064744949 2.2702751 -1.7997457 4288085770
1.7509184 2.7658951 -1.7930644 4288085770
0.0038719177 2.3002856 -1.7999085 4288085770
1.6770477 2.8039014 -1.7952681 4288085770
-0.062002182 2.3283076 -1.7970684 4288085770
1.5911732 2.8369215 -1.7944641 4288085770
-0.12688065 2.3563325 -1.7932274 4288085770
1.5333042 2.8769238 -1.7966609 4288085770
-0.18475533 2.3853493 -1.7913839 4288085770
1.4804382 2.9199183 -1.800864 4288085770
-0.21562576 2.4233418 -1.794549 4288085770
1.4245663 2.9589238 -1.8020554 4288085770
-0.2594986 2.4563475 -1.7947074 4288085770
1.3586922 2.9959421 -1.8002479 4288085770
-0.29937172 2.4903526 -1.7948661 4288085770
1.3008213 3.0349553 -1.7994407 4288085770
-0.33924675 2.5243614 -1.7940243 4288085770
1.2509499 3.0759625 -1.7996337 4288085770
-0.38312149 2.5563779 -1.7911793 4288085770
1.21208 3.1199644 -1.800828 4288085770
-0.41299057 2.5933805 -1.7913396 4288085770
1.2062206 3.1769331 -1.8090403 4288085770
-0.43686295 2.6313787 -1.7924984 4288085770
1.1463413 3.2119639 -1.8032202 4288085770
-0.45373344 2.6723673 -1.7956619 4288085770
1.113472 3.2569711 -1.8024126 4288085770
-0.48860931 2.7053852 -1.7918124 4288085770
1.1076069 3.3129506 -1.8076211 4288085770
-0.50748253 2.7453856 -1.7919737 4288085770
1.0767326 3.3589611 -1.805815 4288085770
-0.51135063 2.791368 -1.7961437 4288085770
1.064867 3.4129524 -1.8080214 4288085770
-0.52721977 2.8323708 -1.7953061 4288085770
1.0690022 3.4729328 -1.8122355 4288085770
-0.54509544 2.8723776 -1.7934666 4288085770
1.0591354 3.527931 -1.8124436 4288085770
-0.54596138 2.9193661 -1.7956376 4288085770
1.059269 3.5859196 -1.814654 4288085770
-0.55783463 2.9613717 -1.7938001 4288085770
1.0764065 3.651897 -1.8188785 4288085770
-0.55870438 3.0093639 -1.7949747 4288085770
1.0825424 3.7138877 -1.8200979 4288085770
-0.55757332 3.0573592 -1.7951475 4288085770
1.1046791 3.7828674 -1.8233287 4288085770
-0.553442 3.1063538 -1.7953212 4288085770
1.1338196 3.8548424 -1.8275645 4288085770
-0.52630424 3.1663218 -1.8015147 4288085770
1.1589565 3.9258251 -1.8297999 4288085770
-0.51317215 3.2193108 -1.8026952 4288085770
1.1840935 3.995811 -1.8310317 4288085770
-0.49503708 3.2762949 -1.8048856 4288085770
1.232235 4.0777779 -1.8362869 4288085770
-0.47090149 3.335278 -1.8070781 4288085770
1.2593727 4.1517706 -1.8355316 4288085770
-0.43976593 3.3972521 -1.8112756 4288085770
1.3025112 4.2307491 -1.8377804 4288085770
-0.41062927 3.4592371 -1.8124745 4288085770
1.3576527 4.3177247 -1.8400476 4288085770
-0.37549591 3.5242138 -1.8156793 4288085770
1.431797 4.4146819 -1.8463347 4288085770
-0.3063488 3.6081543 -1.8269229 4288085770
1.4989395 4.5086513 -1.8496168 4288085770
-0.28622246 3.6651592 -1.8231119 4288085770
1.5670815 4.6046233 -1.8519052 4288085770
-0.22907829 3.7441237 -1.8283482 4288085770
1.6252213 4.6956124 -1.8501846 4288085770
-0.1859417 3.8141088 -1.828564 4288085770
1.7443771 4.8195453 -1.8605303 4288085770
-0.13780785 3.8870931 -1.8287867 4288085770
1.8465261 4.9355025 -1.8648617 4288085770
-0.063661575 3.9750466 -1.8360407 4288085770
1.9596777 5.0584536 -1.8702091 4288085770
-0.0095252991 4.0520296 -1.8362726 4288085770
2.0698271 5.1794167 -1.8725522 4288085770
0.069618225 4.1439924 -1.8405371 4288085770
2.2119856 5.3203506 -1.8809395 4288085770
0.1457634 4.2329597 -1.8437935 4288085770
2.3371363 5.4523134 -1.8823094 4288085770
0.22990608 4.3289251 -1.8470682 4288085770
2.4932947 5.603251 -1.8887212 4288085770
0.31404686 4.4238973 -1.8483394 4288085770
2.6594563 5.7601867 -1.8951463 4288085770
0.42019653 4.5328503 -1.8536423 4288085770
2.8316154 5.9231281 -1.8995879 4288085770
0.52534294 4.6408067 -1.8579426 4288085770
3.0247822 6.0980577 -1.906055 4288085770
0.62148666 4.7417798 -1.8582258 4288085770
3.2559547 6.2969599 -1.9175761 4288085770
0.74963951 4.864728 -1.8635607 4288085770
3.4971294 6.5048671 -1.9271212 4288085770
0.89479446 4.998661 -1.8719206 4288085770
3.7683096 6.7317605 -1.9387095 4288085770
1.0469494 5.1365962 -1.8792893 4288085770
4.0524921 6.9696546 -1.9493263 4288085770
1.1881008 5.2685518 -1.8816462 4288085770
4.3236666 7.1995764 -1.9529259 4288085770
1.3562603 5.4164872 -1.8880377 4288085770
4.6288481 7.4514794 -1.9595762 4288085770
1.5454235 5.5794101 -1.8964654 4288085770
4.9760342 7.7323723 -1.9692869 4288085770
1.714571 5.7273726 -1.8978487 4288085770
5.3582315 8.0342407 -1.9810535 4288085770
1.9147339 5.8963046 -1.90329 4288085770
2.146904 6.0872145 -1.9127833 4288085770
2.3920755 6.2851219 -1.9222913 4288085770
2.6572504 6.4970274 -1.930833 4288085770
2.9574327 6.7329111 -1.9434319 4288085770
3.2776184 6.9797907 -1.956054 4288085770
3.6028013 7.2306786 -1.9656866 4288085770
3.9399853 7.488575 -1.9723352 4288085770
4.3161745 7.7714558 -1.9810413 4288085770
4.7333746 8.0823116 -1.9938141 4288085770
12.844773 -0.74708557 -1.7581838 4288085770
11.868891 -0.78190136 -1.764709 4288085770
10.991009 -0.8127408 -1.7721832 4288085770
10.130125 -0.83456278 -1.7736757 4288085770
9.3642397 -0.85642004 -1.7791059 4288085770
8.6583576 -0.87327957 -1.7815135 4288085770
8.0514793 -0.89118433 -1.790853 4288085770
7.4856014 -0.90609503 -1.7991756 4288085770
6.9297209 -0.91599083 -1.8025081 4288085770
13.201635 -1.5172453 -1.7754641 4288085770
6.4318419 -0.92691183 -1.8097992 4288085770
12.152767 -1.4980669 -1.7882142 4288085770
5.9099598 -0.92879772 -1.8081356 4288085770
11.129894 -1.4708638 -1.7919735 4288085770
5.4370804 -0.93170404 -1.8094367 4288085770
10.176023 -1.4426641 -1.7926905 4288085770
4.9981995 -0.93361807 -1.8107184 4288085770
9.3101454 -1.4134803 -1.7923535 4288085770
4.5833187 -0.93353701 -1.8119913 4288085770
8.5282717 -1.3873215 -1.7939514 4288085770
4.2004395 -0.93246269 -1.8132467 4288085770
7.8843994 -1.3692122 -1.8014333 4288085770
3.8545599 -0.93340683 -1.817471 4288085770
7.3065281 -1.3541317 -1.812862 4288085770
3.4776793 -0.92631388 -1.8127419 4288085770
6.6446505 -1.3219671 -1.8054012 4288085770
3.1708002 -0.92526627 -1.8169472 4288085770
6.0577736 -1.294837 -1.8028749 4288085770
2.8679209 -0.92021322 -1.8191634 4288085770
5.5308971 -1.2697253 -1.8023028 4288085770
2.5920448 -0.91817188 -1.8233517 4288085770
5.0750246 -1.2496462 -1.806668 4288085770
2.3041639 -0.91010761 -1.8215678 4288085770
4.6561508 -1.2315784 -1.8120025 4288085770
2.0442867 -0.9040637 -1.8237588 4288085770
4.2292738 -1.2084889 -1.8113585 4288085770
1.8254118 -0.90204906 -1.83191 4288085770
3.8594007 -1.1894288 -1.8156643 4288085770
1.5795336 -0.89299393 -1.8301018 4288085770
3.4985256 -1.1683598 -1.8169706 4288085770
1.3416519 -0.88294506 -1.8292916 4288085770
3.157649 -1.1482949 -1.8182604 4288085770
1.1387749 -0.87691975 -1.8334453 4288085770
2.8267727 -1.1262255 -1.8175503 4288085770
0.90289116 -0.86384964 -1.8266432 4288085770
2.5298977 -1.1071739 -1.8198081 4288085770
0.72501945 -0.8578372 -1.8327808 4288085770
2.2420216 -1.0861173 -1.8200668 4288085770
0.49813652 -0.84176254 -1.8239825 4288085770
1.9841471 -1.0680776 -1.823296 4288085770
0.32725716 -0.83273697 -1.8261253 4288085770
1.7372704 -1.0500364 -1.8255179 4288085770
0.13837814 -0.81968784 -1.8222927 4288085770
1.496397 -1.0309901 -1.8257391 4288085770
-0.025505066 -0.80966091 -1.8234336 4288085770
1.2885151 -1.0159707 -1.8319255 4288085770
-0.18538284 -0.79862785 -1.8225754 4288085770
1.0276356 -0.98888922 -1.8231856 4288085770
-0.34826279 -0.78559113 -1.8207258 4288085770
0.81975937 -0.9698534 -1.8243852 4288085770
-0.48814011 -0.7755723 -1.8228515 4288085770
0.59888077 -0.94679022 -1.8186061 4288085770
-0.62701797 -0.76455069 -1.8239797 4288085770
0.41400528 -0.92875862 -1.8197875 4288085770
-0.76589584 -0.75152302 -1.8231145 4288085770
0.23112869 -0.90972471 -1.8199706 4288085770
-0.88977242 -0.74151134 -1.8262296 4288085770
0.065250397 -0.89270067 -1.8221364 4288085770
-1.0126514 -0.7294898 -1.8263507 4288085770
-0.087621689 -0.87668324 -1.8252903 4288085770
-1.1275272 -0.71848059 -1.8294632 4288085770
-0.26150131 -0.85463428 -1.8204772 4288085770
-0.40337753 -0.83761597 -1.8226274 4288085770
-0.55525589 -0.81857824 -1.8197901 4288085770
-0.68513107 -0.8025651 -1.822929 4288085770
-0.82400894 -0.78353405 -1.8210834 4288085770
-0.94488525 -0.76651955 -1.8232199 4288085770
-1.0597591 -0.75051022 -1.826349 4288085770
-1.1766396 -0.73348713 -1.8254825 4288085770
-1.2178822 1.1301286 -1.8055694 4288085770
-1.1027622 1.1451058 -1.8045741 4288085770
-0.9656353 1.1630585 -1.8095795 4288085770
-0.85251617 1.1760499 -1.8045787 4288085770
-0.71939468 1.1910207 -1.8045762 4288085770
-0.58027077 1.2069867 -1.8055747 4288085770
-0.44215012 1.2219594 -1.8045704 4288085770
-0.28502655 1.2379222 -1.8055617 4288085770
-1.1619911 1.135078 -1.8085997 4288085770
-0.12791061 1.2538884 -1.8055527 4288085770
-1.0408726 1.1450508 -1.8085856 4288085770
0.040210724 1.2698524 -1.8055396 4288085770
-0.90675163 1.1570146 -1.810573 4288085770
0.21133232 1.2848194 -1.8045223 4288085770
-0.77562714 1.1669853 -1.8105551 4288085770
0.39045334 1.3007848 -1.8035053 4288085770
-0.64350891 1.1769629 -1.8085371 4288085770
0.59257698 1.3177323 -1.8064818 4288085770
-0.50238609 1.1869323 -1.8085153 4288085770
0.78569794 1.3327019 -1.8034562 4288085770
-0.35726929 1.1959076 -1.8064888 4288085770
0.99881935 1.3496575 -1.803429 4288085770
-0.19114494 1.2068653 -1.8084605 4288085770
1.2239437 1.3656111 -1.8033935 4288085770
-0.030023575 1.2158306 -1.8084277 4288085770
1.4990692 1.3875277 -1.8113576 4288085770
0.1220932 1.222815 -1.8033924 4288085770
1.7471905 1.4034801 -1.8103133 4288085770
0.31721687 1.2337606 -1.8073524 4288085770
2.0083113 1.419431 -1.8092641 4288085770
0.49933624 1.2417293 -1.8053085 4288085770
2.2584295 1.4324069 -1.80121 4288085770
0.69845772 1.2506809 -1.8072608 4288085770
2.5545511 1.4493475 -1.8011503 4288085770
0.90957832 1.2596333 -1.8082087 4288085770
2.8806753 1.4672787 -1.8020821 4288085770
1.1347008 1.2675838 -1.8091476 4288085770
3.221797 1.4852109 -1.8020082 4288085770
1.3618202 1.2755337 -1.8100861 4288085770
3.5869179 1.5031381 -1.8019247 4288085770
1.6049366 1.2824843 -1.8100147 4288085770
3.9650364 1.520067 -1.8008329 4288085770
1.8570557 1.2884333 -1.8099369 4288085770
4.3851585 1.5389879 -1.7997314 4288085770
2.1081743 1.293396 -1.8058566 4288085770
4.8482828 1.5588937 -1.8006159 4288085770
2.3692932 1.2963603 -1.800766 4288085770
5.3134022 1.5758095 -1.7984908 4288085770
2.6734123 1.3012927 -1.8026648 4288085770
5.8165236 1.5927222 -1.7953507 4288085770
2.9845324 1.3052342 -1.8015578 4288085770
6.364645 1.610626 -1.7921965 4288085770
3.3236513 1.3091636 -1.8024402 4288085770
6.9707661 1.6295125 -1.7910225 4288085770
3.6857729 1.3130884 -1.8033133 4288085770
7.6208868 1.6483977 -1.7878318 4288085770
4.055891 1.3130226 -1.8011706 4288085770
8.3090076 1.6642864 -1.7816166 4288085770
4.4630098 1.3149428 -1.8010201 4288085770
9.0931282 1.6841466 -1.7783771 4288085770
4.8861284 1.3128707 -1.7978505 4288085770
9.9732513 1.7049894 -1.775103 4288085770
5.3482447 1.3107843 -1.7966658 4288085770
10.956373 1.7268059 -1.7737921 4288085770
5.8473644 1.3076878 -1.7964634 4288085770
12.019495 1.7466252 -1.7674441 4288085770
6.3754807 1.3025928 -1.7942436 4288085770
13.195615 1.7654269 -1.7600489 4288085770
6.9525986 1.2954853 -1.7929982 4288085770
7.5657139 1.285382 -1.7887293 4288085770
8.2398262 1.2742634 -1.7854332 4288085770
8.9789419 1.2611263 -1.7841061 4288085770
9.773056 1.2429893 -1.7797413 4288085770
10.65717 1.2228327 -1.7763355 4288085770
11.684286 1.2006323 -1.7778676 4288085770
12.730396 1.1714561 -1.7713705 4288085770
5.1619854 -7.6505318 -1.4393454 4293729569
4.7431622 -7.3284998 -1.4505466 4293729569
4.4073324 -7.062501 -1.467538 4293729569
4.083498 -6.8054914 -1.4804956 4293729569
3.7846642 -6.5644875 -1.4933921 4293729569
3.5388222 -6.3575039 -1.5101609 4293729569
3.2759819 -6.1404982 -1.5209666 4293729569
3.0601377 -5.9535065 -1.5336596 4293729569
2.8462906 -5.7675104 -1.544348 4293729569
2.6434441 -5.5905104 -1.5540032 4293729569
2.4715929 -5.4315224 -1.5655897 4293729569
5.7472878 -7.4136753 -1.4411653 4293729569
2.2847433 -5.2645168 -1.5722064 4293729569
5.4244585 -7.1416712 -1.4551709 4293729569
2.1378908 -5.12253 -1.5827292 4293729569
5.1386242 -6.8946667 -1.468083 4293729569
2.0030346 -4.9885464 -1.593222 4293729569
4.9127827 -6.6856899 -1.485853 4293729569
1.8771791 -4.8615599 -1.6026888 4293729569
4.6559439 -6.458683 -1.4956896 4293729569
1.7413225 -4.7265587 -1.6081842 4293729569
4.4371014 -6.2556877 -1.5074365 4293729569
1.6044664 -4.5905523 -1.6126829 4293729569
4.2472553 -6.0727034 -1.5211087 4293729569
1.5046082 -4.4785681 -1.6210923 4293729569
4.0654087 -5.8947124 -1.5317619 4293729569
1.3987465 -4.3635721 -1.6265129 4293729569
3.906558 -5.7307272 -1.5433623 4293729569
1.2738876 -4.2365522 -1.6259775 4293729569
3.7557058 -5.573741 -1.5539368 4293729569
1.201025 -4.1425724 -1.6343195 4293729569
3.6118536 -5.4207468 -1.5624959 4293729569
1.1071625 -4.0345707 -1.6377128 4293729569
3.4899998 -5.2817659 -1.5730032 4293729569
1.0323009 -3.9385757 -1.6420616 4293729569
3.3571444 -5.1367636 -1.5785323 4293729569
0.972435 -3.8505945 -1.64938 4293729569
3.2392893 -5.0017691 -1.5850242 4293729569
1.0035686 -3.8146887 -1.6745034 4293729569
3.1344318 -4.8737774 -1.5914896 4293729569
1.1066971 -3.8188477 -1.715477 4288085770
3.0285749 -4.7467775 -1.5959512 4293729569
1.2258244 -3.8280201 -1.7594305 4288085770
2.945714 -4.6337891 -1.6023608 4293729569
1.3069534 -3.8161478 -1.7924629 4282675967
2.8648529 -4.5217953 -1.6077663 4293729569
1.2930832 -3.7501907 -1.8046975 4282675967
2.8069935 -4.421814 -1.6151263 4293729569
1.2032204 -3.6441536 -1.7970824 4282675967
2.7371311 -4.3168173 -1.6185056 4293729569
1.1013565 -3.5321016 -1.7854898 4282675967
2.6782684 -4.2178288 -1.6238621 4293729569
1.0734882 -3.4601145 -1.7897468 4288085770
2.6414042 -4.1298475 -1.630177 4293729569
1.0396214 -3.38412 -1.7920185 4288085770
2.6145391 -4.0468712 -1.6374729 4293729569
0.99275589 -3.3031073 -1.7893097 4288085770
2.5956745 -3.9678917 -1.6437535 4293729569
0.96088791 -3.2281065 -1.7895775 4288085770
2.6188068 -3.908947 -1.6579581 4293729569
0.94001198 -3.1601105 -1.790819 4288085770
2.7479277 -3.8990774 -1.6889766 4288085770
0.93114471 -3.0971231 -1.7940416 4288085770
2.9360552 -3.9142504 -1.7298996 4288085770
0.91227531 -3.0301208 -1.7932795 4288085770
3.11518 -3.9224157 -1.7688487 4288085770
0.87440491 -2.9540997 -1.7875516 4288085770
3.2393093 -3.9025345 -1.7969031 4282675967
0.87653732 -2.8961153 -1.7907552 4288085770
3.2164431 -3.8175316 -1.7962052 4282675967
0.8896637 -2.8451347 -1.7949327 4288085770
3.1355782 -3.7074757 -1.7826027 4288085770
0.86579514 -2.7751145 -1.7891815 4288085770
3.1147108 -3.6234665 -1.7799008 4288085770
0.90392303 -2.7341528 -1.7973208 4288085770
3.1018429 -3.5444584 -1.7771807 4288085770
0.91305161 -2.679162 -1.7985128 4288085770
3.1069756 -3.473464 -1.7774299 4288085770
0.92418098 -2.6241684 -1.7987044 4288085770
3.123106 -3.4054718 -1.777667 4288085770
0.95430756 -2.5791874 -1.8018587 4288085770
3.1312351 -3.334466 -1.7749158 4288085770
0.97143745 -2.527195 -1.8020391 4288085770
3.1623659 -3.2734785 -1.7761266 4288085770
0.99856377 -2.4782076 -1.8032076 4288085770
3.2004957 -3.2134933 -1.7773328 4288085770
1.0056915 -2.4241958 -1.7983967 4288085770
3.2346249 -3.1525011 -1.7765431 4288085770
1.0548172 -2.3832259 -1.8035344 4288085770
3.2917547 -3.0995197 -1.7787224 4288085770
1.0909462 -2.3372359 -1.803691 4288085770
3.3398829 -3.0425291 -1.7779169 4288085770
1.1180706 -2.2882342 -1.8008597 4288085770
3.4010086 -2.9895468 -1.7790955 4288085770
1.1671963 -2.2472539 -1.8029975 4288085770
3.4751368 -2.9405665 -1.7802588 4288085770
1.2223244 -2.2062731 -1.8051344 4288085770
3.5832644 -2.9006114 -1.7873856 4288085770
1.2634506 -2.1612749 -1.8022872 4288085770
3.6873903 -2.8596473 -1.7915168 4288085770
1.3355732 -2.125308 -1.8074045 4288085770
3.7605181 -2.806653 -1.7886941 4288085770
1.3977013 -2.0853229 -1.8075371 4288085770
3.8476458 -2.7576647 -1.7868558 4288085770
1.4678268 -2.0483418 -1.8086585 4288085770
3.9577732 -2.7146897 -1.7879933 4288085770
1.5469532 -2.0123687 -1.8117751 4288085770
4.0678997 -2.6707158 -1.7891345 4288085770
1.6170797 -1.9723821 -1.8109066 4288085770
4.1780262 -2.6247311 -1.7872827 4288085770
1.705204 -1.937407 -1.8130186 4288085770
4.3151522 -2.5857611 -1.7884029 4288085770
1.8043289 -1.9054379 -1.8161188 4288085770
4.4442797 -2.5437832 -1.787535 4288085770
1.8854551 -1.8664522 -1.8152457 4288085770
4.5944042 -2.5038118 -1.7876573 4288085770
1.970582 -1.8274636 -1.8133723 4288085770
4.761529 -2.4688497 -1.78976 4288085770
2.0737047 -1.7924848 -1.8134825 4288085770
4.9276562 -2.4318781 -1.78887 4288085770
2.1898308 -1.7605147 -1.8155807 4288085770
5.113781 -2.3959155 -1.7899737 4288085770
2.3029556 -1.7265377 -1.8156866 4288085770
5.3199062 -2.3639598 -1.7920614 4288085770
2.4330797 -1.6945729 -1.8187829 4288085770
5.520031 -2.3269935 -1.791167 4288085770
2.5652046 -1.661603 -1.8198828 4288085770
5.7241554 -2.2900209 -1.7882727 4288085770
2.724329 -1.6326461 -1.8239651 4288085770
5.9662809 -2.2590714 -1.7903525 4288085770
2.8314533 -1.5936475 -1.8180898 4288085770
6.1964045 -2.2220998 -1.786455 4288085770
2.9965782 -1.5636883 -1.8211751 4288085770
6.4755287 -2.1941519 -1.7875202 4288085770
3.1647034 -1.5327234 -1.8222641 4288085770
6.7516546 -2.1611934 -1.785603 4288085770
3.3478279 -1.5027676 -1.8253473 4288085770
7.0437775 -2.1282349 -1.7826843 4288085770
3.5269518 -1.4697981 -1.8244418 4288085770
7.377902 -2.0992932 -1.7827463 4288085770
3.7180758 -1.4378328 -1.8245316 4288085770
7.6810265 -2.0623231 -1.7758406 4288085770
3.9222012 -1.4068737 -1.8256167 4288085770
8.0431499 -2.0313759 -1.7729065 4288085770
4.1393261 -1.3749132 -1.8257033 4288085770
8.5122747 -2.0134754 -1.7789137 4288085770
4.3274508 -1.3359241 -1.8188184 4288085770
8.9083986 -1.9805236 -1.7729833 4288085770
4.5535755 -1.3019552 -1.8159117 4288085770
9.4535217 -1.9626322 -1.7779814 4288085770
4.8046989 -1.2689962 -1.814998 4288085770
9.9616451 -1.9357085 -1.7750163 4288085770
5.0748234 -1.2350402 -1.814086 4288085770
10.579769 -1.9168224 -1.7780099 4288085770
5.3689489 -1.2030892 -1.8131641 4288085770
11.271891 -1.901958 -1.7839804 4288085770
5.6750755 -1.1691356 -1.8112483 4288085770
11.967013 -1.8790669 -1.7819796 4288085770
6.0271988 -1.1372032 -1.8133196 4288085770
12.800137 -1.8642187 -1.7859335 4288085770
6.4153233 -1.1062837 -1.8173831 4288085770
13.550259 -1.8333097 -1.7759551 4288085770
6.8504486 -1.0763745 -1.8224379 4288085770
7.2565737 -1.0384307 -1.8185245 4288085770
7.6776981 -0.99948168 -1.8126134 4288085770
8.1098232 -0.95652914 -1.8047153 4288085770
8.5779476 -0.91257811 -1.7958167 4288085770
9.0990725 -0.86963844 -1.7879083 4288085770
9.7251987 -0.82873392 -1.7849809 4288085770
10.391325 -0.78583479 -1.7820566 4288085770
11.134451 -0.74094391 -1.7781299 4288085770
11.922579 -0.69004774 -1.7702197 4288085770
12.842705 -0.64018583 -1.7662911 4288085770
13.393444 1.7795146 -1.7590815 4288085770
12.70857 1.8466005 -1.7642074 4288085770
12.043703 1.9087033 -1.7633185 4288085770
11.438829 1.9697871 -1.7654357 4288085770
10.909955 2.0318553 -1.7685674 4288085770
10.360085 2.0839505 -1.7646616 4288085770
9.9232121 2.1440008 -1.7688013 4288085770
9.4943399 2.2000597 -1.7699283 4288085770
9.1074677 2.2571051 -1.7730652 4288085770
8.7555952 2.3131487 -1.7752043 4288085770
8.3857231 2.3642085 -1.7733228 4288085770
8.0938511 2.421236 -1.7774745 4288085770
7.8119774 2.4762647 -1.7806212 4288085770
7.5331059 2.5263066 -1.7797509 4288085770
7.2772331 2.5803382 -1.7808976 4288085770
7.0523615 2.6343615 -1.7830497 4288085770
6.8304892 2.6873913 -1.7831986 4288085770
6.6356173 2.7434063 -1.7863621 4288085770
6.4507446 2.7994268 -1.7875271 4288085770
6.3188734 2.8634188 -1.7947284 4288085770
13.582167 4.3522148 -1.8111105 4288085770
6.1589956 2.9204319 -1.7969003 4288085770
13.318293 4.4372182 -1.821363 4288085770
6.0071239 2.977447 -1.7980739 4288085770
12.957421 4.4982724 -1.8205168 4288085770
5.8612528 3.0334644 -1.7982451 4288085770
12.678553 4.5723009 -1.8237293 4288085770
5.7543812 3.0974588 -1.8034502 4288085770
12.451683 4.6563077 -1.830985 4288085770
5.6315098 3.1564732 -1.8036352 4288085770
12.236815 4.7413192 -1.8362457 4288085770
5.5296402 3.2204733 -1.806841 4288085770
12.039948 4.8263311 -1.8405094 4288085770
5.4627676 3.2914581 -1.8130767 4288085770
11.84808 4.9123454 -1.8437773 4288085770
5.3658972 3.3534677 -1.8132763 4288085770
11.682214 5.0013561 -1.84706 4288085770
5.2900267 3.4204638 -1.8164966 4288085770
11.529349 5.0923643 -1.8503516 4288085770
5.2241564 3.4894619 -1.8187256 4288085770
11.426483 5.1973577 -1.8556997 4288085770
5.158287 3.5584633 -1.8199543 4288085770
11.258615 5.2823853 -1.8539675 4288085770
5.1194181 3.63445 -1.8242118 4288085770
11.189753 5.3923764 -1.858339 4288085770
5.0665493 3.7054496 -1.8254496 4288085770
11.11389 5.5013728 -1.8617054 4288085770
5.0446806 3.7854338 -1.8297237 4288085770
11.072025 5.6193566 -1.8671087 4288085770
5.0138111 3.8644228 -1.8329927 4288085770
11.073164 5.7533264 -1.8745743 4288085770
4.9709415 3.9384303 -1.8312423 4288085770
11.054301 5.8783097 -1.8790058 4288085770
4.9550724 4.0204206 -1.833524 4288085770
11.059441 6.013289 -1.8834752 4288085770
4.9852047 4.1183863 -1.8408692 4288085770
11.107582 6.1612549 -1.8899977 4288085770
4.9833384 4.2063737 -1.8431741 4288085770
11.140723 6.3072329 -1.8935101 4288085770
4.9974718 4.2993555 -1.8464992 4288085770
11.26387 6.48417 -1.9051456 4288085770
5.0286074 4.3983345 -1.8498478 4288085770
11.323015 6.6411476 -1.9077007 4288085770
5.0217409 4.4843369 -1.848145 4288085770
11.430159 6.8161101 -1.9123265 4288085770
5.0668764 4.59131 -1.8525237 4288085770
11.583309 7.0090523 -1.9210225 4288085770
5.1660137 4.7192545 -1.8629843 4288085770
11.763458 7.2179909 -1.9297781 4288085770
5.201149 4.8222427 -1.8633475 4288085770
11.93961 7.4259386 -1.9355299 4288085770
5.2922859 4.9492025 -1.8698033 4288085770
12.139765 7.6478796 -1.9423343 4288085770
5.3884277 5.0791602 -1.8762704 4288085770
12.41992 7.9037905 -1.9542702 4288085770
5.4625645 5.2021389 -1.8777094 4288085770
12.70808 8.1687069 -1.9642386 4288085770
5.5807056 5.3450904 -1.8852253 4288085770
5.6868458 5.4840603 -1.8877254 4288085770
5.8019886 5.6300287 -1.8902509 4288085770
5.949132 5.789979 -1.8968308 4288085770
6.0902777 5.9489431 -1.8994063 4288085770
6.2824249 6.1358829 -1.9070874 4288085770
6.5185747 6.3448014 -1.9188522 4288085770
6.7197247 6.5387459 -1.9245595 4288085770
6.9628763 6.7566729 -1.9333569 4288085770
7.2320318 6.9905968 -1.9422145 4288085770
7.531189 7.2435079 -1.9531431 4288085770
7.8143482 7.4914455 -1.9570519 4288085770
8.1475096 7.7683549 -1.9670697 4288085770
8.5386753 8.0802517 -1.9782192 4288085770
13.086298 -0.22571516 -1.761968 4288085770
11.85741 -0.24853945 -1.7673959 4288085770
10.746527 -0.2663765 -1.7708874 4288085770
9.7726421 -0.28123617 -1.7744443 4288085770
8.8647614 -0.2920928 -1.7740407 4288085770
8.0698776 -0.30097437 -1.7756894 4288085770
7.371994 -0.30788279 -1.7803843 4288085770
6.7081118 -0.31378603 -1.7820956 4288085770
12.683137 -0.59766531 -1.7546922 4288085770
6.1312275 -0.31771708 -1.7878492 4288085770
11.526255 -0.58552551 -1.7672582 4288085770
5.5983458 -0.32165194 -1.7926205 4288085770
10.395376 -0.5683527 -1.7688496 4288085770
5.0834646 -0.32157707 -1.7934116 4288085770
9.4124956 -0.55220413 -1.7704989 4288085770
4.6345825 -0.32251883 -1.7962267 4288085770
8.5326166 -0.53707552 -1.7731868 4288085770
4.1807022 -0.32044983 -1.7960491 4288085770
7.7767363 -0.52397776 -1.7789196 4288085770
3.7598238 -0.31737947 -1.7938879 4288085770
7.0958548 -0.51089525 -1.7856832 4288085770
3.3789434 -0.31432629 -1.7947431 4288085770
6.4509745 -0.49680853 -1.7894644 4288085770
3.0230627 -0.31027365 -1.7946117 4288085770
5.8740959 -0.48272991 -1.7922736 4288085770
2.7051764 -0.30723667 -1.7974921 4288085770
5.3282118 -0.4676528 -1.7940981 4288085770
2.3742981 -0.30117798 -1.7943771 4288085770
4.8433332 -0.45458937 -1.7969418 4288085770
2.1314135 -0.29918003 -1.805286 4288085770
4.3774529 -0.44051838 -1.7967962 4288085770
1.8595343 -0.2931447 -1.8061954 4288085770
3.9415751 -0.42545605 -1.797666 4288085770
1.5816574 -0.28609419 -1.8031048 4288085770
3.5246983 -0.4093833 -1.7945468 4288085770
1.3487759 -0.28007126 -1.80603 4288085770
3.1698198 -0.39633703 -1.7964438 4288085770
1.1088963 -0.27303123 -1.8039553 4288085770
2.8219414 -0.38228559 -1.7963465 4288085770
0.88401794 -0.26499605 -1.8028897 4288085770
2.5130625 -0.3692503 -1.7992625 4288085770
0.67613983 -0.25696754 -1.8028313 4288085770
2.2371807 -0.35823059 -1.8051856 4288085770
0.46126175 -0.24792433 -1.7987729 4288085770
1.9513025 -0.34418678 -1.8041139 4288085770
0.27638435 -0.23990011 -1.7987239 4288085770
1.6804256 -0.33014441 -1.8030481 4288085770
0.094503403 -0.23187208 -1.797676 4288085770
1.4105492 -0.31409216 -1.7989891 4288085770
-0.084375381 -0.22284126 -1.7956321 4288085770
1.1776714 -0.30106258 -1.7999358 4288085770
-0.25425339 -0.21281242 -1.7935954 4288085770
0.9487915 -0.28802681 -1.7988842 4288085770
-0.39113426 -0.20581198 -1.7985631 4288085770
0.73391533 -0.27399445 -1.7978413 4288085770
-0.52101707 -0.19881296 -1.8035337 4288085770
0.53503609 -0.25996733 -1.7978054 4288085770
-0.66890144 -0.18878698 -1.8015056 4288085770
0.33415413 -0.24592638 -1.7937682 4288085770
-0.81177521 -0.17876244 -1.7994798 4288085770
0.14127541 -0.23188972 -1.7907341 4288085770
-0.93665504 -0.16875076 -1.8004619 4288085770
-0.021602631 -0.21887541 -1.7927097 4288085770
-1.059536 -0.15973902 -1.8014412 4288085770
-0.16948128 -0.2068696 -1.7966887 4288085770
-1.1714153 -0.15073299 -1.8034253 4288085770
-0.31436157 -0.19485807 -1.7986687 4288085770
-0.4772377 -0.17981958 -1.7936504 4288085770
-0.61311722 -0.16780996 -1.7956338 4288085770
-0.74799538 -0.1547904 -1.7946208 4288085770
-0.8708744 -0.14177895 -1.7956132 4288085770
-0.99375534 -0.12876701 -1.7966051 4288085770
-1.1116295 -0.11574984 -1.7955993 4288085770
1.39361 2.171428 -1.8108603 4288085770
0.073564529 1.8719141 -1.8051288 4288085770
1.6107378 2.1963539 -1.8088824 4288085770
0.2626915 1.8928113 -1.8121443 4288085770
1.8468666 2.2222688 -1.8079011 4288085770
0.42681694 1.9057517 -1.8111364 4288085770
2.0799942 2.2461936 -1.804913 4288085770
0.63394928 1.9276378 -1.8191491 4288085770
2.3241215 2.2701144 -1.8019207 4288085770
0.79106903 1.9346025 -1.8131187 4288085770
2.6062508 2.2990048 -1.8029342 4288085770
0.99719429 1.9525068 -1.8171154 4288085770
2.8803778 2.3249149 -1.7999388 4288085770
1.1773167 1.9614544 -1.8130848 4288085770
3.1865091 2.3538013 -1.7999432 4288085770
1.3824406 1.9743762 -1.8130611 4288085770
3.5146399 2.3836749 -1.8009436 4288085770
1.5875626 1.9843066 -1.8110249 4288085770
3.8537703 2.4135537 -1.7999398 4288085770
1.8006868 1.9942338 -1.8089855 4288085770
4.2209015 2.4454141 -1.8009337 4288085770
2.0208073 2.0031633 -1.8059396 4288085770
4.5780287 2.4702995 -1.7969021 4288085770
2.2569304 2.0120831 -1.803887 4288085770
4.9701576 2.4981682 -1.7938696 4288085770
2.5030537 2.0209947 -1.8028309 4288085770
5.3982878 2.5300162 -1.7928401 4288085770
2.7771769 2.0318878 -1.8037723 4288085770
5.8624191 2.5628464 -1.7928008 4288085770
3.0593014 2.0417783 -1.8047067 4288085770
6.3605499 2.596669 -1.7917526 4288085770
3.3394156 2.0476868 -1.8016247 4288085770
6.8216686 2.6185405 -1.7826685 4288085770
3.656539 2.0555651 -1.8025368 4288085770
7.3697996 2.6513543 -1.7795973 4288085770
3.9716606 2.0614526 -1.8014418 4288085770
7.9689312 2.6851416 -1.7785103 4288085770
4.3057814 2.0663335 -1.8003352 4288085770
8.6450653 2.7248888 -1.780419 4288085770
4.6509018 2.0682151 -1.7982117 4288085770
9.3331947 2.7596581 -1.7763023 4288085770
