# .PCD v0.7 - Point Cloud Data file format
VERSION 0.7
FIELDS x y z rgb
SIZE 4 4 4 4
TYPE F F F U
COUNT 1 1 1 1
WIDTH 1110
HEIGHT 1
VIEWPOINT 0 0 0 1 0 0 0
POINTS 1110
DATA ascii
6.112854 1.5000166 -1.8216352 4288085770
5.6574402 1.5373751 -1.8127646 4288085770
12.193756 2.1615553 -1.8180959 4288085770
5.2519989 1.5751597 -1.8064989 4288085770
11.527191 2.2096066 -1.8285623 4288085770
4.8655548 1.6097111 -1.799492 4288085770
10.832657 2.2489071 -1.82976 4288085770
4.4981079 1.6440285 -1.7917171 4288085770
10.04007 2.2712317 -1.814905 4288085770
4.1716309 1.6778792 -1.7864457 4288085770
9.4175262 2.3036275 -1.8110371 4288085770
3.8781433 1.7133573 -1.7835621 4288085770
8.8779755 2.3390689 -1.8111542 4288085770
3.6066589 1.7485756 -1.7809483 4288085770
8.3804474 2.3760123 -1.8117692 4288085770
3.3401642 1.7817162 -1.7764117 4288085770
7.8348846 2.3994169 -1.7999129 4288085770
3.0906677 1.8136564 -1.7720929 4288085770
7.3473206 2.4251618 -1.7917441 4288085770
2.8541718 1.8454427 -1.7679334 4288085770
6.9087677 2.4533453 -1.7861511 4288085770
2.6506653 1.8798658 -1.7671534 4288085770
6.49823 2.4811797 -1.7789018 4288085770
2.4371643 1.9113709 -1.7622755 4288085770
6.1407013 2.5124145 -1.7752697 4288085770
2.2656708 1.9474245 -1.7628706 4288085770
5.7871552 2.5405836 -1.7697116 4288085770
2.0971527 1.9804338 -1.7625284 4288085770
5.4596252 2.5684276 -1.7624733 4288085770
1.9186401 2.0115247 -1.7580795 4288085770
5.1660919 2.599906 -1.7596178 4288085770
1.7771454 2.0472236 -1.7590424 4288085770
4.9145813 2.6349049 -1.7592446 4288085770
1.6616211 2.0856419 -1.7632991 4288085770
4.6740875 2.6697564 -1.7570059 4288085770
1.5061188 2.1154613 -1.7591407 4288085770
4.4255829 2.7006831 -1.7527026 4288085770
1.4066315 2.1556907 -1.7635761 4288085770
4.2161102 2.7371678 -1.7508273 4288085770
1.2651215 2.1873441 -1.7595713 4288085770
3.9996033 2.7697172 -1.7468995 4288085770
1.146637 2.2207437 -1.7578324 4288085770
3.808136 2.8039804 -1.7442622 4288085770
1.0391388 2.2550225 -1.7572203 4288085770
3.6196594 2.8381977 -1.740661 4288085770
0.95365906 2.2940683 -1.759835 4288085770
3.4612122 2.8770881 -1.7403857 4288085770
0.85118103 2.3292789 -1.7582735 4288085770
3.3227844 2.9197512 -1.7413203 4288085770
0.75570679 2.3644061 -1.7567991 4288085770
3.1713257 2.9575405 -1.7391387 4288085770
0.6622467 2.3984919 -1.7533578 4288085770
3.0529327 3.0019665 -1.7403029 4288085770
0.57278442 2.4335394 -1.7509564 4288085770
2.9305115 3.0444312 -1.7404342 4288085770
0.50331116 2.4723773 -1.7517666 4288085770
2.8321228 3.0906215 -1.741827 4288085770
0.42886353 2.5092568 -1.7505322 4288085770
2.705719 3.129097 -1.7379429 4288085770
0.34941101 2.5441771 -1.7472531 4288085770
2.6113281 3.1732206 -1.7374017 4288085770
0.29098511 2.5838761 -1.747189 4288085770
2.5119629 3.2173953 -1.7357979 4288085770
0.24455261 2.62745 -1.7492378 4288085770
2.4256439 3.2654157 -1.7343189 4288085770
0.16210938 2.6593704 -1.7419468 4288085770
2.3442993 3.311377 -1.7329192 4288085770
0.11769104 2.7019124 -1.7430284 4288085770
2.2839966 3.3651175 -1.7347078 4288085770
0.07232666 2.7454576 -1.7430882 4288085770
2.2127075 3.4129515 -1.7324133 4288085770
0.03793335 2.7898812 -1.7442753 4288085770
2.1674347 3.4695139 -1.7343606 4288085770
0.0005645752 2.8333225 -1.7434337 4288085770
2.1111603 3.5221796 -1.7332066 4288085770
-0.039794922 2.87679 -1.7415547 4288085770
2.0739594 3.5816388 -1.7342256 4288085770
-0.073165894 2.922184 -1.7407444 4288085770
2.031723 3.6381383 -1.7332089 4288085770
-0.085479736 2.9743571 -1.7431318 4288085770
1.9905243 3.6946177 -1.731204 4288085770
-0.11982727 3.0177445 -1.740326 4288085770
1.981369 3.7617626 -1.7344981 4288085770
-0.12413025 3.0728316 -1.7437855 4288085770
1.9572144 3.8240499 -1.7336503 4288085770
-0.1464386 3.1200871 -1.7420926 4288085770
1.9250488 3.8834133 -1.7307297 4288085770
-0.15571594 3.1732054 -1.7425075 4288085770
1.9129333 3.9495578 -1.7299945 4288085770
-0.15097046 3.2311773 -1.7450513 4288085770
1.9108734 4.0185847 -1.7293569 4288085770
-0.17022705 3.2803779 -1.741377 4288085770
1.9198456 4.0934992 -1.7308018 4288085770
-0.17045593 3.336381 -1.7408762 4288085770
1.9338226 4.1693454 -1.7313 4288085770
-0.15567017 3.3982344 -1.7435081 4288085770
1.9408417 4.2442565 -1.7297198 4288085770
-0.15484619 3.4562168 -1.7420014 4288085770
1.9719238 4.3289104 -1.7313484 4288085770
-0.14402771 3.5170903 -1.741592 4288085770
1.9980316 4.4126053 -1.7309238 4288085770
-0.12718201 3.5809016 -1.7422304 4288085770
2.0502319 4.50702 -1.7337242 4288085770
-0.10427856 3.6486416 -1.7429074 4288085770
2.1074677 4.6063848 -1.7375418 4288085770
-0.07635498 3.7183228 -1.7436289 4288085770
2.17276 4.7086363 -1.7394323 4288085770
-0.060455322 3.7821093 -1.7402545 4288085770
2.2490997 4.8177757 -1.7433971 4288085770
-0.035507202 3.8518076 -1.738938 4288085770
2.3144379 4.9210091 -1.7432786 4288085770
0.0014801025 3.9253731 -1.7387353 4288085770
2.4109039 5.0399117 -1.7474031 4288085770
0.033462524 3.9979787 -1.7364793 4288085770
2.4893494 5.1519914 -1.747366 4288085770
0.088546753 4.0813408 -1.7374111 4288085770
2.5587769 5.2601409 -1.7432526 4288085770
0.12356567 4.1548934 -1.7331833 4288085770
2.652359 5.3810248 -1.7413222 4288085770
0.18571472 4.2431717 -1.7341574 4288085770
2.7539825 5.506813 -1.7394464 4288085770
0.28100586 4.3491154 -1.7413815 4288085770
2.8646545 5.6375041 -1.738638 4288085770
0.32211304 4.427578 -1.7351837 4288085770
2.9753723 5.7701683 -1.7348123 4288085770
0.44252014 4.548243 -1.7445852 4288085770
3.1373444 5.9302835 -1.7373714 4288085770
0.53286743 4.6532001 -1.7467562 4288085770
3.2943573 6.0894308 -1.7368777 4288085770
0.61418152 4.7542262 -1.7448511 4288085770
3.505661 6.2800016 -1.743771 4288085770
0.73573303 4.8788338 -1.7492298 4288085770
3.7009583 6.4647083 -1.7445188 4288085770
0.8331604 4.9896793 -1.7484348 4288085770
3.9585724 6.6847448 -1.7527179 4288085770
0.93466187 5.1034508 -1.7446629 4288085770
4.1660309 6.8792725 -1.7495269 4288085770
1.0723572 5.2388511 -1.7471434 4288085770
4.4439087 7.1150436 -1.7548332 4288085770
1.1859589 5.3604794 -1.7434498 4288085770
4.6927185 7.3380756 -1.7508949 4288085770
1.3016205 5.4840579 -1.7367638 4288085770
4.9867859 7.5876217 -1.7522768 4288085770
1.4484253 5.6253147 -1.7353033 4288085770
5.3302155 7.8685875 -1.7539843 4288085770
1.6163788 5.7813416 -1.7359707 4288085770
5.7059021 8.1721926 -1.7578859 4288085770
1.805481 5.9501195 -1.7367841 4288085770
1.9936066 6.1188908 -1.7355857 4288085770
2.2149506 6.3082995 -1.7376113 4288085770
2.4654999 6.5173826 -1.7418202 4288085770
2.7382202 6.7412071 -1.7461702 4288085770
2.9868622 6.9502516 -1.7433554 4288085770
3.2878418 7.1937237 -1.7458771 4288085770
3.6059875 7.447978 -1.7465134 4288085770
3.9634094 7.7287798 -1.7483959 4288085770
4.3510742 8.0292377 -1.751475 4288085770
12.473923 -0.62963569 -1.9308206 4288085770
11.379669 -0.65176117 -1.9259565 4288085770
10.455307 -0.67480695 -1.9302915 4288085770
9.4952393 -0.6865586 -1.9210485 4288085770
8.6531677 -0.6976707 -1.9153197 4288085770
7.8811035 -0.70660204 -1.9104705 4288085770
7.1212616 -0.70775139 -1.8976982 4288085770
6.4184113 -0.70756775 -1.8856461 4288085770
5.7656403 -0.70398831 -1.872205 4288085770
11.996429 -1.2438991 -1.9421432 4288085770
5.1419067 -0.69876796 -1.8571171 4288085770
10.94957 -1.221499 -1.9464312 4288085770
4.6230011 -0.69769704 -1.8514271 4288085770
9.971817 -1.1969533 -1.9465896 4288085770
4.1471252 -0.69611907 -1.8472861 4288085770
8.9165192 -1.155692 -1.9255722 4288085770
3.6763306 -0.68963915 -1.8391606 4288085770
8.0908661 -1.1289811 -1.9216676 4288085770
3.2654724 -0.68583119 -1.8348349 4288085770
7.2853546 -1.097582 -1.9099722 4288085770
2.8666534 -0.67917359 -1.8296353 4288085770
6.5149536 -1.0636311 -1.8947014 4288085770
2.520752 -0.67609656 -1.8291543 4288085770
5.82547 -1.0326169 -1.8815043 4288085770
2.1908875 -0.67121637 -1.8278617 4288085770
5.1810303 -1.0011382 -1.8678818 4288085770
1.8929749 -0.66668105 -1.8299855 4288085770
4.6164551 -0.97455508 -1.8593401 4288085770
1.5851746 -0.65908778 -1.8259485 4288085770
4.1128693 -0.94966507 -1.8536028 4288085770
1.3093109 -0.65283906 -1.8253375 4288085770
3.6283112 -0.92402625 -1.8451014 4288085770
1.0683594 -0.64895058 -1.830202 4288085770
3.182724 -0.89984298 -1.8371174 4288085770
0.82949829 -0.64212477 -1.8310629 4288085770
2.7910309 -0.87924224 -1.8348663 4288085770
0.59362793 -0.63533413 -1.8319614 4288085770
2.4233704 -0.85793144 -1.8319174 4288085770
0.38378906 -0.62783766 -1.8341895 4288085770
2.0986481 -0.84010291 -1.8315583 4288085770
0.17193604 -0.62033725 -1.8343904 4288085770
1.7998505 -0.82353967 -1.8355471 4288085770
-0.051818848 -0.60874617 -1.8293946 4288085770
1.5031433 -0.80505812 -1.8335413 4288085770
-0.24066162 -0.60050499 -1.8308846 4288085770
1.2194519 -0.78572875 -1.831695 4288085770
-0.42347717 -0.59134364 -1.8314427 4288085770
0.95774841 -0.76764649 -1.8311448 4288085770
-0.60028076 -0.58126247 -1.8310688 4288085770
0.70405579 -0.7486673 -1.8296883 4288085770
-0.76411438 -0.57231402 -1.8328739 4288085770
0.48623657 -0.73406947 -1.8327405 4288085770
-0.91496277 -0.5635072 -1.8358483 4288085770
0.276474 -0.7185654 -1.835887 4288085770
-1.0797119 -0.55258608 -1.8336191 4288085770
0.060760498 -0.70003027 -1.8349251 4288085770
-1.1937103 -0.5471431 -1.8441056 4288085770
-0.16383362 -0.6794486 -1.8278245 4288085770
-1.3603516 -0.53224802 -1.8368106 4288085770
-0.34062195 -0.66432989 -1.8314004 4288085770
-1.5081024 -0.52054477 -1.8327924 4288085770
-0.50941467 -0.64930463 -1.8350799 4288085770
-1.6249542 -0.51111615 -1.8381991 4288085770
-0.68811035 -0.6322211 -1.8326083 4288085770
-1.7467804 -0.50066817 -1.8395301 4288085770
-0.84486389 -0.61635602 -1.8344344 4288085770
-1.8566437 -0.4913311 -1.8440272 4288085770
-0.98669434 -0.60263598 -1.8394752 4288085770
-1.9684448 -0.48100007 -1.8454881 4288085770
-1.1403809 -0.58583462 -1.838329 4288085770
-1.2751617 -0.57021642 -1.8414412 4288085770
-1.4437256 -0.54932833 -1.8310581 4288085770
-1.5844116 -0.53168917 -1.82907 4288085770
-1.7001953 -0.51729238 -1.8324388 4288085770
-1.8159332 -0.50191569 -1.8337976 4288085770
-1.9147949 -0.48968863 -1.840408 4288085770
-2.0295105 -0.47234309 -1.8397592 4288085770
-2.068634 1.3796958 -1.7900068 4288085770
-1.9553375 1.3953737 -1.7903916 4288085770
-1.8360596 1.4109935 -1.7918583 4288085770
-1.7217407 1.4246312 -1.7892774 4288085770
-1.5914459 1.4411246 -1.7908853 4288085770
-1.4621429 1.4556097 -1.7905004 4288085770
-1.3198547 1.4709636 -1.7922831 4288085770
-2.1303253 1.3534404 -1.7935143 4288085770
-1.183548 1.4853476 -1.7899952 4288085770
-2.0101013 1.3650695 -1.7970349 4288085770
-1.0572052 1.4958078 -1.7836115 4288085770
-1.8958588 1.3747286 -1.7964948 4288085770
-0.90789795 1.5100523 -1.7825023 4288085770
-1.7656555 1.3862418 -1.8001534 4288085770
-0.7326355 1.5270458 -1.786718 4288085770
-1.645401 1.3948218 -1.7987063 4288085770
-0.55831909 1.5430216 -1.7879313 4288085770
-1.5291595 1.4014181 -1.7942252 4288085770
-0.39700317 1.5550977 -1.7840084 4288085770
-1.3879242 1.4117955 -1.7970459 4288085770
-0.22169495 1.5680224 -1.7812674 4288085770
-1.2686768 1.4163376 -1.7906275 4288085770
-0.0443573 1.5799142 -1.7775646 4288085770
-1.1304474 1.4237 -1.788439 4288085770
0.16893005 1.59645 -1.7803042 4288085770
-0.96525574 1.4338201 -1.7935891 4288085770
0.383255 1.6109446 -1.7800789 4288085770
-0.8210144 1.4390947 -1.7895042 4288085770
0.61053467 1.6252993 -1.7810321 4288085770
-0.65481567 1.446164 -1.7907 4288085770
0.86880493 1.6433352 -1.7863698 4288085770
-0.48262024 1.4531552 -1.7909783 4288085770
1.1181335 1.6574169 -1.7856258 4288085770
-0.31340027 1.4581605 -1.7892373 4288085770
1.3334656 1.663812 -1.7764993 4288085770
-0.13121033 1.4630262 -1.7886747 4288085770
1.5937958 1.6757365 -1.7729291 4288085770
0.076980591 1.4706315 -1.7924384 4288085770
1.8851013 1.6893436 -1.773764 4288085770
0.29014587 1.4761699 -1.7952915 4288085770
2.1934052 1.7027444 -1.7738333 4288085770
0.49235535 1.4787856 -1.7930259 4288085770
2.5067291 1.7130488 -1.7700027 4288085770
0.70352173 1.4802977 -1.7908944 4288085770
2.8890228 1.731655 -1.7770277 4288085770
0.97064209 1.4872628 -1.7994696 4288085770
3.2852936 1.7470716 -1.7812767 4288085770
1.164856 1.4828924 -1.7891685 4288085770
3.7205963 1.7650567 -1.7880317 4288085770
1.3800507 1.4782997 -1.7811559 4288085770
4.1379089 1.7761816 -1.787613 4288085770
1.6322327 1.4773294 -1.7786107 4288085770
4.6262054 1.7925369 -1.7931088 4288085770
1.9093628 1.4750813 -1.7774193 4288085770
5.1504822 1.8084778 -1.7991005 4288085770
2.2014923 1.4736804 -1.7784246 4288085770
5.7357788 1.8257345 -1.8079109 4288085770
2.5275879 1.4719077 -1.7818974 4288085770
6.3360596 1.8397788 -1.8129604 4288085770
2.8706665 1.4689289 -1.784615 4288085770
7.0183411 1.8558971 -1.8211073 4288085770
3.2667084 1.4683996 -1.7940307 4288085770
7.8356018 1.8785385 -1.8390282 4288085770
3.6767426 1.4636689 -1.7996804 4288085770
8.5719147 1.8859357 -1.8380039 4288085770
4.0717926 1.4550623 -1.8001674 4288085770
9.3472595 1.8898546 -1.8345494 4288085770
4.5287933 1.4478005 -1.8074865 4288085770
10.341507 1.9053768 -1.8469628 4288085770
5.0137634 1.4371966 -1.8132228 4288085770
11.392807 1.9161919 -1.8552046 4288085770
5.5696869 1.4268247 -1.8249253 4288085770
12.31514 1.906289 -1.8409034 4288085770
6.1356049 1.4143077 -1.8337888 4288085770
6.7614899 1.39811 -1.8445089 4288085770
7.458313 1.3811153 -1.8582073 4288085770
8.1990967 1.3596128 -1.8725541 4288085770
8.8799286 1.3266648 -1.8722022 4288085770
9.6067352 1.2891771 -1.8715262 4288085770
10.483429 1.2510308 -1.8799053 4288085770
11.415085 1.2052218 -1.8861157 4288085770
12.30275 1.1467923 -1.8788577 4288085770
4.1373291 -7.7388592 -1.7639407 4293729569
3.8226929 -7.5149965 -1.7822593 4293729569
3.5487061 -7.3175702 -1.8044183 4293729569
3.2728424 -7.1151624 -1.8224974 4293729569
3.0030212 -6.9138756 -1.8356701 4293729569
2.7500763 -6.7227726 -1.8501832 4293729569
2.4853821 -6.5196061 -1.8574045 4293729569
2.2493896 -6.3357387 -1.8682261 4293729569
2.0431976 -6.1712117 -1.8796617 4293729569
1.788559 -5.9702439 -1.8790416 4288085770
4.2089691 -7.5549932 -1.7312721 4293729569
1.5666809 -5.7906404 -1.8800993 4288085770
4.0323944 -7.3975906 -1.7642028 4293729569
1.346817 -5.6110706 -1.8801841 4288085770
3.8826141 -7.2564845 -1.798676 4293729569
1.1576691 -5.4528222 -1.8839186 4288085770
3.6665497 -7.0687528 -1.8187366 4293729569
0.97749329 -5.298708 -1.8848201 4288085770
3.4505615 -6.8790517 -1.8357759 4293729569
0.80723572 -5.1506968 -1.8869227 4288085770
3.2158051 -6.676199 -1.8464144 4293729569
0.64691162 -5.00881 -1.888227 4288085770
2.9890442 -6.478467 -1.8542156 4293729569
0.5014801 -4.8770938 -1.8898438 4288085770
2.7900085 -6.2990336 -1.8645945 4293729569
0.35906982 -4.7454224 -1.8905023 4288085770
2.595047 -6.1206765 -1.8720388 4293729569
0.20974731 -4.6097026 -1.8880209 4288085770
2.4040375 -5.9453869 -1.8775697 4293729569
0.068389893 -4.4790955 -1.883703 4288085770
2.2051697 -5.765058 -1.8779361 4288085770
-0.05116272 -4.3617067 -1.8828268 4288085770
2.0360565 -5.6040497 -1.8809186 4288085770
-0.15486145 -4.2544689 -1.8852773 4288085770
1.8728943 -5.4471087 -1.8840258 4288085770
-0.26051331 -4.1452394 -1.8846788 4288085770
1.7048187 -5.2871537 -1.8830312 4288085770
-0.36418152 -4.0380435 -1.8831289 4288085770
1.5753937 -5.1515899 -1.8878306 4288085770
-0.46679688 -3.9318895 -1.8786021 4288085770
1.4271851 -5.0048723 -1.8862486 4288085770
-0.55557251 -3.8328543 -1.8783441 4288085770
1.3235474 -4.8866038 -1.8915871 4288085770
-0.62353516 -3.7480354 -1.8805246 4288085770
1.207077 -4.7602396 -1.8916606 4288085770
-0.71026611 -3.6510646 -1.8763148 4288085770
1.0995483 -4.6399674 -1.8929216 4288085770
-0.76434326 -3.5743957 -1.8797737 4288085770
0.96629333 -4.5024838 -1.8856421 4288085770
-0.84608459 -3.4805021 -1.8736644 4288085770
0.86276245 -4.3852992 -1.8829892 4288085770
-0.90208435 -3.4018416 -1.8740742 4288085770
0.76817322 -4.2742167 -1.8805244 4288085770
-0.96302795 -3.3211555 -1.8713931 4288085770
0.68547058 -4.1692495 -1.8802894 4288085770
-1.0289001 -3.2374444 -1.8656106 4288085770
0.60775757 -4.0683503 -1.8791654 4288085770
-1.1006622 -3.1486964 -1.8566921 4288085770
0.54986572 -3.9776568 -1.8804255 4288085770
-1.1348419 -3.0842757 -1.8585539 4288085770
0.48208618 -3.8828816 -1.8785033 4288085770
-1.1492004 -3.0300405 -1.8647997 4288085770
0.42915344 -3.7972555 -1.8788844 4288085770
-1.2070923 -2.9514515 -1.8561802 4288085770
0.37527466 -3.7106395 -1.877241 4288085770
-1.24617 -2.8840261 -1.8529407 4288085770
0.33328247 -3.6301389 -1.8778276 4288085770
-1.2584839 -2.8308449 -1.8562247 4288085770
0.28337097 -3.5475783 -1.8752813 4288085770
-1.3025055 -2.7613945 -1.8498938 4288085770
0.26617432 -3.4813304 -1.8793634 4288085770
-1.3019257 -2.71434 -1.8554211 4288085770
0.20541382 -3.3917079 -1.8705889 4288085770
-1.3271027 -2.6540742 -1.8524498 4288085770
0.19619751 -3.3285613 -1.8738142 4288085770
-1.3344269 -2.6029706 -1.853824 4288085770
0.1730957 -3.2592874 -1.8737805 4288085770
-1.3456879 -2.5488431 -1.8531113 4288085770
0.15202332 -3.1910565 -1.8717853 4288085770
-1.3470612 -2.5018084 -1.8546109 4288085770
0.14677429 -3.1309764 -1.8730974 4288085770
-1.352356 -2.4507484 -1.8540132 4288085770
0.12176514 -3.0607314 -1.8680252 4288085770
-1.3507385 -2.404758 -1.8545654 4288085770
0.099731445 -2.9925213 -1.8630154 4288085770
-1.3480988 -2.358779 -1.8551315 4288085770
0.11535645 -2.9426589 -1.8667258 4288085770
-1.3414612 -2.3128557 -1.854754 4288085770
0.10522461 -2.8805742 -1.8629465 4288085770
-1.3417816 -2.2648745 -1.8522571 4288085770
0.1030426 -2.8215699 -1.8603107 4288085770
-1.3321533 -2.2209852 -1.8519423 4288085770
0.11875916 -2.7707493 -1.860011 4288085770
-1.3076935 -2.1852245 -1.855921 4288085770
0.12353516 -2.7158246 -1.8575145 4288085770
-1.3059692 -2.1382971 -1.8504628 4288085770
0.14318848 -2.6670499 -1.8572917 4288085770
-1.2735291 -2.1036172 -1.8555642 4288085770
0.17181396 -2.6213667 -1.8582263 4288085770
-1.2628784 -2.0607708 -1.8522737 4288085770
0.18855286 -2.5705891 -1.8549404 4288085770
-1.2274323 -2.0271459 -1.8554281 4288085770
0.22712708 -2.5290089 -1.8570572 4288085770
-1.2088318 -1.9863799 -1.8532702 4288085770
0.25776672 -2.4823694 -1.856009 4288085770
-1.1822662 -1.9486948 -1.8522565 4288085770
0.30929565 -2.4439373 -1.8583401 4288085770
-1.149765 -1.9130569 -1.853348 4288085770
0.35090637 -2.4024229 -1.8574995 4288085770
-1.1221924 -1.8753934 -1.8513483 4288085770
0.39550781 -2.3609428 -1.856701 4288085770
-1.0777435 -1.8438812 -1.8536505 4288085770
0.44706726 -2.3215318 -1.857022 4288085770
-1.0491486 -1.8062501 -1.8496652 4288085770
0.50958252 -2.2852349 -1.8585292 4288085770
-1.0036469 -1.7727706 -1.8499607 4288085770
0.56416321 -2.2458789 -1.8568927 4288085770
-0.94924927 -1.7433618 -1.8534243 4288085770
0.62971497 -2.2086377 -1.8564322 4288085770
-0.89877319 -1.7119389 -1.8538113 4288085770
0.69625854 -2.1724076 -1.8559961 4288085770
-0.85224915 -1.6784917 -1.8521211 4288085770
0.7767334 -2.1393161 -1.8577883 4288085770
-0.80172729 -1.6460897 -1.8504981 4288085770
0.8631897 -2.1072924 -1.8596761 4288085770
-0.7303772 -1.6198742 -1.8542325 4288085770
0.97154236 -2.0814874 -1.8649364 4288085770
-0.65699768 -1.5936813 -1.8579959 4288085770
1.0531006 -2.0464492 -1.8627231 4288085770
-0.62132263 -1.5551825 -1.8490998 4288085770
1.1267242 -2.0083408 -1.8583661 4288085770
-0.54295349 -1.5300465 -1.8529439 4288085770
1.2331543 -1.9795552 -1.8595678 4288085770
-0.47250366 -1.5008616 -1.8526343 4288085770
1.351593 -1.9518954 -1.8619494 4288085770
-0.40202332 -1.4716976 -1.8503246 4288085770
1.4849091 -1.9283854 -1.8665841 4288085770
-0.32258606 -1.4436048 -1.8511525 4288085770
1.6014099 -1.8977454 -1.8649073 4288085770
-0.24612427 -1.4155087 -1.8489385 4288085770
1.71492 -1.8660711 -1.863178 4288085770
-0.1566925 -1.3885401 -1.8489186 4288085770
1.8503723 -1.8386363 -1.8628012 4288085770
-0.050323486 -1.3647332 -1.8521695 4288085770
2.0127258 -1.8154665 -1.8668472 4288085770
0.056030273 -1.3409369 -1.8544209 4288085770
2.1681213 -1.7902493 -1.8677741 4288085770
0.1594696 -1.3141272 -1.8545991 4288085770
2.3295441 -1.7641 -1.8687758 4288085770
0.25595093 -1.2862694 -1.8516687 4288085770
2.4969788 -1.7380401 -1.8678629 4288085770
0.37335205 -1.2616087 -1.8530657 4288085770
2.6575012 -1.7099319 -1.8638312 4288085770
0.50566101 -1.2400974 -1.856706 4288085770
2.8618469 -1.6882505 -1.8674831 4288085770
0.60125732 -1.2092808 -1.8487313 4288085770
3.0871582 -1.6688086 -1.8714532 4288085770
0.72370911 -1.1827085 -1.8471793 4288085770
3.3095093 -1.6473532 -1.8733609 4288085770
0.8820343 -1.1614935 -1.8511881 4288085770
3.5498505 -1.6271026 -1.8755341 4288085770
1.0393677 -1.1402769 -1.854183 4288085770
3.791275 -1.6048846 -1.8757013 4288085770
1.1907959 -1.1150241 -1.8540521 4288085770
4.0725708 -1.58709 -1.8794763 4288085770
1.3681335 -1.0930457 -1.8563203 4288085770
4.3649139 -1.5674312 -1.8823867 4288085770
1.5046997 -1.0636854 -1.8499368 4288085770
4.6951752 -1.5521837 -1.8878763 4288085770
1.6980743 -1.0418997 -1.8514324 4288085770
5.0474396 -1.5361974 -1.8926684 4288085770
1.8705597 -1.0149279 -1.8475796 4288085770
5.4256897 -1.5224959 -1.8988497 4288085770
2.0630188 -0.99016219 -1.8460308 4288085770
5.8449097 -1.5102503 -1.9066225 4288085770
2.2923584 -0.96877581 -1.8490367 4288085770
6.2771759 -1.4961848 -1.9115598 4288085770
2.5138245 -0.94335103 -1.8468889 4288085770
6.8132324 -1.4912181 -1.9260526 4288085770
2.7771454 -0.92334062 -1.8513873 4288085770
7.373291 -1.485535 -1.9398762 4288085770
3.035553 -0.89931548 -1.8517743 4288085770
7.9125977 -1.4717078 -1.9443216 4288085770
3.3328857 -0.87870258 -1.855745 4288085770
8.5218353 -1.4606667 -1.9507804 4288085770
3.6542206 -0.85835218 -1.861056 4288085770
9.1441956 -1.4458263 -1.9523836 4288085770
3.9965668 -0.83725089 -1.8656547 4288085770
9.9990387 -1.4514365 -1.9764729 4288085770
4.3679047 -0.81548035 -1.8706547 4288085770
10.790329 -1.440509 -1.9814938 4288085770
4.7622681 -0.79298162 -1.8749707 4288085770
11.577835 -1.4226305 -1.9773881 4288085770
5.1656799 -0.76960623 -1.8774049 4288085770
12.46727 -1.4078919 -1.9767499 4288085770
5.6689453 -0.74929512 -1.8882768 4288085770
6.2411041 -0.7327162 -1.9051577 4288085770
6.8353729 -0.71245056 -1.9163104 4288085770
7.4687042 -0.68965012 -1.9259865 4288085770
8.1161499 -0.66405129 -1.9318317 4288085770
8.8375702 -0.63729417 -1.9387062 4288085770
9.6290588 -0.60835493 -1.9445435 4288085770
10.496597 -0.57830167 -1.9494394 4288085770
11.39328 -0.54265189 -1.9476866 4288085770
12.526764 -0.51159346 -1.9593152 4288085770
12.812424 1.9929892 -1.8642212 4288085770
12.304535 2.0819511 -1.8611743 4288085770
11.837631 2.168426 -1.8577251 4288085770
11.533707 2.2681322 -1.8684039 4288085770
11.155762 2.3555927 -1.8681837 4288085770
10.877808 2.4499645 -1.8762817 4288085770
10.419876 2.5202169 -1.8621322 4288085770
10.099991 2.5989585 -1.8587879 4288085770
9.7970276 2.6795044 -1.8556622 4288085770
9.5240631 2.7597117 -1.8539586 4288085770
9.2261047 2.8341446 -1.8459702 4288085770
8.9541016 2.9062877 -1.8393685 4288085770
8.7401428 2.9867973 -1.8374852 4288085770
8.545166 3.0660863 -1.8358794 4288085770
8.3902435 3.1519313 -1.8367606 4288085770
8.198288 3.2291427 -1.8312203 4288085770
8.0153198 3.3042483 -1.8258282 4288085770
7.8584137 3.3830523 -1.8207583 4288085770
7.7224579 3.4646335 -1.8179512 4288085770
7.618576 3.5508523 -1.8165392 4288085770
7.5027008 3.6351895 -1.8129812 4288085770
7.4138641 3.7232227 -1.8107589 4288085770
7.3660736 3.8188109 -1.8120252 4288085770
7.3112946 3.9144597 -1.8111938 4288085770
7.3135986 4.0224981 -1.8160213 4288085770
7.3039093 4.1296535 -1.8186914 4288085770
7.3403015 4.2473063 -1.8248878 4288085770
7.3647308 4.3630662 -1.8279371 4288085770
7.4332275 4.4903574 -1.8354732 4282675967
7.5107727 4.6225419 -1.8430814 4282675967
7.6364746 4.7712121 -1.8551784 4282675967
7.7040558 4.9024706 -1.8586566 4282675967
7.7296448 5.0241432 -1.8546547 4282675967
7.7983398 5.1583476 -1.8541144 4282675967
7.7889099 5.2693515 -1.8427409 4282675967
7.8616638 5.4064865 -1.8402237 4282675967
7.9043884 5.5339074 -1.8313944 4288085770
7.9992676 5.6817751 -1.8280665 4288085770
8.123291 5.8413153 -1.8260145 4288085770
8.2493591 6.0038109 -1.8219578 4288085770
8.4316559 6.1896958 -1.8224255 4288085770
8.6631317 6.3960409 -1.8263515 4288085770
8.8967133 6.6073427 -1.8282537 4288085770
9.1705017 6.8381872 -1.8314965 4288085770
9.4835052 7.0885897 -1.8360678 4288085770
9.7203064 7.3107786 -1.8308878 4288085770
10.013412 7.5613356 -1.8281776 4288085770
10.403976 7.8558064 -1.8303372 4288085770
10.779617 8.1514063 -1.8282754 4288085770
11.861191 -0.22455657 -1.9522864 4288085770
10.645187 -0.22742701 -1.9450119 4288085770
9.5782013 -0.22800696 -1.9407102 4288085770
8.6022644 -0.22669291 -1.9326103 4288085770
7.6964874 -0.22125399 -1.9194064 4288085770
6.8786774 -0.21681952 -1.9083937 4288085770
6.0510864 -0.20640421 -1.8851883 4288085770
12.491928 -0.48684502 -1.9582015 4288085770
5.3473969 -0.19835317 -1.8696679 4288085770
11.200241 -0.45981479 -1.9526113 4288085770
4.7376556 -0.19035363 -1.8584074 4288085770
10.053543 -0.43447995 -1.9469835 4288085770
4.2058411 -0.18319905 -1.8531988 4288085770
8.9739685 -0.40800691 -1.934242 4288085770
3.6890717 -0.17526257 -1.8441849 4288085770
8.0523224 -0.38432336 -1.9266437 4288085770
3.2472687 -0.16814673 -1.8401829 4288085770
7.1907349 -0.35938764 -1.9148376 4288085770
2.8045502 -0.15807557 -1.8311384 4288085770
6.3502808 -0.3327837 -1.8952986 4288085770
2.4386902 -0.15180373 -1.8311635 4288085770
5.5988312 -0.3082062 -1.8769726 4288085770
2.0818787 -0.14366937 -1.8282907 4288085770
4.9432526 -0.28568125 -1.864952 4288085770
1.7650299 -0.13597465 -1.8279575 4288085770
4.3566895 -0.26496279 -1.8528739 4288085770
1.4681854 -0.12749958 -1.8288842 4288085770
3.8629761 -0.24722826 -1.8500699 4288085770
1.2063141 -0.12040603 -1.8322934 4288085770
3.3653717 -0.22753656 -1.8391945 4288085770
0.93449402 -0.11124194 -1.8315488 4288085770
2.9406433 -0.21060979 -1.8363233 4288085770
0.69761658 -0.10344875 -1.8342865 4288085770
2.5519714 -0.19411945 -1.8319387 4288085770
0.47177124 -0.094793081 -1.8361626 4288085770
2.1812592 -0.17783761 -1.8277979 4288085770
0.23400879 -0.085054874 -1.8328687 4288085770
1.8525238 -0.1620177 -1.8262231 4288085770
0.0072937012 -0.07446599 -1.8277135 4288085770
1.5717316 -0.1477071 -1.8293046 4288085770
-0.17556763 -0.066295743 -1.8311704 4288085770
1.2889404 -0.13339555 -1.8303612 4288085770
-0.37236023 -0.056008339 -1.8304211 4288085770
1.0092316 -0.11816335 -1.8274515 4288085770
-0.54818726 -0.046952486 -1.8309639 4288085770
0.76644897 -0.10431337 -1.8290479 4288085770
-0.71998596 -0.036942959 -1.8315506 4288085770
0.53367615 -0.089590073 -1.8297693 4288085770
-0.88677979 -0.027002215 -1.8312055 4288085770
0.31489563 -0.076016903 -1.8316904 4288085770
-1.032608 -0.017281413 -1.8331426 4288085770
0.082244873 -0.06037128 -1.825405 4288085770
-1.1983032 -0.0054078102 -1.8277919 4288085770
-0.11949158 -0.046027899 -1.8245462 4288085770
-1.3112488 0.0030099154 -1.8371826 4288085770
-0.30825806 -0.031823516 -1.8248627 4288085770
-1.4380798 0.012522221 -1.8403766 4288085770
-0.46411133 -0.019943714 -1.8306432 4288085770
-1.5857849 0.024188042 -1.8352698 4288085770
-0.64482117 -0.0058648586 -1.8280696 4288085770
-1.7125397 0.035655737 -1.8344444 4288085770
-0.80558777 0.0080168247 -1.8287641 4288085770
-0.95932007 0.021806717 -1.8285536 4288085770
-1.1050873 0.03551507 -1.829451 4288085770
-1.2468262 0.049155235 -1.8284029 4288085770
-1.3676453 0.061608911 -1.8326467 4288085770
-1.5112915 0.07621634 -1.8265635 4288085770
-1.6469727 0.090753794 -1.8225878 4288085770
-1.6239014 2.1588702 -1.7697331 4288085770
-1.4914703 2.187376 -1.7731 4288085770
-1.3620758 2.2118831 -1.7734716 4288085770
-1.2556305 2.2295651 -1.7656219 4288085770
-1.1052246 2.2578654 -1.7692201 4288085770
-0.98876953 2.2754226 -1.7604988 4288085770
-0.84436035 2.2997484 -1.7600619 4288085770
-0.69090271 2.3259711 -1.7597188 4288085770
-1.6100159 2.0767231 -1.7736807 4288085770
-0.52149963 2.354044 -1.7625597 4288085770
-1.4707184 2.0981722 -1.779212 4288085770
-0.36703491 2.3762121 -1.7582722 4288085770
-1.362381 2.1088548 -1.7734634 4288085770
-0.18260193 2.4061141 -1.7612839 4288085770
-1.2090759 2.1311564 -1.7801633 4288085770
0.00085449219 2.4329948 -1.7613144 4288085770
-1.0957489 2.1407604 -1.7724886 4288085770
0.19029236 2.4598069 -1.7614217 4288085770
-0.95845032 2.1551676 -1.7720684 4288085770
0.39274597 2.4884815 -1.7626737 4288085770
-0.8221283 2.1675644 -1.7696567 4288085770
0.58920288 2.5121818 -1.7599025 4288085770
-0.64080811 2.1915569 -1.7776932 4288085770
0.8086853 2.5416517 -1.7603614 4288085770
-0.50352478 2.2009211 -1.7733258 4288085770
1.0351257 2.5690427 -1.7609314 4288085770
-0.33821106 2.21702 -1.7742422 4288085770
1.2705841 2.5973306 -1.7616055 4288085770
-0.17193604 2.2301083 -1.7752033 4288085770
1.523056 2.6264248 -1.7624868 4288085770
-0.035614014 2.2344289 -1.7658759 4288085770
1.7655334 2.6505895 -1.7592931 4288085770
0.17364502 2.2550931 -1.7733024 4288085770
2.029007 2.6775365 -1.7583358 4288085770
0.34693909 2.2650576 -1.7703844 4288085770
2.3014984 2.7033591 -1.7555047 4288085770
0.54222107 2.2778044 -1.7707164 4288085770
2.5999756 2.7329292 -1.7569633 4288085770
0.75048828 2.2914505 -1.7731959 4288085770
2.9274445 2.7651944 -1.7587572 4288085770
0.95074463 2.3001194 -1.7716398 4288085770
3.289978 2.8020792 -1.7649574 4288085770
1.147995 2.3058014 -1.7680776 4288085770
3.6594849 2.8358412 -1.7672802 4288085770
1.3792419 2.3171506 -1.7698877 4288085770
4.0720062 2.8751678 -1.7750908 4288085770
1.60849 2.3255014 -1.769703 4288085770
4.5155487 2.9171405 -1.7832656 4288085770
1.8227234 2.3269682 -1.7644016 4288085770
4.9550934 2.9531155 -1.7874528 4288085770
2.0649567 2.3331604 -1.7634047 4288085770
5.4296417 2.9907036 -1.7930677 4288085770
2.3301697 2.3401127 -1.7646923 4288085770
5.9501801 3.0327892 -1.8012184 4288085770
2.6103821 2.3468938 -1.7661722 4288085770
6.5037842 3.0744762 -1.8077928 4288085770
2.8915558 2.3496532 -1.7667079 4288085770
7.0723419 3.1129827 -1.8135911 4288085770
3.221756 2.3589091 -1.7727963 4288085770
7.7399597 3.1634259 -1.8265196 4288085770
3.5409241 2.3632588 -1.7757967 4288085770
8.4415741 3.2114606 -1.8379055 4288085770
3.878067 2.3654032 -1.7790499 4288085770
9.1121521 3.2467623 -1.8410325 4288085770
4.239212 2.3672743 -1.7826107 4288085770
9.8647766 3.2871399 -1.8461469 4288085770
4.6403198 2.372746 -1.7916405 4288085770
10.764404 3.3429637 -1.8639635 4288085770
5.0084076 2.367506 -1.7923654 4288085770
11.557983 3.3728099 -1.8637096 4288085770
5.4115143 2.3639011 -1.7965171 4288085770
12.37854 3.3973069 -1.8598552 4288085770
5.8435516 2.3579659 -1.8010625 4288085770
6.328598 2.3564715 -1.8102326 4288085770
6.8035889 2.3460484 -1.8153727 4288085770
7.3505859 2.3408713 -1.8273695 4288085770
7.9244995 2.3303771 -1.8387661 4288085770
8.4754181 2.3110795 -1.8439642 4288085770
9.0332794 2.2846708 -1.8463271 4288085770
9.6020813 2.2521272 -1.847895 4288085770
10.283859 2.2233639 -1.8568579 4288085770
11.042572 2.1957788 -1.8717852 4288085770
11.636215 2.1408668 -1.8659091 4288085770
12.195862 2.0782766 -1.8536823 4288085770
13.061371 2.0294452 -1.8671955 4288085770
4.9439697 -4.6755114 -0.79068053 4293729569
4.8819122 -4.7374187 -0.8255744 4293729569
4.8875732 -4.8130059 -0.23739645 4293729569
4.860672 -4.8147674 -0.86315405 4293729569
4.8941803 -4.901648 -0.27745244 4293729569
9.308075 -7.7980628 -1.7722191 4293729569
8.6684723 -7.5866771 -1.7738028 4293729569
8.0181427 -7.3582377 -1.7690626 4293729569
7.3877869 -7.1320381 -1.763602 4293729569
6.7605896 -6.8989172 -1.7541034 4293729569
6.2635803 -6.7241626 -1.756894 4293729569
5.8242645 -6.5730176 -1.7646738 4293729569
5.4415894 -6.4464698 -1.777441 4293729569
5.0510864 -6.3098793 -1.7859988 4293729569
4.7519684 -6.2172127 -1.8061954 4293729569
4.3586884 -6.0676575 -1.8085752 4293729569
4.1509705 -6.0169382 -1.8383895 4293729569
3.924469 -5.9520397 -1.8648103 4293729569
3.680191 -5.8719954 -1.8858392 4288085770
6.9390564 -7.7711835 -1.7408416 4293729569
3.364624 -5.7463002 -1.8914638 4288085770
6.3005524 -7.4678526 -1.7384306 4293729569
3.0332489 -5.60747 -1.8927443 4288085770
5.7127991 -7.1861076 -1.7358987 4293729569
2.7237854 -5.4758897 -1.8943814 4288085770
5.210495 -6.9472756 -1.7399189 4293729569
2.4213562 -5.3433995 -1.8950974 4288085770
4.8223724 -6.7706361 -1.7550666 4293729569
2.1427917 -5.221169 -1.8972276 4288085770
4.5463715 -6.6571226 -1.785326 4293729569
1.8741913 -5.1010628 -1.8985082 4288085770
4.2496338 -6.5244417 -1.8091125 4293729569
1.600769 -4.9729357 -1.896638 4288085770
3.9926605 -6.4131989 -1.8346368 4293729569
1.3501892 -4.8560557 -1.8961807 4288085770
3.7317505 -6.2949128 -1.8600342 4293729569
1.1125336 -4.7433238 -1.8959328 4288085770
3.4650116 -6.1686163 -1.8802689 4293729569
0.8730011 -4.6256037 -1.8926054 4288085770
3.1230469 -5.9906468 -1.8829843 4288085770
0.63847351 -4.5079508 -1.8883421 4288085770
2.793045 -5.8178244 -1.8849077 4288085770
0.42379761 -4.3995018 -1.8864313 4288085770
2.4790497 -5.6482053 -1.8850675 4288085770
0.23002625 -4.3002777 -1.8858856 4288085770
2.205719 -5.5020022 -1.8899993 4288085770
0.048156738 -4.2071662 -1.8875579 4288085770
1.927536 -5.3487892 -1.8907923 4288085770
-0.12573242 -4.1151462 -1.8893429 4288085770
1.6612854 -5.1997113 -1.8917817 4288085770
-0.30056763 -4.0211482 -1.8880941 4288085770
1.4020844 -5.0507588 -1.8888609 4288085770
-0.47532654 -3.9231744 -1.8848019 4288085770
1.180542 -4.9241652 -1.8926625 4288085770
-0.63816833 -3.8323236 -1.8827389 4288085770
0.9670105 -4.7996631 -1.8965877 4288085770
-0.80984497 -3.7324286 -1.8754642 4288085770
0.72480774 -4.6539478 -1.8899176 4288085770
-0.9468689 -3.6528378 -1.8768514 4288085770
0.52131653 -4.5306258 -1.8879825 4288085770
-1.0996552 -3.561157 -1.8699056 4288085770
0.33074951 -4.4134278 -1.8882776 4288085770
-1.2425232 -3.4735665 -1.8651308 4288085770
0.14616394 -4.2973208 -1.8866608 4288085770
-1.3715057 -3.3941004 -1.8636204 4288085770
-0.020553589 -4.1913934 -1.8873813 4288085770
-1.4905243 -3.3187575 -1.8612808 4288085770
-0.18226624 -4.086545 -1.8861766 4288085770
-1.6065521 -3.2444491 -1.8589903 4288085770
-0.33599854 -3.9857869 -1.8851174 4288085770
-1.7255096 -3.1661296 -1.8546185 4288085770
-0.49859619 -3.8759737 -1.8798466 4288085770
-0.66316223 -3.7651715 -1.8715405 4288085770
-0.78805542 -3.6767287 -1.8719803 4288085770
-0.9228363 -3.5812306 -1.867218 4288085770
-1.0516357 -3.4888005 -1.862565 4288085770
-1.1685181 -3.4014821 -1.8601183 4288085770
-1.2823944 -3.3162208 -1.8557321 4288085770
-1.3734894 -3.2441611 -1.8567784 4288085770
-1.4744568 -3.1650343 -1.8536224 4288085770
-1.5694275 -3.0879865 -1.8495647 4288085770
-1.6475525 -3.0210848 -1.8498305 4288085770
-1.7306519 -2.9511495 -1.8480011 4288085770
-1.7223206 -1.0620725 -1.8512985 4288085770
-1.6718903 -1.0396986 -1.8466649 4288085770
-1.6025696 -1.02047 -1.8483001 4288085770
-1.5401917 -1.0001967 -1.8468375 4288085770
-1.4728394 -0.98097932 -1.8454481 4288085770
-1.4005127 -0.96180707 -1.8451208 4288085770
-1.3003387 -0.94986951 -1.8522179 4288085770
-1.2349243 -0.92866379 -1.8477815 4288085770
-1.1486053 -0.91164839 -1.8476501 4288085770
-1.0612793 -0.89364427 -1.8475198 4288085770
-0.97987366 -0.87461776 -1.843304 4288085770
-0.8885498 -0.85766959 -1.8422346 4288085770
-0.79022217 -0.84081137 -1.8402522 4288085770
-0.68986511 -0.82296401 -1.8392831 4288085770
-1.725647 -0.61614072 -1.8402092 4288085770
-0.57557678 -0.80826253 -1.8395212 4288085770
-1.6502838 -0.59903514 -1.8369409 4288085770
-0.46525574 -0.79152733 -1.8386873 4288085770
-1.5649872 -0.58401966 -1.8358189 4288085770
-0.35391235 -0.77483749 -1.8348663 4288085770
-1.4657288 -0.57012725 -1.8378814 4288085770
-0.24949646 -0.75609136 -1.828936 4288085770
-1.3545074 -0.55633545 -1.8430926 4288085770
-0.10923767 -0.7426703 -1.8305075 4288085770
-1.251236 -0.54151022 -1.8431937 4288085770
0.049987793 -0.73043925 -1.834326 4288085770
-1.1499329 -0.52667391 -1.84227 4288085770
0.19927979 -0.71614176 -1.8339984 4288085770
-1.0525513 -0.50983799 -1.8372748 4288085770
0.37249756 -0.70505631 -1.8390017 4288085770
-0.92533875 -0.49723649 -1.8416955 4288085770
0.52984619 -0.68988216 -1.8357625 4288085770
-0.82295227 -0.48046815 -1.8357624 4288085770
0.69416809 -0.67477512 -1.8336097 4288085770
-0.71455383 -0.46376657 -1.8299035 4288085770
0.8754425 -0.66184711 -1.8326904 4288085770
-0.58427429 -0.44924414 -1.8303396 4288085770
1.0757294 -0.64910984 -1.8340067 4288085770
-0.43501282 -0.43692338 -1.8320334 4288085770
1.299942 -0.63861942 -1.8376427 4288085770
-0.29170227 -0.42256916 -1.8306308 4288085770
1.4973297 -0.62292755 -1.8318888 4288085770
-0.13543701 -0.40933824 -1.8314005 4288085770
1.7375793 -0.61163878 -1.8337126 4288085770
0.014862061 -0.39507341 -1.8290848 4288085770
1.9728851 -0.59933901 -1.8314633 4288085770
0.19314575 -0.38207781 -1.8311272 4288085770
2.2401581 -0.58737564 -1.8316109 4288085770
0.3903656 -0.37027252 -1.8354166 4288085770
2.5373993 -0.57772613 -1.8341532 4288085770
0.58366394 -0.35647917 -1.8346342 4288085770
2.8446655 -0.56721103 -1.8348085 4288085770
0.75505066 -0.34050655 -1.8275568 4288085770
3.1819 -0.55802131 -1.8368471 4288085770
0.978302 -0.32901525 -1.8301688 4288085770
3.5670776 -0.55033612 -1.8424923 4288085770
1.192627 -0.31547952 -1.8276472 4288085770
3.9702759 -0.54286337 -1.847361 4288085770
1.4149628 -0.30104482 -1.8242136 4288085770
4.4154358 -0.53686202 -1.852762 4288085770
1.6642761 -0.28789008 -1.8231262 4288085770
4.9016266 -0.53030896 -1.8596605 4288085770
1.9375763 -0.27600443 -1.8223475 4288085770
5.4567108 -0.52650726 -1.8694375 4288085770
2.2338562 -0.26336551 -1.822843 4288085770
6.0947571 -0.52559078 -1.8842666 4288085770
2.5681 -0.25311852 -1.8268321 4288085770
6.8047485 -0.5264703 -1.901 4288085770
2.9063568 -0.2409389 -1.8288484 4288085770
7.5148773 -0.52344024 -1.9096897 4288085770
3.2846069 -0.23020792 -1.8313725 4288085770
8.3299866 -0.52258754 -1.9196935 4288085770
3.7158051 -0.22002542 -1.8385537 4288085770
9.1762238 -0.5191505 -1.924049 4288085770
4.177002 -0.21019101 -1.845107 4288085770
10.134384 -0.51796937 -1.9298058 4288085770
4.6722412 -0.1997602 -1.8500714 4288085770
11.178604 -0.51678586 -1.9336187 4288085770
5.223465 -0.1899457 -1.8567305 4288085770
12.453735 -0.52014756 -1.9443203 4288085770
5.8496246 -0.18093812 -1.8673198 4288085770
6.5896606 -0.17512941 -1.8863454 4288085770
7.3638458 -0.16678095 -1.8987597 4288085770
8.242981 -0.15859807 -1.9134657 4288085770
9.1522522 -0.14885342 -1.9195225 4288085770
10.154526 -0.13916254 -1.925722 4288085770
11.2659 -0.12775004 -1.928241 4288085770
12.641129 -0.12021804 -1.9410459 4288085770
12.091537 0.1149689 -1.9092923 4288085770
10.717789 0.13114715 -1.8958807 4288085770
9.6168976 0.14644349 -1.8961045 4288085770
8.6200714 0.16052139 -1.8917196 4288085770
7.6633453 0.17606008 -1.8798424 4288085770
6.7836914 0.19170225 -1.8649825 4288085770
6.0120392 0.20614338 -1.8505704 4288085770
12.357712 0.14994407 -1.9039038 4288085770
5.2654114 0.22026014 -1.8324872 4288085770
10.963074 0.17636132 -1.8910502 4288085770
4.6676941 0.23384774 -1.8253946 4288085770
9.8123016 0.19916749 -1.8874882 4288085770
4.1279144 0.24682128 -1.8210785 4288085770
8.7915344 0.22050667 -1.8826702 4288085770
3.6161804 0.25943744 -1.8131365 4288085770
7.8688049 0.24174225 -1.8771535 4288085770
3.1564484 0.2724936 -1.806879 4288085770
7.018158 0.26211202 -1.8666018 4288085770
2.728714 0.28418517 -1.8000622 4288085770
6.2355347 0.2816962 -1.8539611 4288085770
2.3728943 0.29615855 -1.8002003 4288085770
5.4700165 0.29998291 -1.8325573 4288085770
2.0280914 0.3079859 -1.7984842 4288085770
4.84935 0.31679702 -1.8231031 4288085770
1.7262573 0.32038915 -1.8013333 4288085770
4.3056335 0.33380091 -1.8176712 4288085770
1.4364471 0.3326236 -1.8013424 4288085770
3.7789612 0.3505553 -1.8074653 4288085770
1.1726074 0.34459651 -1.8037001 4288085770
3.3362122 0.36546052 -1.8044015 4288085770
0.90783691 0.35653079 -1.8020428 4288085770
2.9055328 0.38118374 -1.7974848 4288085770
0.68595886 0.36806619 -1.8069638 4288085770
2.5317688 0.39632928 -1.7953345 4288085770
0.49105835 0.38034141 -1.8152354 4288085770
2.1900024 0.41113484 -1.7946138 4288085770
0.23936462 0.39204657 -1.8067491 4288085770
1.8951569 0.42647231 -1.7985135 4288085770
0.046539307 0.40422547 -1.8090452 4288085770
1.5924225 0.44082439 -1.7963153 4288085770
-0.14822388 0.41637719 -1.807313 4288085770
1.3166351 0.45489132 -1.7954801 4288085770
-0.32702637 0.42838991 -1.8087959 4288085770
1.0728302 0.46864402 -1.7980753 4288085770
-0.50578308 0.44035304 -1.8062778 4288085770
0.82707214 0.48236859 -1.7966423 4288085770
-0.66159058 0.45211256 -1.808069 4288085770
0.6222229 0.4967159 -1.8017497 4288085770
-0.81539917 0.46483743 -1.8088741 4288085770
0.43637085 0.51186669 -1.8081006 4288085770
-0.95521545 0.47642148 -1.8108798 4288085770
0.20768738 0.52433026 -1.8009055 4288085770
-1.1089325 0.48909652 -1.8076831 4288085770
0.012924194 0.53849399 -1.8001444 4288085770
-1.2407379 0.50056756 -1.8077952 4288085770
-0.15489197 0.55240953 -1.8037472 4288085770
-1.3545685 0.51390159 -1.813125 4288085770
-0.32365417 0.56628692 -1.8033357 4288085770
-1.4803467 0.52529418 -1.8123167 4288085770
-0.48342896 0.58007777 -1.8040448 4288085770
-1.60112 0.53761899 -1.810563 4288085770
-0.63619995 0.59377921 -1.8038478 4288085770
-0.79093933 0.60647738 -1.8016348 4288085770
-0.92970276 0.62102449 -1.8016132 4288085770
-1.0574799 0.63446367 -1.8027519 4288085770
-1.1912384 0.64793122 -1.8008085 4288085770
-1.3139954 0.66129005 -1.8000133 4288085770
-1.4207764 0.67550981 -1.8024218 4288085770
-1.5444641 0.68883002 -1.7976117 4288085770
-1.6522217 0.70201147 -1.7960178 4288085770
-1.6845551 2.9547458 -1.744138 4288085770
-1.582962 2.992568 -1.7400819 4288085770
-1.4633636 3.0372424 -1.7401905 4288085770
-1.3467407 3.0789132 -1.7372955 4288085770
-1.2191162 3.1245008 -1.7375051 4288085770
-1.0854645 3.1710095 -1.7367868 4288085770
-0.92979431 3.2273526 -1.7422522 4288085770
-0.79014587 3.2727714 -1.7396326 4288085770
-0.63546753 3.3240633 -1.7401487 4288085770
-1.6492615 2.8962889 -1.7414787 4288085770
-0.46575928 3.3792152 -1.7428256 4288085770
-1.5147552 2.936851 -1.7458489 4288085770
-0.29202271 3.4352984 -1.7435477 4288085770
-1.4012451 2.9675441 -1.7420512 4288085770
-0.11631775 3.4893599 -1.7443235 4288085770
-1.2757568 3.0011425 -1.7413845 4288085770
0.053390503 3.5384383 -1.7410789 4288085770
-1.153244 3.0317497 -1.7387143 4288085770
0.27719116 3.6100731 -1.7503047 4288085770
-1.0247498 3.0632911 -1.7361166 4288085770
0.46092224 3.6609855 -1.7462343 4288085770
-0.86021423 3.1085505 -1.7428489 4288085770
0.67070007 3.720675 -1.7474167 4288085770
-0.70368958 3.1488476 -1.7455329 4288085770
0.87948608 3.7763386 -1.7456368 4288085770
-0.56417847 3.179256 -1.7421045 4288085770
1.096283 3.8339138 -1.7439457 4288085770
-0.38664246 3.2233477 -1.7470351 4288085770
1.3401031 3.8992324 -1.7455347 4288085770
-0.22612 3.2585511 -1.7458413 4288085770
1.5779266 3.959578 -1.7441037 4288085770
-0.032562256 3.3054934 -1.7529609 4288085770
1.8217621 4.0188465 -1.7417711 4288085770
0.15600586 3.3484406 -1.756062 4288085770
2.0956421 4.0868101 -1.7417493 4288085770
0.30949402 3.3726473 -1.7489109 4288085770
2.3885498 4.1595912 -1.7439334 4288085770
0.50302124 3.4125285 -1.7511221 4288085770
2.6924896 4.2332525 -1.7462616 4288085770
0.69555664 3.4483948 -1.7513707 4288085770
3.0294647 4.3155766 -1.7509433 4288085770
0.88407898 3.480269 -1.7486144 4288085770
3.3894958 4.4016619 -1.7569004 4288085770
1.0876007 3.5150032 -1.748033 4288085770
3.7795715 4.4964428 -1.7651696 4288085770
1.3101654 3.5545549 -1.7496573 4288085770
4.1586151 4.5802832 -1.7684242 4288085770
1.5256653 3.5881462 -1.7482588 4288085770
4.5857544 4.6776357 -1.7751803 4288085770
1.7462006 3.6206703 -1.7459458 4288085770
5.0359192 4.7777476 -1.7832268 4288085770
1.9647064 3.6502171 -1.7436435 4288085770
5.4750366 4.8689079 -1.7852345 4288085770
2.2052155 3.6835356 -1.7426026 4288085770
5.9742889 4.9744716 -1.7929022 4288085770
2.4898071 3.7294474 -1.7480197 4288085770
6.4815063 5.0769124 -1.7977238 4288085770
2.7423096 3.7606349 -1.7471762 4288085770
7.2332458 5.2570004 -1.8309852 4282675967
3.0448456 3.8053498 -1.7528632 4288085770
7.7364044 5.3433747 -1.8269588 4288085770
3.3363647 3.840137 -1.7545227 4288085770
8.3608246 5.4605346 -1.8332407 4288085770
3.6519012 3.8816857 -1.7584348 4288085770
8.8158264 5.5162868 -1.8169333 4288085770
3.9714355 3.9181671 -1.7604682 4288085770
9.3499908 5.5912361 -1.8064926 4288085770
4.2839203 3.9487 -1.7604802 4288085770
10.10556 5.7269888 -1.8163847 4288085770
4.6364441 3.9868455 -1.7649583 4288085770
10.925217 5.8730516 -1.8280476 4288085770
4.9819336 4.0190306 -1.7664155 4288085770
11.739822 6.0071111 -1.834796 4288085770
5.3604431 4.0548806 -1.7702907 4288085770
12.625534 6.1493793 -1.8414401 4288085770
5.7489014 4.0886216 -1.7743345 4288085770
6.1523895 4.1221995 -1.7785929 4288085770
6.5608215 4.1507106 -1.7819853 4288085770
7.1154022 4.2158241 -1.8029687 4288085770
7.6309204 4.2602534 -1.8146684 4288085770
8.175415 4.3063908 -1.8287565 4288085770
8.6437836 4.3242111 -1.8301377 4288085770
9.0129547 4.3119798 -1.8195109 4288085770
9.3730927 4.2938337 -1.8078347 4288085770
9.853302 4.2954893 -1.8065958 4288085770
10.417572 4.3123255 -1.8143481 4288085770
11.018829 4.3287716 -1.8236283 4288085770
11.644028 4.3419561 -1.8332905 4288085770
12.228119 4.3375278 -1.837602 4288085770
12.756088 4.3126135 -1.8333883 4288085770
12.951843 -4.3180561 -1.9585521 4293729569
12.258377 -4.2855339 -1.9452944 4293729569
11.614868 -4.255518 -1.935778 4293729569
11.041153 -4.2351999 -1.9323802 4293729569
10.47554 -4.2089968 -1.9270194 4293729569
9.9378967 -4.1810737 -1.9240338 4293729569
9.4302368 -4.155477 -1.9215034 4288085770
8.9585114 -4.1332345 -1.922527 4288085770
8.517746 -4.1113172 -1.9249952 4288085770
8.132782 -4.1009445 -1.9334072 4288085770
7.7041321 -4.072186 -1.9339564 4288085770
7.3222961 -4.0518732 -1.9402817 4288085770
13.215469 -5.9509912 -1.813795 4293729569
6.9316101 -4.0235028 -1.9433749 4288085770
12.34407 -5.804348 -1.8115188 4293729569
6.5778198 -4.0015101 -1.9490756 4288085770
7.9936066 -4.5094199 -1.461744 4293729569
6.1863403 -3.9601822 -1.9479871 4288085770
7.9897766 -4.6046028 -1.5239605 4293729569
5.7879333 -3.9127932 -1.9457197 4288085770
10.120117 -5.4225945 -1.8169907 4293729569
5.3518677 -3.8461208 -1.9326631 4288085770
9.4275818 -5.2899394 -1.814435 4293729569
4.9268494 -3.7775702 -1.9197379 4288085770
8.6655884 -5.125668 -1.7994744 4293729569
4.5725098 -3.7266865 -1.9160498 4288085770
8.0429993 -4.9998012 -1.7959986 4293729569
4.2470703 -3.682106 -1.9138542 4288085770
7.4932251 -4.8907013 -1.7957765 4293729569
3.8988495 -3.6243284 -1.9071615 4288085770
6.9594269 -4.7817769 -1.7957824 4293729569
3.5775299 -3.5728188 -1.9029323 4288085770
6.4784546 -4.685389 -1.7997031 4293729569
3.2434082 -3.5112329 -1.8933882 4288085770
6.0344086 -4.596417 -1.8032449 4293729569
2.9470825 -3.4599829 -1.8905169 4288085770
5.6659851 -4.5311661 -1.8161727 4293729569
2.6398926 -3.4006789 -1.8823848 4288085770
5.2290955 -4.4323239 -1.8156854 4293729569
2.3586273 -3.3456323 -1.8766775 4288085770
4.9284515 -4.3827729 -1.832782 4293729569
2.1042328 -3.2988396 -1.8744596 4288085770
4.8076935 -4.401875 -1.8773388 4293729569
1.8449554 -3.2460194 -1.8700927 4288085770
4.6333313 -4.3975077 -1.9118246 4288085770
1.614502 -3.2014627 -1.8702447 4288085770
4.2414856 -4.2981944 -1.9089689 4288085770
1.3920441 -3.158006 -1.8695241 4288085770
3.8656464 -4.2010679 -1.9053683 4288085770
1.1468811 -3.1003904 -1.8612933 4288085770
3.5187073 -4.1112442 -1.9032741 4288085770
0.94438171 -3.0591259 -1.8628846 4288085770
3.1708374 -4.0164356 -1.8991004 4288085770
0.75582886 -3.0210004 -1.8657154 4288085770
2.855835 -3.9319596 -1.8975289 4288085770
0.5534668 -2.9727883 -1.8632168 4288085770
