# .PCD v0.7 - Point Cloud Data file format
VERSION 0.7
FIELDS x y z rgb
SIZE 4 4 4 4
TYPE F F F U
COUNT 1 1 1 1
WIDTH 1125
HEIGHT 1
VIEWPOINT 0 0 0 1 0 0 0
POINTS 1125
DATA ascii
5.2536507 3.0836213 -1.8003007 4288085770
3.8052063 2.5500159 -1.789344 4288085770
5.2457275 3.1346111 -1.8022115 4288085770
3.7932777 2.5899963 -1.7893044 4288085770
5.2758217 3.202661 -1.8118774 4288085770
3.7763367 2.6279645 -1.7862962 4288085770
5.26688 3.2546449 -1.8117911 4288085770
3.7684021 2.6689467 -1.7852331 4288085770
5.2909584 3.3206787 -1.8174939 4288085770
3.7684784 2.7149425 -1.7861146 4288085770
5.2880135 3.3736663 -1.8163733 4288085770
3.7695389 2.7599373 -1.7859932 4288085770
5.3030701 3.4366808 -1.8181316 4288085770
3.7746124 2.8069382 -1.7868457 4288085770
5.3301392 3.5037155 -1.822816 4288085770
3.7886925 2.858954 -1.7896376 4288085770
5.3541985 3.5707421 -1.8255163 4288085770
3.8057594 2.9119706 -1.791411 4288085770
5.3902588 3.6427836 -1.8291403 4288085770
3.8298416 2.9680018 -1.7961396 4288085770
5.4393272 3.7228465 -1.8356751 4288085770
3.8459015 3.0200126 -1.7959208 4288085770
5.4753685 3.7968836 -1.837294 4288085770
3.8609543 3.0720196 -1.7947077 4288085770
5.5304298 3.879951 -1.8427889 4288085770
3.9070396 3.1410847 -1.8032864 4288085770
5.5694618 3.9549861 -1.8423893 4288085770
3.9361 3.2001114 -1.8039808 4288085770
5.6345139 4.0440636 -1.8478161 4288085770
3.9901848 3.2731848 -1.8125068 4288085770
5.6625252 4.1140752 -1.8424876 4288085770
4.0502625 3.3502645 -1.8209909 4288085770
5.7425728 4.2121716 -1.8488116 4288085770
4.0853119 3.4132953 -1.8206432 4288085770
5.82061 4.3082609 -1.8531512 4288085770
4.1583977 3.4973941 -1.8310401 4288085770
5.9126396 4.4143672 -1.858391 4288085770
4.2054405 3.5674243 -1.831619 4288085770
6.0216827 4.5304837 -1.8665242 4288085770
4.278511 3.6525154 -1.8390145 4288085770
6.1076927 4.6345749 -1.8678023 4288085770
4.3415604 3.7315865 -1.842478 4288085770
6.2127075 4.7486901 -1.8709537 4288085770
4.4276199 3.8246942 -1.8507839 4288085770
6.308712 4.858789 -1.8711631 4288085770
4.4886513 3.9027529 -1.8502606 4288085770
6.4437218 4.9919467 -1.878107 4288085770
4.5827065 4.0018668 -1.8575087 4288085770
6.5607071 5.114069 -1.8781742 4288085770
4.6467209 4.0809236 -1.8549666 4288085770
6.6796875 5.2381897 -1.8772256 4288085770
4.7517662 4.186049 -1.8621409 4288085770
6.8186646 5.3753371 -1.8781377 4288085770
4.8507919 4.2881589 -1.8653545 4288085770
7.0046501 5.5415549 -1.8867265 4288085770
4.9648209 4.3982944 -1.8724681 4288085770
7.2056274 5.7177906 -1.8962103 4288085770
5.0718346 4.5044074 -1.8736289 4288085770
7.4396019 5.915072 -1.9094651 4288085770
5.1748352 4.608511 -1.8728158 4288085770
7.7265816 6.1474276 -1.9293492 4288085770
5.3088455 4.7316637 -1.8777896 4288085770
8.0165405 6.3827777 -1.9462095 4288085770
5.4228363 4.8407764 -1.875905 4288085770
8.3354836 6.6371627 -1.9638672 4288085770
5.5808487 4.978961 -1.8837129 4288085770
8.6324043 6.8785067 -1.9746746 4288085770
5.7368355 5.1161323 -1.8865339 4288085770
8.9142952 7.110816 -1.9785842 4288085770
5.9068222 5.2623229 -1.8912572 4288085770
9.200161 7.3461223 -1.9784647 4288085770
6.0737915 5.4045005 -1.8920064 4288085770
9.5040131 7.5924468 -1.9782212 4288085770
6.2737694 5.5687284 -1.898524 4288085770
9.8378448 7.8588033 -1.977767 4288085770
6.4967346 5.7489824 -1.9058787 4288085770
6.7477074 5.9462771 -1.9170411 4288085770
7.0566788 6.1826563 -1.9367956 4288085770
7.3846436 6.4310579 -1.9574183 4288085770
7.7065735 6.675436 -1.9710826 4288085770
8.0134773 6.9067788 -1.9768591 4288085770
9.8723259 8.0839128 -1.6109716 4293729569
8.3383636 7.1501408 -1.9825091 4288085770
8.6742325 7.3975067 -1.9850895 4288085770
9.0450897 7.6689162 -1.9894224 4288085770
9.4249191 7.9423251 -1.9897015 4288085770
17.612411 -1.1190828 -1.7574309 4288085770
16.623562 -1.1471635 -1.7609179 4288085770
15.707706 -1.1711682 -1.7629955 4288085770
14.872837 -1.1900831 -1.7656169 4288085770
14.105972 -1.2069241 -1.7678607 4288085770
13.404118 -1.2206899 -1.7717408 4288085770
12.789272 -1.2353543 -1.7781456 4288085770
12.197422 -1.2459966 -1.783415 4288085770
11.591515 -1.2496732 -1.7807459 4288085770
18.034298 -1.9306678 -1.7589167 4288085770
11.079662 -1.2562267 -1.7865672 4288085770
16.941422 -1.901847 -1.7688463 4288085770
10.576775 -1.2577845 -1.786328 4288085770
15.90049 -1.8669904 -1.7704768 4288085770
10.108883 -1.2583021 -1.7868942 4288085770
14.978577 -1.8349973 -1.7744606 4288085770
9.6910286 -1.2607535 -1.7921904 4288085770
14.12466 -1.8029331 -1.7770715 4288085770
9.2491074 -1.255253 -1.7886012 4288085770
13.493855 -1.7905837 -1.7965027 4288085770
8.8852463 -1.2556461 -1.7935964 4288085770
12.767937 -1.7593809 -1.7984132 4288085770
8.5083427 -1.2500678 -1.7926496 4288085770
12.096001 -1.7281271 -1.7970271 4288085770
8.1804733 -1.2474245 -1.7964405 4288085770
11.462063 -1.6968323 -1.7954327 4288085770
7.8716049 -1.2447604 -1.8001273 4288085770
10.924175 -1.6724161 -1.8003267 4288085770
7.5657158 -1.2390982 -1.8017907 4288085770
10.413273 -1.6469761 -1.8030701 4288085770
7.2818413 -1.2334071 -1.8053335 4288085770
9.8863182 -1.61457 -1.7988863 4288085770
7.0119629 -1.2267035 -1.807797 4288085770
9.4304008 -1.5880774 -1.7983257 4288085770
6.759079 -1.2209815 -1.8101695 4288085770
9.0044785 -1.5625502 -1.7986031 4288085770
6.5152054 -1.2142471 -1.8134903 4288085770
8.5905609 -1.5350121 -1.79781 4288085770
6.2863312 -1.2064947 -1.8177265 4288085770
8.2346611 -1.5134016 -1.8007119 4288085770
6.058445 -1.1977481 -1.8189553 4288085770
7.9217873 -1.4947354 -1.807384 4288085770
5.8555717 -1.189967 -1.8230487 4288085770
7.5828629 -1.4691163 -1.8061836 4288085770
5.6356621 -1.178219 -1.8212267 4288085770
7.3009796 -1.4504207 -1.8106858 4288085770
5.4407692 -1.1684364 -1.8222718 4288085770
7.0100708 -1.427745 -1.8112285 4288085770
5.2168236 -1.1517073 -1.8144608 4288085770
6.7411766 -1.4060382 -1.8146526 4288085770
5.0299149 -1.1399184 -1.8144581 4288085770
6.4942818 -1.3863071 -1.817961 4288085770
4.8419991 -1.1261381 -1.811456 4288085770
6.2784195 -1.3705329 -1.8251073 4288085770
4.6801109 -1.1153179 -1.8133179 4288085770
6.0555305 -1.3517736 -1.8292859 4288085770
4.5182114 -1.1024998 -1.8141751 4288085770
5.8166046 -1.3280488 -1.8265413 4288085770
4.3582993 -1.089687 -1.8120215 4288085770
5.5986938 -1.3062938 -1.8266857 4288085770
4.2033958 -1.0758661 -1.8108383 4288085770
5.3947868 -1.2845238 -1.826753 4288085770
4.0605011 -1.0640272 -1.8115937 4288085770
5.1568069 -1.2548171 -1.8159899 4288085770
3.926609 -1.0511767 -1.8132972 4288085770
4.9668846 -1.2330364 -1.8139806 4288085770
3.7997208 -1.0393187 -1.8149644 4288085770
4.7769623 -1.2102562 -1.8119693 4288085770
3.6758308 -1.0274569 -1.8166155 4288085770
4.6100578 -1.1904439 -1.8128383 4288085770
4.4501534 -1.1706258 -1.8126688 4288085770
4.3052559 -1.1527873 -1.8144212 4288085770
4.143322 -1.1299816 -1.8102562 4288085770
4.008419 -1.112142 -1.8119576 4288085770
3.8785248 -1.0932866 -1.8136289 4288085770
3.754631 -1.0754222 -1.8162693 4288085770
3.6606369 0.87567496 -1.7898225 4288085770
3.7927437 0.89081824 -1.7910478 4288085770
3.9248428 0.90595675 -1.7902732 4288085770
4.0769615 0.92312676 -1.7933819 4288085770
4.2300644 0.94029301 -1.7944851 4288085770
4.3861732 0.95646256 -1.7955738 4288085770
4.5402641 0.97062272 -1.7936784 4288085770
4.7003555 0.98578966 -1.7917471 4288085770
3.7405396 0.88473624 -1.7973388 4288085770
4.8924713 1.0040033 -1.7946301 4288085770
3.8716354 0.89487147 -1.7955816 4288085770
5.0795708 1.0202045 -1.7945454 4288085770
4.0027275 0.90500414 -1.7928241 4288085770
5.2666626 1.0354011 -1.7924634 4288085770
4.1558456 0.91617292 -1.7949414 4288085770
5.4807701 1.0526366 -1.7942257 4288085770
4.3029442 0.92632544 -1.7930945 4288085770
5.7118835 1.0708934 -1.7968905 4288085770
4.4580421 0.9354893 -1.7922053 4288085770
5.9419785 1.0871394 -1.7955658 4288085770
4.6371651 0.94668901 -1.7951772 4288085770
6.2070999 1.1074382 -1.8000358 4288085770
4.8192749 0.95788723 -1.7961323 4288085770
6.4892235 1.1267556 -1.8044132 4288085770
5.0103951 0.96809781 -1.7980396 4288085770
6.7392883 1.1420116 -1.7979789 4288085770
5.2025032 0.97730458 -1.7979437 4288085770
7.015377 1.1573057 -1.7953994 4288085770
5.4066162 0.98752707 -1.7987781 4288085770
7.3204689 1.1746316 -1.792653 4288085770
5.618721 0.99575329 -1.7975725 4288085770
7.6475601 1.1919866 -1.7917837 4288085770
5.8558464 1.0060192 -1.8012224 4288085770
7.9916534 1.2103575 -1.7898167 4288085770
6.1059647 1.0162971 -1.8038 4288085770
8.3657455 1.227764 -1.7886847 4288085770
6.3630867 1.02458 -1.8053428 4288085770
8.768837 1.2462022 -1.7873882 4288085770
6.6131821 1.0308434 -1.8019297 4288085770
9.1909294 1.264659 -1.7849853 4288085770
6.8852768 1.0371332 -1.7993933 4288085770
9.6620216 1.2841719 -1.7833064 4288085770
7.1683769 1.0424352 -1.796798 4288085770
10.182125 1.3057433 -1.7833487 4288085770
7.472477 1.0477604 -1.7940853 4288085770
10.723209 1.3253306 -1.7802784 4288085770
7.8055878 1.0531218 -1.7932104 4288085770
11.302288 1.3449574 -1.7759959 4288085770
8.1536903 1.0574975 -1.791254 4288085770
11.976395 1.3687023 -1.7771727 4288085770
8.5057869 1.0598705 -1.7862799 4288085770
12.675472 1.3884606 -1.7722192 4288085770
8.9109039 1.0633161 -1.7870072 4288085770
13.476574 1.4133453 -1.7726837 4288085770
9.3410187 1.0657842 -1.7855971 4288085770
14.452717 1.4464434 -1.7811514 4288085770
9.7731094 1.065245 -1.780183 4288085770
15.484837 1.4755911 -1.7843155 4288085770
10.297241 1.0668259 -1.7822498 4288085770
16.550903 1.499752 -1.7773011 4288085770
10.835361 1.0664151 -1.7812428 4288085770
17.761974 1.5260768 -1.7714716 4288085770
11.414482 1.0650494 -1.780009 4288085770
12.046604 1.0607417 -1.7784861 4288085770
12.743732 1.0555079 -1.7776023 4288085770
13.51487 1.0493603 -1.778307 4288085770
14.378014 1.0413159 -1.7795022 4288085770
15.34417 1.0313894 -1.7821261 4288085770
16.338295 1.014477 -1.7776099 4288085770
17.559479 0.99783993 -1.7828248 4288085770
10.118053 -7.7738223 -1.5169387 4293729569
9.7689285 -7.489182 -1.5311915 4293729569
9.4327888 -7.2145381 -1.541396 4293729569
9.104641 -6.9448943 -1.5485679 4293729569
8.8395691 -6.7171645 -1.5614911 4293729569
7.2614212 -5.6453967 -1.3726494 4293729569
7.2336617 -5.5793447 -1.4086473 4293729569
7.3199043 -5.5224562 -0.91302252 4293729569
7.2309303 -5.5262613 -1.4465377 4293729569
7.2781143 -5.4434276 -0.94606662 4293729569
7.2341881 -5.4761758 -1.4824021 4293729569
7.2843742 -5.3923373 -0.98291183 4293729569
7.1873703 -5.3931646 -1.5104644 4293729569
7.2826157 -5.3352609 -1.0167869 4293729569
7.2026253 -5.3470654 -1.5462717 4293729569
7.3128929 -5.2961426 -1.053528 4293729569
7.2198944 -5.3009615 -1.5830679 4293729569
7.3792038 -5.2759748 -1.094115 4293729569
7.1600189 -5.2059817 -1.6041729 4293729569
7.4885712 -5.2797523 -1.1375215 4293729569
7.0179977 -5.0621357 -1.6086148 4293729569
10.536888 -6.98735 -1.5437688 4293729569
6.8969994 -4.9332633 -1.6139762 4293729569
10.281773 -6.7566266 -1.5496281 4293729569
6.8140488 -4.8243332 -1.625175 4293729569
10.045681 -6.5388799 -1.5564133 4293729569
6.7471237 -4.7263846 -1.6373113 4293729569
9.8626366 -6.3530684 -1.5649816 4293729569
6.6821938 -4.6294346 -1.648439 4293729569
9.660553 -6.1572881 -1.5696309 4293729569
6.6823692 -4.5683842 -1.6712931 4293729569
9.4985199 -5.9864569 -1.5771186 4293729569
6.7967262 -4.5701547 -1.7146667 4293729569
9.3494911 -5.825613 -1.5835582 4293729569
6.924099 -4.5769067 -1.7599803 4288085770
9.2475128 -5.6897068 -1.5937973 4293729569
7.0484657 -4.5776644 -1.8042961 4288085770
9.1234894 -5.5418353 -1.6001295 4293729569
7.0526161 -4.5136185 -1.8231206 4288085770
9.0275078 -5.4109278 -1.6083473 4293729569
6.9936447 -4.4166803 -1.827215 4288085770
8.942524 -5.2880111 -1.6155235 4293729569
6.9146309 -4.3087749 -1.8263935 4288085770
8.8505173 -5.1601086 -1.6197262 4293729569
6.8165779 -4.1919065 -1.8196555 4288085770
8.7865486 -5.0481653 -1.6278121 4293729569
6.7495728 -4.0919909 -1.8177868 4288085770
8.7225723 -4.9372296 -1.6329006 4293729569
6.7045937 -4.0040412 -1.8198247 4288085770
8.6625786 -4.8272915 -1.6369689 4293729569
6.6505966 -3.9111094 -1.8189005 4288085770
8.611599 -4.722343 -1.6409994 4293729569
6.6156158 -3.8291531 -1.8188975 4288085770
8.6727715 -4.671227 -1.6625397 4293729569
6.5796394 -3.7461991 -1.8188976 4288085770
8.8340721 -4.6619678 -1.6966268 4293729569
6.5566788 -3.6692247 -1.8208401 4288085770
9.026413 -4.6656613 -1.7355735 4288085770
6.5166779 -3.5842848 -1.8168575 4288085770
9.253788 -4.6813035 -1.7793554 4288085770
6.505722 -3.5132995 -1.817748 4288085770
9.3780136 -4.649107 -1.8045925 4288085770
6.5087814 -3.4492912 -1.8215777 4288085770
9.3890724 -4.5670829 -1.8113348 4288085770
6.4908028 -3.3763218 -1.8195019 4288085770
9.331028 -4.4561672 -1.8053899 4288085770
6.4858513 -3.3083305 -1.8203661 4288085770
9.3150368 -4.3631926 -1.8042555 4288085770
6.45784 -3.2313838 -1.8133363 4288085770
9.3070412 -4.2732096 -1.8030838 4288085770
6.4819107 -3.1743531 -1.8170662 4288085770
9.3070602 -4.1882143 -1.8028799 4288085770
6.5089874 -3.119318 -1.8207846 4288085770
9.3110733 -4.1032171 -1.8016539 4288085770
6.5120125 -3.0543275 -1.8176116 4288085770
9.3351059 -4.026196 -1.8013363 4288085770
6.5120316 -2.9893422 -1.8134555 4288085770
9.371151 -3.9541569 -1.8029644 4288085770
6.567131 -2.9452696 -1.8200451 4288085770
9.3881493 -3.8741517 -1.7986783 4288085770
6.5721474 -2.8812814 -1.8148636 4288085770
9.4371834 -3.8061023 -1.7982439 4288085770
6.6162148 -2.8312335 -1.8164997 4288085770
9.4762115 -3.734066 -1.7968551 4288085770
6.6632881 -2.7821789 -1.8191215 4288085770
9.542263 -3.6709952 -1.7973387 4288085770
6.6772995 -2.7211852 -1.8118974 4288085770
9.6113014 -3.6089263 -1.7958081 4288085770
6.7183495 -2.6701479 -1.8105477 4288085770
9.6623192 -3.5398827 -1.7923604 4288085770
6.7774239 -2.6240826 -1.8121103 4288085770
9.7663841 -3.4857669 -1.7936552 4288085770
6.836483 -2.5770221 -1.8116707 4288085770
9.8534241 -3.4266777 -1.792032 4288085770
6.8855286 -2.5269775 -1.8092792 4288085770
9.964489 -3.3745542 -1.7932929 4288085770
6.9686127 -2.4858828 -1.8117211 4288085770
10.066528 -3.3174505 -1.7905916 4288085770
7.0136414 -2.4328499 -1.8063445 4288085770
10.191589 -3.2663136 -1.7907773 4288085770
7.0786858 -2.3857899 -1.8028716 4288085770
10.336658 -3.218152 -1.7918597 4288085770
7.1677551 -2.3436947 -1.8032779 4288085770
10.46069 -3.1630287 -1.7870417 4288085770
7.2458076 -2.2986169 -1.8007379 4288085770
10.619755 -3.1168542 -1.7870513 4288085770
7.3568954 -2.2614894 -1.8040344 4288085770
10.797829 -3.074656 -1.7879655 4288085770
7.4529533 -2.2193923 -1.801402 4288085770
10.976891 -3.0304618 -1.7868695 4288085770
7.549015 -2.1772928 -1.7997695 4288085770
11.165943 -2.9852581 -1.7847158 4288085770
7.6780968 -2.1411495 -1.8009689 4288085770
11.376011 -2.9440269 -1.7844552 4288085770
7.8061714 -2.1030092 -1.8011692 4288085770
11.593071 -2.9017925 -1.7821537 4288085770
7.944252 -2.0668559 -1.8023187 4288085770
11.834145 -2.8635259 -1.781729 4288085770
8.0693092 -2.0267267 -1.7995307 4288085770
12.073196 -2.8202696 -1.7783036 4288085770
8.2063637 -1.9855841 -1.7966739 4288085770
12.368279 -2.7849407 -1.7785875 4288085770
8.3634338 -1.948414 -1.7957159 4288085770
12.661346 -2.7486191 -1.7768799 4288085770
8.5305099 -1.9122306 -1.7957053 4288085770
12.980415 -2.7132683 -1.7750312 4288085770
8.7366219 -1.8819915 -1.8004931 4288085770
13.34251 -2.6818624 -1.7759541 4288085770
8.9467201 -1.8487529 -1.8032516 4288085770
13.722584 -2.6484442 -1.7737726 4288085770
9.1557961 -1.8135222 -1.8030109 4288085770
14.074612 -2.6070681 -1.766727 4288085770
9.3618622 -1.775298 -1.8017796 4288085770
14.562729 -2.5855141 -1.769977 4288085770
9.5899353 -1.7390486 -1.8004315 4288085770
15.0228 -2.5530062 -1.7673556 4288085770
9.8410187 -1.704769 -1.8009609 4288085770
15.534882 -2.5244398 -1.7644563 4288085770
10.121117 -1.6714519 -1.8033324 4288085770
16.080952 -2.4948354 -1.7613664 4288085770
10.398186 -1.6361455 -1.8027155 4288085770
16.707035 -2.4691367 -1.7598438 4288085770
10.70927 -1.6017989 -1.8029133 4288085770
17.369122 -2.4444008 -1.7571247 4288085770
11.015331 -1.5634648 -1.8001291 4288085770
18.109203 -2.420577 -1.7539762 4288085770
11.32238 -1.5221349 -1.7953321 4288085770
11.680447 -1.4837402 -1.7932602 4288085770
12.084522 -1.4472898 -1.7929388 4288085770
12.484573 -1.4068536 -1.78863 4288085770
12.920624 -1.3653766 -1.7841197 4288085770
13.37466 -1.3208846 -1.7775028 4288085770
13.888706 -1.2763211 -1.7725538 4288085770
14.483776 -1.2356566 -1.7711667 4288085770
15.088814 -1.1889936 -1.7647099 4288085770
15.820889 -1.1441716 -1.7645553 4288085770
16.609955 -1.0972883 -1.763081 4288085770
17.446999 -1.0453612 -1.7573293 4288085770
18.404049 -0.99329245 -1.7539139 4288085770
18.384235 1.618629 -1.7583439 4288085770
17.719334 1.6868943 -1.7717537 4288085770
17.062412 1.7511585 -1.78113 4288085770
16.518509 1.8165613 -1.7938946 4288085770
15.81752 1.8607318 -1.786558 4288085770
15.197552 1.907002 -1.7817799 4288085770
14.613564 1.9493053 -1.7738178 4288085770
14.122608 1.9947319 -1.7723467 4288085770
13.691669 2.0432346 -1.7735451 4288085770
13.227699 2.0826793 -1.7669436 4288085770
12.835747 2.1272182 -1.7649417 4288085770
12.477791 2.1717987 -1.7637564 4288085770
12.142845 2.2164052 -1.7624471 4288085770
11.871922 2.2670996 -1.7667779 4288085770
11.593979 2.3137755 -1.7671564 4288085770
11.310024 2.3564372 -1.7645773 4288085770
11.080086 2.4041705 -1.7656945 4288085770
10.850147 2.4499011 -1.7658167 4288085770
18.54697 3.9159007 -1.8237046 4288085770
10.640209 2.4966545 -1.7658288 4288085770
18.170055 3.9804873 -1.8335707 4288085770
10.471275 2.5504646 -1.7696022 4288085770
17.81514 4.0470967 -1.8423131 4288085770
10.287338 2.5982499 -1.7704713 4288085770
17.51022 4.1197681 -1.8527709 4288085770
10.113396 2.646044 -1.7702867 4288085770
17.210289 4.1924405 -1.8612015 4288085770
9.9694595 2.6998801 -1.7729253 4288085770
16.888344 4.2520714 -1.8637836 4288085770
9.8145103 2.7476933 -1.7716383 4288085770
16.592403 4.3177352 -1.8672103 4288085770
9.6905708 2.802552 -1.7741663 4288085770
16.285439 4.3753729 -1.8657163 4288085770
9.5836411 2.8594327 -1.7775979 4288085770
16.006474 4.4360456 -1.8650639 4288085770
9.472702 2.9143059 -1.780056 4288085770
15.765514 4.5027661 -1.8661917 4288085770
9.387764 2.9742112 -1.7833614 4288085770
15.574558 4.5785518 -1.8700275 4288085770
9.2948265 3.0321052 -1.7857149 4288085770
15.402603 4.6583586 -1.8737508 4288085770
9.2308922 3.0960398 -1.790897 4288085770
15.231636 4.7381639 -1.8764688 4288085770
9.1569481 3.1579549 -1.7931381 4288085770
15.108669 4.8280287 -1.8809028 4288085770
9.0839996 3.2178693 -1.7943786 4288085770
14.986702 4.9168949 -1.885334 4288085770
9.03405 3.2838144 -1.7974802 4288085770
14.839714 4.9957147 -1.8829252 4288085770
8.9881058 3.351764 -1.8005551 4288085770
14.739735 5.0906029 -1.8862224 4288085770
8.947155 3.4217196 -1.803598 4288085770
14.675747 5.1945319 -1.8893033 4288085770
8.9081993 3.4906774 -1.8066324 4288085770
14.588753 5.2904305 -1.8905278 4288085770
8.8862457 3.5656543 -1.8095603 4288085770
14.593769 5.4154539 -1.899184 4288085770
8.8642883 3.6406312 -1.8124882 4288085770
14.580772 5.5344472 -1.9039524 4288085770
8.836319 3.7125936 -1.8124558 4288085770
14.597782 5.6644812 -1.911531 4288085770
8.8433685 3.7976112 -1.8182021 4288085770
14.620773 5.7985163 -1.9170676 4288085770
8.8434067 3.8796134 -1.8209938 4288085770
14.682758 5.9456019 -1.9243612 4288085770
8.8284264 3.9575882 -1.8198761 4288085770
14.760746 6.1007104 -1.9335482 4288085770
8.8594627 4.0516329 -1.8254703 4288085770
14.844727 6.2578235 -1.9416977 4288085770
8.8864899 4.1446681 -1.8290886 4288085770
14.992699 6.4420218 -1.9544346 4288085770
8.9465294 4.2507539 -1.8374964 4288085770
15.101654 6.6131573 -1.9604146 4288085770
9.0175667 4.3638539 -1.846827 4288085770
15.222599 6.7923074 -1.9663093 4288085770
9.0995903 4.4819646 -1.8550858 4288085770
15.363537 6.9804826 -1.9730732 4288085770
9.1606102 4.5920439 -1.860478 4288085770
15.598461 7.2097816 -1.986228 4288085770
9.2086067 4.6990952 -1.8609475 4288085770
15.830383 7.4420757 -1.9983909 4288085770
9.3036118 4.8252153 -1.8671161 4288085770
15.96027 7.6342154 -1.9962041 4288085770
9.3846092 4.9483142 -1.8713673 4288085770
16.072128 7.8193183 -1.9881318 4288085770
9.4595833 5.0683966 -1.8716587 4288085770
16.200989 8.0144463 -1.9819427 4288085770
9.5595627 5.2025142 -1.8747799 4288085770
9.6675415 5.3406415 -1.8778479 4288085770
9.8195152 5.501832 -1.8856208 4288085770
10.008495 5.6810765 -1.8981489 4288085770
10.271477 5.8994284 -1.91918 4288085770
10.515438 6.1127467 -1.935326 4288085770
10.752377 6.3240442 -1.9465147 4288085770
11.062325 6.5764513 -1.9682066 4288085770
11.299232 6.7957382 -1.9753752 4288085770
11.525112 7.0119963 -1.9766102 4288085770
11.717972 7.2122021 -1.9720637 4288085770
11.971821 7.4484892 -1.9720975 4288085770
12.233654 7.6907816 -1.9700732 4288085770
12.525467 7.9531102 -1.9688365 4288085770
17.694878 -0.53138435 -1.7665657 4288085770
16.381966 -0.54892147 -1.7626005 4288085770
15.233055 -0.56127083 -1.7577488 4288085770
14.301201 -0.57534087 -1.7637461 4288085770
13.462337 -0.58630693 -1.7682402 4288085770
12.654446 -0.59325063 -1.7675588 4288085770
11.954582 -0.59905779 -1.7712997 4288085770
11.310703 -0.60380328 -1.7737396 4288085770
17.334126 -0.93287933 -1.7535117 4288085770
10.713818 -0.60549819 -1.7749214 4288085770
16.082203 -0.91033161 -1.7551187 4288085770
10.176941 -0.6071192 -1.7777835 4288085770
14.961273 -0.88963687 -1.7550331 4288085770
9.6700516 -0.60671079 -1.7784808 4288085770
14.017391 -0.87271821 -1.7620145 4288085770
9.1951561 -0.60526836 -1.778005 4288085770
13.167488 -0.85470021 -1.7654929 4288085770
8.7632675 -0.60277188 -1.7792976 4288085770
12.376583 -0.83661759 -1.7676568 4288085770
8.3753967 -0.60121977 -1.7823582 4288085770
11.709705 -0.82238185 -1.7731704 4288085770
8.0135155 -0.5986346 -1.7862778 4288085770
11.0588 -0.80513585 -1.7755913 4288085770
7.6836472 -0.59601104 -1.7910269 4288085770
10.457886 -0.78783786 -1.7757456 4288085770
7.3457527 -0.5904094 -1.7908111 4288085770
9.8999596 -0.76949632 -1.7736684 4288085770
7.0688896 -0.5877198 -1.7972777 4288085770
9.4370918 -0.75601923 -1.7810977 4288085770
6.7850075 -0.58204877 -1.7997741 4288085770
8.9541664 -0.73859179 -1.7786235 4288085770
6.525135 -0.57734478 -1.8041451 4288085770
8.5442734 -0.72406518 -1.781768 4288085770
6.2632446 -0.57065403 -1.8045218 4288085770
8.1613884 -0.70950472 -1.7857686 4288085770
6.0243607 -0.56393111 -1.8067759 4288085770
7.7954865 -0.69493282 -1.7866787 4288085770
5.789463 -0.55620897 -1.807006 4288085770
7.4836121 -0.6822859 -1.7923062 4288085770
5.5665588 -0.54847848 -1.8051723 4288085770
7.1647148 -0.66665733 -1.7939633 4288085770
5.3586655 -0.53972328 -1.8062561 4288085770
6.8998489 -0.65595162 -1.8013456 4288085770
5.1377296 -0.53000057 -1.8004069 4288085770
6.6329727 -0.6422559 -1.8057307 4288085770
4.9598579 -0.52220333 -1.8043333 4288085770
6.366066 -0.62757099 -1.8061134 4288085770
4.7639313 -0.51144946 -1.7993481 4288085770
6.099144 -0.61089337 -1.8034911 4288085770
4.5960388 -0.50264823 -1.8002189 4288085770
5.8672447 -0.59716523 -1.80469 4288085770
4.4601898 -0.49678957 -1.8089266 4288085770
5.6313248 -0.58145249 -1.801905 4288085770
4.270237 -0.48404229 -1.7989045 4288085770
5.4084053 -0.56572497 -1.7990509 4288085770
4.1243401 -0.47421587 -1.7996556 4288085770
5.1944809 -0.54998672 -1.7961488 4288085770
3.9774361 -0.46439588 -1.798412 4288085770
5.0085793 -0.53620899 -1.7961025 4288085770
3.8585625 -0.45552838 -1.8030216 4288085770
4.8296776 -0.52242053 -1.7970191 4288085770
3.7286682 -0.4456836 -1.8036872 4288085770
4.6397476 -0.5066601 -1.7919893 4288085770
4.4828568 -0.49284375 -1.7937883 4288085770
4.352993 -0.4819833 -1.8004515 4288085770
4.1910629 -0.46618855 -1.7962724 4288085770
4.0451546 -0.45236731 -1.7950131 4288085770
3.9152603 -0.43852007 -1.7966685 4288085770
3.7903595 -0.42566967 -1.7972999 4288085770
3.6744728 -0.41280377 -1.7998834 4288085770
3.6660309 1.526395 -1.7926517 4288085770
3.7811127 1.5465162 -1.789977 4288085770
3.8931847 1.5646288 -1.7853234 4288085770
4.02528 1.5877775 -1.7855493 4288085770
4.1623726 1.6099321 -1.7857504 4288085770
4.3204803 1.6371211 -1.7898254 4288085770
4.4715767 1.6612946 -1.7909459 4288085770
4.6296654 1.6854733 -1.7910281 4288085770
3.7019577 1.4823889 -1.7935414 4288085770
4.7917595 1.7086569 -1.7910913 4288085770
3.8200531 1.4955164 -1.791868 4288085770
4.9528351 1.7308316 -1.7881622 4288085770
3.9381332 1.5086386 -1.7881941 4288085770
5.1279182 1.7550278 -1.7871523 4288085770
4.083252 1.5268104 -1.7913617 4288085770
5.3310318 1.7832719 -1.7919807 4288085770
4.2193413 1.5419612 -1.7905855 4288085770
5.5371284 1.8115116 -1.7937927 4288085770
4.3554382 1.5551097 -1.7888142 4288085770
5.7512245 1.838761 -1.7955641 4288085770
4.5155487 1.5732988 -1.7919004 4288085770
5.9532967 1.8619834 -1.79241 4288085770
4.6826591 1.5904933 -1.793951 4288085770
6.2074165 1.8942919 -1.798952 4288085770
4.8347473 1.602658 -1.7910953 4288085770
6.447506 1.9215685 -1.7995819 4288085770
5.0138626 1.6198692 -1.7940807 4288085770
6.6955872 1.9488497 -1.7981683 4288085770
5.1809616 1.6320536 -1.7921436 4288085770
6.9296494 1.9691018 -1.7918479 4288085770
5.3740692 1.6482786 -1.7940555 4288085770
7.1987305 1.9964073 -1.7903203 4288085770
5.5761833 1.6645166 -1.7969184 4288085770
7.4838066 2.0227289 -1.7877084 4288085770
5.7852936 1.6807601 -1.7987434 4288085770
7.7728767 2.0480499 -1.7830772 4288085770
5.9823837 1.6909771 -1.7956482 4288085770
8.0899506 2.0754113 -1.7812891 4288085770
6.2195015 1.7082583 -1.7993187 4288085770
8.4270248 2.1027935 -1.7783927 4288085770
6.4305878 1.717489 -1.7951498 4288085770
8.7941132 2.1342182 -1.7783232 4288085770
6.6606903 1.7287495 -1.7938727 4288085770
9.1771927 2.164659 -1.7771695 4288085770
6.9087944 1.7400335 -1.7934979 4288085770
9.5752678 2.1941147 -1.7749367 4288085770
7.1699066 1.751335 -1.7940527 4288085770
10.02335 2.2286358 -1.7754201 4288085770
7.4400024 1.7626421 -1.7925586 4288085770
10.492428 2.2611768 -1.7737945 4288085770
7.7060928 1.7689396 -1.789098 4288085770
10.994507 2.2957582 -1.7729849 4288085770
7.9831848 1.7752472 -1.784578 4288085770
11.526585 2.3313749 -1.7720097 4288085770
8.2992973 1.7846131 -1.7848387 4288085770
12.107658 2.3670487 -1.7707686 4288085770
8.6454163 1.7950188 -1.786934 4288085770
12.716732 2.4027524 -1.7683753 4288085770
8.9865265 1.8014113 -1.7860663 4288085770
13.45483 2.4516289 -1.77425 4288085770
9.3516388 1.8078315 -1.7850679 4288085770
14.283951 2.5066214 -1.7836161 4288085770
9.7107277 1.8092349 -1.7801144 4288085770
15.241093 2.5727806 -1.7992603 4288085770
10.14286 1.8167458 -1.7837498 4288085770
16.425274 2.6592395 -1.8276234 4288085770
10.552959 1.8162111 -1.7795242 4288085770
17.395336 2.7043657 -1.8242476 4288085770
11.025082 1.819761 -1.779952 4288085770
18.250313 2.7233052 -1.8005594 4288085770
11.490181 1.8162904 -1.7754349 4288085770
11.986298 1.8108585 -1.771754 4288085770
12.542423 1.8085065 -1.77174 4288085770
13.154552 1.8052222 -1.7724241 4288085770
13.813698 1.7999978 -1.7748578 4288085770
14.544853 1.7948625 -1.7789004 4288085770
15.359024 1.7878315 -1.7854981 4288085770
16.223198 1.7778587 -1.7918301 4288085770
17.047329 1.7538116 -1.7874131 4288085770
17.830425 1.7166916 -1.7732503 4288085770
14.768993 -7.8575788 -0.094704278 4293729569
14.502369 -7.8437705 -0.14611574 4293729569
14.182709 -7.8010287 -0.19674627 4293729569
13.926083 -7.7852073 -0.24909878 4293729569
13.590405 -7.7234826 -0.29977083 4293729569
13.369797 -7.7156157 -0.35294652 4293729569
13.110146 -7.6828046 -0.40327448 4293729569
12.86451 -7.6539702 -0.45553592 4293729569
12.694935 -7.6610398 -0.50946987 4293729569
12.552372 -7.6790757 -0.56528306 4293729569
12.497887 -7.7429996 -0.62372726 4293729569
12.446411 -7.8069129 -0.68515491 4293729569
12.41497 -7.880795 -0.74949765 4293729569
7.4315338 -5.1953001 -0.11514049 4293729569
7.4554482 -5.2219963 -0.62807953 4293729569
7.3719063 -5.2122703 -0.15750112 4293729569
7.3878059 -5.2359786 -0.66947675 4293729569
7.3362999 -5.2412081 -0.20175958 4293729569
7.3421898 -5.260931 -0.71278024 4293729569
7.3277168 -5.285111 -0.2469068 4293729569
7.302578 -5.2888756 -0.75605834 4293729569
7.3061256 -5.3190269 -0.29310066 4293729569
7.2930031 -5.3317757 -0.80320859 4293729569
7.3145638 -5.3699031 -0.34117162 4293729569
7.2844353 -5.3746719 -0.85135317 4293729569
7.3380089 -5.428761 -0.3891798 4293729569
7.2838821 -5.4215536 -0.90146363 4293729569
7.2853241 -5.466433 -0.95155811 4293729569
7.2907829 -5.5133033 -1.0036353 4293729569
7.3112564 -5.5691528 -1.0566523 4293729569
10.67955 -7.772016 -1.51659 4293729569
10.193436 -7.5115819 -1.5286015 4293729569
9.7212868 -7.2531257 -1.5375401 4293729569
9.2541199 -6.9906745 -1.5424428 4293729569
8.8880692 -6.7900786 -1.5569437 4293729569
8.5209923 -6.5834966 -1.5664364 4293729569
8.1619034 -6.3769121 -1.5738862 4293729569
7.7877579 -6.1553607 -1.5743828 4293729569
7.3885384 -5.9138594 -1.566969 4293729569
7.1225243 -5.7561569 -1.5770302 4293729569
6.8124046 -5.5665355 -1.5752561 4293729569
9.9926414 -7.6379008 -1.5188432 4293729569
6.6335068 -5.4617033 -1.5959697 4293729569
9.5234413 -7.337441 -1.5276682 4293729569
6.4315567 -5.3389158 -1.6097665 4293729569
9.1143074 -7.0739055 -1.5392549 4293729569
6.2325897 -5.2141266 -1.6225423 4293729569
8.7672386 -6.848289 -1.5535942 4293729569
6.049633 -5.0973215 -1.6342503 4293729569
8.4051094 -6.6087041 -1.561983 4293729569
5.8656578 -4.9785252 -1.6429595 4293729569
8.0459557 -6.3691287 -1.5653565 4293729569
5.6716461 -4.84975 -1.6476996 4293729569
7.7168236 -6.1465178 -1.5686073 4293729569
5.4876289 -4.725966 -1.6513979 4293729569
7.377655 -5.9149289 -1.5678927 4293729569
5.3226509 -4.6131525 -1.6580187 4293729569
7.1556587 -5.7601676 -1.5807217 4293729569
5.1957283 -4.5232792 -1.6704863 4293729569
6.8464928 -5.5435538 -1.5758799 4293729569
5.1740189 -4.5042219 -1.7065486 4293729569
6.6615257 -5.4087458 -1.5895551 4293729569
5.1853867 -4.5051064 -1.7504776 4293729569
6.529644 -5.3088527 -1.6120242 4293729569
5.206768 -4.5109711 -1.7973634 4288085770
6.3526611 -5.1750436 -1.6226587 4293729569
5.1760254 -4.4799342 -1.829446 4288085770
6.1736526 -5.040246 -1.6293027 4293729569
5.0139771 -4.3581452 -1.82503 4288085770
6.012661 -4.9154253 -1.6368722 4293729569
4.8899841 -4.260293 -1.8274633 4288085770
5.8586731 -4.7935967 -1.6444107 4293729569
4.7569809 -4.155457 -1.8279295 4288085770
5.70467 -4.6707749 -1.6489476 4293729569
4.6369781 -4.0586076 -1.8273441 4288085770
5.5666885 -4.5579295 -1.6554208 4293729569
4.5229797 -3.9627481 -1.827728 4288085770
5.5549507 -4.5258679 -1.6883951 4293729569
4.406971 -3.8658996 -1.8251212 4288085770
5.5862923 -4.5197339 -1.7301954 4293729569
4.3079834 -3.7800236 -1.8254474 4288085770
5.6456909 -4.5295486 -1.7788794 4288085770
4.2049789 -3.6891589 -1.8227841 4288085770
5.666996 -4.5124364 -1.8167077 4288085770
4.1089783 -3.6032872 -1.8200945 4288085770
5.5700455 -4.4195404 -1.8240041 4288085770
4.0149727 -3.5184112 -1.817397 4288085770
5.4570465 -4.3156757 -1.826363 4288085770
3.9279785 -3.4365287 -1.8146679 4288085770
5.3410339 -4.2088213 -1.8257312 4288085770
3.8680382 -3.3715963 -1.8188311 4288085770
5.2250023 -4.1029754 -1.8221022 4288085770
3.7750053 -3.2857351 -1.8101262 4288085770
5.125 -4.0051026 -1.8214043 4288085770
3.7210655 -3.2227983 -1.8132614 4288085770
5.0360146 -3.9142118 -1.8226629 4288085770
3.6651154 -3.1588683 -1.8144054 4288085770
4.956028 -3.8293128 -1.8228868 4288085770
4.8690262 -3.7394295 -1.8201375 4288085770
4.7950439 -3.6565237 -1.8203335 4288085770
4.7280693 -3.5786095 -1.820503 4288085770
4.657074 -3.4977078 -1.8176877 4288085770
4.596096 -3.4227886 -1.8168319 4288085770
4.5341072 -3.3468761 -1.8139794 4288085770
4.492157 -3.28193 -1.8150427 4288085770
4.4502029 -3.2169838 -1.8161063 4288085770
4.3931961 -3.144073 -1.8102342 4288085770
4.3502235 -3.0791354 -1.8083037 4288085770
4.3172607 -3.0191836 -1.8073305 4288085770
4.291317 -2.9622183 -1.8083252 4288085770
4.2653618 -2.9062576 -1.8073227 4288085770
4.249424 -2.8542814 -1.8082741 4288085770
4.2194557 -2.795331 -1.8052868 4288085770
4.2115173 -2.7483449 -1.8062061 4288085770
4.1985703 -2.6973696 -1.8051438 4288085770
4.1956367 -2.6513772 -1.8060379 4288085770
4.1927071 -2.6063852 -1.8069346 4288085770
4.1877632 -2.5594001 -1.8058375 4288085770
4.1928329 -2.5173984 -1.806697 4288085770
4.2009087 -2.4763927 -1.807542 4288085770
4.2109833 -2.4363856 -1.8083787 4288085770
4.2110291 -2.3913999 -1.8052588 4288085770
4.2311096 -2.3553805 -1.8060493 4288085770
4.2451744 -2.31637 -1.8058659 4288085770
4.2552261 -2.2753725 -1.8027002 4288085770
4.2863235 -2.2433348 -1.8054389 4288085770
4.3204155 -2.2102942 -1.8081583 4288085770
4.3354645 -2.1712928 -1.8039694 4288085770
4.3825722 -2.1432314 -1.808628 4288085770
4.4046288 -2.1062193 -1.8054047 4288085770
4.4497261 -2.0771651 -1.8080721 4288085770
4.4837875 -2.0431376 -1.805789 4288085770
4.5469131 -2.0190544 -1.8113676 4288085770
4.5859756 -1.9870194 -1.8090611 4288085770
4.6490936 -1.9619392 -1.8136369 4288085770
4.7051811 -1.9338771 -1.8142447 4288085770
4.7812958 -1.9117814 -1.8187549 4288085770
4.8303604 -1.8807377 -1.8153944 4288085770
3.667984 -1.5331329 -1.8150548 4288085770
4.8904457 -1.8526727 -1.8149794 4288085770
3.7100563 -1.5070945 -1.8127472 4288085770
4.9595375 -1.8265954 -1.8155186 4288085770
3.7621422 -1.4830395 -1.8123888 4288085770
5.0236015 -1.7985307 -1.8130815 4288085770
3.8232536 -1.4619662 -1.8149867 4288085770
5.1157265 -1.7784137 -1.8185059 4288085770
3.8793335 -1.4379069 -1.8146052 4288085770
5.2068291 -1.7563049 -1.8209308 4288085770
3.9384232 -1.4148434 -1.8142092 4288085770
5.2769012 -1.7282358 -1.817459 4288085770
4.0055237 -1.3927659 -1.8157705 4288085770
5.3860168 -1.7091011 -1.8217897 4288085770
4.0696182 -1.369697 -1.8153462 4288085770
5.4891205 -1.6879784 -1.8241494 4288085770
4.1457176 -1.3496085 -1.8168617 4288085770
5.5932236 -1.6658562 -1.8255004 4288085770
4.217804 -1.3265296 -1.8163919 4288085770
5.6883011 -1.6407553 -1.8228945 4288085770
4.3039207 -1.3074247 -1.8198533 4288085770
5.8003922 -1.6186265 -1.8232005 4288085770
4.3699875 -1.2833627 -1.8154147 4288085770
5.9044685 -1.5945147 -1.8205462 4288085770
4.44907 -1.261278 -1.8139077 4288085770
6.0546112 -1.5793239 -1.8276544 4288085770
4.5361671 -1.2401789 -1.814358 4288085770
6.1626663 -1.5542141 -1.8219745 4288085770
4.6332664 -1.2210656 -1.8157566 4288085770
6.3027687 -1.5340496 -1.8231266 4288085770
4.7213478 -1.1989728 -1.8131984 4288085770
6.4288368 -1.509914 -1.8193473 4288085770
4.8214378 -1.1778609 -1.8125747 4288085770
6.5599022 -1.4857749 -1.8145396 4288085770
4.9275322 -1.1577393 -1.8129197 4288085770
6.7169914 -1.4655949 -1.8135949 4288085770
5.0736847 -1.1445476 -1.8220564 4288085770
6.8810654 -1.4444088 -1.8116088 4288085770
5.1517067 -1.1164862 -1.8115394 4288085770
7.0501518 -1.4242169 -1.8095958 4288085770
5.291832 -1.1003143 -1.8157015 4288085770
7.2312355 -1.4040109 -1.8075148 4288085770
5.4239311 -1.0811616 -1.8159014 4288085770
7.4173164 -1.383799 -1.805405 4288085770
5.5690384 -1.0629889 -1.81803 4288085770
7.6113853 -1.3625849 -1.8002476 4288085770
5.7141342 -1.0438205 -1.8181558 4288085770
7.8304749 -1.343331 -1.7989532 4288085770
5.8532104 -1.0226671 -1.8153102 4288085770
8.0675735 -1.3270537 -1.7985643 4288085770
6.0013008 -1.0025002 -1.8134161 4288085770
8.2936401 -1.3058013 -1.7932248 4288085770
6.1884232 -0.98627222 -1.8173112 4288085770
8.5527344 -1.2885 -1.791708 4288085770
6.3314667 -0.96312606 -1.8094373 4288085770
8.8328171 -1.2701758 -1.7890698 4288085770
6.5185623 -0.94390833 -1.8093244 4288085770
9.1409073 -1.2538165 -1.7872776 4288085770
6.7236786 -0.92566383 -1.8111117 4288085770
9.4690094 -1.2374307 -1.7863718 4288085770
6.8927155 -0.9014889 -1.8020874 4288085770
9.8261032 -1.22201 -1.7853037 4288085770
7.1047974 -0.88124597 -1.7998295 4288085770
10.199192 -1.2055758 -1.7821422 4288085770
7.3458977 -0.86296141 -1.8004119 4288085770
10.616287 -1.1900839 -1.7807333 4288085770
7.5629501 -0.83972418 -1.7931175 4288085770
11.046371 -1.1745812 -1.7772502 4288085770
7.8050194 -0.81945002 -1.7886889 4288085770
11.534477 -1.1600026 -1.776441 4288085770
8.0951195 -0.80010688 -1.7889903 4288085770
12.069572 -1.1463698 -1.7743666 4288085770
8.3641815 -0.77780545 -1.7824026 4288085770
12.654686 -1.1336735 -1.7740108 4288085770
8.6712608 -0.75744951 -1.7796042 4288085770
13.257763 -1.1179675 -1.7685444 4288085770
9.0423775 -0.74000227 -1.78245 4288085770
13.941845 -1.1031626 -1.7636206 4288085770
9.4074631 -0.71857464 -1.7803195 4288085770
14.749962 -1.0921983 -1.7630032 4288085770
9.8255692 -0.69807661 -1.7808901 4288085770
15.608055 -1.0791811 -1.759096 4288085770
10.259655 -0.67656672 -1.7783672 4288085770
16.579151 -1.0680302 -1.7545518 4288085770
10.749756 -0.65598309 -1.7785281 4288085770
17.699257 -1.0576936 -1.7521638 4288085770
11.257835 -0.63338482 -1.7755814 4288085770
11.83894 -0.61169016 -1.7762222 4288085770
12.442013 -0.58698118 -1.7717298 4288085770
13.13409 -0.56216156 -1.7687315 4288085770
13.925194 -0.5372144 -1.7691703 4288085770
14.762268 -0.50922453 -1.7643392 4288085770
15.759373 -0.48202956 -1.764601 4288085770
16.993526 -0.45552528 -1.7745194 4288085770
18.264618 -0.4230063 -1.7722096 4288085770
17.663795 -0.12245715 -1.7613336 4288085770
16.271889 -0.128178 -1.7606395 4288085770
15.035969 -0.13071132 -1.7580087 4288085770
14.018085 -0.1329608 -1.7620786 4288085770
13.120205 -0.13306439 -1.7654287 4288085770
12.296303 -0.13208473 -1.7653352 4288085770
11.566414 -0.12998366 -1.767679 4288085770
17.961624 -0.22114432 -1.7548337 4288085770
10.913536 -0.12778437 -1.7715639 4288085770
16.546707 -0.20788634 -1.7572298 4288085770
10.30463 -0.1235404 -1.7711819 4288085770
15.235748 -0.19251776 -1.7520015 4288085770
9.7637444 -0.12020695 -1.7733968 4288085770
14.186844 -0.18080962 -1.7542217 4288085770
9.2668533 -0.11482 -1.775345 4288085770
13.279957 -0.16891956 -1.7595956 4288085770
8.8039513 -0.1093961 -1.7750903 4288085770
12.439053 -0.15595567 -1.761574 4288085770
8.3850632 -0.10391212 -1.7775736 4288085770
11.680141 -0.14389479 -1.762066 4288085770
8.0272064 -0.098344207 -1.7836933 4288085770
11.041256 -0.13267839 -1.7658457 4288085770
7.6863365 -0.091758251 -1.7887093 4288085770
10.438358 -0.12042046 -1.7684081 4288085770
7.3854828 -0.086116791 -1.7964892 4288085770
9.8934669 -0.10908961 -1.7716273 4288085770
7.0525627 -0.078539252 -1.7934551 4288085770
9.3765411 -0.096736073 -1.7696773 4288085770
6.7746887 -0.07087636 -1.7980932 4288085770
8.9146461 -0.085306168 -1.7714019 4288085770
6.4927902 -0.063229918 -1.7977552 4288085770
8.4957428 -0.073824644 -1.7728704 4288085770
6.2559204 -0.05551517 -1.8031489 4288085770
8.1348763 -0.06226027 -1.7789934 4288085770
5.9829788 -0.046871305 -1.7967547 4288085770
7.7779884 -0.0506984 -1.7820925 4288085770
5.7440681 -0.038174987 -1.7951579 4288085770
7.4851379 -0.04004252 -1.7918127 4288085770
5.5221634 -0.029455304 -1.7944598 4288085770
7.186264 -0.028405309 -1.7965661 4288085770
5.2912216 -0.019760609 -1.7878128 4288085770
6.8973618 -0.016765118 -1.79726 4288085770
5.115345 -0.010973454 -1.7918407 4288085770
6.6204567 -0.0051102638 -1.7978823 4288085770
4.9354515 -0.0021982193 -1.7928922 4288085770
6.3595543 0.0065617561 -1.7974093 4288085770
4.7675667 0.0065938234 -1.7948724 4288085770
6.1006317 0.019231677 -1.794922 4288085770
4.5806274 0.016344666 -1.7889631 4288085770
5.8907509 0.029977202 -1.7991475 4288085770
4.4387512 0.026172757 -1.7927861 4288085770
5.6377983 0.042640924 -1.7906243 4288085770
4.2818336 0.03496933 -1.7907003 4288085770
5.4188652 0.05435729 -1.7869008 4288085770
4.1439438 0.044798017 -1.7924994 4288085770
5.25 0.066157103 -1.7928797 4288085770
3.9980278 0.054605603 -1.789346 4288085770
5.051075 0.077897906 -1.789037 4288085770
3.8711205 0.064442873 -1.7890794 4288085770
4.8861771 0.088691354 -1.7899944 4288085770
3.769268 0.074329138 -1.7966638 4288085770
4.7292824 0.10049677 -1.7919018 4288085770
4.5673676 0.11228704 -1.7898388 4288085770
4.4284821 0.12311661 -1.7926412 4288085770
4.271553 0.13490641 -1.7875484 4288085770
4.1446495 0.14674604 -1.788277 4288085770
3.9957123 0.15854299 -1.7821363 4288085770
3.8768082 0.17039013 -1.7818173 4288085770
3.780941 0.18228137 -1.7883612 4288085770
3.6790581 0.19515848 -1.7919385 4288085770
3.6453743 2.2794867 -1.7775198 4288085770
3.7644501 2.3176301 -1.7787312 4288085770
3.8955421 2.3587954 -1.7828647 4288085770
4.0125999 2.3939271 -1.7800949 4288085770
4.1476784 2.4340928 -1.7822073 4288085770
4.279747 2.4712477 -1.7813444 4288085770
4.4268188 2.5134254 -1.7823817 4288085770
4.5778885 2.5556073 -1.7833953 4288085770
3.6463547 2.2204657 -1.7866623 4288085770
4.7279549 2.5957844 -1.7824198 4288085770
3.7664375 2.2486081 -1.7868909 4288085770
4.9000359 2.6419992 -1.7863007 4288085770
3.890522 2.2787576 -1.7880913 4288085770
5.0661011 2.6841974 -1.7862264 4288085770
4.0035858 2.3028827 -1.7843709 4288085770
5.2471695 2.7314191 -1.788052 4288085770
4.1416817 2.334054 -1.7874866 4288085770
5.4372368 2.7786515 -1.7898248 4288085770
4.2767677 2.363215 -1.787625 4288085770
5.6232948 2.8228717 -1.7886282 4288085770
4.4118385 2.3903708 -1.7857678 4288085770
5.8393707 2.8751402 -1.7922364 4288085770
4.5559196 2.4195428 -1.7858533 4288085770
6.0654449 2.9294209 -1.7957813 4288085770
4.7190132 2.4537444 -1.788815 4288085770
6.2915077 2.9806967 -1.7973332 4288085770
4.8670921 2.4809189 -1.7878819 4288085770
6.5145607 3.0289621 -1.79591 4288085770
5.0301743 2.5101137 -1.7878555 4288085770
6.7596207 3.0812612 -1.7973479 4288085770
5.1852417 2.5352919 -1.7848859 4288085770
7.0176811 3.1365762 -1.7987024 4288085770
5.3933563 2.5775623 -1.7935644 4288085770
7.2897377 3.1929078 -1.7999721 4288085770
5.5614319 2.6037583 -1.7915159 4288085770
7.5507851 3.2422173 -1.7973235 4288085770
5.7344971 2.6279562 -1.7874428 4288085770
7.8458328 3.3005748 -1.7974535 4288085770
5.932579 2.6591957 -1.7882061 4288085770
8.1748962 3.3659828 -1.8013674 4288085770
6.1296577 2.6874321 -1.7879826 4288085770
8.5229645 3.4334164 -1.8061649 4288085770
6.3417435 2.7186887 -1.7886637 4288085770
8.8750038 3.4978454 -1.806946 4288085770
6.5618248 2.7489526 -1.7883005 4288085770
9.2670746 3.5713348 -1.8124709 4288085770
6.7698936 2.7731953 -1.7850218 4288085770
9.6581192 3.6408134 -1.8140113 4288085770
6.9959679 2.8014643 -1.783628 4288085770
10.074169 3.713325 -1.8163978 4288085770
7.2430611 2.8317657 -1.7851059 4288085770
10.52422 3.7908826 -1.8205727 4288085770
7.4951363 2.861069 -1.784557 4288085770
10.986252 3.8644452 -1.8206867 4288085770
7.7432137 2.8853621 -1.7820433 4288085770
11.521313 3.9561152 -1.8283293 4288085770
8.0152931 2.9136899 -1.7813793 4288085770
12.050346 4.0387645 -1.8300284 4288085770
8.2963791 2.9410281 -1.7806648 4288085770
12.578362 4.1144028 -1.8277501 4288085770
8.5844612 2.967375 -1.7799115 4288085770
13.190399 4.2071595 -1.8319383 4288085770
8.9315681 3.0048096 -1.7857856 4288085770
13.932468 4.3270998 -1.8462989 4288085770
9.2636566 3.0352144 -1.7867645 4288085770
14.831566 4.4812603 -1.8726571 4288085770
9.5987511 3.0616231 -1.7877352 4288085770
15.619595 4.5952401 -1.8797619 4288085770
9.9648399 3.0910692 -1.7885168 4288085770
16.438606 4.7052488 -1.8826944 4288085770
10.35894 3.1235566 -1.7921267 4288085770
17.260605 4.8062491 -1.8806305 4288085770
10.754044 3.1510403 -1.7937427 4288085770
18.003559 4.8781238 -1.8660995 4288085770
11.166142 3.1765451 -1.7952635 4288085770
11.618252 3.2071047 -1.7995377 4288085770
12.042339 3.2246149 -1.797007 4288085770
12.515442 3.2491956 -1.799172 4288085770
12.999538 3.2677755 -1.7982806 4288085770
13.563663 3.2974799 -1.804899 4288085770
14.268848 3.3503904 -1.8256346 4288085770
15.052048 3.4084053 -1.8499004 4288085770
15.685173 3.4261894 -1.8541416 4288085770
16.215252 3.4178138 -1.8440495 4288085770
16.981415 3.4437785 -1.8554908 4288085770
17.639526 3.4405773 -1.8526349 4288085770
18.121567 3.4011157 -1.8308982 4288085770
18.557262 -6.6083989 -1.5179509 4293729569
17.775234 -6.4803596 -1.52224 4293729569
17.062237 -6.3682299 -1.5291615 4293729569
16.439289 -6.27598 -1.539601 4293729569
15.816315 -6.1727357 -1.5480149 4293729569
13.485031 -5.396728 -0.63485295 4293729569
15.148281 -6.0465612 -1.5506392 4293729569
13.381512 -5.4597454 -0.68461025 4293729569
14.503231 -5.9173598 -1.5521214 4293729569
13.340042 -5.5446782 -0.73805499 4293729569
13.34161 -5.582921 -1.5001514 4293729569
13.334602 -5.6425624 -0.79331887 4293729569
13.208046 -5.631988 -1.5450521 4293729569
13.342186 -5.7434216 -0.85251343 4293729569
12.972374 -5.6382031 -1.5804508 4293729569
18.269985 -7.818521 -1.2034833 4293729569
12.4884 -5.5407915 -1.5870626 4293729569
17.924427 -7.807817 -1.2624881 4293729569
12.084492 -5.4672656 -1.6002607 4293729569
11.606487 -5.3598533 -1.6038138 4293729569
11.149471 -5.252418 -1.6062435 4293729569
10.779552 -5.1758552 -1.6172349 4293729569
16.448986 -7.6671491 -1.4848236 4293729569
10.360542 -5.0713735 -1.6194487 4293729569
15.485695 -7.3533473 -1.4837393 4293729569
9.9955826 -4.985817 -1.6253896 4293729569
14.714577 -7.1162782 -1.4957078 4293729569
9.6636467 -4.910213 -1.6341603 4293729569
14.050518 -6.9150701 -1.5111324 4293729569
9.2736244 -4.8027005 -1.6341968 4293729569
13.472527 -6.7447457 -1.5301247 4293729569
8.9466629 -4.7190967 -1.6399194 4293729569
12.878483 -6.5574546 -1.5441712 4293729569
8.6867828 -4.6623931 -1.6533117 4293729569
12.306427 -6.3731418 -1.5550956 4293729569
8.5210342 -4.6455383 -1.6812458 4293729569
11.781395 -6.2037692 -1.5667791 4293729569
8.3783264 -4.6376476 -1.7130659 4293729569
11.22229 -6.012455 -1.5716108 4293729569
8.2596436 -4.6397195 -1.7477685 4288085770
10.703186 -5.8290973 -1.5742265 4293729569
8.1309357 -4.6328077 -1.7805085 4288085770
10.261162 -5.678628 -1.5834672 4293729569
7.9631538 -4.6039667 -1.8044264 4288085770
9.8771973 -5.5510759 -1.5974214 4293729569
7.7322617 -4.5422292 -1.8166368 4288085770
9.4180946 -5.3806486 -1.5977151 4293729569
7.4492493 -4.4495864 -1.8160803 4288085770
9.1021729 -5.2770071 -1.6143264 4293729569
7.1972847 -4.368896 -1.8193696 4288085770
8.7251396 -5.1364684 -1.6192089 4293729569
6.9432907 -4.2832131 -1.8206588 4288085770
8.3881302 -5.0118752 -1.6258942 4293729569
6.7023087 -4.2005134 -1.821879 4288085770
8.0470924 -4.8802938 -1.6295867 4293729569
6.456295 -4.1118302 -1.8191144 4288085770
7.7240601 -4.7546949 -1.6311876 4293729569
6.2393188 -4.0350995 -1.8212079 4288085770
7.4801407 -4.6659722 -1.6444112 4293729569
6.0203285 -3.9543777 -1.8203037 4288085770
7.2852898 -4.6001706 -1.665401 4293729569
5.8313789 -3.8866081 -1.8242537 4288085770
7.1966209 -4.5891948 -1.7048973 4293729569
5.6293869 -3.8098664 -1.8232586 4288085770
7.1299782 -4.5881867 -1.7462878 4288085770
5.4394073 -3.7351069 -1.8231984 4288085770
7.0643349 -4.5841756 -1.7886655 4288085770
5.2514114 -3.6593499 -1.8211238 4288085770
6.9135284 -4.5333104 -1.8134322 4288085770
5.0764313 -3.5885749 -1.8199848 4288085770
6.6895561 -4.4375796 -1.8195223 4288085770
4.9114609 -3.5207829 -1.8207939 4288085770
6.4475327 -4.3298845 -1.8196898 4288085770
4.7444725 -3.4500003 -1.8186078 4288085770
6.2235222 -4.229167 -1.8197683 4288085770
4.5985222 -3.3871827 -1.8203171 4288085770
5.9914818 -4.1194668 -1.8168725 4288085770
4.4254837 -3.3084216 -1.8121476 4288085770
5.7984962 -4.0307069 -1.8187969 4288085770
4.2945366 -3.2505856 -1.8137808 4288085770
5.6115074 -3.9419398 -1.8206863 4288085770
4.1505508 -3.1837773 -1.810469 4288085770
5.4114799 -3.8442001 -1.8176309 4288085770
4.0205803 -3.1229448 -1.8100892 4288085770
5.2435036 -3.7624097 -1.819425 4288085770
3.9006271 -3.0660996 -1.8096601 4288085770
5.0664864 -3.6726418 -1.8162534 4288085770
3.7696304 -3.0012779 -1.8052768 4288085770
4.9195213 -3.5978231 -1.8189406 4288085770
3.6636887 -2.9494119 -1.8067772 4288085770
4.7595177 -3.5150328 -1.8166857 4288085770
4.611515 -3.4362268 -1.8143696 4288085770
4.4745369 -3.3624029 -1.8140006 4288085770
