# .PCD v0.7 - Point Cloud Data file format
VERSION 0.7
FIELDS x y z rgb
SIZE 4 4 4 4
TYPE F F F U
COUNT 1 1 1 1
WIDTH 1128
HEIGHT 1
VIEWPOINT 0 0 0 1 0 0 0
POINTS 1128
DATA ascii
5.2775764 2.1764729 -1.7737706 4288085770
7.4165039 2.6502223 -1.7104039 4288085770
5.53162 2.1968088 -1.7795411 4288085770
7.7526054 2.6796563 -1.7067437 4288085770
5.7467499 2.2050824 -1.7750485 4288085770
8.1206932 2.7131341 -1.7043052 4288085770
5.9109726 2.1992784 -1.7602097 4288085770
8.5297508 2.7516696 -1.7061505 4288085770
6.1281242 2.2025526 -1.753736 4288085770
8.9737854 2.7932532 -1.7092397 4288085770
6.3153419 2.1977797 -1.7400585 4288085770
9.4358444 2.8318579 -1.7104589 4288085770
6.5514946 2.200079 -1.7337193 4288085770
9.9159279 2.8694839 -1.7088057 4288085770
6.7956581 2.2003882 -1.7264389 4288085770
10.432987 2.9101605 -1.7094103 4288085770
7.0498123 2.2007124 -1.7212286 4288085770
10.983051 2.9498811 -1.7102485 4288085770
7.3329506 2.2030761 -1.717221 4288085770
11.590107 2.9946771 -1.7114836 4288085770
7.6700249 2.2125189 -1.7205869 4288085770
12.252132 3.0415478 -1.7151046 4288085770
8.0031319 2.216953 -1.7209295 4288085770
12.949177 3.0894639 -1.717971 4288085770
8.3262749 2.2153695 -1.7172074 4288085770
13.790157 3.1525781 -1.7288377 4288085770
8.6614189 2.2128024 -1.7135711 4288085770
14.616177 3.203665 -1.7326105 4288085770
9.0525246 2.2143142 -1.7153252 4288085770
15.344357 3.2296066 -1.7207165 4288085770
9.4256744 2.2077971 -1.7119606 4288085770
16.287411 3.2798462 -1.7233148 4288085770
9.840786 2.2053397 -1.7128875 4288085770
17.364407 3.3412676 -1.7308464 4288085770
10.250942 2.1948714 -1.7097875 4288085770
10.702076 2.1844587 -1.7079767 4288085770
11.228161 2.1801527 -1.7136879 4288085770
11.708324 2.1627772 -1.7110878 4288085770
12.247456 2.1484838 -1.7129003 4288085770
12.847553 2.1342733 -1.7171427 4288085770
13.414738 2.107013 -1.7151654 4288085770
14.072865 2.0828784 -1.7188265 4288085770
14.771984 2.055799 -1.7237792 4288085770
15.373241 2.0085754 -1.7140607 4288085770
16.096416 1.9665225 -1.7141972 4288085770
16.916576 1.9236023 -1.7190179 4288085770
12.393223 -7.8046045 -1.9235514 4293729569
11.673046 -7.5195751 -1.9061973 4293729569
12.145329 -7.802701 -1.2147835 4293729569
11.062862 -7.2833891 -1.9006662 4288085770
12.056004 -7.84375 -1.2831951 4293729569
10.569691 -7.1010361 -1.9050122 4288085770
10.096523 -6.9236584 -1.9085045 4288085770
9.6473656 -6.7502499 -1.9121692 4288085770
9.1672363 -6.5538921 -1.9065932 4288085770
8.7101135 -6.3635025 -1.901185 4288085770
8.310997 -6.2000322 -1.901212 4288085770
7.9528694 -6.0545034 -1.9055455 4288085770
7.5487862 -5.8760481 -1.8975226 4288085770
7.1757011 -5.7105494 -1.8917307 4288085770
6.8805962 -5.5859365 -1.8975283 4288085770
10.570507 -7.7390804 -1.9096252 4293729569
6.5615311 -5.4423628 -1.8941383 4288085770
10.028233 -7.4737949 -1.911543 4288085770
6.2664528 -5.3087559 -1.8939275 4288085770
9.5279961 -7.2264576 -1.9117744 4288085770
6.0063744 -5.1911001 -1.8969784 4288085770
9.0287857 -6.9741211 -1.908008 4288085770
5.7643013 -5.081418 -1.9011642 4288085770
8.5665779 -6.7367353 -1.905517 4288085770
5.5132408 -4.9627523 -1.9012777 4288085770
8.2063789 -6.5582037 -1.9148024 4288085770
5.287178 -4.8560505 -1.9045792 4288085770
7.8002052 -6.3447447 -1.9127295 4288085770
5.0721245 -4.7513361 -1.9069598 4288085770
7.3790741 -6.1193132 -1.9025394 4288085770
4.8051147 -4.6127024 -1.8959409 4288085770
6.998951 -5.9128275 -1.8946567 4288085770
4.6060753 -4.5119667 -1.8974383 4288085770
6.6908073 -5.7472324 -1.8983214 4288085770
4.4030495 -4.4062405 -1.8959025 4288085770
6.3836975 -5.5786343 -1.8969933 4288085770
4.1780663 -4.2845449 -1.8851993 4288085770
6.1215782 -5.4349794 -1.9010034 4288085770
3.9700737 -4.1698322 -1.8766193 4288085770
5.8434868 -5.2773523 -1.898887 4288085770
3.8010521 -4.0780592 -1.8773366 4288085770
5.604393 -5.1416683 -1.9010669 4288085770
3.6390419 -3.9882772 -1.8761051 4288085770
5.3782959 -5.0109653 -1.9043431 4288085770
3.4830399 -3.8984878 -1.8749157 4288085770
5.1842003 -4.8972187 -1.9108613 4288085770
3.3240471 -3.8067062 -1.8707036 4288085770
4.9591408 -4.7625217 -1.908141 4288085770
3.1730614 -3.7169135 -1.8665494 4288085770
4.710125 -4.6098661 -1.8962342 4288085770
3.0440521 -3.639087 -1.8675619 4288085770
4.5160828 -4.4901285 -1.893747 4288085770
2.9330368 -3.572233 -1.871712 4288085770
4.3150597 -4.3624048 -1.8872025 4288085770
2.8110542 -3.4953997 -1.8697747 4288085770
4.1300392 -4.2446575 -1.8827807 4288085770
2.7010498 -3.4255469 -1.8719288 4288085770
3.9510307 -4.1279039 -1.876402 4288085770
2.5800781 -3.3457162 -1.8669958 4288085770
3.7830238 -4.0171356 -1.8711069 4288085770
3.6360168 -3.9173362 -1.8679702 4288085770
3.5 -3.8235204 -1.8669168 4288085770
3.3719978 -3.7326958 -1.8649226 4288085770
3.2370186 -3.6378844 -1.8588756 4288085770
3.1300049 -3.5580285 -1.8600399 4288085770
3.0329971 -3.4841578 -1.8622807 4288085770
2.9320145 -3.406297 -1.8604894 4288085770
2.8440132 -3.3354161 -1.8617963 4288085770
2.7400475 -3.2535632 -1.8559802 4288085770
2.6590614 -3.1866739 -1.8563403 4288085770
2.5700989 -3.1118 -1.8526362 4288085770
2.5465202 -1.1551332 -1.8121727 4288085770
2.6175957 -1.137043 -1.8136421 4288085770
2.6856804 -1.1169593 -1.8130885 4288085770
2.7537727 -1.0968764 -1.8115349 4288085770
2.8348579 -1.0797746 -1.8120744 4288085770
2.908947 -1.0596833 -1.8105623 4288085770
2.9810524 -1.0395975 -1.8070359 4288085770
3.0681419 -1.0224886 -1.8066168 4288085770
3.1562271 -1.0033782 -1.8062022 4288085770
3.2513237 -0.98525953 -1.8048371 4288085770
3.3364372 -0.96615767 -1.8004016 4288085770
3.4375305 -0.94903088 -1.7990789 4288085770
3.5526009 -0.93288302 -1.8008538 4288085770
3.6726913 -0.91772914 -1.8016645 4288085770
2.5624619 -0.72119069 -1.7997626 4288085770
3.7887802 -0.89958382 -1.800444 4288085770
2.6505623 -0.70408154 -1.79835 4288085770
3.9088821 -0.8834331 -1.7982532 4288085770
2.771595 -0.69291782 -1.8071722 4288085770
4.0499611 -0.86825061 -1.8002086 4288085770
2.8357544 -0.67185092 -1.795589 4288085770
4.2110176 -0.85503864 -1.8053042 4288085770
2.939846 -0.65571976 -1.795288 4288085770
4.3740921 -0.8408277 -1.8074126 4288085770
3.0579147 -0.64156628 -1.7980857 4288085770
4.5501633 -0.82759643 -1.8116117 4288085770
3.1740074 -0.62641931 -1.7978684 4288085770
4.6902885 -0.808424 -1.805555 4288085770
3.2801247 -0.60928941 -1.7935796 4288085770
4.8773651 -0.7951808 -1.8078297 4288085770
3.4112015 -0.5941205 -1.7954657 4288085770
5.0345001 -0.77598715 -1.8008904 4288085770
3.5382957 -0.57795978 -1.794323 4288085770
5.2066269 -0.75877237 -1.7950567 4288085770
3.6843719 -0.56377077 -1.7963134 4288085770
5.388752 -0.7415452 -1.7892919 4288085770
3.8274689 -0.54858875 -1.7952819 4288085770
5.5848732 -0.724298 -1.7846235 4288085770
3.9705811 -0.53240943 -1.7922493 4288085770
5.808979 -0.70901132 -1.7821507 4288085770
4.1755943 -0.5221324 -1.8036513 4288085770
6.0630684 -0.69468188 -1.7828863 4288085770
4.3536797 -0.50690246 -1.8048611 4288085770
6.3271713 -0.68034124 -1.7816902 4288085770
4.5267792 -0.49068236 -1.8030351 4288085770
6.5773048 -0.66302514 -1.7753938 4288085770
4.6988983 -0.47446656 -1.7982019 4288085770
6.8574295 -0.64766812 -1.7703068 4288085770
4.8959999 -0.45821476 -1.7965412 4288085770
7.1475639 -0.63129902 -1.7642874 4288085770
5.098114 -0.44295716 -1.7939161 4288085770
7.4986572 -0.61784267 -1.7646922 4288085770
5.2922478 -0.4247148 -1.7872319 4288085770
7.8677635 -0.60336494 -1.7632198 4288085770
5.5173569 -0.40842819 -1.7837639 4288085770
8.2538834 -0.58886719 -1.7598642 4288085770
5.7584724 -0.3921206 -1.780406 4288085770
8.6770096 -0.57432175 -1.7557639 4288085770
6.0445557 -0.37774777 -1.7823607 4288085770
9.1581116 -0.56069493 -1.7560643 4288085770
6.2986946 -0.36042762 -1.7750911 4288085770
9.6592407 -0.54604769 -1.7515013 4288085770
6.5858269 -0.34306216 -1.7690487 4288085770
10.225361 -0.53231215 -1.7493876 4288085770
6.905941 -0.32565022 -1.7662339 4288085770
10.838482 -0.51751709 -1.7455965 4288085770
7.2420616 -0.3092196 -1.7615302 4288085770
11.54958 -0.50558829 -1.7464843 4288085770
7.6321564 -0.29271317 -1.7611988 4288085770
12.368679 -0.49351573 -1.7491167 4288085770
8.0402756 -0.27618623 -1.7579908 4288085770
13.320751 -0.48326468 -1.7556679 4288085770
8.4913788 -0.25860047 -1.7570783 4288085770
14.6087 -0.48054981 -1.7835453 4288085770
8.9695015 -0.24098349 -1.7523514 4288085770
15.542942 -0.45935321 -1.7619582 4288085770
9.532589 -0.22324777 -1.7542102 4288085770
16.894054 -0.44658327 -1.7642564 4288085770
10.118702 -0.20448709 -1.7512262 4288085770
10.771824 -0.18563795 -1.7487035 4288085770
11.523907 -0.1666553 -1.7498626 4288085770
12.380993 -0.14653301 -1.7527441 4288085770
13.390064 -0.12620807 -1.7586725 4288085770
14.707989 -0.10745573 -1.7847323 4288085770
15.766216 -0.08009243 -1.7669886 4288085770
17.237293 -0.053164482 -1.7700918 4288085770
17.036617 0.13669395 -1.7492779 4288085770
15.621655 0.13487864 -1.75688 4288085770
14.396687 0.13430691 -1.7637428 4288085770
13.157848 0.13569283 -1.7495117 4288085770
12.053013 0.13925219 -1.7361684 4288085770
11.20808 0.14216399 -1.7385519 4288085770
10.430172 0.14615774 -1.7373796 4288085770
17.275349 0.16595674 -1.7397789 4288085770
9.7892265 0.15133476 -1.7421151 4288085770
15.795399 0.17405081 -1.7409414 4288085770
9.1643143 0.15652609 -1.7419577 4288085770
14.679333 0.1836338 -1.7605183 4288085770
8.6253624 0.16283488 -1.7473698 4288085770
13.317547 0.19085288 -1.7384673 4288085770
8.1134415 0.16917253 -1.7479618 4288085770
12.274647 0.20050049 -1.7325307 4288085770
7.6575165 0.17558384 -1.7499253 4288085770
11.416721 0.20939469 -1.7338231 4288085770
7.2335968 0.18103528 -1.7511026 4288085770
10.634785 0.21838546 -1.7346199 4288085770
6.8426628 0.18853068 -1.7534966 4288085770
9.952858 0.22850585 -1.7360795 4288085770
6.4867325 0.19607282 -1.7571232 4288085770
9.3269348 0.23769593 -1.735912 4288085770
6.1797714 0.2046814 -1.7640737 4288085770
8.7819862 0.24799609 -1.7402811 4288085770
5.8938103 0.21331739 -1.7711637 4288085770
8.2630615 0.2573247 -1.7408241 4288085770
5.5619431 0.2208786 -1.7649503 4288085770
7.7861481 0.26770639 -1.7406449 4288085770
5.3040009 0.22954726 -1.7692264 4288085770
7.3792038 0.2781837 -1.7449299 4288085770
5.0470886 0.23821259 -1.7695096 4288085770
6.9762802 0.28866124 -1.745242 4288085770
4.8351173 0.24794531 -1.7780896 4288085770
6.6243477 0.29920721 -1.7478923 4288085770
4.6221771 0.25667214 -1.7826647 4288085770
6.3083954 0.30980301 -1.7537816 4288085770
4.443203 0.26644874 -1.7924639 4288085770
6.0434113 0.32046962 -1.7640088 4288085770
4.23629 0.2761786 -1.7930778 4288085770
5.72752 0.33105397 -1.7598987 4288085770
4.0453682 0.28592896 -1.7937981 4288085770
5.4515991 0.34169579 -1.7610536 4288085770
3.8334999 0.29564476 -1.7873793 4288085770
5.1946831 0.35236263 -1.7623348 4288085770
3.6695709 0.3054328 -1.7902784 4288085770
4.9617462 0.36406112 -1.764774 4288085770
3.4936714 0.31519914 -1.7880985 4288085770
4.7687721 0.37581825 -1.7734785 4288085770
3.3287773 0.32498026 -1.7859915 4288085770
4.6007767 0.38861251 -1.7863472 4288085770
3.2128029 0.33583736 -1.7952079 4288085770
4.3898811 0.39933395 -1.783934 4288085770
3.0619087 0.34563589 -1.7931942 4288085770
4.1979561 0.41008329 -1.7846466 4288085770
2.9210014 0.35544872 -1.7922465 4288085770
4.011055 0.42183685 -1.7833915 4288085770
2.7920952 0.36627865 -1.7923771 4288085770
3.8281479 0.43259549 -1.7821641 4288085770
2.6562042 0.37609458 -1.7884628 4288085770
3.6542587 0.44436359 -1.7789954 4288085770
2.5602455 0.38797498 -1.7958111 4288085770
3.4963531 0.45515466 -1.777934 4288085770
3.3484306 0.46696091 -1.7789375 4288085770
3.2304764 0.47981191 -1.7851386 4288085770
3.105545 0.4916501 -1.7882948 4288085770
2.959671 0.5024507 -1.7823132 4288085770
2.8317719 0.51427984 -1.7804497 4288085770
2.7228432 0.52713728 -1.7827109 4288085770
2.6179161 0.53900003 -1.785 4288085770
2.5279655 0.55288601 -1.7903857 4288085770
2.5567551 2.8233924 -1.7456304 4288085770
2.7077141 2.8855944 -1.7565475 4288085770
2.8457298 2.9407709 -1.7603873 4288085770
3.0007095 3.0019746 -1.7683315 4288085770
3.1626892 3.0641861 -1.7753206 4288085770
3.3426437 3.1334243 -1.7854195 4288085770
3.5425568 3.2096934 -1.7996413 4288085770
3.6946144 3.2618811 -1.7975763 4288085770
3.8995552 3.3361526 -1.8088331 4288085770
2.6207008 2.766438 -1.7500935 4288085770
4.0915451 3.4024005 -1.814014 4288085770
2.7716942 2.8166363 -1.7580243 4288085770
4.240654 3.4465771 -1.8059385 4288085770
2.927681 2.8668425 -1.7669879 4288085770
4.3987541 3.4927654 -1.7979199 4288085770
3.0757027 2.9110322 -1.7709063 4288085770
4.5967789 3.5540152 -1.7981459 4288085770
3.2606544 2.9702795 -1.7830496 4288085770
4.795826 3.6142635 -1.7963796 4288085770
3.4416199 3.02652 -1.7941699 4288085770
5.0208244 3.6835513 -1.7997731 4288085770
3.668499 3.100831 -1.8145708 4288085770
5.2817764 3.7658904 -1.8073875 4288085770
3.8175812 3.1360149 -1.8125061 4288085770
5.5217934 3.8351951 -1.8088793 4288085770
3.9676704 3.1701977 -1.8084489 4288085770
5.6959572 3.8723948 -1.7929759 4288085770
4.1397209 3.2124138 -1.8085265 4288085770
5.865139 3.9055853 -1.7750442 4288085770
4.2688866 3.2325599 -1.796348 4288085770
6.0533066 3.9438024 -1.7592313 4288085770
4.437973 3.2677681 -1.7934144 4288085770
6.2774124 3.9940734 -1.7496403 4288085770
4.6190414 3.3059933 -1.7915558 4288085770
6.527504 4.0533791 -1.7412091 4288085770
4.8101044 3.3462324 -1.7907603 4288085770
6.795578 4.1157103 -1.7348927 4288085770
5.0111694 3.3874848 -1.7900289 4288085770
7.0826416 4.1820679 -1.7296959 4288085770
5.2601509 3.4458096 -1.7985926 4288085770
7.3946762 4.2544594 -1.726656 4288085770
5.4722099 3.4860759 -1.7979345 4288085770
7.7506714 4.3409128 -1.7278881 4288085770
5.6393776 3.5052698 -1.7850063 4288085770
8.1486282 4.439424 -1.7323813 4288085770
5.8195343 3.5264826 -1.774161 4288085770
8.5456161 4.5319295 -1.733875 4288085770
5.9897041 3.5416806 -1.7612569 4288085770
8.9436226 4.6194334 -1.7323813 4288085770
6.1878471 3.564918 -1.7515271 4288085770
9.3376617 4.6999283 -1.7278692 4288085770
6.3869972 3.5861566 -1.7418061 4288085770
9.7716827 4.7904768 -1.7246076 4288085770
6.6101227 3.6134288 -1.7342354 4288085770
10.296604 4.9081521 -1.7309108 4288085770
6.8462296 3.6417198 -1.7287486 4288085770
10.820568 5.0178223 -1.7332169 4288085770
7.1183128 3.6790609 -1.7264874 4288085770
11.388515 5.136549 -1.7358006 4288085770
7.3714256 3.7063732 -1.7201133 4288085770
11.966496 5.2492847 -1.7354571 4288085770
7.6844711 3.7497721 -1.7221135 4288085770
12.636387 5.3871479 -1.742687 4288085770
8.0115051 3.7951903 -1.725203 4288085770
13.383244 5.5411139 -1.7534028 4288085770
8.3505516 3.8386226 -1.7273737 4288085770
14.124165 5.6830635 -1.7570933 4288085770
8.6536598 3.8660007 -1.7223272 4288085770
14.827145 5.803957 -1.754559 4288085770
8.9927368 3.9014292 -1.721507 4288085770
15.659054 5.9540234 -1.7578366 4288085770
9.3188438 3.9278364 -1.7166122 4288085770
16.547939 6.113163 -1.7614769 4288085770
9.7069016 3.9673309 -1.7181088 4288085770
10.097965 4.0018282 -1.7186306 4288085770
10.511021 4.0383549 -1.7202941 4288085770
10.939091 4.0738997 -1.7210572 4288085770
11.377148 4.1064587 -1.7228892 4288085770
11.826229 4.1350293 -1.722798 4288085770
12.290295 4.1626205 -1.7238063 4288085770
12.755405 4.18221 -1.7218305 4288085770
13.267475 4.2088642 -1.7241541 4288085770
13.888462 4.2546682 -1.73517 4288085770
14.442547 4.2743759 -1.7367774 4288085770
14.940678 4.2760048 -1.7330388 4288085770
15.503796 4.283721 -1.7327188 4288085770
15.990002 4.2663412 -1.7239261 4288085770
16.613102 4.2731395 -1.726002 4288085770
17.282169 4.2790003 -1.7313802 4288085770
17.047276 -4.3793879 -1.841033 4288085770
16.260403 -4.3254251 -1.8238102 4288085770
15.754452 -4.3320684 -1.8325021 4288085770
15.216503 -4.3237591 -1.8369663 4288085770
14.720554 -4.3163948 -1.8427069 4288085770
14.140621 -4.2801485 -1.8388623 4288085770
13.508709 -4.221981 -1.8266506 4288085770
12.99078 -4.186655 -1.8242136 4288085770
12.508831 -4.1552782 -1.8250172 4288085770
12.037876 -4.1198883 -1.8248881 4288085770
11.571934 -4.078495 -1.8227847 4288085770
11.143978 -4.0430498 -1.8229376 4288085770
10.710033 -3.999615 -1.8210412 4288085770
10.32407 -3.965111 -1.8244705 4288085770
9.9371071 -3.9256136 -1.8248872 4288085770
16.977764 -6.2504377 -1.9128255 4288085770
9.5911293 -3.8920572 -1.8295795 4288085770
16.22662 -6.1263952 -1.9237541 4288085770
9.2441635 -3.8555043 -1.8322619 4288085770
15.378529 -5.956501 -1.9169918 4288085770
8.8912125 -3.8119628 -1.8318964 4288085770
14.627422 -5.811471 -1.9168954 4288085770
8.5712357 -3.7743742 -1.8357544 4288085770
13.815372 -5.6345348 -1.9053606 4288085770
8.2692566 -3.7377627 -1.8397317 4288085770
12.936344 -5.4217043 -1.8783436 4288085770
7.9612999 -3.6961625 -1.8406636 4288085770
12.18832 -5.2446938 -1.8612282 4288085770
7.6683197 -3.6535404 -1.8436923 4288085770
11.490299 -5.0766163 -1.8444514 4288085770
7.3823586 -3.6119111 -1.8447684 4288085770
10.933254 -4.9533424 -1.8416526 4288085770
7.1193848 -3.5742495 -1.849 4288085770
10.479183 -4.8599224 -1.8485649 4288085770
6.8424187 -3.5276096 -1.849129 4288085770
10.029125 -4.7635021 -1.8524997 4288085770
6.5474854 -3.468003 -1.8421243 4288085770
9.5800819 -4.6610832 -1.8534337 4288085770
6.2615547 -3.410383 -1.836181 4288085770
9.1540451 -4.5596361 -1.8535198 4288085770
6.010601 -3.3617132 -1.8344779 4288085770
8.7660179 -4.4691381 -1.8548681 4288085770
5.7846298 -3.3200052 -1.836947 4288085770
8.3789825 -4.3746405 -1.8562182 4288085770
5.5716553 -3.2812793 -1.8405048 4288085770
8.0159569 -4.2851114 -1.8567314 4288085770
5.358696 -3.2375572 -1.8410566 4288085770
7.6799393 -4.2005463 -1.8584276 4288085770
5.1487312 -3.1938307 -1.8426282 4288085770
7.3559074 -4.1179638 -1.8612049 4288085770
4.9537659 -3.153084 -1.8443015 4288085770
7.0418968 -4.0353718 -1.8620476 4288085770
4.7408257 -3.1023667 -1.8408449 4288085770
6.713913 -3.9428055 -1.8567865 4288085770
4.5568619 -3.0606062 -1.8425891 4288085770
6.3869324 -3.8442419 -1.8485247 4288085770
4.3619194 -3.0118663 -1.8392527 4288085770
6.09795 -3.7606237 -1.8445302 4288085770
4.2009506 -2.9750731 -1.8431536 4288085770
5.8289642 -3.6809781 -1.8416713 4288085770
4.0120125 -2.9233282 -1.8378532 4288085770
5.6009521 -3.6172707 -1.8461004 4288085770
3.8380737 -2.876559 -1.8356566 4288085770
5.3729515 -3.5505664 -1.848526 4288085770
3.6881027 -2.8377531 -1.8386272 4288085770
5.158947 -3.4868414 -1.8520467 4288085770
3.5501328 -2.8039305 -1.8426822 4288085770
4.9269791 -3.4121511 -1.8474364 4288085770
3.391201 -2.7561438 -1.8395829 4288085770
4.7189903 -3.3454225 -1.8479928 4288085770
3.2482452 -2.7153327 -1.8395969 4288085770
4.5140114 -3.2786934 -1.8465688 4288085770
3.1003036 -2.6695302 -1.8375721 4288085770
4.3180428 -3.2119534 -1.8442037 4288085770
2.9663582 -2.6287091 -1.8366449 4288085770
4.1450577 -3.1551774 -1.8470017 4288085770
2.8443985 -2.5918677 -1.838801 4288085770
3.9471092 -3.0824463 -1.8396164 4288085770
2.7204552 -2.5520327 -1.8379405 4288085770
3.7731438 -3.0206778 -1.8374016 4288085770
2.5985107 -2.5111959 -1.8370918 4288085770
3.6151733 -2.9638865 -1.8372976 4288085770
3.4612083 -2.9070909 -1.8362197 4288085770
3.3302231 -2.8592589 -1.8403034 4288085770
3.1782722 -2.8004644 -1.8362361 4288085770
3.0513077 -2.751631 -1.8373451 4288085770
2.9083595 -2.6928256 -1.8333367 4288085770
2.7973824 -2.647969 -1.836555 4288085770
2.6964035 -2.6080968 -1.8418448 4288085770
2.5684624 -2.5522726 -1.8369384 4288085770
2.5917969 -0.24771881 -1.7880441 4288085770
2.6958961 -0.23458982 -1.7867023 4288085770
2.7970085 -0.22146773 -1.7833409 4288085770
2.9140968 -0.20931935 -1.7840848 4288085770
3.0212173 -0.19619036 -1.7797621 4288085770
3.1503029 -0.18402648 -1.7805839 4288085770
3.2893906 -0.17284942 -1.7814716 4288085770
3.4464531 -0.16164374 -1.786476 4288085770
3.5665894 -0.14750171 -1.7792363 4288085770
2.6084366 -0.076729774 -1.792918 4288085770
3.7346611 -0.13628435 -1.7823124 4288085770
2.7225456 -0.06558919 -1.7906435 4288085770
3.9067459 -0.12506294 -1.7844141 4288085770
2.8306656 -0.054459095 -1.7863297 4288085770
4.097805 -0.11381269 -1.7896391 4288085770
2.9537773 -0.043306828 -1.7841135 4288085770
4.3088608 -0.10353494 -1.7959952 4288085770
3.0888748 -0.03213644 -1.783975 4288085770
4.485981 -0.091314554 -1.7921278 4288085770
3.2319717 -0.021955013 -1.7838897 4288085770
4.6641235 -0.078098297 -1.7842658 4288085770
3.3850441 -0.0107584 -1.7858679 4288085770
4.8632431 -0.065850496 -1.7795411 4288085770
3.5441399 -0.00055670738 -1.7858863 4288085770
5.0763626 -0.053583145 -1.7759074 4288085770
3.7222099 0.0096755028 -1.7900277 4288085770
5.3394356 -0.042241573 -1.7795993 4288085770
3.9132843 0.019922972 -1.7932539 4288085770
5.5595856 -0.0299716 -1.7710108 4288085770
4.1303291 0.029210806 -1.8016497 4288085770
5.8386841 -0.018614292 -1.7708064 4288085770
4.3264236 0.039461136 -1.8019079 4288085770
6.1607513 -0.0071952343 -1.7748809 4288085770
4.5005722 0.050671101 -1.793022 4288085770
6.4259262 0.0051293373 -1.7635841 4288085770
4.6937103 0.060909748 -1.7872607 4288085770
6.7510452 0.016541719 -1.7596779 4288085770
4.9098396 0.07117939 -1.7826484 4288085770
7.1141624 0.028004885 -1.7570183 4288085770
5.1229897 0.081440449 -1.7740167 4288085770
7.5002823 0.039497137 -1.7535076 4288085770
5.3840828 0.09077549 -1.7746978 4288085770
7.9164047 0.051028013 -1.7501918 4288085770
5.6442108 0.10110283 -1.7703708 4288085770
8.3785172 0.06262064 -1.7481742 4288085770
5.9632912 0.11051655 -1.7734278 4288085770
8.8806343 0.074264526 -1.7454158 4288085770
6.2654114 0.11990023 -1.7703745 4288085770
9.4717331 0.085029364 -1.7472361 4288085770
6.5585747 0.12926292 -1.7602626 4288085770
10.075855 0.096803665 -1.7431393 4288085770
6.9306755 0.13774204 -1.7606646 4288085770
10.744984 0.10766411 -1.7404654 4288085770
7.3107986 0.14622617 -1.7571182 4288085770
11.515087 0.11965919 -1.7404454 4288085770
7.7249222 0.15475464 -1.7537924 4288085770
12.407185 0.13081479 -1.7422177 4288085770
8.1910324 0.16335392 -1.7528036 4288085770
13.520222 0.14227128 -1.7544236 4288085770
8.6951523 0.17200136 -1.7510612 4288085770
14.815235 0.15396929 -1.7708099 4288085770
9.2382736 0.17969847 -1.7485731 4288085770
15.90649 0.16635275 -1.7488711 4288085770
9.8843689 0.18653536 -1.750754 4288085770
10.525532 0.19335413 -1.7439024 4288085770
11.314632 0.20037699 -1.7460105 4288085770
12.161747 0.20746994 -1.7444947 4288085770
13.259785 0.21290803 -1.7576089 4288085770
14.51582 0.21955276 -1.7717464 4288085770
15.677021 0.22304034 -1.7602714 4288085770
17.079197 0.22684693 -1.7533588 4288085770
17.15826 0.40872455 -1.7320355 4288085770
15.777271 0.42993283 -1.7372684 4288085770
14.655247 0.45248866 -1.7501366 4288085770
13.449375 0.46889853 -1.7384853 4288085770
12.470455 0.48561573 -1.7352681 4288085770
11.602543 0.5024786 -1.7327529 4288085770
10.825626 0.51846075 -1.7308145 4288085770
10.17667 0.53461862 -1.7346851 4288085770
16.691608 0.7690773 -1.7254651 4288085770
9.5817223 0.55084372 -1.7368968 4288085770
15.37466 0.77836239 -1.7271253 4288085770
9.0208054 0.56610727 -1.7353252 4288085770
14.225735 0.78786314 -1.7268471 4288085770
8.5208778 0.58045363 -1.7361408 4288085770
13.20982 0.79653525 -1.7254112 4288085770
8.0849266 0.59588861 -1.7403592 4288085770
12.287907 0.80532563 -1.7215693 4288085770
7.659008 0.61032867 -1.7396426 4288085770
11.473011 0.81525624 -1.7184023 4288085770
7.267086 0.62481523 -1.7401409 4288085770
10.788067 0.82636487 -1.7210544 4288085770
6.9371223 0.6403904 -1.7460293 4288085770
10.138142 0.83651471 -1.7209297 4288085770
6.6051979 0.65495586 -1.746907 4288085770
9.5902023 0.84880292 -1.7244461 4288085770
6.3382225 0.67161655 -1.7551917 4288085770
9.0662727 0.86111772 -1.7251143 4288085770
6.0702705 0.6872716 -1.7604721 4288085770
8.5983429 0.87250757 -1.7271378 4288085770
5.8312988 0.70296752 -1.7679354 4288085770
8.1694183 0.88494539 -1.7274064 4288085770
5.5514183 0.71559167 -1.7631452 4288085770
7.7874718 0.89845097 -1.73197 4288085770
5.2975197 0.72825098 -1.7595193 4288085770
7.4085655 0.9089514 -1.7305578 4288085770
5.069603 0.7419492 -1.7590561 4288085770
7.0866089 0.92353559 -1.7354989 4288085770
4.9006157 0.75874186 -1.7699603 4288085770
6.7696877 0.93612003 -1.7364752 4288085770
4.7196655 0.77450907 -1.7747905 4288085770
6.4887466 0.95075512 -1.7396755 4288085770
4.5397377 0.78927338 -1.7766289 4288085770
6.2607613 0.96747017 -1.7502071 4288085770
4.3917656 0.80608869 -1.7846658 4288085770
6.0198135 0.9821589 -1.75466 4288085770
4.2398148 0.8228941 -1.7896779 4288085770
5.8088455 0.99889159 -1.7622992 4288085770
4.079895 0.83768272 -1.7906426 4288085770
5.5299911 1.007509 -1.7525226 4288085770
3.9010162 0.84843564 -1.7844943 4288085770
5.3250618 1.0222417 -1.7552032 4288085770
3.753109 0.8632369 -1.7835351 4288085770
5.1051636 1.0339457 -1.7517942 4288085770
3.6131897 0.87705064 -1.7836279 4288085770
4.9132538 1.0466911 -1.7515601 4288085770
3.4772873 0.88986647 -1.7817478 4288085770
4.7483025 1.0624795 -1.7564918 4288085770
3.3433914 0.90368271 -1.7788788 4288085770
4.6093369 1.0813048 -1.7635828 4288085770
3.2174873 0.91751122 -1.7770602 4288085770
4.4574013 1.0961075 -1.766598 4288085770
3.1175385 0.93438518 -1.7824008 4288085770
4.3094635 1.1119132 -1.7686373 4288085770
3.0195961 0.95025814 -1.7857556 4288085770
4.1924934 1.1307691 -1.776867 4288085770
2.9007111 0.96309125 -1.7809832 4288085770
4.0825272 1.149633 -1.7841412 4288085770
2.7978096 0.97695005 -1.7793099 4288085770
3.9605789 1.166476 -1.7883428 4288085770
2.6839294 0.98978806 -1.7735692 4288085770
3.7837601 1.1742191 -1.7742126 4288085770
2.6099739 1.0066963 -1.7790741 4288085770
3.6738167 1.1910768 -1.77749 4288085770
2.5100937 1.0195541 -1.7744215 4288085770
3.5409355 1.2028917 -1.7726308 4288085770
3.4220352 1.2177279 -1.769855 4288085770
3.3261032 1.2346022 -1.772221 4288085770
3.2291832 1.2504716 -1.7725824 4288085770
3.1172981 1.2643141 -1.7678525 4288085770
3.0303764 1.2801968 -1.7682769 4288085770
2.9284897 1.2940524 -1.7636104 4288085770
2.8435745 1.3109361 -1.7630459 4288085770
2.7626648 1.3268254 -1.7625084 4288085770
2.6917305 1.3457308 -1.7640291 4288085770
2.6128311 1.3606192 -1.761506 4288085770
2.5508919 1.3805381 -1.7640817 4288085770
2.5654984 3.3752766 -1.7648039 4288085770
2.6565018 3.4453938 -1.767258 4288085770
2.7873955 3.540581 -1.7809225 4288085770
2.925293 3.6377776 -1.7946277 4288085770
3.0063591 3.6998675 -1.7880316 4288085770
3.1323166 3.7880354 -1.7936755 4288085770
3.2792282 3.8882391 -1.8044314 4288085770
3.4231682 3.9854319 -1.8111731 4288085770
3.5651245 4.0806193 -1.8159055 4288085770
3.6701851 4.1497383 -1.8074478 4288085770
3.8490829 4.2649817 -1.817379 4282675967
2.53339 3.51719 -1.7693266 4288085770
4.0000648 4.3611727 -1.8171653 4288085770
2.6962433 3.6194272 -1.7881789 4288085770
4.1450806 4.4503517 -1.813925 4288085770
2.8292122 3.7006042 -1.7938771 4288085770
4.2930984 4.5405302 -1.8087018 4288085770
2.9562073 3.7757688 -1.7965472 4288085770
4.4411354 4.6287069 -1.8014812 4288085770
3.0792313 3.8469219 -1.7951987 4288085770
4.628109 4.7389431 -1.8004694 4288085770
3.2481422 3.945154 -1.8060941 4288085770
4.8031197 4.840158 -1.7953966 4288085770
3.3991127 4.0303516 -1.8098975 4288085770
4.9881325 4.9443836 -1.7893811 4288085770
3.5540962 4.1165524 -1.8127242 4288085770
5.1771431 5.0486155 -1.7833904 4288085770
3.7080879 4.1987491 -1.8135508 4288085770
5.3761559 5.1578565 -1.775454 4288085770
3.8910294 4.2979918 -1.8195312 4282675967
5.5781822 5.2641001 -1.7665408 4288085770
4.0600357 4.3852053 -1.8184432 4288085770
5.8111687 5.3873887 -1.7607938 4288085770
4.218071 4.4623976 -1.813302 4288085770
6.0431786 5.5076714 -1.7520452 4288085770
4.3821106 4.5415974 -1.8081951 4288085770
6.3061409 5.6439996 -1.7464641 4288085770
4.5621262 4.6288218 -1.8051751 4288085770
6.6759224 5.8404942 -1.7584548 4288085770
4.7481461 4.7160511 -1.8001922 4288085770
6.9788589 5.9928761 -1.7540972 4288085770
4.9431572 4.8052945 -1.7972621 4288085770
7.3028069 6.1532826 -1.7478575 4288085770
5.1401978 4.8935351 -1.7903459 4288085770
7.7046242 6.3558073 -1.7520369 4288085770
5.3402405 4.9797773 -1.7824513 4288085770
8.1374207 6.5733728 -1.7573855 4288085770
5.5393066 5.0620146 -1.7725565 4288085770
8.56427 6.7799215 -1.7567135 4288085770
5.751358 5.1492715 -1.7637346 4288085770
8.9951401 6.9834719 -1.7530708 4288085770
5.9744034 5.239542 -1.7549764 4288085770
9.479969 7.2130928 -1.7507229 4288085770
6.2004662 5.328814 -1.7442379 4288085770
10.051701 7.4868412 -1.7568467 4288085770
6.4884224 5.449183 -1.7438366 4288085770
10.527615 7.6964331 -1.7434733 4288085770
6.8273048 5.5946279 -1.7497129 4288085770
11.071461 7.9391222 -1.7354704 4288085770
7.2011604 5.7551212 -1.7577831 4288085770
7.4822044 5.8574648 -1.7473657 4288085770
7.840126 5.9989262 -1.7483655 4288085770
8.2509918 6.1634636 -1.7536585 4288085770
8.6618843 6.3229947 -1.7549593 4288085770
9.108757 6.4945765 -1.7584646 4288085770
9.5866013 6.6762009 -1.7641464 4288085770
10.096424 6.8678665 -1.7690113 4288085770
10.509449 7.0013771 -1.756364 4288085770
11.022343 7.1800375 -1.7552673 4288085770
11.552235 7.3607159 -1.7522722 4288085770
12.077183 7.5283813 -1.7452667 4288085770
12.775928 7.7742968 -1.7532194 4288085770
13.409801 7.9781113 -1.7508337 4288085770
16.913364 -1.7787998 -1.7724606 4288085770
16.1945 -1.8227336 -1.7740724 4288085770
15.573605 -1.8695309 -1.7812963 4288085770
15.101658 -1.9231164 -1.8004541 4288085770
14.467777 -1.9539411 -1.8015727 4288085770
13.710972 -1.9599521 -1.7858903 4288085770
13.077129 -1.9727905 -1.7789806 4288085770
12.509258 -1.9855368 -1.77548 4288085770
11.933399 -1.9912994 -1.768919 4288085770
11.473492 -2.0068929 -1.7730923 4288085770
10.9986 -2.0145128 -1.7731601 4288085770
10.578686 -2.0250566 -1.7765734 4288085770
17.352329 -3.190275 -1.7873855 4288085770
10.141788 -2.0276287 -1.775869 4288085770
16.404339 -3.1405056 -1.7884308 4288085770
9.7708702 -2.0351064 -1.7805812 4288085770
15.530369 -3.0926421 -1.788938 4288085770
9.3899574 -2.0376022 -1.7822241 4288085770
14.816349 -3.0615542 -1.7994633 4288085770
9.0540314 -2.0430324 -1.78815 4288085770
14.017384 -3.0075986 -1.7964261 4288085770
8.6981163 -2.0394971 -1.7889379 4288085770
13.264439 -2.9525869 -1.7916722 4288085770
8.3821945 -2.0399044 -1.7929801 4288085770
12.576488 -2.9014881 -1.7883275 4288085770
8.047287 -2.033345 -1.7918938 4288085770
11.958515 -2.855293 -1.7884241 4288085770
7.7553482 -2.0317199 -1.7970816 4288085770
11.355564 -2.8070834 -1.785611 4288085770
7.4704323 -2.0260904 -1.7993063 4288085770
10.810596 -2.7627952 -1.7851632 4288085770
7.1815071 -2.0174668 -1.8005018 4288085770
10.322636 -2.7244284 -1.787078 4288085770
6.9155846 -2.0098126 -1.8028413 4288085770
9.8386726 -2.68206 -1.7870116 4288085770
6.6576614 -2.001148 -1.8052287 4288085770
9.4137001 -2.6476076 -1.7913232 4288085770
6.4317055 -1.996433 -1.8128206 4288085770
8.9977379 -2.6101491 -1.7926859 4288085770
6.1538239 -1.9768088 -1.806067 4288085770
8.611763 -2.5746481 -1.7962375 4288085770
5.8999252 -1.959141 -1.803467 4288085770
8.2568016 -2.5430996 -1.8009896 4288085770
5.6739998 -1.9464357 -1.8050469 4288085770
7.8958473 -2.5055707 -1.8016936 4288085770
5.4390907 -1.9277494 -1.8025616 4288085770
7.5758743 -2.4739821 -1.806661 4288085770
5.2651367 -1.9229667 -1.8104761 4288085770
7.2599106 -2.4403908 -1.8096498 4288085770
5.0771942 -1.9122069 -1.8152944 4288085770
6.9499626 -2.4047973 -1.8096731 4288085770
4.9442024 -1.9133589 -1.8304724 4288085770
6.6680031 -2.3721621 -1.8128741 4288085770
4.7732544 -1.9025753 -1.836396 4288085770
6.4010391 -2.3415072 -1.8161713 4288085770
4.5853348 -1.884824 -1.8362032 4288085770
6.1041183 -2.2979066 -1.8102622 4288085770
4.406414 -1.8670609 -1.8360661 4288085770
5.8481712 -2.263242 -1.8106211 4288085770
4.2344971 -1.8492882 -1.8359724 4288085770
5.5912399 -2.2255838 -1.8079692 4288085770
4.0895386 -1.8374693 -1.8430556 4288085770
5.3702812 -2.1948707 -1.8105513 4288085770
3.9276161 -1.8196838 -1.8430238 4288085770
5.1643219 -2.168134 -1.8152326 4288085770
3.7846718 -1.804867 -1.8471144 4288085770
4.979351 -2.1443675 -1.8220487 4288085770
3.6417389 -1.7880533 -1.8492018 4288085770
4.8093758 -2.1225789 -1.8299607 4288085770
3.4898262 -1.7662585 -1.8472258 4288085770
4.6244125 -2.093817 -1.8337687 4288085770
3.3529015 -1.7484386 -1.8483487 4288085770
4.4155006 -2.0561011 -1.8284141 4288085770
3.2119827 -1.7276275 -1.8474424 4288085770
4.2385521 -2.0263326 -1.8302703 4288085770
3.0850563 -1.7097948 -1.8486274 4288085770
4.0845909 -2.001528 -1.8352766 4288085770
2.9531326 -1.6879714 -1.847775 4288085770
3.9176445 -1.9717472 -1.8361946 4288085770
2.8222237 -1.6661508 -1.844929 4288085770
3.7567101 -1.9409602 -1.8361483 4288085770
2.7072906 -1.6473005 -1.8471866 4288085770
3.6147537 -1.9151423 -1.8402274 4288085770
2.5714073 -1.6204937 -1.8393013 4288085770
3.4688225 -1.8863361 -1.8402767 4288085770
3.3298683 -1.8585169 -1.8423713 4288085770
3.1799545 -1.8257225 -1.8383899 4288085770
3.0560036 -1.7998831 -1.8415805 4288085770
2.9210854 -1.7680666 -1.8386934 4288085770
2.7861748 -1.7362545 -1.8338064 4288085770
2.6742287 -1.7103999 -1.8360711 4288085770
2.5303421 -1.6716077 -1.8261173 4288085770
2.5999222 0.34584332 -1.7908021 4288085770
2.69207 0.35694194 -1.7823418 4288085770
2.8301315 0.37012219 -1.7871583 4288085770
2.9522324 0.38127184 -1.7858804 4288085770
3.0943146 0.39445186 -1.787721 4288085770
3.1944809 0.40455389 -1.7753108 4288085770
3.3405762 0.41673589 -1.7751772 4288085770
3.5106392 0.4289577 -1.7801898 4288085770
2.6455727 0.41887784 -1.7989297 4288085770
3.6677513 0.441149 -1.777123 4288085770
2.7177773 0.42593479 -1.781354 4288085770
3.8538132 0.45339131 -1.7822326 4288085770
2.8628349 0.43612599 -1.7872177 4288085770
4.0398941 0.46562862 -1.7843423 4288085770
2.9949417 0.44528794 -1.7860038 4288085770
4.2299843 0.47786736 -1.7844759 4288085770
3.1549988 0.45549846 -1.7919586 4288085770
4.4201012 0.48910117 -1.7816113 4288085770
3.2791481 0.46263838 -1.7836994 4288085770
4.610218 0.50033116 -1.7767465 4288085770
3.4292564 0.470824 -1.7825965 4288085770
4.7903786 0.51053953 -1.7668223 4288085770
3.6242943 0.48108506 -1.7917639 4288085770
5.0055122 0.52080059 -1.7611111 4288085770
3.7694397 0.48825145 -1.7836322 4288085770
5.2616005 0.53312445 -1.761646 4288085770
3.9774933 0.49752569 -1.7908802 4288085770
5.4997368 0.54341316 -1.7550745 4288085770
4.1825752 0.50678921 -1.7941098 4288085770
5.831768 0.55785108 -1.7650681 4288085770
4.362709 0.51300478 -1.7881924 4288085770
6.09692 0.56817102 -1.7566606 4288085770
4.5588417 0.51924276 -1.7833722 4288085770
6.398056 0.57854104 -1.7504719 4288085770
4.7320213 0.52443671 -1.7704138 4288085770
6.7251778 0.5889461 -1.7454413 4288085770
4.9421577 0.52969074 -1.7646801 4288085770
7.0683174 0.59937072 -1.7395077 4288085770
5.1792831 0.53598332 -1.761109 4288085770
7.4554329 0.61085677 -1.7368399 4288085770
5.4184227 0.54027486 -1.7555532 4288085770
7.8885384 0.62240386 -1.7354516 4288085770
5.7404709 0.54869604 -1.7634952 4288085770
8.3486519 0.63398457 -1.7332275 4288085770
6.0225983 0.55304694 -1.7602007 4288085770
8.8407745 0.6456027 -1.7291976 4288085770
6.3227348 0.55741715 -1.7550156 4288085770
9.4168739 0.65733659 -1.7296784 4288085770
6.6288872 0.55979156 -1.7478701 4288085770
10.00301 0.66907263 -1.7242197 4288085770
6.9880066 0.56324315 -1.7460451 4288085770
10.655148 0.6798923 -1.7181637 4288085770
7.3671341 0.56671691 -1.7423413 4288085770
11.415264 0.69185996 -1.7177624 4288085770
7.7842522 0.56924367 -1.7408702 4288085770
12.293339 0.70598531 -1.7210746 4288085770
8.2193985 0.56978822 -1.7365118 4288085770
13.304417 0.72028446 -1.7261952 4288085770
8.7325058 0.57144213 -1.7376254 4288085770
14.46748 0.73578131 -1.7332377 4288085770
9.260643 0.57110643 -1.7338336 4288085770
15.658642 0.74728978 -1.7264565 4288085770
9.8617706 0.56986856 -1.7324868 4288085770
17.090778 0.76111269 -1.7231365 4288085770
10.504917 0.56667995 -1.7283987 4288085770
11.252026 0.56363583 -1.730942 4288085770
12.074154 0.55968332 -1.7309427 4288085770
13.029255 0.55290961 -1.7357565 4288085770
14.148342 0.54535079 -1.7435683 4288085770
15.304501 0.53182244 -1.7416143 4288085770
16.570698 0.51442528 -1.7343353 4288085770
12.070797 -7.8382339 -0.67622757 4293729569
12.144451 -7.7820263 -0.74056566 4293729569
16.294209 -7.6996899 -1.9053113 4293729569
16.068935 -7.4639578 -1.9175177 4288085770
15.929676 -7.2671051 -1.9363124 4288085770
15.797428 -7.0762472 -1.9531603 4288085770
15.606213 -6.8614817 -1.9606096 4288085770
15.191036 -6.5650492 -1.9415622 4288085770
14.869884 -6.3114834 -1.930159 4288085770
14.658726 -6.1007614 -1.9274957 4288085770
14.398602 -5.8771162 -1.9175143 4288085770
14.158504 -5.6634464 -1.9066718 4288085770
13.9184 -5.4527807 -1.8938346 4288085770
13.626331 -5.2301941 -1.8736632 4288085770
13.381275 -5.0255442 -1.8558074 4288085770
13.207211 -4.8477888 -1.8454276 4288085770
13.107151 -4.6969299 -1.8405422 4288085770
13.020092 -4.5500555 -1.8357416 4288085770
12.932056 -4.4051847 -1.828939 4288085770
12.887012 -4.2742538 -1.8254201 4288085770
12.83498 -4.1413355 -1.8198555 4288085770
12.819942 -4.0213642 -1.8175367 4288085770
12.825909 -3.9053657 -1.8153511 4288085770
12.822895 -3.7883832 -1.8111098 4288085770
12.865871 -3.6863358 -1.810172 4288085770
12.93185 -3.5882556 -1.8113792 4288085770
12.969845 -3.4802215 -1.8064001 4288085770
13.018841 -3.3761723 -1.8024939 4288085770
13.131817 -3.2850316 -1.8039955 4288085770
13.211834 -3.1869447 -1.799286 4288085770
13.302837 -3.0878432 -1.7946405 4288085770
13.439838 -2.9976757 -1.7942871 4288085770
13.594837 -2.9104869 -1.793047 4288085770
13.813824 -2.8332045 -1.7982086 4288085770
14.016819 -2.7499526 -1.7982628 4288085770
14.269802 -2.6726291 -1.8026273 4288085770
14.485813 -2.5883648 -1.8007569 4288085770
14.745815 -2.5060394 -1.8011535 4288085770
14.974842 -2.4167583 -1.7963554 4288085770
15.310841 -2.3403308 -1.8002162 4288085770
15.569874 -2.2490232 -1.7925878 4288085770
15.848911 -2.1586878 -1.7860805 4288085770
16.190937 -2.0712683 -1.7819554 4288085770
16.613934 -1.9897354 -1.7833258 4288085770
17.120914 -1.9100902 -1.788202 4288085770
17.072773 0.7561456 -1.7261149 4288085770
15.855816 0.79861963 -1.7248919 4288085770
14.874805 0.84140587 -1.732051 4288085770
13.935856 0.87722623 -1.7304715 4288085770
13.054935 0.90911162 -1.7252406 4288085770
12.280003 0.94113255 -1.7216303 4288085770
11.614063 0.97129691 -1.7216628 4288085770
10.986126 1.000505 -1.7199202 4288085770
10.4202 1.0277914 -1.7185448 4288085770
9.9262505 1.0561725 -1.7195891 4288085770
16.311871 1.5651039 -1.7038987 4288085770
9.4733047 1.0836052 -1.7208756 4288085770
15.34692 1.581902 -1.7072084 4288085770
9.0443726 1.1100643 -1.720305 4288085770
14.618877 1.6110233 -1.7238799 4288085770
8.6744194 1.1366056 -1.7240796 4288085770
13.729 1.6188914 -1.7156487 4288085770
8.3154755 1.1621548 -1.724921 4288085770
13.013073 1.6349926 -1.7154191 4288085770
7.9985237 1.1887609 -1.7280061 4288085770
12.337162 1.6491407 -1.713428 4288085770
7.6825943 1.2123622 -1.7281036 4288085770
11.73624 1.6653851 -1.7128718 4288085770
7.4046478 1.2370152 -1.7304214 4288085770
11.181332 1.6796832 -1.7105892 4288085770
7.134716 1.2606744 -1.7307885 4288085770
10.681408 1.6960528 -1.7096244 4288085770
6.8727951 1.2833418 -1.7302045 4288085770
10.215488 1.7124652 -1.7088587 4288085770
6.66782 1.3120948 -1.7369412 4288085770
9.8165436 1.7339699 -1.7124747 4288085770
6.4608536 1.3378419 -1.741673 4288085770
9.4396057 1.7534966 -1.7132238 4288085770
6.2808838 1.3656268 -1.7485583 4288085770
9.050705 1.7689998 -1.7099116 4288085770
6.0939331 1.3913946 -1.751407 4288085770
8.7397575 1.7916137 -1.7130406 4288085770
5.9379616 1.4202098 -1.7584307 4288085770
8.4418259 1.8132396 -1.7142479 4288085770
5.7849922 1.4470267 -1.7644763 4288085770
8.1369095 1.8308506 -1.7124231 4288085770
5.6070709 1.4697977 -1.7633842 4288085770
7.88097 1.8535316 -1.7148741 4288085770
5.4521332 1.4936037 -1.7654246 4288085770
7.6310387 1.8742161 -1.7153647 4288085770
5.2752419 1.5133677 -1.7603451 4288085770
7.3771286 1.8928893 -1.7128364 4288085770
5.138298 1.5391966 -1.7624866 4288085770
7.1791725 1.9186473 -1.7176204 4288085770
4.9963799 1.5620129 -1.7616055 4288085770
6.9822311 1.9434006 -1.7194128 4288085770
4.8814201 1.5888737 -1.7658737 4288085770
6.7902985 1.9661582 -1.7202386 4288085770
4.7624893 1.6137232 -1.7671227 4288085770
6.6243439 1.9929544 -1.7242079 4288085770
4.644558 1.6375717 -1.7673798 4288085770
6.4743843 2.0217731 -1.7292668 4288085770
4.5446129 1.6654491 -1.7707337 4288085770
6.3174438 2.0475764 -1.7312912 4288085770
4.4526596 1.6933367 -1.7741344 4288085770
6.1814804 2.0774109 -1.7354298 4288085770
4.3666992 1.722234 -1.7785679 4288085770
6.0794868 2.112298 -1.7447563 4288085770
4.266777 1.747103 -1.7779284 4288085770
5.9784966 2.1471848 -1.753089 4288085770
4.1938095 1.7770188 -1.7834358 4288085770
5.8815193 2.1820719 -1.7594448 4288085770
4.1298332 1.8089478 -1.7899917 4288085770
5.7705612 2.2129378 -1.7637277 4288085770
4.0479012 1.8358419 -1.7904532 4288085770
5.6666031 2.2448101 -1.7670493 4288085770
3.9919281 1.8687809 -1.7970537 4288085770
5.5826263 2.2797141 -1.7734812 4288085770
3.9179878 1.8966849 -1.7975599 4288085770
5.4736977 2.3085721 -1.7727802 4288085770
3.8440628 1.9235871 -1.7970681 4288085770
5.3827477 2.3414588 -1.7751757 4288085770
3.7651482 1.9494786 -1.7945491 4288085770
5.2648468 2.3652971 -1.7704328 4288085770
3.6762657 1.9703492 -1.7879827 4288085770
5.1619377 2.3911562 -1.7667731 4288085770
3.6113358 1.9982628 -1.7875414 4288085770
5.101963 2.4300883 -1.7723371 4288085770
3.5344429 2.0211506 -1.7820407 4288085770
5.008049 2.4579587 -1.7687259 4288085770
3.4755211 2.0490694 -1.7806345 4288085770
4.9181404 2.4858344 -1.765138 4288085770
3.4195976 2.077992 -1.7792437 4288085770
4.8541908 2.5207531 -1.7666872 4288085770
3.3477173 2.1008821 -1.7717724 4288085770
4.7862549 2.5536628 -1.7662171 4288085770
3.2967911 2.1288109 -1.770413 4288085770
4.7243156 2.5885797 -1.7657779 4288085770
3.2468758 2.1577389 -1.7680572 4288085770
4.674366 2.6265161 -1.7674024 4288085770
3.2049446 2.1896813 -1.7677418 4288085770
4.6234245 2.6644487 -1.768021 4288085770
3.1829796 2.2266569 -1.7715324 4288085770
4.5834694 2.7043977 -1.7696996 4288085770
3.1290817 2.2525737 -1.7661599 4288085770
4.5784454 2.7574072 -1.7795547 4288085770
3.0761986 2.2784877 -1.758793 4288085770
4.508564 2.7862997 -1.7720819 4288085770
3.0602226 2.3174732 -1.7636145 4288085770
4.4885826 2.8342779 -1.7758602 4288085770
3.0253105 2.3494179 -1.76034 4288085770
4.4566269 2.8762348 -1.7765812 4288085770
3.0113487 2.3884017 -1.7631731 4288085770
4.4396667 2.9242125 -1.7783769 4288085770
2.9724541 2.4173353 -1.7568815 4288085770
4.4216919 2.9721913 -1.7811668 4288085770
2.9515114 2.454304 -1.756678 4288085770
4.3967514 3.0161526 -1.7799244 4288085770
2.9744797 2.5093527 -1.7686927 4288085770
4.3847885 3.0661349 -1.780745 4288085770
2.9385834 2.5382903 -1.7624187 4288085770
4.3887939 3.1221454 -1.7856461 4288085770
2.9346237 2.5812845 -1.7643015 4288085770
4.3628616 3.1661015 -1.7823977 4288085770
2.901741 2.6112213 -1.7560428 4288085770
4.3708801 3.2231128 -1.78532 4288085770
2.8957901 2.6532092 -1.755916 4288085770
4.3699112 3.2771087 -1.7861961 4288085770
2.8978271 2.6992109 -1.7578273 4288085770
4.3699455 3.3331039 -1.7860738 4288085770
2.8928947 2.7411952 -1.7557064 4288085770
4.3769798 3.3901076 -1.7859901 4288085770
2.9009209 2.7902069 -1.7586464 4288085770
4.402977 3.4571438 -1.7899958 4288085770
2.9299088 2.8482533 -1.7656891 4288085770
4.4209938 3.5201657 -1.7919632 4288085770
2.9299812 2.8922417 -1.762593 4288085770
4.437027 3.5821786 -1.7909213 4288085770
2.951992 2.9482729 -1.7665994 4288085770
4.4620399 3.6492074 -1.7919208 4288085770
2.9730186 3.0032985 -1.768602 4288085770
4.5030365 3.7242601 -1.7949966 4288085770
2.9740944 3.0472846 -1.7635114 4288085770
4.5330505 3.7942929 -1.7950189 4288085770
3.0180664 3.1143517 -1.7716223 4288085770
4.5710602 3.8683376 -1.7960792 4288085770
3.0351181 3.1673641 -1.7696056 4288085770
4.6140671 3.944387 -1.7961643 4288085770
3.0791092 3.2344246 -1.7747164 4288085770
4.6680603 4.026454 -1.7983005 4288085770
3.1630058 3.323561 -1.7920133 4288085770
4.7420158 4.1205525 -1.8035276 4288085770
3.2000237 3.3876047 -1.7930894 4288085770
4.7820473 4.1965899 -1.7995948 4288085770
3.2600021 3.4646876 -1.7992717 4288085770
4.8101158 4.2656031 -1.7916069 4288085770
3.2890511 3.5247109 -1.7953097 4288085770
4.8691292 4.3516655 -1.7887634 4288085770
3.3370628 3.5947685 -1.7964368 4288085770
4.9361343 4.441741 -1.7869576 4288085770
3.3691216 3.6547933 -1.7914919 4288085770
5.0001526 4.5308084 -1.7831364 4288085770
3.4580498 3.7489214 -1.8018064 4288085770
5.0811424 4.6299009 -1.7813928 4288085770
3.5270348 3.8320093 -1.8050278 4288085770
5.168129 4.7320013 -1.7796776 4288085770
3.6000252 3.9161 -1.8072702 4288085770
5.246151 4.8290796 -1.7729206 4288085770
3.6520653 3.9881504 -1.8024158 4288085770
5.3361549 4.9341774 -1.768216 4288085770
3.7350426 4.0792542 -1.8047012 4288085770
5.4421349 5.0482988 -1.7655853 4288085770
3.8050652 4.1623306 -1.8019279 4288085770
5.5501289 5.1644173 -1.7599617 4288085770
3.9239693 4.276494 -1.8113735 4288085770
5.6591301 5.2795343 -1.753346 4288085770
4.0229454 4.3766155 -1.8127322 4288085770
5.7990799 5.4146996 -1.7508677 4288085770
4.1189308 4.475729 -1.8120755 4288085770
5.9250717 5.5418353 -1.7433248 4288085770
4.2069511 4.5688243 -1.8073848 4288085770
6.0919952 5.6940365 -1.7419668 4288085770
4.3029594 4.6669292 -1.80273 4288085770
6.2798958 5.8602648 -1.7417009 4288085770
4.4229279 4.7800732 -1.8021823 4288085770
6.5137329 6.0565629 -1.7466384 4288085770
4.5419083 4.891212 -1.7996331 4288085770
6.750576 6.254859 -1.7495887 4288085770
4.6618996 5.0033469 -1.7950872 4288085770
6.9884338 6.4531507 -1.749544 4288085770
4.7868958 5.117487 -1.7895658 4288085770
7.2682381 6.6805019 -1.7526816 4288085770
4.9418449 5.2506723 -1.7881783 4288085770
7.5510597 6.9078522 -1.7538362 4288085770
5.0748482 5.3688173 -1.7806945 4288085770
7.8358955 7.1381969 -1.7509955 4288085770
5.2228279 5.4949841 -1.7742808 4288085770
8.175663 7.4036188 -1.7523996 4288085770
5.3957863 5.6371856 -1.7699777 4288085770
8.489502 7.6519918 -1.7456878 4288085770
5.5797348 5.7873993 -1.7647212 4288085770
8.8313217 7.918395 -1.7371001 4288085770
5.7726784 5.9416246 -1.759508 4288085770
5.9925919 6.1128874 -1.7564151 4288085770
6.2294846 6.2941732 -1.7543993 4288085770
6.5612183 6.5406065 -1.7657961 4288085770
6.8859978 6.7810183 -1.7711644 4288085770
7.1628914 6.9843445 -1.7643328 4288085770
7.506691 7.2337675 -1.763791 4288085770
7.867485 7.4912119 -1.7633305 4288085770
8.1963654 7.7235918 -1.7517369 4288085770
8.5771904 7.9890471 -1.744374 4288085770
16.754276 -0.82544088 -1.7532544 4288085770
15.71143 -0.86374807 -1.7503439 4288085770
14.980465 -0.91161823 -1.7702454 4288085770
13.983669 -0.93189788 -1.7535615 4288085770
13.148823 -0.95395494 -1.7468119 4288085770
12.447948 -0.97583055 -1.7468313 4288085770
11.782063 -0.99466252 -1.7470454 4288085770
11.151188 -1.0094545 -1.7454522 4288085770
10.629276 -1.0260971 -1.7504888 4288085770
17.432133 -1.6586149 -1.7688836 4288085770
10.107372 -1.0377481 -1.7515152 4288085770
16.170216 -1.6292026 -1.7615736 4288085770
9.6434593 -1.0493195 -1.7558743 4288085770
15.269215 -1.6212943 -1.7763815 4288085770
9.174572 -1.0559087 -1.7551943 4288085770
14.291271 -1.5985153 -1.7757162 4288085770
8.7796402 -1.0653896 -1.7619454 4288085770
13.267406 -1.559829 -1.7587535 4288085770
8.3997192 -1.071856 -1.7667761 4288085770
12.504459 -1.5407736 -1.7623309 4288085770
8.0258064 -1.0763192 -1.7696375 4288085770
11.745548 -1.5157311 -1.7579187 4288085770
7.6529083 -1.0767877 -1.7694958 4288085770
11.079609 -1.4935629 -1.7580469 4288085770
7.3189888 -1.0782008 -1.7725805 4288085770
10.490665 -1.4752934 -1.7606252 4288085770
7.0100708 -1.0795827 -1.7758085 4288085770
9.9697075 -1.4599326 -1.7666004 4288085770
6.7411346 -1.0829051 -1.7832704 4288085770
