# .PCD v0.7 - Point Cloud Data file format
VERSION 0.7
FIELDS x y z rgb
SIZE 4 4 4 4
TYPE F F F U
COUNT 1 1 1 1
WIDTH 1104
HEIGHT 1
VIEWPOINT 0 0 0 1 0 0 0
POINTS 1104
DATA ascii
4.8361177 7.6929111 -1.9737171 4288085770
1.1066074 5.6056914 -1.895138 4288085770
5.20788 7.9973173 -1.9892232 4288085770
1.2745399 5.7648749 -1.9013995 4288085770
5.5706425 8.3007221 -1.9997265 4288085770
1.4614563 5.937079 -1.9086826 4288085770
1.66436 6.1203008 -1.9159842 4288085770
1.8832512 6.3145404 -1.924304 4288085770
2.1111336 6.5147915 -1.9316339 4288085770
2.3979702 6.7541008 -1.9460294 4288085770
2.6868057 6.996417 -1.9574296 4288085770
2.9586544 7.227725 -1.9618104 4288085770
3.2664709 7.4840698 -1.969233 4288085770
3.6052656 7.7604513 -1.9766891 4288085770
4.0319891 8.0979176 -1.9952478 4288085770
12.645769 -0.49791479 -1.8042432 4288085770
11.468925 -0.53131151 -1.8052548 4288085770
10.392076 -0.55858898 -1.8062711 4288085770
9.4432211 -0.58171606 -1.8072865 4288085770
8.61936 -0.60470486 -1.8142951 4288085770
7.8415003 -0.62163258 -1.8173108 4288085770
7.1246347 -0.63648939 -1.8203267 4288085770
6.4667664 -0.64727354 -1.8223457 4288085770
5.874896 -0.6579833 -1.8263612 4288085770
12.296549 -1.1553693 -1.8201052 4288085770
5.285018 -0.6626811 -1.8243866 4288085770
11.063637 -1.1308312 -1.82022 4288085770
4.7191391 -0.66434765 -1.820416 4288085770
10.011733 -1.1120892 -1.8263139 4288085770
4.223258 -0.6669383 -1.8204395 4288085770
9.1278343 -1.0981593 -1.8393892 4288085770
3.7803812 -0.67046976 -1.8234581 4288085770
8.2499256 -1.0762014 -1.839478 4288085770
3.3815022 -0.67295361 -1.8284758 4288085770
7.4160147 -1.0521889 -1.8375678 4288085770
2.9586182 -0.67145205 -1.825502 4288085770
6.6721067 -1.0300708 -1.8366487 4288085770
2.565733 -0.66791821 -1.8235298 4288085770
5.9931993 -1.0088768 -1.8357245 4288085770
2.2078476 -0.66434288 -1.8225554 4288085770
5.3742905 -0.98761225 -1.8357962 4288085770
1.8609581 -0.65975237 -1.8195823 4288085770
4.8163862 -0.96927786 -1.8368593 4288085770
1.5550709 -0.65612078 -1.8216051 4288085770
4.2784796 -0.94791508 -1.8349266 4288085770
1.2391815 -0.64849138 -1.8176352 4288085770
3.8305798 -0.93245888 -1.8409781 4288085770
0.97329521 -0.64481544 -1.8206553 4288085770
3.3646736 -0.91100836 -1.8380409 4288085770
0.72340584 -0.6401186 -1.8236763 4288085770
2.9547691 -0.89249945 -1.8390954 4288085770
0.46451759 -0.63342571 -1.8217015 4288085770
2.5568638 -0.87297106 -1.8371507 4288085770
0.23962975 -0.62770033 -1.8247226 4288085770
2.1759586 -0.85341978 -1.8342056 4288085770
0.036741257 -0.62295151 -1.8297408 4288085770
1.8210526 -0.83283949 -1.8312602 4288085770
-0.17414856 -0.61620808 -1.8317633 4288085770
1.4901485 -0.8142314 -1.8293101 4288085770
-0.36903763 -0.609447 -1.8347844 4288085770
1.2022438 -0.79757929 -1.8313538 4288085770
-0.57893372 -0.59869432 -1.8318133 4288085770
0.91134071 -0.77892447 -1.8294011 4288085770
-0.75182343 -0.5919075 -1.8348333 4288085770
0.65744019 -0.76323318 -1.8324412 4288085770
-0.94972038 -0.58013725 -1.8298632 4288085770
0.40653992 -0.74653578 -1.8334829 4288085770
-1.1186142 -0.57034254 -1.830888 4288085770
0.19364166 -0.73280048 -1.8395169 4288085770
-1.2815056 -0.56153917 -1.8309109 4288085770
-0.04826355 -0.71408463 -1.8355614 4288085770
-1.4413986 -0.55072975 -1.8299369 4288085770
-0.25316238 -0.69833374 -1.8375984 4288085770
-1.6112957 -0.53792572 -1.8239671 4288085770
-0.48207092 -0.67859936 -1.8316442 4288085770
-1.7661934 -0.52610826 -1.8209945 4288085770
-0.66697121 -0.66282511 -1.83368 4288085770
-1.8800812 -0.51925707 -1.8280108 4288085770
-0.84887123 -0.64704561 -1.8347158 4288085770
-2.0219822 -0.50642443 -1.8250391 4288085770
-1.0457764 -0.62727308 -1.8287594 4288085770
-2.145874 -0.49657679 -1.8260612 4288085770
-1.2046757 -0.61246729 -1.830792 4288085770
-1.356575 -0.59765625 -1.8338243 4288085770
-1.5424862 -0.57586288 -1.8228706 4288085770
-1.6923885 -0.55904102 -1.8209063 4288085770
-1.8242855 -0.54420376 -1.8229371 4288085770
-1.9771919 -0.52537966 -1.8169764 4288085770
-2.0840874 -0.51251888 -1.8230021 4288085770
-2.2007656 1.3929725 -1.8074046 4288085770
-2.0746689 1.4111178 -1.8094066 4288085770
-1.9765682 1.4232461 -1.800404 4288085770
-1.8334732 1.4424107 -1.8034043 4288085770
-1.6903744 1.4615765 -1.8054044 4288085770
-1.5302811 1.4817584 -1.8104031 4288085770
-1.3861847 1.4989331 -1.8073997 4288085770
-1.2310886 1.516118 -1.8063943 4288085770
-2.1388607 1.3760171 -1.8113319 4288085770
-1.0729885 1.5323079 -1.8043867 4288085770
-2.0097561 1.3881681 -1.8123235 4288085770
-0.89689445 1.5515151 -1.8053805 4288085770
-1.8896503 1.3983154 -1.8083135 4288085770
-0.70979691 1.5707359 -1.8063722 4288085770
-1.7465477 1.4104795 -1.8113027 4288085770
-0.52070427 1.5889604 -1.8063618 4288085770
-1.5904465 1.4246581 -1.8152922 4288085770
-0.31960869 1.6081991 -1.8063507 4288085770
-1.4493408 1.434828 -1.8132782 4288085770
-0.085517883 1.6314685 -1.8123397 4288085770
-1.2952347 1.4460101 -1.8132634 4288085770
0.13057899 1.6497257 -1.8123239 4288085770
-1.1371288 1.4561992 -1.8122461 4288085770
0.3776722 1.6710155 -1.8153073 4288085770
-0.97902489 1.4653893 -1.8102272 4288085770
0.61776733 1.690305 -1.8132883 4288085770
-0.80291748 1.4755983 -1.8102064 4288085770
0.8698616 1.7086082 -1.8112656 4288085770
-0.58181763 1.4918461 -1.8201867 4288085770
1.1419563 1.7279329 -1.8112408 4288085770
-0.41970634 1.4970491 -1.8131604 4288085770
1.4210529 1.746269 -1.8092127 4288085770
-0.21960068 1.5062869 -1.8131335 4288085770
1.7531414 1.7696614 -1.8121825 4288085770
0.01550293 1.519558 -1.8191061 4288085770
2.0902348 1.792062 -1.81415 4288085770
0.23261261 1.5278177 -1.8180741 4288085770
2.4293289 1.8114703 -1.8121117 4288085770
0.43972206 1.5330734 -1.812039 4288085770
2.8204174 1.8359339 -1.8150717 4288085770
0.68483162 1.540364 -1.8130001 4288085770
3.2035122 1.8553972 -1.8120251 4288085770
0.9419384 1.548671 -1.8129601 4288085770
3.6366053 1.8779161 -1.8119737 4288085770
1.2180481 1.555999 -1.8139154 4288085770
4.0966949 1.9004681 -1.8119171 4288085770
1.523159 1.5643592 -1.8168663 4288085770
4.5927849 1.9240632 -1.811855 4288085770
1.8182697 1.5697136 -1.8158143 4288085770
5.1528702 1.9517293 -1.815787 4288085770
2.1103783 1.5720689 -1.8117582 4288085770
5.7339544 1.9764254 -1.8167105 4288085770
2.4684868 1.5794919 -1.8156972 4288085770
6.3500433 2.0001671 -1.8156251 4288085770
2.8426018 1.5839353 -1.8186284 4288085770
7.0451298 2.0270009 -1.8165292 4288085770
3.2097178 1.5853782 -1.8165559 4288085770
7.8062143 2.0549161 -1.8164222 4288085770
3.6138334 1.5868626 -1.8164762 4288085770
8.5673065 2.07584 -1.8103037 4288085770
4.0349512 1.5863707 -1.8143902 4288085770
9.4523954 2.1029067 -1.809171 4288085770
4.5230694 1.5879507 -1.8182945 4288085770
10.459476 2.1331184 -1.8090196 4288085770
5.0321913 1.5865586 -1.8201898 4288085770
11.470568 2.1543493 -1.7998526 4288085770
5.5703106 1.5842021 -1.8220779 4288085770
12.724646 2.1878595 -1.7996579 4288085770
6.1434364 1.5778904 -1.8219526 4288085770
6.7585649 1.5706286 -1.8228178 4288085770
7.4096956 1.5604131 -1.8216709 4288085770
8.0918322 1.5442398 -1.8175088 4288085770
8.868969 1.529175 -1.8173295 4288085770
9.6821127 1.5081584 -1.8141338 4288085770
10.61026 1.4852765 -1.8139126 4288085770
11.606411 1.4564807 -1.8106688 4288085770
12.722569 1.423826 -1.8103952 4288085770
3.6980391 -7.4659214 -1.4882807 4293729569
3.2838058 -7.1744461 -1.5008053 4293729569
2.9306145 -6.9218979 -1.5142581 4293729569
2.5804272 -6.6693449 -1.5257102 4293729569
2.2712727 -6.4427414 -1.5381144 4293729569
1.9741249 -6.2221203 -1.5485069 4293729569
1.6869812 -6.006484 -1.5558896 4293729569
1.4208527 -5.8038216 -1.5632483 4293729569
1.1677361 -5.6101408 -1.5685906 4293729569
0.96365738 -5.4474087 -1.5798757 4293729569
4.0551376 -7.4445019 -1.4861938 4293729569
0.74556732 -5.2746849 -1.5851789 4293729569
3.7079268 -7.1719494 -1.5016739 4293729569
0.52647018 -5.098958 -1.5864867 4293729569
3.342701 -6.8874102 -1.5101761 4293729569
0.31838417 -4.9302149 -1.5877814 4293729569
3.0665464 -6.6617737 -1.5265701 4293729569
0.1913681 -4.8173952 -1.6029747 4293729569
2.7613697 -6.4171581 -1.5339991 4293729569
0.067350388 -4.7035685 -1.6161685 4293729569
2.5142365 -6.2094803 -1.5463599 4293729569
-0.085693359 -4.5697622 -1.6203986 4293729569
2.2891235 -6.0177736 -1.5576918 4293729569
-0.21571922 -4.4509354 -1.6276013 4293729569
2.0780201 -5.8340492 -1.5680088 4293729569
-0.34874725 -4.3301039 -1.6308076 4293729569
1.8388939 -5.6333494 -1.5723575 4293729569
-0.45375061 -4.2272501 -1.6399806 4293729569
1.6448021 -5.4605989 -1.5796541 4293729569
-0.56476593 -4.1193943 -1.6451626 4293729569
1.4687252 -5.2998266 -1.5869286 4293729569
-0.67277718 -4.0125351 -1.6483421 4293729569
1.2666283 -5.1230764 -1.5872332 4293729569
-0.74976158 -3.9256449 -1.657485 4293729569
0.9854641 -4.8973999 -1.5706289 4293729569
-0.84776497 -3.8257694 -1.6596518 4293729569
0.88444901 -4.7855415 -1.5828135 4293729569
-0.93075752 -3.733882 -1.6648033 4293729569
0.78443718 -4.6736822 -1.5939977 4293729569
-0.87963867 -3.7268734 -1.7017974 4293729569
0.737463 -4.5937719 -1.6141223 4293729569
-0.8155117 -3.7248545 -1.7407807 4293729569
0.62743568 -4.4759169 -1.6193177 4293729569
-0.73737526 -3.7308216 -1.7827489 4288085770
0.51040459 -4.3530655 -1.6215222 4293729569
-0.66524696 -3.7297935 -1.8227286 4288085770
0.43040466 -4.2541771 -1.6296827 4293729569
-0.72522545 -3.6488752 -1.826858 4288085770
0.36441231 -4.1632719 -1.6378276 4293729569
-0.79621506 -3.5609646 -1.8270004 4288085770
0.27540588 -4.0583868 -1.6409988 4293729569
-0.88321877 -3.4630632 -1.8201613 4288085770
0.20740891 -3.9654808 -1.6461474 4293729569
-0.95320702 -3.3761482 -1.8183019 4288085770
0.15743065 -3.8835554 -1.6532753 4293729569
-1.0111885 -3.2962208 -1.8164294 4288085770
0.11045074 -3.8026247 -1.6604007 4293729569
-1.0441513 -3.22927 -1.8215314 4288085770
0.1615448 -3.7756023 -1.6874228 4293729569
-1.0911274 -3.1563292 -1.8206459 4288085770
0.28268051 -3.7845154 -1.7273744 4293729569
-1.1250896 -3.0893764 -1.8227481 4288085770
0.40381432 -3.7904263 -1.7673303 4288085770
-1.180069 -3.0114398 -1.8178717 4288085770
0.52094841 -3.7933397 -1.8062913 4288085770
-1.2140312 -2.9454827 -1.8169725 4288085770
0.58504105 -3.7663012 -1.8323094 4288085770
-1.2469959 -2.8795247 -1.8160729 4288085770
0.51203537 -3.6673841 -1.8254676 4288085770
-1.2679501 -2.8195543 -1.8171617 4288085770
0.43603134 -3.5684671 -1.8176262 4288085770
-1.285902 -2.7615805 -1.8182464 4288085770
0.3560257 -3.4685545 -1.8077875 4288085770
-1.2788372 -2.7155843 -1.8253073 4288085770
0.32104683 -3.3905964 -1.8059051 4288085770
-1.3037949 -2.6546135 -1.8223984 4288085770
0.28907013 -3.3146353 -1.804019 4288085770
-1.2957306 -2.608613 -1.827459 4288085770
0.2781105 -3.2496538 -1.8061115 4288085770
-1.3156891 -2.5496349 -1.8235456 4288085770
0.26314545 -3.181675 -1.8062092 4288085770
-1.3246346 -2.4956479 -1.8226223 4288085770
0.26018906 -3.1206827 -1.8072938 4288085770
-1.32658 -2.4446526 -1.8226925 4288085770
0.26023293 -3.0596867 -1.8083773 4288085770
-1.3145142 -2.4006448 -1.8257488 4288085770
0.25927544 -2.9986882 -1.807461 4288085770
-1.3114548 -2.3526421 -1.8248136 4288085770
0.25331688 -2.9366956 -1.8055476 4288085770
-1.3063965 -2.3056374 -1.823876 4288085770
0.27437401 -2.885675 -1.8076109 4288085770
-1.2773247 -2.2676125 -1.8299192 4288085770
0.28641891 -2.8296628 -1.8076839 4288085770
-1.2722664 -2.219605 -1.826983 4288085770
0.30347061 -2.7756438 -1.8077526 4288085770
-1.2572041 -2.1755877 -1.8260384 4288085770
0.33652878 -2.7276077 -1.8088082 4288085770
-1.2381363 -2.1335673 -1.8260897 4288085770
0.3685894 -2.6795721 -1.8098639 4288085770
-1.2100677 -2.0935373 -1.8271357 4288085770
0.40965271 -2.6345272 -1.8119129 4288085770
-1.1849995 -2.0535073 -1.8261824 4288085770
0.44571495 -2.5874844 -1.8119662 4288085770
-1.151926 -2.0154724 -1.8282241 4288085770
0.48477364 -2.5404396 -1.8120183 4288085770
-1.1218548 -1.9774365 -1.8272665 4288085770
0.54384422 -2.5013723 -1.8140534 4288085770
-1.0797806 -1.94239 -1.8293011 4288085770
0.58790779 -2.4563189 -1.8131012 4288085770
-1.0547123 -1.9013567 -1.825349 4288085770
0.64297295 -2.4132538 -1.813143 4288085770
-1.0156384 -1.8643112 -1.8253872 4288085770
0.69403839 -2.3701901 -1.8111858 4288085770
-0.9615593 -1.8322515 -1.8284141 4288085770
0.77011108 -2.3331027 -1.8142132 4288085770
-0.90648079 -1.8001895 -1.8304406 4288085770
0.83017921 -2.2910275 -1.8112519 4288085770
-0.86040878 -1.764133 -1.8284754 4288085770
0.91125107 -2.2539315 -1.8122776 4288085770
-0.78432274 -1.7370496 -1.8344886 4288085770
0.99632454 -2.2178311 -1.8133005 4288085770
-0.72023964 -1.7059751 -1.835511 4288085770
1.0994053 -2.1867108 -1.8163111 4288085770
-0.65216064 -1.6758966 -1.8375306 4288085770
1.1954803 -2.1525955 -1.817328 4288085770
-0.58508301 -1.6438165 -1.8375534 4288085770
1.2935562 -2.117476 -1.8163455 4288085770
-0.51800537 -1.6117353 -1.8365761 4288085770
1.4056339 -2.0853434 -1.8183547 4288085770
-0.44092369 -1.5816445 -1.8375928 4288085770
1.5277176 -2.0551982 -1.820358 4288085770
-0.36484337 -1.5505519 -1.8366113 4288085770
1.6678028 -2.0280318 -1.8233521 4288085770
-0.26475525 -1.524437 -1.8406157 4288085770
1.7988834 -1.9968743 -1.8243539 4288085770
-0.17367363 -1.4963284 -1.8416255 4288085770
1.9439678 -1.968699 -1.8253475 4288085770
-0.084590912 -1.4672213 -1.8416371 4288085770
2.0820446 -1.9365296 -1.8243487 4288085770
0.012493134 -1.4381042 -1.8416463 4288085770
2.2241249 -1.905354 -1.8223469 4288085770
0.11157417 -1.4089832 -1.8406549 4288085770
2.3752003 -1.874167 -1.8203425 4288085770
0.20765305 -1.3778634 -1.8376669 4288085770
2.5792961 -1.8519258 -1.82631 4288085770
0.35474968 -1.3576951 -1.8456488 4288085770
2.7603798 -1.8247046 -1.8262911 4288085770
0.48383522 -1.3315411 -1.847644 4288085770
2.9804726 -1.8024397 -1.8292536 4288085770
0.61792374 -1.3063812 -1.8496363 4288085770
3.2005615 -1.778173 -1.8312186 4288085770
0.75100517 -1.2782178 -1.8486331 4288085770
3.4106455 -1.7509146 -1.8301907 4288085770
0.8760891 -1.2490621 -1.8456331 4288085770
3.6587353 -1.727612 -1.8311458 4288085770
1.0071621 -1.2178974 -1.8416345 4288085770
3.927824 -1.705286 -1.8340933 4288085770
1.1822529 -1.1946888 -1.8456115 4288085770
4.2009134 -1.6809506 -1.8340421 4288085770
1.3173313 -1.1635146 -1.8386112 4288085770
4.5110083 -1.6615739 -1.8369727 4288085770
1.4974174 -1.1382961 -1.8395892 4288085770
4.8431025 -1.6411695 -1.8398983 4288085770
1.6714993 -1.1090813 -1.8375744 4288085770
5.185195 -1.619751 -1.8408217 4288085770
1.8685875 -1.08284 -1.8375485 4288085770
5.5332832 -1.5953212 -1.8397477 4288085770
2.080677 -1.0585814 -1.8385152 4288085770
5.94238 -1.5768223 -1.8426465 4288085770
2.3287678 -1.035284 -1.8434699 4288085770
6.3864784 -1.5602803 -1.8465322 4288085770
2.562851 -1.0089974 -1.8434323 4288085770
6.7985601 -1.5327649 -1.8404422 4288085770
2.8289413 -0.9836731 -1.8453839 4288085770
7.3206615 -1.5171266 -1.8443028 4288085770
3.095027 -0.95734549 -1.8443365 4288085770
7.8367529 -1.4954877 -1.8421729 4288085770
3.3681078 -0.92900896 -1.8432897 4288085770
8.4558525 -1.4797297 -1.8460038 4288085770
3.6811943 -0.90262461 -1.8442279 4288085770
9.0669432 -1.4579716 -1.8428448 4288085770
3.989274 -0.87224102 -1.840173 4288085770
9.7270355 -1.436151 -1.8386708 4288085770
4.3303576 -0.84381962 -1.8391051 4288085770
10.477128 -1.4162202 -1.8354666 4288085770
4.694438 -0.81436872 -1.8370316 4288085770
11.379234 -1.4041128 -1.8402056 4288085770
5.1005144 -0.78486681 -1.8359456 4288085770
12.28232 -1.382988 -1.8339562 4288085770
5.5415964 -0.75532293 -1.8358485 4288085770
5.9876738 -0.72276592 -1.8307534 4288085770
6.5257549 -0.69210482 -1.8326278 4288085770
7.0688305 -0.6584301 -1.8295044 4288085770
7.6789036 -0.62267208 -1.8263631 4288085770
8.3539782 -0.58783579 -1.8242005 4288085770
9.0290451 -0.54698944 -1.8150456 4288085770
9.8381128 -0.50598431 -1.8118498 4288085770
10.826185 -0.46776772 -1.815595 4288085770
11.883251 -0.42546177 -1.8163242 4288085770
12.618962 2.4504433 -1.7972939 4288085770
12.141977 2.5318244 -1.8025833 4288085770
11.641999 2.6061819 -1.8028737 4288085770
11.177023 2.677587 -1.801146 4288085770
10.807034 2.7571065 -1.8053901 4288085770
10.458055 2.8336542 -1.8086215 4288085770
10.147073 2.9142478 -1.8138425 4288085770
9.8090944 2.9858139 -1.8130634 4288085770
9.5361176 3.0624576 -1.8172638 4288085770
9.3301249 3.1491833 -1.8244495 4288085770
9.0561504 3.2198315 -1.8236433 4288085770
8.8551645 3.3015673 -1.8278205 4288085770
8.6621809 3.3803148 -1.830991 4288085770
8.4891939 3.4620876 -1.8341569 4288085770
8.3192081 3.5428658 -1.8363205 4288085770
8.1972132 3.6317017 -1.8414741 4288085770
8.0412264 3.7125001 -1.8416319 4288085770
7.9042368 3.7953229 -1.8417842 4288085770
7.8072414 3.8851924 -1.8459288 4288085770
7.7292385 3.9800863 -1.8500715 4288085770
7.628232 4.0669537 -1.8502157 4288085770
7.6002159 4.1729074 -1.8573502 4288085770
7.5352116 4.2688203 -1.8584877 4288085770
7.4412165 4.3557029 -1.8546261 4288085770
7.4122 4.4596601 -1.8577584 4288085770
7.4361687 4.5786791 -1.865887 4288085770
7.4881248 4.7067337 -1.8750151 4288085770
7.5090885 4.8277535 -1.8791473 4288085770
7.5440464 4.9517908 -1.884277 4288085770
7.5900002 5.0808449 -1.8874084 4288085770
7.6399498 5.2119026 -1.8915403 4288085770
7.731883 5.3570108 -1.8986717 4288085770
7.8088198 5.499104 -1.9018054 4288085770
7.8987446 5.6482148 -1.9049422 4288085770
8.0366507 5.8153825 -1.9120808 4288085770
8.1595583 5.9785357 -1.9152204 4288085770
8.3404331 6.1657572 -1.9233655 4288085770
8.5622883 6.3730288 -1.9345173 4288085770
8.776144 6.5782943 -1.9416695 4288085770
9.0029898 6.7915754 -1.9498256 4288085770
9.2548189 7.0188904 -1.9569881 4288085770
9.5216331 7.2562246 -1.964156 4288085770
9.7974348 7.5005746 -1.9683285 4288085770
10.179183 7.7920475 -1.9825133 4288085770
10.546925 8.0865116 -1.9907072 4288085770
11.699699 -0.073029995 -1.8252426 4288085770
10.300825 -0.085851669 -1.8119375 4288085770
9.1769552 -0.096325874 -1.8094944 4288085770
8.2270851 -0.10657835 -1.8129634 4288085770
7.3502092 -0.11273193 -1.8134 4288085770
6.5703373 -0.11875916 -1.8147875 4288085770
5.8124523 -0.11975002 -1.8091702 4288085770
12.177802 -0.33539391 -1.8056188 4288085770
5.1655712 -0.12160158 -1.8094953 4288085770
10.789898 -0.32021761 -1.8053445 4288085770
4.5806904 -0.12237215 -1.8097899 4288085770
9.5729895 -0.30381346 -1.8029845 4288085770
4.0388079 -0.12108612 -1.8090652 4288085770
8.5680943 -0.29114199 -1.8085111 4288085770
3.5339222 -0.1197505 -1.8083221 4288085770
7.6561966 -0.27834511 -1.8119905 4288085770
3.0620346 -0.11636972 -1.8055644 4288085770
6.8162956 -0.2644496 -1.8114347 4288085770
2.6491508 -0.11391735 -1.8077756 4288085770
6.083396 -0.25141621 -1.8128229 4288085770
2.2492599 -0.10944223 -1.8049827 4288085770
5.3604898 -0.23535967 -1.8062102 4288085770
1.8643684 -0.10394478 -1.8001835 4288085770
4.7605915 -0.22215414 -1.8095307 4288085770
1.5234814 -0.098395348 -1.8003618 4288085770
4.1826897 -0.20891142 -1.8058405 4288085770
1.2065907 -0.09381485 -1.8005267 4288085770
3.6797924 -0.19557762 -1.8081115 4288085770
0.95270729 -0.09016037 -1.8086581 4288085770
3.2128935 -0.18319368 -1.8083632 4288085770
0.66181755 -0.083542824 -1.8058124 4288085770
2.7709904 -0.16977549 -1.8066036 4288085770
0.39592552 -0.075894356 -1.804955 4288085770
2.3640919 -0.15631151 -1.8058257 4288085770
0.16803741 -0.070201397 -1.8090757 4288085770
1.9871922 -0.14280796 -1.8040328 4288085770
-0.068855286 -0.062513828 -1.8072038 4288085770
1.6452942 -0.1312604 -1.8042196 4288085770
-0.2797451 -0.055796146 -1.8093171 4288085770
1.3373947 -0.11867046 -1.8063899 4288085770
-0.47963524 -0.049064636 -1.8114251 4288085770
1.0154953 -0.10509062 -1.8015692 4288085770
-0.67752838 -0.040326595 -1.8105345 4288085770
0.7355957 -0.092461586 -1.8017255 4288085770
-0.87942314 -0.031591892 -1.8076459 4288085770
0.46969604 -0.079813004 -1.8008747 4288085770
-1.0423145 -0.023812771 -1.8107362 4288085770
0.23080063 -0.068132877 -1.8030089 4288085770
-1.2202091 -0.015046597 -1.8078356 4288085770
0.0049037933 -0.056434155 -1.8041364 4288085770
-1.3540955 -0.0082349777 -1.8159096 4288085770
-0.21899605 -0.043730736 -1.8032643 4288085770
-1.5329971 0.0025348663 -1.8080121 4288085770
-0.41289139 -0.031992912 -1.8073752 4288085770
-1.6778908 0.011341572 -1.8080945 4288085770
-0.61879158 -0.019263744 -1.8044938 4288085770
-1.7947788 0.019175053 -1.816161 4288085770
-0.81169128 -0.006518364 -1.802606 4288085770
-1.9346733 0.028990269 -1.8142422 4288085770
-0.99258995 0.0062422752 -1.800712 4288085770
-2.0615673 0.03881979 -1.8143167 4288085770
-1.1554871 0.01802206 -1.8028072 4288085770
-2.185463 0.047654629 -1.8133886 4288085770
-1.3003807 0.029824257 -1.8068931 4288085770
-1.457283 0.042616367 -1.8049868 4288085770
-1.6091843 0.055416584 -1.8020779 4288085770
-1.738081 0.067240238 -1.8051556 4288085770
-1.8589764 0.079075336 -1.8072294 4288085770
-1.9808731 0.090910435 -1.8083037 4288085770
-2.1077747 0.10374403 -1.805382 4288085770
-2.1227341 2.1033363 -1.8020489 4288085770
-2.0006523 2.1304927 -1.8039993 4288085770
-1.881567 2.1566486 -1.8029505 4288085770
-1.7524853 2.1838167 -1.8028964 4288085770
-1.6174068 2.2129915 -1.8038406 4288085770
-1.4873238 2.2381637 -1.8007834 4288085770
-1.3442421 2.2663505 -1.8007215 4288085770
-1.2001629 2.2925398 -1.7996567 4288085770
-2.1047649 2.0403306 -1.8059324 4288085770
-1.0360851 2.3247519 -1.801586 4288085770
-1.9916706 2.0574791 -1.803877 4288085770
-0.83701515 2.3650026 -1.8115023 4288085770
-1.8595791 2.0786481 -1.8068142 4288085770
-0.70392799 2.3831866 -1.8014351 4288085770
-1.7324867 2.0978136 -1.8067522 4288085770
-0.49385834 2.4234526 -1.8103443 4288085770
-1.5933952 2.1189926 -1.8086847 4288085770
-0.31477928 2.4526892 -1.8082603 4288085770
-1.4623032 2.1361659 -1.8066179 4288085770
-0.11970329 2.4839442 -1.8091685 4288085770
-1.3362045 2.1503351 -1.8015506 4288085770
0.099370956 2.5202286 -1.8120673 4288085770
-1.1771126 2.1715391 -1.8054705 4288085770
0.29345131 2.5474875 -1.8079712 4288085770
-1.0190201 2.1917446 -1.8063898 4288085770
0.49153137 2.5727541 -1.8018705 4288085770
-0.83193207 2.2179811 -1.8142976 4288085770
0.71160698 2.6030457 -1.7997612 4288085770
-0.67483521 2.2341888 -1.8122128 4288085770
0.95168304 2.6353629 -1.7986417 4288085770
-0.51574135 2.2494013 -1.8081254 4288085770
1.1987553 2.6676898 -1.7965177 4288085770
-0.30765343 2.2746661 -1.8160187 4288085770
1.4778252 2.7050557 -1.7983789 4288085770
-0.12355804 2.2929084 -1.8149189 4288085770
1.7598972 2.7414262 -1.799237 4288085770
0.038543701 2.3021283 -1.8078226 4288085770
2.0809612 2.7838454 -1.8030771 4288085770
0.23363113 2.3183842 -1.8077139 4288085770
2.3840256 2.8172476 -1.8009189 4288085770
0.41573334 2.3286297 -1.8016061 4288085770
2.7370872 2.8617096 -1.8047407 4288085770
0.63083267 2.3439133 -1.8004831 4288085770
3.1001539 2.9021871 -1.8065517 4288085770
0.84392929 2.3571959 -1.798359 4288085770
3.487216 2.9456959 -1.8093506 4288085770
1.0860252 2.3755128 -1.8002219 4288085770
3.8912783 2.9892282 -1.8111386 4288085770
1.3241234 2.3898261 -1.8000829 4288085770
4.3283377 3.0358031 -1.8139091 4288085770
1.5982189 2.4081841 -1.8029256 4288085770
4.7843971 3.0804045 -1.8156649 4288085770
1.8723183 2.4245431 -1.8047658 4288085770
5.278451 3.1300554 -1.8184019 4288085770
2.1434174 2.4369023 -1.8036033 4288085770
5.8265018 3.183774 -1.8251094 4288085770
2.4395199 2.4502921 -1.804426 4288085770
6.3805561 3.2335062 -1.8268082 4288085770
2.762619 2.4667139 -1.8082349 4288085770
7.0016031 3.2903233 -1.8324722 4288085770
3.0757246 2.4771278 -1.8080432 4288085770
7.6366529 3.3431635 -1.8341225 4288085770
3.3998289 2.4855578 -1.805842 4288085770
8.2927046 3.392035 -1.8327545 4288085770
3.7549334 2.4970255 -1.8076246 4288085770
9.0367489 3.4500189 -1.8353407 4288085770
4.1190414 2.5045085 -1.8063967 4288085770
9.822793 3.5080593 -1.8379 4288085770
4.5181494 2.5140331 -1.8091489 4288085770
10.621842 3.5571244 -1.8334405 4288085770
4.930254 2.5215764 -1.8108907 4288085770
11.589868 3.6274028 -1.8398974 4288085770
5.3633671 2.527148 -1.8126163 4288085770
12.583902 3.6897213 -1.8403304 4288085770
5.7994795 2.5277269 -1.8103372 4288085770
6.262598 2.5273421 -1.810038 4288085770
6.7477169 2.5259871 -1.8087233 4288085770
7.2848377 2.5256975 -1.8113768 4288085770
7.8269653 2.5184193 -1.8100191 4288085770
8.3990974 2.5071812 -1.8086377 4288085770
8.9782372 2.4909546 -1.8052461 4288085770
9.5863791 2.4717681 -1.8008325 4288085770
10.286519 2.4546981 -1.8023626 4288085770
10.950674 2.4255891 -1.7959017 4288085770
11.761822 2.4046638 -1.800356 4288085770
12.577984 2.3717525 -1.7987939 4288085770
7.0024252 -5.1214075 -0.48782107 4293729569
6.9957047 -5.2234554 -0.52371085 4293729569
7.9633732 -7.4432001 -1.4986064 4293729569
7.3171835 -7.2110815 -1.5062789 4293729569
6.7060032 -6.9869127 -1.5119199 4293729569
6.2109032 -6.8165998 -1.5274265 4293729569
5.6707506 -6.6123352 -1.5329995 4293729569
5.1996412 -6.4389839 -1.5434939 4293729569
4.72752 -6.2576313 -1.5509975 4293729569
4.3024244 -6.0952168 -1.5594499 4293729569
3.8903313 -5.9337854 -1.568893 4293729569
3.513257 -5.7863045 -1.5772978 4293729569
3.1461811 -5.6378126 -1.5856973 4293729569
2.7740841 -5.4813204 -1.5891089 4293729569
2.4450226 -5.3447742 -1.5964706 4293729569
6.1188946 -7.4756956 -1.485736 4293729569
2.1349716 -5.2142057 -1.6048131 4293729569
5.5606689 -7.2124672 -1.5003852 4293729569
1.7978859 -5.0636625 -1.6041955 4293729569
5.0284519 -6.9582014 -1.5130079 4293729569
1.1474991 -4.7194824 -1.5449942 4293729569
4.5352554 -6.7188826 -1.5245886 4293729569
1.0175877 -4.6826925 -1.5751168 4293729569
1.0393333 -4.6712084 -1.1381112 4293729569
0.91269684 -4.6578712 -1.6082098 4293729569
1.0025005 -4.6833086 -1.184119 4293729569
0.66766357 -4.5442095 -1.6124916 4293729569
0.97367096 -4.6973991 -1.2311196 4293729569
0.44164467 -4.4395247 -1.6177514 4293729569
0.96185684 -4.7214699 -1.2810979 4293729569
0.22763062 -4.3388233 -1.6239986 4293729569
0.94202995 -4.7375498 -1.3290901 4293729569
0.030628204 -4.2451 -1.6322273 4293729569
0.93721771 -4.7626123 -1.3810626 4293729569
-0.14235497 -4.1633482 -1.6424271 4293729569
0.93640518 -4.7866716 -1.4330337 4293729569
-0.33336449 -4.0676136 -1.6476541 4293729569
0.93959427 -4.8117247 -1.4860007 4293729569
-0.52437592 -3.9698782 -1.6498833 4293729569
0.93677711 -4.8317852 -1.5389771 4293729569
-0.69137192 -3.883112 -1.6550846 4293729569
0.87890244 -4.8149109 -1.5820299 4293729569
-0.8543663 -3.7973423 -1.6602823 4293729569
0.69589996 -4.7161789 -1.5982544 4293729569
-1.0013485 -3.7185488 -1.6654618 4293729569
0.48786736 -4.599474 -1.6075149 4293729569
-1.0412216 -3.7076397 -1.6984968 4293729569
0.27482605 -4.4767704 -1.6137851 4293729569
-1.0610771 -3.7077093 -1.7365066 4293729569
0.081796646 -4.3640432 -1.6210316 4293729569
-0.97982597 -3.7716694 -1.8013799 4288085770
-0.084209442 -4.2662821 -1.6322436 4293729569
-1.0777683 -3.717823 -1.8174999 4288085770
-0.26123238 -4.1595306 -1.6374731 4293729569
-1.190733 -3.651988 -1.8256427 4288085770
-0.42624664 -4.0577641 -1.6436892 4293729569
-1.337738 -3.5611877 -1.8248353 4288085770
-0.5942688 -3.9529982 -1.6469104 4293729569
-1.4987621 -3.4604006 -1.816048 4288085770
-0.75328636 -3.8512182 -1.6501224 4293729569
-1.6287575 -3.3775787 -1.8142207 4288085770
-0.88928032 -3.7634125 -1.6563042 4293729569
-1.7427387 -3.3037376 -1.8153729 4288085770
-0.97022629 -3.7075434 -1.6744145 4293729569
-1.8557205 -3.2288933 -1.8155255 4288085770
-0.94005585 -3.7215557 -1.7213752 4293729569
-1.9737148 -3.1490526 -1.8116871 4288085770
-0.8778553 -3.7555323 -1.7762927 4288085770
-2.0676823 -3.0841866 -1.8148165 4288085770
-0.87371635 -3.749568 -1.8152921 4288085770
-2.1536446 -3.0223098 -1.817937 4288085770
-0.97068977 -3.676713 -1.8244313 4288085770
-1.1237221 -3.5689144 -1.816646 4288085770
-1.2517319 -3.4750881 -1.8138289 4288085770
-1.3727417 -3.3842535 -1.8110039 4288085770
-1.4677258 -3.3093863 -1.8131443 4288085770
-1.568716 -3.2295265 -1.8122941 4288085770
-1.6606998 -3.1536551 -1.8124334 4288085770
-1.7476807 -3.0807762 -1.8125662 4288085770
-1.8186436 -3.017879 -1.8156774 4288085770
-1.902626 -2.9449935 -1.8138084 4288085770
-1.9836082 -2.8731027 -1.8099362 4288085770
-2.0515747 -2.8091998 -1.8110465 4288085770
-2.0995255 -2.7562733 -1.8161316 4288085770
-2.1474743 -2.7033453 -1.8202168 4288085770
-2.2004356 -2.6454206 -1.8203104 4288085770
-2.1857243 -1.2445278 -1.8366176 4288085770
-2.1346321 -1.2234626 -1.8385988 4288085770
-2.0795422 -1.2023916 -1.8405774 4288085770
-2.0304546 -1.1803269 -1.8405612 4288085770
-1.9773655 -1.158257 -1.840542 4288085770
-1.9222755 -1.1371846 -1.8405204 4288085770
-1.861187 -1.1161032 -1.8404943 4288085770
-1.8000965 -1.0950222 -1.840468 4288085770
-1.7400093 -1.0729399 -1.8384436 4288085770
-1.6659145 -1.0538421 -1.8404059 4288085770
-1.5968285 -1.0327487 -1.8393738 4288085770
-1.5227356 -1.0136495 -1.8383359 4288085770
-1.4236336 -0.99852133 -1.8442757 4288085770
-1.3425426 -0.97941256 -1.8442327 4288085770
-1.2764683 -0.95531797 -1.8382058 4288085770
-1.1753693 -0.93918324 -1.8401448 4288085770
-1.0852776 -0.92006111 -1.8390949 4288085770
-2.1555309 -0.69752741 -1.833101 4288085770
-0.98118401 -0.90292168 -1.8400327 4288085770
-2.0784359 -0.68042421 -1.8330588 4288085770
-0.87008667 -0.88577271 -1.8419652 4288085770
-2.009346 -0.66132879 -1.8300246 4288085770
-0.75399017 -0.86961651 -1.8428931 4288085770
-1.9342575 -0.64222479 -1.8269857 4288085770
-0.6529007 -0.84947586 -1.8388358 4288085770
-1.8541641 -0.62411547 -1.8249421 4288085770
-0.53480721 -0.83131456 -1.837764 4288085770
-1.7650681 -0.60799503 -1.8248898 4288085770
-0.4217205 -0.81215715 -1.8336967 4288085770
-1.6759777 -0.58987284 -1.8228395 4288085770
-0.286623 -0.79597282 -1.8336103 4288085770
-1.5628738 -0.57572365 -1.8267678 4288085770
-0.14953041 -0.77878523 -1.8325232 4288085770
-1.4517765 -0.56057549 -1.8286982 4288085770
0.022573471 -0.76555538 -1.8374063 4288085770
-1.3336773 -0.54541874 -1.8316233 4288085770
0.16366386 -0.74735928 -1.8333172 4288085770
-1.2345848 -0.52728033 -1.8275653 4288085770
0.32175827 -0.73014116 -1.8312142 4288085770
-1.1385002 -0.50814342 -1.8205103 4288085770
0.47584915 -0.71192551 -1.8261153 4288085770
-0.99939537 -0.49495888 -1.8254178 4288085770
0.64794159 -0.69568729 -1.8230007 4288085770
-0.87730789 -0.47778988 -1.8223418 4288085770
0.83003235 -0.67943573 -1.8208791 4288085770
-0.7422123 -0.46260595 -1.8222539 4288085770
1.0331249 -0.66415691 -1.8197407 4288085770
-0.59911537 -0.44641113 -1.8221611 4288085770
1.2412186 -0.64686871 -1.8166004 4288085770
-0.45401955 -0.43021107 -1.8200668 4288085770
1.4583111 -0.63056755 -1.8134522 4288085770
-0.3119297 -0.41301298 -1.8159755 4288085770
1.7094116 -0.61722326 -1.8132759 4288085770
-0.14983749 -0.39578915 -1.8138692 4288085770
1.9765129 -0.60285664 -1.8140886 4288085770
0.020259857 -0.38055563 -1.812755 4288085770
2.2676125 -0.58945704 -1.8148822 4288085770
0.2183609 -0.3662858 -1.8146191 4288085770
2.5687141 -0.57604265 -1.8146684 4288085770
0.40345192 -0.34902954 -1.8114953 4288085770
2.9068127 -0.56257963 -1.8164269 4288085770
0.60654831 -0.33374929 -1.8093565 4288085770
3.2829189 -0.55106354 -1.8191551 4288085770
0.83664703 -0.31843472 -1.8111972 4288085770
3.6340132 -0.53557634 -1.8149055 4288085770
1.0817451 -0.30309963 -1.8120267 4288085770
4.034111 -0.52202225 -1.8126174 4288085770
1.2928333 -0.28480101 -1.8038843 4288085770
4.4592085 -0.50743389 -1.8103114 4288085770
1.5589294 -0.26943398 -1.8026978 4288085770
4.9593096 -0.49474382 -1.8109477 4288085770
1.8450279 -0.25404024 -1.8024964 4288085770
5.5084162 -0.48398829 -1.813545 4288085770
2.1791286 -0.23958445 -1.8072582 4288085770
6.1095228 -0.47316074 -1.8161036 4288085770
2.5222225 -0.22411346 -1.8090144 4288085770
6.7406149 -0.45928717 -1.8146428 4288085770
2.8843174 -0.20761395 -1.8087569 4288085770
7.4497147 -0.44630384 -1.8121223 4288085770
3.2914152 -0.19205523 -1.8114647 4288085770
8.2308159 -0.43422127 -1.8105466 4288085770
3.7015114 -0.175488 -1.810171 4288085770
9.0709124 -0.42005396 -1.8049287 4288085770
4.1606026 -0.1578517 -1.8088415 4288085770
10.013007 -0.4057436 -1.7992343 4288085770
4.6596985 -0.14016199 -1.8084819 4288085770
11.183115 -0.39612675 -1.8023647 4288085770
5.1937904 -0.12242079 -1.806096 4288085770
12.514224 -0.38628387 -1.8033744 4288085770
5.8318892 -0.10554266 -1.8106312 4288085770
6.533988 -0.087576866 -1.8161193 4288085770
7.2440777 -0.067590237 -1.8126029 4288085770
8.1061687 -0.04739809 -1.8149726 4288085770
8.9732542 -0.024189949 -1.8083407 4288085770
10.085346 -0.0026540756 -1.8135238 4288085770
11.489454 0.017273903 -1.8324857 4288085770
12.770527 0.045061588 -1.8215464 4288085770
12.141703 0.29623556 -1.8275636 4288085770
10.729815 0.29620552 -1.8228353 4288085770
9.4999237 0.2984333 -1.820945 4288085770
8.4410343 0.30090809 -1.8189005 4288085770
7.493145 0.30454111 -1.8177572 4288085770
6.6472511 0.30932283 -1.815523 4288085770
5.8753567 0.3142128 -1.8102221 4288085770
12.427411 0.32963562 -1.8182888 4288085770
5.2064657 0.31924725 -1.8098285 4288085770
11.004512 0.33958435 -1.8185821 4288085770
4.5805702 0.32634497 -1.8073982 4288085770
9.711607 0.34972668 -1.8107586 4288085770
4.0336771 0.33255529 -1.8058956 4288085770
8.6717119 0.35922337 -1.8137051 4288085770
3.5457878 0.33884811 -1.8073398 4288085770
7.7158117 0.36984491 -1.8125772 4288085770
3.081892 0.34617853 -1.8047634 4288085770
6.8789158 0.37863684 -1.81234 4288085770
2.6389942 0.35454035 -1.8021692 4288085770
6.1070166 0.38852453 -1.8100452 4288085770
2.2411003 0.36196518 -1.8005335 4288085770
5.3991137 0.39950514 -1.8056936 4288085770
1.8662014 0.3694253 -1.7968771 4288085770
4.7882147 0.40962315 -1.8052535 4288085770
1.545311 0.37695694 -1.7991719 4288085770
4.2263165 0.4198122 -1.8037691 4288085770
1.2484188 0.38552332 -1.802446 4288085770
3.732419 0.43109608 -1.8052244 4288085770
0.97452545 0.39512157 -1.8057003 4288085770
3.2745228 0.44143105 -1.8066462 4288085770
0.68862534 0.40370989 -1.8019648 4288085770
2.811615 0.45176697 -1.8000727 4288085770
0.42572784 0.4123292 -1.8002084 4288085770
2.417717 0.46219826 -1.7984369 4288085770
0.20083427 0.42199802 -1.8044184 4288085770
2.056818 0.47267389 -1.7987711 4288085770
-0.03106308 0.43066263 -1.8016343 4288085770
1.7309208 0.4842 -1.8000747 4288085770
-0.22095299 0.44038105 -1.8068129 4288085770
1.4110222 0.49473858 -1.797372 4288085770
-0.42385292 0.45008516 -1.8060033 4288085770
1.1481285 0.50635052 -1.8036186 4288085770
-0.62074852 0.45979977 -1.8041883 4288085770
0.88222885 0.51696253 -1.804867 4288085770
-0.79564285 0.46954298 -1.8053536 4288085770
0.63633347 0.52860355 -1.8060983 4288085770
-0.9555378 0.47930622 -1.8085052 4288085770
0.37943268 0.53923368 -1.802339 4288085770
-1.1154346 0.49007225 -1.8086578 4288085770
0.16352844 0.55091238 -1.8045437 4288085770
-1.2453327 0.50087023 -1.8157839 4288085770
-0.052370071 0.56159925 -1.8027471 4288085770
-1.4102325 0.5106349 -1.8099401 4288085770
-0.24626732 0.57331562 -1.8039314 4288085770
-1.5611343 0.52041769 -1.8060839 4288085770
-0.43016624 0.58504581 -1.8051068 4288085770
-1.6740246 0.53124523 -1.8121936 4288085770
-0.60206604 0.59679317 -1.8062712 4288085770
-1.8039246 0.54205513 -1.8113195 4288085770
-0.77396393 0.60854197 -1.8064358 4288085770
-1.9238224 0.55287838 -1.8114359 4288085770
-0.92986298 0.62031221 -1.8075858 4288085770
-2.0387173 0.56370878 -1.8115479 4288085770
-1.058754 0.63311815 -1.8127121 4288085770
-2.158617 0.57453632 -1.8076645 4288085770
-1.207655 0.64390087 -1.811855 4288085770
-1.332552 0.65671349 -1.8159778 4288085770
-1.4794559 0.66750336 -1.810119 4288085770
-1.6073551 0.67931652 -1.8092438 4288085770
-1.7302551 0.69113731 -1.8073642 4288085770
-1.8381538 0.70397615 -1.8094717 4288085770
-1.9390564 0.71682549 -1.810573 4288085770
-2.0469551 0.72866726 -1.8096797 4288085770
-2.1518536 0.74051428 -1.8077838 4288085770
-2.1199245 2.9012303 -1.7984003 4288085770
-2.0158672 2.9423785 -1.797335 4288085770
-1.9098129 2.9845309 -1.7952687 4288085770
-1.7717705 3.0407224 -1.8011842 4288085770
-1.6427212 3.0899053 -1.8021022 4288085770
-1.5076771 3.1410956 -1.8040159 4288085770
-1.363636 3.1952999 -1.8059238 4288085770
-1.2105961 3.2515149 -1.8098248 4288085770
-2.1839371 2.8321078 -1.8013743 4288085770
-1.0575542 3.3057325 -1.8107238 4288085770
-2.0788727 2.8642592 -1.7982997 4288085770
-0.89752197 3.3619609 -1.8116181 4288085770
-1.9578094 2.9034297 -1.8002162 4288085770
-0.71749115 3.4252143 -1.8164994 4288085770
-1.833746 2.9416056 -1.8011287 4288085770
-0.52446365 3.492486 -1.8223718 4288085770
-1.692688 2.9868023 -1.8060312 4288085770
-0.34943008 3.5487378 -1.8212513 4288085770
-1.569622 3.0219793 -1.8039418 4288085770
-0.14840508 3.6150227 -1.8251147 4288085770
-1.4235649 3.0651853 -1.8068376 4288085770
0.051622391 3.677309 -1.8259755 4288085770
-1.2925014 3.099375 -1.8037395 4288085770
0.27264404 3.747623 -1.8298234 4288085770
-1.1574364 3.1345701 -1.8006386 4288085770
0.49965858 3.8189471 -1.8326662 4288085770
-0.98438263 3.1838119 -1.8075137 4288085770
0.72868347 3.8862748 -1.8345035 4288085770
-0.83132553 3.223032 -1.8063989 4288085770
0.97069931 3.9566219 -1.8353307 4288085770
-0.629282 3.2813122 -1.8172542 4288085770
1.2317104 4.0329952 -1.8381451 4288085770
-0.46222115 3.3215513 -1.8171266 4288085770
1.4927216 4.1063704 -1.8389567 4288085770
-0.29216194 3.3607969 -1.8149952 4288085770
1.797718 4.1938052 -1.8447385 4288085770
-0.099107742 3.4070716 -1.8178478 4288085770
2.1027184 4.2772417 -1.8485166 4288085770
0.086948395 3.4483383 -1.8177028 4288085770
2.4237118 4.3647013 -1.8522826 4288085770
0.29899979 3.4976397 -1.82154 4288085770
2.7906914 4.4662242 -1.8610172 4288085770
0.50905037 3.5429409 -1.8223751 4288085770
3.1256876 4.5497074 -1.8607661 4288085770
0.73210144 3.591259 -1.8252006 4288085770
3.4776793 4.6362166 -1.8605011 4288085770
0.95715332 3.6375818 -1.826022 4288085770
3.9416285 4.7628746 -1.8751642 4288085770
1.1932049 3.6839199 -1.8278328 4288085770
4.3506031 4.8614645 -1.8768549 4288085770
1.4452553 3.7332807 -1.8306309 4288085770
4.7955723 4.9681044 -1.8815178 4288085770
1.7003059 3.7806466 -1.8324242 4288085770
5.2835245 5.0858049 -1.8871491 4288085770
1.981348 3.8350487 -1.8361986 4288085770
5.8174658 5.2135715 -1.895745 4288085770
2.2513981 3.8814373 -1.8369763 4288085770
6.3244219 5.3253036 -1.8973521 4288085770
2.5614395 3.9388795 -1.8427252 4288085770
6.8743687 5.4460983 -1.8999257 4288085770
2.8684864 3.9903195 -1.8464714 4288085770
7.4513083 5.5689325 -1.901475 4288085770
3.1725378 4.0367579 -1.847216 4288085770
8.1172218 5.7158899 -1.9109597 4288085770
3.5015831 4.0882306 -1.8499409 4288085770
8.7561541 5.8448167 -1.910454 4288085770
3.8316336 4.1357069 -1.8506609 4288085770
9.4780645 5.9928579 -1.9168851 4288085770
4.1966772 4.1892309 -1.8543526 4288085770
10.330929 6.1760836 -1.9312212 4288085770
4.5417309 4.2327304 -1.8540542 4288085770
11.148823 6.3342686 -1.9335681 4288085770
4.9517717 4.2903185 -1.8597057 4288085770
12.069686 6.5145979 -1.9418353 4288085770
5.371809 4.3459225 -1.8643458 4288085770
5.7648659 4.3874927 -1.862999 4288085770
6.1649246 4.426074 -1.8606423 4288085770
6.5989799 4.4707007 -1.8622583 4288085770
7.0890274 4.5234065 -1.8668272 4288085770
7.5790777 4.5711145 -1.8693913 4288085770
8.0981293 4.6188641 -1.8729272 4288085770
8.6141939 4.6576114 -1.8734577 4288085770
9.1412592 4.6943765 -1.8729756 4288085770
9.7213192 4.7362156 -1.8754464 4288085770
10.312383 4.7750711 -1.8779037 4288085770
10.919456 4.806952 -1.8783392 4288085770
11.526538 4.829834 -1.8767661 4288085770
12.208614 4.8628221 -1.8801292 4288085770
12.221022 -4.3781977 -1.6874974 4293729569
11.560093 -4.3461666 -1.6881704 4293729569
10.934162 -4.3120861 -1.6888112 4293729569
10.35224 -4.2829418 -1.6924045 4293729569
9.7933121 -4.2497635 -1.6949791 4293729569
9.2723951 -4.2215338 -1.7015121 4293729569
8.79848 -4.1962357 -1.7089964 4293729569
8.3555765 -4.1748924 -1.717447 4293729569
7.9336739 -4.1535225 -1.7288769 4293729569
7.5467777 -4.1361027 -1.7412694 4288085770
7.172883 -4.1186638 -1.7546489 4288085770
6.8189869 -4.1011953 -1.7680089 4288085770
6.4810953 -4.0837059 -1.7823535 4288085770
11.914619 -5.8986015 -1.5853899 4293729569
6.1291828 -4.0562334 -1.7937208 4288085770
11.005475 -5.7179346 -1.586441 4293729569
5.78827 -4.0287447 -1.8050774 4288085770
10.149335 -5.5421886 -1.5884361 4293729569
5.4123259 -3.9843025 -1.8094838 4288085770
9.3642168 -5.3803415 -1.5903491 4293729569
5.0753984 -3.946806 -1.8188457 4288085770
8.6711321 -5.2403612 -1.595152 4293729569
4.70644 -3.8943481 -1.8202525 4288085770
8.0380688 -5.1112967 -1.6028866 4293729569
4.2624235 -3.8099918 -1.8087616 4288085770
7.3559599 -4.9572945 -1.6016918 4293729569
3.8944454 -3.7465296 -1.8061776 4288085770
6.8699551 -4.8650198 -1.6152492 4293729569
3.539465 -3.6820488 -1.8025817 4288085770
6.2998857 -4.7358589 -1.6169223 4293729569
3.2285109 -3.6315098 -1.80493 4288085770
5.8318682 -4.6375542 -1.6264673 4293729569
2.9205494 -3.5759621 -1.80428 4288085770
5.3918591 -4.5442085 -1.6369808 4293729569
2.6285877 -3.5223942 -1.8056126 4288085770
4.9498367 -4.4438639 -1.6425025 4293729569
2.330616 -3.4628296 -1.8029566 4288085770
4.5068007 -4.3365183 -1.6460316 4293729569
2.051651 -3.4072418 -1.8022784 4288085770
4.1027803 -4.2391157 -1.6505135 4293729569
1.7916946 -3.3556252 -1.8035778 4288085770
3.7367783 -4.1526604 -1.6579484 4293729569
1.5657558 -3.3139648 -1.808835 4288085770
3.4077959 -4.0761547 -1.6683379 4293729569
1.3037815 -3.2533484 -1.8051447 4288085770
3.0427685 -3.9796906 -1.6687808 4293729569
1.092844 -3.2116632 -1.8103874 4288085770
2.7668114 -3.9171104 -1.6821058 4293729569
0.85186958 -3.1550179 -1.8086731 4288085770
2.5899143 -3.8933964 -1.7102989 4293729569
0.65393066 -3.1123152 -1.8129038 4288085770
2.4940834 -3.9015751 -1.7503834 4288085770
0.44297218 -3.060627 -1.8121555 4288085770
2.3462086 -3.8858213 -1.7805403 4288085770
0.24502182 -3.0129209 -1.8133909 4288085770
2.2103424 -3.8720512 -1.8126841 4288085770
0.038057327 -2.9582262 -1.8116413 4288085770
1.973381 -3.8114119 -1.8249692 4288085770
-0.14389038 -2.9124966 -1.8128594 4288085770
1.6733589 -3.7178526 -1.8223457 4288085770
-0.33485603 -2.8587775 -1.8100933 4288085770
1.3733273 -3.6202888 -1.8157263 4288085770
-0.49979591 -2.8160248 -1.8132919 4288085770
1.0832958 -3.5237093 -1.8090961 4288085770
-0.66874695 -2.7682748 -1.8124988 4288085770
0.82829094 -3.4410849 -1.8054187 4288085770
-0.82769585 -2.7225118 -1.8126942 4288085770
0.57728004 -3.3564501 -1.8017395 4288085770
-0.96362495 -2.6867189 -1.8188581 4288085770
0.36730003 -3.2867641 -1.8040062 4288085770
-1.1245842 -2.6359553 -1.8160599 4288085770
0.17432976 -3.2250538 -1.8082494 4288085770
-1.2445068 -2.6031423 -1.8242054 4288085770
-0.02665329 -3.1553516 -1.8085074 4288085770
-1.3864555 -2.5583525 -1.8233833 4288085770
-0.22664261 -3.0836458 -1.8067664 4288085770
-1.5193996 -2.5155516 -1.8235506 4288085770
-0.40561485 -3.0209126 -1.8079967 4288085770
-1.6493435 -2.4727459 -1.8247149 4288085770
-0.5715847 -2.9611602 -1.8092115 4288085770
-1.7823048 -2.4259419 -1.8218858 4288085770
-0.73655891 -2.8994055 -1.8104273 4288085770
-1.9022465 -2.3841214 -1.8220395 4288085770
-0.89653015 -2.839644 -1.8106363 4288085770
-2.0101795 -2.3472857 -1.8251768 4288085770
-1.0224724 -2.793839 -1.8187991 4288085770
-2.1231213 -2.3054552 -1.8253235 4288085770
-1.176445 -2.7330661 -1.8170033 4288085770
-1.3164082 -2.6762753 -1.8171899 4288085770
-1.4433632 -2.6244659 -1.8193591 4288085770
-1.5693207 -2.5726552 -1.8205273 4288085770
-1.6892776 -2.5208354 -1.82169 4288085770
-1.8072376 -2.4690113 -1.8208504 4288085770
-1.9181881 -2.4201784 -1.8220012 4288085770
-2.0301476 -2.3683453 -1.8211559 4288085770
-2.1270905 -2.3244939 -1.8242885 4288085770
-2.0669155 -0.15573978 -1.8098537 4288085770
-1.9798203 -0.14161396 -1.8067729 4288085770
-1.8777199 -0.12846851 -1.8076758 4288085770
-1.7706165 -0.11631632 -1.8085728 4288085770
-1.671524 -0.1021719 -1.8044796 4288085770
-1.563427 -0.089015007 -1.802376 4288085770
-1.4333267 -0.076830864 -1.805249 4288085770
-1.3022213 -0.064644337 -1.8071209 4288085770
-1.1741276 -0.051458359 -1.8049966 4288085770
-2.1001835 0.032175064 -1.8130242 4288085770
-1.0470295 -0.038273335 -1.8018731 4288085770
-1.9850769 0.043337345 -1.8159118 4288085770
-0.90292931 -0.02606535 -1.8017313 4288085770
-1.881979 0.055487156 -1.8128127 4288085770
-0.74682999 -0.013841152 -1.801577 4288085770
-1.7708797 0.066648006 -1.8107042 4288085770
-0.57672501 -0.0025963783 -1.8034072 4288085770
-1.6637878 0.07880497 -1.8056008 4288085770
-0.40563011 0.010650158 -1.8032379 4288085770
-1.541687 0.090981007 -1.8044816 4288085770
-0.2345295 0.022899628 -1.8010677 4288085770
-1.4145889 0.1021657 -1.8023564 4288085770
-0.046430588 0.035172462 -1.7998799 4288085770
-1.2644806 0.11237955 -1.8052064 4288085770
0.16867256 0.046481609 -1.8026632 4288085770
-1.1183796 0.12458944 -1.8050623 4288085770
0.36577034 0.058769703 -1.7984655 4288085770
-0.95227432 0.13482761 -1.8078955 4288085770
0.6038723 0.071113586 -1.8002254 4288085770
-0.79817581 0.14605188 -1.804742 4288085770
0.86297607 0.082487583 -1.8039626 4288085770
-0.61606979 0.15631294 -1.8075585 4288085770
1.1180782 0.093858242 -1.8027037 4288085770
-0.41896439 0.16759443 -1.8113601 4288085770
1.3851757 0.1062479 -1.8004332 4288085770
-0.24886894 0.17884493 -1.8061898 4288085770
1.6702747 0.11766434 -1.7981445 4288085770
-0.050769806 0.18913269 -1.804991 4288085770
1.9913731 0.1301322 -1.7978176 4288085770
0.16133308 0.19944048 -1.8037758 4288085770
2.347477 0.14164782 -1.8004532 4288085770
0.39043427 0.21077156 -1.8045439 4288085770
2.7335815 0.15220785 -1.8030565 4288085770
0.64554405 0.22013998 -1.806283 4288085770
3.1436863 0.16380358 -1.8046358 4288085770
0.87663651 0.23148012 -1.8000486 4288085770
3.5927896 0.175457 -1.806174 4288085770
1.1727448 0.24090672 -1.8037448 4288085770
4.0798903 0.1881671 -1.8066734 4288085770
1.4488411 0.25131226 -1.7994624 4288085770
4.6009893 0.19992733 -1.8061365 4288085770
1.7869492 0.26180077 -1.8031155 4288085770
5.2010965 0.21080065 -1.8095161 4288085770
2.1310558 0.27130127 -1.8027613 4288085770
5.865201 0.22276831 -1.8128295 4288085770
2.5191612 0.28186369 -1.8063618 4288085770
6.5963078 0.23483276 -1.817073 4288085770
2.929266 0.29145956 -1.8079383 4288085770
7.4014101 0.2470088 -1.818239 4288085770
3.3843746 0.30112076 -1.810468 4288085770
8.2715082 0.25928307 -1.8153367 4288085770
3.8464785 0.31079578 -1.80899 4288085770
9.2886143 0.27176857 -1.8182809 4288085770
4.3835878 0.31957626 -1.8124325 4288085770
10.452718 0.2844696 -1.8210711 4288085770
4.9746943 0.3294363 -1.8158195 4288085770
11.854828 0.29751587 -1.828613 4288085770
5.623805 0.33838177 -1.8191448 4288085770
6.3409138 0.34742785 -1.8213989 4288085770
7.1460247 0.35659981 -1.8265606 4288085770
8.0241327 0.3648839 -1.8266448 4288085770
9.00424 0.37231731 -1.8266214 4288085770
10.158355 0.38000393 -1.8294157 4288085770
11.574477 0.38806534 -1.8429358 4288085770
12.114672 0.64909887 -1.8408531 4288085770
10.755772 0.66658783 -1.835552 4288085770
9.6538687 0.68435526 -1.8373115 4288085770
8.6089706 0.70019293 -1.8320825 4288085770
7.7440681 0.71722507 -1.8328969 4288085770
6.9651699 0.73335218 -1.8337308 4288085770
6.2212734 0.74752569 -1.8285711 4288085770
12.929066 0.99399376 -1.8173863 4288085770
5.5993738 0.76282692 -1.829441 4288085770
11.546178 1.0014522 -1.8160707 4288085770
4.9964781 0.77715492 -1.8263144 4288085770
10.323289 1.0080905 -1.8127919 4288085770
4.4425821 0.79053926 -1.8211985 4288085770
9.3433943 1.0189898 -1.8175741 4288085770
3.9656849 0.80500317 -1.8211017 4288085770
8.4175005 1.0279551 -1.8173672 4288085770
3.5027905 0.81748819 -1.8170062 4288085770
7.6206064 1.0390601 -1.8201927 4288085770
3.0758953 0.83101273 -1.8129205 4288085770
6.8827133 1.0492344 -1.8200309 4288085770
2.6959991 0.84458494 -1.8128456 4288085770
6.2048197 1.0594776 -1.8178835 4288085770
2.3541031 0.8581996 -1.8127795 4288085770
