# .PCD v0.7 - Point Cloud Data file format
VERSION 0.7
FIELDS x y z rgb
SIZE 4 4 4 4
TYPE F F F U
COUNT 1 1 1 1
WIDTH 1129
HEIGHT 1
VIEWPOINT 0 0 0 1 0 0 0
POINTS 1129
DATA ascii
3.605957 0.01606679 -1.7825352 4288085770
3.582428 1.9716572 -1.7359122 4288085770
3.6925354 1.9987334 -1.7357692 4288085770
3.8036499 2.0258288 -1.7346293 4288085770
3.9277496 2.0548944 -1.7355684 4288085770
4.0788116 2.0938425 -1.7437807 4288085770
4.21492 2.1249151 -1.7447954 4288085770
4.3260498 2.1461244 -1.7375427 4288085770
4.4921265 2.1841011 -1.7447833 4288085770
3.5973663 1.9015068 -1.7416056 4288085770
4.6082611 2.2043705 -1.7345282 4288085770
3.704483 1.9196206 -1.739283 4288085770
4.7623596 2.236454 -1.7356182 4288085770
3.8275909 1.9426674 -1.741105 4288085770
4.9234619 2.2685599 -1.7357305 4288085770
3.9566956 1.9656991 -1.7439455 4288085770
5.0975494 2.3026366 -1.7379216 4288085770
4.0897827 1.9887518 -1.7457989 4288085770
5.2566681 2.3298168 -1.7339333 4288085770
4.2108917 2.0058742 -1.7435018 4288085770
5.4447784 2.3649206 -1.7351872 4288085770
4.3530121 2.028914 -1.7463831 4288085770
5.6438751 2.4019923 -1.7385131 4288085770
4.5061035 2.0529413 -1.7503182 4288085770
5.8409729 2.4351397 -1.737758 4288085770
4.6212463 2.0641737 -1.7418891 4288085770
6.0470734 2.4692917 -1.7370499 4288085770
4.7753601 2.0852594 -1.7427708 4288085770
6.2811584 2.5103846 -1.7405621 4288085770
4.9284515 2.104363 -1.7426115 4288085770
6.5202484 2.5494804 -1.7440518 4288085770
5.088562 2.1244712 -1.7424933 4288085770
6.7633514 2.587636 -1.7445356 4288085770
5.2626648 2.1455488 -1.7444381 4288085770
6.99646 2.6188622 -1.7408563 4288085770
5.4297791 2.1626806 -1.7432848 4288085770
7.2665405 2.6599956 -1.7434813 4288085770
5.5879059 2.1768632 -1.7390472 4288085770
7.5386658 2.6981869 -1.7430564 4288085770
5.8010101 2.2038708 -1.7462271 4288085770
7.8547211 2.7443104 -1.7479211 4288085770
5.9731293 2.2160811 -1.7409958 4288085770
8.1608276 2.7855034 -1.7486597 4288085770
6.1862335 2.2381644 -1.7440816 4288085770
8.4889221 2.8287101 -1.7495056 4288085770
6.3903503 2.2543187 -1.7430261 4288085770
8.868988 2.8808517 -1.7556852 4288085770
6.6204376 2.2744126 -1.7461275 4288085770
9.2540741 2.9300356 -1.7598237 4288085770
6.8375702 2.2895942 -1.744094 4288085770
9.5352478 2.9475193 -1.7440315 4288085770
7.0526886 2.3008122 -1.7399787 4288085770
9.9083405 2.9848475 -1.739906 4288085770
7.3017883 2.3179364 -1.7420832 4288085770
10.358414 3.0380702 -1.7443248 4288085770
7.5309296 2.3281641 -1.7379929 4288085770
10.84549 3.094296 -1.7499162 4288085770
7.8020325 2.3443217 -1.7391475 4288085770
11.368561 3.152524 -1.7566589 4288085770
8.0761414 2.3584995 -1.7392739 4288085770
11.886642 3.2038455 -1.7582537 4288085770
8.3532715 2.3686996 -1.7383341 4288085770
12.395752 3.2482562 -1.7546881 4288085770
8.6353912 2.3779397 -1.735391 4288085770
12.951843 3.2946758 -1.7523085 4288085770
8.9724884 2.395062 -1.7407714 4288085770
13.538956 3.3431149 -1.7500638 4288085770
9.2926178 2.4052882 -1.7399665 4288085770
14.138092 3.3856373 -1.7437438 4288085770
9.6147308 2.4105353 -1.7380737 4288085770
14.764221 3.4261956 -1.7364711 4288085770
9.9668579 2.4187617 -1.7383314 4288085770
15.488297 3.4787173 -1.734733 4288085770
10.33197 2.4239979 -1.7385732 4288085770
16.232422 3.5263276 -1.7289635 4288085770
10.728088 2.4312329 -1.7399498 4288085770
17.028534 3.572988 -1.722339 4288085770
11.11821 2.431541 -1.7371761 4288085770
17.912643 3.6266642 -1.7181233 4288085770
11.514343 2.4278536 -1.7343451 4288085770
11.936478 2.4251628 -1.7326146 4288085770
12.381607 2.419486 -1.7308995 4288085770
12.858734 2.4138107 -1.7302846 4288085770
13.381851 2.4071259 -1.7317954 4288085770
13.892014 2.3925099 -1.7291142 4288085770
14.430161 2.3749113 -1.7264642 4288085770
14.9673 2.3523507 -1.7217163 4288085770
15.549454 2.3257995 -1.7180341 4288085770
16.204575 2.3011985 -1.7196187 4288085770
16.810776 2.2627392 -1.7117847 4288085770
17.474915 2.222259 -1.707095 4288085770
18.181107 2.1777868 -1.7034611 4288085770
12.06662 -5.1276426 -0.88668787 4293729569
11.984726 -5.1533751 -0.23182595 4293729569
12.006668 -5.2014246 -0.92510951 4293729569
11.977768 -5.2461977 -0.27405345 4293729569
17.31987 -7.846004 -1.5427474 4293729569
16.237854 -7.5102572 -1.520718 4293729569
15.471832 -7.2997851 -1.5233094 4293729569
14.777817 -7.1072669 -1.5257853 4293729569
13.862823 -6.8054118 -1.5036365 4293729569
13.139832 -6.5766907 -1.4947053 4293729569
12.587845 -6.4191542 -1.5009633 4293729569
12.069855 -6.2685771 -1.5061959 4293729569
11.600845 -6.1340427 -1.5152785 4293729569
11.142868 -5.9974456 -1.5214339 4293729569
10.726898 -5.874876 -1.5304555 4293729569
10.328903 -5.7532778 -1.5385147 4293729569
9.9029388 -5.6135669 -1.5398284 4293729569
9.5169678 -5.4879045 -1.5450016 4293729569
9.1949921 -5.3883309 -1.556882 4293729569
13.684814 -7.7247391 -1.4496413 4293729569
8.8790283 -5.2887158 -1.5667814 4293729569
12.995743 -7.4493256 -1.4587027 4293729569
8.5710602 -5.1870584 -1.5747443 4293729569
12.369675 -7.1989074 -1.4694887 4293729569
8.2760773 -5.0884113 -1.583691 4293729569
11.787613 -6.9624782 -1.4811472 4293729569
7.9681244 -4.9776621 -1.586825 4293729569
11.285568 -6.7620506 -1.4953743 4293729569
7.6681671 -4.8669071 -1.5899845 4293729569
10.835526 -6.5826254 -1.5113665 4293729569
7.3751984 -4.7551103 -1.5911852 4293729569
10.375504 -6.3921142 -1.5225366 4293729569
7.1472626 -4.6764569 -1.6019627 4293729569
9.9134674 -6.1945295 -1.5298339 4293729569
6.8932953 -4.5787091 -1.6070195 4293729569
9.4894562 -6.0119381 -1.5379661 4293729569
6.6343384 -4.4748716 -1.6071757 4293729569
9.0914459 -5.8363109 -1.5450476 4293729569
6.3964081 -4.3780575 -1.6092645 4293729569
8.7054443 -5.664638 -1.5500916 4293729569
6.2114563 -4.3093762 -1.6199876 4293729569
8.3834381 -5.5220342 -1.5607854 4293729569
6.0045166 -4.2245789 -1.6239458 4293729569
8.04245 -5.3663125 -1.5646676 4293729569
5.8305511 -4.1558905 -1.6347033 4293729569
7.7194519 -5.2156162 -1.5705112 4293729569
5.650589 -4.0811319 -1.6415564 4293729569
7.4204865 -5.0748658 -1.5742406 4293729569
5.4836578 -4.0123825 -1.6493365 4293729569
7.1565094 -4.9521856 -1.5827383 4293729569
5.4186707 -4.0010128 -1.6803521 4293729569
6.9205322 -4.8405237 -1.5931147 4293729569
5.3746796 -4.0007238 -1.7162243 4288085770
6.6515656 -4.7077155 -1.5947875 4293729569
5.3347015 -4.0024304 -1.7520713 4288085770
6.4185944 -4.591959 -1.6002504 4293729569
5.2707214 -3.9860425 -1.7821845 4288085770
6.1986237 -4.4811931 -1.6056594 4293729569
5.1177826 -3.9142289 -1.7870654 4288085770
5.9886627 -4.3733835 -1.609043 4293729569
4.9468536 -3.8282971 -1.7851564 4288085770
5.800705 -4.2766137 -1.6152867 4293729569
4.7909241 -3.7484117 -1.7861799 4288085770
5.6247559 -4.1848741 -1.623473 4293729569
4.6539917 -3.6795683 -1.7900542 4288085770
5.4807892 -4.1101875 -1.6354369 4293729569
4.5020752 -3.5976057 -1.7871288 4288085770
5.3268433 -4.026433 -1.6435403 4293729569
4.3551483 -3.5176392 -1.7841812 4288085770
5.2638397 -3.9970284 -1.672902 4293729569
4.2132416 -3.4396501 -1.780212 4288085770
5.2528534 -3.9987926 -1.7128373 4293729569
4.0942993 -3.3717589 -1.7821239 4288085770
5.2368469 -3.995543 -1.7518517 4288085770
3.968399 -3.299778 -1.7790908 4288085770
5.2148438 -3.9872594 -1.7889422 4288085770
3.8694611 -3.242929 -1.7838565 4288085770
5.0439301 -3.8832932 -1.7853731 4288085770
3.7765198 -3.1880946 -1.7896029 4288085770
4.8889771 -3.7883344 -1.782684 4288085770
3.6716309 -3.1241374 -1.7884835 4288085770
4.7530518 -3.7034369 -1.7838639 4288085770
3.5737152 -3.0631943 -1.7883288 4288085770
4.6281128 -3.6245327 -1.7849647 4288085770
4.4922028 -3.5365419 -1.7812024 4288085770
4.3702698 -3.4555981 -1.7803508 4288085770
4.2583313 -3.3796663 -1.7804357 4288085770
4.1544189 -3.3077288 -1.7804695 4288085770
4.0455017 -3.2307572 -1.7785829 4288085770
3.9515991 -3.1628129 -1.7785724 4288085770
3.8726654 -3.1039143 -1.781438 4288085770
3.7947235 -3.0430155 -1.7843443 4288085770
3.7168121 -2.9810603 -1.7842702 4288085770
3.6468964 -2.9241369 -1.786126 4288085770
3.5839844 -2.8702278 -1.7889465 4288085770
6.4126587 -0.71106106 -1.7900993 4288085770
4.9876099 -0.54293019 -1.8001021 4288085770
6.6187744 -0.69693953 -1.7889382 4288085770
5.1237335 -0.52882147 -1.7977418 4288085770
6.8448792 -0.68384588 -1.7898155 4288085770
5.2708435 -0.51472658 -1.7964131 4288085770
7.0690002 -0.67071581 -1.7886869 4288085770
5.4219666 -0.4996115 -1.7941133 4288085770
7.3121338 -0.65657771 -1.78763 4288085770
5.5800934 -0.48447526 -1.7908341 4288085770
7.5732269 -0.6434316 -1.7866064 4288085770
5.762207 -0.47140068 -1.7915853 4288085770
7.8633575 -0.63132703 -1.7886461 4288085770
5.9493256 -0.45728767 -1.7903694 4288085770
8.2094421 -0.62128848 -1.7958077 4288085770
6.1514435 -0.44318628 -1.7901958 4288085770
8.4895935 -0.60498726 -1.7868928 4288085770
6.3575592 -0.42904627 -1.7880336 4288085770
8.7967377 -0.58867413 -1.7780541 4288085770
6.5846863 -0.4149338 -1.7879301 4288085770
9.1608582 -0.57544488 -1.7753218 4288085770
6.8117981 -0.39976609 -1.7848455 4288085770
9.565979 -0.56323338 -1.7746872 4288085770
7.0529327 -0.3855921 -1.7817818 4288085770
10.003098 -0.55000806 -1.7741612 4288085770
7.3320465 -0.37245572 -1.7818071 4288085770
10.512222 -0.53980464 -1.7767843 4288085770
7.6381531 -0.35834432 -1.7839268 4288085770
10.984344 -0.52441674 -1.7683944 4288085770
7.965271 -0.34524131 -1.7870873 4288085770
11.541473 -0.51106411 -1.764208 4288085770
8.3053894 -0.33105922 -1.7863034 4288085770
12.187607 -0.499744 -1.7642373 4288085770
8.6455231 -0.31580412 -1.7815374 4288085770
12.828735 -0.48528039 -1.756307 4288085770
8.9946594 -0.3004899 -1.7737967 4288085770
13.54187 -0.47076601 -1.7475802 4288085770
9.4277649 -0.2862848 -1.7742752 4288085770
14.346039 -0.45617378 -1.7371114 4288085770
9.8948975 -0.27104568 -1.7738672 4288085770
15.288177 -0.44359267 -1.7309963 4288085770
10.40799 -0.25678611 -1.7735714 4288085770
16.436295 -0.43304694 -1.7324272 4288085770
10.965134 -0.24148822 -1.7724177 4288085770
17.72641 -0.42238271 -1.7312599 4288085770
11.546249 -0.2251066 -1.7673501 4288085770
12.210373 -0.20872414 -1.7645169 4288085770
12.906525 -0.1912539 -1.7577919 4288085770
13.680649 -0.1737119 -1.7492872 4288085770
14.622772 -0.15622306 -1.7482566 4288085770
15.697906 -0.13865578 -1.7466012 4288085770
16.918015 -0.11904168 -1.7463909 4288085770
18.312149 -0.098258138 -1.7416908 4288085770
18.052048 0.10494077 -1.7347165 4288085770
16.696152 0.10906041 -1.7417713 4288085770
15.550232 0.11523187 -1.7523319 4288085770
14.506348 0.12056482 -1.7571038 4288085770
13.550446 0.12699747 -1.7590927 4288085770
12.69754 0.13450038 -1.7603298 4288085770
11.916672 0.14209533 -1.7587289 4288085770
18.401794 0.20129168 -1.7261304 4288085770
11.262787 0.14964533 -1.76341 4288085770
17.006882 0.21137023 -1.7342159 4288085770
10.679886 0.15821314 -1.7692684 4288085770
15.850983 0.22151661 -1.745833 4288085770
10.112 0.1659162 -1.7681435 4288085770
14.766083 0.23082674 -1.7505931 4288085770
9.6021118 0.17461276 -1.7691664 4288085770
13.804184 0.24123633 -1.7536458 4288085770
9.1412201 0.18333399 -1.7702988 4288085770
12.967285 0.25170946 -1.7569779 4288085770
8.7053375 0.19210446 -1.7694877 4288085770
12.20639 0.26224005 -1.7594794 4288085770
8.3154602 0.20184362 -1.7717968 4288085770
11.504517 0.27185559 -1.7590955 4288085770
7.9625549 0.21058333 -1.7751702 4288085770
10.912613 0.2834177 -1.7649916 4288085770
7.6356812 0.22033656 -1.7786199 4288085770
10.35672 0.29405284 -1.7679507 4288085770
7.3057861 0.23019731 -1.776065 4288085770
9.8488159 0.30473113 -1.770017 4288085770
6.9949036 0.23906815 -1.7735342 4288085770
9.3539581 0.31452549 -1.7660958 4288085770
6.7290344 0.24888873 -1.7751206 4288085770
8.9160767 0.3252759 -1.7663187 4288085770
6.4501495 0.25881207 -1.7706803 4288085770
8.5291748 0.33599794 -1.7696549 4288085770
6.2112427 0.26864648 -1.7723278 4288085770
8.1802826 0.34772074 -1.7740935 4288085770
5.987381 0.2795068 -1.7730268 4288085770
7.8334045 0.35855412 -1.7725202 4288085770
5.7894745 0.28932548 -1.7767652 4288085770
7.5115204 0.36938202 -1.7720021 4288085770
5.5895996 0.29919791 -1.7774998 4288085770
7.1956329 0.37928629 -1.7674805 4288085770
5.3986969 0.31005681 -1.7792727 4288085770
6.9087524 0.39015043 -1.7660412 4288085770
5.2238159 0.32092381 -1.7810813 4288085770
6.6398773 0.40102351 -1.7646416 4288085770
5.0629425 0.33179796 -1.782921 4288085770
6.4079742 0.41284287 -1.767342 4288085770
4.8860626 0.34175515 -1.779708 4288085770
6.1781006 0.4237361 -1.7660292 4288085770
4.7471619 0.35358536 -1.7846149 4288085770
5.9782104 0.43555331 -1.7698008 4288085770
4.5812836 0.363603 -1.7784275 4288085770
5.7883301 0.44739425 -1.7725943 4288085770
4.46138 0.37442493 -1.7843577 4288085770
5.6044312 0.45927453 -1.7734021 4288085770
4.3524933 0.38721597 -1.7923485 4288085770
5.4365234 0.47112656 -1.776245 4288085770
4.2116241 0.39720964 -1.7882167 4288085770
5.2736511 0.48398077 -1.7791172 4288085770
4.0957336 0.40910661 -1.7901753 4288085770
5.0987701 0.49393857 -1.7759098 4288085770
4.9658661 0.50775349 -1.7818664 4288085770
4.8139801 0.51968658 -1.7807459 4288085770
4.6820984 0.53159344 -1.7816697 4288085770
4.5562134 0.54346693 -1.7846061 4288085770
4.4303284 0.55639541 -1.7845618 4288085770
4.3034363 0.56835902 -1.7824975 4288085770
4.1775665 0.5793606 -1.7784175 4288085770
4.0746765 0.59226334 -1.7804238 4288085770
4.1732025 2.9837813 -1.7516679 4288085770
4.2882996 3.0309029 -1.7487601 4288085770
4.4333801 3.09093 -1.7521504 4288085770
4.5794525 3.1509752 -1.7545432 4288085770
4.7275543 3.2090411 -1.7559031 4288085770
4.8646545 3.2601933 -1.7521132 4288085770
5.0327454 3.3252497 -1.7546419 4288085770
5.2128143 3.3942943 -1.758268 4288085770
4.0701904 2.8587842 -1.7451302 4288085770
5.3838959 3.456408 -1.7577482 4288085770
4.2042694 2.9038253 -1.7472242 4288085770
5.5689697 3.5224924 -1.7593299 4288085770
4.34935 2.9538183 -1.7524315 4288085770
5.7810516 3.6005163 -1.7651855 4288085770
4.4714661 2.9889827 -1.7473186 4288085770
5.9811249 3.6686454 -1.7648345 4288085770
4.6405487 3.0459318 -1.7557021 4288085770
6.1942139 3.7407613 -1.7655829 4288085770
4.7796326 3.0860505 -1.7537152 4288085770
6.4092865 3.8118982 -1.7653168 4288085770
4.939743 3.1341062 -1.7559162 4288085770
6.6363678 3.8850403 -1.765112 4288085770
5.0928345 3.1762314 -1.7539939 4288085770
6.8894501 3.9671593 -1.7671243 4288085770
5.2719116 3.2292609 -1.758325 4288085770
7.1405182 4.0453143 -1.7670594 4288085770
5.4630127 3.2842956 -1.7627171 4288085770
7.4066162 4.1274762 -1.7670981 4288085770
5.6590881 3.3393335 -1.7671193 4288085770
7.686676 4.2126465 -1.7672204 4288085770
5.8261871 3.3795033 -1.7631887 4288085770
7.9987488 4.3087578 -1.771608 4288085770
6.0272827 3.431581 -1.7655462 4288085770
8.3497925 4.4168344 -1.7792941 4288085770
6.2383728 3.4856634 -1.7679604 4288085770
8.688858 4.514998 -1.7817734 4288085770
6.4374695 3.5308137 -1.7661864 4288085770
9.1318665 4.6549931 -1.7972311 4288085770
6.6405792 3.5749846 -1.7634019 4288085770
9.5639038 4.7830553 -1.808447 4288085770
6.8656769 3.6261125 -1.7637895 4288085770
9.9859467 4.902205 -1.8144783 4288085770
7.0997467 3.6772447 -1.764196 4288085770
10.33403 4.9855947 -1.8047024 4288085770
7.3488464 3.7313666 -1.7656873 4288085770
10.695129 5.0680103 -1.7939349 4288085770
7.6129303 3.7884774 -1.7682637 4288085770
11.079224 5.155437 -1.7833053 4288085770
7.8120422 3.8157954 -1.7571608 4288085770
11.515289 5.2587981 -1.778073 4288085770
8.1201324 3.8828559 -1.7640086 4288085770
11.978378 5.3661928 -1.7719687 4288085770
8.4022217 3.9360328 -1.7635487 4288085770
12.488449 5.4855552 -1.7691795 4288085770
8.7082977 3.9951487 -1.7672461 4288085770
13.044495 5.6169043 -1.7687019 4288085770
9.0423889 4.0602603 -1.7721101 4288085770
13.681534 5.7702227 -1.772791 4288085770
9.2715149 4.0816326 -1.758958 4288085770
14.30957 5.9116263 -1.7716426 4288085770
9.5756073 4.1258769 -1.7553779 4288085770
14.976608 6.0590715 -1.7696832 4288085770
9.9526825 4.1930127 -1.7603654 4288085770
15.724655 6.2245016 -1.7712168 4288085770
10.326767 4.2531838 -1.763219 4288085770
16.49968 6.3900013 -1.7698053 4288085770
10.674866 4.2994518 -1.7607676 4288085770
17.376678 6.5814805 -1.774083 4288085770
11.10994 4.3705826 -1.7679495 4288085770
18.193741 6.7391143 -1.7666174 4288085770
11.506012 4.422822 -1.7677058 4288085770
11.899124 4.4680972 -1.7653288 4288085770
12.354218 4.5283141 -1.7683505 4288085770
12.769318 4.5686388 -1.7639271 4288085770
13.215408 4.612926 -1.7626394 4288085770
13.673523 4.6542559 -1.7593216 4288085770
14.188614 4.7055249 -1.7613019 4288085770
14.686722 4.7448778 -1.7580289 4288085770
15.177826 4.7762461 -1.7535955 4288085770
15.723938 4.815589 -1.7524198 4288085770
16.280045 4.8489561 -1.7501553 4288085770
16.794189 4.8624139 -1.7414409 4288085770
17.390274 4.8908043 -1.7391664 4288085770
17.990402 4.9132171 -1.7357906 4288085770
18.53154 4.9126925 -1.7268749 4288085770
18.655121 -3.8786764 -1.7165431 4288085770
18.005219 -3.8790765 -1.717219 4288085770
17.353348 -3.8694072 -1.7140733 4288085770
16.720474 -3.8547459 -1.7120577 4288085770
16.13858 -3.8430929 -1.7120906 4288085770
15.569702 -3.8254151 -1.7112602 4288085770
15.026794 -3.8077416 -1.7114824 4288085770
14.499908 -3.7860599 -1.7118105 4288085770
14.032013 -3.7724166 -1.7161118 4288085770
13.546127 -3.7467132 -1.716596 4288085770
13.102219 -3.7250218 -1.7190927 4288085770
12.673325 -3.701323 -1.7216562 4288085770
12.274429 -3.6806431 -1.726226 4288085770
11.905533 -3.6629825 -1.7328018 4288085770
18.578781 -5.6124315 -1.6827585 4293729569
11.516602 -3.6332626 -1.7355565 4288085770
17.703827 -5.4810162 -1.6873835 4288085770
11.168701 -3.6125727 -1.7412301 4288085770
16.933853 -5.3676128 -1.6958932 4288085770
10.782806 -3.5747986 -1.7411374 4288085770
16.200897 -5.2571702 -1.7034239 4288085770
10.467911 -3.5531268 -1.748896 4288085770
15.496948 -5.1446762 -1.7090505 4288085770
10.174988 -3.5334606 -1.7576627 4288085770
13.507034 -4.612371 -1.5767049 4293729569
9.8591003 -3.503737 -1.7625657 4288085770
12.929077 -4.5137682 -1.5803329 4293729569
9.5351868 -3.4669461 -1.7635807 4288085770
12.413132 -4.4302192 -1.5888129 4293729569
9.2292938 -3.4311633 -1.7656139 4288085770
11.977203 -4.3657131 -1.6021084 4293729569
8.9343719 -3.3943748 -1.7676879 4288085770
11.621262 -4.3222861 -1.6221827 4293729569
8.6334991 -3.3525174 -1.7658414 4288085770
11.329315 -4.295948 -1.6490761 4293729569
8.3415833 -3.3086739 -1.7650496 4288085770
11.084366 -4.2826543 -1.6798276 4293729569
8.0756836 -3.2718692 -1.7671825 4288085770
10.862427 -4.2743831 -1.7125343 4288085770
7.8087769 -3.229012 -1.7664233 4288085770
10.619461 -4.255053 -1.7413996 4288085770
7.5428619 -3.1841178 -1.763703 4288085770
10.295532 -4.20152 -1.7567219 4288085770
7.3159637 -3.1493278 -1.7678784 4288085770
9.9165955 -4.1228032 -1.7603902 4288085770
7.0730743 -3.1064389 -1.7661682 4288085770
9.5266724 -4.0340223 -1.7602195 4288085770
6.8551636 -3.0686078 -1.7684172 4288085770
9.1787567 -3.9572697 -1.7629145 4288085770
6.6372528 -3.0287409 -1.7687029 4288085770
8.8558044 -3.8865395 -1.7675511 4288085770
6.3893738 -2.9737298 -1.7602025 4288085770
8.4958954 -3.7956514 -1.7624782 4288085770
6.2124786 -2.9439473 -1.7663881 4288085770
8.1769714 -3.7178111 -1.7612516 4288085770
6.0245514 -2.9070816 -1.7676798 4288085770
7.8910522 -3.6480231 -1.763945 4288085770
5.8406677 -2.8692136 -1.768998 4288085770
7.6101227 -3.5772152 -1.7656673 4288085770
5.6607513 -2.8313437 -1.7703241 4288085770
7.3412018 -3.5083818 -1.7663776 4288085770
5.4978485 -2.7974997 -1.7736117 4288085770
7.0822906 -3.440506 -1.7650903 4288085770
5.3159485 -2.7525594 -1.771062 4288085770
6.8243713 -3.3686128 -1.7628783 4288085770
5.1610413 -2.717675 -1.7723845 4288085770
6.5894623 -3.3037419 -1.7625848 4288085770
5.00914 -2.6817892 -1.7737314 4288085770
6.3715363 -3.2428968 -1.7642528 4288085770
4.8662415 -2.6489339 -1.7770413 4288085770
6.1716156 -3.188077 -1.7678479 4288085770
4.718338 -2.610028 -1.7774509 4288085770
5.9597168 -3.124157 -1.7655832 4288085770
4.5914307 -2.5791819 -1.7817565 4288085770
5.7778015 -3.0723267 -1.7691602 4288085770
4.4725189 -2.550349 -1.787042 4288085770
5.6048889 -3.0224915 -1.7727188 4288085770
4.3426208 -2.5154505 -1.7884153 4288085770
5.4169769 -2.961575 -1.7714483 4288085770
4.2267303 -2.4845986 -1.7927433 4288085770
5.2310791 -2.9006038 -1.767182 4288085770
4.1148224 -2.4537444 -1.7970797 4288085770
5.0711517 -2.849725 -1.7687856 4288085770
4.9282532 -2.804872 -1.772314 4288085770
4.7743378 -2.7519538 -1.7719666 4288085770
4.6484222 -2.7111273 -1.7774562 4288085770
4.5105286 -2.6622176 -1.7780679 4288085770
4.3856201 -2.6183364 -1.7806147 4288085770
4.2757111 -2.5805182 -1.7870818 4288085770
4.1618042 -2.5386305 -1.7896146 4288085770
4.0538635 -2.4977753 -1.7941407 4288085770
4.1016388 -0.20373249 -1.7886537 4288085770
4.2107391 -0.19065797 -1.7881016 4288085770
4.3328552 -0.17961192 -1.7895383 4288085770
4.4419708 -0.16644704 -1.7839867 4288085770
4.5730896 -0.15437758 -1.784459 4288085770
4.709198 -0.14230525 -1.7849411 4288085770
4.8533173 -0.13021028 -1.784439 4288085770
4.9804382 -0.11801648 -1.7779046 4288085770
5.117569 -0.10483515 -1.7724074 4288085770
4.1295624 -0.049673438 -1.785489 4288085770
5.2806702 -0.092710614 -1.7709426 4288085770
4.2526855 -0.03959012 -1.7849094 4288085770
5.4517975 -0.081599712 -1.7704748 4288085770
4.389801 -0.028535604 -1.7863752 4288085770
5.6459045 -0.07051158 -1.7720515 4288085770
4.5358887 -0.018493176 -1.7888399 4288085770
5.8290405 -0.058339357 -1.7686256 4288085770
4.6480408 -0.0072536469 -1.7792586 4288085770
6.0301514 -0.046174526 -1.7662345 4288085770
4.8181458 0.0017666817 -1.7837518 4288085770
6.2472687 -0.035036802 -1.7658564 4288085770
4.9742584 0.011869192 -1.7832364 4288085770
6.4953918 -0.02393496 -1.7685381 4288085770
5.1243896 0.022058725 -1.7777101 4288085770
6.7414856 -0.01278007 -1.7682165 4288085770
5.2885132 0.032220364 -1.774211 4288085770
7.0175934 -0.0016437769 -1.7699527 4288085770
5.4676208 0.042354226 -1.7727407 4288085770
7.2947235 0.010565162 -1.7677096 4288085770
5.6757355 0.051433206 -1.775308 4288085770
7.6208344 0.020676613 -1.7725247 4288085770
5.8788452 0.060581565 -1.7738661 4288085770
7.9479523 0.031878829 -1.7723607 4288085770
6.0999756 0.069722176 -1.7734591 4288085770
8.2970581 0.044112206 -1.7712575 4288085770
6.3190918 0.079915881 -1.7700671 4288085770
8.6491852 0.055437922 -1.7651428 4288085770
6.5971985 0.087963581 -1.7767519 4288085770
9.0672913 0.066693425 -1.7651559 4288085770
6.8513336 0.096178412 -1.7733914 4288085770
9.4984131 0.078010917 -1.7621948 4288085770
7.131424 0.10537159 -1.7720996 4288085770
10.004532 0.089281917 -1.7643787 4288085770
7.436554 0.11356211 -1.7718378 4288085770
10.543625 0.09962666 -1.7636098 4288085770
7.7686615 0.12176812 -1.771629 4288085770
11.100769 0.11105454 -1.7588941 4288085770
8.1317749 0.12995613 -1.7734798 4288085770
11.726883 0.12254047 -1.7533129 4288085770
8.4968872 0.13825381 -1.7693356 4288085770
12.451996 0.13397598 -1.7539238 4288085770
8.891037 0.14555073 -1.7662295 4288085770
13.225113 0.14556611 -1.747629 4288085770
9.3491364 0.15379453 -1.7682654 4288085770
14.178238 0.15706289 -1.752683 4288085770
9.8392639 0.16011178 -1.7673277 4288085770
15.146378 0.16880322 -1.7447683 4288085770
10.360382 0.16748309 -1.7644688 4288085770
16.274506 0.17962003 -1.7381467 4288085770
10.953491 0.17384243 -1.7647315 4288085770
17.572632 0.19153571 -1.7318743 4288085770
11.567627 0.17930508 -1.7600173 4288085770
12.275742 0.18474984 -1.7594858 4288085770
13.065857 0.18926132 -1.7580961 4288085770
13.969986 0.19380367 -1.7589277 4288085770
14.919113 0.19649935 -1.7528116 4288085770
16.058258 0.19923389 -1.7510647 4288085770
17.275375 0.19917798 -1.7404169 4288085770
18.706512 0.19821131 -1.7321671 4288085770
18.4048 0.41343117 -1.727327 4288085770
17.148849 0.4413439 -1.7414497 4288085770
16.018951 0.46544349 -1.7497422 4288085770
15.008057 0.48965394 -1.7562612 4288085770
14.063126 0.51001322 -1.7568358 4288085770
13.279236 0.5304029 -1.761716 4288085770
12.55835 0.54985058 -1.7656983 4288085770
11.822464 0.56650221 -1.7576009 4288085770
18.077454 0.84459078 -1.708347 4288085770
11.24556 0.58602273 -1.7628571 4288085770
16.869553 0.85564244 -1.7162606 4288085770
10.730652 0.60456479 -1.7692131 4288085770
15.832642 0.86876643 -1.7265342 4288085770
10.27475 0.62314451 -1.7756814 4288085770
14.903732 0.88202941 -1.7330142 4288085770
9.7898712 0.63886607 -1.7730428 4288085770
14.083817 0.89532626 -1.741701 4288085770
9.3329773 0.65365827 -1.7674402 4288085770
13.360931 0.90970194 -1.74959 4288085770
8.9151154 0.6674403 -1.7638935 4288085770
12.662033 0.92116368 -1.7534724 4288085770
8.5722046 0.68514431 -1.7675592 4288085770
12.012146 0.93174613 -1.752431 4288085770
8.2393036 0.70090854 -1.7682093 4288085770
11.448242 0.94529331 -1.7566055 4288085770
7.9384155 0.71665728 -1.7709197 4288085770
11.047318 0.96569407 -1.7752115 4288085770
7.631546 0.73150909 -1.7676018 4288085770
10.588425 0.97930753 -1.7795857 4288085770
7.3586273 0.74632943 -1.7673484 4288085770
10.157516 0.99393928 -1.7840308 4288085770
7.0957489 0.76017344 -1.7660962 4288085770
9.7056427 1.0037175 -1.7793487 4288085770
6.8518677 0.77502978 -1.7648979 4288085770
9.2407837 1.0096482 -1.7655722 4288085770
6.6059723 0.78893769 -1.7606784 4288085770
8.8608856 1.0194541 -1.7620269 4288085770
6.4080963 0.80475152 -1.7635847 4288085770
8.5550079 1.0351821 -1.7657274 4288085770
6.2311859 0.8215431 -1.7685481 4288085770
8.2631073 1.0489367 -1.7684194 4288085770
6.0432892 0.8364166 -1.7684561 4288085770
7.9422455 1.0588335 -1.7619866 4288085770
5.8833923 0.85323632 -1.7724522 4288085770
7.6793365 1.0726599 -1.7617341 4288085770
5.7335052 0.87004483 -1.7774671 4288085770
7.4354553 1.08648 -1.7625176 4288085770
5.5856018 0.88689053 -1.780486 4288085770
7.1785736 1.0973817 -1.7582239 4288085770
5.4377136 0.90177143 -1.7814697 4288085770
6.9596863 1.1112353 -1.7580549 4288085770
5.2948303 0.91765583 -1.7824806 4288085770
6.7537994 1.12508 -1.7589105 4288085770
5.1699371 0.93551505 -1.785561 4288085770
6.5588989 1.139949 -1.7588047 4288085770
5.0310364 0.94945538 -1.7835447 4288085770
6.36203 1.1518711 -1.755643 4288085770
4.9011536 0.96438324 -1.7825629 4288085770
6.2191162 1.170648 -1.7627057 4288085770
4.7772522 0.97833288 -1.7805749 4288085770
6.0572357 1.1865376 -1.7626806 4288085770
4.6743622 0.9962064 -1.783697 4288085770
5.8983459 1.2004296 -1.7626256 4288085770
4.5584869 1.0111612 -1.781742 4288085770
5.7454529 1.2143611 -1.7605826 4288085770
4.4775848 1.0299777 -1.7889229 4288085770
5.6145782 1.2312349 -1.7626334 4288085770
4.3796844 1.046908 -1.7890371 4288085770
5.4646759 1.2442034 -1.7585787 4288085770
4.2588043 1.057984 -1.780003 4288085770
5.339798 1.2601165 -1.7586235 4288085770
4.1609192 1.0729674 -1.7770823 4288085770
5.2268982 1.2780191 -1.7597269 4288085770
4.0860443 1.0908407 -1.781257 4288085770
5.1060028 1.2929703 -1.7577621 4288085770
4.9801178 1.3059543 -1.7537526 4288085770
4.9042206 1.3277737 -1.760996 4288085770
4.797348 1.3427514 -1.758058 4288085770
4.7014465 1.3597008 -1.7571758 4288085770
4.6145477 1.3776194 -1.7583283 4288085770
4.5526428 1.400463 -1.7656223 4288085770
4.451767 1.4145161 -1.7586776 4288085770
4.3678741 1.4304904 -1.7567998 4288085770
4.298996 1.4504205 -1.7580208 4288085770
4.2400818 1.4723045 -1.7622958 4288085770
4.1651917 1.4903017 -1.7594711 4288085770
4.0993042 1.509252 -1.7596802 4288085770
4.0404205 1.5292064 -1.7599202 4288085770
4.0534058 3.3534946 -1.7460819 4288085770
4.1344757 3.4235306 -1.7474686 4288085770
4.2195435 3.4955697 -1.7488981 4288085770
4.3156128 3.573597 -1.7514542 4288085770
4.412674 3.6516423 -1.7530121 4288085770
4.5057526 3.7257566 -1.7504922 4288085770
4.6188202 3.8117766 -1.7542208 4288085770
4.7268829 3.8938813 -1.75287 4288085770
4.8569183 3.9879107 -1.7567722 4288085770
5.0189667 4.101851 -1.7670861 4288085770
5.1450348 4.1919842 -1.7649103 4288085770
5.2950745 4.2950606 -1.7670084 4288085770
4.041626 3.5703254 -1.753847 4288085770
5.4661102 4.4110956 -1.7723752 4288085770
4.1517181 3.6443977 -1.7543579 4288085770
5.6411591 4.5271683 -1.7757496 4288085770
4.2657776 3.718472 -1.7548763 4288085770
5.8171997 4.643259 -1.7781254 4288085770
4.3838501 3.7945676 -1.7544373 4288085770
6.0242157 4.7763143 -1.7838596 4288085770
4.5238953 3.8835864 -1.7592686 4288085770
6.2012787 4.889513 -1.7801846 4288085770
4.6479797 3.9597216 -1.7568408 4288085770
6.4123077 5.0216241 -1.7829083 4288085770
4.8180237 4.0636854 -1.7659925 4288085770
6.6203461 5.1488228 -1.7805387 4288085770
4.9740753 4.1567497 -1.7689241 4288085770
6.8543854 5.2909837 -1.7814814 4288085770
5.1531067 4.2627559 -1.7761277 4288085770
7.1003876 5.4381676 -1.7815355 4288085770
5.3341522 4.3678169 -1.7803177 4288085770
7.3574219 5.5893593 -1.7816802 4288085770
5.4972076 4.4589567 -1.7792269 4288085770
7.6334381 5.7505798 -1.7810374 4288085770
5.6792755 4.5600891 -1.779348 4288085770
7.9494324 5.9327517 -1.7848393 4288085770
5.8883057 4.6751494 -1.7847663 4288085770
8.2764282 6.1189475 -1.7877327 4288085770
6.1003418 4.7902651 -1.7871903 4288085770
8.6543884 6.3331199 -1.7942151 4288085770
6.3123779 4.9024153 -1.7875611 4288085770
9.0533447 6.5563045 -1.8008953 4288085770
6.5254364 5.0116029 -1.7858807 4288085770
9.4683228 6.7855515 -1.8047117 4288085770
6.7434998 5.1198282 -1.7821921 4288085770
9.8663177 6.9979138 -1.8011957 4288085770
7.0115356 5.2579408 -1.7871257 4288085770
10.333282 7.2492089 -1.8044971 4288085770
7.2525787 5.3741808 -1.7836207 4288085770
10.823212 7.508553 -1.8059825 4288085770
7.535614 5.5133562 -1.7856001 4288085770
11.363159 7.7919269 -1.8079845 4288085770
7.8336182 5.6575589 -1.7866954 4288085770
8.1616364 5.8157239 -1.791093 4288085770
8.4796753 5.9619927 -1.7892605 4288085770
8.8616486 6.1431546 -1.7961644 4288085770
9.2516632 6.32236 -1.8010477 4288085770
9.6406555 6.4966335 -1.8018409 4288085770
10.115616 6.7147985 -1.81257 4288085770
10.551605 6.9031196 -1.8126975 4288085770
10.988617 7.0865111 -1.8087384 4288085770
11.440643 7.271915 -1.8048419 4288085770
11.983582 7.5012631 -1.8078917 4288085770
12.536575 7.7266908 -1.8068887 4288085770
13.147522 7.9771161 -1.8084348 4288085770
18.821091 -1.6893899 -1.7286085 4288085770
17.999222 -1.7319849 -1.7293569 4288085770
17.223373 -1.7675331 -1.7293133 4288085770
16.475525 -1.7970459 -1.7284275 4288085770
15.874634 -1.8326367 -1.7377042 4288085770
15.191772 -1.8520732 -1.7351147 4288085770
14.632904 -1.8796024 -1.7426103 4288085770
14.037018 -1.8940041 -1.7422715 4288085770
13.548157 -1.915488 -1.7499975 4288085770
13.089264 -1.9349703 -1.7588145 4288085770
12.617386 -1.9453567 -1.7617673 4288085770
12.119507 -1.9476738 -1.7598144 4288085770
18.448349 -2.9516063 -1.7136363 4288085770
11.629639 -1.9439518 -1.755983 4288085770
17.416428 -2.89327 -1.7107786 4288085770
11.261765 -1.9543576 -1.7641267 4288085770
16.434525 -2.8308313 -1.7040843 4288085770
10.895859 -1.9607275 -1.7703451 4288085770
15.735611 -2.8055503 -1.717254 4288085770
10.533966 -1.9630607 -1.7746421 4288085770
14.997681 -2.7651398 -1.7216188 4288085770
10.203094 -1.9664254 -1.781978 4288085770
14.331772 -2.7297156 -1.728027 4288085770
9.8832092 -1.9687655 -1.7883521 4288085770
13.637878 -2.6821713 -1.7265977 4288085770
9.5623169 -1.9670722 -1.7927958 4288085770
13.026947 -2.6406238 -1.7282144 4288085770
9.2984161 -1.9724627 -1.8042191 4288085770
12.497025 -2.6091268 -1.7358028 4288085770
8.9945221 -1.9657233 -1.8067824 4288085770
12.019119 -2.5816119 -1.7444161 4288085770
8.6536407 -1.9478521 -1.8004736 4288085770
11.56221 -2.5530658 -1.7520856 4288085770
8.3447571 -1.9329948 -1.7961704 4288085770
11.130295 -2.524503 -1.7598015 4288085770
8.0628815 -1.9201719 -1.794881 4288085770
10.71138 -2.493897 -1.7655765 4288085770
7.7889862 -1.9063437 -1.7936238 4288085770
10.307465 -2.462281 -1.7713972 4288085770
7.5191193 -1.8894956 -1.7914273 4288085770
9.9235687 -2.4306169 -1.7752553 4288085770
7.2802277 -1.8766793 -1.7922169 4288085770
9.5796661 -2.4029956 -1.7831153 4288085770
7.0483246 -1.862841 -1.7920371 4288085770
9.2107544 -2.3652349 -1.7821077 4288085770
6.8194427 -1.8470011 -1.7918984 4288085770
8.8818512 -2.3345339 -1.786049 4288085770
6.6035461 -1.8321521 -1.7917656 4288085770
8.5249481 -2.2916951 -1.7811521 4288085770
6.3886719 -1.8142681 -1.789688 4288085770
8.2150421 -2.2579298 -1.7821821 4288085770
6.2187653 -1.8055108 -1.7965328 4288085770
7.9111481 -2.2221076 -1.7802588 4288085770
6.0018921 -1.7835585 -1.7905229 4288085770
7.6322327 -2.1883214 -1.7813457 4288085770
5.8440094 -1.7737935 -1.7974075 4288085770
7.3583374 -2.1534793 -1.7794598 4288085770
5.6520996 -1.7528594 -1.7934259 4288085770
7.0914307 -2.1176152 -1.776605 4288085770
5.5131989 -1.7441169 -1.8023278 4288085770
6.8615417 -2.0888307 -1.7796932 4288085770
5.3453217 -1.7272365 -1.8023185 4288085770
6.6066437 -2.0509238 -1.7748963 4288085770
5.178421 -1.707321 -1.8003649 4288085770
6.3937531 -2.0221107 -1.7770158 4288085770
5.0405273 -1.6934907 -1.8043572 4288085770
6.1968231 -1.9953041 -1.7801296 4288085770
4.8966217 -1.6776119 -1.8053745 4288085770
6.0039215 -1.9674773 -1.7822684 4288085770
4.7677307 -1.6637933 -1.8103837 4288085770
5.8060303 -1.9356022 -1.7814692 4288085770
4.651825 -1.6520009 -1.8173808 4288085770
5.6371307 -1.9107769 -1.7845989 4288085770
4.4989471 -1.6280065 -1.8115238 4288085770
5.4842377 -1.8900104 -1.7916869 4288085770
4.3780518 -1.6121476 -1.8145832 4288085770
5.3213196 -1.8631637 -1.7938634 4288085770
4.2531586 -1.5932393 -1.8146886 4288085770
5.1504364 -1.8322351 -1.7910966 4288085770
4.163269 -1.5844816 -1.82468 4288085770
5.0085297 -1.8084091 -1.7952582 4288085770
4.8706207 -1.7845806 -1.7994272 4288085770
4.7377319 -1.7607485 -1.803605 4288085770
4.6158142 -1.7389265 -1.8087679 4288085770
4.4789276 -1.7110102 -1.8080102 4288085770
4.3490295 -1.6841065 -1.8082474 4288085770
4.2371216 -1.6622602 -1.8124288 4288085770
4.1152344 -1.6353337 -1.8116807 4288085770
4.0790863 0.38784492 -1.7827247 4288085770
4.1962128 0.40095305 -1.7811517 4288085770
4.3253174 0.41301703 -1.7825819 4288085770
4.4524384 0.42513227 -1.7810084 4288085770
4.562561 0.43635821 -1.7723891 4288085770
4.7306671 0.44934392 -1.7799026 4288085770
4.8757935 0.4614892 -1.7773601 4288085770
5.029892 0.47362304 -1.775833 4288085770
4.1199646 0.44477248 -1.7867633 4288085770
5.2080078 0.48668551 -1.779364 4288085770
4.2440643 0.45386887 -1.786132 4288085770
5.3841095 0.49881721 -1.7788743 4288085770
4.3741913 0.46298647 -1.784511 4288085770
5.5612488 0.51098454 -1.7763864 4288085770
4.5063171 0.47114074 -1.7808758 4288085770
5.7563477 0.52312922 -1.7759291 4288085770
4.6534271 0.48023498 -1.7812837 4288085770
5.947464 0.5343411 -1.771448 4288085770
4.8175354 0.49028873 -1.7847377 4288085770
6.1655884 0.54750144 -1.7710475 4288085770
4.9756622 0.49842608 -1.783147 4288085770
6.396698 0.55967104 -1.7706517 4288085770
5.1397705 0.50654984 -1.782566 4288085770
6.639801 0.57184875 -1.7702764 4288085770
5.3178864 0.5146662 -1.7830092 4288085770
6.9109192 0.58502829 -1.7709664 4288085770
5.4989929 0.52281916 -1.7814573 4288085770
7.1970367 0.59821832 -1.7716821 4288085770
5.6871185 0.53001249 -1.7779003 4288085770
7.486145 0.60946333 -1.7693681 4288085770
5.883255 0.53619397 -1.7753392 4288085770
7.8242493 0.62365377 -1.7721897 4288085770
6.0993805 0.54337156 -1.7738298 4288085770
8.1743774 0.63688815 -1.7730147 4288085770
6.3514709 0.55146897 -1.7783989 4288085770
8.5374908 0.64918411 -1.7708446 4288085770
6.5606232 0.55576456 -1.7698253 4288085770
8.9305878 0.6624831 -1.7697431 4288085770
6.827713 0.56292498 -1.7714025 4288085770
9.3777161 0.67576683 -1.7717339 4288085770
7.0918579 0.56815374 -1.7689399 4288085770
9.9187927 0.69295752 -1.7829541 4288085770
7.4119568 0.57531607 -1.7726074 4288085770
10.411911 0.70537817 -1.7790066 4288085770
7.746048 0.58048809 -1.7762638 4288085770
10.958038 0.71781838 -1.7761492 4288085770
8.077179 0.58574545 -1.7749156 4288085770
11.475174 0.72744882 -1.7611908 4288085770
8.4582977 0.58996809 -1.7776343 4288085770
12.189285 0.74288213 -1.7656723 4288085770
8.8194275 0.59233439 -1.7712849 4288085770
12.928391 0.75741994 -1.7651795 4288085770
9.25354 0.59559357 -1.7740768 4288085770
13.762497 0.7720412 -1.7638491 4288085770
9.7466583 0.59985888 -1.7789866 4288085770
14.596649 0.78183854 -1.752432 4288085770
10.250778 0.60118425 -1.7808629 4288085770
15.623764 0.79661071 -1.7504314 4288085770
10.781906 0.60158122 -1.7797679 4288085770
16.660904 0.80661833 -1.7353612 4288085770
11.300049 0.59814441 -1.7685815 4288085770
17.896042 0.81869233 -1.7246643 4288085770
11.902176 0.59466112 -1.7635382 4288085770
12.687271 0.59405935 -1.772858 4288085770
13.461411 0.58766043 -1.7700554 4288085770
14.302551 0.57933962 -1.7663337 4288085770
15.278687 0.57004535 -1.765819 4288085770
16.29483 0.55591881 -1.7572852 4288085770
17.437973 0.53791595 -1.7468978 4288085770
18.716141 0.51505923 -1.7336529 4288085770
14.749023 -7.8221178 -1.4532369 4293729569
14.445938 -7.5576344 -1.4723386 4293729569
14.135849 -7.2920523 -1.4854478 4293729569
13.733749 -6.9863324 -1.4871064 4293729569
13.404678 -6.7206235 -1.4921869 4293729569
13.13063 -6.48489 -1.4978346 4293729569
12.899597 -6.271193 -1.5071684 4293729569
12.646545 -6.0503907 -1.5095903 4293729569
12.444534 -5.855618 -1.5156411 4293729569
12.292511 -5.6868763 -1.5253202 4293729569
12.165512 -5.5301147 -1.5348305 4293729569
12.013519 -5.3642855 -1.5394582 4293729569
12.019547 -5.2263808 -0.85274708 4293729569
11.88353 -5.2094574 -1.5449299 4293729569
12.068573 -5.1467452 -0.87619841 4293729569
11.714523 -5.0405364 -1.5435838 4293729569
11.767563 -4.9618802 -1.5660237 4293729569
11.732574 -4.8491001 -1.5779163 4293729569
11.687607 -4.7322583 -1.5858625 4293729569
11.620636 -4.6083632 -1.5898961 4293729569
11.58667 -4.4964957 -1.596773 4293729569
11.564697 -4.3896194 -1.603582 4293729569
11.655746 -4.3238821 -1.6228563 4293729569
11.943802 -4.3234129 -1.6653098 4293729569
12.306854 -4.3430438 -1.7165321 4288085770
12.443909 -4.2823086 -1.7377898 4288085770
12.386932 -4.1592512 -1.7328218 4288085770
12.350998 -4.0452118 -1.7297302 4288085770
12.356049 -3.9412117 -1.730529 4288085770
12.367096 -3.8411736 -1.730271 4288085770
12.401138 -3.7471514 -1.7309431 4288085770
12.429199 -3.6531162 -1.7306055 4288085770
12.477264 -3.5620666 -1.7302471 4288085770
12.530319 -3.4730134 -1.7298616 4288085770
12.59938 -3.3889654 -1.7304143 4288085770
12.661438 -3.3008709 -1.7280253 4288085770
12.804504 -3.2318726 -1.7344319 4288085770
12.886581 -3.1477637 -1.7320038 4288085770
12.995651 -3.0676699 -1.7315484 4288085770
13.114716 -2.9905512 -1.7300562 4288085770
13.278778 -2.9204693 -1.7325119 4288085770
13.417847 -2.8443365 -1.7310327 4288085770
13.583923 -2.769202 -1.7305776 4288085770
13.817993 -2.7071216 -1.7360016 4288085770
14.018066 -2.6349628 -1.7355462 4288085770
14.232147 -2.5647941 -1.7350777 4288085770
14.490204 -2.4986453 -1.7376069 4288085770
14.743286 -2.4284317 -1.7361976 4288085770
15.010376 -2.3572087 -1.7348264 4288085770
15.332443 -2.2920151 -1.7374357 4288085770
15.649521 -2.220757 -1.7361406 4288085770
16.028564 -2.1525068 -1.7378882 4288085770
16.408661 -2.0822387 -1.7386712 4288085770
16.818726 -2.011915 -1.7375003 4288085770
17.247803 -1.9375616 -1.735427 4288085770
17.745865 -1.8631941 -1.7354587 4288085770
18.302933 -1.7898024 -1.7365624 4288085770
18.914001 -1.7174075 -1.739731 4288085770
18.493134 0.81485331 -1.7185436 4288085770
17.392227 0.86096656 -1.722813 4288085770
16.482285 0.90613186 -1.7323297 4288085770
15.610382 0.94641006 -1.7368146 4288085770
14.844452 0.98674715 -1.7424463 4288085770
14.149536 1.0231701 -1.7461091 4288085770
13.512634 1.0576519 -1.748818 4288085770
12.964706 1.094129 -1.755684 4288085770
12.444809 1.1266607 -1.7605211 4288085770
11.912903 1.1553205 -1.757275 4288085770
18.217682 1.7243048 -1.6855561 4288085770
11.466003 1.1859392 -1.7601799 4288085770
17.301773 1.7454861 -1.6936575 4288085770
11.081085 1.2185336 -1.7672035 4288085770
16.444855 1.7627772 -1.6977733 4288085770
10.726181 1.2511665 -1.7732691 4288085770
15.693954 1.7831279 -1.7030867 4288085770
10.395279 1.2818173 -1.7793335 4288085770
15.034058 1.8055092 -1.7105595 4288085770
10.052368 1.3095449 -1.7803317 4288085770
14.398163 1.8249761 -1.7140154 4288085770
9.6994629 1.3323852 -1.7742325 4288085770
13.80925 1.8425287 -1.7145036 4288085770
9.3325958 1.3513011 -1.7630469 4288085770
13.291367 1.8640631 -1.7191566 4288085770
9.0187073 1.3731519 -1.757984 4288085770
12.797455 1.8866318 -1.7228605 4288085770
8.7657928 1.4009265 -1.7601067 4288085770
12.371552 1.9112316 -1.7276915 4288085770
8.5019226 1.4227968 -1.7561132 4288085770
11.931641 1.9279248 -1.7263688 4288085770
8.2490234 1.4446915 -1.751135 4288085770
11.557755 1.9515797 -1.7302555 4288085770
8.0401306 1.4705151 -1.7522846 4288085770
11.209854 1.9742867 -1.7321609 4288085770
7.8392334 1.4963616 -1.7524456 4288085770
10.91095 2.0029435 -1.7392353 4288085770
7.6353455 1.5192574 -1.7495517 4288085770
10.581055 2.0227151 -1.7381159 4288085770
7.4554443 1.544119 -1.7497247 4288085770
10.285172 2.0444937 -1.738077 4288085770
7.2855377 1.5690049 -1.7489117 4288085770
10.021271 2.0692616 -1.7401329 4288085770
7.1546326 1.5997993 -1.755253 4288085770
9.7333679 2.0881147 -1.736055 4288085770
6.9807587 1.6207508 -1.750367 4288085770
9.4924622 2.1119328 -1.7361261 4288085770
6.8498383 1.6486131 -1.7526585 4288085770
9.2665863 2.1347613 -1.7362007 4288085770
6.706955 1.6725358 -1.7508656 4288085770
9.0336914 2.1556363 -1.7332321 4288085770
6.5820465 1.6984195 -1.7521313 4288085770
8.8287964 2.1784973 -1.7323364 4288085770
6.4681549 1.7263116 -1.7534462 4288085770
8.6298981 2.2013965 -1.7294489 4288085770
6.3502502 1.7522346 -1.7527217 4288085770
8.4570007 2.2282462 -1.7306648 4288085770
6.2363586 1.7771605 -1.7519859 4288085770
8.2980957 2.2561054 -1.7319165 4288085770
6.12146 1.8021203 -1.7492489 4288085770
8.1401978 2.2839999 -1.7311703 4288085770
6.0225677 1.8290561 -1.7485675 4288085770
7.9972992 2.31287 -1.7324613 4288085770
5.9146729 1.853021 -1.7458233 4288085770
7.8633881 2.3427472 -1.7337817 4288085770
5.8227844 1.8809625 -1.7451686 4288085770
7.7414856 2.3746324 -1.7351524 4288085770
5.744873 1.9098796 -1.74655 4288085770
7.6185913 2.4045348 -1.7354881 4288085770
5.6629791 1.9378453 -1.7449092 4288085770
7.495697 2.4334707 -1.7338067 4288085770
5.582077 1.9647948 -1.7442526 4288085770
7.3967896 2.4673553 -1.7362431 4288085770
5.5081787 1.9937488 -1.7436396 4288085770
7.2818909 2.4963136 -1.7335731 4288085770
5.4482727 2.0256791 -1.7450961 4288085770
7.1959839 2.532208 -1.736061 4288085770
5.3713837 2.051682 -1.7414287 4288085770
7.1180725 2.5691071 -1.7385768 4288085770
5.3124695 2.0826302 -1.74187 4288085770
7.022171 2.6000791 -1.7359668 4288085770
5.2505798 2.1116099 -1.7402734 4288085770
6.93927 2.6340432 -1.7344254 4288085770
5.1926727 2.1415925 -1.7386993 4288085770
6.8893433 2.6779103 -1.7400979 4288085770
5.1387787 2.1735778 -1.7371649 4288085770
6.8124542 2.7128797 -1.7385818 4288085770
5.1048584 2.2104917 -1.7407418 4288085770
6.7635193 2.7567811 -1.7422558 4288085770
5.0419617 2.2385392 -1.7351273 4288085770
6.7246246 2.8036909 -1.7459942 4288085770
5.0050659 2.2734852 -1.7366663 4288085770
6.6716919 2.8446584 -1.7456125 4288085770
4.9611664 2.3064942 -1.7341624 4288085770
6.6058044 2.8806677 -1.7421283 4288085770
4.9222717 2.3394899 -1.7326649 4288085770
6.5838623 2.9325547 -1.7479743 4288085770
4.9063416 2.3823991 -1.7373677 4288085770
6.5429535 2.9765306 -1.7476596 4288085770
4.8694611 2.4164133 -1.7348899 4288085770
6.5250397 3.0284543 -1.7515112 4288085770
4.835556 2.4504466 -1.7314166 4288085770
6.4871368 3.0734496 -1.7502176 4288085770
4.8156281 2.4904041 -1.7330633 4288085770
6.4632111 3.1234198 -1.7510275 4288085770
4.7997131 2.5323811 -1.7337495 4288085770
6.4432983 3.1743932 -1.7518593 4288085770
4.7778168 2.5713882 -1.7323767 4288085770
6.4343719 3.2303562 -1.7537912 4288085770
4.7629089 2.6123829 -1.7320472 4288085770
6.4184418 3.2823491 -1.7536458 4288085770
4.753006 2.6553812 -1.7317585 4288085770
6.4255371 3.3452897 -1.7577175 4288085770
4.7410889 2.6983781 -1.7314669 4288085770
6.41362 3.3993015 -1.7566115 4288085770
4.7451782 2.7473521 -1.7332984 4288085770
6.4046936 3.4543338 -1.7545265 4288085770
4.752243 2.7993107 -1.736185 4288085770
6.425766 3.5232821 -1.7587186 4288085770
4.7713318 2.8552432 -1.741155 4288085770
6.4348297 3.5862923 -1.7587932 4288085770
4.7824097 2.9082046 -1.7440635 4288085770
6.4398956 3.6493325 -1.7568625 4288085770
4.7924805 2.9621987 -1.7449878 4288085770
6.4729767 3.7242899 -1.7611722 4288085770
4.8135681 3.0191669 -1.7479771 4288085770
6.4810486 3.7883663 -1.7572626 4288085770
4.8326263 3.077167 -1.7489814 4288085770
6.5081329 3.8613873 -1.7575308 4288085770
4.8557129 3.1361527 -1.7510077 4288085770
6.5411835 3.9364123 -1.7578408 4288085770
4.8787842 3.1951561 -1.7520338 4288085770
6.580246 4.0144591 -1.7572097 4288085770
4.9018707 3.2551756 -1.752077 4288085770
6.6393127 4.1044493 -1.7608083 4288085770
4.9409332 3.3231549 -1.7552768 4288085770
6.6953735 4.1924729 -1.762369 4288085770
4.9780121 3.3891678 -1.7564403 4288085770
6.7613983 4.2875018 -1.764062 4288085770
5.0240784 3.4611516 -1.7597171 4288085770
6.8244629 4.3805461 -1.7647167 4288085770
5.0591278 3.5271959 -1.7588779 4288085770
6.9014893 4.4815826 -1.7665259 4288085770
5.0852356 3.5883031 -1.7539421 4288085770
6.9915314 4.5896111 -1.7694703 4288085770
5.1363068 3.6633406 -1.7542766 4288085770
7.0835876 4.6996746 -1.7704519 4288085770
5.2033386 3.7473388 -1.7577847 4288085770
7.1846008 4.816709 -1.7735637 4288085770
5.2664032 3.8303504 -1.76027 4288085770
7.2826538 4.9318266 -1.7716373 4288085770
5.3274841 3.9104123 -1.7597023 4288085770
7.3936768 5.0539012 -1.7728473 4288085770
5.4075317 4.0024347 -1.7623631 4288085770
7.5097198 5.1800141 -1.7721311 4288085770
5.4985504 4.1024303 -1.7671736 4288085770
7.6437225 5.318121 -1.7726425 4288085770
5.587616 4.2014756 -1.7689644 4288085770
7.8087311 5.4761791 -1.7775334 4288085770
5.679657 4.3015232 -1.7707766 4288085770
7.9537506 5.6213446 -1.7751778 4288085770
5.7936859 4.4155345 -1.7758545 4288085770
8.1357422 5.7894478 -1.7782611 4288085770
5.8947296 4.5206218 -1.7757629 4288085770
8.3237305 5.9625726 -1.7804364 4288085770
6.0267334 4.6466436 -1.7810682 4288085770
8.5267181 6.1457224 -1.7818011 4288085770
6.1427917 4.7617407 -1.7811652 4288085770
8.784668 6.3648071 -1.7898482 4288085770
6.2678223 4.8828435 -1.7813762 4288085770
9.0326385 6.577951 -1.7937802 4288085770
6.41185 5.0159245 -1.7838155 4288085770
9.302597 6.806129 -1.7969958 4288085770
6.549881 5.1440678 -1.7821621 4288085770
9.5735474 7.0343556 -1.7972125 4288085770
6.7068939 5.285192 -1.7827541 4288085770
9.8474884 7.2666373 -1.7945005 4288085770
6.8778992 5.4353242 -1.7835165 4288085770
10.197403 7.5498805 -1.797753 4288085770
7.0529175 5.5874929 -1.7823182 4288085770
10.599274 7.8670726 -1.80665 4288085770
7.2419128 5.7496529 -1.782308 4288085770
7.4619141 5.9307833 -1.7856597 4288085770
7.7088623 6.1309118 -1.7903689 4288085770
7.9778137 6.3450403 -1.7963442 4288085770
8.254776 6.5632224 -1.7993976 4288085770
8.5707092 6.8083787 -1.8059593 4288085770
8.8896484 7.0536065 -1.808525 4288085770
9.2085876 7.2989011 -1.8070906 4288085770
9.5745239 7.5741906 -1.8082262 4288085770
9.9854126 7.8794608 -1.8129286 4288085770
18.243576 -0.85147518 -1.7168399 4288085770
17.180725 -0.88531458 -1.7178768 4288085770
16.264862 -0.91812932 -1.7241248 4288085770
15.394012 -0.94382739 -1.7255505 4288085770
14.643127 -0.96953756 -1.7331346 4288085770
13.958252 -0.99118227 -1.7398738 4288085770
13.378357 -1.0138665 -1.7537342 4288085770
12.82048 -1.0334846 -1.7646745 4288085770
12.263611 -1.0459855 -1.7687351 4288085770
18.452148 -1.5835378 -1.7218109 4288085770
11.62674 -1.0463127 -1.7588931 4288085770
17.278244 -1.5605022 -1.7256595 4288085770
11.12587 -1.0537393 -1.7611121 4288085770
16.253342 -1.5393558 -1.7296716 4288085770
