# .PCD v0.7 - Point Cloud Data file format
VERSION 0.7
FIELDS x y z rgb
SIZE 4 4 4 4
TYPE F F F U
COUNT 1 1 1 1
WIDTH 1124
HEIGHT 1
VIEWPOINT 0 0 0 1 0 0 0
POINTS 1124
DATA ascii
8.7983227 2.0054631 -1.818616 4288085770
14.968297 2.905818 -1.8498989 4288085770
9.2094555 2.0024147 -1.8196695 4288085770
15.865389 2.9399023 -1.848763 4288085770
9.6366072 1.9954038 -1.8198789 4288085770
16.841473 2.9761703 -1.8484073 4288085770
10.102724 1.9904823 -1.8234739 4288085770
10.559894 1.9795413 -1.8229775 4288085770
16.889954 2.7643518 -1.6707761 4293729569
11.058066 1.9666963 -1.8228848 4288085770
16.522579 2.6065435 -1.5530719 4293729569
11.621181 1.9559991 -1.8284339 4288085770
16.499826 2.4935246 -1.4647895 4293729569
12.184353 1.9383047 -1.8299799 4288085770
16.479057 2.3805091 -1.3785266 4293729569
12.748579 1.9136143 -1.827533 4288085770
16.497234 2.2705832 -1.2966497 4293729569
13.403735 1.8921328 -1.8319846 4288085770
16.48444 2.1545846 -1.2134643 4293729569
14.007027 1.8555348 -1.8259171 4288085770
16.488609 2.0416248 -1.1334478 4293729569
14.718238 1.8221848 -1.8279159 4288085770
16.560726 1.932821 -1.0581034 4293729569
15.457481 1.7819004 -1.8281879 4288085770
16.722771 1.8322239 -0.98865044 4293729569
16.187798 1.7325978 -1.8233672 4288085770
17.146675 1.7482319 -0.93078858 4293729569
16.974125 1.6774254 -1.8190963 4288085770
13.231257 -5.4579244 -0.23266791 4293729569
13.291448 -5.6027989 -0.26019114 4293729569
7.2692947 -4.9641318 -0.72406739 4293729569
7.1475239 -4.9591765 -0.19784197 4293729569
7.2041416 -5.0043054 -0.76040459 4293729569
7.1163731 -5.0132718 -0.23750785 4293729569
7.1930008 -5.0713553 -0.80226159 4293729569
7.1032219 -5.0763268 -0.27934706 4293729569
11.289207 -7.71316 -1.4973865 4293729569
10.728674 -7.499476 -1.5099603 4293729569
10.166163 -7.274797 -1.5175198 4293729569
9.6616983 -7.0739808 -1.5266405 4293729569
9.1852417 -6.8821015 -1.5370333 4293729569
8.71982 -6.6881938 -1.5435359 4293729569
8.2814293 -6.5042243 -1.5493003 4293729569
7.8470364 -6.3152432 -1.5541067 4293729569
7.4456863 -6.1401858 -1.5582321 4293729569
7.0703506 -5.9730678 -1.5626104 4293729569
6.734026 -5.824861 -1.5703644 4293729569
6.4117184 -5.6796203 -1.5772552 4293729569
6.0964317 -5.5343633 -1.5822154 4293729569
9.5364065 -7.6173043 -1.4921074 4293729569
5.7971573 -5.3940682 -1.5873312 4293729569
9.0207596 -7.3545165 -1.5051494 4293729569
5.537899 -5.2746816 -1.5958314 4293729569
8.5221443 -7.0956903 -1.5153574 4293729569
5.2916412 -5.1602654 -1.6054574 4293729569
8.0955887 -6.8746953 -1.5292575 4293729569
5.0214176 -5.0249009 -1.6068572 4293729569
7.6380672 -6.6297698 -1.5338639 4293729569
4.8081779 -4.923409 -1.617803 4293729569
7.2125759 -6.3987689 -1.5387796 4293729569
4.5719757 -4.8029666 -1.6205311 4293729569
6.8531284 -6.2046161 -1.5483286 4293729569
4.3747635 -4.7044349 -1.6296334 4293729569
6.5257053 -6.0263896 -1.5591856 4293729569
4.1545963 -4.5869536 -1.6295183 4293729569
6.191309 -5.8381772 -1.564979 4293729569
3.9524231 -4.4794326 -1.6325759 4293729569
5.9369488 -5.6997819 -1.5795373 4293729569
3.7352676 -4.3589435 -1.630492 4293729569
5.6266022 -5.5205131 -1.5825634 4293729569
3.5561237 -4.2603669 -1.6327723 4293729569
5.3572884 -5.3641496 -1.587983 4293729569
3.3949699 -4.1707501 -1.6382259 4293729569
5.1109791 -5.2197309 -1.5956237 4293729569
3.2528076 -4.0910916 -1.6468621 4293729569
4.8786869 -5.0812821 -1.6033998 4293729569
3.1316433 -4.0233855 -1.6586994 4293729569
4.6584187 -4.947803 -1.6092919 4293729569
2.9865189 -3.9377303 -1.6623092 4293729569
4.4531765 -4.8222909 -1.6153284 4293729569
2.9283218 -3.9078841 -1.6867495 4293729569
4.2659359 -4.7047372 -1.6225386 4293729569
2.9320431 -3.9169002 -1.7287818 4293729569
4.0737209 -4.5831914 -1.6267016 4293729569
2.9127979 -3.9089656 -1.7635958 4288085770
3.8795338 -4.4576497 -1.6268469 4293729569
2.9265099 -3.9209599 -1.8077251 4288085770
3.6913586 -4.3340936 -1.6260507 4293729569
2.8383598 -3.8641772 -1.8208828 4288085770
3.5411797 -4.2334504 -1.631618 4293729569
2.7422314 -3.8004098 -1.8299654 4288085770
3.4020119 -4.1377826 -1.6372916 4293729569
2.5901928 -3.6967673 -1.8205153 4288085770
3.3078156 -4.0700164 -1.652395 4293729569
2.4741192 -3.6160426 -1.8204089 4288085770
3.1796665 -3.9793229 -1.6571748 4293729569
2.3740425 -3.5442815 -1.8224562 4288085770
3.14044 -3.9444308 -1.6838045 4293729569
2.2889442 -3.4804893 -1.8286475 4288085770
3.1381817 -3.9324584 -1.7187879 4293729569
2.183897 -3.4037385 -1.826648 4288085770
3.1678867 -3.9384151 -1.7620778 4288085770
3.1846085 -3.9343991 -1.8012444 4288085770
3.124424 -3.8795524 -1.8186769 4288085770
3.0053387 -3.7858357 -1.8165474 4288085770
2.905241 -3.703074 -1.8175999 4288085770
2.8101482 -3.623302 -1.8197001 4288085770
2.7250519 -3.5475078 -1.8228971 4288085770
2.6429787 -3.4737058 -1.8241229 4288085770
2.5639114 -3.4008965 -1.8253777 4288085770
2.5008316 -3.3370504 -1.8297859 4288085770
2.4038143 -3.2522788 -1.8228695 4288085770
2.3517494 -3.1944079 -1.8273834 4288085770
2.2837105 -3.1265717 -1.8267446 4288085770
2.2196922 -3.0597253 -1.824145 4288085770
2.1676521 -2.9998531 -1.82566 4288085770
2.1915932 -1.5570035 -1.8375442 4288085770
2.2376499 -1.5329013 -1.8380079 4288085770
2.2837238 -1.5067983 -1.8364727 4288085770
2.343771 -1.4866648 -1.8390723 4288085770
2.3938446 -1.4615517 -1.8375762 4288085770
2.4549007 -1.4404149 -1.8391862 4288085770
2.518961 -1.4182711 -1.8398261 4288085770
2.604969 -1.4030786 -1.8476789 4288085770
2.6660557 -1.3789406 -1.8452904 4288085770
2.725153 -1.3548055 -1.8418822 4288085770
2.8032169 -1.3336277 -1.8426595 4288085770
2.86133 -1.308495 -1.837242 4288085770
2.9483891 -1.2892976 -1.8391068 4288085770
3.0145111 -1.2641454 -1.8327681 4288085770
3.1055813 -1.2449374 -1.8336723 4288085770
3.2166157 -1.2296853 -1.8387712 4288085770
3.3146973 -1.2094607 -1.8377448 4288085770
2.1951981 -0.97408056 -1.8328435 4288085770
3.4038067 -1.1872549 -1.8336309 4288085770
2.2782593 -0.95689201 -1.8346682 4288085770
3.5248508 -1.1709785 -1.8378286 4288085770
2.3413906 -0.93574667 -1.8282981 4288085770
3.6568985 -1.1566772 -1.8421336 4288085770
2.4204807 -0.91656685 -1.8270844 4288085770
3.7769718 -1.1374011 -1.8423231 4288085770
2.531498 -0.90231562 -1.8341829 4288085770
3.8920765 -1.117136 -1.8394638 4288085770
2.623579 -0.88410473 -1.8340966 4288085770
4.0481129 -1.1037784 -1.8450044 4288085770
2.7176781 -0.8658886 -1.8320298 4288085770
4.1891918 -1.0854535 -1.8454 4288085770
2.8057861 -0.84668636 -1.8289044 4288085770
4.3272991 -1.0671344 -1.8427662 4288085770
2.9078846 -0.82845163 -1.8269167 4288085770
4.4544258 -1.0448389 -1.8370259 4288085770
3.027935 -0.81217766 -1.8301046 4288085770
4.6285 -1.0294371 -1.8387446 4288085770
3.1390362 -0.79392147 -1.8282052 4288085770
4.8255482 -1.0159836 -1.8436885 4288085770
3.2690983 -0.77762413 -1.8304913 4288085770
4.988657 -0.99560499 -1.8403014 4288085770
3.4121494 -0.76229572 -1.8339052 4288085770
5.1637878 -0.97619772 -1.835032 4288085770
3.5482311 -0.74498224 -1.834251 4288085770
5.3708763 -0.95971823 -1.8350759 4288085770
3.6693668 -0.72570133 -1.8284506 4288085770
5.5879631 -0.94321442 -1.8352178 4288085770
3.8384056 -0.71031284 -1.8331199 4288085770
5.7921009 -0.92373848 -1.8292338 4288085770
3.993494 -0.69295406 -1.8326526 4288085770
6.0182247 -0.90521193 -1.8254653 4288085770
4.1376381 -0.67361879 -1.8260784 4288085770
6.2683353 -0.88763046 -1.8229326 4288085770
4.2987518 -0.6542449 -1.8226712 4288085770
6.5344486 -0.87001085 -1.820557 4288085770
4.4968052 -0.63978815 -1.8266251 4288085770
6.8155727 -0.85335588 -1.8173286 4288085770
4.6699371 -0.62038565 -1.821336 4288085770
7.1416569 -0.83759737 -1.8185422 4288085770
4.8959885 -0.60486317 -1.8255659 4288085770
7.4548054 -0.8198657 -1.8126292 4288085770
5.1130829 -0.58735943 -1.8247083 4288085770
7.8378811 -0.80597496 -1.8154023 4288085770
5.3272018 -0.56786156 -1.8208222 4288085770
8.252964 -0.79100895 -1.8174907 4288085770
5.5573254 -0.54932499 -1.8170931 4288085770
8.7000465 -0.77696705 -1.8198932 4288085770
5.819416 -0.53171587 -1.8166782 4288085770
9.1851368 -0.76283646 -1.8216696 4288085770
6.0925274 -0.51307964 -1.8143718 4288085770
9.7112331 -0.74760866 -1.8228496 4288085770
6.3806343 -0.49440956 -1.8122131 4288085770
10.249367 -0.73135138 -1.8201481 4288085770
6.6777611 -0.47471619 -1.808143 4288085770
10.891459 -0.71685314 -1.8224685 4288085770
7.0318508 -0.45689201 -1.8086329 4288085770
11.592556 -0.70221615 -1.8243692 4288085770
7.4019547 -0.43802881 -1.8072803 4288085770
12.401633 -0.68832684 -1.8293314 4288085770
7.8110256 -0.41907597 -1.8093112 4288085770
13.249753 -0.67334414 -1.8296777 4288085770
8.2611046 -0.4000268 -1.8107454 4288085770
14.192892 -0.65613747 -1.8279595 4288085770
8.7741508 -0.3808322 -1.815799 4288085770
15.23705 -0.63869333 -1.8252343 4288085770
9.3022346 -0.36059952 -1.8170005 4288085770
16.397255 -0.61897516 -1.8176512 4288085770
9.8953152 -0.33921528 -1.8188418 4288085770
10.528411 -0.31773615 -1.8190764 4288085770
11.281449 -0.29497862 -1.8254913 4288085770
12.08653 -0.27009821 -1.8274187 4288085770
13.030565 -0.245893 -1.8347124 4288085770
14.033667 -0.21654654 -1.8345886 4288085770
15.183749 -0.18685532 -1.8369104 4288085770
16.568779 -0.15561724 -1.8455434 4288085770
17.10272 1.7021775 -1.3096447 4293729569
16.744604 1.8153255 -1.3041965 4293729569
16.697269 1.9522045 -1.3168027 4293729569
16.636967 2.0880539 -1.3262814 4293729569
16.623648 2.2250147 -1.3372205 4293729569
16.606344 2.3649666 -1.3461223 4293729569
16.653002 2.5120695 -1.3576537 4293729569
16.653711 2.6530654 -1.3647321 4293729569
16.609476 2.7899563 -1.3673686 4293729569
16.600229 2.9299307 -1.370349 4293729569
16.673916 3.0831006 -1.3771479 4293729569
16.728645 3.2332268 -1.3807597 4293729569
15.935946 0.047359467 -1.8377739 4288085770
14.58805 0.040110588 -1.8336176 4288085770
13.483071 0.035440445 -1.8388336 4288085770
12.38524 0.033797264 -1.8281198 4288085770
11.469342 0.032587528 -1.825182 4288085770
10.613475 0.03352356 -1.8188307 4288085770
9.9145317 0.034833908 -1.8210114 4288085770
16.191833 0.018951416 -1.8322726 4288085770
9.2076969 0.037130356 -1.812115 4288085770
14.786911 0.026564121 -1.8275667 4288085770
8.5868149 0.040631771 -1.8080581 4288085770
13.614945 0.033734798 -1.8281339 4288085770
8.0429173 0.044317245 -1.8057525 4288085770
12.584982 0.041247845 -1.8290871 4288085770
7.5410347 0.049105167 -1.8018576 4288085770
11.607111 0.049891472 -1.8205485 4288085770
7.1061001 0.054050922 -1.8036162 4288085770
10.772195 0.058876038 -1.8174055 4288085770
6.7031727 0.059074402 -1.804687 4288085770
10.042263 0.068113327 -1.8162872 4288085770
6.3382301 0.065189362 -1.8071293 4288085770
9.3603668 0.077467918 -1.8116374 4288085770
5.9932995 0.071352005 -1.8087668 4288085770
8.7434711 0.085978508 -1.8076215 4288085770
5.6753654 0.077579498 -1.8106675 4288085770
8.2125397 0.095694542 -1.8074454 4288085770
5.3884163 0.084881306 -1.8138716 4288085770
7.6856651 0.1054225 -1.8013085 4288085770
5.1104813 0.092205524 -1.8161633 4288085770
7.2547131 0.11437798 -1.8041079 4288085770
4.8395729 0.099547386 -1.8155235 4288085770
6.8407917 0.12437534 -1.8030736 4288085770
4.5866718 0.10693407 -1.8140595 4288085770
6.4788418 0.13449717 -1.8055469 4288085770
4.3347893 0.11432362 -1.810605 4288085770
6.130909 0.14465284 -1.8061569 4288085770
4.1118889 0.12278223 -1.8094343 4288085770
5.8199577 0.15389681 -1.8091274 4288085770
3.923912 0.13132 -1.8156048 4288085770
5.5349941 0.16420269 -1.8133521 4288085770
3.7349777 0.13885927 -1.817765 4288085770
5.2490559 0.17450809 -1.8145671 4288085770
3.545063 0.14739561 -1.8179162 4288085770
4.9801502 0.18485594 -1.8129481 4288085770
3.3771248 0.15598488 -1.820282 4288085770
4.713253 0.19520855 -1.8103487 4288085770
3.209198 0.16557407 -1.8216482 4288085770
4.4693565 0.20561695 -1.8079737 4288085770
3.0552673 0.17519665 -1.8231512 4288085770
4.2514267 0.21608591 -1.8088524 4288085770
2.8664589 0.18374252 -1.8123124 4288085770
4.0435085 0.22657967 -1.8088287 4288085770
2.7125683 0.19336748 -1.8098153 4288085770
3.8615551 0.23813391 -1.8120593 4288085770
2.5905991 0.20306492 -1.8156306 4288085770
3.6656551 0.2486577 -1.8101526 4288085770
2.4467278 0.21271515 -1.8112313 4288085770
3.5126801 0.26028061 -1.8156662 4288085770
2.3208179 0.22240686 -1.8110074 4288085770
3.3268108 0.27082968 -1.8108574 4288085770
2.1969166 0.23210335 -1.8098032 4288085770
3.1898251 0.28249073 -1.8175271 4288085770
3.0379105 0.29412031 -1.8170506 4288085770
2.8929977 0.30476522 -1.8166417 4288085770
2.736145 0.31538582 -1.8101159 4288085770
2.6022396 0.32705832 -1.8088149 4288085770
2.4683533 0.33773184 -1.8055137 4288085770
2.3454475 0.34943056 -1.8043202 4288085770
2.2395096 0.36116838 -1.8062925 4288085770
2.1672497 2.5754712 -1.8008474 4288085770
2.29422 2.6217716 -1.8051164 4288085770
2.4142399 2.6630569 -1.8053145 4288085770
2.5402565 2.7053571 -1.805572 4288085770
2.6712608 2.7486687 -1.806879 4288085770
2.8023014 2.7899818 -1.8051852 4288085770
2.9522858 2.8373389 -1.8076804 4288085770
3.1042595 2.8857012 -1.8101956 4288085770
3.2522945 2.9280553 -1.808669 4288085770
2.2582607 2.5266445 -1.8097202 4288085770
3.4302387 2.983479 -1.8134426 4288085770
2.3813038 2.5589373 -1.8099434 4288085770
3.6560287 3.0570123 -1.8296953 4288085770
2.5033607 2.5892284 -1.8091558 4288085770
3.8290424 3.1044269 -1.8294164 4288085770
2.6284161 2.6195266 -1.8083977 4288085770
4.0130444 3.1558676 -1.8292472 4288085770
2.7524986 2.6478238 -1.8056289 4288085770
4.2219791 3.2143664 -1.8343264 4288085770
2.8994999 2.6831727 -1.8090888 4288085770
4.4299507 3.2698646 -1.8363947 4288085770
3.0345688 2.712496 -1.8074285 4288085770
4.6538906 3.3304 -1.8406222 4288085770
3.1955662 2.7498791 -1.8110265 4288085770
4.8778687 3.3869371 -1.8418479 4288085770
3.3466167 2.7822404 -1.8105246 4288085770
5.1168156 3.4475095 -1.8452225 4288085770
3.4867134 2.8075767 -1.8069113 4288085770
5.3637829 3.5081024 -1.846676 4288085770
3.7095547 2.8641043 -1.8221265 4288085770
5.6127644 3.5667007 -1.8471479 4288085770
3.8516903 2.885447 -1.8155313 4288085770
5.8757439 3.6263332 -1.8477578 4288085770
4.0486698 2.9259167 -1.8204842 4288085770
6.162693 3.6930227 -1.8496068 4288085770
4.2546349 2.9674077 -1.8265257 4288085770
6.4586468 3.7587342 -1.8515432 4288085770
4.4287224 2.9948268 -1.823247 4288085770
6.7795715 3.8295059 -1.854727 4288085770
4.6237812 3.0262949 -1.8221763 4288085770
7.1134968 3.901309 -1.8580393 4288085770
4.8407764 3.0638142 -1.8263241 4288085770
7.460434 3.9731438 -1.8604792 4288085770
5.0647774 3.1023502 -1.8295411 4288085770
7.8383312 4.052053 -1.8652265 4288085770
5.2838249 3.1348767 -1.8297063 4288085770
8.2392178 4.1350174 -1.8702013 4288085770
5.5128708 3.1674271 -1.8299698 4288085770
8.6600914 4.2190299 -1.8763731 4288085770
5.7708473 3.2080445 -1.8355212 4288085770
9.0550785 4.2889838 -1.8742832 4288085770
6.0198822 3.2416425 -1.8369813 4288085770
9.5399075 4.3851509 -1.8820885 4288085770
6.26894 3.2712419 -1.8364395 4288085770
10.066692 4.4874177 -1.8933089 4288085770
6.5279884 3.3028646 -1.8369969 4288085770
10.559606 4.5736074 -1.8951881 4288085770
6.7970352 3.3335121 -1.837652 4288085770
11.139398 4.6800041 -1.9049305 4288085770
7.0810852 3.3641958 -1.8384542 4288085770
11.73521 4.7854395 -1.9128296 4288085770
7.3950768 3.4009495 -1.8435535 4288085770
12.340092 4.8829007 -1.9158133 4288085770
7.6921539 3.4276659 -1.8424815 4288085770
12.981937 4.9864502 -1.9211631 4288085770
8.0171871 3.4594483 -1.8446865 4288085770
13.633847 5.0830269 -1.921608 4288085770
8.3532124 3.4902568 -1.8479991 4288085770
14.353696 5.1917658 -1.9257257 4288085770
8.7271881 3.5271559 -1.854687 4288085770
15.118531 5.3026147 -1.9302856 4288085770
9.0982208 3.5580497 -1.857343 4288085770
15.934382 5.4165878 -1.9333479 4288085770
9.456296 3.5799134 -1.8578674 4288085770
16.824171 5.5427384 -1.940142 4288085770
9.8413515 3.6058416 -1.8596586 4288085770
10.23043 3.6257806 -1.8604861 4288085770
10.664463 3.6518264 -1.8647581 4288085770
11.069584 3.6658058 -1.8627403 4288085770
11.523642 3.6849012 -1.8662053 4288085770
11.976745 3.6979957 -1.8666579 4288085770
12.486777 3.7182255 -1.8726728 4288085770
12.982875 3.7284238 -1.8745459 4288085770
13.449059 3.7245522 -1.8711183 4288085770
13.970182 3.7278118 -1.8722337 4288085770
14.494336 3.7220793 -1.8723744 4288085770
15.054489 3.716434 -1.8728683 4288085770
15.638622 3.7098458 -1.8755971 4288085770
16.236778 3.6962926 -1.8774602 4288085770
16.836983 3.6737447 -1.8773388 4288085770
16.990448 2.896244 -1.5834458 4293729569
16.746571 2.7286799 -1.5209665 4293729569
16.704475 2.5895977 -1.4744824 4293729569
16.709307 2.4566257 -1.4344622 4293729569
16.700142 2.32162 -1.3943037 4293729569
16.698959 2.1866326 -1.3562233 4293729569
16.779684 2.05984 -1.3259516 4293729569
16.824432 1.9279609 -1.2943239 4293729569
16.928116 1.8012218 -1.2682778 4293729569
16.721523 -4.6876636 -1.6520835 4293729569
16.089582 -4.6642013 -1.648893 4293729569
15.499622 -4.6466422 -1.6491115 4293729569
14.917654 -4.6200604 -1.6484129 4293729569
14.417664 -4.6072822 -1.6535124 4293729569
13.869678 -4.5756202 -1.6531497 4293729569
13.374679 -4.5508294 -1.6563039 4293729569
12.895672 -4.5239997 -1.6596161 4293729569
12.366667 -4.4762912 -1.6574472 4293729569
11.91065 -4.4414039 -1.659989 4293729569
11.492626 -4.4124284 -1.6649008 4293729569
11.038602 -4.3665366 -1.6654671 4293729569
10.650574 -4.3354888 -1.6706743 4293729569
10.301521 -4.3123469 -1.6802604 4293729569
17.019573 -6.6119523 -1.5720714 4293729569
9.9334736 -4.2782521 -1.6866652 4293729569
16.088161 -6.4262233 -1.5750211 4293729569
9.6424007 -4.2639709 -1.7008162 4293729569
13.172647 -5.535234 -1.403832 4293729569
9.3143473 -4.2327771 -1.7086121 4293729569
13.077359 -5.6054978 -1.4618658 4293729569
9.0502701 -4.2204318 -1.7240273 4293729569
12.984054 -5.6767602 -1.5219188 4293729569
8.7961693 -4.2060628 -1.7405411 4293729569
12.87875 -5.7390504 -1.578858 4293729569
8.5570793 -4.1936564 -1.7572014 4288085770
12.418449 -5.6681857 -1.6013763 4293729569
8.329977 -4.1842246 -1.7759781 4288085770
11.84516 -5.5475888 -1.6098092 4293729569
8.1038742 -4.1707873 -1.7937666 4288085770
11.318874 -5.4368806 -1.6206987 4293729569
7.8927689 -4.160316 -1.8127007 4288085770
10.776616 -5.3132071 -1.6254374 4293729569
7.6156979 -4.118999 -1.8200021 4288085770
10.252364 -5.1884875 -1.629353 4293729569
7.3376293 -4.0746837 -1.8262949 4288085770
9.8401213 -5.1015038 -1.6423503 4293729569
7.0376072 -4.0154176 -1.8243792 4288085770
9.3399086 -4.9727244 -1.6415039 4293729569
6.7405663 -3.954145 -1.8234937 4288085770
8.8507004 -4.8429189 -1.6397657 4293729569
6.4605312 -3.8978314 -1.8237728 4288085770
8.402523 -4.722012 -1.6374259 4293729569
6.1785011 -3.8335204 -1.8210361 4288085770
8.0093346 -4.6209769 -1.6416165 4293729569
5.9014931 -3.7691979 -1.8163482 4288085770
7.6081657 -4.5089564 -1.6407337 4293729569
5.6384792 -3.706841 -1.8127972 4288085770
7.2350159 -4.4048705 -1.6401222 4293729569
5.413435 -3.6563954 -1.8156132 4288085770
6.9138489 -4.3186603 -1.6460124 4293729569
5.2123814 -3.6148925 -1.8216605 4288085770
6.6226883 -4.2403769 -1.6531936 4293729569
4.9643764 -3.5484977 -1.8162584 4288085770
6.3395329 -4.1640744 -1.6604521 4293729569
4.7233753 -3.4820867 -1.8099251 4288085770
6.0813866 -4.0937114 -1.6679533 4293729569
4.5483265 -3.4425206 -1.8162266 4288085770
5.9301758 -4.069097 -1.6944829 4293729569
4.3752708 -3.4019504 -1.8225483 4288085770
5.8209438 -4.0623841 -1.7274163 4293729569
4.1642761 -3.3394661 -1.8175076 4288085770
5.7167187 -4.0566592 -1.7603983 4288085770
4.0042324 -3.2998633 -1.8229566 4288085770
5.6234779 -4.0539098 -1.7954867 4288085770
3.8302059 -3.2502937 -1.8242726 4288085770
5.4852791 -4.0262647 -1.8201455 4288085770
3.6731758 -3.2066827 -1.8277529 4288085770
5.2451649 -3.9478545 -1.8228273 4288085770
3.4951725 -3.1511197 -1.8250329 4288085770
5.0060616 -3.8654418 -1.8235209 4288085770
3.3391628 -3.1035047 -1.825525 4288085770
4.7360229 -3.765099 -1.8129191 4288085770
3.1951389 -3.0598621 -1.8281329 4288085770
4.51894 -3.6876321 -1.8128262 4288085770
3.0571079 -3.0172052 -1.8317994 4288085770
4.309864 -3.6121469 -1.8128113 4288085770
2.8901443 -2.957613 -1.8241893 4288085770
4.1187897 -3.5426183 -1.8139701 4288085770
2.7521267 -2.9099469 -1.8248601 4288085770
3.9367065 -3.475059 -1.8162184 4288085770
2.6301136 -2.8702502 -1.8276824 4288085770
3.7726326 -3.4144654 -1.8196381 4288085770
2.515089 -2.8305368 -1.8315734 4288085770
3.6135597 -3.3538594 -1.8231071 4288085770
2.4100571 -2.7958007 -1.8375602 4288085770
3.4455128 -3.2872729 -1.8224906 4288085770
2.2770748 -2.7441273 -1.83328 4288085770
3.2884426 -3.2236605 -1.8239803 4288085770
2.1630707 -2.7004099 -1.8341826 4288085770
3.1284256 -3.157053 -1.8204424 4288085770
3.0103416 -3.1093488 -1.8283077 4288085770
2.862318 -3.044713 -1.8258866 4288085770
2.7342854 -2.9900303 -1.8266572 4288085770
2.6072578 -2.9323444 -1.826439 4288085770
2.4852333 -2.876646 -1.826269 4288085770
2.3831806 -2.8299017 -1.8312908 4288085770
2.2781525 -2.7801638 -1.8332849 4288085770
2.1711388 -2.7284298 -1.8332602 4288085770
2.2139912 -0.44568872 -1.8099822 4288085770
2.3100891 -0.43245649 -1.8089385 4288085770
2.4121799 -0.41920996 -1.8089541 4288085770
2.5272388 -0.40693283 -1.8120974 4288085770
2.634346 -0.39267302 -1.8101628 4288085770
2.7614079 -0.38136625 -1.8134243 4288085770
2.8954678 -0.36904335 -1.8167553 4288085770
3.0255451 -0.3567276 -1.8180469 4288085770
3.1596451 -0.34340191 -1.8173789 4288085770
2.1545105 -0.24686909 -1.8075045 4288085770
3.2967606 -0.33006763 -1.8147404 4288085770
2.2645931 -0.23560333 -1.808598 4288085770
3.4518394 -0.3176918 -1.8162792 4288085770
2.3796844 -0.22332478 -1.8087416 4288085770
3.5899754 -0.30435419 -1.8116511 4288085770
2.4997673 -0.2120347 -1.8099341 4288085770
3.7580605 -0.29094505 -1.8123189 4288085770
2.6188679 -0.19974518 -1.8091171 4288085770
3.9291668 -0.27852774 -1.8110161 4288085770
2.7689114 -0.18938303 -1.8146054 4288085770
4.1012897 -0.26510715 -1.8077238 4288085770
2.9139709 -0.1780324 -1.8180448 4288085770
4.311348 -0.25359583 -1.8118055 4288085770
3.0670414 -0.16666126 -1.8205634 4288085770
4.5094719 -0.24111128 -1.8087697 4288085770
3.2121601 -0.15430784 -1.8180037 4288085770
4.7155991 -0.22860718 -1.8058131 4288085770
3.3652592 -0.1429348 -1.8175226 4288085770
4.9676647 -0.21699286 -1.80931 4288085770
3.5443325 -0.13149929 -1.8202983 4288085770
5.220747 -0.20437431 -1.8108176 4288085770
3.7254124 -0.12105894 -1.8220934 4288085770
5.4778709 -0.19174528 -1.8083649 4288085770
3.8905678 -0.10865355 -1.8157318 4288085770
5.7699509 -0.18003082 -1.8102576 4288085770
4.074688 -0.097203255 -1.8135573 4288085770
6.0610943 -0.16731596 -1.8061411 4288085770
4.2738171 -0.085716248 -1.8105311 4288085770
6.3682232 -0.15456247 -1.8031828 4288085770
4.5208549 -0.075115681 -1.8169782 4288085770
6.7253227 -0.1426878 -1.8037181 4288085770
4.7579517 -0.06353569 -1.8173276 4288085770
7.09445 -0.12978172 -1.8013728 4288085770
5.0040607 -0.05293417 -1.8167655 4288085770
7.5095577 -0.117764 -1.8014814 4288085770
5.2691631 -0.041284561 -1.8163917 4288085770
7.972641 -0.10562849 -1.8040645 4288085770
5.5372982 -0.029626846 -1.813048 4288085770
8.4867134 -0.094368458 -1.808151 4288085770
5.8424015 -0.01887989 -1.8130692 4288085770
9.0438156 -0.082000732 -1.8096634 4288085770
6.156538 -0.0081086159 -1.8101797 4288085770
9.6738834 -0.070455074 -1.8148967 4288085770
6.48069 0.0026879311 -1.8053893 4288085770
10.321996 -0.057862759 -1.8153089 4288085770
6.8468132 0.013586521 -1.8040138 4288085770
11.075078 -0.046013355 -1.8197583 4288085770
7.2628994 0.024606228 -1.8061326 4288085770
11.936154 -0.03389883 -1.8252752 4288085770
7.7150002 0.034716129 -1.8076067 4288085770
12.91123 -0.020502567 -1.8309196 4288085770
8.2310753 0.045981407 -1.8117139 4288085770
13.969354 -0.0068998337 -1.8323849 4288085770
8.7881603 0.056348801 -1.8152261 4288085770
15.174481 0.0060653687 -1.834303 4288085770
9.419219 0.066896915 -1.8214698 4288085770
16.636566 0.019660473 -1.8417614 4288085770
10.062339 0.077477932 -1.8218328 4288085770
10.838404 0.087383747 -1.8285098 4288085770
11.670505 0.098429203 -1.8317413 4288085770
12.63457 0.1087985 -1.8392771 4288085770
13.725659 0.11948156 -1.8450689 4288085770
14.889824 0.13034821 -1.8435833 4288085770
16.288939 0.14079237 -1.8484204 4288085770
16.004938 0.33885145 -1.8381472 4288085770
14.704958 0.35355282 -1.8371887 4288085770
13.60896 0.36776972 -1.8392646 4288085770
12.625975 0.38227367 -1.8404673 4288085770
11.698085 0.39391947 -1.8332181 4288085770
10.924114 0.40795231 -1.8345048 4288085770
10.188213 0.42008352 -1.8291702 4288085770
16.58622 0.60930824 -1.820044 4288085770
9.498353 0.43133307 -1.8202943 4288085770
15.301204 0.6190443 -1.8242331 4288085770
8.9114361 0.44384146 -1.8174455 4288085770
14.160218 0.62814665 -1.825858 4288085770
8.400486 0.45654058 -1.8183547 4288085770
13.152238 0.63858604 -1.8278096 4288085770
7.9225636 0.46832466 -1.8165925 4288085770
12.237304 0.64726257 -1.8256885 4288085770
7.503582 0.48225689 -1.8204193 4288085770
11.424363 0.657197 -1.8245847 4288085770
7.0876789 0.49419785 -1.8172758 4288085770
10.692441 0.66633701 -1.8222886 4288085770
6.7117519 0.50623989 -1.8165308 4288085770
10.026515 0.67564392 -1.8206508 4288085770
6.3668251 0.51836061 -1.8160952 4288085770
9.4195938 0.68610096 -1.8186015 4288085770
6.0718384 0.53260565 -1.8211585 4288085770
8.8597012 0.695678 -1.8140211 4288085770
5.7768974 0.54485273 -1.8222215 4288085770
8.3747635 0.70644331 -1.8141886 4288085770
5.4999771 0.55714512 -1.8214638 4288085770
7.9328232 0.71731734 -1.814785 4288085770
5.2609921 0.57053232 -1.8270855 4288085770
7.5418587 0.72931981 -1.8178903 4288085770
5.0519905 0.58499479 -1.8340064 4288085770
7.1559448 0.74033689 -1.8160453 4288085770
4.7921295 0.59633255 -1.8274183 4288085770
6.7980194 0.75142431 -1.8154793 4288085770
4.5652218 0.60775328 -1.8251592 4288085770
6.4700871 0.76358771 -1.8152131 4288085770
4.3403511 0.61917925 -1.8199202 4288085770
6.1761436 0.77583647 -1.816286 4288085770
4.1574001 0.6327095 -1.8221003 4288085770
5.9061832 0.78814554 -1.8195978 4288085770
3.9664955 0.64522076 -1.8202007 4288085770
5.6392593 0.80046391 -1.8189402 4288085770
3.7965679 0.65778446 -1.82051 4288085770
5.4102802 0.81487632 -1.8236617 4288085770
3.6336384 0.67036581 -1.8208894 4288085770
5.1873245 0.82830477 -1.8264427 4288085770
3.4856987 0.68398499 -1.8224187 4288085770
4.9643974 0.840734 -1.8262236 4288085770
3.3407555 0.69761133 -1.8239778 4288085770
4.750494 0.85318685 -1.8240944 4288085770
3.210804 0.71127534 -1.8266865 4288085770
4.5336151 0.86363292 -1.8199346 4288085770
3.0768814 0.72493029 -1.8263555 4288085770
4.3397198 0.87513661 -1.8170046 4288085770
2.9270382 0.73554754 -1.8188641 4288085770
4.1528206 0.88765812 -1.8141446 4288085770
2.8080959 0.74923968 -1.8206825 4288085770
3.9719391 0.89819527 -1.810344 4288085770
2.684206 0.76192117 -1.8174511 4288085770
3.8409519 0.91485572 -1.8160436 4288085770
2.5633183 0.77361035 -1.8142489 4288085770
3.6810551 0.92644596 -1.8134525 4288085770
2.4623795 0.78834867 -1.8152473 4288085770
3.5371437 0.94007587 -1.8120217 4288085770
2.3724136 0.80311346 -1.8193554 4288085770
3.4141808 0.95475698 -1.8158004 4288085770
2.2734966 0.81685734 -1.8183732 4288085770
3.2902489 0.96943784 -1.8155695 4288085770
2.1626415 0.82757282 -1.8122709 4288085770
3.1683292 0.98312306 -1.8153579 4288085770
3.0494022 0.99781609 -1.8151767 4288085770
2.9255238 1.0094976 -1.8109448 4288085770
2.8166084 1.0242162 -1.8098634 4288085770
2.7116947 1.0379453 -1.8088216 4288085770
2.6217575 1.0537112 -1.8099298 4288085770
2.5108986 1.0654266 -1.8038276 4288085770
2.4409103 1.0832417 -1.809136 4288085770
2.3559837 1.099021 -1.8092943 4288085770
2.2770519 1.1148148 -1.8095123 4288085770
2.1881771 1.1285856 -1.8046302 4288085770
2.1626072 3.2301645 -1.8150971 4288085770
2.2605267 3.2964082 -1.8180972 4288085770
2.3773823 3.3736985 -1.8252906 4288085770
2.4882774 3.4459743 -1.8294224 4288085770
2.6300468 3.5363264 -1.841869 4288085770
2.7499485 3.610626 -1.8450915 4288085770
2.8639107 3.680912 -1.8432529 4288085770
3.0057583 3.7672668 -1.8486985 4288085770
3.159584 3.8586516 -1.8552657 4288085770
3.3084431 3.9450245 -1.8597814 4288085770
3.449379 4.0253792 -1.8582153 4288085770
2.2752361 3.3843899 -1.8352706 4288085770
3.6192131 4.1208053 -1.8629436 4288085770
2.4160671 3.4617405 -1.8447032 4288085770
3.785099 4.2122235 -1.8636307 4288085770
2.5400009 3.5270505 -1.8469626 4288085770
3.9699192 4.3126879 -1.8685101 4288085770
2.6659431 3.5923662 -1.848242 4288085770
4.1747036 4.423203 -1.8745927 4288085770
2.8227768 3.6737583 -1.8568356 4288085770
4.3775196 4.5297141 -1.8786538 4288085770
2.9437981 3.7320628 -1.8520629 4288085770
4.6022968 4.6472807 -1.8839381 4288085770
3.0877266 3.8014245 -1.8535233 4288085770
4.8290901 4.7628527 -1.8872416 4288085770
3.2525902 3.8818383 -1.8591967 4288085770
5.0748405 4.8864727 -1.8937376 4288085770
3.4164925 3.9592502 -1.8618591 4288085770
5.3345852 5.0161285 -1.8993748 4288085770
3.5714512 4.0286407 -1.8604294 4288085770
5.6023426 5.1468053 -1.9030927 4288085770
3.7543163 4.1121001 -1.8652834 4288085770
5.9000263 5.2915568 -1.9111141 4288085770
3.9441872 4.1975789 -1.8692079 4288085770
6.2057362 5.4373302 -1.9162161 4288085770
4.1390648 4.2830691 -1.8721823 4288085770
6.5533543 5.6022096 -1.9257432 4288085770
4.328989 4.3625488 -1.8721051 4288085770
6.8711071 5.747015 -1.9269648 4288085770
4.539856 4.4520807 -1.8752406 4288085770
7.2457237 5.9199634 -1.9347639 4288085770
4.790617 4.5597119 -1.8847808 4288085770
7.6662579 6.1130276 -1.9460287 4288085770
5.0274544 4.6563101 -1.8891779 4288085770
8.1027946 6.3091335 -1.9564543 4288085770
5.2832623 4.7599564 -1.8947672 4288085770
8.5922337 6.5293732 -1.9704163 4288085770
5.5440922 4.863615 -1.8984063 4288085770
9.0777416 6.7426043 -1.9793365 4288085770
5.8059425 4.9632773 -1.901054 4288085770
9.5812683 6.9568825 -1.9864366 4288085770
6.1007252 5.0770226 -1.9070356 4288085770
10.145693 7.1983147 -1.9971544 4288085770
6.3875694 5.1817489 -1.9089346 4288085770
10.769034 7.4628963 -2.0104685 4288085770
6.7073345 5.3005586 -1.9151675 4288085770
11.456278 7.7546411 -2.0264299 4288085770
7.0351238 5.4183893 -1.9194797 4288085770
12.149597 8.0384026 -2.0374489 4288085770
7.3788948 5.5392594 -1.9249526 4288085770
7.7466316 5.6691909 -1.9316682 4288085770
8.130373 5.8011642 -1.9375441 4288085770
8.5171566 5.9281454 -1.9404483 4288085770
8.9538364 6.0752525 -1.9488579 4288085770
9.4444151 6.2414951 -1.9628124 4288085770
9.9310637 6.3997307 -1.9717247 4288085770
10.457655 6.5690665 -1.9840399 4288085770
10.990293 6.7344184 -1.9924134 4288085770
11.525988 6.8927803 -1.9968151 4288085770
12.071694 7.0471678 -2.0013151 4288085770
12.674328 7.2206998 -2.0083904 4288085770
13.301984 7.3942966 -2.0137153 4288085770
13.904735 7.548831 -2.0137846 4288085770
14.680161 7.7688017 -2.0306013 4288085770
15.406772 7.9566507 -2.0369186 4288085770
17.093418 -2.0913148 -1.8401569 4288085770
16.360649 -2.1341929 -1.8358291 4288085770
15.725833 -2.1768227 -1.8364792 4288085770
15.161987 -2.2232718 -1.8418366 4288085770
14.526177 -2.2519026 -1.8384812 4288085770
14.028287 -2.2911844 -1.8464994 4288085770
13.407479 -2.3057761 -1.8392987 4288085770
12.87062 -2.3251543 -1.8389344 4288085770
12.351768 -2.3384867 -1.8367517 4288085770
11.863894 -2.34974 -1.835879 4288085770
11.402015 -2.361927 -1.8362653 4288085770
10.92715 -2.3641467 -1.8325254 4288085770
10.499259 -2.369247 -1.8322533 4288085770
17.020069 -3.6255498 -1.8128886 4288085770
10.066375 -2.3683586 -1.8299336 4288085770
16.139988 -3.5748076 -1.8151238 4288085770
9.6824675 -2.371347 -1.8311014 4288085770
15.30292 -3.5189538 -1.8147898 4288085770
9.2735939 -2.3633971 -1.8260235 4288085770
14.533854 -3.4679284 -1.8161329 4288085770
8.8647251 -2.3504467 -1.8189472 4288085770
13.81179 -3.4187827 -1.8179443 4288085770
8.5078106 -2.3433657 -1.8183876 4288085770
13.15872 -3.3734603 -1.821443 4288085770
8.1888847 -2.340188 -1.8202059 4288085770
12.521667 -3.3230968 -1.8221031 4288085770
7.8719578 -2.3330045 -1.8210456 4288085770
11.905628 -3.2706785 -1.8209735 4288085770
7.5440559 -2.3198485 -1.8177775 4288085770
11.298615 -3.2122359 -1.8159357 4288085770
7.2581158 -2.3115864 -1.8199269 4288085770
10.779571 -3.1675706 -1.8177717 4288085770
6.9761887 -2.3013129 -1.8201168 4288085770
10.247552 -3.1129365 -1.8144811 4288085770
6.7112427 -2.2909975 -1.8224761 4288085770
9.7785263 -3.0681429 -1.814816 4288085770
6.4543037 -2.2806611 -1.8239155 4288085770
9.3354921 -3.0242829 -1.8164098 4288085770
6.2223396 -2.2722616 -1.8286037 4288085770
8.9124718 -2.9783707 -1.8162041 4288085770
5.9893856 -2.2598643 -1.8312832 4288085770
8.511446 -2.9354033 -1.817217 4288085770
5.7564468 -2.2454662 -1.8319633 4288085770
8.1424255 -2.8943539 -1.8185484 4288085770
5.5075302 -2.2241073 -1.8284862 4288085770
7.7494297 -2.8433638 -1.8146439 4288085770
5.2865925 -2.2066789 -1.8282871 4288085770
7.3824482 -2.7943077 -1.8099982 4288085770
5.0816422 -2.1922097 -1.8302467 4288085770
7.0774193 -2.7590957 -1.8139664 4288085770
4.8737068 -2.1727467 -1.829178 4288085770
6.7703991 -2.7198873 -1.8159159 4288085770
4.6587963 -2.149302 -1.8250409 4288085770
6.5013752 -2.686583 -1.8202426 4288085770
4.4838333 -2.1347561 -1.8282999 4288085770
6.2333546 -2.6522756 -1.82358 4288085770
4.2859039 -2.1112676 -1.8253323 4288085770
5.9513607 -2.6090021 -1.8217802 4288085770
4.1159344 -2.0947089 -1.8286418 4288085770
5.7073441 -2.575634 -1.8253567 4288085770
3.9629631 -2.0801072 -1.8331202 4288085770
5.4393673 -2.5313244 -1.8216972 4288085770
3.8010082 -2.0615282 -1.8345102 4288085770
5.2063789 -2.4939265 -1.8213848 4288085770
3.6500511 -2.0449214 -1.8370092 4288085770
4.9853764 -2.4584985 -1.8231914 4288085770
3.4791279 -2.0183635 -1.8333122 4288085770
4.7713814 -2.4230518 -1.8240678 4288085770
3.3222027 -1.9957705 -1.8307536 4288085770
4.5594006 -2.3846002 -1.8229653 4288085770
3.1812477 -1.9761372 -1.8323534 4288085770
4.3504276 -2.3461399 -1.8208927 4288085770
3.0592613 -1.9614563 -1.8381411 4288085770
4.1694298 -2.3136091 -1.8230975 4288085770
2.9213161 -1.9388151 -1.837772 4288085770
3.9994183 -2.2840524 -1.8274109 4288085770
2.7893639 -1.9171586 -1.8384622 4288085770
3.8463974 -2.258451 -1.8338928 4288085770
2.667408 -1.8984776 -1.8402513 4288085770
3.6804085 -2.2258825 -1.8352473 4288085770
2.5364799 -1.8738174 -1.8379529 4288085770
3.5004616 -2.185348 -1.8304648 4288085770
2.4344883 -1.8580866 -1.8439404 4288085770
3.3514748 -2.1547351 -1.8319883 4288085770
2.3155441 -1.8353968 -1.8437607 4288085770
3.1955109 -2.1201396 -1.8304433 4288085770
2.2025967 -1.8126912 -1.8436412 4288085770
3.0505314 -2.0875168 -1.8310072 4288085770
2.9115543 -2.0558782 -1.8316311 4288085770
2.7855625 -2.0272069 -1.8343834 4288085770
2.6575947 -1.9955406 -1.8341169 4288085770
2.5376225 -1.9668536 -1.8349291 4288085770
2.4146633 -1.935174 -1.8337125 4288085770
2.3056717 -1.9064598 -1.8366344 4288085770
2.2006931 -1.8787341 -1.8385959 4288085770
2.1566105 0.17059278 -1.8007724 4288085770
2.2706795 0.18288088 -1.802914 4288085770
2.3917484 0.19518614 -1.8051252 4288085770
2.5198078 0.20751047 -1.8084064 4288085770
2.6429081 0.21882248 -1.8076375 4288085770
2.7809792 0.23117256 -1.8100185 4288085770
2.9230556 0.24353266 -1.8114394 4288085770
3.0870934 0.25594807 -1.8170794 4288085770
2.1701698 0.26158762 -1.8089339 4288085770
3.2312126 0.26731539 -1.8145204 4288085770
2.279295 0.27086449 -1.8060248 4288085770
3.3823318 0.27870035 -1.8120308 4288085770
2.4153385 0.28120708 -1.8113852 4288085770
3.5534172 0.29113531 -1.8127413 4288085770
2.5394554 0.29052305 -1.8096256 4288085770
3.7295151 0.30258417 -1.8125012 4288085770
2.6755486 0.29986811 -1.8099858 4288085770
3.9176102 0.315063 -1.8123809 4288085770
2.823616 0.30924368 -1.8134656 4288085770
4.1167088 0.32657146 -1.8123705 4288085770
2.98069 0.31864214 -1.8160353 4288085770
4.3307953 0.33811665 -1.8135093 4288085770
3.1487541 0.32806873 -1.8197145 4288085770
4.5758362 0.35074139 -1.8189578 4288085770
3.3178387 0.33749914 -1.821404 4288085770
4.8368778 0.36340666 -1.8245659 4288085770
3.476965 0.34590387 -1.8189936 4288085770
5.0889702 0.37605095 -1.8250843 4288085770
3.6610622 0.35437346 -1.8198324 4288085770
5.3291397 0.3866663 -1.8184829 4288085770
3.8411865 0.36283207 -1.8176316 4288085770
5.6012611 0.39836311 -1.8162009 4288085770
4.0293159 0.37031221 -1.8155103 4288085770
5.8983784 0.40912342 -1.815168 4288085770
4.2593708 0.37889862 -1.8208078 4288085770
6.2184982 0.42094374 -1.8133647 4288085770
4.5014324 0.38751602 -1.8252254 4288085770
6.5646095 0.43283033 -1.812821 4288085770
4.7544956 0.39616108 -1.8297524 4288085770
6.9586792 0.44583988 -1.8157564 4288085770
5.0006237 0.40279055 -1.8282094 4288085770
7.3687878 0.45789099 -1.8158512 4288085770
5.2587566 0.41045141 -1.8257867 4288085770
7.8138924 0.47003269 -1.8162953 4288085770
5.5219269 0.4161253 -1.8204134 4288085770
8.2940159 0.482265 -1.8150887 4288085770
5.8310299 0.42291641 -1.8214989 4288085770
8.8350925 0.49465322 -1.8184904 4288085770
6.1461735 0.42872477 -1.8186444 4288085770
9.437171 0.50819874 -1.8215013 4288085770
6.4813118 0.43358278 -1.8169891 4288085770
10.111231 0.52192879 -1.8272305 4288085770
6.8684044 0.4395752 -1.8198526 4288085770
10.82534 0.53476381 -1.8283587 4288085770
7.2605419 0.44358015 -1.8187656 4288085770
11.629427 0.54782915 -1.8323848 4288085770
7.6966782 0.44769907 -1.8181179 4288085770
12.508556 0.56108904 -1.8321595 4288085770
8.1628227 0.45089626 -1.8167692 4288085770
13.510682 0.5746665 -1.8331618 4288085770
8.7079124 0.45529413 -1.8212088 4288085770
14.595868 0.58645868 -1.8289918 4288085770
9.3010044 0.4578166 -1.8261268 4288085770
15.897996 0.60080862 -1.8309875 4288085770
9.9371367 0.45944977 -1.8274739 4288085770
10.665236 0.46032 -1.8327386 4288085770
11.440361 0.45931101 -1.8364717 4288085770
12.294513 0.45650721 -1.8379928 4288085770
13.277663 0.45303488 -1.8408009 4288085770
14.350835 0.44679451 -1.8425063 4288085770
15.573028 0.43793964 -1.8436978 4288085770
16.922272 0.42541265 -1.8411558 4288085770
7.1250305 -5.0682893 -0.26209146 4293729569
7.1255684 -5.0033011 -0.30311912 4293729569
7.1681614 -4.9592042 -0.34456217 4293729569
16.763096 -7.8436627 -1.5119705 4293729569
16.375261 -7.543674 -1.5271703 4293729569
16.029505 -7.2655721 -1.5407852 4293729569
15.693789 -6.996448 -1.552498 4293729569
15.367126 -6.7342982 -1.561299 4293729569
13.140217 -5.7780366 -1.4042445 4293729569
13.077732 -5.6342063 -1.4266598 4293729569
13.237547 -5.5616384 -0.63323796 4293729569
13.124292 -5.5320945 -1.4561567 4293729569
13.260099 -5.4485888 -0.66049683 4293729569
14.417911 -5.8567748 -1.5970353 4293729569
14.205437 -5.6523299 -1.6019634 4293729569
14.021002 -5.4628119 -1.6071681 4293729569
13.859612 -5.2842336 -1.6106005 4293729569
13.861214 -5.1592345 -1.6296518 4293729569
13.744863 -4.9985414 -1.6345304 4293729569
13.688516 -4.854692 -1.6430054 4293729569
13.610194 -4.7068982 -1.6482611 4293729569
13.596881 -4.5799375 -1.6581625 4293729569
13.698561 -4.4816823 -1.6772084 4293729569
14.109182 -4.4686303 -1.7253277 4293729569
14.69575 -4.4951253 -1.7901995 4288085770
15.002394 -4.4423404 -1.8252869 4288085770
15.007139 -4.3103309 -1.8283695 4288085770
14.912931 -4.1565766 -1.8204664 4288085770
14.911716 -4.0245833 -1.819489 4288085770
14.971492 -3.9064317 -1.8231188 4288085770
15.036279 -3.7882667 -1.8257987 4288085770
15.034114 -3.6562734 -1.8198112 4288085770
15.068938 -3.5311856 -1.8161918 4288085770
15.207744 -3.4258285 -1.8206095 4288085770
15.310581 -3.3125658 -1.8196685 4288085770
15.441409 -3.2042294 -1.8210067 4288085770
15.597249 -3.0958281 -1.821595 4288085770
15.812077 -2.9962745 -1.8257719 4288085770
16.003925 -2.8917799 -1.8267199 4288085770
16.246761 -2.7931542 -1.8301768 4288085770
16.470627 -2.6895761 -1.829445 4288085770
16.759468 -2.5918298 -1.8333621 4288085770
17.000355 -2.4842072 -1.8298013 4288085770
16.807205 0.65250921 -1.8299083 4288085770
15.653111 0.69148207 -1.8342702 4288085770
14.528145 0.72453165 -1.8279243 4288085770
13.630065 0.7591753 -1.8328679 4288085770
12.761091 0.78889537 -1.8291039 4288085770
12.007086 0.81891584 -1.8295 4288085770
11.305114 0.84607291 -1.8274204 4288085770
10.649197 0.87035036 -1.8208047 4288085770
10.107189 0.8969264 -1.8233389 4288085770
16.597517 1.3379369 -1.8158749 4288085770
9.5792265 0.92053914 -1.8220141 4288085770
15.531499 1.3551395 -1.8191208 4288085770
9.0992718 0.94427729 -1.8201735 4288085770
14.576511 1.3696334 -1.8204862 4288085770
8.634367 0.96505523 -1.8144841 4288085770
13.774458 1.390528 -1.8273957 4288085770
8.2423897 0.98902392 -1.815531 4288085770
12.96754 1.4024098 -1.8232543 4288085770
7.9023762 1.0131288 -1.8201026 4288085770
12.267565 1.4185712 -1.8241925 4288085770
7.5514317 1.0352049 -1.8185631 4288085770
11.617638 1.431864 -1.821635 4288085770
7.2274857 1.0563519 -1.8172959 4288085770
11.043667 1.4483557 -1.8228446 4288085770
6.9265308 1.077559 -1.8172604 4288085770
10.451804 1.4588008 -1.814872 4288085770
6.6216335 1.0957558 -1.8121847 4288085770
9.9588585 1.4755049 -1.8138987 4288085770
6.3906288 1.1201463 -1.8168557 4288085770
9.5328751 1.4943843 -1.8166014 4288085770
6.1257057 1.1394477 -1.8141832 4288085770
9.1379013 1.5123448 -1.8186167 4288085770
5.8857822 1.1588144 -1.8117632 4288085770
8.7319889 1.5272768 -1.815521 4288085770
5.6828079 1.181278 -1.8137163 4288085770
8.3660717 1.5423136 -1.8128289 4288085770
5.4888344 1.2027652 -1.8157599 4288085770
8.0331268 1.5604365 -1.8124697 4288085770
5.3148384 1.2263048 -1.8200057 4288085770
7.7082176 1.5755804 -1.8091911 4288085770
5.1229191 1.2457976 -1.8170695 4288085770
7.4043083 1.5907798 -1.8061244 4288085770
4.9320202 1.2632928 -1.8131435 4288085770
7.1423569 1.6100891 -1.8064815 4288085770
4.7880325 1.2859111 -1.8166916 4288085770
6.886425 1.6284139 -1.8048991 4288085770
4.6280937 1.3064876 -1.8160784 4288085770
6.6584702 1.6478119 -1.8055993 4288085770
4.4931145 1.3291292 -1.8187172 4288085770
6.4494896 1.6692595 -1.8084911 4288085770
4.3222618 1.344677 -1.8109928 4288085770
6.2265797 1.686671 -1.8052416 4288085770
4.1943054 1.3663371 -1.8117023 4288085770
6.0455952 1.7091925 -1.8084158 4288085770
4.0863132 1.3900495 -1.8156134 4288085770
5.873621 1.7317374 -1.810681 4288085770
3.9673672 1.4117332 -1.8154137 4288085770
5.6797314 1.7482245 -1.805724 4288085770
3.8494244 1.4324195 -1.8152238 4288085770
5.5107918 1.7687769 -1.8050194 4288085770
3.722538 1.4500823 -1.8099431 4288085770
5.3648148 1.7923901 -1.8075466 4288085770
3.6235809 1.4728186 -1.8109448 4288085770
5.2178726 1.8130007 -1.8070639 4288085770
3.5256348 1.4945571 -1.810957 4288085770
5.0829144 1.8356421 -1.8077024 4288085770
3.4297009 1.5153015 -1.809989 4288085770
4.9639282 1.8613262 -1.8105022 4288085770
3.3347778 1.5360479 -1.808031 4288085770
4.8439674 1.8850069 -1.8112918 4288085770
3.2588024 1.5608442 -1.8102648 4288085770
4.7290058 1.9087014 -1.8121319 4288085770
3.170887 1.5816092 -1.8073776 4288085770
4.6100693 1.9313848 -1.8109316 4288085770
3.0889492 1.60339 -1.8065509 4288085770
4.5270519 1.9611628 -1.8160945 4288085770
3.0100231 1.6251783 -1.8047544 4288085770
4.3922024 1.9768047 -1.8077326 4288085770
2.9530296 1.6520247 -1.8081797 4288085770
4.3121948 2.0055902 -1.8119258 4288085770
2.8900642 1.6768548 -1.8095447 4288085770
4.2042999 2.0273035 -1.8068365 4288085770
2.8291035 1.7016907 -1.8099296 4288085770
4.1083794 2.0500474 -1.8038681 4288085770
2.761179 1.7235081 -1.808244 4288085770
4.0343933 2.0788491 -1.8061217 4288085770
2.7062168 1.7503593 -1.8086894 4288085770
3.9394989 2.1005955 -1.8011636 4288085770
2.6562481 1.7762239 -1.8101854 4288085770
3.8725204 2.1294158 -1.802488 4288085770
2.5943336 1.7990572 -1.8065604 4288085770
3.8135204 2.1612549 -1.8048943 4288085770
2.5453701 1.8249223 -1.8070678 4288085770
3.7435837 2.1870668 -1.8031882 4288085770
2.4884548 1.8487685 -1.803493 4288085770
3.6816196 2.2168999 -1.8025631 4288085770
2.4614277 1.8806927 -1.809221 4288085770
3.6136894 2.243717 -1.7998772 4288085770
2.4274349 1.9115989 -1.8118783 4288085770
3.564703 2.2755835 -1.8013831 4288085770
2.3735332 1.9344528 -1.8073339 4288085770
3.5147285 2.3074479 -1.8018789 4288085770
2.3395634 1.9633589 -1.8079914 4288085770
3.4607887 2.3373017 -1.7993345 4288085770
2.3165531 1.9962938 -1.8117596 4288085770
3.4217987 2.3711948 -1.8009412 4288085770
2.2766323 2.0231841 -1.8083565 4288085770
3.3788395 2.4040773 -1.7995077 4288085770
2.2377014 2.0490773 -1.8059632 4288085770
3.3438549 2.4389808 -1.8001549 4288085770
2.2107391 2.0800016 -1.8056912 4288085770
3.3168545 2.4759049 -1.801883 4288085770
2.18577 2.1119316 -1.8054394 4288085770
3.2878628 2.5128245 -1.8025907 4288085770
2.1717567 2.1468899 -1.8092986 4288085770
3.2539139 2.5467305 -1.800248 4288085770
2.1468143 2.1768198 -1.8070467 4288085770
3.2309208 2.5856657 -1.8010163 4288085770
3.2079353 2.6236007 -1.8007847 4288085770
3.1909466 2.6635518 -1.8006134 4288085770
3.1630001 2.6994734 -1.7973312 4288085770
3.1549931 2.7424479 -1.7982509 4288085770
3.1459961 2.7854197 -1.7981607 4288085770
3.1519394 2.8354306 -1.8022215 4288085770
3.1429634 2.8784025 -1.8001312 4288085770
3.1539116 2.9304268 -1.8032427 4288085770
3.1628723 2.9814458 -1.805334 4288085770
3.1788139 3.0364833 -1.8084959 4288085770
3.1967621 3.0915258 -1.810678 4288085770
3.2316456 3.1566131 -1.8170319 4288085770
3.2356606 3.2056186 -1.8140727 4288085770
3.3143864 3.2918215 -1.8308705 4288085770
3.3403435 3.3518853 -1.8311336 4288085770
3.3722668 3.4159646 -1.8334569 4288085770
3.4360905 3.4961283 -1.8421035 4288085770
2.1510124 2.9027467 -1.805094 4288085770
3.4750175 3.563226 -1.8434976 4288085770
2.1809731 2.956821 -1.8063973 4288085770
3.528904 3.6383634 -1.8470433 4288085770
2.2109451 3.0108948 -1.8067003 4288085770
3.5668621 3.7054584 -1.8454274 4288085770
2.2568283 3.0750108 -1.8131651 4288085770
3.6267433 3.7846115 -1.8480335 4288085770
2.2997494 3.1371193 -1.8165994 4288085770
3.7035599 3.8738091 -1.8548114 4288085770
2.3446789 3.1992326 -1.8190542 4288085770
3.7465324 3.9429173 -1.8512461 4288085770
2.3806629 3.2563229 -1.817418 4288085770
3.8263721 4.0341234 -1.8550544 4288085770
2.4375496 3.3264675 -1.8219938 4288085770
3.9161797 4.1313548 -1.8609633 4288085770
2.5044155 3.401639 -1.8276706 4288085770
3.9781208 4.2115135 -1.8575901 4288085770
2.5643158 3.4717922 -1.8312768 4288085770
4.0868855 4.3197951 -1.8646911 4288085770
2.6769772 3.5760841 -1.8494176 4288085770
4.1936855 4.4270711 -1.8687721 4288085770
2.7438831 3.6512556 -1.8510945 4288085770
4.2955132 4.5313349 -1.8708025 4288085770
2.8098011 3.7254245 -1.8517613 4288085770
4.4242516 4.6526694 -1.8771056 4288085770
2.8797226 3.8016038 -1.8514686 4288085770
4.5569973 4.7760143 -1.8824493 4288085770
2.9725418 3.8928437 -1.8574078 4288085770
4.6927433 4.9023671 -1.8868231 4288085770
3.0584183 3.9790649 -1.8592767 4288085770
4.8364773 5.0327406 -1.8912777 4288085770
3.1443138 4.0642862 -1.8591455 4288085770
5.0091343 5.1811905 -1.8990253 4288085770
3.2551174 4.1655731 -1.8642669 4288085770
5.1728554 5.3246169 -1.901682 4288085770
3.3669319 4.2668629 -1.8683982 4288085770
5.3604927 5.4841061 -1.9085814 4288085770
3.4668179 4.3591208 -1.8674085 4288085770
5.5581207 5.648622 -1.9145814 4288085770
3.604557 4.4764795 -1.8748025 4288085770
5.7807007 5.8292036 -1.9218342 4288085770
3.7413292 4.5928345 -1.8791865 4288085770
6.0292034 6.0268536 -1.9323497 4288085770
3.8980293 4.7212429 -1.8877724 4288085770
6.2966709 6.2375531 -1.9430571 4288085770
4.0358467 4.8356009 -1.8881667 4288085770
6.5970535 6.4683399 -1.9570976 4288085770
4.1985798 4.9670248 -1.8928133 4288085770
6.9094448 6.7071581 -1.9682596 4288085770
4.3772774 5.1074905 -1.8986218 4288085770
7.2159004 6.9409609 -1.9743613 4288085770
4.5689411 5.2559905 -1.9055616 4288085770
7.5771961 7.2109079 -1.9870183 4288085770
4.7755852 5.4125304 -1.9126529 4288085770
7.9435387 7.4828677 -1.9947262 4288085770
4.9842472 5.570075 -1.9177644 4288085770
8.3946266 7.8120518 -2.0132926 4288085770
