# .PCD v0.7 - Point Cloud Data file format
VERSION 0.7
FIELDS x y z rgb
SIZE 4 4 4 4
TYPE F F F U
COUNT 1 1 1 1
WIDTH 1128
HEIGHT 1
VIEWPOINT 0 0 0 1 0 0 0
POINTS 1128
DATA ascii
8.8528786 3.7910962 -1.7225108 4288085770
16.083008 5.8410378 -1.7624315 4288085770
9.2609329 3.8297081 -1.7250504 4288085770
9.7089729 3.8774214 -1.731487 4288085770
10.105045 3.9019508 -1.7281815 4288085770
10.485123 3.9184146 -1.7209653 4288085770
10.92519 3.9450295 -1.7196327 4288085770
11.430252 3.9818029 -1.7241834 4288085770
11.947296 4.0165825 -1.7277548 4288085770
12.473373 4.0433426 -1.7284129 4288085770
12.982452 4.0590463 -1.7261933 4288085770
13.506538 4.07376 -1.7229829 4288085770
14.110619 4.0976658 -1.726665 4288085770
14.796677 4.1297426 -1.7352505 4288085770
15.48275 4.1547871 -1.7409127 4288085770
16.080864 4.151598 -1.7368912 4288085770
16.405853 -5.3193517 -1.8686901 4288085770
15.770897 -5.2712255 -1.8722246 4288085770
15.053879 -5.1913404 -1.8644174 4288085770
14.2118 -5.0647898 -1.8421093 4288085770
13.605804 -4.9976783 -1.8404323 4288085770
13.019821 -4.9285483 -1.8377314 4288085770
12.425812 -4.848464 -1.8319106 4288085770
11.927834 -4.7921534 -1.8343424 4288085770
11.474861 -4.7417455 -1.8398362 4288085770
11.005878 -4.6813927 -1.8422226 4288085770
10.560898 -4.6210175 -1.843606 4288085770
10.124912 -4.5576401 -1.8439555 4288085770
9.7399483 -4.5081224 -1.8504525 4288085770
9.3269577 -4.4417119 -1.8507665 4288085770
16.364799 -7.0717292 -1.9459827 4282675967
8.9619827 -4.3861995 -1.8541955 4288085770
15.394562 -6.8292165 -1.9364166 4282675967
8.6060066 -4.3306623 -1.8586235 4288085770
14.405289 -6.567842 -1.9166442 4288085770
8.2320099 -4.2612176 -1.8568999 4288085770
13.353951 -6.268702 -1.8834618 4288085770
7.8540077 -4.1868124 -1.8521219 4288085770
12.347633 -5.9745288 -1.8473291 4288085770
7.4940071 -4.1133709 -1.8483527 4288085770
11.733513 -5.8243794 -1.8497431 4288085770
7.1640205 -4.0468631 -1.846657 4288085770
11.169418 -5.6831355 -1.8542501 4288085770
6.8570366 -3.9852996 -1.8470134 4288085770
10.608322 -5.538919 -1.8557236 4288085770
6.5660553 -3.9266911 -1.8494008 4288085770
10.113247 -5.4145532 -1.8624091 4288085770
6.2740746 -3.8631296 -1.8477335 4288085770
9.6441765 -5.2921715 -1.8671138 4288085770
5.9860802 -3.7965608 -1.8460329 4288085770
9.1730957 -5.1638365 -1.8677527 4288085770
5.724102 -3.7379332 -1.846417 4288085770
8.7500381 -5.048399 -1.8715289 4288085770
5.4591141 -3.6733432 -1.8437353 4288085770
8.3229713 -4.9270129 -1.8712397 4288085770
5.2051277 -3.6117373 -1.8410856 4288085770
7.8718758 -4.7897372 -1.8637775 4288085770
4.9891624 -3.5619993 -1.8455629 4288085770
7.4988251 -4.6812496 -1.8656248 4288085770
4.762188 -3.5043206 -1.8459537 4288085770
7.1277695 -4.5678039 -1.8634168 4288085770
4.5462112 -3.448638 -1.8453655 4288085770
6.7947273 -4.467247 -1.8663473 4288085770
4.3612556 -3.4048324 -1.851905 4288085770
6.4827003 -4.3726711 -1.8683412 4288085770
4.1592865 -3.3501186 -1.8523258 4288085770
6.1646576 -4.2711482 -1.8662587 4288085770
3.9833145 -3.3043222 -1.8568422 4288085770
5.8376007 -4.1606827 -1.8600787 4288085770
3.7953491 -3.2505989 -1.8562726 4288085770
5.5315552 -4.0561862 -1.8539621 4288085770
3.6083679 -3.1948848 -1.8546804 4288085770
5.2495193 -3.9596224 -1.8509305 4288085770
3.425396 -3.1381774 -1.8520771 4288085770
5.0005074 -3.8749771 -1.8510269 4288085770
3.2764397 -3.0963306 -1.8576343 4288085770
4.7684975 -3.7962856 -1.8531872 4288085770
3.1004639 -3.0386348 -1.8530194 4288085770
4.5454903 -3.7195916 -1.8543683 4288085770
2.9525032 -2.9918203 -1.8555216 4288085770
4.343502 -3.6488347 -1.8586128 4288085770
2.8035355 -2.9430299 -1.8560019 4288085770
4.1414986 -3.5760989 -1.8608353 4288085770
2.666584 -2.8991995 -1.8585358 4288085770
3.934494 -3.4984155 -1.8590039 4288085770
2.5156059 -2.8444562 -1.8549505 4288085770
3.751503 -3.4306636 -1.8602791 4288085770
2.3896523 -2.801621 -1.8564942 4288085770
3.5564995 -3.3529844 -1.856446 4288085770
2.2566833 -2.7528181 -1.8559728 4288085770
3.3895111 -3.2881985 -1.8587525 4288085770
2.143734 -2.7119536 -1.8585366 4288085770
3.2225189 -3.2214456 -1.8580369 4288085770
2.0207748 -2.6651363 -1.8580359 4288085770
3.0615273 -3.1556845 -1.8573315 4288085770
1.899807 -2.6173382 -1.8555239 4288085770
2.9065399 -3.0899258 -1.8556255 4288085770
1.7808456 -2.5695481 -1.8520116 4288085770
2.7745705 -3.035078 -1.8590376 4288085770
1.6608734 -2.5187712 -1.8474666 4288085770
2.6185722 -2.9663529 -1.8542987 4288085770
2.4965973 -2.9135017 -1.8567317 4288085770
2.3666191 -2.8546958 -1.8560995 4288085770
2.2386398 -2.794908 -1.8534563 4288085770
2.129673 -2.7440495 -1.8549094 4288085770
2.0106964 -2.6862388 -1.853287 4288085770
1.9007225 -2.6324134 -1.8517075 4288085770
1.7927513 -2.5775981 -1.8491168 4288085770
1.6967888 -2.5287423 -1.8485907 4288085770
1.76548 -0.38558793 -1.7810472 4288085770
1.8555641 -0.37246442 -1.7808932 4288085770
1.9516525 -0.35833192 -1.7807271 4288085770
2.0467377 -0.34521222 -1.7795725 4288085770
2.1538277 -0.33205318 -1.7804161 4288085770
2.2489052 -0.31797767 -1.7752506 4288085770
2.3619919 -0.30482101 -1.7750934 4288085770
2.4960861 -0.29359007 -1.7789556 4288085770
2.6441727 -0.28230643 -1.7858158 4288085770
2.7512589 -0.26823592 -1.7786486 4288085770
1.7981758 -0.17255878 -1.7816954 4288085770
2.9063492 -0.25597501 -1.7824972 4288085770
1.8972626 -0.16045547 -1.7785511 4288085770
3.0374374 -0.2428484 -1.7773379 4288085770
2.0153503 -0.14825845 -1.7814041 4288085770
3.175518 -0.22870064 -1.7731665 4288085770
2.1354446 -0.13708091 -1.7822682 4288085770
3.3516121 -0.21742105 -1.7760231 4288085770
2.2575302 -0.12491179 -1.7821207 4288085770
3.5177002 -0.20518923 -1.7758703 4288085770
2.3816261 -0.11375022 -1.7809842 4288085770
3.7147903 -0.19386864 -1.7797244 4288085770
2.5557137 -0.103374 -1.7928516 4288085770
3.9018784 -0.18161774 -1.7785687 4288085770
2.6828041 -0.091241598 -1.7887038 4288085770
4.1129684 -0.16931057 -1.7794099 4288085770
2.8188896 -0.079096794 -1.7845547 4288085770
4.3290558 -0.15700722 -1.7792504 4288085770
2.9839859 -0.068832636 -1.7874238 4288085770
4.5701447 -0.14563513 -1.7820987 4288085770
3.1580696 -0.057556391 -1.7902806 4288085770
4.8152351 -0.13429046 -1.7819465 4288085770
3.2901611 -0.045494556 -1.7791324 4288085770
5.0593262 -0.12198043 -1.7787837 4288085770
3.4772491 -0.034210443 -1.7809875 4288085770
5.352417 -0.11054564 -1.7806252 4288085770
3.6843452 -0.023875713 -1.7848511 4288085770
5.7235069 -0.10085559 -1.7954783 4288085770
3.8984337 -0.012552977 -1.7867026 4288085770
5.9425888 -0.085769653 -1.7752862 4288085770
4.0985222 -0.001306057 -1.7835562 4288085770
6.2466774 -0.073429585 -1.767116 4288085770
4.3286133 0.010017157 -1.783406 4288085770
6.5917664 -0.060986996 -1.7629399 4288085770
4.5547028 0.020290375 -1.7792674 4288085770
6.9958572 -0.049405336 -1.7637672 4288085770
4.8327904 0.03172636 -1.7831105 4288085770
7.4229431 -0.03682375 -1.7615807 4288085770
5.1128883 0.042120695 -1.7829648 4288085770
7.8320351 -0.024345398 -1.7523967 4288085770
5.4179764 0.052572727 -1.7848155 4288085770
8.3321228 -0.012659788 -1.7502117 4288085770
5.7430687 0.06305337 -1.786664 4288085770
8.8532066 -0.00097823143 -1.7450243 4288085770
6.0241585 0.074316263 -1.7745075 4288085770
9.4673004 0.010869741 -1.7428248 4288085770
6.354248 0.084704161 -1.7673557 4288085770
10.132389 0.022778988 -1.7396187 4288085770
6.7243347 0.096182346 -1.7631874 4288085770
10.888477 0.034851074 -1.7394005 4288085770
7.1734314 0.1058507 -1.7660306 4288085770
11.694572 0.046939135 -1.7341764 4288085770
7.5945206 0.11636806 -1.7588668 4288085770
12.650665 0.058285236 -1.7329438 4288085770
8.0526047 0.12692714 -1.7506984 4288085770
13.843742 0.070068359 -1.7406801 4288085770
8.6207008 0.13675356 -1.7525263 4288085770
15.217834 0.081120253 -1.7494044 4288085770
9.1877899 0.1464901 -1.7463548 4288085770
9.8738823 0.1564734 -1.7471673 4288085770
10.586975 0.1664288 -1.7419769 4288085770
11.417068 0.17559528 -1.7407823 4288085770
12.36116 0.18493485 -1.7405728 4288085770
13.432251 0.19443321 -1.7383469 4288085770
14.758354 0.20343852 -1.7490985 4288085770
16.36245 0.21287274 -1.7628143 4288085770
16.707687 0.42488885 -1.7570291 4288085770
15.253769 0.44050932 -1.754711 4288085770
13.866859 0.45313954 -1.7424761 4288085770
12.782944 0.4673624 -1.7404678 4288085770
11.814026 0.48178172 -1.7395496 4288085770
10.979107 0.49543881 -1.7407461 4288085770
10.213188 0.50917816 -1.7389971 4288085770
9.5632706 0.52316618 -1.7433385 4288085770
15.999985 0.73655689 -1.7403378 4288085770
8.9633484 0.53620577 -1.744729 4288085770
14.631088 0.74227703 -1.7341878 4288085770
8.3904305 0.54925919 -1.7431412 4288085770
13.460182 0.74834859 -1.7311924 4288085770
7.9255104 0.56354785 -1.7476273 4288085770
12.430283 0.75562942 -1.7262975 4288085770
7.5135841 0.57797217 -1.7571547 4288085770
11.58036 0.76528263 -1.7295227 4288085770
7.1256638 0.59239602 -1.7627012 4288085770
10.780457 0.77295744 -1.7268075 4288085770
6.7167473 0.60470629 -1.7602515 4288085770
10.11454 0.78492939 -1.7321568 4288085770
6.3238411 0.61602283 -1.7558248 4288085770
9.5056229 0.79597402 -1.7355607 4288085770
6.036911 0.63165045 -1.76544 4288085770
8.9207115 0.80501842 -1.7350035 4288085770
5.780983 0.64734864 -1.7770795 4288085770
8.4227982 0.8172338 -1.7374843 4288085770
5.5660477 0.6651634 -1.7937307 4288085770
7.9508858 0.82848167 -1.7389956 4288085770
5.2581406 0.67659807 -1.7873706 4288085770
7.5579605 0.84192729 -1.747548 4288085770
4.9872284 0.68814278 -1.7860391 4288085770
7.1950302 0.8564117 -1.7551142 4288085770
4.7333145 0.70070505 -1.7837108 4288085770
6.7931328 0.86571348 -1.7507006 4288085770
4.5303917 0.7164396 -1.790392 4288085770
6.4692078 0.87923145 -1.7553073 4288085770
4.282486 0.72696185 -1.7830892 4288085770
6.1492996 0.89071667 -1.7559373 4288085770
4.0765686 0.73961246 -1.7817984 4288085770
5.9023666 0.9064095 -1.765584 4288085770
3.9016495 0.75336277 -1.7855217 4288085770
5.6624374 0.922104 -1.7742364 4288085770
3.7157364 0.76604545 -1.7842467 4288085770
5.4295158 0.93678021 -1.7799041 4288085770
3.524826 0.77768028 -1.7789781 4288085770
5.1955948 0.95143473 -1.7835715 4288085770
3.3659096 0.7914269 -1.779714 4288085770
4.9546814 0.96303797 -1.7832633 4288085770
3.1939964 0.80309296 -1.7744602 4288085770
4.693779 0.97151923 -1.7739702 4288085770
3.0670738 0.81894112 -1.7802011 4288085770
4.486866 0.98517811 -1.7736688 4288085770
2.9151611 0.83065927 -1.7769626 4288085770
4.2679558 0.99576747 -1.7683883 4288085770
2.770256 0.84237897 -1.77273 4288085770
4.0800438 1.0084571 -1.7681117 4288085770
2.6443367 0.85617912 -1.7734917 4288085770
3.8951302 1.0201215 -1.7648475 4288085770
2.5264168 0.87099254 -1.7742499 4288085770
3.746212 1.0359141 -1.7685711 4288085770
2.3945122 0.88171315 -1.7680373 4288085770
3.5852966 1.0486375 -1.7673157 4288085770
2.3125801 0.89967442 -1.777793 4288085770
3.4273834 1.0613559 -1.7650627 4288085770
2.2106628 0.91451347 -1.7785636 4288085770
3.2814713 1.0740939 -1.7628189 4288085770
2.0997543 0.92628884 -1.7743576 4288085770
3.1455574 1.0868579 -1.7615831 4288085770
3.014637 1.1016302 -1.760331 4288085770
2.8917236 1.1154152 -1.7590952 4288085770
2.7778053 1.1302254 -1.7588565 4288085770
2.6658897 1.1440281 -1.7576292 4288085770
2.5489769 1.1567934 -1.7534082 4288085770
2.4540558 1.1716541 -1.7551839 4288085770
2.3811264 1.1915898 -1.760927 4288085770
2.2462349 1.1982262 -1.7467524 4288085770
2.1753044 1.2161555 -1.7515168 4288085770
2.0973816 1.2330338 -1.7522861 4288085770
2.1480484 3.4868093 -1.7406995 4288085770
2.2620277 3.5630262 -1.7440232 4288085770
2.4219513 3.6664462 -1.760111 4288085770
2.5609093 3.755743 -1.7673231 4288085770
2.6848907 3.8349457 -1.7676244 4288085770
2.8178596 3.9171729 -1.7689021 4288085770
2.9658203 4.0074339 -1.7711109 4288085770
3.1457405 4.1158361 -1.7821633 4288085770
3.3116875 4.2141256 -1.7843055 4288085770
3.4546623 4.2953095 -1.7796005 4288085770
2.1479111 3.5709031 -1.7538364 4288085770
3.6455917 4.4046693 -1.7846509 4288085770
2.2918777 3.6512082 -1.7611421 4288085770
3.8794708 4.538188 -1.7984931 4288085770
2.4468422 3.7355309 -1.7684159 4288085770
4.13134 4.6797252 -1.8112687 4288085770
2.604805 3.8208585 -1.7756817 4288085770
4.3682251 4.8101892 -1.8191431 4288085770
2.7438011 3.8920763 -1.7750738 4288085770
4.6081238 4.9396267 -1.8240296 4288085770
2.9087639 3.977385 -1.7793449 4288085770
4.8300438 5.0549669 -1.8220428 4288085770
3.0477638 4.0435629 -1.7747868 4288085770
5.0649529 5.1753273 -1.8200158 4288085770
3.2506943 4.1470122 -1.7869056 4288085770
5.3098602 5.2987041 -1.8179657 4288085770
3.4306602 4.2343254 -1.7891678 4288085770
5.5647659 5.4250765 -1.8138932 4288085770
3.5876541 4.3045225 -1.7835829 4288085770
5.8196831 5.5474291 -1.8078607 4288085770
3.8375435 4.4290872 -1.7995265 4288085770
6.1105614 5.68787 -1.8046749 4288085770
4.0844498 4.5476179 -1.8125275 4288085770
6.39645 5.8212719 -1.7985553 4288085770
4.3323631 4.6631088 -1.8215595 4288085770
6.6903496 5.955657 -1.7894313 4288085770
4.5842743 4.7775984 -1.8296043 4282675967
7.0322037 6.1131697 -1.785113 4288085770
4.8092346 4.8729439 -1.8278196 4282675967
7.3740654 6.2666616 -1.7788343 4288085770
5.0511742 4.975337 -1.8279769 4282675967
7.8537979 6.4935541 -1.7899276 4288085770
5.2921257 5.0716877 -1.8241938 4288085770
8.2925911 6.6902514 -1.7882906 4288085770
5.5260925 5.1620083 -1.8184655 4288085770
8.7443771 6.8899589 -1.7856331 4288085770
5.7960243 5.2684364 -1.8176035 4288085770
9.2351341 7.1037393 -1.7838643 4288085770
6.0419922 5.356729 -1.8079057 4288085770
9.7768593 7.3396249 -1.7849162 4288085770
6.3169403 5.4581256 -1.8030993 4288085770
10.298618 7.5583949 -1.7771227 4288085770
6.5978889 5.5585108 -1.7963073 4288085770
10.870342 7.7952652 -1.7711861 4288085770
6.8688583 5.6488304 -1.7846081 4288085770
11.445084 8.0270901 -1.7603021 4288085770
7.1907845 5.7623119 -1.7807164 4288085770
7.5227089 5.8757896 -1.7748322 4288085770
7.9145889 6.0164428 -1.7767221 4288085770
8.3064766 6.1510668 -1.7756722 4288085770
8.7433319 6.3027925 -1.7774855 4288085770
9.2051849 6.4605684 -1.7802572 4288085770
9.700016 6.6274071 -1.7839633 4288085770
10.184879 6.7821703 -1.7817823 4288085770
10.683731 6.9369569 -1.7796116 4288085770
11.166618 7.0766673 -1.7725794 4288085770
11.874329 7.3139472 -1.7857429 4288085770
12.429184 7.4707842 -1.7795941 4288085770
13.047012 7.6467414 -1.7753017 4288085770
13.761772 7.857934 -1.7787309 4288085770
14.464569 8.0550585 -1.7772915 4288085770
16.919754 -2.2188249 -1.7891586 4288085770
16.324944 -2.2716384 -1.8042363 4288085770
15.573082 -2.2938886 -1.8008859 4288085770
14.854225 -2.3120852 -1.7975202 4288085770
14.060333 -2.3105145 -1.7828978 4288085770
13.414459 -2.3205934 -1.7795067 4288085770
12.825577 -2.3295507 -1.7791476 4288085770
12.280701 -2.340416 -1.7808416 4288085770
11.765808 -2.3482327 -1.7825277 4288085770
11.276917 -2.3530078 -1.7842032 4288085770
10.793026 -2.3527951 -1.7838324 4288085770
10.35413 -2.3534799 -1.7865051 4288085770
9.9522362 -2.3580732 -1.7922455 4288085770
16.638451 -3.693213 -1.8097758 4288085770
9.5443344 -2.3557076 -1.7949114 4288085770
15.75145 -3.6296043 -1.8134604 4288085770
9.1544342 -2.3513227 -1.7965704 4288085770
14.757401 -3.5343218 -1.8017439 4288085770
8.7885284 -2.346869 -1.8012474 4288085770
13.945396 -3.4656429 -1.8004345 4288085770
8.4316177 -2.3394208 -1.8039011 4288085770
13.182396 -3.3978844 -1.7991717 4288085770
8.0797119 -2.3289952 -1.8035285 4288085770
12.493401 -3.3340063 -1.7980043 4288085770
7.7657967 -2.3224573 -1.8082243 4288085770
11.835396 -3.272068 -1.7978804 4288085770
7.3978691 -2.2991085 -1.8027093 4288085770
11.245415 -3.2169995 -1.7998775 4288085770
7.0939522 -2.2865853 -1.8043524 4288085770
10.695435 -3.1638646 -1.8019245 4288085770
6.7690277 -2.2641659 -1.7988796 4288085770
10.196457 -3.1156383 -1.8050599 4288085770
6.4981117 -2.2515793 -1.8015472 4288085770
9.7254829 -3.069346 -1.8102361 4288085770
6.2912064 -2.2527776 -1.8154031 4288085770
9.2374992 -3.0131526 -1.8082997 4288085770
6.0532913 -2.2421069 -1.8211154 4288085770
8.8395348 -2.9737225 -1.8156008 4288085770
5.7963676 -2.2235279 -1.8207333 4288085770
8.4285583 -2.9273629 -1.817822 4288085770
5.5354385 -2.2019653 -1.8193181 4288085770
8.0305901 -2.8789935 -1.8190329 4288085770
5.3185158 -2.1872811 -1.8230063 4288085770
7.629612 -2.8246789 -1.8151815 4288085770
5.0885887 -2.1676483 -1.8236341 4288085770
7.24263 -2.7703519 -1.8103406 4288085770
4.8866692 -2.1529298 -1.828333 4288085770
6.9016609 -2.7248902 -1.8116242 4288085770
4.6917496 -2.1372094 -1.8320274 4288085770
6.5906982 -2.6833687 -1.8139703 4288085770
4.4838142 -2.1155415 -1.8326517 4288085770
6.3047371 -2.6447868 -1.8183653 4288085770
4.2848854 -2.0938692 -1.8322828 4288085770
6.0077744 -2.601274 -1.8177019 4288085770
4.0779533 -2.0672393 -1.8288579 4288085770
5.710804 -2.553782 -1.8149985 4288085770
3.8960228 -2.0465283 -1.8295115 4288085770
5.4588432 -2.5161648 -1.8174289 4288085770
3.6810799 -2.0129728 -1.8200105 4288085770
5.2188873 -2.4795184 -1.8208784 4288085770
3.5141449 -1.9912381 -1.8206654 4288085770
4.9719276 -2.4379344 -1.8192725 4288085770
3.3632202 -1.9734468 -1.8243723 4288085770
4.7399597 -2.3982954 -1.8206977 4288085770
3.2012863 -1.9497147 -1.824011 4288085770
4.5320129 -2.3636074 -1.8231913 4288085770
3.0583611 -1.9309211 -1.8267138 4288085770
4.3040466 -2.320013 -1.8195794 4288085770
2.9044304 -1.9061856 -1.8253483 4288085770
4.1191025 -2.2882681 -1.82412 4288085770
2.7514954 -1.8804688 -1.8219736 4288085770
3.9161453 -2.2486224 -1.8215672 4288085770
2.614563 -1.8576856 -1.8226408 4288085770
3.7261887 -2.2109356 -1.821044 4288085770
2.4946404 -1.8398447 -1.8263708 4288085770
3.5482368 -2.1752191 -1.8215498 4288085770
2.3536987 -1.8121076 -1.8229848 4288085770
3.3792877 -2.1414881 -1.8220824 4288085770
2.220768 -1.7873492 -1.820635 4288085770
3.2163353 -2.1067371 -1.8236094 4288085770
2.1068344 -1.7665186 -1.8223394 4288085770
3.0623894 -2.0739822 -1.8241633 4288085770
2.9154396 -2.0412059 -1.8257222 4288085770
2.7644882 -2.0064664 -1.8242583 4288085770
2.626545 -1.9736857 -1.8248241 4288085770
2.4905968 -1.9409213 -1.8233914 4288085770
2.3586464 -1.9071403 -1.8229517 4288085770
2.2226982 -1.8714061 -1.8184888 4288085770
2.1147537 -1.8445363 -1.823137 4288085770
2.2052994 0.28080678 -1.7868006 4288085770
2.3323784 0.29401541 -1.7877631 4288085770
2.4414711 0.30512452 -1.7817328 4288085770
2.5505638 0.31720328 -1.7726926 4288085770
2.6906471 0.32942295 -1.7726748 4288085770
2.8477325 0.34169006 -1.7746693 4288085770
2.9968262 0.35390353 -1.7726583 4288085770
3.1669083 0.36618161 -1.7736624 4288085770
2.2089539 0.36676168 -1.7849346 4288085770
3.3709908 0.37858486 -1.7816914 4288085770
2.3630333 0.3780849 -1.7929368 4288085770
3.5730705 0.39195442 -1.786709 4288085770
2.4681358 0.38613701 -1.7819344 4288085770
3.7831535 0.40532684 -1.7907323 4288085770
2.6112289 0.39536142 -1.7819489 4288085770
3.9962387 0.41767359 -1.7917682 4288085770
2.7513199 0.40454078 -1.7779615 4288085770
4.19133 0.42892075 -1.7858013 4288085770
2.9124107 0.41380429 -1.7789896 4288085770
4.4234161 0.44128776 -1.7858512 4288085770
3.0685005 0.42300892 -1.775014 4288085770
4.6435051 0.45257497 -1.7799028 4288085770
3.2605896 0.43236279 -1.7800646 4288085770
4.9155922 0.46602631 -1.7819718 4288085770
3.4746742 0.44278216 -1.7881209 4288085770
5.2346687 0.47962451 -1.7910753 4288085770
3.7107544 0.45325685 -1.7981935 4288085770
5.5207558 0.49204755 -1.788165 4288085770
3.8928528 0.46048355 -1.7922573 4288085770
5.7838554 0.50235295 -1.7772586 4288085770
4.0909538 0.46773553 -1.7863332 4288085770
6.0529556 0.51162744 -1.7623668 4288085770
4.3600349 0.47825289 -1.7954301 4288085770
6.406044 0.52415824 -1.759506 4288085770
4.5591393 0.48445559 -1.7845168 4288085770
6.7651367 0.53567791 -1.7546598 4288085770
4.8322334 0.49190903 -1.7866473 4288085770
7.2322159 0.55047226 -1.7598623 4288085770
5.1093292 0.49933815 -1.785781 4288085770
7.6293144 0.56099272 -1.7490544 4288085770
5.4254227 0.50788045 -1.789933 4288085770
8.0904045 0.57266593 -1.7432836 4288085770
5.7035179 0.51324058 -1.7820879 4288085770
8.6105003 0.5844543 -1.739556 4288085770
5.9826317 0.51756167 -1.770254 4288085770
9.2105827 0.59739137 -1.737877 4288085770
6.2947388 0.52195573 -1.7604442 4288085770
9.8796692 0.61145878 -1.7382388 4288085770
6.6638374 0.52651238 -1.7576761 4288085770
10.593758 0.62456822 -1.735644 4288085770
7.1199265 0.53328919 -1.7629514 4288085770
11.372849 0.63774109 -1.7290971 4288085770
7.5480309 0.53691006 -1.757237 4288085770
12.263924 0.65112436 -1.7256329 4288085770
8.0011406 0.53956056 -1.7505512 4288085770
13.398003 0.6690383 -1.7363063 4288085770
8.4982452 0.54128218 -1.7439079 4288085770
14.689072 0.68817425 -1.7440856 4288085770
9.0883484 0.54421306 -1.7433227 4288085770
16.062157 0.70434976 -1.742956 4288085770
9.7094574 0.54616356 -1.7397709 4288085770
10.426559 0.54631853 -1.7413095 4288085770
11.228668 0.54660964 -1.742911 4288085770
12.066788 0.54388785 -1.7375693 4288085770
13.020905 0.53935194 -1.7323338 4288085770
14.25901 0.53745341 -1.7452862 4288085770
15.707115 0.53190184 -1.7594339 4288085770
16.854057 -5.9232812 -1.9101989 4288085770
16.574806 -5.6898665 -1.895611 4288085770
16.378578 -5.4832454 -1.8883592 4288085770
16.187378 -5.2816463 -1.8781623 4288085770
16.026192 -5.0899901 -1.869089 4288085770
15.875008 -4.9053264 -1.8590946 4288085770
15.750839 -4.7296195 -1.8492117 4288085770
15.749718 -4.5866141 -1.8497558 4288085770
15.677582 -4.4288139 -1.8410947 4288085770
15.671463 -4.287847 -1.8386552 4288085770
15.634338 -4.1390009 -1.8291118 4288085770
15.654236 -4.0050125 -1.8247629 4288085770
15.687141 -3.8740144 -1.8194547 4288085770
15.791054 -3.7578411 -1.8203511 4288085770
15.855965 -3.6308012 -1.8141069 4288085770
16.053909 -3.530437 -1.819236 4288085770
16.186836 -3.4152589 -1.8161644 4288085770
16.303757 -3.294136 -1.8100196 4288085770
16.438675 -3.1769948 -1.8029292 4288085770
16.655617 -3.0706625 -1.8020111 4288085770
16.910553 -2.9662695 -1.8011417 4288085770
16.248466 0.81480551 -1.7495871 4288085770
15.048508 0.85092795 -1.7492825 4288085770
13.901581 0.87902176 -1.7381008 4288085770
12.921654 0.90641809 -1.7310563 4288085770
12.114708 0.93515742 -1.7311335 4288085770
11.36277 0.96095181 -1.7282834 4288085770
10.706833 0.98792803 -1.7284961 4288085770
10.140892 1.0140862 -1.7327876 4288085770
9.5919647 1.03922 -1.7321025 4288085770
16.366241 1.5438218 -1.7342137 4288085770
9.1050262 1.0634714 -1.7334749 4288085770
15.315315 1.5572207 -1.7382578 4288085770
8.671093 1.0888267 -1.7368772 4288085770
14.197426 1.5563207 -1.7233951 4288085770
8.2571564 1.1121924 -1.7383155 4288085770
13.356514 1.5700283 -1.7255994 4288085770
7.8712234 1.135602 -1.7397751 4288085770
12.544601 1.5797304 -1.7228669 4288085770
7.5452843 1.1611466 -1.7452596 4288085770
11.821701 1.5895617 -1.7192025 4288085770
7.2763367 1.1898421 -1.7567568 4288085770
11.194778 1.6025841 -1.7195805 4288085770
6.9863968 1.213424 -1.7612897 4288085770
10.637856 1.6187271 -1.721981 4288085770
6.6764832 1.2329011 -1.7578478 4288085770
10.141933 1.634964 -1.7234273 4288085770
6.4095535 1.2544971 -1.7594181 4288085770
9.6700134 1.6512392 -1.724892 4288085770
6.1436272 1.2750536 -1.7569997 4288085770
9.2270927 1.6665492 -1.7253894 4288085770
5.9566803 1.3028672 -1.7675692 4288085770
8.8261719 1.6829253 -1.7259084 4288085770
5.7537422 1.3276043 -1.7731575 4288085770
8.4802437 1.7034283 -1.7304282 4288085770
5.5737991 1.3533981 -1.7807527 4288085770
8.1113281 1.7188342 -1.728982 4288085770
5.4038544 1.3801972 -1.7873455 4288085770
7.8213882 1.7404354 -1.7345345 4288085770
5.2549133 1.4080601 -1.7969439 4288085770
7.5744514 1.7671344 -1.7430681 4288085770
5.0969772 1.432868 -1.8025664 4288085770
7.3285141 1.7898146 -1.7496436 4288085770
4.8410797 1.4412769 -1.7842795 4288085770
7.1135712 1.817574 -1.7591915 4288085770
4.6531639 1.4579152 -1.7779619 4288085770
6.9186211 1.8463645 -1.7687442 4288085770
4.5142288 1.4827323 -1.7815988 4288085770
6.6657028 1.8639419 -1.7663662 4288085770
4.3213234 1.4963218 -1.7713083 4288085770
6.4317856 1.8805491 -1.7640132 4288085770
4.1873932 1.5181059 -1.7709801 4288085770
6.214859 1.8991827 -1.7616524 4288085770
4.042469 1.5368423 -1.7676746 4288085770
6.0239296 1.9218981 -1.7632701 4288085770
3.918541 1.5596523 -1.7683439 4288085770
5.8669891 1.9487177 -1.7698727 4288085770
3.7766228 1.5773628 -1.7620509 4288085770
5.7150536 1.9745144 -1.7734895 4288085770
3.6856842 1.6032655 -1.7667143 4288085770
5.5861053 2.0043879 -1.7810824 4288085770
3.5797577 1.6261038 -1.7673973 4288085770
5.4651604 2.035274 -1.7886714 4288085770
3.4688301 1.6469034 -1.7650969 4288085770
5.3602028 2.0681953 -1.7972518 4288085770
3.3679085 1.6687291 -1.7637942 4288085770
5.222271 2.0929937 -1.7988894 4288085770
3.2629776 1.688518 -1.7595088 4288085770
5.1013298 2.1208289 -1.8015094 4288085770
3.1730499 1.7113712 -1.759204 4288085770
4.9214249 2.1324286 -1.790249 4288085770
3.0871201 1.7342306 -1.7589022 4288085770
4.7535172 2.1460474 -1.7789775 4288085770
2.9981956 1.7550545 -1.7556188 4288085770
4.6295891 2.1678269 -1.7766569 4288085770
2.9302597 1.7809626 -1.7572998 4288085770
4.5136566 2.1926184 -1.7743114 4288085770
2.8553276 1.8048391 -1.756996 4288085770
4.3707504 2.2072864 -1.7640486 4288085770
2.7803993 1.8286953 -1.7546924 4288085770
4.2518272 2.2270429 -1.7587525 4288085770
2.7224617 1.8546185 -1.7563812 4288085770
4.1658859 2.2549121 -1.7593993 4288085770
2.6415405 1.8744247 -1.7501141 4288085770
4.0729599 2.28074 -1.7570611 4288085770
2.5965958 1.9043889 -1.7537715 4288085770
3.9910202 2.3085952 -1.7557108 4288085770
2.5376663 1.9302905 -1.7534595 4288085770
3.9000931 2.3334155 -1.7523847 4288085770
2.4877281 1.9582163 -1.7541336 4288085770
3.8071671 2.3562024 -1.7460774 4288085770
2.4337921 1.9841052 -1.7518255 4288085770
3.7372284 2.3850865 -1.7457261 4288085770
2.3758659 2.0079775 -1.7485348 4288085770
3.6702919 2.413955 -1.743377 4288085770
2.3479156 2.0419788 -1.7531639 4288085770
3.628334 2.4519336 -1.7479544 4288085770
2.3009796 2.0688887 -1.7518508 4288085770
3.5554008 2.4777617 -1.7426317 4288085770
2.2530403 2.0947766 -1.7485472 4288085770
3.4944572 2.5076394 -1.7402769 4288085770
2.2141037 2.1236992 -1.7472194 4288085770
3.4455185 2.5405459 -1.7389005 4288085770
2.1781654 2.1526365 -1.7468941 4288085770
3.4075661 2.5774901 -1.7394912 4288085770
2.1502228 2.1845965 -1.7475441 4288085770
3.3676186 2.6124206 -1.7391011 4288085770
2.120285 2.215533 -1.7462025 4288085770
3.3346634 2.6503725 -1.7396854 4288085770
2.0893364 2.2464681 -1.7448605 4288085770
3.2907219 2.6832767 -1.7373126 4288085770
3.2407837 2.7131302 -1.7309663 4288085770
3.2138252 2.7530811 -1.7305347 4288085770
3.2008629 2.7970843 -1.7330724 4288085770
3.1709175 2.8349996 -1.7296591 4288085770
3.1809273 2.8890896 -1.7371114 4288085770
3.1629753 2.9300337 -1.7346762 4288085770
3.1570015 2.9780271 -1.7351784 4288085770
3.148037 3.0230057 -1.7347089 4288085770
3.1340828 3.0659456 -1.7312564 4288085770
3.1351128 3.1159399 -1.7307432 4288085770
3.1521263 3.1729994 -1.7341701 4288085770
3.2061043 3.248208 -1.7464398 4288085770
3.2181244 3.3022189 -1.745894 4288085770
3.2681046 3.3773906 -1.7551607 4288085770
3.3051071 3.4444911 -1.7595 4288085770
3.3450966 3.5145962 -1.7638108 4288085770
3.3830948 3.5826879 -1.7671405 4288085770
3.4430695 3.6638546 -1.7743533 4288085770
3.5070457 3.7470164 -1.7805483 4288085770
3.5670204 3.8281627 -1.7857612 4288085770
3.5910339 3.89114 -1.7801321 4288085770
2.0872498 3.1662254 -1.7274029 4288085770
3.6440201 3.9682133 -1.7793809 4288085770
2.1312561 3.2293267 -1.7307886 4288085770
3.6890144 4.0422544 -1.7766544 4288085770
2.1712685 3.2903914 -1.731192 4288085770
3.7689705 4.1354198 -1.7807591 4288085770
2.2142792 3.3534603 -1.7315772 4288085770
3.8589172 4.2346115 -1.7858096 4288085770
2.2642784 3.4205503 -1.7329264 4288085770
3.9508667 4.3358054 -1.7908412 4288085770
2.3512306 3.50981 -1.7450771 4288085770
4.0637856 4.4490533 -1.7977654 4288085770
2.416214 3.5859435 -1.7483451 4288085770
4.1827011 4.5673199 -1.8056424 4288085770
2.5381355 3.6973283 -1.7672962 4288085770
4.2936287 4.6805224 -1.808565 4288085770
2.5971298 3.7684112 -1.7666111 4288085770
4.414547 4.7987614 -1.8134438 4288085770
2.6651154 3.8455186 -1.7668713 4288085770
4.5384636 4.9209833 -1.8162839 4288085770
2.7580719 3.9387255 -1.7729857 4288085770
4.6553879 5.0371542 -1.8151804 4288085770
2.8310547 4.0188193 -1.7712188 4288085770
4.7703171 5.1523013 -1.8120857 4288085770
2.8870659 4.0868158 -1.7625628 4288085770
4.9142189 5.2865343 -1.8128176 4288085770
3.0079918 4.1980963 -1.7715133 4288085770
5.0661049 5.4257679 -1.8125041 4288085770
3.1099434 4.2952652 -1.7725936 4288085770
5.2060089 5.5569324 -1.8072641 4288085770
3.224884 4.400485 -1.7766013 4288085770
5.3579063 5.6951151 -1.8019612 4288085770
3.3438225 4.5086799 -1.7775816 4288085770
5.5527534 5.860446 -1.8044131 4288085770
3.4747467 4.6229239 -1.7815092 4288085770
5.7446098 6.0247097 -1.8008733 4288085770
3.6506195 4.7683287 -1.7941518 4288085770
5.9534454 6.1990204 -1.7992436 4288085770
3.7935333 4.8895707 -1.7960165 4288085770
6.1762733 6.381341 -1.796542 4288085770
3.9764023 5.0379453 -1.8046337 4288085770
6.398098 6.5636301 -1.7908403 4288085770
4.1402969 5.1722293 -1.8073807 4288085770
6.6429024 6.759954 -1.7850116 4288085770
4.3251724 5.3195658 -1.8120099 4288085770
6.9016953 6.9643097 -1.7801114 4288085770
4.5140457 5.4698772 -1.8136115 4288085770
7.2004471 7.194747 -1.7769747 4288085770
4.710907 5.6232119 -1.8161882 4288085770
7.5301704 7.444241 -1.774666 4288085770
4.9077835 5.7744942 -1.8137857 4288085770
7.9358063 7.7449327 -1.7798903 4288085770
5.1096573 5.9277744 -1.8103664 4288085770
8.3134804 8.0254784 -1.7752994 4288085770
5.3404922 6.1001396 -1.8107738 4288085770
5.5833244 6.278492 -1.8081288 4288085770
5.8331528 6.459856 -1.8054581 4288085770
6.1209412 6.6643076 -1.8055799 4288085770
6.3777733 6.8466191 -1.7969046 4288085770
6.6735649 7.0520215 -1.7910224 4288085770
6.9783554 7.2604065 -1.7821164 4288085770
7.3720474 7.527051 -1.7846813 4288085770
7.7927132 7.8097358 -1.7871021 4288085770
8.1964111 8.076292 -1.7796751 4288085770
17.07209 -1.0054774 -1.7632923 4288085770
16.175262 -1.0557072 -1.7781022 4288085770
15.074409 -1.0805299 -1.7654867 4288085770
14.138557 -1.1050372 -1.7589991 4288085770
13.266701 -1.1244459 -1.7525095 4288085770
12.519836 -1.1455996 -1.7521371 4288085770
11.897964 -1.1674891 -1.7588716 4288085770
11.288101 -1.1853809 -1.7635742 4288085770
10.696224 -1.1982758 -1.7652395 4288085770
10.167343 -1.2110534 -1.7689536 4288085770
16.939529 -1.9455762 -1.7848935 4288085770
9.6534615 -1.2188387 -1.7696277 4288085770
15.997597 -1.9348254 -1.8040388 4288085770
9.1825714 -1.2255373 -1.7723248 4288085770
14.693626 -1.8750672 -1.7803894 4288085770
8.7486839 -1.2331586 -1.7770607 4288085770
13.677673 -1.8337202 -1.7711589 4288085770
8.3347893 -1.2367697 -1.7797711 4288085770
12.815735 -1.8030529 -1.7701609 4288085770
7.9528999 -1.2413106 -1.7845167 4288085770
12.032791 -1.7732644 -1.7692344 4288085770
7.590004 -1.2438326 -1.7882563 4288085770
11.347855 -1.7482829 -1.7724353 4288085770
7.2271118 -1.2423854 -1.7889546 4288085770
10.70792 -1.7232428 -1.7746711 4288085770
6.8892097 -1.2399006 -1.7896621 4288085770
10.136986 -1.7010756 -1.7789915 4288085770
6.5743103 -1.2383587 -1.7923977 4288085770
9.5850525 -1.6768994 -1.7813057 4288085770
6.2964096 -1.2387192 -1.7991823 4288085770
9.0971222 -1.6565843 -1.7877109 4288085770
6.0475082 -1.2400041 -1.8089998 4288085770
8.6191864 -1.6323152 -1.7880827 4288085770
5.8156128 -1.2422624 -1.8188406 4288085770
8.1922569 -1.6119161 -1.7935352 4288085770
5.5257072 -1.231755 -1.8145031 4288085770
7.7883263 -1.5914917 -1.7980056 4288085770
5.2597961 -1.2231791 -1.8132045 4288085770
7.3743935 -1.5651655 -1.7944067 4288085770
5.0118904 -1.214566 -1.8129199 4288085770
6.99646 -1.5407419 -1.7948561 4288085770
4.7759819 -1.2049444 -1.8116343 4288085770
6.6575317 -1.5202389 -1.7973771 4288085770
4.5610733 -1.1972592 -1.8133856 4288085770
6.3485985 -1.500668 -1.8019314 4288085770
4.3381615 -1.1856179 -1.8120896 4288085770
6.087677 -1.4869609 -1.8125844 4288085770
4.1652527 -1.1808169 -1.8189039 4288085770
5.8477554 -1.4752111 -1.8242745 4288085770
3.9483414 -1.167207 -1.813592 4288085770
5.5648308 -1.4526525 -1.8238183 4288085770
3.7554283 -1.15453 -1.811309 4288085770
5.2958984 -1.4310613 -1.8243833 4288085770
3.5525131 -1.1388988 -1.8059874 4288085770
5.0359688 -1.4074669 -1.8239346 4288085770
3.4256096 -1.1369753 -1.8178682 4288085770
4.8150444 -1.3897605 -1.8285778 4288085770
3.2256927 -1.1173911 -1.8075078 4288085770
4.5621147 -1.3642075 -1.8231142 4288085770
3.0717773 -1.1066129 -1.8092753 4288085770
4.342186 -1.3415511 -1.8227068 4288085770
2.9128647 -1.0928824 -1.8070083 4288085770
4.1362572 -1.3218527 -1.8243411 4288085770
2.7749557 -1.0830688 -1.8097985 4288085770
3.9353294 -1.3001773 -1.8229587 4288085770
2.6510391 -1.0732136 -1.8145994 4288085770
3.718399 -1.2735791 -1.8165127 4288085770
2.5101242 -1.0594451 -1.8133463 4288085770
3.5064697 -1.2460032 -1.8070604 4288085770
2.3792114 -1.0466518 -1.8131109 4288085770
3.3255463 -1.2242973 -1.8056935 4288085770
2.2612953 -1.0358071 -1.8159065 4288085770
3.1596222 -1.2035584 -1.8053486 4288085770
2.1343842 -1.0210185 -1.8146539 4288085770
3.0026932 -1.1838052 -1.805021 4288085770
2.8587646 -1.1650004 -1.8077137 4288085770
2.7328415 -1.149148 -1.8124511 4288085770
2.58992 -1.1293836 -1.8111345 4288085770
2.4599991 -1.1105685 -1.812838 4288085770
2.3430748 -1.0937223 -1.8155723 4288085770
2.22715 -1.0758748 -1.8182969 4288085770
2.113224 -1.0580451 -1.8190231 4288085770
2.198246 0.86208117 -1.7712737 4288085770
2.292347 0.87211478 -1.7612436 4288085770
2.4494171 0.89042938 -1.7691785 4288085770
2.5904999 0.90564764 -1.7701325 4288085770
2.730587 0.91984355 -1.769096 4288085770
2.8856697 0.9350934 -1.7710607 4288085770
3.0247612 0.94724655 -1.7660445 4288085770
2.1359253 0.86698508 -1.7741748 4288085770
3.1838417 0.96146107 -1.7640228 4288085770
2.2610207 0.8761586 -1.7731785 4288085770
3.3639259 0.97774851 -1.7659963 4288085770
2.3871117 0.88633382 -1.7721727 4288085770
3.5350075 0.99096835 -1.7639965 4288085770
2.513195 0.8944751 -1.7691901 4288085770
3.7320824 1.0072708 -1.7649839 4288085770
2.649292 0.90364444 -1.7662029 4288085770
3.9291687 1.0215526 -1.7639922 4288085770
2.821373 0.91597128 -1.7732121 4288085770
4.1652451 1.0399551 -1.768989 4288085770
2.9724693 0.92516327 -1.7702367 4288085770
4.4303169 1.0594329 -1.7769976 4288085770
3.1435585 0.9354372 -1.7722661 4288085770
4.6763992 1.07582 -1.7790231 4288085770
3.2996597 0.94262636 -1.7683153 4288085770
4.939476 1.0932322 -1.781051 4288085770
3.4847527 0.95192122 -1.770366 4288085770
5.2635422 1.1148399 -1.7930845 4288085770
3.6758423 0.96120441 -1.7704214 4288085770
5.4976425 1.1250641 -1.7811635 4288085770
3.8729362 0.96949685 -1.7704917 4288085770
5.7547379 1.1363537 -1.7722499 4288085770
4.1210213 0.98196971 -1.7805597 4288085770
6.0218391 1.1466377 -1.7613544 4288085770
4.3231163 0.9882282 -1.7766548 4288085770
6.3299294 1.1600356 -1.7554594 4288085770
4.5712051 0.99763894 -1.7807541 4288085770
6.6960106 1.1765931 -1.7565778 4288085770
4.8143005 1.004001 -1.7808809 4288085770
7.1210823 1.1962813 -1.7617106 4288085770
5.0783958 1.011405 -1.7820134 4288085770
7.4581871 1.20464 -1.7478905 4288085770
5.3894844 1.0219522 -1.7901511 4288085770
7.8532791 1.2171382 -1.7390734 4288085770
5.6056023 1.0201184 -1.7753408 4288085770
8.3053703 1.2307531 -1.7332897 4288085770
5.8827057 1.0224696 -1.7695355 4288085770
8.8244514 1.2485209 -1.7325166 4288085770
6.1548271 1.0217618 -1.7587579 4288085770
9.3695412 1.2642868 -1.7277845 4288085770
6.4809303 1.024218 -1.7559906 4288085770
10.018616 1.2842817 -1.7300911 4288085770
6.8550301 1.0277778 -1.7562501 4288085770
10.6707 1.3002092 -1.7254419 4288085770
7.2551308 1.031387 -1.7575295 4288085770
11.433784 1.3193557 -1.7258474 4288085770
7.6102562 1.0268046 -1.7468576 4288085770
12.281853 1.3416406 -1.7272875 4288085770
8.0243607 1.0253735 -1.7422 4288085770
13.256912 1.365149 -1.7318155 4288085770
8.4774704 1.0230008 -1.7375832 4288085770
14.334984 1.3887916 -1.7344235 4288085770
9.0005798 1.021796 -1.7390097 4288085770
15.658035 1.4209073 -1.7471379 4288085770
9.5346947 1.0165459 -1.7344865 4288085770
16.814133 1.433461 -1.7299216 4288085770
10.131817 1.0104117 -1.7320224 4288085770
10.766941 1.0023347 -1.7296087 4288085770
11.500061 0.99342644 -1.7292809 4288085770
12.290184 0.98260427 -1.7290182 4288085770
13.222305 0.97103798 -1.7328757 4288085770
14.266426 0.95666158 -1.7388507 4288085770
15.458557 0.93953967 -1.7479715 4288085770
16.612709 0.91119516 -1.7411777 4288085770
9.4523582 -7.6581216 -1.9162778 4293729569
9.1090317 -7.370645 -1.914032 4288085770
8.805748 -7.109098 -1.9130864 4288085770
8.4504318 -6.8187528 -1.8998009 4288085770
8.1561661 -6.5672517 -1.892966 4288085770
7.9079437 -6.3446517 -1.8894669 4288085770
7.674736 -6.1340251 -1.8861034 4288085770
7.4775543 -5.9453263 -1.8849957 4288085770
7.3074074 -5.7735524 -1.8870846 4288085770
7.1382561 -5.6038203 -1.8851951 4288085770
6.9911308 -5.4480224 -1.8864677 4288085770
11.429588 -7.7265582 -1.8865671 4293729569
6.8490105 -5.296237 -1.8857856 4288085770
11.146313 -7.4689708 -1.8866785 4288085770
6.7138939 -5.1484423 -1.8851501 4288085770
10.871044 -7.2164006 -1.8838481 4288085770
6.5927925 -5.0106254 -1.8846291 4288085770
10.631802 -6.9877543 -1.8832939 4288085770
6.4907036 -4.8827701 -1.8852264 4288085770
10.391571 -6.7611423 -1.8797597 4288085770
6.3936272 -4.7589159 -1.8848689 4288085770
10.194374 -6.5584426 -1.8785073 4288085770
6.2625198 -4.6182022 -1.8773118 4288085770
10.000175 -6.3587747 -1.8752915 4288085770
6.1534424 -4.4914293 -1.8709154 4288085770
9.8270035 -6.1740499 -1.8732457 4288085770
6.0403557 -4.3626847 -1.8624955 4288085770
9.6868591 -6.0072656 -1.872412 4288085770
5.9632988 -4.2528219 -1.8602997 4288085770
9.5257072 -5.8305535 -1.8674585 4288085770
5.8842468 -4.1439834 -1.856113 4288085770
9.401577 -5.6747537 -1.8657509 4288085770
5.7891884 -4.0292206 -1.8468519 4288085770
9.314476 -5.537868 -1.8672686 4288085770
5.739151 -3.9343071 -1.8458325 4288085770
9.2193756 -5.3990245 -1.8657596 4288085770
5.7071266 -3.8493452 -1.8469306 4288085770
9.1482887 -5.270123 -1.8663727 4288085770
5.6440926 -3.7505131 -1.8398597 4288085770
9.0461884 -5.1293416 -1.8598377 4288085770
5.602066 -3.6626072 -1.8369191 4288085770
8.9811096 -5.006453 -1.8585176 4288085770
5.5850563 -3.5846334 -1.8371013 4288085770
8.9420471 -4.8955145 -1.8583419 4288085770
5.5620461 -3.5066881 -1.8352791 4288085770
8.8989906 -4.7845907 -1.8571633 4288085770
5.5550423 -3.4346886 -1.8365309 4288085770
8.8599319 -4.6746831 -1.8539983 4288085770
5.5440407 -3.3607364 -1.8337594 4288085770
8.8298836 -4.5697513 -1.851892 4288085770
5.539032 -3.2887535 -1.8330133 4288085770
8.8178368 -4.4707813 -1.8508618 4288085770
5.5260315 -3.2148147 -1.8292403 4288085770
8.8037987 -4.3728452 -1.8468405 4288085770
5.5330353 -3.1478143 -1.8285552 4288085770
8.8217735 -4.2858105 -1.8479578 4288085770
5.5490494 -3.0858002 -1.8279289 4288085770
8.8127441 -4.1918774 -1.8429821 4288085770
5.5500565 -3.0178504 -1.8232291 4288085770
8.8247185 -4.1029019 -1.8390744 4288085770
5.5730743 -2.9568152 -1.8236188 4288085770
8.8527031 -4.0208826 -1.8372515 4288085770
5.5980873 -2.8967986 -1.8220205 4288085770
8.8916893 -3.9428458 -1.8354789 4288085770
5.6171036 -2.8348107 -1.8183969 4288085770
8.9466858 -3.8687754 -1.8347603 4288085770
5.6521263 -2.7787685 -1.8178478 4288085770
8.9776726 -3.7857924 -1.8289299 4288085770
5.6891479 -2.7217436 -1.8152902 4288085770
9.0366707 -3.713737 -1.8262351 4288085770
5.7381744 -2.6686797 -1.8147832 4288085770
9.106678 -3.6436639 -1.8235698 4288085770
5.7952042 -2.6185942 -1.8153136 4288085770
9.1976852 -3.5805392 -1.8229933 4288085770
5.8682365 -2.572474 -1.8168977 4288085770
9.2856941 -3.5134506 -1.8193735 4288085770
5.927269 -2.5214057 -1.8154198 4288085770
9.3807068 -3.4493403 -1.8167902 4288085770
5.985302 -2.4693499 -1.8129305 4288085770
9.4997215 -3.389185 -1.8152671 4288085770
6.0873413 -2.4291549 -1.8175997 4288085770
9.601738 -3.3250852 -1.8106897 4288085770
6.180378 -2.3860054 -1.819231 4288085770
9.7447586 -3.2698932 -1.8092372 4288085770
6.2764168 -2.3408613 -1.8198441 4288085770
9.8897781 -3.212709 -1.8067662 4288085770
6.3404541 -2.288837 -1.8133602 4288085770
10.023804 -3.1525826 -1.8002558 4288085770
6.4174843 -2.2377844 -1.8078969 4288085770
10.196835 -3.101346 -1.7988688 4288085770
6.4885139 -2.1847606 -1.800408 4288085770
10.388863 -3.0510921 -1.7965075 4288085770
6.6215591 -2.1455407 -1.8031126 4288085770
10.607903 -3.0057659 -1.797219 4288085770
6.7206001 -2.0974445 -1.7986979 4288085770
10.821938 -2.9574895 -1.7938963 4288085770
6.8476448 -2.0562754 -1.7973775 4288085770
11.044975 -2.9082093 -1.7895703 4288085770
6.9976883 -2.0170403 -1.7990957 4288085770
11.290009 -2.8598766 -1.7872721 4288085770
7.1507378 -1.9778118 -1.7998167 4288085770
11.568062 -2.8184953 -1.7850727 4288085770
7.3037796 -1.9356146 -1.7975069 4288085770
11.847099 -2.7721329 -1.7808225 4288085770
7.4978333 -1.9012842 -1.8023119 4288085770
12.18615 -2.7346296 -1.7817129 4288085770
7.6828804 -1.8620186 -1.8020586 4288085770
12.52919 -2.6931615 -1.7785655 4288085770
7.8659248 -1.8207664 -1.8007832 4288085770
12.919243 -2.6585932 -1.7785277 4288085770
8.0739708 -1.7824564 -1.8015586 4288085770
13.384308 -2.6288824 -1.7816014 4288085770
8.2790222 -1.7421827 -1.7993113 4288085770
13.839363 -2.5952177 -1.7816261 4288085770
8.4830666 -1.6989303 -1.7950323 4288085770
14.322418 -2.5595326 -1.7796527 4288085770
8.7211151 -1.6576076 -1.7928011 4288085770
14.915482 -2.5346212 -1.7838804 4288085770
8.9701538 -1.6162691 -1.7905787 4288085770
15.601555 -2.5165319 -1.7922544 4288085770
9.2292061 -1.5739365 -1.7863543 4288085770
16.292625 -2.492487 -1.7955711 4288085770
9.5082474 -1.5315628 -1.7831459 4288085770
16.922676 -2.4506574 -1.7866542 4288085770
9.793293 -1.4872022 -1.7779218 4288085770
10.111336 -1.4437823 -1.7737345 4288085770
10.471382 -1.4022689 -1.7726012 4288085770
10.84243 -1.3587706 -1.7684563 4288085770
11.254475 -1.315191 -1.7663444 4288085770
11.712509 -1.271533 -1.7652692 4288085770
12.187553 -1.2258716 -1.7621872 4288085770
12.699593 -1.1771755 -1.7571043 4288085770
13.26963 -1.1293638 -1.7550781 4288085770
13.987671 -1.0852497 -1.7612112 4288085770
14.7127 -1.035188 -1.7612885 4288085770
15.69873 -0.99257469 -1.7776564 4288085770
16.568756 -0.93433118 -1.7747681 4288085770
16.769188 1.4062287 -1.7324677 4288085770
16.021179 1.4712687 -1.742139 4288085770
15.181213 1.5230252 -1.7368639 4288085770
14.385262 1.5688038 -1.7276886 4288085770
13.739304 1.6178874 -1.7276133 4288085770
13.16333 1.6680808 -1.7285889 4288085770
12.590378 1.7122276 -1.7246287 4288085770
12.057426 1.7544316 -1.7207239 4288085770
11.584473 1.7967309 -1.7178715 4288085770
11.174519 1.8411607 -1.7190535 4288085770
10.770565 1.8835683 -1.7172613 4288085770
10.417603 1.9270792 -1.7185034 4288085770
10.090649 1.9706167 -1.7187682 4288085770
9.7517052 2.0081069 -1.716084 4288085770
9.46875 2.0507071 -1.7163976 4288085770
16.499275 3.1366336 -1.7165595 4288085770
9.2107887 2.094353 -1.7177228 4288085770
15.976311 3.1829648 -1.723622 4288085770
8.9658356 2.1370173 -1.7190694 4288085770
15.467361 3.2262952 -1.7287272 4288085770
8.7448692 2.1817265 -1.7214162 4288085770
14.882431 3.250387 -1.7209605 4288085770
8.5029259 2.2193441 -1.7178171 4288085770
14.383492 3.2816508 -1.7181977 4288085770
8.2979736 2.2610555 -1.7182091 4288085770
13.947548 3.3190241 -1.7174286 4288085770
8.112011 2.3058035 -1.7195867 4288085770
13.553596 3.359467 -1.7176653 4288085770
7.950058 2.3505957 -1.7219857 4288085770
13.199638 3.4039764 -1.7188963 4288085770
7.8020897 2.3984284 -1.7263659 4288085770
12.875671 3.4495287 -1.7201433 4288085770
7.6601257 2.4452488 -1.7287618 4288085770
12.516724 3.4859705 -1.7154516 4288085770
7.5391579 2.49613 -1.7341348 4288085770
12.232773 3.5325689 -1.7157236 4288085770
7.4281883 2.5470147 -1.7385169 4288085770
11.983803 3.5842376 -1.7179749 4288085770
7.3202171 2.5989039 -1.7428913 4288085770
11.737839 3.6338897 -1.7182491 4288085770
7.2292442 2.6518271 -1.7482704 4288085770
11.476891 3.6774802 -1.7145718 4288085770
7.1532631 2.708792 -1.7556216 4288085770
11.30291 3.7372646 -1.7178069 4288085770
7.0742874 2.7637219 -1.7599907 4288085770
11.109936 3.7919917 -1.7180767 4288085770
7.0043068 2.8206749 -1.7653472 4288085770
10.89798 3.840641 -1.7133913 4288085770
6.9353294 2.878629 -1.7706944 4288085770
10.76199 3.9064789 -1.7165984 4288085770
6.8753471 2.9375856 -1.7750392 4288085770
10.620007 3.9692879 -1.7178308 4288085770
6.8173599 2.9955454 -1.7793958 4288085770
10.499012 4.0361271 -1.7190405 4288085770
6.7623825 3.0544989 -1.7827452 4288085770
10.382023 4.1029711 -1.7202539 4288085770
6.7143974 3.1164725 -1.7870699 4288085770
10.298019 4.1798816 -1.7233942 4288085770
6.6614227 3.1754084 -1.7884212 4288085770
10.226013 4.2578197 -1.7275347 4288085770
6.623436 3.2393851 -1.7917341 4288085770
10.156006 4.3377395 -1.7296563 4288085770
6.6024399 3.3074069 -1.7970212 4288085770
10.095993 4.418674 -1.7317766 4288085770
6.5624542 3.3703504 -1.7973429 4288085770
10.039986 4.5005927 -1.7318904 4288085770
6.5364685 3.4373341 -1.799636 4288085770
9.971981 4.578475 -1.7300347 4288085770
6.5084801 3.5023048 -1.8009478 4288085770
9.9559555 4.6724911 -1.7340608 4288085770
6.4934883 3.5722933 -1.8022199 4288085770
9.9009552 4.7533708 -1.730186 4288085770
6.4744987 3.6412663 -1.8024988 4288085770
9.8949203 4.8523798 -1.7321695 4288085770
6.4984779 3.7263808 -1.8106514 4288085770
9.8728981 4.9443254 -1.7302113 4288085770
6.5094681 3.806426 -1.813844 4288085770
9.8698616 5.0443182 -1.7301874 4288085770
6.5304527 3.8914955 -1.8179942 4288085770
9.8728294 5.1462984 -1.7281488 4288085770
6.5444374 3.9735346 -1.8201691 4288085770
9.9047775 5.2603502 -1.7290127 4288085770
6.5554314 4.0545487 -1.8203518 4288085770
9.9846878 5.3935194 -1.7347243 4288085770
6.5174675 4.1153822 -1.8096967 4288085770
10.03463 5.5155849 -1.7345227 4288085770
6.4974861 4.1832719 -1.8019855 4288085770
10.108547 5.6497154 -1.737219 4288085770
6.5124779 4.267271 -1.8001411 4288085770
10.204445 5.7938747 -1.7398325 4288085770
6.5184784 4.3462172 -1.7943403 4288085770
10.290356 5.9349904 -1.7394682 4288085770
6.5494576 4.4372282 -1.7914385 4288085770
10.42123 6.097209 -1.7429284 4288085770
6.5794411 4.5282273 -1.7875359 4288085770
10.576092 6.2734699 -1.7472668 4288085770
6.6264114 4.6262813 -1.7865765 4288085770
10.771919 6.4688187 -1.7544467 4288085770
6.6723824 4.7253027 -1.7826064 4288085770
10.953754 6.6601272 -1.7596555 4288085770
6.7283478 4.8283482 -1.7796042 4288085770
11.123596 6.8493576 -1.7588745 4288085770
6.784317 4.9323726 -1.7745917 4288085770
11.212502 7.0013528 -1.7464014 4288085770
6.8532715 5.0434356 -1.7715193 4288085770
11.462273 7.2337542 -1.7512512 4288085770
6.9352112 5.1615162 -1.7683867 4288085770
11.724045 7.475162 -1.7550195 4288085770
7.0301476 5.2876158 -1.7651838 4288085770
11.896889 7.6742921 -1.7441399 4288085770
7.1310768 5.4177227 -1.7619454 4288085770
12.089706 7.8874598 -1.7341348 4288085770
7.2369995 5.5508251 -1.7576807 4288085770
7.3669052 5.6969819 -1.7553042 4288085770
7.5467606 5.8722792 -1.759675 4288085770
7.7326164 6.0525627 -1.7620002 4288085770
7.9614258 6.2589579 -1.7690972 4288085770
8.182251 6.4612994 -1.7722287 4288085770
8.4330444 6.6836934 -1.7761818 4288085770
8.6758423 6.9040341 -1.776149 4288085770
8.890667 7.1092753 -1.7702453 4288085770
9.2064018 7.3757663 -1.7748065 4288085770
9.4651871 7.6120458 -1.7666252 4288085770
9.7499466 7.8653712 -1.759293 4288085770
10.058685 8.1357098 -1.7498084 4288085770
16.763939 -0.44479251 -1.7613504 4288085770
15.595078 -0.47726536 -1.7725397 4288085770
14.248222 -0.49230814 -1.7513726 4288085770
13.165359 -0.50785828 -1.7434703 4288085770
