# .PCD v0.7 - Point Cloud Data file format
VERSION 0.7
FIELDS x y z rgb
SIZE 4 4 4 4
TYPE F F F U
COUNT 1 1 1 1
WIDTH 1117
HEIGHT 1
VIEWPOINT 0 0 0 1 0 0 0
POINTS 1117
DATA ascii
0.96319008 1.6919916 -1.8094286 4288085770
2.4862843 1.9724538 -1.7953225 4288085770
1.1343174 1.7059402 -1.8096534 4288085770
2.717371 1.994348 -1.7908996 4288085770
1.3054276 1.7188733 -1.807887 4288085770
2.9624615 2.0172372 -1.7863325 4288085770
1.5216331 1.7398708 -1.815617 4288085770
3.2425976 2.0441549 -1.7863926 4288085770
1.7057304 1.7507904 -1.8127409 4288085770
3.5196934 2.0680406 -1.7825068 4288085770
1.9098587 1.7647276 -1.8126456 4288085770
3.8187981 2.0939269 -1.7793909 4288085770
2.0999241 1.7736206 -1.8067282 4288085770
4.1238842 2.1177945 -1.7742332 4288085770
2.2899818 1.7805057 -1.7998272 4288085770
4.4519787 2.1426623 -1.7698442 4288085770
2.5070858 1.789422 -1.7976474 4288085770
4.808094 2.170536 -1.7671584 4288085770
2.7361813 1.8003256 -1.7943343 4288085770
5.177187 2.1963887 -1.7623633 4288085770
2.974287 1.8092344 -1.7919506 4288085770
5.5682774 2.2222342 -1.7573544 4288085770
3.2223816 1.8181314 -1.7884699 4288085770
5.9893761 2.2500768 -1.7530378 4288085770
3.4924927 1.8270371 -1.7867755 4288085770
6.4514866 2.2799129 -1.7493069 4288085770
3.7776031 1.8359368 -1.7849356 4288085770
6.9415951 2.3097389 -1.7453041 4288085770
4.0566845 1.8408151 -1.7801868 4288085770
7.4616928 2.3395457 -1.7400104 4288085770
4.3487568 1.8446801 -1.7743205 4288085770
8.00877 2.3683269 -1.7324628 4288085770
4.6658478 1.850553 -1.7701949 4288085770
8.60186 2.3991077 -1.7264522 4288085770
5.0089531 1.8554323 -1.7678248 4288085770
8.3218708 2.294291 -1.6180283 4293729569
5.3500214 1.8572805 -1.7614995 4288085770
7.6474628 2.136266 -1.4708692 4293729569
5.7171097 1.8581355 -1.7569298 4288085770
7.6528606 2.0756721 -1.3993124 4293729569
6.1151924 1.8599792 -1.752051 4288085770
7.8164291 2.0361681 -1.3440474 4293729569
6.5623245 1.8628464 -1.7516879 4288085770
8.0991154 2.0107191 -1.2995111 4293729569
6.9883881 1.858664 -1.7445868 4288085770
8.502882 1.9953001 -1.262717 4293729569
7.4835052 1.8585062 -1.7427828 4288085770
8.9156303 1.9768617 -1.2238604 4293729569
7.9725647 1.8513017 -1.7350951 4288085770
9.3073196 1.9503818 -1.1792742 4293729569
8.5156593 1.8451104 -1.7308749 4288085770
9.8070564 1.9319041 -1.1385732 4293729569
9.1167641 1.8379154 -1.7280992 4288085770
10.35578 1.9114091 -1.0974127 4293729569
9.682785 1.8216591 -1.7167386 4288085770
11.187649 1.9129345 -1.0683233 4293729569
10.335854 1.8064132 -1.709525 4288085770
11.119007 1.7961936 -1.7100077 4288085770
11.890099 1.7769296 -1.7046815 4288085770
12.710156 1.7506249 -1.6959379 4288085770
13.622229 1.7223027 -1.6883174 4288085770
14.66235 1.6929843 -1.6854626 4288085770
6.360672 -7.4485741 -1.4372524 4293729569
5.8889942 -7.1833248 -1.4516554 4293729569
5.4813423 -6.9540663 -1.4697328 4293729569
5.0706482 -6.7158461 -1.4827659 4293729569
4.694952 -6.4976301 -1.4966236 4293729569
4.3202114 -6.2754564 -1.505439 4293729569
4.0195217 -6.0982485 -1.5209056 4293729569
3.6987801 -5.9030838 -1.530419 4293729569
3.3689919 -5.6969566 -1.5349296 4293729569
3.0992527 -5.5297995 -1.5451781 4293729569
6.1716251 -7.5596409 -1.4290173 4293729569
2.862524 -5.3816385 -1.5572623 4293729569
5.7249851 -7.2683783 -1.4459648 4293729569
2.632782 -5.235487 -1.568295 4293729569
5.3203335 -7.0011301 -1.462702 4293729569
2.4190426 -5.0963421 -1.5792301 4293729569
4.9456577 -6.750906 -1.477288 4293729569
2.2253036 -4.9691935 -1.5910693 4293729569
4.6219902 -6.5316858 -1.4936335 4293729569
2.0185127 -4.8300915 -1.5969369 4293729569
4.2622566 -6.2855158 -1.5021073 4293729569
1.8337364 -4.7049799 -1.6047059 4293729569
3.985569 -6.0923176 -1.5172102 4293729569
1.682003 -4.5988379 -1.6173104 4293729569
3.6958389 -5.8891554 -1.5273578 4293729569
1.5092049 -4.4767466 -1.6229877 4293729569
3.3910522 -5.6730385 -1.5315447 4293729569
1.3393898 -4.3556738 -1.6266445 4293729569
3.1473007 -5.4968996 -1.5404676 4293729569
1.1875877 -4.2445889 -1.6322085 4293729569
2.9435806 -5.3447409 -1.5531995 4293729569
1.0347672 -4.1315203 -1.6357659 4293729569
2.7428493 -5.1945925 -1.5649185 4293729569
0.90295219 -4.0304518 -1.6402183 4293729569
2.5661163 -5.0584526 -1.5765198 4293729569
0.80720711 -3.9533291 -1.6525176 4293729569
2.3793449 -4.91434 -1.5841528 4293729569
0.68439102 -3.8562622 -1.6569157 4293729569
2.2065716 -4.7782335 -1.5917157 4293729569
0.5755806 -3.7671919 -1.6622432 4293729569
2.0558109 -4.655117 -1.601172 4293729569
0.55597687 -3.7369633 -1.6901904 4293729569
1.8960037 -4.5260382 -1.6056664 4293729569
0.59048271 -3.7426443 -1.7309083 4293729569
1.7482071 -4.4039555 -1.6111017 4293729569
0.61898041 -3.741334 -1.7706271 4288085770
1.6464653 -4.310832 -1.6233287 4293729569
0.64946365 -3.7400312 -1.8093265 4288085770
1.5407009 -4.2137222 -1.6335616 4293729569
0.61076736 -3.6908779 -1.8273031 4288085770
1.4088593 -4.0996771 -1.6349081 4293729569
0.49888229 -3.5928726 -1.824587 4288085770
1.2900372 -3.9926205 -1.6381855 4293729569
0.39398956 -3.4978781 -1.8208274 4288085770
1.2072639 -3.9095278 -1.6473105 4293729569
0.29308319 -3.4058924 -1.816054 4288085770
1.1134548 -3.8174629 -1.6524688 4293729569
0.20820236 -3.3238878 -1.814207 4288085770
1.1068192 -3.7792635 -1.6772252 4293729569
0.12733078 -3.2428761 -1.8133296 4288085770
1.1492805 -3.7709894 -1.7127521 4293729569
0.06949234 -3.1768394 -1.816352 4288085770
1.2167969 -3.7766752 -1.7541512 4288085770
0.0076370239 -3.1068187 -1.8173805 4288085770
1.2772827 -3.775382 -1.7925612 4288085770
-0.034172058 -3.0507617 -1.8233298 4288085770
1.2686043 -3.7302237 -1.8122803 4288085770
1.1837349 -3.6392107 -1.8113602 4288085770
1.0968475 -3.5472145 -1.8084511 4288085770
1.0239792 -3.4642053 -1.8074802 4288085770
0.95409966 -3.3812051 -1.8054804 4288085770
0.90225029 -3.3101797 -1.8074042 4288085770
0.853405 -3.2391539 -1.8092991 4288085770
0.81756401 -3.1761246 -1.8121334 4288085770
0.76968765 -3.1071239 -1.8110353 4288085770
0.7238121 -3.0381246 -1.8099176 4288085770
0.69395447 -2.9781132 -1.8107187 4288085770
0.66709328 -2.9201035 -1.8115069 4288085770
0.63822365 -2.8601012 -1.8112985 4288085770
0.61034584 -2.8011074 -1.8100885 4288085770
0.60852623 -2.7550645 -1.8157331 4288085770
0.58063126 -2.6950865 -1.8125151 4288085770
0.58982086 -2.6530399 -1.819086 4288085770
0.57894707 -2.6030431 -1.8187853 4288085770
0.58410454 -2.5590267 -1.8213786 4288085770
0.59427452 -2.5179968 -1.8259481 4288085770
0.59139061 -2.4710112 -1.8245946 4288085770
0.59251785 -2.4250178 -1.8242108 4288085770
0.59563255 -2.3790345 -1.8228077 4288085770
0.61077118 -2.3390303 -1.8243371 4288085770
0.63493347 -2.302012 -1.8278042 4288085770
0.65005493 -2.2610245 -1.8273259 4288085770
0.66817856 -2.2220378 -1.826835 4288085770
0.69532013 -2.1860366 -1.8282815 4288085770
0.71844101 -2.1480517 -1.8277506 4288085770
0.7485733 -2.1130605 -1.8281764 4288085770
0.7877121 -2.0800643 -1.8295313 4288085770
0.82184219 -2.0460734 -1.8299268 4288085770
0.87098885 -2.0160723 -1.8322099 4288085770
0.90911102 -1.9830923 -1.831575 4288085770
0.96426773 -1.9540849 -1.8348082 4288085770
1.0063782 -1.9211135 -1.8331348 4288085770
1.0554962 -1.8901372 -1.83241 4288085770
1.1136341 -1.8611474 -1.8336147 4288085770
-0.059118271 -1.4897304 -1.8459128 4288085770
1.178772 -1.8341589 -1.8347679 4288085770
-0.017004013 -1.4617505 -1.8452798 4288085770
1.2338676 -1.8022003 -1.8319775 4288085770
0.026096344 -1.4347887 -1.8426458 4288085770
1.3030052 -1.7752137 -1.8330923 4288085770
0.084241867 -1.4117899 -1.8448991 4288085770
1.3620949 -1.7442656 -1.8292714 4288085770
0.14739799 -1.3897853 -1.8481122 4288085770
1.4272022 -1.715302 -1.8274089 4288085770
0.21857071 -1.3697667 -1.8532642 4288085770
1.5173473 -1.6923141 -1.8293539 4288085770
0.27267838 -1.3437991 -1.8515321 4288085770
1.6074905 -1.6683259 -1.8312906 4288085770
0.33379555 -1.3188267 -1.8507406 4288085770
1.6775703 -1.6383891 -1.826372 4288085770
0.41997337 -1.3008046 -1.8567642 4288085770
1.780714 -1.6164055 -1.8281995 4288085770
0.48408127 -1.2758412 -1.8549441 4288085770
1.8858585 -1.5934234 -1.8299998 4288085770
0.55319023 -1.2518792 -1.8530835 4288085770
1.9999981 -1.5724435 -1.8317298 4288085770
0.62530518 -1.2279096 -1.8521942 4288085770
2.1041126 -1.5484853 -1.8305317 4288085770
0.70542336 -1.2049432 -1.8512357 4288085770
2.215229 -1.524529 -1.8292664 4288085770
0.77350998 -1.178997 -1.8473688 4288085770
2.3533783 -1.5065494 -1.8317894 4288085770
0.87467003 -1.1609969 -1.8512484 4288085770
2.4694729 -1.4816113 -1.8284677 4288085770
0.96979523 -1.1400266 -1.8511616 4288085770
2.5935783 -1.4576669 -1.8260773 4288085770
1.0478745 -1.1140924 -1.8461987 4288085770
2.7577457 -1.4406791 -1.8303574 4288085770
1.1570129 -1.0951104 -1.847993 4288085770
2.8697815 -1.4127889 -1.8210508 4288085770
1.2912006 -1.0790968 -1.8545703 4288085770
3.0409203 -1.3938279 -1.8222474 4288085770
1.4093342 -1.0591264 -1.85527 4288085770
3.225069 -1.3778634 -1.8243433 4288085770
1.4943829 -1.0322185 -1.8472315 4288085770
3.39217 -1.3559337 -1.8215545 4288085770
1.5924397 -1.0073066 -1.8400844 4288085770
3.5872974 -1.3379898 -1.8215283 4288085770
1.7426071 -0.99131393 -1.8445076 4288085770
3.7683792 -1.3150816 -1.8165966 4288085770
1.8556747 -0.96639967 -1.8382155 4288085770
3.9814892 -1.2961597 -1.8143889 4288085770
2.0148335 -0.94941854 -1.8415443 4288085770
4.1645432 -1.2712765 -1.8064224 4288085770
2.12887 -0.92352819 -1.8322347 4288085770
4.3856297 -1.2513728 -1.8021296 4288085770
2.2869911 -0.90357971 -1.831549 4288085770
4.6327286 -1.23247 -1.7985941 4288085770
2.4210472 -0.87968063 -1.8240629 4288085770
4.8617802 -1.2096028 -1.7902006 4288085770
2.5801296 -0.85676432 -1.8193437 4288085770
5.1488819 -1.1917052 -1.7872878 4288085770
2.7552204 -0.83584595 -1.8154866 4288085770
5.4680138 -1.1767936 -1.7870904 4288085770
2.94133 -0.81591463 -1.813531 4288085770
5.7831097 -1.1599135 -1.7829164 4288085770
3.1454411 -0.79498959 -1.8113943 4288085770
6.1181927 -1.1410489 -1.7775332 4288085770
3.3505287 -0.77408123 -1.807248 4288085770
6.5493641 -1.1321344 -1.781305 4288085770
3.5636101 -0.75318289 -1.8020247 4288085770
6.8833714 -1.1083345 -1.7678915 4288085770
3.7886887 -0.73128986 -1.7966777 4288085770
7.3124619 -1.0924926 -1.7626268 4288085770
4.0277691 -0.70940065 -1.7911958 4288085770
7.8145943 -1.0806351 -1.7616903 4288085770
4.2748356 -0.68752193 -1.7846369 4288085770
8.3146591 -1.0638328 -1.7537333 4288085770
4.5448952 -0.6646595 -1.7768482 4288085770
8.8797474 -1.0500283 -1.7481738 4288085770
4.84799 -0.64277601 -1.7727495 4288085770
9.4257545 -1.0302911 -1.7337497 4288085770
5.1941109 -0.62288189 -1.7712523 4288085770
10.089823 -1.0145364 -1.7252204 4288085770
5.5852509 -0.60398626 -1.7713293 4288085770
10.818886 -1.000803 -1.7160805 4288085770
5.957325 -0.58114147 -1.7645575 4288085770
11.69499 -0.9910779 -1.710556 4288085770
6.3593941 -0.55830717 -1.7574972 4288085770
12.646081 -0.98038626 -1.7033007 4288085770
6.8145027 -0.53645802 -1.7539333 4288085770
13.665103 -0.96677494 -1.6883664 4288085770
7.2955723 -0.51264954 -1.7461032 4288085770
14.908191 -0.95917225 -1.6793213 4288085770
7.8226471 -0.48784876 -1.7388217 4288085770
8.4127293 -0.46306086 -1.7319331 4288085770
9.0457897 -0.43730402 -1.7226223 4288085770
9.74086 -0.40955925 -1.7136974 4288085770
10.564957 -0.38382483 -1.7075455 4288085770
11.524084 -0.35611153 -1.703076 4288085770
12.60421 -0.32743073 -1.6984324 4288085770
13.755268 -0.29382992 -1.6860651 4288085770
11.416941 1.8727896 -1.0805002 4293729569
10.539753 1.8997648 -1.0527221 4293729569
9.8206406 1.9327552 -1.0313743 4293729569
9.1525211 1.9627302 -1.0095602 4293729569
8.4563541 1.9796734 -0.98312151 4293729569
8.0803814 2.0276864 -0.97435105 4293729569
9.5336666 2.2443795 -0.36056083 4293729569
7.809473 2.0867226 -0.97148049 4293729569
9.0458202 2.2795327 -0.36597228 4293729569
7.5885715 2.1477516 -0.96911275 4293729569
8.7830086 2.342648 -0.37299174 4293729569
7.491766 2.2248225 -0.97542143 4293729569
8.6292152 2.418745 -0.38085699 4293729569
7.4309597 2.3088822 -0.98132718 4293729569
8.5174274 2.5008366 -0.38926947 4293729569
7.4201794 2.3979504 -0.98971105 4293729569
8.5126514 2.5989027 -0.39752275 4293729569
7.4124031 2.489017 -0.99804997 4293729569
8.5268764 2.6999631 -0.4055689 4293729569
7.3785877 2.5750599 -1.0026798 4293729569
8.4800625 2.7910101 -0.41028345 4293729569
7.3677769 2.6651039 -1.008056 4293729569
8.480257 2.8900504 -0.41548091 4293729569
7.3569546 2.7571397 -1.0124161 4293729569
8.4814243 2.9900742 -0.41866094 4293729569
7.3401184 2.8461609 -1.0148586 4293729569
8.4916 3.0930948 -0.42173004 4293729569
7.3362942 2.9381862 -1.0181515 4293729569
8.4867554 3.1921043 -0.42297614 4293729569
7.3494587 3.0351977 -1.0202407 4293729569
8.5349102 3.3040969 -0.42360699 4293729569
7.3656235 3.1332085 -1.0222926 4293729569
8.6280785 3.427083 -0.42471576 4293729569
7.3817654 3.2312033 -1.0223449 4293729569
7.4059048 3.3311872 -1.0213042 4293729569
7.4390488 3.4341764 -1.0211526 4293729569
7.4721756 3.5371492 -1.0190011 4293729569
7.5753403 3.6601319 -1.020014 4293729569
14.177982 0.0038833618 -1.6870768 4288085770
12.726094 -0.0027475357 -1.6941174 4288085770
11.509233 -0.0074162483 -1.7028784 4288085770
10.382313 -0.009159565 -1.7047487 4288085770
9.4474602 -0.010896206 -1.7127696 4288085770
8.6566486 -0.01163578 -1.724395 4288085770
7.9358253 -0.011403561 -1.7343383 4288085770
14.5446 -0.13931417 -1.6766917 4288085770
7.2699604 -0.0092191696 -1.7397362 4288085770
13.020699 -0.12294102 -1.6822418 4288085770
6.6881485 -0.0070137978 -1.7503246 4288085770
11.723837 -0.10759592 -1.690613 4288085770
6.1593266 -0.0038299561 -1.7593945 4288085770
10.641993 -0.093289852 -1.6999216 4288085770
5.6274376 0.00029706955 -1.7614859 4288085770
9.663147 -0.080014229 -1.7082458 4288085770
5.1134892 0.0063710213 -1.7573885 4288085770
8.8283005 -0.066772938 -1.7161833 4288085770
4.682621 0.012493134 -1.7614909 4288085770
8.092495 -0.054521561 -1.7281748 4288085770
4.2997723 0.017616272 -1.7671391 4288085770
7.4236603 -0.042313576 -1.7365212 4288085770
3.941925 0.023732185 -1.7725381 4288085770
6.8228264 -0.030126095 -1.744213 4288085770
3.6200924 0.02885294 -1.7795986 4288085770
6.2910252 -0.01892662 -1.7552477 4288085770
3.3042221 0.035940647 -1.7825853 4288085770
5.7701645 -0.0057787895 -1.7601608 4288085770
3.0163784 0.043043613 -1.7883023 4288085770
5.250227 0.0073041916 -1.7570649 4288085770
2.7445183 0.050126076 -1.7918655 4288085770
4.7943363 0.02040863 -1.7583526 4288085770
2.4796448 0.058197975 -1.7943529 4288085770
4.4174995 0.031537533 -1.7648946 4288085770
2.23979 0.066278934 -1.7985998 4288085770
4.0556622 0.043662548 -1.7712842 4288085770
1.9958973 0.074328899 -1.7988855 4288085770
3.7268219 0.05577755 -1.7773563 4288085770
1.7750225 0.083387375 -1.8009413 4288085770
3.4069633 0.06687355 -1.7813495 4288085770
1.578167 0.09145546 -1.8047739 4288085770
3.0950527 0.079926968 -1.7802502 4288085770
1.3772831 0.099500656 -1.8056453 4288085770
2.8262138 0.091023922 -1.7857522 4288085770
1.1914082 0.10854959 -1.8073643 4288085770
2.5693607 0.10310984 -1.7901307 4288085770
1.0265598 0.1176157 -1.8118805 4288085770
2.3224773 0.11516809 -1.7914132 4288085770
0.85467339 0.12665176 -1.8124648 4288085770
2.0916157 0.12723827 -1.7945415 4288085770
0.69078445 0.13668633 -1.8129638 4288085770
1.8817558 0.13830948 -1.7984754 4288085770
0.53087807 0.14570284 -1.8114325 4288085770
1.6668549 0.15034246 -1.7974497 4288085770
0.39302063 0.15575314 -1.8146809 4288085770
1.4749889 0.16240072 -1.8002023 4288085770
0.25214195 0.16478872 -1.8159665 4288085770
1.2991333 0.17446232 -1.8038007 4288085770
0.13028145 0.17483377 -1.8190609 4288085770
1.1222591 0.18650818 -1.8054091 4288085770
-0.0066242218 0.18484449 -1.8173 4288085770
0.96640015 0.19856358 -1.8088149 4288085770
0.79247665 0.21056795 -1.8053948 4288085770
0.6536274 0.22162724 -1.8096448 4288085770
0.51375961 0.23466969 -1.8118886 4288085770
0.36183548 0.24666739 -1.8082565 4288085770
0.23797607 0.25871372 -1.811354 4288085770
0.11208916 0.27073622 -1.8114716 4288085770
-0.0057983398 0.28275681 -1.8115114 4288085770
-0.0037879944 2.4081428 -1.8056473 4288085770
0.12135696 2.4441254 -1.8071564 4288085770
0.23343086 2.4740555 -1.8018395 4288085770
0.37558556 2.5140409 -1.8041528 4288085770
0.50569153 2.5479901 -1.8016304 4288085770
0.64079475 2.5819378 -1.7990595 4288085770
0.80195045 2.6249263 -1.8021661 4288085770
0.94805527 2.6598709 -1.7994815 4288085770
-0.0069103241 2.3341458 -1.8112775 4288085770
1.1141891 2.7008343 -1.7995561 4288085770
0.11120415 2.3581069 -1.80995 4288085770
1.2813015 2.738781 -1.7976454 4288085770
0.23632622 2.3840737 -1.809539 4288085770
1.4644642 2.782763 -1.800532 4288085770
0.36643791 2.4100313 -1.8080798 4288085770
1.6455765 2.8227062 -1.7984704 4288085770
0.49554062 2.4339812 -1.8056465 4288085770
1.8376904 2.8646462 -1.7962869 4288085770
0.64368248 2.4629576 -1.8069898 4288085770
2.040823 2.9095988 -1.7959734 4288085770
0.77776337 2.4858902 -1.8025166 4288085770
2.2689838 2.9585686 -1.7983869 4288085770
0.97501183 2.5279398 -1.8142837 4288085770
2.4670563 2.9954753 -1.7921859 4288085770
1.1000462 2.5438356 -1.804953 4288085770
2.7122173 3.0474401 -1.7944118 4288085770
1.297245 2.5818462 -1.8117524 4288085770
2.9683647 3.0983942 -1.79554 4288085770
1.464365 2.6078017 -1.810937 4288085770
3.2114677 3.142312 -1.7918495 4288085770
1.6214371 2.6287203 -1.8052582 4288085770
3.4725895 3.1912413 -1.7899455 4288085770
1.8045654 2.6556792 -1.8052806 4288085770
3.7517166 3.2411728 -1.7888602 4288085770
1.9836674 2.679616 -1.8023657 4288085770
4.0608768 3.2971203 -1.7904378 4288085770
2.1787872 2.7055635 -1.8012804 4288085770
4.3740044 3.3520427 -1.7889854 4288085770
2.3588562 2.7244763 -1.7953957 4288085770
4.7201729 3.4129882 -1.7911667 4288085770
2.5659657 2.7504129 -1.7931949 4288085770
5.1023674 3.4809468 -1.7959458 4288085770
2.7720547 2.7723346 -1.7890359 4288085770
5.4835243 3.5438743 -1.7967743 4288085770
2.9881611 2.795269 -1.7867726 4288085770
5.8686504 3.602777 -1.7945961 4288085770
3.2192707 2.820199 -1.7843486 4288085770
6.2938061 3.6686924 -1.7949768 4288085770
3.4583759 2.8441274 -1.7818555 4288085770
6.7279415 3.73259 -1.7932872 4288085770
3.712492 2.8680596 -1.7802178 4288085770
7.2010937 3.8024921 -1.7931737 4288085770
3.973608 2.8919897 -1.7785128 4288085770
7.7082558 3.8753932 -1.7937089 4288085770
4.235693 2.911896 -1.7738301 4288085770
8.2293873 3.9462667 -1.7911252 4288085770
4.5458565 2.9428525 -1.7765967 4288085770
8.7595005 4.0121222 -1.7864949 4288085770
4.8289394 2.9617534 -1.7717198 4288085770
9.33461 4.0839653 -1.7813834 4288085770
5.1580925 2.9886966 -1.7733353 4288085770
7.7751637 3.6053164 -1.5371976 4293729569
5.4731941 3.0086045 -1.770142 4288085770
7.6064644 3.4897027 -1.4567374 4293729569
5.837347 3.0355387 -1.7714204 4288085770
7.5228786 3.3951602 -1.3872905 4293729569
6.1854553 3.0544455 -1.7689167 4288085770
7.4853592 3.3136606 -1.3242964 4293729569
6.5535736 3.0743551 -1.7672127 4288085770
7.5149078 3.2461977 -1.2675447 4293729569
6.9416924 3.0932593 -1.7653238 4288085770
7.5074482 3.1697373 -1.2102213 4293729569
7.3648376 3.1151774 -1.7660733 4288085770
7.4299278 3.078249 -1.1476916 4293729569
7.7699375 3.1290617 -1.7620605 4288085770
7.4415092 3.006815 -1.0941451 4293729569
8.2040424 3.1419458 -1.7587761 4288085770
7.4420776 2.9303763 -1.0397439 4293729569
8.6481266 3.1508114 -1.7534271 4288085770
7.4546719 2.8559585 -0.98821104 4293729569
8.7437782 3.085418 -1.7070229 4288085770
7.5223179 2.7925646 -0.94106066 4293729569
7.8282433 2.8213229 -1.5479325 4293729569
7.5149136 2.7141523 -0.88975227 4293729569
7.6746693 2.7128086 -1.4802704 4293729569
7.4895115 2.6307449 -0.83865678 4293729569
7.4350052 2.5882466 -1.4045647 4293729569
7.5181465 2.5573542 -0.79096138 4293729569
7.4546623 2.5128741 -1.3589716 4293729569
7.5317917 2.4809756 -0.74443418 4293729569
7.5123444 2.4415152 -1.3159804 4293729569
7.7235298 2.431627 -0.70597661 4293729569
7.5119877 2.3621402 -1.269612 4293729569
7.8822594 2.3762801 -0.66688472 4293729569
7.5366726 2.28479 -1.2269859 4293729569
8.0709972 2.3229325 -0.62848777 4293729569
7.5453453 2.2054372 -1.1835304 4293729569
8.3177605 2.2745929 -0.59249192 4293729569
7.6671295 2.1411474 -1.1508659 4293729569
7.819931 2.0798659 -1.1198786 4293729569
8.0718212 2.0276282 -1.0968652 4293729569
9.5121708 2.1665611 -0.49383503 4293729569
8.6739807 2.017524 -1.0991439 4293729569
10.269056 2.1631927 -0.46656674 4293729569
9.0219269 1.9683077 -1.081181 4293729569
9.6030235 1.9401627 -1.0778052 4293729569
10.237131 1.911011 -1.0749267 4293729569
10.915255 1.876864 -1.0736636 4293729569
10.12265 -5.0814142 -1.0754329 4293729569
9.9635887 -5.1122208 -0.33815134 4293729569
10.004135 -5.1490755 -1.1161124 4293729569
10.065742 -5.279664 -1.1705545 4293729569
12.988248 -6.4641418 -1.436779 4293729569
12.334492 -6.3479147 -1.4501592 4293729569
11.705723 -6.229702 -1.4622829 4293729569
11.050915 -6.0925217 -1.4695072 4293729569
10.391075 -5.943367 -1.4736851 4293729569
9.8152771 -5.8201914 -1.4822592 4293729569
9.2544594 -5.6920376 -1.4886492 4293729569
8.7596741 -5.5858688 -1.4985774 4293729569
8.2688904 -5.4736986 -1.5084193 4293729569
7.8140926 -5.3675489 -1.5169622 4293729569
7.3432713 -5.2504187 -1.5225726 4293729569
6.9404984 -5.1552572 -1.5337013 4293729569
6.4796391 -5.0291615 -1.5351444 4293729569
12.072758 -7.605525 -1.3765978 4293729569
6.069809 -4.9190474 -1.5402226 4293729569
11.255087 -7.339222 -1.3953717 4293729569
5.7250443 -4.8328934 -1.5518638 4293729569
10.520412 -7.0979319 -1.4145439 4293729569
5.4122849 -4.7567396 -1.5642756 4293729569
9.8337173 -6.8706694 -1.4313644 4293729569
5.0674706 -4.6606255 -1.5708382 4293729569
9.1669922 -6.6434355 -1.4449928 4293729569
4.7947159 -4.5924749 -1.583928 4293729569
8.642334 -6.4741669 -1.4667109 4293729569
4.4769001 -4.4993687 -1.5902544 4293729569
8.0205555 -6.2509842 -1.474938 4293729569
4.1360226 -4.3913116 -1.5896844 4293729569
7.5218506 -6.0807619 -1.4913983 4293729569
3.8511925 -4.3052216 -1.5947481 4293729569
4.5886288 -4.6822872 -1.2255921 4293729569
3.608429 -4.2350855 -1.6065334 4293729569
4.5382042 -4.7108984 -1.2743067 4293729569
3.348608 -4.1539946 -1.612396 4293729569
4.5278206 -4.7594795 -1.3277936 4293729569
3.0787468 -4.0639334 -1.6142842 4293729569
4.5164452 -4.8050537 -1.3822665 4293729569
2.8960247 -4.0147734 -1.630657 4293729569
4.5231075 -4.8596001 -1.4406365 4293729569
2.6581841 -3.9337025 -1.634308 4293729569
4.5367718 -4.9161482 -1.4989549 4293729569
2.4463673 -3.863616 -1.6407951 4293729569
4.4403152 -4.9127798 -1.5438603 4293729569
2.325716 -3.8384085 -1.6647598 4293729569
4.2627239 -4.8635111 -1.5741836 4293729569
2.2361164 -3.8281622 -1.6945437 4293729569
3.8838367 -4.7024641 -1.5715613 4293729569
2.1575222 -3.8229094 -1.7252613 4288085770
3.5850372 -4.5793543 -1.5784677 4293729569
2.0919571 -3.8226357 -1.7588927 4288085770
3.3202515 -4.4722385 -1.587173 4293729569
2.0213852 -3.8173704 -1.7915331 4288085770
3.0584545 -4.362133 -1.5948257 4293729569
1.8846569 -3.7732248 -1.8075024 4288085770
2.8366909 -4.2720051 -1.6062509 4293729569
1.7038307 -3.7021532 -1.8126832 4288085770
2.6149197 -4.1778831 -1.6166445 4293729569
1.5049324 -3.6181412 -1.8099355 4288085770
2.3951206 -4.0817871 -1.6240034 4293729569
1.3210506 -3.5391178 -1.8090826 4288085770
2.1833096 -3.9877024 -1.6303012 4293729569
1.1501846 -3.4660811 -1.8101519 4288085770
1.9995327 -3.9065914 -1.6404316 4293729569
0.99032021 -3.3950472 -1.8111309 4288085770
1.8287563 -3.8304825 -1.6504765 4293729569
0.84047318 -3.3290005 -1.8140532 4288085770
1.7511673 -3.805233 -1.6810262 4293729569
0.69861603 -3.2659554 -1.8169218 4288085770
1.7096348 -3.8009338 -1.7183949 4288085770
0.5467205 -3.1939478 -1.8148164 4288085770
1.6821251 -3.8006248 -1.7576598 4288085770
0.40283394 -3.1249342 -1.8136574 4288085770
1.6476078 -3.7963219 -1.7959605 4288085770
0.27296638 -3.0629082 -1.8144189 4288085770
1.536911 -3.7451572 -1.814624 4288085770
0.16013527 -3.0088544 -1.8190793 4288085770
1.3530293 -3.6491346 -1.8136371 4288085770
0.039264679 -2.9468307 -1.819754 4288085770
1.1741219 -3.5531359 -1.8096024 4288085770
1.01124 -3.4651179 -1.8084766 4288085770
0.84733582 -3.3751197 -1.8053478 4288085770
0.71648979 -3.3020782 -1.8080322 4288085770
0.58963203 -3.2290459 -1.8096782 4288085770
0.47479248 -3.1630001 -1.8132638 4288085770
0.33888817 -3.083005 -1.8099419 4288085770
0.23102951 -3.0169778 -1.8114601 4288085770
0.12014961 -2.9489651 -1.8109919 4288085770
0.021287918 -2.8859396 -1.8124472 4288085770
-0.04491806 -0.69710493 -1.8318807 4288085770
0.030181885 -0.68013811 -1.8300251 4288085770
0.11730576 -0.66515779 -1.8300694 4288085770
0.20642853 -0.650177 -1.8300949 4288085770
0.29853821 -0.63520575 -1.8290914 4288085770
0.39466095 -0.62022829 -1.8290492 4288085770
0.48674202 -0.60427999 -1.8250383 4288085770
0.59587288 -0.59029722 -1.825879 4288085770
0.70398331 -0.57633018 -1.8247296 4288085770
0.82911301 -0.56235027 -1.8254164 4288085770
0.94120598 -0.54739952 -1.8222209 4288085770
1.0733318 -0.53442192 -1.8228482 4288085770
0.0013866425 -0.38022995 -1.8239559 4288085770
1.2064438 -0.52046061 -1.8214582 4288085770
0.10350609 -0.36625385 -1.8238641 4288085770
1.3425407 -0.50650787 -1.8190395 4288085770
0.20861816 -0.35328484 -1.8227514 4288085770
1.4826336 -0.49156284 -1.8155748 4288085770
0.31872749 -0.3393178 -1.8215829 4288085770
1.6357403 -0.4776063 -1.8139926 4288085770
0.40877342 -0.32340145 -1.8135918 4288085770
1.7878323 -0.46366549 -1.8104202 4288085770
0.55797768 -0.31336546 -1.8220786 4288085770
1.9539185 -0.45072699 -1.8067211 4288085770
0.67506027 -0.29942274 -1.8178433 4288085770
2.1310253 -0.43677616 -1.8049079 4288085770
0.79012299 -0.28449631 -1.8116192 4288085770
2.305088 -0.42186356 -1.7981166 4288085770
0.95731735 -0.27447176 -1.8189329 4288085770
2.5272312 -0.41089201 -1.7998937 4288085770
1.0883789 -0.26054907 -1.8125631 4288085770
2.7092609 -0.39500475 -1.7900175 4288085770
1.2515259 -0.24856329 -1.8149003 4288085770
2.9423771 -0.38305902 -1.7886816 4288085770
1.4166431 -0.23560095 -1.8142108 4288085770
3.1834793 -0.37112331 -1.7862688 4288085770
1.5727234 -0.2216692 -1.8096 4288085770
3.4435825 -0.35819197 -1.7836653 4288085770
1.7397938 -0.20874643 -1.8038915 4288085770
3.7036572 -0.34528446 -1.7780622 4288085770
1.9299107 -0.19579029 -1.8029617 4288085770
3.9887409 -0.33237505 -1.7732185 4288085770
2.121994 -0.18285894 -1.7990125 4288085770
4.2938118 -0.31947851 -1.7671825 4288085770
2.3421173 -0.17090178 -1.7988018 4288085770
4.6188717 -0.30759382 -1.7599622 4288085770
2.5632038 -0.1569767 -1.794566 4288085770
4.984972 -0.29468727 -1.756339 4288085770
2.8013077 -0.14504051 -1.7921823 4288085770
5.4201241 -0.28575182 -1.7580832 4288085770
3.0564137 -0.13210773 -1.7896272 4288085770
5.9022865 -0.27681875 -1.7603754 4288085770
3.3174877 -0.11919975 -1.7840148 4288085770
6.3523426 -0.26396418 -1.7519448 4288085770
3.5855522 -0.10530186 -1.7773272 4288085770
6.8423958 -0.25211906 -1.7431374 4288085770
3.8966618 -0.093375206 -1.7752415 4288085770
7.3654385 -0.24029016 -1.7330128 4288085770
4.221735 -0.08048296 -1.7690135 4288085770
7.9905148 -0.22945404 -1.7259145 4288085770
4.5597954 -0.066601276 -1.7616526 4288085770
8.6905994 -0.21862793 -1.7190946 4288085770
4.9448948 -0.054699421 -1.7578553 4288085770
9.4326515 -0.20783567 -1.7088712 4288085770
5.4120445 -0.042770863 -1.7592686 4288085770
10.2787 -0.19606829 -1.6976396 4288085770
5.9192047 -0.031843185 -1.761305 4288085770
11.299824 -0.18827152 -1.6937553 4288085770
6.4202881 -0.018977642 -1.7553843 4288085770
12.478953 -0.18050623 -1.6893512 4288085770
6.9533596 -0.0051269531 -1.7481481 4288085770
13.751009 -0.1708169 -1.6770376 4288085770
7.5474281 0.0077095032 -1.7403328 4288085770
8.1984863 0.021523952 -1.7309619 4288085770
8.9335575 0.03533411 -1.7227827 4288085770
9.7766323 0.049126625 -1.7145647 4288085770
10.769753 0.06192255 -1.7099116 4288085770
11.853844 0.075680256 -1.7023757 4288085770
13.16196 0.090408325 -1.6956772 4288085770
14.623049 0.1050849 -1.6855074 4288085770
10.302494 2.1680892 -0.44514555 4293729569
9.7883205 2.2119379 -0.41672331 4293729569
9.4391804 2.2687817 -0.39062327 4293729569
9.0760307 2.3216214 -0.36368787 4293729569
9.209013 2.4424689 -0.34648561 4293729569
9.2319393 2.5462937 -0.32446659 4293729569
9.4478989 2.6831079 -0.30434787 4293729569
9.4367981 2.7839174 -0.27967727 4293729569
13.544356 0.34852171 -1.6929913 4288085770
12.173463 0.35771227 -1.6989188 4288085770
11.033619 0.36790657 -1.7086487 4288085770
10.059795 0.3780942 -1.7198048 4288085770
9.1899605 0.38825464 -1.7289748 4288085770
8.4381447 0.398417 -1.7400264 4288085770
7.7433071 0.40955305 -1.7485298 4288085770
13.963024 0.50936317 -1.6808285 4288085770
7.0824146 0.41963673 -1.7507191 4288085770
12.622188 0.51959348 -1.6924613 4288085770
6.5055542 0.42973566 -1.7561115 4288085770
11.461344 0.52979088 -1.7023879 4288085770
6.0057106 0.44083643 -1.7627667 4288085770
10.447504 0.54096937 -1.7119137 4288085770
5.5078278 0.45090532 -1.7654105 4288085770
9.5456562 0.5511272 -1.7203858 4288085770
5.0409164 0.46094608 -1.7647606 4288085770
8.7678261 0.56327772 -1.7296669 4288085770
4.6280365 0.47100735 -1.7675985 4288085770
8.0830173 0.57443476 -1.7410744 4288085770
4.2741966 0.48308897 -1.7738618 4288085770
7.4271526 0.58554006 -1.7462072 4288085770
3.9493637 0.49417257 -1.7808579 4288085770
6.817255 0.59561396 -1.7479118 4288085770
3.6174831 0.50421906 -1.7829281 4288085770
6.3114319 0.60773039 -1.756615 4288085770
3.3166103 0.51526761 -1.7856966 4288085770
5.8476048 0.61983895 -1.7649204 4288085770
3.0437469 0.52631879 -1.7891999 4288085770
5.3626728 0.62986708 -1.7624403 4288085770
2.8159389 0.53840804 -1.7982687 4288085770
4.950798 0.64092803 -1.7652608 4288085770
2.5971184 0.55048752 -1.8062521 4288085770
4.5769386 0.65199709 -1.7697207 4288085770
2.3522167 0.5615027 -1.8054899 4288085770
4.2240677 0.66305494 -1.7729818 4288085770
2.156395 0.57357788 -1.8132554 4288085770
3.9262333 0.67613363 -1.7797061 4288085770
1.9505196 0.58460927 -1.8151234 4288085770
3.6313705 0.68818831 -1.7834097 4288085770
1.7636604 0.59665227 -1.8188039 4288085770
3.3565178 0.70024729 -1.7879237 4288085770
1.5898018 0.60869288 -1.8223609 4288085770
3.0996609 0.71230316 -1.7922672 4288085770
1.4059067 0.61970448 -1.8220204 4288085770
2.8788338 0.72537541 -1.7992619 4288085770
1.234005 0.63071394 -1.8215665 4288085770
2.6389523 0.73741269 -1.8014442 4288085770
1.0901642 0.64376497 -1.8268315 4288085770
2.4300976 0.75045943 -1.8053252 4288085770
0.9302578 0.65476465 -1.8252639 4288085770
2.2382488 0.76251101 -1.8100528 4288085770
0.78437042 0.6667769 -1.8255554 4288085770
2.0714455 0.77759624 -1.8195201 4288085770
0.63745117 0.67776656 -1.8228644 4288085770
1.880558 0.78961706 -1.8202382 4288085770
0.50557327 0.68978381 -1.8240236 4288085770
1.7016716 0.80163503 -1.8208426 4288085770
0.38470078 0.70180726 -1.8260783 4288085770
1.538805 0.81466579 -1.8232876 4288085770
0.25879288 0.71380043 -1.8241807 4288085770
1.3909435 0.8287015 -1.826583 4288085770
0.15994835 0.72684288 -1.8290192 4288085770
1.2400646 0.84072256 -1.827922 4288085770
0.056077957 0.73986316 -1.8309051 4288085770
1.1001854 0.85374141 -1.8291491 4288085770
-0.050823212 0.75086045 -1.8298351 4288085770
0.9522686 0.86573124 -1.82646 4288085770
0.82740593 0.87876248 -1.8295449 4288085770
0.70853806 0.89278531 -1.8315653 4288085770
0.58162689 0.90477896 -1.829677 4288085770
0.45470047 0.91675735 -1.8257889 4288085770
0.3588562 0.9317987 -1.8305837 4288085770
0.23892021 0.94376779 -1.8256291 4288085770
0.14404869 0.95778632 -1.8274223 4288085770
0.053165436 0.97179627 -1.8281776 4288085770
-0.035713196 0.98580599 -1.8289138 4288085770
-0.013435364 3.1852274 -1.8041304 4288085770
0.11676216 3.2552671 -1.8113717 4288085770
0.2278862 3.3122492 -1.810892 4288085770
0.35604477 3.3782587 -1.8141829 4288085770
0.49019432 3.44626 -1.8164023 4288085770
0.64739418 3.5242953 -1.8233284 4288085770
0.79455376 3.5963016 -1.8263947 4288085770
0.97978973 3.6863623 -1.8369652 4288085770
1.1279011 3.7543306 -1.8350533 4288085770
-0.039440155 3.1752152 -1.8084821 4288085770
1.2850227 3.8263049 -1.834026 4288085770
0.093738556 3.2342396 -1.8137795 4288085770
1.4571552 3.903285 -1.8338197 4288085770
0.22688866 3.2912412 -1.8160924 4288085770
1.650322 3.9892912 -1.8373462 4288085770
0.36204147 3.3482509 -1.8193864 4288085770
1.8504925 4.0773044 -1.8417913 4288085770
0.48814392 3.3982153 -1.8168193 4288085770
2.056633 4.1652856 -1.8421804 4288085770
0.65634918 3.468257 -1.8247031 4288085770
2.2788124 4.2602949 -1.8463656 4288085770
0.81551933 3.5322695 -1.8287178 4288085770
2.5029621 4.353281 -1.8475472 4288085770
0.98268509 3.5972807 -1.8326498 4288085770
2.7511272 4.4552784 -1.8504339 4288085770
1.150835 3.6602767 -1.8345877 4288085770
3.0273438 4.5703087 -1.8579575 4288085770
1.3249912 3.7252793 -1.837454 4288085770
3.3105373 4.6843228 -1.863423 4288085770
1.4820843 3.7782316 -1.8335725 4288085770
3.5466022 4.7702389 -1.8555464 4288085770
1.6712322 3.8452241 -1.8352824 4288085770
3.8978691 4.9123025 -1.8681573 4288085770
1.8743992 3.9172297 -1.8388222 4288085770
4.6067734 5.2298136 -1.9430639 4282675967
2.0885735 3.991241 -1.8432432 4288085770
4.917881 5.340755 -1.9392902 4282675967
2.2906933 4.0562086 -1.8418463 4288085770
5.1638298 5.4165783 -1.9193975 4282675967
2.5038204 4.1251822 -1.8413156 4288085770
5.3967381 5.4803743 -1.8957194 4288085770
2.7500076 4.2061958 -1.846382 4288085770
5.6857243 5.5702214 -1.8793148 4288085770
2.9831429 4.2781739 -1.84664 4288085770
6.0878696 5.7081785 -1.8784782 4288085770
3.237299 4.356164 -1.8486546 4288085770
6.5069942 5.8491168 -1.8754588 4288085770
3.4703751 4.4200969 -1.8429741 4288085770
6.955122 5.9980593 -1.8731052 4288085770
3.6623669 4.4619679 -1.8288487 4288085770
7.4593029 6.1690302 -1.8750564 4288085770
3.9896069 4.5640144 -1.8389922 4288085770
8.022522 6.3580208 -1.8803145 4288085770
4.3338451 4.6690574 -1.8489527 4288085770
8.6818218 6.5840635 -1.8933858 4288085770
4.6760464 4.7680712 -1.8549782 4288085770
9.3260365 6.7960415 -1.8977059 4288085770
5.1113968 4.9051905 -1.875837 4288085770
9.9401875 6.9859715 -1.8954777 4288085770
5.4164925 4.978127 -1.8714107 4288085770
10.65239 7.2109303 -1.8980595 4288085770
5.7155399 5.0440269 -1.8620948 4288085770
11.405567 7.4408598 -1.8972169 4288085770
6.0696659 5.1279783 -1.8601233 4288085770
12.225767 7.6908016 -1.8985916 4288085770
6.4167595 5.2059078 -1.8552638 4288085770
13.135002 7.9677587 -1.902922 4288085770
6.8178997 5.3008676 -1.8547658 4288085770
7.2140198 5.3878121 -1.8523766 4288085770
7.6351528 5.4797606 -1.8507136 4288085770
8.1173172 5.5877299 -1.8523539 4288085770
8.5624275 5.6766596 -1.8484885 4288085770
9.0956211 5.7926435 -1.8525878 4288085770
9.6117477 5.8935852 -1.8509618 4288085770
10.164902 6.0025358 -1.8509272 4288085770
10.728035 6.10747 -1.8488294 4288085770
11.373236 6.2314434 -1.8528141 4288085770
12.025415 6.3504014 -1.8547713 4288085770
12.679543 6.4603214 -1.8517791 4288085770
13.419737 6.5892811 -1.8548321 4288085770
14.129867 6.6971922 -1.8513285 4288085770
14.811946 6.7880716 -1.8432184 4288085770
8.0390186 3.6670554 -0.86075234 4293729569
7.8487015 3.5257435 -0.8186214 4293729569
7.8054981 3.4244983 -0.78680086 4293729569
7.8053226 3.3332691 -0.75749898 4293729569
7.9002171 3.2630854 -0.73514229 4293729569
8.0261307 3.1989119 -0.71444774 4293729569
8.1200352 3.1267362 -0.69311547 4293729569
8.2759895 3.0645843 -0.67612684 4293729569
8.1688175 2.9493721 -0.64801204 4293729569
8.4368305 2.907259 -0.63680989 4293729569
8.3056755 2.7870665 -0.61095881 4293729569
8.457653 2.7189417 -0.59704667 4293729569
8.5925579 2.5466743 -0.56508738 4293729569
8.5234718 2.4375324 -0.54656792 4293729569
8.5374393 2.3444149 -0.53214484 4293729569
8.6954613 2.2703276 -0.52322102 4293729569
9.0435658 2.2202792 -0.52132511 4293729569
10.168926 2.155251 -0.53122675 4293729569
10.641081 2.1032293 -0.53417796 4293729569
14.379125 -3.2207098 -1.6814579 4288085770
13.698251 -3.2236276 -1.6858901 4288085770
13.015347 -3.2145681 -1.6872504 4288085770
12.41248 -3.213491 -1.6919178 4288085770
11.810604 -3.2034216 -1.6955079 4288085770
11.25375 -3.1973357 -1.7017039 4288085770
10.679853 -3.1782861 -1.7029624 4288085770
10.148972 -3.1622272 -1.7058384 4288085770
9.676136 -3.1521397 -1.7132134 4288085770
9.1972637 -3.132082 -1.7165697 4288085770
8.7634258 -3.118 -1.7235472 4288085770
14.636538 -4.6090899 -1.5125164 4293729569
8.3756237 -3.1098943 -1.7341369 4288085770
13.756763 -4.5099134 -1.5270487 4293729569
7.942749 -3.0838442 -1.7370148 4288085770
13.088079 -4.4526863 -1.5509115 4293729569
7.565918 -3.0667639 -1.7444328 4288085770
12.439388 -4.391468 -1.5735561 4293729569
7.1820602 -3.0427046 -1.7488642 4288085770
11.83971 -4.3382406 -1.5977997 4293729569
6.830225 -3.0226283 -1.7560245 4288085770
11.3601 -4.3079729 -1.6290871 4293729569
6.4733677 -2.9975743 -1.7601942 4288085770
10.923498 -4.2827015 -1.6610074 4288085770
6.1565342 -2.9765034 -1.7670172 4288085770
10.497887 -4.2554388 -1.6918091 4288085770
5.8236771 -2.9484525 -1.7709383 4288085770
10.038231 -4.213212 -1.7178178 4288085770
5.5198421 -2.9243832 -1.7776164 4288085770
9.5094604 -4.1430731 -1.7312652 4288085770
5.2249889 -2.8993306 -1.7822024 4288085770
8.9296055 -4.0509939 -1.7360272 4288085770
4.9331455 -2.8712711 -1.7877373 4288085770
8.3497066 -3.9509554 -1.735729 4288085770
4.6713181 -2.8472009 -1.79502 4288085770
7.8198223 -3.8589087 -1.7370206 4288085770
4.4024582 -2.8171611 -1.7983235 4288085770
7.3189468 -3.7708569 -1.7390696 4288085770
4.1546211 -2.7911 -1.8044595 4288085770
6.9081326 -3.7047663 -1.747437 4288085770
3.8646965 -2.7481093 -1.8008631 4288085770
6.5063133 -3.6366768 -1.7557048 4288085770
3.6178207 -2.7160797 -1.8029443 4288085770
6.131485 -3.5725985 -1.7627488 4288085770
3.3959846 -2.6890235 -1.808828 4288085770
5.7816868 -3.5125017 -1.7725874 4288085770
3.1671124 -2.6559963 -1.8107325 4288085770
5.4298401 -3.4464426 -1.7773997 4288085770
2.9442368 -2.6229701 -1.8125807 4288085770
5.0759735 -3.3763981 -1.7802011 4288085770
2.7303734 -2.5899382 -1.8153437 4288085770
4.761137 -3.3153367 -1.7857033 4288085770
2.5234947 -2.5569139 -1.8170413 4288085770
4.4442635 -3.2502966 -1.7881941 4288085770
2.3105946 -2.5179119 -1.8157502 4288085770
4.1504059 -3.1892538 -1.7914985 4288085770
2.1257267 -2.487884 -1.8182629 4288085770
3.8425007 -3.119247 -1.7898675 4288085770
1.9368401 -2.4518709 -1.8187689 4288085770
3.5626202 -3.056221 -1.7910255 4288085770
1.7439384 -2.4138722 -1.8172969 4288085770
3.3207874 -3.0041628 -1.7969085 4288085770
1.5670528 -2.378861 -1.8176972 4288085770
3.0739155 -2.9471335 -1.7988011 4288085770
1.4182243 -2.3528085 -1.8239013 4288085770
2.8260269 -2.8871198 -1.7986807 4288085770
1.2623558 -2.3217845 -1.8261338 4288085770
2.5961456 -2.830102 -1.7994136 4288085770
1.1175041 -2.2937469 -1.8302854 4288085770
2.3802719 -2.7770767 -1.8010446 4288085770
0.94757271 -2.2527747 -1.8255748 4288085770
2.1764088 -2.7250471 -1.8035704 4288085770
0.81874084 -2.2267246 -1.831591 4288085770
1.989563 -2.6790042 -1.8079814 4288085770
0.68688202 -2.1976972 -1.8346127 4288085770
1.8247433 -2.6389422 -1.8152303 4288085770
0.55501366 -2.1666775 -1.8366195 4288085770
1.6378593 -2.5879297 -1.8156039 4288085770
0.42012596 -2.1336718 -1.8366398 4288085770
1.4619827 -2.5399113 -1.8168966 4288085770
0.29725647 -2.1036534 -1.8385695 4288085770
1.2830925 -2.4869075 -1.8161799 4288085770
0.18039703 -2.0746279 -1.8414501 4288085770
1.1582966 -2.4558282 -1.8261203 4288085770
0.050474167 -2.0376453 -1.8383933 4288085770
1.0024147 -2.4098129 -1.8272399 4288085770
-0.064413071 -2.0056434 -1.8382329 4288085770
0.85252953 -2.3638053 -1.8273031 4288085770
0.71166039 -2.320785 -1.8293041 4288085770
0.58079338 -2.2797656 -1.8312262 4288085770
0.45493507 -2.2407393 -1.8341161 4288085770
0.33307266 -2.2007136 -1.8369612 4288085770
0.20316124 -2.1557322 -1.8338438 4288085770
0.07926178 -2.1117363 -1.832678 4288085770
-0.032615662 -2.0727277 -1.8334366 4288085770
-0.068117142 0.055637836 -1.8178223 4288085770
0.029973984 0.068604946 -1.814803 4288085770
0.13307571 0.08057785 -1.8127438 4288085770
0.24719429 0.09256506 -1.8125812 4288085770
0.36128998 0.10453653 -1.8104187 4288085770
0.47837257 0.11649323 -1.8062283 4288085770
0.61651802 0.12849951 -1.8088394 4288085770
0.76265526 0.13949776 -1.8103834 4288085770
0.89473534 0.15245247 -1.8060442 4288085770
-0.031143188 0.19758415 -1.8164123 4288085770
1.0538616 0.16344118 -1.8064657 4288085770
0.092983246 0.20757723 -1.8171705 4288085770
1.1989346 0.17538691 -1.8010119 4288085770
0.21611023 0.21857071 -1.8179308 4288085770
1.3750648 0.18738079 -1.8022662 4288085770
0.33619881 0.2285347 -1.8147267 4288085770
1.5531826 0.19835997 -1.801509 4288085770
0.48033714 0.23853207 -1.8162967 4288085770
1.7382812 0.21032381 -1.798679 4288085770
0.60239983 0.24847317 -1.8100744 4288085770
1.9353867 0.22229242 -1.7967361 4288085770
0.74650764 0.25844908 -1.8086444 4288085770
2.1505089 0.23327398 -1.796631 4288085770
0.92468834 0.26848078 -1.8148946 4288085770
2.363596 0.24522686 -1.7925376 4288085770
1.0787773 0.27844095 -1.811371 4288085770
2.6107273 0.25621223 -1.7931315 4288085770
1.2458763 0.28640604 -1.8087398 4288085770
2.85882 0.2681675 -1.789709 4288085770
1.4219894 0.29638624 -1.8080093 4288085770
3.1239262 0.27912855 -1.7871338 4288085770
1.6201134 0.30537033 -1.8080789 4288085770
3.3999958 0.29006624 -1.7814554 4288085770
1.8262272 0.31534576 -1.8070661 4288085770
3.7171173 0.30203533 -1.7803835 4288085770
2.0243053 0.32429266 -1.8021363 4288085770
4.0392151 0.31298923 -1.7772723 4288085770
2.2534294 0.33327389 -1.8019143 4288085770
4.3792877 0.32391834 -1.7709922 4288085770
2.503561 0.34225893 -1.8024951 4288085770
4.7603741 0.33585739 -1.7663187 4288085770
2.7245865 0.35016584 -1.7923564 4288085770
5.1804905 0.34781456 -1.7642783 4288085770
2.9937019 0.3591342 -1.7907585 4288085770
5.6606331 0.35878658 -1.7646807 4288085770
3.2747917 0.36708593 -1.7870551 4288085770
6.1707497 0.37073946 -1.7627937 4288085770
3.5658665 0.37502193 -1.7812577 4288085770
6.6788044 0.38164091 -1.7539335 4288085770
3.9200134 0.38300943 -1.7828676 4288085770
7.2919216 0.39358139 -1.7510777 4288085770
4.2640915 0.39094639 -1.7775718 4288085770
7.9840622 0.40653467 -1.7504716 4288085770
4.6341705 0.39788008 -1.7720391 4288085770
8.6580906 0.41740084 -1.7380501 4288085770
5.0422764 0.40483141 -1.7691485 4288085770
9.4591694 0.42929602 -1.7304263 4288085770
5.5304356 0.41181755 -1.7715055 4288085770
10.360252 0.4401865 -1.7228694 4288085770
6.0395756 0.418787 -1.7716645 4288085770
11.344288 0.45202971 -1.7095248 4288085770
6.5446186 0.42368174 -1.7618769 4288085770
12.559396 0.46491146 -1.7029995 4288085770
7.1397209 0.42961836 -1.7582351 4288085770
13.980509 0.47878265 -1.6965294 4288085770
7.8078346 0.43455315 -1.7549139 4288085770
8.5219173 0.43846035 -1.7481676 4288085770
9.2519245 0.44130564 -1.7332786 4288085770
10.170034 0.44321775 -1.7286282 4288085770
11.154097 0.44508457 -1.7183572 4288085770
12.321197 0.44496632 -1.7113794 4288085770
13.689306 0.44383907 -1.7045184 4288085770
9.9794273 -5.1110411 -0.44188118 4293729569
14.479836 0.70833087 -1.6904685 4288085770
13.141951 0.73533511 -1.696923 4288085770
11.994097 0.76136065 -1.7055881 4288085770
10.995245 0.78538728 -1.7138592 4288085770
10.130415 0.80943012 -1.7238632 4288085770
9.3405533 0.83144832 -1.7301729 4288085770
8.6376877 0.85246277 -1.7356675 4288085770
8.0258541 0.87350297 -1.7443014 4288085770
14.776584 1.2302208 -1.6759124 4288085770
7.4559937 0.8935194 -1.7495457 4288085770
13.502732 1.2392504 -1.6858915 4288085770
6.916111 0.91252041 -1.7525138 4288085770
12.402885 1.248281 -1.6952258 4288085770
6.4172287 0.93051958 -1.7551016 4288085770
11.401007 1.2572856 -1.7006335 4288085770
5.9853611 0.94953036 -1.7590486 4288085770
10.538157 1.2673132 -1.7087202 4288085770
5.575491 0.96754074 -1.7627949 4288085770
9.7372589 1.277303 -1.7112209 4288085770
5.2086391 0.98556328 -1.7681345 4288085770
9.0784397 1.2913516 -1.72135 4288085770
4.8557491 1.0025568 -1.7693492 4288085770
8.4395714 1.3023634 -1.7263116 4288085770
4.5358963 1.0205772 -1.7742447 4288085770
7.8887386 1.3164003 -1.7344197 4288085770
4.2400322 1.03859 -1.7779135 4288085770
7.377882 1.3304214 -1.7401495 4288085770
3.9751873 1.0576155 -1.7832814 4288085770
6.8749809 1.3414061 -1.740826 4288085770
3.7273483 1.0766478 -1.7894889 4288085770
6.4421139 1.3544171 -1.744826 4288085770
3.481472 1.0936511 -1.7916924 4288085770
6.0552711 1.3694475 -1.7513765 4288085770
3.2465935 1.1106541 -1.7937917 4288085770
5.691412 1.3844624 -1.7557098 4288085770
3.0357361 1.1286707 -1.7976567 4288085770
5.3365307 1.3974628 -1.7579726 4288085770
2.8599129 1.1487138 -1.8051761 4288085770
5.0246658 1.4124763 -1.7618142 4288085770
2.668045 1.1657228 -1.8078691 4288085770
4.7408199 1.4285026 -1.7673839 4288085770
2.478157 1.1827164 -1.8085431 4288085770
4.4619465 1.4445071 -1.7699066 4288085770
2.2922497 1.197696 -1.8071939 4288085770
4.2140999 1.4615319 -1.775129 4288085770
2.1233692 1.2146959 -1.8086692 4288085770
3.9702339 1.4775422 -1.7783207 4288085770
1.9835281 1.234724 -1.8138489 4288085770
3.7523746 1.4945588 -1.7822596 4288085770
1.8386555 1.2527304 -1.81609 4288085770
3.540514 1.5115747 -1.7861415 4288085770
1.7047939 1.2707434 -1.8192276 4288085770
3.3496647 1.5295975 -1.7908179 4288085770
1.5779324 1.2897561 -1.8222915 4288085770
3.1467686 1.5445848 -1.7906295 4288085770
1.440033 1.3057408 -1.8214816 4288085770
2.9648876 1.5615854 -1.7922281 4288085770
1.3251705 1.3237536 -1.8244392 4288085770
2.7829914 1.5765719 -1.7918414 4288085770
1.2072773 1.3417444 -1.8244256 4288085770
2.6171036 1.5935647 -1.7922887 4288085770
1.0773506 1.3557072 -1.8205544 4288085770
2.4602146 1.6095572 -1.7926584 4288085770
0.97045708 1.3736975 -1.8204371 4288085770
2.3143425 1.627564 -1.7949096 4288085770
0.87359428 1.3927097 -1.8232175 4288085770
2.1904888 1.6485837 -1.7989312 4288085770
0.7576561 1.4076643 -1.8182069 4288085770
2.0606174 1.6675894 -1.8010238 4288085770
0.65473557 1.4236333 -1.8150662 4288085770
1.9417534 1.6866021 -1.8040127 4288085770
0.55281448 1.4396021 -1.811916 4288085770
1.8078365 1.7035718 -1.8011578 4288085770
0.46191216 1.4565854 -1.8106545 4288085770
1.6969528 1.7225697 -1.8020712 4288085770
0.39305496 1.4776027 -1.8141562 4288085770
1.5900669 1.7415674 -1.8029467 4288085770
0.32118988 1.4976137 -1.8166932 4288085770
1.4901962 1.7615719 -1.8047489 4288085770
0.23626137 1.5135746 -1.8123826 4288085770
1.3903027 1.7815621 -1.804551 4288085770
0.17440414 1.5355921 -1.8158108 4288085770
1.2783718 1.7975245 -1.8004957 4288085770
0.11253738 1.5566022 -1.8182465 4288085770
1.1975098 1.8205352 -1.8030969 4288085770
0.032608032 1.5725632 -1.8138884 4288085770
1.1076069 1.8395178 -1.8018118 4288085770
-0.011230469 1.5965941 -1.819132 4288085770
1.0217056 1.8585005 -1.8004891 4288085770
0.94081306 1.8794899 -1.8001047 4288085770
0.87794685 1.9035001 -1.8025283 4288085770
0.79502678 1.9214683 -1.7991847 4288085770
0.74216843 1.9474854 -1.8024997 4288085770
0.67426491 1.9684668 -1.8009926 4288085770
0.61237144 1.9914558 -1.8004142 4288085770
0.55347824 2.0144441 -1.7998077 4288085770
0.51762962 2.0434678 -1.8039402 4288085770
0.46372795 2.0674565 -1.8032793 4288085770
0.41082191 2.0904379 -1.8016163 4288085770
0.36692619 2.1164258 -1.8008465 4288085770
0.34108925 2.1484561 -1.8058633 4288085770
0.29016685 2.1704228 -1.8021888 4288085770
0.25629044 2.1994247 -1.8033029 4288085770
0.21738625 2.2254052 -1.8014859 4288085770
0.18347931 2.2523859 -1.7996145 4288085770
0.15459442 2.2813804 -1.799682 4288085770
0.13071251 2.3123796 -1.8006951 4288085770
0.11183548 2.3453808 -1.8016392 4288085770
0.0859375 2.374368 -1.8006786 4288085770
0.067041397 2.4063551 -1.7996303 4288085770
0.055173874 2.4413633 -1.8014942 4288085770
0.039276123 2.4733508 -1.8004175 4288085770
0.029388428 2.5093446 -1.8002557 4288085770
