# .PCD v0.7 - Point Cloud Data file format
VERSION 0.7
FIELDS x y z rgb
SIZE 4 4 4 4
TYPE F F F U
COUNT 1 1 1 1
WIDTH 1105
HEIGHT 1
VIEWPOINT 0 0 0 1 0 0 0
POINTS 1105
DATA ascii
2.2156677 -0.73474121 -1.8209482 4288085770
5.5130463 -1.1000357 -1.8219916 4288085770
1.8887634 -0.73402786 -1.8236094 4288085770
4.9621124 -1.0835152 -1.8267984 4288085770
1.5388947 -0.72829914 -1.8181967 4288085770
4.4072266 -1.0629683 -1.8246049 4288085770
1.2400055 -0.72555447 -1.8189811 4288085770
3.8903198 -1.0423965 -1.8235677 4288085770
0.97111511 -0.72379827 -1.8228849 4288085770
3.4614105 -1.0277824 -1.8298676 4288085770
0.70521545 -0.71903086 -1.8248134 4288085770
2.9975433 -1.0051489 -1.8250566 4288085770
0.43933105 -0.71324682 -1.8227457 4288085770
2.5706329 -0.9834919 -1.8213931 4288085770
0.20144653 -0.70745754 -1.8247933 4288085770
2.2077179 -0.96681118 -1.8249727 4288085770
-0.014465332 -0.70365858 -1.8289231 4288085770
1.8708038 -0.95110512 -1.8276547 4288085770
-0.21736145 -0.6998539 -1.8341062 4288085770
1.5209351 -0.93039036 -1.8253039 4288085770
-0.42726135 -0.69303799 -1.8352731 4288085770
1.2390137 -0.91665173 -1.8312041 4288085770
-0.62416077 -0.68521118 -1.8364977 4288085770
0.93313599 -0.89690113 -1.8290302 4288085770
-0.84901428 -0.67236805 -1.8286277 4288085770
0.64822388 -0.87914085 -1.8289343 4288085770
-1.0279083 -0.6655302 -1.8309218 4288085770
0.3833313 -0.8603611 -1.8279248 4288085770
-1.1968079 -0.65768433 -1.8332613 4288085770
0.14143372 -0.84457302 -1.8299973 4288085770
-1.3696899 -0.64782906 -1.8325927 4288085770
-0.076477051 -0.82978058 -1.8351647 4288085770
-1.538559 -0.63696241 -1.8299447 4288085770
-0.31636047 -0.80996609 -1.831262 4288085770
-1.6884613 -0.6281023 -1.8323665 4288085770
-0.51228333 -0.79515362 -1.8355197 4288085770
-1.8533325 -0.61522341 -1.8277433 4288085770
-0.73814392 -0.77431774 -1.8296788 4288085770
-1.9902344 -0.60635281 -1.8302183 4288085770
-0.92805481 -0.75748587 -1.8309693 4288085770
-2.1381073 -0.59346437 -1.826665 4288085770
-1.0999603 -0.74264288 -1.8333256 4288085770
-2.2540283 -0.58558989 -1.8322225 4288085770
-1.2768402 -0.72579145 -1.8326697 4288085770
-2.3838959 -0.57469893 -1.8317348 4288085770
-1.455719 -0.70692873 -1.8290137 4288085770
-2.5027924 -0.5638051 -1.8322924 4288085770
-1.6176147 -0.69006872 -1.8294196 4288085770
-2.6136932 -0.55391359 -1.8348789 4288085770
-1.7805176 -0.67119312 -1.8258294 4288085770
-1.9223938 -0.65532064 -1.8273133 4288085770
-2.0433197 -0.64245033 -1.8328712 4288085770
-2.1791992 -0.62556601 -1.832384 4288085770
-2.3220673 -0.60666847 -1.8278762 4288085770
-2.4469604 -0.58977556 -1.8274343 4288085770
-2.5658569 -0.57287216 -1.8260169 4288085770
-2.6867523 -0.55596685 -1.8235912 4288085770
-2.5903931 1.2835727 -1.7954127 4288085770
-2.4812775 1.297667 -1.7929415 4288085770
-2.3561859 1.3137612 -1.7935469 4288085770
-2.246048 1.3258696 -1.7880715 4288085770
-2.1099548 1.3419685 -1.7897241 4288085770
-1.9878082 1.3550863 -1.7843045 4288085770
-1.8257294 1.3731923 -1.7890767 4288085770
-2.6656036 1.2624764 -1.7950288 4288085770
-1.677597 1.3883138 -1.7877767 4288085770
-2.5345154 1.2755623 -1.798647 4288085770
-1.52948 1.4024396 -1.7854725 4288085770
-2.4253845 1.2836614 -1.7951504 4288085770
-1.3693695 1.4175744 -1.7832239 4288085770
-2.2972717 1.2937622 -1.7947432 4288085770
-1.2122345 1.4307156 -1.7789543 4288085770
-2.163147 1.3048635 -1.7953663 4288085770
-1.0201416 1.4478593 -1.7808511 4288085770
-2.0450134 1.3109832 -1.7888997 4288085770
-0.8460083 1.4610147 -1.7766544 4288085770
-1.8949127 1.322093 -1.7905908 4288085770
-0.65489197 1.4761791 -1.7735384 4288085770
-1.7457886 1.3312063 -1.7912693 4288085770
-0.43977356 1.4923491 -1.7735298 4288085770
-1.5826874 1.341331 -1.7920123 4288085770
-0.23364258 1.5065298 -1.7694744 4288085770
-1.4345551 1.3484612 -1.7886785 4288085770
-0.0085296631 1.5207167 -1.7675002 4288085770
-1.2644348 1.357595 -1.7884473 4288085770
0.23658752 1.5379148 -1.7666247 4288085770
-1.089325 1.3657379 -1.7872334 4288085770
0.49269104 1.5531268 -1.7647876 4288085770
-0.90022278 1.3738832 -1.7880794 4288085770
0.74484253 1.5663528 -1.7589253 4288085770
-0.71907043 1.3800397 -1.7848828 4288085770
1.0449371 1.5835867 -1.7602853 4288085770
-0.51895142 1.3862066 -1.7827677 4288085770
1.3580475 1.6008387 -1.7597011 4288085770
-0.31182861 1.392375 -1.7816825 4288085770
1.6791687 1.6161065 -1.7571429 4288085770
-0.10270691 1.397553 -1.7786018 4288085770
2.0782471 1.6393929 -1.7649524 4288085770
0.10845947 1.3997464 -1.772517 4288085770
2.4623566 1.656702 -1.7646726 4288085770
0.36357117 1.4069448 -1.7736418 4288085770
2.8515015 1.6720328 -1.760406 4288085770
0.61468506 1.4101524 -1.7717324 4288085770
3.2556305 1.68538 -1.7551953 4288085770
0.86782837 1.4123745 -1.7668279 4288085770
3.6717834 1.6977496 -1.7470322 4288085770
1.1359711 1.4136043 -1.7629833 4288085770
4.1598969 1.7131591 -1.7431897 4288085770
1.4560852 1.4178538 -1.7643738 4288085770
4.7549744 1.7366099 -1.7498393 4288085770
1.8121643 1.4231148 -1.7699229 4288085770
5.3421021 1.7550902 -1.7484343 4288085770
2.1682892 1.4253926 -1.7714595 4288085770
5.9402466 1.7686043 -1.7410555 4288085770
2.5464172 1.4266887 -1.7730862 4288085770
6.5674133 1.7801557 -1.7307926 4288085770
2.9075623 1.4230013 -1.7676191 4288085770
7.3115234 1.7967772 -1.7260522 4288085770
3.2847137 1.4173312 -1.7612122 4288085770
8.1316681 1.8144517 -1.7236418 4288085770
3.6718903 1.4086819 -1.7518355 4288085770
9.0488129 1.832212 -1.7196474 4288085770
4.1590271 1.4040694 -1.7529041 4288085770
10.057938 1.8480535 -1.7140384 4288085770
4.7780762 1.4065046 -1.7675679 4288085770
11.232071 1.8700094 -1.7131627 4288085770
5.4171753 1.4039769 -1.7772962 4288085770
5.9443359 1.3884444 -1.76749 4288085770
6.4645691 1.3659339 -1.7506224 4288085770
7.0987396 1.3454823 -1.7422532 4288085770
7.8408661 1.3260908 -1.7403511 4288085770
8.6770325 1.3037734 -1.7388389 4288085770
9.5751953 1.2755156 -1.735567 4288085770
10.593353 1.2453389 -1.7358005 4288085770
11.716507 1.2082558 -1.7344549 4288085770
3.6475372 -7.5149841 -1.7062745 4293729569
3.2614136 -7.2183304 -1.7129097 4293729569
2.8712921 -6.9186478 -1.7125407 4293729569
2.5501862 -6.6649351 -1.7172689 4293729569
2.2910767 -6.4532013 -1.7290815 4293729569
1.9749908 -6.2014475 -1.7258223 4293729569
1.7219391 -5.9936829 -1.7316432 4293729569
1.4548798 -5.7738934 -1.7294562 4293729569
1.2248383 -5.5800972 -1.7323152 4293729569
1.0137939 -5.3982821 -1.7342039 4293729569
4.494751 -7.5343103 -1.6989419 4293729569
0.76580811 -5.1934481 -1.7260327 4293729569
4.1206207 -7.2286291 -1.7016689 4293729569
0.59077454 -5.0346041 -1.727977 4293729569
3.8144836 -6.9699154 -1.7094848 4293729569
0.42276001 -4.8827534 -1.7299204 4293729569
3.5383911 -6.730176 -1.7163477 4293729569
0.27374268 -4.7418966 -1.7338982 4293729569
3.2253113 -6.4694223 -1.7141416 4293729569
0.11575317 -4.5950251 -1.7328632 4293729569
2.9592285 -6.2376556 -1.7170124 4293729569
-0.007232666 -4.4711466 -1.7368792 4293729569
2.769165 -6.0558586 -1.7269938 4293729569
-0.10722351 -4.3602629 -1.7439381 4293729569
2.5541229 -5.8590498 -1.7299323 4293729569
-0.19822693 -4.2563725 -1.7510053 4293729569
2.3120728 -5.6472311 -1.725819 4293729569
-0.28921509 -4.1524744 -1.7560725 4293729569
2.1320343 -5.4733953 -1.7288084 4293729569
-0.38816833 -4.0435629 -1.7571269 4293729569
1.9740143 -5.3145409 -1.7318275 4293729569
-0.347229 -4.0186834 -1.7904212 4293729569
1.7900085 -5.1416807 -1.7287949 4293729569
-0.24331665 -4.0298157 -1.8378319 4288085770
1.6340179 -4.9858103 -1.7288094 4293729569
-0.14337158 -4.0349379 -1.882252 4288085770
1.5060272 -4.8469296 -1.730871 4293729569
-0.12239075 -3.993042 -1.9085345 4288085770
1.3750153 -4.7080355 -1.7299194 4293729569
-0.20135498 -3.8931065 -1.9076369 4288085770
1.2770233 -4.5881386 -1.734028 4293729569
-0.27133179 -3.7981739 -1.9087564 4288085770
1.1690674 -4.4632301 -1.734115 4293729569
-0.35624695 -3.6962242 -1.9038414 4288085770
1.1000519 -4.3603172 -1.7402753 4293729569
-0.42720032 -3.6002693 -1.8999611 4288085770
1.0380859 -4.2613955 -1.7454486 4293729569
-0.48814392 -3.51332 -1.8990846 4288085770
0.99909973 -4.174468 -1.7536693 4293729569
-0.55606079 -3.4203539 -1.8932041 4288085770
0.99911499 -4.1085367 -1.7679679 4293729569
-0.57504272 -3.3544006 -1.8994185 4288085770
1.1100616 -4.0986137 -1.8045049 4293729569
-0.63195801 -3.2694302 -1.8945507 4288085770
1.2649994 -4.1086826 -1.8471463 4288085770
-0.65489197 -3.2014675 -1.8977566 4288085770
1.4129639 -4.1117496 -1.8877882 4288085770
-0.7038269 -3.1204901 -1.8929063 4288085770
1.4649353 -4.0668087 -1.9092225 4288085770
-0.77272034 -3.0304976 -1.8810081 4288085770
1.4140015 -3.9698458 -1.9074358 4288085770
-0.78067017 -2.9715233 -1.8842399 4288085770
1.3460541 -3.8678751 -1.9005965 4288085770
-0.80358887 -2.9045401 -1.8824415 4288085770
1.3151093 -3.7829056 -1.9008443 4288085770
-0.81651306 -2.8435535 -1.8826603 4288085770
1.2781677 -3.6939268 -1.8980836 4288085770
-0.82145691 -2.7845688 -1.8839055 4288085770
1.2432556 -3.6079435 -1.8943185 4288085770
-0.83137512 -2.7245789 -1.8831332 4288085770
1.2053223 -3.5209532 -1.8885444 4288085770
-0.84727478 -2.6615734 -1.878348 4288085770
1.1853943 -3.4419613 -1.8858144 4288085770
-0.84121704 -2.6085796 -1.8796151 4288085770
1.1834412 -3.370965 -1.8851277 4288085770
-0.84913635 -2.5495787 -1.8768471 4288085770
1.1665192 -3.2939653 -1.8814014 4288085770
-0.85502625 -2.4905672 -1.8720882 4288085770
1.1826019 -3.2299585 -1.881763 4288085770
-0.83296204 -2.4445686 -1.8753947 4288085770
1.1716766 -3.1569471 -1.8760459 4288085770
-0.8318634 -2.3895502 -1.8706491 4288085770
1.2017517 -3.0989332 -1.8774426 4288085770
-0.81578064 -2.3395395 -1.8699471 4288085770
1.2128296 -3.0339174 -1.8747869 4288085770
-0.80070496 -2.2905245 -1.8682363 4288085770
1.2438965 -2.9758949 -1.8741881 4288085770
-0.77160645 -2.2455072 -1.8685695 4288085770
1.2539978 -2.9098654 -1.8685325 4288085770
-0.73452759 -2.2034922 -1.8709247 4288085770
1.2960815 -2.8558331 -1.8679649 4288085770
-0.73342896 -2.1484575 -1.8621795 4288085770
1.3461609 -2.8038006 -1.8684233 4288085770
-0.69233704 -2.1084347 -1.8635435 4288085770
1.386261 -2.7497606 -1.8658469 4288085770
-0.6602478 -2.0644045 -1.8618859 4288085770
1.4433441 -2.6997108 -1.8643279 4288085770
-0.6101532 -2.0263758 -1.863281 4288085770
1.4954224 -2.6466618 -1.8618001 4288085770
-0.56407166 -1.9853401 -1.8626719 4288085770
1.5505219 -2.5946064 -1.8582814 4288085770
-0.51296997 -1.9463062 -1.8630761 4288085770
1.6366119 -2.5525484 -1.8598549 4288085770
-0.47387695 -1.9032574 -1.8584453 4288085770
1.7086945 -2.5054865 -1.8583893 4288085770
-0.4437561 -1.8572092 -1.8517884 4288085770
1.7887878 -2.4594164 -1.8559545 4288085770
-0.38166809 -1.8201647 -1.8522325 4288085770
1.8838654 -2.4163418 -1.8555726 4288085770
-0.31057739 -1.7851124 -1.8527076 4288085770
1.9689789 -2.3702574 -1.8511604 4288085770
-0.24847412 -1.747056 -1.8501567 4288085770
2.0710754 -2.3281727 -1.8498056 4288085770
-0.17337036 -1.7120008 -1.8506498 4288085770
2.1731567 -2.28508 -1.8464557 4288085770
-0.078292847 -1.6829453 -1.8542047 4288085770
2.2972565 -2.2469854 -1.8461809 4288085770
-0.011199951 -1.6428795 -1.8496853 4288085770
2.4423523 -2.2128801 -1.8479807 4288085770
0.092880249 -1.6138153 -1.8532802 4288085770
2.572464 -2.173768 -1.845737 4288085770
0.15301514 -1.5727377 -1.8457344 4288085770
2.706543 -2.1346474 -1.8415112 4288085770
0.24012756 -1.5376558 -1.8422811 4288085770
2.8446655 -2.0945206 -1.8373079 4288085770
0.35821533 -1.5085812 -1.8459384 4288085770
3.0287628 -2.0633802 -1.8382679 4288085770
0.45930481 -1.474494 -1.8435432 4288085770
3.1998749 -2.0282354 -1.8361887 4288085770
0.58641052 -1.4454021 -1.8452407 4288085770
3.4209442 -2.0010738 -1.8392954 4288085770
0.69252014 -1.4103012 -1.8408725 4288085770
3.6120605 -1.96591 -1.8363055 4288085770
0.81460571 -1.3771973 -1.8385662 4288085770
3.8601532 -1.9387264 -1.8395324 4288085770
0.95770264 -1.348094 -1.8403354 4288085770
4.0812531 -1.9055405 -1.8366671 4288085770
1.1048126 -1.317977 -1.8401268 4288085770
4.3223572 -1.8733397 -1.8348863 4288085770
1.2658997 -1.2888536 -1.840976 4288085770
4.6114502 -1.848115 -1.8362867 4288085770
1.4000092 -1.253727 -1.8357328 4288085770
4.8735657 -1.8148909 -1.8326044 4288085770
1.5681152 -1.2225904 -1.8346229 4288085770
5.1266937 -1.7756453 -1.8229094 4288085770
1.7382355 -1.1904421 -1.8315264 4288085770
5.3988495 -1.7383909 -1.8142902 4288085770
1.9343262 -1.1602869 -1.8315364 4288085770
5.7689514 -1.7130985 -1.815052 4288085770
2.1454163 -1.1321249 -1.8326045 4288085770
6.2180328 -1.6957684 -1.8221289 4288085770
2.348526 -1.0989504 -1.8296598 4288085770
6.6611023 -1.6744261 -1.8251979 4288085770
2.5576477 -1.0657635 -1.8247421 4288085770
7.100235 -1.6470604 -1.8222768 4288085770
2.8227386 -1.0395679 -1.8280417 4288085770
7.5593567 -1.6186743 -1.8184496 4288085770
3.0888367 -1.0093575 -1.8283643 4288085770
8.1024475 -1.5962391 -1.818969 4288085770
3.3619232 -0.9771328 -1.8267273 4288085770
8.6685791 -1.5697737 -1.8166095 4288085770
3.6490479 -0.94589233 -1.8241482 4288085770
9.251709 -1.5412693 -1.8093351 4288085770
3.9761505 -0.91463375 -1.8247473 4288085770
9.9468079 -1.517705 -1.8085368 4288085770
4.2962646 -0.88136196 -1.8213251 4288085770
10.685944 -1.4930906 -1.8049392 4288085770
4.6863556 -0.85106182 -1.8242005 4288085770
11.592041 -1.4763765 -1.8090485 4288085770
5.0254669 -0.81275368 -1.815886 4288085770
5.450592 -0.77740383 -1.813941 4288085770
5.9106903 -0.7430253 -1.8121473 4288085770
6.4427795 -0.7096076 -1.81467 4288085770
6.8929291 -0.66418839 -1.8018829 4288085770
7.4440613 -0.62371635 -1.7955233 4288085770
8.0741425 -0.58319378 -1.7925156 4288085770
8.8162537 -0.54260206 -1.7940071 4288085770
9.560379 -0.49596643 -1.7865356 4288085770
10.421478 -0.44825697 -1.7835903 4288085770
11.358582 -0.39546394 -1.7760073 4288085770
11.695709 1.7917843 -1.7129499 4288085770
10.97879 1.8582096 -1.7099564 4288085770
10.402817 1.9297142 -1.714638 4288085770
9.8128815 1.9942303 -1.7142216 4288085770
9.2869568 2.0568023 -1.7130916 4288085770
8.8220062 2.1194091 -1.7152435 4288085770
8.3560791 2.1770334 -1.7133669 4288085770
7.9641724 2.2357073 -1.7138374 4288085770
7.6102142 2.2964015 -1.7164927 4288085770
7.2592773 2.3541079 -1.7171474 4288085770
6.9303436 2.4108367 -1.7168987 4288085770
6.6274261 2.4665856 -1.7167661 4288085770
6.3774719 2.5273576 -1.7209018 4288085770
6.1405334 2.5871453 -1.7240932 4288085770
5.9115906 2.644948 -1.7253121 4288085770
5.6706848 2.6987562 -1.7234565 4288085770
5.5037231 2.7635889 -1.728995 4288085770
5.3137817 2.8204236 -1.7303895 4288085770
5.1178741 2.8762665 -1.7287513 4288085770
4.9219666 2.9301195 -1.7251036 4288085770
11.932159 4.3670473 -1.6823114 4288085770
4.7460632 2.9829831 -1.7225442 4288085770
11.50528 4.4177265 -1.6755831 4288085770
4.6021271 3.0428629 -1.7221656 4288085770
11.201324 4.4884701 -1.6765182 4288085770
4.4522247 3.0997429 -1.720745 4288085770
10.964355 4.5722523 -1.6808246 4288085770
4.3072968 3.1546364 -1.7173382 4288085770
10.732407 4.651053 -1.6821309 4288085770
4.171402 3.2105355 -1.7139778 4288085770
10.499466 4.7308569 -1.6824371 4288085770
4.0594788 3.2704501 -1.7117473 4288085770
10.322495 4.8196917 -1.6860447 4288085770
3.9615479 3.3333669 -1.7115953 4288085770
10.090576 4.8915205 -1.6813173 4288085770
3.8656158 3.3952894 -1.7104484 4288085770
9.9696045 4.9903955 -1.6862316 4288085770
3.8006897 3.4642272 -1.711478 4288085770
9.758667 5.0652447 -1.680616 4288085770
3.7457275 3.5351679 -1.7135634 4288085770
9.6217346 5.155139 -1.678414 4288085770
3.6897888 3.606118 -1.7136444 4288085770
9.5547485 5.2660608 -1.6826352 4288085770
3.6618347 3.6840758 -1.7168878 4288085770
9.4528046 5.3639827 -1.6806333 4288085770
3.6169128 3.7570386 -1.7160293 4288085770
9.3948364 5.4759259 -1.681901 4288085770
3.5899506 3.8360059 -1.7172824 4288085770
9.3518524 5.5918856 -1.6822573 4288085770
3.5879974 3.9219842 -1.7206844 4288085770
9.3278656 5.7128596 -1.6827254 4288085770
3.56604 4.001965 -1.7199656 4288085770
9.3128967 5.837841 -1.6832542 4288085770
3.5631104 4.0879526 -1.7213633 4288085770
9.3538818 5.9798579 -1.686123 4288085770
3.5671539 4.1759443 -1.7228028 4288085770
9.342926 6.1058612 -1.6826755 4288085770
3.6071625 4.2769508 -1.7274708 4288085770
9.3799438 6.2468882 -1.6825213 4288085770
3.6271973 4.3709559 -1.7290131 4288085770
9.4359589 6.3989353 -1.6815073 4288085770
3.6622314 4.4719734 -1.7306583 4288085770
9.5139313 6.5579948 -1.6816289 4288085770
3.6922913 4.572 -1.7292757 4288085770
9.6339111 6.736083 -1.6830349 4288085770
3.7413177 4.6800275 -1.7310185 4288085770
9.7259064 6.9031725 -1.6792588 4288085770
3.8163147 4.7990665 -1.7349343 4288085770
9.8998566 7.1032987 -1.6820198 4288085770
3.856369 4.9031105 -1.7316176 4288085770
9.9419098 7.2543859 -1.6699377 4288085770
3.918396 5.0191627 -1.7304595 4288085770
10.109894 7.4585304 -1.6676905 4288085770
4.0084229 5.1462231 -1.7324835 4288085770
10.301849 7.671699 -1.6645975 4288085770
4.112442 5.279294 -1.7346009 4288085770
10.545807 7.9109035 -1.6628689 4288085770
4.2034607 5.4103737 -1.732649 4288085770
10.711807 8.1200838 -1.6526375 4288085770
4.3284454 5.5554662 -1.7339212 4288085770
4.4334869 5.694561 -1.7310724 4288085770
4.5814667 5.8546762 -1.7315227 4288085770
4.7484436 6.0248017 -1.7331086 4288085770
4.9394226 6.2099414 -1.7358772 4288085770
5.1513672 6.4060974 -1.7387956 4288085770
5.3623352 6.605267 -1.7387241 4288085770
5.5703125 6.8054481 -1.7356437 4288085770
5.8362427 7.0366559 -1.7369795 4288085770
6.0492401 7.2428646 -1.7289513 4288085770
6.1543427 7.3980536 -1.7061818 4288085770
6.4632721 7.6583142 -1.703856 4288085770
6.74823 7.9105792 -1.6963814 4288085770
7.0841675 8.1928844 -1.6892866 4288085770
11.834457 -0.039840698 -1.775797 4288085770
10.5056 -0.06396246 -1.775162 4288085770
9.3896942 -0.084924698 -1.778587 4288085770
8.435791 -0.10277033 -1.7858223 4288085770
7.4999237 -0.11455536 -1.7841759 4288085770
6.8149567 -0.13122892 -1.8017354 4288085770
6.0900574 -0.13986158 -1.8051391 4288085770
5.4411469 -0.14844227 -1.8109157 4288085770
11.362656 -0.38427401 -1.7747785 4288085770
4.7633057 -0.14998102 -1.8035858 4288085770
10.114731 -0.37336016 -1.7807162 4288085770
4.1204834 -0.14947033 -1.7924373 4288085770
8.9908142 -0.3613205 -1.7822675 4288085770
3.6525421 -0.15391445 -1.8011222 4288085770
8.0118866 -0.35017157 -1.7865249 4288085770
3.1826477 -0.15532303 -1.8028126 4288085770
7.1359711 -0.33893299 -1.7902881 4288085770
2.7837372 -0.15670586 -1.8108513 4288085770
6.4490204 -0.33259869 -1.8059535 4288085770
2.3688507 -0.15606642 -1.8118215 4288085770
5.7001038 -0.31822491 -1.8043553 4288085770
1.9729614 -0.15338945 -1.808895 4288085770
5.0112457 -0.30479336 -1.801046 4288085770
1.6090851 -0.14969778 -1.8081309 4288085770
4.3873596 -0.29030895 -1.7980611 4288085770
1.2782135 -0.14598322 -1.8085283 4288085770
3.8394623 -0.27777719 -1.7984389 4288085770
0.95233154 -0.14125013 -1.8059555 4288085770
3.3725281 -0.26821089 -1.8051991 4288085770
0.67842102 -0.13851023 -1.8106277 4288085770
2.956604 -0.25860262 -1.8122098 4288085770
0.43151855 -0.13475323 -1.8164375 4288085770
2.5207062 -0.24497414 -1.8121424 4288085770
0.16363525 -0.12897778 -1.8151543 4288085770
2.125824 -0.23331356 -1.812266 4288085770
-0.074249268 -0.12319231 -1.8170184 4288085770
1.7309418 -0.21862555 -1.8074051 4288085770
-0.28715515 -0.11839819 -1.821 4288085770
1.3940582 -0.20692205 -1.8088133 4288085770
-0.51403809 -0.11158323 -1.818923 4288085770
1.0711517 -0.19420147 -1.8092954 4288085770
-0.71295166 -0.10477352 -1.8219835 4288085770
0.79225159 -0.18346071 -1.8129834 4288085770
-0.91583252 -0.096937656 -1.8200295 4288085770
0.50834656 -0.17070389 -1.8126572 4288085770
-1.0997162 -0.09010458 -1.8211635 4288085770
0.24845886 -0.15893078 -1.8134434 4288085770
-1.2725983 -0.083266735 -1.8233516 4288085770
-0.0014343262 -0.14614677 -1.8132839 4288085770
-1.4434814 -0.074411869 -1.8225597 4288085770
-0.23731995 -0.13434982 -1.813188 4288085770
-1.5953979 -0.067562103 -1.8258508 4288085770
-0.45121765 -0.1225462 -1.8152002 4288085770
-1.7692566 -0.057683945 -1.8200492 4288085770
-0.64912415 -0.11072922 -1.817291 4288085770
-1.9051514 -0.049816608 -1.8224241 4288085770
-0.84501648 -0.098899841 -1.8173913 4288085770
-2.0420532 -0.041949272 -1.8247937 4288085770
-1.0368958 -0.086066723 -1.8175166 4288085770
-2.1799316 -0.032063007 -1.823169 4288085770
-1.1998138 -0.075231552 -1.8217741 4288085770
-1.3796997 -0.061374664 -1.8189633 4288085770
-1.5295868 -0.050522804 -1.8222846 4288085770
-1.6884766 -0.037652969 -1.8205719 4288085770
-1.8483582 -0.023773193 -1.8168594 4288085770
-1.988266 -0.011898041 -1.8172345 4288085770
-2.1201477 0.00098896027 -1.8166546 4288085770
-2.1503143 2.0205064 -1.7736896 4288085770
-2.0142365 2.0456061 -1.7755115 4288085770
-1.8721313 2.0707107 -1.7773635 4288085770
-1.7360382 2.0928316 -1.7751701 4288085770
-1.6039124 2.1129599 -1.7709464 4288085770
-1.4607849 2.1340923 -1.7677833 4288085770
-1.3226471 2.1532302 -1.7625848 4288085770
-1.1625214 2.1763711 -1.7605182 4288085770
-2.1043854 1.9404645 -1.780537 4288085770
-0.98144531 2.2035074 -1.7625787 4288085770
-1.9802551 1.9545755 -1.778241 4288085770
-0.81031799 2.2256565 -1.7605628 4288085770
-1.8531494 1.967689 -1.775955 4288085770
-0.61024475 2.2538085 -1.7627246 4288085770
-1.7180176 1.980804 -1.7747095 4288085770
-0.42811584 2.2759776 -1.7587646 4288085770
-1.565918 1.9979167 -1.7765709 4288085770
-0.22799683 2.3001499 -1.7569062 4288085770
-1.431778 2.0080471 -1.7723049 4288085770
-0.019882202 2.3243303 -1.7550881 4288085770
-1.2756805 2.0221739 -1.7721709 4288085770
0.18424988 2.3465228 -1.7502397 4288085770
-1.1265411 2.0333114 -1.7689862 4288085770
0.43434143 2.3757148 -1.7526603 4288085770
-0.95042419 2.0484481 -1.7699586 4288085770
0.68545532 2.4029241 -1.7520758 4288085770
-0.79129028 2.0585985 -1.7658194 4288085770
0.95755005 2.4331398 -1.753613 4288085770
-0.6151886 2.0707474 -1.7647765 4288085770
1.2116699 2.4553676 -1.750018 4288085770
-0.43803406 2.0809016 -1.7627283 4288085770
1.5097504 2.4866042 -1.7516925 4288085770
-0.2479248 2.0920615 -1.7617512 4288085770
1.8058777 2.5128608 -1.7493309 4288085770
-0.058792114 2.1002359 -1.7577531 4288085770
2.1649323 2.5501204 -1.7563453 4288085770
0.12736511 2.1054139 -1.7527245 4288085770
2.565979 2.5924087 -1.7645985 4288085770
0.3734436 2.1215925 -1.7570567 4288085770
2.9420776 2.6247149 -1.7656733 4288085770
0.60154724 2.1317782 -1.7572669 4288085770
3.2842255 2.6460304 -1.759519 4288085770
0.83169556 2.1399755 -1.7554768 4288085770
3.6134033 2.6623669 -1.7472731 4288085770
1.0618439 2.1441841 -1.7516656 4288085770
4.0415192 2.6927314 -1.7456012 4288085770
1.3359222 2.155396 -1.7541139 4288085770
4.4576416 2.7171068 -1.7398374 4288085770
1.5850677 2.1586204 -1.750394 4288085770
4.9647369 2.7525191 -1.7415916 4288085770
1.9071503 2.171855 -1.7560954 4288085770
5.4928436 2.7859588 -1.7414416 4288085770
2.2522278 2.1850982 -1.7639134 4288085770
5.9470215 2.801403 -1.7288238 4288085770
2.5633545 2.1893568 -1.7635125 4288085770
6.4661713 2.8218837 -1.719561 4288085770
2.8944702 2.1936259 -1.7642131 4288085770
7.0642853 2.8514032 -1.7157452 4288085770
3.2186279 2.1919107 -1.7608467 4288085770
7.714447 2.8799744 -1.7101876 4288085770
3.5467682 2.1862159 -1.7544794 4288085770
8.433548 2.9125857 -1.7079996 4288085770
3.9059143 2.182529 -1.75128 4288085770
9.1766968 2.940239 -1.7019078 4288085770
4.2760773 2.1758566 -1.7471204 4288085770
9.9788208 2.9689445 -1.6951201 4288085770
4.7131958 2.1742067 -1.749326 4288085770
10.873947 3.0007153 -1.6908191 4288085770
5.1503143 2.1675677 -1.7495058 4288085770
12 3.0546103 -1.6998029 4288085770
5.5884705 2.1559515 -1.7456644 4288085770
6.0366516 2.139359 -1.7388475 4288085770
6.5098267 2.1207809 -1.7331467 4288085770
7.0409851 2.1022353 -1.7307395 4288085770
7.6021423 2.081708 -1.7294737 4288085770
8.1933136 2.0562162 -1.7263335 4288085770
8.8474579 2.0307589 -1.7265123 4288085770
9.4856567 1.9943213 -1.7205526 4288085770
10.231796 1.9599395 -1.7211499 4288085770
10.995972 1.9175944 -1.7177963 4288085770
11.886124 1.8763137 -1.7220861 4288085770
8.1053925 -5.0737133 -0.13006514 4293729569
6.168335 -5.1223431 -0.30897024 4293729569
6.1413727 -5.2145462 -0.34133783 4293729569
4.5370178 -4.64888 -0.33822572 4293729569
4.3220062 -4.6492109 -0.36513472 4293729569
4.2210083 -4.6934595 -0.39438671 4293729569
4.2210388 -4.780653 -0.42892098 4293729569
4.2150421 -4.8658514 -0.46343523 4293729569
4.2160492 -4.9520597 -0.50097966 4293729569
6.1653595 -7.6041117 -1.7056719 4293729569
5.6122589 -7.3596087 -1.7111763 4293729569
5.1261444 -7.1460762 -1.7218547 4293729569
4.5700531 -6.8835201 -1.7174411 4293729569
4.1269531 -6.6829367 -1.7252684 4293729569
3.6779022 -6.4703331 -1.7281302 4293729569
3.2208405 -6.2487001 -1.7249995 4293729569
2.8517914 -6.0730467 -1.7310692 4293729569
2.4807434 -5.8913774 -1.7341614 4293729569
2.10672 -5.7026844 -1.7322757 4293729569
1.7976685 -5.5489759 -1.7375327 4293729569
1.4746552 -5.3822498 -1.7377883 4293729569
4.9296722 -7.5252113 -1.7058289 4293729569
1.1506653 -5.2115059 -1.7340606 4293729569
4.3855286 -7.2216806 -1.7076973 4293729569
0.86965942 -5.0627518 -1.7354333 4293729569
3.8993988 -6.9481153 -1.7126995 4293729569
0.58364868 -4.9069757 -1.7318184 4293729569
3.5032654 -6.726511 -1.7238799 4293729569
0.36164856 -4.7892008 -1.7383248 4293729569
3.0151978 -6.4418898 -1.7179314 4293729569
0.11166382 -4.6504068 -1.7368017 4293729569
2.6910858 -6.2572374 -1.7312796 4293729569
-0.099319458 -4.5336065 -1.7403588 4293729569
2.2950287 -6.0235624 -1.7295249 4293729569
-0.25935364 -4.4468193 -1.7540138 4293729569
1.9619446 -5.8248672 -1.7339026 4293729569
-0.44934082 -4.3380032 -1.7576349 4293729569
1.6379089 -5.6291456 -1.7343104 4293729569
-0.63633728 -4.2291775 -1.7602713 4293729569
1.3418579 -5.4484148 -1.7377797 4293729569
-0.82429504 -4.1163368 -1.7599244 4293729569
1.0218658 -5.2486506 -1.7312295 4293729569
-1.0002594 -4.0094872 -1.7596062 4293729569
0.7518158 -5.0788832 -1.7317724 4293729569
-1.0633087 -3.9756918 -1.7864701 4293729569
0.5018158 -4.9190998 -1.7323635 4293729569
-1.0664215 -3.9799356 -1.8294348 4293729569
0.28581238 -4.780303 -1.7360144 4293729569
-1.0804901 -3.9741707 -1.8693975 4288085770
0.081787109 -4.6464996 -1.7396998 4293729569
-1.1025696 -3.9623861 -1.9043519 4288085770
-0.11322021 -4.5166807 -1.7424095 4293729569
-1.2155609 -3.8865395 -1.9141883 4288085770
-0.27023315 -4.408864 -1.7511945 4293729569
-1.364502 -3.7856464 -1.9099761 4288085770
-0.44320679 -4.2890282 -1.7539626 4293729569
-1.5074463 -3.6867523 -1.9067836 4288085770
-0.60919189 -4.1731806 -1.7557449 4293729569
-1.6513672 -3.5858431 -1.9005971 4288085770
-0.78315735 -4.050313 -1.7525244 4293729569
-1.7603455 -3.5069494 -1.9024702 4288085770
-0.85919189 -3.9894915 -1.7724692 4293729569
-1.8782654 -3.4200411 -1.9003408 4288085770
-0.83729553 -3.9907188 -1.8165795 4293729569
-1.969223 -3.3491488 -1.9052628 4288085770
-0.80140686 -3.9979477 -1.8627291 4288085770
-2.0801697 -3.2652235 -1.901153 4288085770
-0.79849243 -3.9841537 -1.8998235 4288085770
-2.187088 -3.1812897 -1.8960638 4288085770
-0.9074707 -3.8952827 -1.9057517 4288085770
-1.0384369 -3.7913847 -1.9036487 4288085770
-1.1493835 -3.6994877 -1.9045831 4288085770
-1.2773132 -3.5955658 -1.8984954 4288085770
-1.3842773 -3.5046539 -1.897445 4288085770
-1.475235 -3.422739 -1.8984276 4288085770
-1.5741577 -3.3358088 -1.8953965 4288085770
-1.650116 -3.2618895 -1.8974127 4288085770
-1.7300568 -3.1849556 -1.8964249 4288085770
-1.8089752 -3.1080151 -1.8944421 4288085770
-1.8879089 -3.0320692 -1.8914541 4288085770
-1.9468384 -2.9661303 -1.8925143 4288085770
-2.0157776 -2.8941698 -1.888556 4288085770
-2.0737 -2.8292179 -1.8876159 4288085770
-2.1406097 -2.757246 -1.8816681 4288085770
-2.1735535 -2.7053061 -1.8867859 4288085770
-2.1633453 -1.3562698 -1.8513874 4288085770
-2.1242371 -1.328228 -1.8487501 4288085770
-2.0751495 -1.3031931 -1.8491482 4288085770
-2.0170288 -1.280158 -1.8505822 4288085770
-1.9859009 -1.2500944 -1.8429147 4288085770
-1.9108429 -1.2320671 -1.84841 4288085770
-1.8597107 -1.2060156 -1.845825 4288085770
-1.7936096 -1.184967 -1.8462905 4288085770
-1.7225037 -1.1639156 -1.8467822 4288085770
-1.6584015 -1.1408596 -1.8452486 4288085770
-1.5912933 -1.1177988 -1.8437309 4288085770
-1.5181732 -1.0947351 -1.8422447 4288085770
-1.4340515 -1.0756721 -1.8427941 4288085770
-1.3639374 -1.0515938 -1.8382982 4288085770
-1.260849 -1.0345325 -1.8419358 4288085770
-1.1587524 -1.0164604 -1.843574 4288085770
-1.0666351 -0.99538136 -1.8421772 4288085770
-2.2048035 -0.75033188 -1.8415934 4288085770
-0.9695282 -0.9742918 -1.8398064 4288085770
-2.1366577 -0.73026085 -1.8380647 4288085770
-0.86941528 -0.95419979 -1.8374461 4288085770
-2.0495758 -0.71320152 -1.839619 4288085770
-0.7492981 -0.93610668 -1.8381796 4288085770
-1.9734497 -0.69312334 -1.8361325 4288085770
-0.63818359 -0.91600704 -1.8358774 4288085770
-1.8793335 -0.67605782 -1.8377237 4288085770
-0.50309753 -0.89990902 -1.8376787 4288085770
-1.7872314 -0.65798473 -1.8373103 4288085770
-0.35998535 -0.88280392 -1.8395276 4288085770
-1.6911316 -0.63990593 -1.836918 4288085770
-0.23286438 -0.86268616 -1.83631 4288085770
-1.5870209 -0.62182236 -1.8365678 4288085770
-0.095733643 -0.84255695 -1.833145 4288085770
-1.4878998 -0.6027317 -1.8341972 4288085770
0.057373047 -0.82542896 -1.8320473 4288085770
-1.3787842 -0.58564281 -1.8338683 4288085770
0.24746704 -0.81230736 -1.8381214 4288085770
-1.2626648 -0.56854916 -1.833576 4288085770
0.39059448 -0.79115295 -1.8309942 4288085770
-1.1215973 -0.55346298 -1.8384035 4288085770
0.57771301 -0.77500105 -1.8310702 4288085770
-1.0124512 -0.53334141 -1.832092 4288085770
0.78781128 -0.76084805 -1.8342559 4288085770
-0.87435913 -0.51623392 -1.8329157 4288085770
0.96994019 -0.74066782 -1.8283285 4288085770
-0.73722839 -0.49911261 -1.8307347 4288085770
1.2030487 -0.72649097 -1.8306357 4288085770
-0.59611511 -0.48098755 -1.8285805 4288085770
1.4002075 -0.70629215 -1.8237878 4288085770
-0.43501282 -0.4638567 -1.8285258 4288085770
1.6413116 -0.69008493 -1.8221488 4288085770
-0.27488708 -0.44672346 -1.8274662 4288085770
1.9274139 -0.67687082 -1.8257296 4288085770
-0.098770142 -0.43058014 -1.8274852 4288085770
2.2065277 -0.66163349 -1.8242855 4288085770
0.07434082 -0.41242313 -1.8245002 4288085770
2.4736786 -0.64237833 -1.8178015 4288085770
0.27346802 -0.39526176 -1.8246462 4288085770
2.7967987 -0.62710571 -1.8165894 4288085770
0.46360779 -0.37707949 -1.8197513 4288085770
3.13591 -0.61182022 -1.8154618 4288085770
0.68171692 -0.35989904 -1.8189979 4288085770
3.5040436 -0.59549904 -1.8124927 4288085770
0.90184021 -0.34169817 -1.815261 4288085770
3.874176 -0.57816076 -1.8065407 4288085770
1.1429596 -0.32349157 -1.813635 4288085770
4.3272858 -0.56479406 -1.8080028 4288085770
1.3950806 -0.30527115 -1.8110672 4288085770
4.8253937 -0.55239582 -1.8106965 4288085770
1.6951752 -0.29003906 -1.8137352 4288085770
5.2965546 -0.53496456 -1.8032773 4288085770
2.0022888 -0.27279139 -1.8144517 4288085770
5.8926544 -0.5224824 -1.8054879 4288085770
2.3294067 -0.25451994 -1.8142797 4288085770
6.5507507 -0.51094818 -1.8080198 4288085770
2.6665344 -0.235219 -1.8101661 4288085770
7.1339417 -0.49038696 -1.7942091 4288085770
3.0626221 -0.21891594 -1.8143467 4288085770
7.8341064 -0.47275925 -1.785998 4288085770
3.4057922 -0.19656563 -1.8022833 4288085770
8.7102356 -0.46003771 -1.7876855 4288085770
3.8329163 -0.17719793 -1.7996454 4288085770
9.6573639 -0.44622707 -1.7837539 4288085770
4.3110504 -0.15678787 -1.7972821 4288085770
10.686539 -0.43033218 -1.7772667 4288085770
4.9051056 -0.14034653 -1.8065072 4288085770
11.880676 -0.41530323 -1.771644 4288085770
5.5292053 -0.12185669 -1.8119028 4288085770
6.1543274 -0.09932375 -1.8093272 4288085770
6.8024902 -0.074731827 -1.7998855 4288085770
7.5126495 -0.049090385 -1.7907768 4288085770
8.3417969 -0.023362637 -1.7842962 4288085770
9.3448944 0.0014772415 -1.7837278 4288085770
10.380051 0.031387806 -1.7753577 4288085770
11.6642 0.061477661 -1.7723014 4288085770
11.98587 0.2775445 -1.7655355 4288085770
10.554977 0.27231455 -1.7662396 4288085770
9.3420715 0.26825047 -1.7702106 4288085770
8.3181152 0.26631832 -1.7792861 4288085770
7.3851929 0.26548386 -1.7848935 4288085770
6.676178 0.26476622 -1.8027971 4288085770
5.9942322 0.26610184 -1.8158684 4288085770
12.23877 0.23779297 -1.754903 4288085770
5.4571991 0.26750803 -1.8377792 4282675967
10.866791 0.24555159 -1.7660168 4288085770
4.6773987 0.27194691 -1.8192978 4288085770
9.4979248 0.25641918 -1.7591637 4288085770
3.9086761 0.27845526 -1.7908909 4288085770
8.5019531 0.26448393 -1.7724541 4288085770
3.4257507 0.28300714 -1.7961298 4288085770
7.5150299 0.27462864 -1.7738074 4288085770
2.9858551 0.28859472 -1.8016229 4288085770
6.8080139 0.28290701 -1.7927719 4288085770
2.5619354 0.29421139 -1.8042086 4288085770
6.1330414 0.29224205 -1.8069267 4288085770
2.1780243 0.29985619 -1.8080252 4288085770
5.5800171 0.30163383 -1.8287886 4282675967
1.7631683 0.30654001 -1.8006675 4288085770
4.8781738 0.31207752 -1.8207906 4288085770
1.4122772 0.31424236 -1.7996866 4288085770
4.0374756 0.32457495 -1.7839962 4288085770
1.0744171 0.32096624 -1.7967745 4288085770
3.5565491 0.33412838 -1.7892733 4288085770
0.7775116 0.32870674 -1.7971059 4288085770
3.1186066 0.34371138 -1.7957991 4288085770
0.52259827 0.33644962 -1.8026807 4288085770
2.7006989 0.35431433 -1.8014464 4288085770
0.26870728 0.3432126 -1.8052548 4288085770
2.3217773 0.36496305 -1.8053197 4288085770
0.022796631 0.35200024 -1.8048871 4288085770
1.9408875 0.37563944 -1.8041806 4288085770
-0.21508789 0.35979986 -1.8035586 4288085770
1.5540161 0.38534784 -1.7969992 4288085770
-0.43795776 0.36861229 -1.8023237 4288085770
1.2211456 0.39507055 -1.795132 4288085770
-0.62588501 0.37741709 -1.8072916 4288085770
0.91426086 0.40580797 -1.7944214 4288085770
-0.80679321 0.38622808 -1.8123002 4288085770
0.65533447 0.41655493 -1.7989893 4288085770
-0.9927063 0.39406443 -1.8122733 4288085770
0.38343811 0.42832041 -1.7984873 4288085770
-1.1635895 0.4029007 -1.8143393 4288085770
0.12556458 0.43811512 -1.7950542 4288085770
-1.3414612 0.41276741 -1.8103704 4288085770
-0.098342896 0.44990253 -1.7978302 4288085770
-1.4993591 0.42162132 -1.8115115 4288085770
-0.30622864 0.46070862 -1.7996932 4288085770
-1.6702118 0.43150568 -1.8055826 4288085770
-0.49815369 0.47151709 -1.8036491 4288085770
-1.7901459 0.44135427 -1.8129503 4288085770
-0.69004822 0.48334217 -1.8046103 4288085770
-1.921051 0.4512229 -1.8152535 4288085770
-0.85995483 0.49416828 -1.8086936 4288085770
-2.0619049 0.46111536 -1.8124985 4288085770
-1.039856 0.5060153 -1.8077241 4288085770
-2.1798248 0.47100163 -1.8138771 4288085770
-1.2007446 0.51686621 -1.8088592 4288085770
-1.3756104 0.52774143 -1.8039123 4288085770
-1.5155029 0.53960323 -1.8061751 4288085770
-1.6713715 0.55048752 -1.8023384 4288085770
-1.8052521 0.56237268 -1.8016357 4288085770
-1.9241791 0.57424641 -1.8050203 4288085770
-2.065033 0.58515549 -1.7992704 4288085770
-2.1519775 0.59801817 -1.808847 4288085770
-2.1114349 2.8428817 -1.7524121 4288085770
-1.9923401 2.879993 -1.7503543 4288085770
-1.8482513 2.927093 -1.753507 4288085770
-1.7301331 2.9612212 -1.7484263 4288085770
-1.5750732 3.0093298 -1.7516515 4288085770
-1.4569244 3.0394764 -1.7435473 4288085770
-1.3188019 3.0776138 -1.7396111 4288085770
-1.1687012 3.1187491 -1.7377652 4288085770
-2.1304779 2.7377815 -1.7597187 4288085770
-1.022583 3.1559076 -1.7318691 4288085770
-2.0033722 2.7678881 -1.7596645 4288085770
-0.86146545 3.1970644 -1.7280875 4288085770
-1.8782806 2.7969971 -1.758594 4288085770
-0.67739868 3.2462101 -1.7294921 4288085770
-1.7531738 2.8231125 -1.7565055 4288085770
-0.51126099 3.2853837 -1.723729 4288085770
-1.6260376 2.8492422 -1.7524294 4288085770
-0.31617737 3.3345444 -1.7241998 4288085770
-1.4839478 2.8793597 -1.7524668 4288085770
-0.11210632 3.3847179 -1.7237308 4288085770
-1.3378448 2.9094801 -1.7525289 4288085770
0.10098267 3.4359007 -1.7233223 4288085770
-1.2086945 2.9316244 -1.746441 4288085770
0.33306885 3.4920793 -1.7260576 4288085770
-1.0446167 2.9647474 -1.7486291 4288085770
0.50921631 3.5233035 -1.7133077 4288085770
-0.89848328 2.9878988 -1.743649 4288085770
0.73233032 3.5695183 -1.7089293 4288085770
-0.74235535 3.0140519 -1.7397475 4288085770
0.9854126 3.624733 -1.7087855 4288085770
-0.57025146 3.043201 -1.7389601 4288085770
1.2744751 3.6899526 -1.7129182 4288085770
-0.38217163 3.076344 -1.7412928 4288085770
1.5845032 3.7601831 -1.7182072 4288085770
-0.22201538 3.0975199 -1.7343858 4288085770
1.9215393 3.8354297 -1.7246888 4288085770
-0.033920288 3.1266809 -1.7336949 4288085770
2.3045044 3.9226775 -1.7375188 4288085770
0.15820312 3.1528516 -1.73201 4288085770
2.6715393 4.0009551 -1.7431993 4288085770
0.34533691 3.1760368 -1.7272775 4288085770
3.0196075 4.0662479 -1.743688 4288085770
0.51850891 3.1922355 -1.718419 4288085770
3.3447418 4.1195641 -1.7369668 4288085770
0.73260498 3.2184253 -1.7168666 4288085770
3.7378082 4.192894 -1.7377745 4288085770
0.95172119 3.2446182 -1.7153445 4288085770
4.2037964 4.284234 -1.7471291 4288085770
1.1728516 3.2688191 -1.7128228 4288085770
4.6598511 4.3666034 -1.7503701 4288085770
1.421936 3.2980251 -1.7134992 4288085770
5.1508789 4.4539886 -1.7558517 4288085770
1.7020111 3.3352315 -1.7184103 4288085770
5.6459351 4.5364027 -1.7573279 4282675967
1.9980621 3.3724518 -1.7234176 4288085770
6.1909485 4.6278443 -1.7611589 4288085770
2.3490906 3.4216738 -1.7358274 4288085770
6.6660767 4.6913033 -1.7524018 4288085770
2.6581573 3.454911 -1.739889 4288085770
7.179184 4.7607746 -1.7469089 4288085770
2.9562683 3.481163 -1.739843 4288085770
7.7133179 4.827282 -1.738525 4288085770
3.233429 3.4964292 -1.7346048 4288085770
8.2154999 4.8778057 -1.7228528 4288085770
3.5125732 3.508703 -1.7283608 4288085770
8.8036194 4.9473581 -1.7148125 4288085770
3.8207092 3.5249827 -1.7253152 4288085770
9.4217682 5.0149522 -1.7039406 4288085770
4.1658173 3.5472801 -1.7245282 4288085770
10.097885 5.0905762 -1.6964663 4288085770
4.5309143 3.5695815 -1.7258615 4288085770
10.845978 5.1752596 -1.689479 4288085770
4.9180145 3.5929015 -1.7273335 4288085770
11.73201 5.2870016 -1.6924849 4288085770
5.4140015 3.6382313 -1.7425931 4288085770
12.722046 5.4108224 -1.6971884 4288085770
5.7531891 3.6395669 -1.7346448 4288085770
6.1413422 3.6469185 -1.7310272 4288085770
6.4885254 3.6402733 -1.7210791 4288085770
6.8746796 3.6366363 -1.7153835 4288085770
7.3537903 3.6470323 -1.7173316 4288085770
7.8069611 3.6464319 -1.7150575 4288085770
8.2471313 3.6368454 -1.7086511 4288085770
8.7252655 3.6292655 -1.706485 4288085770
9.2434235 3.6227126 -1.7055663 4288085770
9.7175903 3.6001549 -1.6992866 4288085770
10.270752 3.5856311 -1.6985304 4288085770
10.778931 3.557101 -1.6924195 4288085770
11.393066 3.5366156 -1.6939945 4288085770
12.0522 3.5161548 -1.6978405 4288085770
12.730347 3.4907103 -1.7017709 4288085770
12.268555 -4.9322319 -1.7261517 4293729569
11.655624 -4.9007807 -1.7286506 4293729569
11.047668 -4.8603258 -1.7312343 4293729569
10.511749 -4.8338346 -1.7381668 4293729569
9.9317932 -4.7863503 -1.7399615 4293729569
9.3668518 -4.7338476 -1.7408772 4293729569
12.321594 -5.7074261 -1.1107303 4293729569
8.8269196 -4.6823244 -1.7419373 4293729569
12.176453 -5.7939129 -1.1683313 4293729569
8.3529663 -4.6417713 -1.7473284 4293729569
9.2344818 -4.9807806 -1.0605506 4293729569
7.8980103 -4.6022148 -1.7548279 4293729569
8.9023743 -4.9843054 -1.098529 4293729569
7.3770752 -4.5356512 -1.7520934 4293729569
8.8952179 -5.0926886 -1.1588275 4293729569
6.9071198 -4.4770718 -1.7536179 4293729569
8.187149 -4.9603739 -1.1703666 4293729569
6.4441833 -4.4144773 -1.7542089 4293729569
8.1340027 -5.0457726 -1.2265279 4293729569
6.0462189 -4.3688545 -1.759088 4293729569
8.1178284 -5.1431704 -1.2878389 4293729569
5.6592712 -4.3202305 -1.7650521 4293729569
12.502838 -6.8280487 -1.7150172 4293729569
5.3332825 -4.2895918 -1.777274 4293729569
11.507767 -6.5928879 -1.7114519 4293729569
5.0682831 -4.2769451 -1.796754 4293729569
10.6427 -6.3916502 -1.7134639 4293729569
4.8002777 -4.2582893 -1.8142525 4293729569
9.8846283 -6.2203522 -1.7209382 4293729569
4.5702515 -4.2496262 -1.8359191 4288085770
9.1005554 -6.0260277 -1.7203962 4293729569
4.3432159 -4.2379675 -1.8586222 4288085770
8.3815308 -5.8466434 -1.719155 4293729569
4.1121979 -4.2232943 -1.8783191 4288085770
7.7364807 -5.6882343 -1.7242318 4293729569
3.8242188 -4.1816111 -1.8888372 4288085770
6.1527863 -5.1399231 -1.6150234 4293729569
3.5872192 -4.1559248 -1.9055653 4288085770
6.1405792 -5.2183437 -1.6804736 4293729569
3.2463074 -4.0832062 -1.9029529 4288085770
5.9384155 -5.2157888 -1.7232717 4293729569
2.9083557 -4.0074863 -1.9003767 4288085770
5.3904266 -5.0632496 -1.7208978 4293729569
2.5974121 -3.938756 -1.8999208 4288085770
4.4506226 -4.7366991 -1.6622208 4293729569
2.3554535 -3.8950243 -1.9087287 4288085770
4.3604736 -4.7670937 -1.7124933 4293729569
2.1404572 -3.8602943 -1.9216442 4282675967
4.1083527 -4.7234869 -1.7402401 4293729569
1.7805786 -3.756506 -1.9051067 4288085770
3.7233582 -4.6158495 -1.7445755 4293729569
1.4986725 -3.6827211 -1.8998564 4288085770
3.3303833 -4.5012007 -1.7459052 4293729569
1.2607269 -3.6259489 -1.9027678 4288085770
3.0123596 -4.4145384 -1.7555163 4293729569
1.010788 -3.5601559 -1.9006619 4288085770
2.6873779 -4.3198576 -1.7611346 4293729569
0.78686523 -3.5023603 -1.901664 4288085770
2.3444061 -4.2131605 -1.7617173 4293729569
0.55192566 -3.4365549 -1.8996485 4288085770
2.08638 -4.1414604 -1.7735994 4293729569
0.33599854 -3.3767452 -1.8997114 4288085770
1.9832611 -4.1397924 -1.8119893 4293729569
0.1290741 -3.3179293 -1.8998222 4288085770
1.8791504 -4.1371183 -1.8493791 4288085770
-0.057861328 -3.2661095 -1.902011 4288085770
1.7870178 -4.1364536 -1.8898292 4288085770
-0.27676392 -3.19526 -1.8951231 4288085770
1.5929871 -4.0847368 -1.9079754 4288085770
-0.46368408 -3.137413 -1.8933489 4288085770
1.3529968 -4.0059929 -1.9150093 4288085770
-0.64161682 -3.0815735 -1.8936168 4288085770
1.0760651 -3.9062109 -1.9109483 4288085770
-0.81254578 -3.0267286 -1.8939207 4288085770
0.80810547 -3.8074198 -1.9069353 4288085770
-0.98446655 -2.9698629 -1.8912309 4288085770
0.56416321 -3.71663 -1.9060187 4288085770
-1.1513672 -2.9120016 -1.8895776 4288085770
0.33021545 -3.6288242 -1.9041442 4288085770
-1.2993011 -2.8611364 -1.8899962 4288085770
0.10528564 -3.5420036 -1.9013178 4288085770
-1.443222 -2.8122683 -1.8904266 4288085770
-0.099655151 -3.4631815 -1.9005635 4288085770
-1.5951233 -2.7553806 -1.8868579 4288085770
-0.30758667 -3.3793411 -1.8968216 4288085770
-1.726059 -2.7075071 -1.8883609 4288085770
-0.49053955 -3.3065119 -1.8981634 4288085770
-1.8639679 -2.6556158 -1.8858461 4288085770
-0.6804657 -3.2276554 -1.8944999 4288085770
-1.9859009 -2.6087284 -1.8863975 4288085770
-0.85040283 -3.1568098 -1.8949083 4288085770
-2.1078186 -2.5608416 -1.8869549 4288085770
-1.0163422 -3.0869465 -1.8933346 4288085770
-1.1742706 -3.0180788 -1.8918034 4288085770
-1.3302002 -2.9492073 -1.8902843 4288085770
-1.459137 -2.8913393 -1.8928611 4288085770
-1.6130371 -2.8194427 -1.8873727 4288085770
-1.7519531 -2.7535458 -1.8839381 4288085770
-1.878891 -2.6926508 -1.8825454 4288085770
-1.997818 -2.6347551 -1.882183 4288085770
-2.1007385 -2.5838585 -1.8838743 4288085770
-2.2086639 -2.5289555 -1.8835599 4288085770
-2.1096497 -0.20090628 -1.824891 4288085770
-2.0215149 -0.18580675 -1.8205302 4288085770
-1.9104004 -0.17372036 -1.821292 4288085770
-1.8192596 -0.15860558 -1.81495 4288085770
-1.7031403 -0.14550781 -1.8147492 4288085770
-1.5710297 -0.13341713 -1.8176409 4288085770
-1.4409332 -0.1203146 -1.8185266 4288085770
-1.3008423 -0.10820293 -1.8194678 4288085770
-1.1766968 -0.094067574 -1.8143233 4288085770
-2.1598053 0.0010027885 -1.8258739 4288085770
-1.0245819 -0.08194685 -1.8153387 4288085770
-2.0656281 0.014120102 -1.8195382 4288085770
-0.87145996 -0.069812298 -1.8143606 4288085770
-1.9555206 0.026224613 -1.8172947 4288085770
-0.70135498 -0.057675838 -1.8154874 4288085770
-1.8343964 0.03832674 -1.8171192 4288085770
-0.53321838 -0.04552269 -1.813602 4288085770
-1.6932983 0.049425125 -1.8200607 4288085770
-0.35209656 -0.032364368 -1.8128033 4288085770
-1.5641785 0.060546398 -1.8179284 4288085770
-0.15899658 -0.021197319 -1.812066 4288085770
-1.4180603 0.072661877 -1.8189073 4288085770
0.038146973 -0.0080199242 -1.8103663 4288085770
-1.2629547 0.082780361 -1.8209292 4288085770
0.25526428 0.0041751862 -1.8087838 4288085770
-1.1188049 0.094926357 -1.8168964 4288085770
0.48738098 0.015369415 -1.8092875 4288085770
-0.95071411 0.10606003 -1.8180051 4288085770
0.7454834 0.026578426 -1.8109517 4288085770
-0.77258301 0.11720848 -1.8181756 4288085770
0.99963379 0.038815498 -1.8075984 4288085770
-0.58647156 0.12836552 -1.8183956 4288085770
1.2637787 0.052068233 -1.803313 4288085770
-0.40333557 0.14054298 -1.8146038 4288085770
1.6028442 0.062314034 -1.8104709 4288085770
-0.20622253 0.15172768 -1.8118925 4288085770
1.9249725 0.073601246 -1.8085313 4288085770
-0.0010681152 0.16291761 -1.8092304 4288085770
2.2711029 0.085903645 -1.8077462 4288085770
0.24201965 0.1731081 -1.8117967 4288085770
2.6622162 0.097229004 -1.8092328 4288085770
0.46018982 0.18434143 -1.8042156 4288085770
3.0573578 0.10859728 -1.8047445 4288085770
0.72731018 0.19556522 -1.8049366 4288085770
3.4525452 0.1219964 -1.7952695 4288085770
0.98944092 0.20681524 -1.8006272 4288085770
3.9226837 0.13341999 -1.7922449 4288085770
1.3165436 0.2160635 -1.8057063 4288085770
4.5427246 0.14287424 -1.8051329 4288085770
1.6466522 0.22634506 -1.8058109 4288085770
5.3446808 0.1503849 -1.8341311 4282675967
2.0287323 0.23663235 -1.8122363 4288085770
5.8779144 0.16396284 -1.8155102 4288085770
2.4208374 0.24695396 -1.8147238 4288085770
6.5680695 0.17659426 -1.8098519 4288085770
2.8029938 0.25731659 -1.8091508 4288085770
7.208313 0.19027376 -1.7898927 4288085770
3.2121582 0.26770926 -1.8027445 4288085770
8.0624847 0.20205545 -1.7832417 4288085770
3.6693115 0.2781229 -1.7996348 4288085770
9.0476379 0.21392679 -1.7804004 4288085770
4.1744537 0.28858089 -1.7958223 4288085770
10.125824 0.22592688 -1.7701344 4288085770
5.1452332 0.29506969 -1.8518593 4282675967
11.458969 0.23708153 -1.7704372 4288085770
5.6634674 0.30563974 -1.832129 4282675967
6.287674 0.31625605 -1.8200531 4282675967
6.9678955 0.32593679 -1.8053178 4288085770
7.7231293 0.33568621 -1.7900463 4288085770
8.7022858 0.3455596 -1.7861586 4288085770
9.7864532 0.35454512 -1.7789143 4288085770
11.131592 0.36369705 -1.7812833 4288085770
12.631744 0.37201118 -1.7796044 4288085770
11.553833 0.55486155 -1.7626182 4288085770
10.187897 0.57064295 -1.7629217 4288085770
9.0749512 0.58661127 -1.7688581 4288085770
8.1339722 0.60170937 -1.7778969 4288085770
7.2590332 0.61689806 -1.7823616 4288085770
6.6239929 0.63318872 -1.803383 4288085770
5.9060669 0.6465292 -1.8058473 4288085770
12.105545 0.81347513 -1.7410272 4288085770
5.463974 0.66492701 -1.8361278 4282675967
10.740616 0.82423067 -1.7452976 4288085770
4.7471771 0.67639065 -1.8205837 4282675967
9.5576782 0.83415222 -1.7487363 4288085770
3.9584961 0.68292427 -1.7855402 4288085770
8.5976868 0.84722137 -1.7596354 4288085770
3.4786072 0.69648647 -1.7865399 4288085770
7.6907501 0.85738277 -1.7638561 4288085770
3.0696411 0.71006727 -1.7939982 4288085770
6.9167938 0.86963606 -1.7719492 4288085770
2.6707306 0.72269917 -1.7955137 4288085770
6.3177948 0.88498259 -1.7891934 4288085770
2.3188019 0.73733473 -1.8023463 4288085770
5.6978302 0.8983717 -1.7972878 4288085770
1.9908905 0.75001144 -1.8063204 4288085770
5.2757416 0.9168067 -1.8246958 4282675967
1.6280365 0.76172733 -1.8000612 4288085770
4.4890747 0.91832781 -1.7916281 4288085770
1.2991486 0.77345705 -1.7960212 4288085770
3.8293304 0.92189455 -1.7683942 4288085770
1.0302429 0.78619051 -1.7993759 4288085770
3.395401 0.93447495 -1.7726827 4288085770
0.74436951 0.79696465 -1.7946068 4288085770
3.0454254 0.94808531 -1.7835205 4288085770
0.48350525 0.80973864 -1.7930124 4288085770
2.6575165 0.95973206 -1.7840987 4288085770
