# .PCD v0.7 - Point Cloud Data file format
VERSION 0.7
FIELDS x y z rgb
SIZE 4 4 4 4
TYPE F F F U
COUNT 1 1 1 1
WIDTH 1105
HEIGHT 1
VIEWPOINT 0 0 0 1 0 0 0
POINTS 1105
DATA ascii
-0.035186768 -4.2409468 -1.7041785 4293729569
-1.1821594 -3.6298826 -1.8892928 4288085770
-0.063674927 -4.1728516 -1.7204603 4293729569
-1.2558594 -3.5417161 -1.8881737 4288085770
-0.094177246 -4.103754 -1.735768 4293729569
-1.3265991 -3.4555588 -1.886016 4288085770
-0.16481018 -4.0105844 -1.7395967 4293729569
-1.4093628 -3.3623829 -1.8790148 4288085770
-0.22944641 -3.9224303 -1.7433499 4293729569
-1.4871521 -3.2732189 -1.87195 4288085770
-0.28005981 -3.8403046 -1.7489163 4293729569
-1.5308685 -3.2031198 -1.8724397 4288085770
-0.30766296 -3.7722254 -1.7581834 4293729569
-1.5756073 -3.13202 -1.8719414 4288085770
-0.24507141 -3.752317 -1.788267 4293729569
-1.6133118 -3.0649333 -1.8733517 4288085770
-0.13240051 -3.7585065 -1.8276922 4288085770
-1.6671143 -2.9888225 -1.8679713 4288085770
-0.041793823 -3.7506583 -1.860402 4288085770
-1.6868286 -2.931776 -1.8701454 4288085770
-0.05241394 -3.6876197 -1.8694376 4288085770
-1.7266083 -2.8636942 -1.8665816 4288085770
-0.10412598 -3.6025052 -1.8680118 4288085770
-1.7483521 -2.8066454 -1.8677839 4288085770
-0.14483643 -3.5244174 -1.8664435 4288085770
-1.769104 -2.7476008 -1.8679684 4288085770
-0.1585083 -3.4593792 -1.8715178 4288085770
-1.7918854 -2.6885555 -1.8661808 4288085770
-0.17019653 -3.3943505 -1.8745636 4288085770
-1.8236847 -2.6254969 -1.8605131 4288085770
-0.21096802 -3.3162665 -1.8709954 4288085770
-1.855545 -2.5624399 -1.853846 4288085770
-0.21566772 -3.2552538 -1.8739494 4288085770
-1.8683167 -2.5084183 -1.8519257 4288085770
-0.2484436 -3.1821907 -1.8692774 4288085770
-1.8751068 -2.4574087 -1.8509265 4288085770
-0.25520325 -3.1201792 -1.8692576 4288085770
-1.8738708 -2.4114144 -1.8518239 4288085770
-0.26997375 -3.0541546 -1.8663436 4288085770
-1.8746643 -2.3634191 -1.8507456 4288085770
-0.2797699 -2.9921422 -1.8633667 4288085770
-1.8654327 -2.3204439 -1.8515354 4288085770
-0.26449585 -2.9401774 -1.8660549 4288085770
-1.8562164 -2.2764683 -1.8523232 4288085770
-0.26026917 -2.8841941 -1.8648912 4288085770
-1.8530273 -2.230485 -1.8501917 4288085770
-0.25604248 -2.8272128 -1.8627254 4288085770
-1.8388062 -2.1875234 -1.8499106 4288085770
-0.24383545 -2.7722507 -1.8604499 4288085770
-1.8306122 -2.1435516 -1.8477124 4288085770
-0.20555115 -2.7303362 -1.8648316 4288085770
-1.8084106 -2.1046071 -1.8483254 4288085770
-0.18534851 -2.6793928 -1.862451 4288085770
-1.7771759 -2.06868 -1.8508166 4288085770
-0.15913391 -2.6304617 -1.860989 4288085770
-1.7559814 -2.029737 -1.849444 4288085770
-0.12391663 -2.5845482 -1.8614055 4288085770
-1.7237701 -1.9938142 -1.8509213 4288085770
-0.082687378 -2.542649 -1.8617445 4288085770
-1.7086182 -1.9518632 -1.8466281 4288085770
-0.062515259 -2.4907117 -1.8563617 4288085770
-1.6694031 -1.9179571 -1.8480099 4288085770
-0.014328003 -2.4488308 -1.8556019 4288085770
-1.6312103 -1.8830506 -1.848404 4288085770
0.046920776 -2.4119749 -1.8576676 4288085770
-1.5859833 -1.8511585 -1.8497049 4288085770
0.077041626 -2.3630636 -1.851149 4288085770
-1.5427856 -1.8182638 -1.850032 4288085770
0.14427185 -2.3262239 -1.8521298 4288085770
-1.4955902 -1.7853786 -1.8503031 4288085770
0.21847534 -2.2924008 -1.8530174 4288085770
-1.4453888 -1.7535008 -1.8505334 4288085770
0.26560974 -2.2485278 -1.8472682 4288085770
-1.3892059 -1.7236369 -1.8506824 4288085770
0.36187744 -2.219749 -1.851854 4288085770
-1.338028 -1.6917653 -1.8488988 4288085770
0.45007324 -2.187959 -1.8525475 4288085770
-1.2818451 -1.6609014 -1.8490459 4288085770
0.53227234 -2.1531594 -1.8513201 4288085770
-1.2307129 -1.628034 -1.8452603 4288085770
0.63749695 -2.1244059 -1.8537785 4288085770
-1.144455 -1.6042292 -1.8509966 4288085770
0.71261597 -2.0855989 -1.847643 4288085770
-1.0832977 -1.5733835 -1.8480731 4288085770
0.83084106 -2.0588748 -1.8509218 4288085770
-0.98904419 -1.5515978 -1.8537 4288085770
0.9309845 -2.0251217 -1.847442 4288085770
-0.91386414 -1.5227811 -1.8525826 4288085770
1.0542145 -1.9974127 -1.8486482 4288085770
-0.81163025 -1.5000165 -1.8570942 4288085770
1.1793823 -1.9677131 -1.8478221 4288085770
-0.71643066 -1.4742415 -1.8586994 4288085770
1.3075562 -1.9380224 -1.8459541 4288085770
-0.64930725 -1.4414155 -1.8526877 4288085770
1.4577484 -1.9133774 -1.8467845 4288085770
-0.53007507 -1.4206896 -1.857963 4288085770
1.6370087 -1.8937918 -1.8522137 4288085770
-0.4128418 -1.3989624 -1.8612648 4288085770
1.8382874 -1.8782542 -1.8593401 4288085770
-0.29162598 -1.3762448 -1.864508 4288085770
2.0425262 -1.8607278 -1.8644198 4288085770
-0.16641235 -1.3535389 -1.866695 4288085770
2.2247009 -1.8351612 -1.8637956 4288085770
-0.028167725 -1.3318596 -1.8706995 4288085770
2.4219055 -1.8126284 -1.8639656 4288085770
0.10800171 -1.3091818 -1.8717314 4288085770
2.6210632 -1.7881041 -1.8621038 4288085770
0.22213745 -1.2804639 -1.8670629 4288085770
2.8402252 -1.7646255 -1.8609608 4288085770
0.3502655 -1.2537771 -1.8632003 4288085770
3.031311 -1.7350947 -1.8532029 4288085770
0.48141479 -1.2270956 -1.8602954 4288085770
3.2674866 -1.7116584 -1.8508197 4288085770
0.62156677 -1.2004373 -1.8562628 4288085770
3.5386505 -1.6922995 -1.8509499 4288085770
0.75062561 -1.1707612 -1.8483812 4288085770
3.7006226 -1.651724 -1.831582 4288085770
0.93785095 -1.1502005 -1.8506957 4288085770
3.9707336 -1.6283727 -1.8267189 4288085770
1.1230316 -1.1286391 -1.8510369 4288085770
4.2979279 -1.6121445 -1.8270632 4288085770
1.29216 -1.1010518 -1.8455931 4288085770
4.6791687 -1.6000366 -1.8306514 4288085770
1.5013428 -1.0795454 -1.8465952 4288085770
5.0914154 -1.5909982 -1.8358077 4288085770
1.730545 -1.0590866 -1.8473164 4288085770
5.509613 -1.5769823 -1.8368696 4288085770
1.9677582 -1.0376444 -1.8489224 4288085770
5.9347687 -1.5609891 -1.8348292 4288085770
2.2038879 -1.0132105 -1.8455375 4288085770
6.3909302 -1.5440713 -1.8313493 4288085770
2.4740906 -0.99184877 -1.845677 4288085770
6.8630371 -1.5261956 -1.8256408 4288085770
2.7502594 -0.96950364 -1.8447307 4288085770
7.328064 -1.5023178 -1.8130211 4288085770
3.0083618 -0.94212967 -1.8370298 4288085770
7.9182587 -1.4907126 -1.8106567 4288085770
3.2774353 -0.91378421 -1.8281714 4288085770
8.5193329 -1.4741454 -1.8021284 4288085770
3.5745392 -0.88650316 -1.8199192 4288085770
9.3225861 -1.473026 -1.8067728 4288085770
3.9196777 -0.86132598 -1.8159922 4288085770
10.092728 -1.4618504 -1.8008655 4288085770
4.2798004 -0.8361885 -1.8098539 4288085770
10.895813 -1.4467635 -1.7894849 4288085770
4.7129974 -0.81421053 -1.8096889 4288085770
11.844925 -1.4380111 -1.7820524 4288085770
5.2112732 -0.79437655 -1.8136088 4288085770
5.7775879 -0.77569568 -1.8205694 4288085770
6.2947388 -0.74892706 -1.8142086 4288085770
6.8117981 -0.71817094 -1.8018409 4288085770
7.3999023 -0.68757761 -1.7914697 4288085770
8.076004 -0.65818715 -1.7828573 4288085770
8.9042664 -0.63313508 -1.7831031 4288085770
9.7894897 -0.60422671 -1.7785369 4288085770
10.759674 -0.57352257 -1.7717663 4288085770
11.808823 -0.53901172 -1.7608722 4288085770
12.410629 3.4058831 -1.6660954 4288085770
12.032883 3.4887655 -1.6651841 4288085770
11.793289 3.5903375 -1.6713034 4288085770
11.503616 3.6810162 -1.672145 4288085770
11.229904 3.7686551 -1.6717702 4288085770
10.926102 3.8493512 -1.6658303 4288085770
10.733429 3.9458025 -1.6673042 4288085770
10.559799 4.0462112 -1.6695036 4288085770
10.406158 4.1475706 -1.6704215 4288085770
10.424774 4.2835541 -1.6848589 4288085770
10.328201 4.3937836 -1.6879607 4288085770
10.160446 4.488162 -1.6830896 4288085770
10.052765 4.5954046 -1.6803516 4288085770
9.9631195 4.7066059 -1.6783532 4288085770
9.9275513 4.82969 -1.6805733 4288085770
9.8458557 4.9408646 -1.6754633 4288085770
9.8082123 5.061945 -1.6737159 4288085770
9.7655487 5.1820297 -1.6690408 4288085770
9.7829742 5.3179827 -1.6684917 4288085770
9.8364563 5.4658527 -1.6694125 4288085770
9.8458405 5.6008148 -1.6649774 4288085770
9.8782196 5.743722 -1.6592027 4288085770
9.9907532 5.9124546 -1.6602522 4288085770
10.10527 6.0851774 -1.6592647 4288085770
10.286911 6.2787533 -1.662294 4288085770
10.449463 6.4703646 -1.6615936 4288085770
10.72226 6.7017317 -1.667266 4288085770
10.874756 6.8963537 -1.661698 4288085770
11.067322 7.1068821 -1.6555351 4288085770
11.278885 7.3283634 -1.6490818 4288085770
11.545517 7.5737181 -1.6438066 4288085770
11.919403 7.8638372 -1.644935 4288085770
12.268158 8.1470013 -1.6404289 4288085770
11.310776 -0.11856151 -1.7471489 4288085770
10.019821 -0.12050879 -1.7530404 4288085770
8.8828888 -0.121822 -1.7577959 4288085770
7.8369141 -0.11935985 -1.7582816 4288085770
6.967041 -0.11829686 -1.7653311 4288085770
6.2112122 -0.11649907 -1.7737993 4288085770
5.5223541 -0.11386192 -1.7813374 4288085770
11.847061 -0.31986284 -1.7452422 4288085770
4.8964996 -0.11037743 -1.7870003 4288085770
10.449142 -0.29555941 -1.7505485 4288085770
4.2795715 -0.10392678 -1.7875315 4288085770
9.2893524 -0.27480316 -1.7615656 4288085770
3.7497101 -0.098672271 -1.7918597 4288085770
8.1433411 -0.25011933 -1.7563802 4288085770
3.2608337 -0.092515111 -1.7956177 4288085770
7.2475281 -0.23199189 -1.7647461 4288085770
2.8370209 -0.087501884 -1.8034774 4288085770
6.4446869 -0.21408677 -1.7718245 4288085770
2.4281616 -0.08053422 -1.807125 4288085770
5.7699432 -0.19947088 -1.7841374 4288085770
2.0373077 -0.073609233 -1.8105229 4288085770
5.0640259 -0.18081236 -1.7838699 4288085770
1.6624146 -0.065727949 -1.8116966 4288085770
4.4431458 -0.16334736 -1.7864281 4288085770
1.3345642 -0.057948828 -1.8162199 4288085770
3.8762817 -0.14601159 -1.7882379 4288085770
1.0367584 -0.051236629 -1.8223296 4288085770
3.3704376 -0.12981689 -1.7912058 4288085770
0.76496887 -0.043581843 -1.8300766 4288085770
2.9536896 -0.11681318 -1.8019477 4288085770
0.45500183 -0.032868147 -1.8253433 4288085770
2.5178223 -0.10178554 -1.8039485 4288085770
0.18811035 -0.024244666 -1.8250188 4288085770
2.1419983 -0.086889505 -1.8101183 4288085770
-0.060760498 -0.014659524 -1.8264426 4288085770
1.7591248 -0.071991324 -1.8103849 4288085770
-0.29364014 -0.0051127672 -1.8276449 4288085770
1.4342957 -0.058219552 -1.8148509 4288085770
-0.51652527 0.0044077635 -1.8277086 4288085770
1.12146 -0.043479085 -1.8181483 4288085770
-0.74043274 0.014923334 -1.8247839 4288085770
0.83061218 -0.029790998 -1.8211433 4288085770
-0.94129944 0.024393678 -1.8255426 4288085770
0.54676819 -0.015122414 -1.8230387 4288085770
-1.1362152 0.034844995 -1.8242162 4288085770
0.26986694 -0.00047779083 -1.8218375 4288085770
-1.3231354 0.045274496 -1.8217791 4288085770
0.026000977 0.01309526 -1.8231817 4288085770
-1.5020447 0.055684805 -1.8192307 4288085770
-0.21989441 0.027665973 -1.8215512 4288085770
-1.6749725 0.067080855 -1.8165971 4288085770
-0.4427948 0.041184068 -1.8206047 4288085770
-1.8278351 0.077436209 -1.8166889 4288085770
-0.65866089 0.054685473 -1.8195609 4288085770
-1.9767151 0.087779641 -1.815725 4288085770
-0.84651184 0.068129182 -1.8221296 4288085770
-2.1156006 0.098101854 -1.8156229 4288085770
-1.0564575 0.082606673 -1.8170007 4288085770
-2.2545013 0.10842133 -1.8145205 4288085770
-1.2514038 0.09705019 -1.8126642 4288085770
-2.3863831 0.11972415 -1.8133188 4288085770
-1.4011993 0.10941076 -1.8177084 4288085770
-1.5690918 0.1237973 -1.8159977 4288085770
-1.7219543 0.13715029 -1.8150815 4288085770
-1.8849335 0.15051484 -1.8093044 4288085770
-2.0288086 0.16384673 -1.8082634 4288085770
-2.1627045 0.17715418 -1.8070842 4288085770
-2.2875519 0.19044256 -1.80678 4288085770
-2.4074402 0.20371914 -1.8064071 4288085770
-2.4318085 2.2200809 -1.7516845 4288085770
-2.3166351 2.2488005 -1.7500206 4288085770
-2.1924591 2.2785025 -1.7492298 4288085770
-2.0632782 2.309191 -1.7483674 4288085770
-1.9230499 2.3418586 -1.7493478 4288085770
-1.7828674 2.3735216 -1.748331 4288085770
-1.662796 2.3962142 -1.7406143 4288085770
-1.5045624 2.4308383 -1.7413415 4288085770
-2.4260864 2.1540387 -1.7547632 4288085770
-1.3493805 2.4624655 -1.7401174 4288085770
-2.3149719 2.1727629 -1.7511803 4288085770
-1.1811829 2.4970644 -1.7397069 4288085770
-2.1827545 2.1974521 -1.753292 4288085770
-1.0069733 2.5316474 -1.7392136 4288085770
-2.0596313 2.2171507 -1.7505406 4288085770
-0.84284973 2.5612428 -1.7338713 4288085770
-1.9073486 2.2447996 -1.7553681 4288085770
-0.62553406 2.6057422 -1.7397584 4288085770
-1.7762451 2.2644765 -1.7515072 4288085770
-0.42431641 2.6432645 -1.7398847 4288085770
-1.637085 2.2841394 -1.7495352 4288085770
-0.21308899 2.6807597 -1.7388731 4288085770
-1.4849243 2.3067758 -1.7493764 4288085770
0.012130737 2.720227 -1.7396635 4288085770
-1.3297424 2.3294027 -1.7481762 4288085770
0.276474 2.7696159 -1.7458895 4288085770
-1.1685944 2.3510153 -1.7468959 4288085770
0.49160767 2.8020871 -1.7388362 4288085770
-1.0114594 2.3696325 -1.7436787 4288085770
0.73678589 2.8394997 -1.7363564 4288085770
-0.83126831 2.3932054 -1.744131 4288085770
0.98997498 2.876889 -1.732766 4288085770
-0.63504028 2.4197438 -1.7463549 4288085770
1.2491302 2.9142621 -1.7280933 4288085770
-0.44487 2.4412897 -1.7456745 4288085770
1.5383301 2.9555695 -1.7249962 4288085770
-0.20753479 2.4747493 -1.7543141 4288085770
1.873642 3.007786 -1.7292353 4288085770
0.0046691895 2.4982474 -1.7553254 4288085770
2.2108917 3.0559857 -1.7284585 4288085770
0.22686768 2.5217192 -1.7551988 4288085770
2.6122894 3.1170557 -1.7357639 4288085770
0.41891479 2.5342419 -1.7475151 4288085770
2.9975739 3.1701453 -1.7363116 4288085770
0.6320343 2.5517261 -1.7435285 4288085770
3.3306885 3.2063315 -1.7266217 4288085770
0.85110474 2.5661895 -1.7374674 4288085770
3.6807556 3.2414749 -1.7157003 4288085770
1.0902557 2.5836132 -1.7341226 4288085770
4.0658875 3.2815421 -1.7072829 4288085770
1.3062592 2.5920746 -1.7241188 4288085770
4.473999 3.3215511 -1.6975485 4288085770
1.572403 2.6104357 -1.7213989 4288085770
4.9441986 3.3724258 -1.6919304 4288085770
1.8585663 2.6297553 -1.7204009 4288085770
5.4694824 3.4311812 -1.690533 4288085770
2.1567535 2.6490452 -1.719237 4288085770
6.062851 3.4987848 -1.6921741 4288085770
2.5100555 2.6772244 -1.7252911 4288085770
6.6701355 3.5623438 -1.689633 4288085770
2.8642883 2.7003949 -1.7283448 4288085770
7.3034058 3.6258385 -1.6857342 4288085770
3.2144775 2.7185628 -1.7274669 4288085770
8.0207672 3.6981485 -1.686653 4288085770
3.5415497 2.7287714 -1.7209281 4288085770
8.7570648 3.7674 -1.6823186 4288085770
3.8244781 2.7250621 -1.7060326 4288085770
9.4902496 3.8266428 -1.672052 4288085770
4.1915894 2.7351801 -1.7009422 4288085770
10.457764 3.9233758 -1.6774591 4288085770
4.5526123 2.7383044 -1.692953 4288085770
11.348999 3.9932487 -1.6679863 4288085770
4.9897919 2.7522681 -1.6918865 4288085770
12.296204 4.0619831 -1.6557442 4288085770
5.4359283 2.761205 -1.6887099 4288085770
5.9111023 2.7720773 -1.6871277 4288085770
6.4513245 2.7868078 -1.6896392 4288085770
6.9834442 2.7915418 -1.6862878 4288085770
7.581665 2.8011339 -1.688013 4288085770
8.220871 2.8096273 -1.6891755 4288085770
8.8359985 2.807163 -1.6846987 4288085770
9.5201416 2.8055422 -1.682268 4288085770
10.283356 2.8057473 -1.684743 4288085770
11.071518 2.8008854 -1.6838871 4288085770
11.876633 2.7879775 -1.6808182 4288085770
7.6688843 -5.0136786 -0.48526227 4293729569
7.5852661 -5.0963964 -0.51964128 4293729569
7.5126801 -5.1811333 -0.55687439 4293729569
5.5704498 -5.3277869 -0.86809909 4293729569
5.4409943 -5.3633823 -0.90798581 4293729569
5.3855896 -5.4311352 -0.95393836 4293729569
5.334198 -5.4978924 -1.0018333 4293729569
8.7603302 -7.6013908 -1.6023082 4293729569
8.089035 -7.3807888 -1.6119784 4293729569
7.4257355 -7.154212 -1.6195215 4293729569
6.7913818 -6.9317112 -1.6236755 4293729569
6.1929779 -6.7192974 -1.6273609 4293729569
5.6436005 -6.5219927 -1.633411 4293729569
5.1721954 -6.3578596 -1.6434749 4293729569
4.737793 -6.2058077 -1.6560606 4293729569
4.2793427 -6.035717 -1.6619292 4293729569
3.8188782 -5.8566322 -1.6638011 4293729569
3.4223785 -5.7066879 -1.6698691 4293729569
3.0509186 -5.5647964 -1.6776136 4293729569
2.7064209 -5.4319677 -1.6860107 4293729569
2.3699036 -5.299161 -1.693297 4293729569
6.2530518 -7.4825258 -1.6136309 4293729569
2.0373535 -5.1623735 -1.6965181 4293729569
5.592865 -7.1739702 -1.6159083 4293729569
1.7298126 -5.0366411 -1.7014238 4293729569
5.0876617 -6.9457436 -1.631266 4293729569
0.063598633 -4.1173735 -1.4578999 4293729569
4.5674438 -6.7034979 -1.6407923 4293729569
0.041275024 -4.1422067 -1.5022818 4293729569
0.11390686 -4.1644297 -1.1113051 4293729569
0.030944824 -4.1720614 -1.5495118 4293729569
0.039550781 -4.153161 -1.1483063 4293729569
0.041687012 -4.2139549 -1.600485 4293729569
0.038253784 -4.1830339 -1.1964127 4293729569
-0.017684937 -4.2127161 -1.6393067 4293729569
0.033920288 -4.2099056 -1.2425524 4293729569
-0.036987305 -4.2325535 -1.6846341 4293729569
0.042648315 -4.2437973 -1.2925316 4293729569
-0.051269531 -4.2563953 -1.7329029 4293729569
2.1183624 -5.5196323 -1.6873997 4293729569
-0.24586487 -4.1659217 -1.7403451 4293729569
1.7718964 -5.341815 -1.689701 4293729569
-0.45352173 -4.065433 -1.7419401 4293729569
1.4704285 -5.1870909 -1.6964444 4293729569
-0.61712646 -3.9900284 -1.750996 4293729569
1.1929474 -5.0434256 -1.7028869 4293729569
-0.784729 -3.9086192 -1.7580904 4293729569
0.91743469 -4.896769 -1.7072936 4293729569
-0.93833923 -3.8332407 -1.7660083 4293729569
0.65888977 -4.7581568 -1.7104877 4293729569
-1.0939636 -3.7538629 -1.7719427 4293729569
0.3813324 -4.6045141 -1.707903 4293729569
-1.1443787 -3.7396634 -1.8036057 4293729569
0.16477966 -4.484993 -1.7135698 4293729569
-1.1727753 -3.7365012 -1.840995 4288085770
-0.014724731 -4.3865452 -1.7247831 4293729569
-1.2021332 -3.7303388 -1.87739 4288085770
-0.20228577 -4.281086 -1.7330881 4293729569
-1.3106995 -3.6740522 -1.8907388 4288085770
-0.40591431 -4.1626091 -1.7335783 4293729569
-1.4584045 -3.5897064 -1.8915499 4288085770
-0.58049011 -4.0601916 -1.737712 4293729569
-1.588089 -3.5143986 -1.894137 4288085770
-0.72904968 -3.9718206 -1.7475253 4293729569
-1.756897 -3.4140348 -1.8831939 4288085770
-0.86361694 -3.8904793 -1.7581648 4293729569
-1.8916321 -3.3317289 -1.8808314 4288085770
-1.0172577 -3.7951145 -1.7610282 4293729569
-2.0153503 -3.2554431 -1.8803331 4288085770
-1.0917511 -3.7478874 -1.781933 4293729569
-2.1561737 -3.166141 -1.871034 4288085770
-1.0890656 -3.7467878 -1.8229009 4288085770
-2.272934 -3.0908775 -1.8684422 4288085770
-1.0793915 -3.7486994 -1.8657805 4288085770
-2.3827057 -3.0196285 -1.8667642 4288085770
-1.138855 -3.7055025 -1.8884889 4288085770
-1.2644958 -3.619204 -1.8909911 4288085770
-1.4012299 -3.524893 -1.8886229 4288085770
-1.5610352 -3.415554 -1.876531 4288085770
-1.6817474 -3.3292813 -1.873964 4288085770
-1.7834473 -3.2520428 -1.8751594 4288085770
-1.8952026 -3.1687942 -1.8714765 4288085770
-1.9919434 -3.0945759 -1.8696116 4288085770
-2.0907135 -3.0183556 -1.8667685 4288085770
-2.1824646 -2.9441574 -1.8638376 4288085770
-2.2692261 -2.8729658 -1.8608428 4288085770
-2.3409576 -2.8097992 -1.861663 4288085770
-2.4167328 -2.7436337 -1.8585302 4288085770
-2.3182373 -1.018147 -1.8406104 4288085770
-2.2540894 -0.99930227 -1.8406788 4288085770
-2.1899261 -0.97946078 -1.8397444 4288085770
-2.1298218 -0.95861745 -1.8358625 4288085770
-2.0446014 -0.94281238 -1.8396505 4288085770
-1.9825134 -0.92197716 -1.8347415 4288085770
-1.8832703 -0.90819961 -1.8403422 4288085770
-1.8222046 -0.8863675 -1.8334445 4288085770
-1.7240143 -0.87159646 -1.8360566 4288085770
-1.6318512 -0.85481876 -1.8357459 4288085770
-1.5266571 -0.83906686 -1.8372597 4288085770
-1.4194946 -0.82332021 -1.8387457 4288085770
-1.3193665 -0.80656743 -1.8363255 4288085770
-1.1961517 -0.79185563 -1.8385946 4288085770
-2.3067322 -0.58424616 -1.8372821 4288085770
-1.0699921 -0.77715427 -1.8398231 4288085770
-2.2175903 -0.56846142 -1.8370153 4288085770
-0.95185852 -0.76144195 -1.8381587 4288085770
-2.14151 -0.55065942 -1.8319219 4288085770
-0.83171082 -0.74473673 -1.8354639 4288085770
-2.0413361 -0.53589821 -1.8325068 4288085770
-0.67851257 -0.73209137 -1.8393267 4288085770
-1.9321594 -0.52115595 -1.8339678 4288085770
-0.51429749 -0.72047275 -1.8430413 4288085770
-1.8219757 -0.50741637 -1.8354179 4288085770
-0.36216736 -0.70483899 -1.8419105 4288085770
-1.6988068 -0.49370492 -1.83769 4288085770
-0.18997192 -0.69224453 -1.8435124 4288085770
-1.5956879 -0.47796476 -1.8332313 4288085770
-0.038879395 -0.67561674 -1.839393 4288085770
-1.4574738 -0.46528351 -1.8372997 4288085770
0.15429688 -0.66307271 -1.8407069 4288085770
-1.3353424 -0.44958067 -1.83558 4288085770
0.35449219 -0.65054548 -1.8419253 4288085770
-1.193161 -0.4359175 -1.8365911 4288085770
0.54760742 -0.63601243 -1.8392345 4288085770
-1.0399628 -0.42327499 -1.8394541 4288085770
0.76979065 -0.6235379 -1.840151 4288085770
-0.89984131 -0.40761781 -1.8364874 4288085770
0.97789001 -0.60804653 -1.8352522 4288085770
-0.72964478 -0.39501631 -1.8391172 4288085770
1.1919708 -0.5925746 -1.828271 4288085770
-0.5554657 -0.38242674 -1.8406919 4288085770
1.4511414 -0.58118856 -1.8286825 4288085770
-0.3963623 -0.36681783 -1.8364648 4288085770
1.7292938 -0.56885087 -1.8278307 4288085770
-0.18209839 -0.35630763 -1.8434957 4288085770
2.0154266 -0.55553758 -1.8248669 4288085770
-0.018066406 -0.33872461 -1.8341953 4288085770
2.3385925 -0.54530203 -1.8254033 4288085770
0.20111084 -0.32624018 -1.8361527 4288085770
2.6737518 -0.53410351 -1.8227726 4288085770
0.42932129 -0.31377733 -1.8379868 4288085770
3.0118408 -0.51992035 -1.817093 4288085770
0.6414032 -0.298298 -1.8320328 4288085770
3.358902 -0.50576711 -1.8082899 4288085770
0.88456726 -0.2838794 -1.8306559 4288085770
3.7509918 -0.49271309 -1.8018721 4288085770
1.1356659 -0.26948798 -1.8261696 4288085770
4.1830902 -0.48075497 -1.7949086 4288085770
1.4128113 -0.25615084 -1.8243293 4288085770
4.7183075 -0.47401011 -1.7985443 4288085770
1.6929016 -0.24083173 -1.8184425 4288085770
5.2774658 -0.46533692 -1.7968463 4288085770
2.0220795 -0.2286104 -1.8188909 4288085770
5.8946533 -0.45779657 -1.7963547 4288085770
2.3522034 -0.2144053 -1.8143209 4288085770
6.4736633 -0.44420421 -1.7823697 4288085770
2.7303619 -0.20030713 -1.8120922 4288085770
7.1907959 -0.43491447 -1.7765018 4288085770
3.1094666 -0.18621945 -1.8068501 4288085770
7.9618988 -0.42575693 -1.7688931 4288085770
3.493515 -0.17015755 -1.7965347 4288085770
8.8820496 -0.41994154 -1.7642483 4288085770
3.9526672 -0.1562531 -1.7931949 4288085770
9.9542847 -0.41746879 -1.7655257 4288085770
4.4638062 -0.14346755 -1.7911447 4288085770
11.046356 -0.40908194 -1.7525142 4288085770
5.0349884 -0.12982583 -1.7882684 4288085770
12.357468 -0.4052 -1.7435092 4288085770
5.6611633 -0.11631024 -1.7866379 4288085770
6.2872162 -0.10081947 -1.7760028 4288085770
6.9902954 -0.084509969 -1.7653085 4288085770
7.8234253 -0.070495248 -1.7588364 4288085770
8.8447113 -0.057899952 -1.7607869 4288085770
9.9549255 -0.043526411 -1.7585119 4288085770
11.247177 -0.028580308 -1.7567371 4288085770
12.253906 0.28780615 -1.7382535 4288085770
10.764954 0.29731309 -1.74338 4288085770
9.4950256 0.30729926 -1.7465402 4288085770
8.3049927 0.31707573 -1.742618 4288085770
7.3511047 0.32632589 -1.747502 4288085770
6.5653381 0.33620572 -1.7601091 4288085770
5.8014679 0.34601092 -1.7654186 4288085770
5.0985413 0.35665464 -1.7649001 4288085770
11.105881 0.39647055 -1.7375091 4288085770
4.4996948 0.36707497 -1.7709736 4288085770
9.7558899 0.4106319 -1.7367347 4288085770
3.9568634 0.3773613 -1.7762901 4288085770
8.5498505 0.42444587 -1.7330118 4288085770
3.4119263 0.38763094 -1.774633 4288085770
7.5920105 0.43770838 -1.7389337 4288085770
2.9480286 0.39772177 -1.7768804 4288085770
6.811264 0.45157909 -1.7524577 4288085770
2.5312042 0.40871048 -1.7814883 4288085770
6.0503998 0.46537709 -1.7577118 4288085770
2.1563873 0.41960454 -1.7875277 4288085770
5.3575134 0.47800493 -1.7610446 4288085770
1.808548 0.43042684 -1.7921978 4288085770
4.7416382 0.49045205 -1.7633413 4288085770
1.4887238 0.44118857 -1.7974943 4288085770
4.1607208 0.50281262 -1.7641648 4288085770
1.1768799 0.45192575 -1.8006819 4288085770
3.6438446 0.51502633 -1.766122 4288085770
0.90808105 0.46257234 -1.8072881 4288085770
3.167984 0.52814507 -1.7685212 4288085770
0.65328979 0.47418523 -1.8137013 4288085770
2.7561646 0.54012346 -1.7740575 4288085770
0.37034607 0.48483372 -1.8104967 4288085770
2.353302 0.5530684 -1.7754692 4288085770
0.13752747 0.4963882 -1.8146123 4288085770
2.0074768 0.56589246 -1.7811095 4288085770
-0.095352173 0.50692987 -1.814731 4288085770
1.6946869 0.57864428 -1.7883033 4288085770
-0.33930969 0.51848197 -1.8099953 4288085770
1.3898621 0.59137058 -1.793389 4288085770
-0.54518127 0.52896237 -1.8107485 4288085770
1.1120605 0.60403538 -1.7991091 4288085770
-0.73805237 0.54041147 -1.8113226 4288085770
0.83920288 0.61667585 -1.8007618 4288085770
-0.9319458 0.55185676 -1.8099102 4288085770
0.59439087 0.6302619 -1.8060323 4288085770
-1.1108551 0.56226659 -1.8082982 4288085770
0.35354614 0.64282918 -1.8082517 4288085770
-1.2897644 0.57367277 -1.8056828 4288085770
0.10362244 0.65440202 -1.8055962 4288085770
-1.4175262 0.5859952 -1.8143739 4288085770
-0.095199585 0.66787791 -1.8102447 4288085770
-1.5944977 0.59637809 -1.8057345 4288085770
-0.30708313 0.67936635 -1.809075 4288085770
-1.7263489 0.60869098 -1.8084799 4288085770
-0.52905273 0.69086266 -1.8030409 4288085770
-1.8662415 0.62001014 -1.8073367 4288085770
-0.69184875 0.7042563 -1.8082017 4288085770
-1.999115 0.63131309 -1.8060986 4288085770
-0.87275696 0.71667051 -1.8066095 4288085770
-2.1360626 0.64161611 -1.8019181 4288085770
-1.035614 0.72904825 -1.8067735 4288085770
-2.2559509 0.65288782 -1.8005038 4288085770
-1.2186127 0.73944831 -1.7992152 4288085770
-2.3698273 0.66514826 -1.8000058 4288085770
-1.3363495 0.75475001 -1.8087608 4288085770
-1.4721832 0.76706934 -1.8105596 4288085770
-1.6040649 0.7803731 -1.8103014 4288085770
-1.7540131 0.7917006 -1.8042928 4288085770
-1.8829193 0.80399036 -1.8019971 4288085770
-1.991745 0.81724882 -1.8044275 4288085770
-2.1096497 0.8295126 -1.8019828 4288085770
-2.229599 0.84177446 -1.7975651 4288085770
-2.3384857 0.85401392 -1.7939986 4288085770
-2.4494476 0.86525106 -1.7884628 4288085770
-2.3761597 3.0294354 -1.7246429 4288085770
-2.2599182 3.0811594 -1.724913 4288085770
-2.140686 3.1328719 -1.7241436 4288085770
-2.0144196 3.1875718 -1.7242697 4288085770
-1.8590546 3.2532241 -1.7309698 4288085770
-1.7288208 3.3059075 -1.7290493 4288085770
-1.5825653 3.3655593 -1.7288908 4288085770
-1.4383392 3.4212091 -1.7267727 4288085770
-1.2901306 3.4778464 -1.7235981 4288085770
-2.3482666 2.9983323 -1.7263712 4288085770
-1.1278534 3.5394599 -1.7232183 4288085770
-2.2159729 3.0460298 -1.7304393 4288085770
-0.95355225 3.6040475 -1.7236677 4288085770
-2.0937805 3.0877321 -1.7286624 4288085770
-0.77931213 3.6676252 -1.7211212 4288085770
-1.9685974 3.1284249 -1.7258486 4288085770
-0.60308838 3.7291958 -1.717554 4288085770
-1.8243256 3.1760881 -1.7277561 4288085770
-0.38671875 3.8076956 -1.7213937 4288085770
-1.6660156 3.2297237 -1.7314564 4288085770
-0.15934753 3.8891699 -1.7250761 4288085770
-1.5147705 3.2773669 -1.7322701 4288085770
0.077026367 3.9716227 -1.7286342 4288085770
-1.3715973 3.3190157 -1.7292119 4288085770
0.32139587 4.0550489 -1.7300822 4288085770
-1.1993103 3.3726151 -1.7317244 4288085770
0.57374573 4.1394567 -1.7314199 4288085770
-1.039093 3.418227 -1.7294248 4288085770
0.81401062 4.2148743 -1.7269486 4288085770
-0.86886597 3.4658177 -1.7279843 4288085770
1.0542297 4.2872849 -1.7204877 4288085770
-0.67657471 3.5213702 -1.7302219 4288085770
1.2913666 4.3546896 -1.7100838 4288085770
-0.48432922 3.5739148 -1.7304701 4288085770
1.5656433 4.4360256 -1.7051371 4288085770
-0.29612732 3.6214592 -1.7277886 4288085770
1.8940582 4.5372581 -1.7073995 4288085770
-0.066772461 3.6859319 -1.7325002 4288085770
2.1932983 4.6205273 -1.700111 4288085770
0.1595459 3.745405 -1.7352692 4288085770
2.5717621 4.7346468 -1.7036604 4288085770
0.3637085 3.7919047 -1.7303766 4288085770
3.0174103 4.8736343 -1.7152272 4288085770
0.59700012 3.8483551 -1.7310621 4288085770
3.4769897 5.0125751 -1.7226073 4288085770
0.82620239 3.8997986 -1.7268182 4288085770
3.8903961 5.1255951 -1.7206913 4288085770
1.043335 3.9432614 -1.7197617 4288085770
4.2615814 5.2156792 -1.7084154 4288085770
1.2724915 3.9876993 -1.7135414 4288085770
4.6397552 5.3057413 -1.6940466 4288085770
1.52771 4.0400839 -1.7099456 4288085770
5.1101379 5.4256182 -1.6893436 4288085770
1.8019257 4.0954256 -1.7070853 4288085770
5.6486206 5.5653477 -1.6886624 4288085770
2.0811768 4.1497564 -1.7041613 4288085770
6.2090759 5.7070198 -1.6856803 4288085770
2.4275665 4.2259579 -1.7102653 4288085770
6.7855072 5.8486443 -1.6804842 4288085770
2.7689056 4.2961597 -1.7124571 4288085770
7.4260254 6.0051298 -1.6783801 4288085770
3.1172485 4.3643417 -1.7135614 4288085770
8.1466522 6.1854382 -1.6791242 4288085770
3.4524841 4.4225378 -1.7098743 4288085770
8.8822021 6.3586979 -1.6756912 4288085770
3.7826691 4.4737396 -1.7042776 4288085770
9.6407166 6.5318947 -1.6699504 4288085770
4.1599426 4.5368423 -1.7020108 4288085770
10.557465 6.7497463 -1.6719419 4288085770
4.5191193 4.5899754 -1.6960191 4288085770
11.455078 6.9506178 -1.6662453 4288085770
4.9043427 4.6450491 -1.6906723 4288085770
12.321472 7.1275301 -1.6510457 4288085770
5.3727264 4.7249565 -1.6941296 4288085770
5.8711395 4.8067989 -1.6991779 4288085770
6.3364258 4.872694 -1.6967226 4288085770
6.8688354 4.9524508 -1.7003225 4288085770
7.3159637 4.9983673 -1.6911761 4288085770
7.8382111 5.0601234 -1.6869713 4288085770
8.3834839 5.1218281 -1.6834584 4288085770
8.9457092 5.181488 -1.6787246 4288085770
9.5530243 5.2470503 -1.6763679 4288085770
10.224365 5.3194695 -1.6761307 4288085770
10.937698 5.3937912 -1.6763242 4288085770
11.641998 5.4571257 -1.6736749 4288085770
12.225006 5.4786987 -1.6577891 4288085770
12.431274 -4.3651056 -1.7140881 4293729569
11.733475 -4.3274584 -1.7183079 4293729569
11.173767 -4.3141012 -1.7327615 4293729569
10.494949 -4.2645054 -1.734686 4293729569
9.9262085 -4.2331467 -1.7431992 4293729569
9.4054871 -4.2078896 -1.7550896 4288085770
8.9167786 -4.1837058 -1.7675554 4288085770
8.4711151 -4.1646113 -1.7834622 4288085770
8.0133972 -4.1375017 -1.7955023 4288085770
7.5947418 -4.1154718 -1.8110377 4288085770
7.1760406 -4.0854554 -1.8225461 4288085770
6.7633362 -4.0524535 -1.8339635 4288085770
12.368713 -5.8353748 -1.6139365 4293729569
6.3466187 -4.0124483 -1.8434108 4288085770
11.430267 -5.6611443 -1.6229163 4293729569
5.9048767 -3.9584064 -1.8461453 4288085770
10.631836 -5.5212231 -1.6381377 4293729569
5.4791107 -3.9043994 -1.8496653 4288085770
9.8503723 -5.3753576 -1.648111 4293729569
5.0873718 -3.8554668 -1.8547474 4288085770
9.0778503 -5.2225275 -1.6539403 4293729569
4.6906128 -3.7995327 -1.8568724 4288085770
6.1329498 -4.3173342 -1.4352807 4293729569
4.3368683 -3.7516882 -1.862449 4288085770
6.0906982 -4.384038 -1.4960817 4293729569
3.9761353 -3.6978374 -1.8650991 4288085770
6.2005768 -4.5030441 -1.574025 4293729569
3.6614075 -3.6550789 -1.8721706 4288085770
6.0312805 -4.5224876 -1.623366 4293729569
3.3066254 -3.5952518 -1.8717197 4288085770
5.977066 -4.5821609 -1.6853033 4293729569
2.9548035 -3.528445 -1.867205 4288085770
5.5105133 -4.4850326 -1.6962246 4293729569
2.6911316 -3.4917958 -1.8776144 4288085770
5.0709686 -4.3939691 -1.7068046 4293729569
2.399353 -3.4401059 -1.8803471 4288085770
4.6133423 -4.2888823 -1.711578 4293729569
2.0835266 -3.3753853 -1.8753575 4288085770
4.2087555 -4.1999063 -1.7206961 4293729569
1.7897491 -3.3147039 -1.8740865 4288085770
3.7710876 -4.091877 -1.7221917 4293729569
1.4859009 -3.2470186 -1.8669258 4288085770
3.4235077 -4.0150304 -1.7325879 4293729569
1.2241211 -3.1924071 -1.867247 4288085770
3.0738831 -3.9321859 -1.7409908 4293729569
0.96929932 -3.1368194 -1.8654708 4288085770
2.8654022 -3.901612 -1.7676834 4293729569
0.75056458 -3.0912976 -1.8692471 4288085770
2.7160034 -3.8931499 -1.8026613 4293729569
0.51676941 -3.0377533 -1.869197 4288085770
2.5846252 -3.8887169 -1.8414119 4288085770
0.28295898 -2.9812188 -1.8661367 4288085770
2.3781128 -3.8511579 -1.865054 4288085770
0.054138184 -2.9236999 -1.8620056 4288085770
2.1014862 -3.781481 -1.874524 4288085770
-0.11157227 -2.8902884 -1.8701133 4288085770
1.8098145 -3.700788 -1.8781575 4288085770
-0.31738281 -2.8368177 -1.8676885 4288085770
1.5040894 -3.6090848 -1.8749408 4288085770
-0.51118469 -2.7853723 -1.8661095 4288085770
1.2203522 -3.5244279 -1.8734537 4288085770
-0.69099426 -2.7379537 -1.866357 4288085770
0.96766663 -3.4498281 -1.8765856 4288085770
-0.87980652 -2.6845269 -1.8627042 4288085770
0.70188904 -3.3662205 -1.8728613 4288085770
-1.0395966 -2.6411533 -1.8636976 4288085770
0.43811035 -3.2806239 -1.8671027 4288085770
-1.2104034 -2.5907626 -1.8618139 4288085770
0.1963501 -3.2010708 -1.8640708 4288085770
-1.3782501 -2.5403862 -1.8578907 4288085770
-0.012359619 -3.1345763 -1.8666409 4288085770
-1.5350647 -2.4920328 -1.8548266 4288085770
-0.19805908 -3.0761268 -1.8719307 4288085770
-1.6768494 -2.4497018 -1.8555824 4288085770
-0.40582275 -3.0056515 -1.8694738 4288085770
-1.8237 -2.4023724 -1.852388 4288085770
-0.60160828 -2.9372046 -1.8668638 4288085770
-1.9484558 -2.3630755 -1.8549262 4288085770
-0.78938293 -2.8697739 -1.8651496 4288085770
-2.0963287 -2.3117566 -1.8477317 4288085770
-0.95812988 -2.8103814 -1.8652085 4288085770
-2.2121124 -2.2744813 -1.8501562 4288085770
-1.1349182 -2.7449803 -1.8623542 4288085770
-2.3459625 -2.2251897 -1.8447813 4288085770
-1.2967072 -2.6836116 -1.8603128 4288085770
-2.4527435 -2.1889358 -1.8470887 4288085770
-1.4404602 -2.6302726 -1.8620573 4288085770
-1.5932312 -2.5709255 -1.859902 4288085770
-1.7420502 -2.5105941 -1.8556901 4288085770
-1.8748322 -2.4572883 -1.8552879 4288085770
-2.0046387 -2.403996 -1.8528455 4288085770
-2.1344604 -2.3487072 -1.8493963 4288085770
-2.2502289 -2.2984419 -1.8487767 4288085770
-2.368042 -2.2471788 -1.8461808 4288085770
-2.203949 -0.063141823 -1.8149873 4288085770
-2.0968018 -0.050401211 -1.8145257 4288085770
-1.9896851 -0.037663937 -1.8130645 4288085770
-1.87854 -0.025936365 -1.8115538 4288085770
-1.7493744 -0.014237761 -1.8138045 4288085770
-1.6242371 -0.0015404224 -1.813105 4288085770
-1.470993 0.0091103315 -1.8180407 4288085770
-1.3388824 0.021784186 -1.8152488 4288085770
-1.1857452 0.033421159 -1.8161827 4288085770
-2.2286682 0.10984743 -1.80975 4288085770
-1.0115204 0.04401052 -1.8198367 4288085770
-2.0914459 0.12053668 -1.8148974 4288085770
-0.84135437 0.055607438 -1.8205448 4288085770
-1.9713287 0.13124347 -1.8132709 4288085770
-0.67324829 0.067198753 -1.8182799 4288085770
-1.8461761 0.14194143 -1.8125783 4288085770
-0.50010681 0.079778314 -1.8159453 4288085770
-1.7110443 0.15261543 -1.8117532 4288085770
-0.28489685 0.090280414 -1.8200608 4288085770
-1.546814 0.16224706 -1.8185469 4288085770
-0.074752808 0.10178125 -1.8202399 4288085770
-1.3986664 0.17288983 -1.8175496 4288085770
0.1434021 0.11325622 -1.8183135 4288085770
-1.2344971 0.18350089 -1.8183407 4288085770
0.3835907 0.12469149 -1.8200949 4288085770
-1.0663605 0.19309926 -1.8180827 4288085770
0.64576721 0.13507438 -1.8215894 4288085770
-0.87414551 0.20265687 -1.8225063 4288085770
0.89486694 0.1464678 -1.8172535 4288085770
-0.68196106 0.21320403 -1.8239273 4288085770
1.148941 0.1588428 -1.8108484 4288085770
-0.48582458 0.22273564 -1.8232988 4288085770
1.4450531 0.1691308 -1.8078934 4288085770
-0.28671265 0.23325276 -1.8206276 4288085770
1.752182 0.18038857 -1.80379 4288085770
-0.060546875 0.24271512 -1.8206023 4288085770
2.0732574 0.19260621 -1.7974983 4288085770
0.18162537 0.25214577 -1.8223654 4288085770
2.4403992 0.20372343 -1.7936014 4288085770
0.41873169 0.26156855 -1.8181957 4288085770
2.8174744 0.21381354 -1.7885758 4288085770
0.68086243 0.27094102 -1.8166949 4288085770
3.2315826 0.22481108 -1.7820574 4288085770
0.95095825 0.28028417 -1.8120886 4288085770
3.7167511 0.23565888 -1.780599 4288085770
1.2510986 0.28956938 -1.8110851 4288085770
4.2458954 0.24640071 -1.7785589 4288085770
1.555191 0.29882777 -1.8050295 4288085770
4.8040161 0.2560662 -1.7741388 4288085770
1.8812866 0.30704033 -1.8006865 4288085770
5.4281616 0.26757729 -1.7698392 4288085770
2.2323608 0.31518579 -1.7940129 4288085770
6.1172943 0.27693522 -1.7656864 4288085770
2.6074677 0.32328057 -1.7890216 4288085770
6.8634338 0.28715336 -1.7597769 4288085770
3.0245667 0.33027482 -1.7834789 4288085770
7.703537 0.29714227 -1.7516245 4288085770
3.498703 0.33814859 -1.7821785 4288085770
8.6867065 0.30680835 -1.7475795 4288085770
4.0108643 0.34492826 -1.7793788 4288085770
9.8358917 0.31508636 -1.7443422 4288085770
4.6010437 0.35253453 -1.7795438 4288085770
11.168121 0.32493496 -1.7416776 4288085770
5.2171478 0.35806084 -1.7743727 4288085770
5.8872681 0.36445808 -1.7684847 4288085770
6.6724091 0.36959624 -1.7660788 4288085770
7.4645081 0.37469387 -1.7565817 4288085770
8.4286346 0.37840271 -1.7518128 4288085770
9.5918732 0.3816607 -1.7524115 4288085770
10.918091 0.38353467 -1.7528588 4288085770
12.424301 0.3839705 -1.7489301 4288085770
12.354889 0.68848252 -1.7429308 4288085770
10.922928 0.7107923 -1.7424618 4288085770
9.6699524 0.73168254 -1.740671 4288085770
8.555954 0.75124073 -1.7360784 4288085770
7.6711273 0.77230883 -1.7425028 4288085770
6.9363861 0.79305148 -1.7549785 4288085770
6.2125244 0.81273866 -1.7593154 4288085770
5.5476379 0.83027625 -1.7598928 4288085770
12.186508 1.1257849 -1.7255696 4288085770
4.9187012 0.84571719 -1.7570101 4288085770
10.822495 1.1309335 -1.7242757 4288085770
4.39888 0.8639338 -1.7617003 4288085770
9.5914459 1.1357572 -1.7182547 4288085770
3.8959808 0.88009882 -1.763177 4288085770
8.5714874 1.1431108 -1.717482 4288085770
3.4721985 0.89809942 -1.7696196 4288085770
7.7226257 1.1540933 -1.7234732 4288085770
3.0482941 0.91407394 -1.7690703 4288085770
6.987793 1.1668139 -1.7299763 4288085770
2.6754608 0.92994714 -1.7728575 4288085770
6.2948914 1.1774244 -1.7329415 4288085770
2.3246002 0.94576049 -1.7743596 4288085770
5.6940765 1.1908357 -1.7397002 4288085770
2.010788 0.962497 -1.7783772 4288085770
5.1051483 1.2001896 -1.7383186 4288085770
1.7259827 0.98017645 -1.785014 4288085770
4.6093292 1.2143567 -1.7447096 4288085770
1.4501648 0.99682355 -1.7885376 4288085770
4.1284637 1.2264731 -1.746914 4288085770
1.19133 1.0134304 -1.7918407 4288085770
3.7406921 1.2423997 -1.7558953 4288085770
0.96356201 1.0299752 -1.7977406 4288085770
3.3518524 1.2563095 -1.7598966 4288085770
0.75679016 1.0484772 -1.8053604 4288085770
3.0070496 1.2711267 -1.7663234 4288085770
0.54093933 1.0639825 -1.8081084 4288085770
2.6561737 1.2839365 -1.7668353 4288085770
0.31903076 1.0784833 -1.8059381 4288085770
2.323288 1.2957001 -1.766117 4288085770
0.13221741 1.0949242 -1.8093055 4288085770
2.0324402 1.3103828 -1.7698423 4288085770
-0.050628662 1.1113515 -1.8116215 4288085770
1.7746277 1.3259943 -1.7751352 4288085770
-0.22645569 1.1267624 -1.8138496 4288085770
1.5478821 1.3445439 -1.7830139 4288085770
-0.39730835 1.1421542 -1.8140126 4288085770
1.3160553 1.3600905 -1.7869693 4288085770
-0.57626343 1.1555464 -1.8092877 4288085770
1.0852051 1.3746274 -1.788915 4288085770
-0.72610474 1.1718915 -1.8101746 4288085770
0.87136841 1.3901246 -1.7906362 4288085770
-0.88299561 1.18524 -1.8071634 4288085770
0.65748596 1.4036102 -1.7893652 4288085770
-1.0258789 1.2005613 -1.8059634 4288085770
0.44355774 1.4150891 -1.7861012 4288085770
-1.1557312 1.2158599 -1.8065938 4288085770
0.27774048 1.4324832 -1.7901918 4288085770
-1.2876282 1.2311556 -1.8052503 4288085770
0.090835571 1.4459019 -1.7875699 4288085770
-1.4054718 1.2474253 -1.8057214 4288085770
-0.073013306 1.4612803 -1.788642 4288085770
-1.5323944 1.2606986 -1.8013207 4288085770
-0.21180725 1.4796143 -1.7933778 4288085770
-1.6533051 1.2739611 -1.7978419 4288085770
-0.38677979 1.4909899 -1.7866076 4288085770
-1.7380981 1.2931709 -1.8028733 4288085770
-0.53565979 1.5053225 -1.7844886 4288085770
-1.852005 1.3074136 -1.7982994 4288085770
-0.67454529 1.5206382 -1.7842358 4288085770
-1.9348145 1.3256156 -1.8023087 4288085770
-0.7973938 1.53792 -1.7847675 4288085770
-2.0477905 1.3378441 -1.7947296 4288085770
-0.90821838 1.5551808 -1.7871436 4288085770
-2.1346588 1.3540378 -1.7937981 4288085770
-1.0431671 1.5684688 -1.7818469 4288085770
-2.2094727 1.3722167 -1.7967027 4288085770
-1.15802 1.5847247 -1.7802781 4288085770
-2.3013763 1.3864112 -1.7928435 4288085770
-1.272934 1.5999761 -1.7777139 4288085770
-2.3832703 1.4025853 -1.789847 4288085770
-1.3597412 1.6201839 -1.7807671 4288085770
-2.460144 1.4187543 -1.7887853 4288085770
-1.4546051 1.6373961 -1.7799352 4288085770
-1.5514832 1.6536088 -1.7781335 4288085770
-1.6544189 1.666822 -1.7724205 4288085770
-1.725235 1.6879914 -1.7752622 4288085770
-1.8151398 1.704181 -1.7713696 4288085770
-1.8879852 1.7233441 -1.7712446 4288085770
-1.9598541 1.741502 -1.7701105 4288085770
-2.0287018 1.7606528 -1.7689337 4288085770
-2.0915527 1.7807963 -1.7696756 4288085770
-2.1544189 1.7999327 -1.7684206 4288085770
-2.2192993 1.8190696 -1.7661921 4288085770
-2.2681122 1.8411806 -1.7667443 4288085770
-2.3300171 1.8593068 -1.7634803 4288085770
-2.3869171 1.878422 -1.7601479 4288085770
-2.4247131 1.9035137 -1.7625464 4288085770
-2.4103699 3.3021853 -1.7281929 4288085770
-2.3702393 3.3500645 -1.721495 4288085770
-2.2949219 3.4168966 -1.7242721 4288085770
-2.222641 3.4837291 -1.7250882 4288085770
-2.1563873 3.5445645 -1.7230047 4288085770
-2.0801239 3.6103795 -1.721773 4288085770
-1.9998627 3.6791894 -1.7214781 4288085770
-1.9095917 3.7529752 -1.7210356 4288085770
-1.8193054 3.8257582 -1.7195965 4288085770
-1.7280426 3.8985345 -1.7171444 4288085770
-1.6187134 3.9812791 -1.7174219 4288085770
-1.5063934 4.0650177 -1.7176572 4288085770
-1.388092 4.1517363 -1.7168037 4288085770
-1.2617645 4.2424383 -1.7158316 4288085770
-2.3931122 3.6200898 -1.7287832 4288085770
-1.1173553 4.3421116 -1.7185925 4288085770
-2.3028717 3.6828649 -1.7253817 4288085770
-0.97602844 4.4397783 -1.7174002 4288085770
-2.1905365 3.7596104 -1.7276424 4288085770
-0.77442932 4.5733538 -1.7292963 4288085770
-2.0943146 3.8243716 -1.7241555 4288085770
-0.53871155 4.7278709 -1.7466735 4288085770
-1.9730072 3.9030917 -1.7252928 4288085770
-0.32713318 4.8644133 -1.7554289 4288085770
-1.8677521 3.9698317 -1.721682 4288085770
-0.17288208 4.9630222 -1.7470652 4288085770
-1.7303925 4.0575218 -1.7245783 4288085770
0.21539307 5.2092848 -1.79013 4282675967
-1.5960693 4.1392078 -1.7245361 4288085770
0.36753845 5.3028765 -1.7758118 4282675967
-1.4577637 4.2228813 -1.723435 4288085770
0.60203552 5.4463387 -1.7772444 4282675967
-1.3134613 4.3085403 -1.7222484 4288085770
0.84750366 5.5947657 -1.7765163 4282675967
-1.1551056 4.4011698 -1.721855 4288085770
0.91419983 5.6274624 -1.7375275 4288085770
-0.95861816 4.5157433 -1.7298867 4288085770
1.0802765 5.7199965 -1.7160324 4288085770
-0.75010681 4.6352873 -1.7377447 4288085770
1.3175964 5.8554087 -1.7064575 4288085770
-0.4602356 4.8047113 -1.7633666 4288085770
1.5940247 6.0117455 -1.7002991 4288085770
-0.29301453 4.8922911 -1.754876 4288085770
1.9326324 6.2029686 -1.702207 4288085770
-0.084625244 5.0038013 -1.7537647 4288085770
2.3103333 6.4161081 -1.7055284 4288085770
0.32963562 5.2420073 -1.7975234 4282675967
2.70401 6.6342058 -1.7076246 4288085770
0.46058655 5.2986116 -1.7736155 4282675967
3.0765533 6.8343201 -1.7010602 4288085770
0.82852173 5.5008535 -1.7981056 4282675967
3.5092316 7.067317 -1.7005957 4288085770
0.90315247 5.5155268 -1.7580808 4288085770
3.9659119 7.3102522 -1.6977843 4288085770
1.0611267 5.5800724 -1.7347945 4288085770
4.4275513 7.5501595 -1.6909195 4288085770
1.2762909 5.677515 -1.7196463 4288085770
4.9623108 7.8289089 -1.6869646 4288085770
1.5265808 5.7918987 -1.7099818 4288085770
5.57724 8.1484957 -1.6888219 4288085770
1.8339996 5.9361773 -1.7074674 4288085770
2.1695099 6.0933971 -1.7065421 4288085770
2.5481415 6.2715349 -1.7099818 4288085770
2.9055786 6.4316874 -1.7047614 4288085770
3.34729 6.6366882 -1.7102855 4288085770
3.7668304 6.8217087 -1.7081698 4288085770
4.2104034 7.0146713 -1.7047139 4288085770
4.6659393 7.2075958 -1.6991035 4288085770
5.1474762 7.4084625 -1.693127 4288085770
5.6650696 7.6232452 -1.6876324 4288085770
6.2628326 7.8728666 -1.6879724 4288085770
6.9026031 8.1373844 -1.6867136 4288085770
12.852966 -2.0418401 -1.7791952 4288085770
12.158188 -2.0761609 -1.7982143 4288085770
11.513397 -2.1095953 -1.8175913 4288085770
10.629379 -2.1015892 -1.8108422 4288085770
9.7482758 -2.0826199 -1.7970077 4288085770
9.0223083 -2.0749614 -1.7942423 4288085770
8.3133087 -2.0613558 -1.7882346 4288085770
7.8325653 -2.0761862 -1.8034376 4288085770
7.3117065 -2.0769567 -1.8110913 4288085770
6.8338776 -2.0788238 -1.8192006 4288085770
6.3430328 -2.0716782 -1.8234369 4288085770
5.8761597 -2.0645885 -1.8273672 4288085770
12.157578 -3.2362332 -1.7952284 4288085770
5.4673767 -2.0616107 -1.8365747 4288085770
11.275925 -3.1771472 -1.8082312 4288085770
4.9884491 -2.0405269 -1.8325979 4288085770
10.362183 -3.0990326 -1.8105606 4288085770
4.5415192 -2.0205147 -1.8292173 4288085770
9.4944 -3.0210357 -1.8103036 4288085770
4.1837006 -2.0116661 -1.8357483 4288085770
8.7156219 -2.9502401 -1.8109416 4288085770
3.8248749 -1.9998276 -1.8392791 4288085770
7.9497986 -2.8744926 -1.807392 4288085770
3.4980621 -1.9890479 -1.8464059 4288085770
7.3190613 -2.8180208 -1.8122019 4288085770
3.1681976 -1.974282 -1.8485543 4288085770
6.7183075 -2.7606199 -1.816625 4288085770
2.8874512 -1.9665935 -1.8591067 4288085770
6.157547 -2.7063093 -1.8215512 4288085770
2.6226959 -1.9589471 -1.8684551 4288085770
5.6708374 -2.6621561 -1.8295759 4288085770
2.3198395 -1.9402452 -1.8702413 4288085770
5.2091217 -2.6190577 -1.8382858 4288085770
2.0119476 -1.9155529 -1.8670658 4288085770
4.7743835 -2.5750272 -1.8456477 4288085770
1.6749573 -1.8808265 -1.8562177 4288085770
4.35466 -2.5310366 -1.8518175 4288085770
1.3900604 -1.8541929 -1.85174 4288085770
3.967926 -2.4911151 -1.859584 4288085770
1.137207 -1.8336089 -1.8528796 4288085770
3.598175 -2.4502428 -1.8651296 4288085770
0.88835144 -1.8100431 -1.8519555 4288085770
3.2404327 -2.4083984 -1.8705174 4288085770
0.66149902 -1.7895209 -1.8527635 4288085770
2.8926544 -2.3645904 -1.8727692 4288085770
0.47073364 -1.7770535 -1.8601466 4288085770
2.5678864 -2.3238242 -1.8777407 4288085770
0.26287842 -1.755572 -1.861708 4288085770
2.2190247 -2.2730441 -1.8729755 4288085770
0.082092285 -1.7401369 -1.8669506 4288085770
1.8982086 -2.225317 -1.8708659 4288085770
-0.14483643 -1.7096488 -1.8597158 4288085770
1.5592957 -2.1695778 -1.8619517 4288085770
-0.34570312 -1.6851966 -1.8581752 4288085770
1.2414093 -2.1168795 -1.8547825 4288085770
-0.54360962 -1.6577641 -1.8535832 4288085770
0.96456909 -2.0722606 -1.8511244 4288085770
-0.70339966 -1.6403787 -1.858549 4288085770
0.71977234 -2.0346918 -1.8530883 4288085770
-0.90333557 -1.6089588 -1.8499659 4288085770
0.49598694 -1.9991682 -1.8557931 4288085770
-1.0651703 -1.5875857 -1.8509399 4288085770
0.28521729 -1.9666709 -1.8593446 4288085770
-1.2170105 -1.5652362 -1.8517827 4288085770
0.071395874 -1.9301794 -1.8599175 4288085770
-1.3568268 -1.5469066 -1.8544892 4288085770
-0.14143372 -1.890699 -1.8584648 4288085770
-1.5097046 -1.5215677 -1.8523318 4288085770
-0.34727478 -1.8532393 -1.8559314 4288085770
-1.6525726 -1.498248 -1.8510553 4288085770
-0.54312134 -1.8147991 -1.8542658 4288085770
-1.8134918 -1.4679159 -1.8429786 4288085770
-0.73298645 -1.7773771 -1.8515283 4288085770
-1.9323273 -1.4486359 -1.8454129 4288085770
-0.91381836 -1.7409765 -1.8486801 4288085770
-1.0705109 -1.7106166 -1.8505522 4288085770
-1.2313538 -1.6772546 -1.849461 4288085770
-1.3841705 -1.6449027 -1.8502721 4288085770
-1.5289917 -1.6135739 -1.8499857 4288085770
-1.6818695 -1.5782391 -1.846784 4288085770
-1.8186951 -1.5459336 -1.8453914 4288085770
-1.9545593 -1.5136392 -1.8419861 4288085770
-1.9330292 0.58666277 -1.8048109 4288085770
-1.8008881 0.6003561 -1.8050719 4288085770
-1.6828003 0.61205697 -1.7995199 4288085770
-1.522583 0.62570643 -1.8044246 4288085770
-1.3704224 0.63835764 -1.8054363 4288085770
-1.2162628 0.65099502 -1.8044223 4288085770
-1.0521393 0.66360974 -1.8032814 4288085770
-0.85090637 0.67717123 -1.8096658 4288085770
-1.9050293 0.65356731 -1.8051714 4288085770
-0.66876221 0.68974376 -1.8082963 4288085770
