# .PCD v0.7 - Point Cloud Data file format
VERSION 0.7
FIELDS x y z rgb
SIZE 4 4 4 4
TYPE F F F U
COUNT 1 1 1 1
WIDTH 1101
HEIGHT 1
VIEWPOINT 0 0 0 1 0 0 0
POINTS 1101
DATA ascii
2.0193214 4.9051261 -1.9049938 4288085770
-0.90093231 3.7891097 -1.857288 4288085770
2.0557251 5.0040035 -1.9074512 4288085770
-0.89062119 3.8560734 -1.8575722 4288085770
2.1251678 5.1187601 -1.9150312 4288085770
-0.85428238 3.934938 -1.8629507 4288085770
2.1976166 5.2355113 -1.9216247 4288085770
-0.83996582 4.0048938 -1.862254 4288085770
2.2600574 5.3483062 -1.9251842 4288085770
-0.79061127 4.089715 -1.8686796 4288085770
2.3615513 5.4799619 -1.9338894 4288085770
-0.74725342 4.1735668 -1.8720907 4288085770
2.4400253 5.6027112 -1.9365176 4288085770
-0.69989395 4.2594018 -1.8765168 4288085770
2.5575485 5.7443228 -1.9442911 4288085770
-0.63351059 4.3541718 -1.8830128 4288085770
2.6730785 5.8869481 -1.9500651 4288085770
-0.59314728 4.4380488 -1.8824185 4288085770
2.7986279 6.0355473 -1.9548808 4288085770
-0.51173782 4.5417738 -1.8889772 4288085770
2.9582214 6.2030282 -1.9638333 4288085770
-0.45134735 4.6365814 -1.8904625 4288085770
3.2159519 6.4211588 -1.986164 4288085770
-0.36291504 4.7472887 -1.8960614 4288085770
3.5337753 6.6740799 -2.0157411 4288085770
-0.29750443 4.8460898 -1.8955716 4288085770
3.8035507 6.9061861 -2.0351486 4282675967
-0.17502213 4.974678 -1.9053029 4288085770
4.0052547 7.1055555 -2.040303 4282675967
-0.055545807 5.1032834 -1.9130287 4288085770
4.2019558 7.3039484 -2.0434444 4288085770
0.0729599 5.2378616 -1.9207948 4282675967
4.3826523 7.4964128 -2.0405333 4288085770
0.18744659 5.3654976 -1.9245076 4282675967
4.6434727 7.7345991 -2.0469482 4288085770
0.36903763 5.5328913 -1.9384996 4282675967
5.0284786 8.043354 -2.0678675 4288085770
0.51158142 5.6794391 -1.9433382 4282675967
5.3924789 8.3462009 -2.0817251 4288085770
0.66314316 5.8319597 -1.9482166 4282675967
0.8367424 5.9984102 -1.9541901 4282675967
1.049408 6.1887174 -1.9663286 4282675967
1.3351898 6.4247637 -1.9887806 4282675967
1.6790733 6.6976056 -2.0184832 4282675967
2.0430031 6.9863873 -2.048285 4282675967
2.331831 7.2324648 -2.060782 4282675967
2.5635815 7.4437761 -2.0580373 4282675967
2.8053551 7.6620569 -2.0553379 4282675967
3.0962219 7.9131765 -2.0558574 4288085770
3.5193157 8.2488289 -2.0739505 4288085770
11.034815 -0.37649155 -1.8250378 4288085770
9.8078442 -0.40180874 -1.8229144 4288085770
8.6928978 -0.42045116 -1.8180029 4288085770
7.7789364 -0.43973017 -1.8214192 4288085770
6.885006 -0.45304441 -1.8188938 4288085770
6.0870819 -0.46265173 -1.8175415 4288085770
5.3791618 -0.47153378 -1.8173401 4288085770
4.7052479 -0.4775095 -1.8152072 4288085770
4.0683537 -0.47958517 -1.8101518 4288085770
10.234055 -0.93412971 -1.8233426 4288085770
3.5584259 -0.48608589 -1.816286 4288085770
9.0962219 -0.91073179 -1.8255712 4288085770
3.0345306 -0.48751688 -1.8154187 4288085770
8.1193619 -0.89384651 -1.8350372 4288085770
2.5586357 -0.48809242 -1.8146338 4288085770
7.2215137 -0.87418699 -1.8416444 4288085770
2.0807571 -0.48464966 -1.8108628 4288085770
6.2897224 -0.84436035 -1.8322393 4288085770
1.6668701 -0.48341179 -1.8101876 4288085770
5.4879055 -0.81994438 -1.8280247 4288085770
1.2819824 -0.48126888 -1.8115638 4288085770
4.7610855 -0.7967577 -1.8249283 4288085770
0.94608307 -0.48028469 -1.8160156 4288085770
4.0782757 -0.77168751 -1.817912 4288085770
0.58421707 -0.47418737 -1.8114465 4288085770
3.5454178 -0.75612402 -1.8251017 4288085770
0.28631973 -0.4723177 -1.8159647 4288085770
3.0565567 -0.74168921 -1.831359 4288085770
0.0014305115 -0.46848345 -1.8195122 4288085770
2.5657139 -0.72323275 -1.8336302 4288085770
-0.28643799 -0.46261978 -1.8180639 4288085770
2.0968857 -0.70282078 -1.8309456 4288085770
-0.52433777 -0.45993996 -1.8246837 4288085770
1.639061 -0.68143511 -1.8262838 4288085770
-0.76721573 -0.45423174 -1.8283085 4288085770
1.2412262 -0.6632452 -1.8257066 4288085770
-0.99409866 -0.44857216 -1.831959 4288085770
0.84240341 -0.64203215 -1.8201407 4288085770
-1.2319679 -0.44085932 -1.8306005 4288085770
0.51255417 -0.62605906 -1.8226659 4288085770
-1.4638252 -0.43115091 -1.8262606 4288085770
0.20569611 -0.61015892 -1.8262287 4288085770
-1.6507072 -0.42461967 -1.8319807 4288085770
-0.10713959 -0.59221697 -1.8237904 4288085770
-1.8405876 -0.41806698 -1.8346959 4288085770
-0.36899567 -0.577456 -1.828422 4288085770
-2.0384445 -0.40747023 -1.8324153 4288085770
-0.61985397 -0.56372786 -1.8330674 4288085770
-2.2402916 -0.39584064 -1.8251328 4288085770
-0.87669373 -0.54695845 -1.8317159 4288085770
-2.4131546 -0.38632774 -1.8248888 4288085770
-1.1295242 -0.52819633 -1.8293796 4288085770
-2.5800133 -0.3758316 -1.8246586 4288085770
-1.3293915 -0.51562643 -1.8351036 4288085770
-2.7308846 -0.36739254 -1.8264461 4288085770
-1.5752068 -0.49486446 -1.8277875 4288085770
-2.8867416 -0.35592222 -1.8242382 4288085770
-1.7620659 -0.48132515 -1.8315372 4288085770
-3.0116196 -0.34857655 -1.8300636 4288085770
-1.9549103 -0.46575594 -1.8322858 4288085770
-3.1444855 -0.33918762 -1.8308846 4288085770
-2.1487503 -0.44816732 -1.8290414 4288085770
-3.2623596 -0.33085918 -1.8357257 4288085770
-2.3515701 -0.42853498 -1.8217911 4288085770
-3.3942146 -0.31946468 -1.8345571 4288085770
-2.5274048 -0.41199636 -1.817572 4288085770
-2.6622734 -0.39962912 -1.825402 4288085770
-2.8101234 -0.38519526 -1.8262197 4288085770
-2.9559669 -0.36975908 -1.825045 4288085770
-3.0958138 -0.35434008 -1.8238801 4288085770
-3.2136726 -0.341012 -1.8287423 4288085770
-3.3355255 -0.32665634 -1.8296022 4288085770
-3.3292503 1.5886464 -1.8341054 4288085770
-3.2190933 1.6033335 -1.8293258 4288085770
-3.080925 1.6229062 -1.8316118 4288085770
-2.9427681 1.6414833 -1.8328934 4288085770
-2.8176003 1.6561244 -1.8281391 4288085770
-2.669445 1.6736755 -1.8284311 4288085770
-2.5162773 1.6922159 -1.8277346 4288085770
-3.3986855 1.542814 -1.8357908 4288085770
-2.3571167 1.709739 -1.8270426 4288085770
-3.2885437 1.5524912 -1.8329934 4288085770
-2.1909485 1.7282367 -1.827365 4288085770
-3.1473999 1.5660515 -1.8362585 4288085770
-2.0157852 1.7467113 -1.8267006 4288085770
-3.0352554 1.5737395 -1.8294556 4288085770
-1.8486252 1.7622268 -1.8220116 4288085770
-2.8821144 1.5882556 -1.8347423 4288085770
-1.6494598 1.7816217 -1.8233864 4288085770
-2.7349701 1.5998099 -1.8350077 4288085770
-1.4462891 1.8010087 -1.8237669 4288085770
-2.5828285 1.6113455 -1.8362801 4288085770
-1.2321243 1.8193629 -1.8241594 4288085770
-2.4626923 1.6150219 -1.8264718 4288085770
-1.0139618 1.8377135 -1.8225576 4288085770
-2.2925453 1.6275039 -1.8277748 4288085770
-0.74878311 1.8628905 -1.8290539 4288085770
-2.1124077 1.6389475 -1.8310881 4288085770
-0.51961899 1.8792202 -1.8244594 4288085770
-1.9492798 1.646471 -1.8273594 4288085770
-0.2604599 1.8974404 -1.8249176 4288085770
-1.7641373 1.656908 -1.8286756 4288085770
0.017719269 1.9186075 -1.8244157 4288085770
-1.5610046 1.6672873 -1.8310182 4288085770
0.30288315 1.9367578 -1.8229113 4288085770
-1.3578644 1.6766746 -1.8313562 4288085770
0.60305023 1.9548674 -1.8204287 4288085770
-1.133728 1.6869867 -1.8347293 4288085770
0.91721725 1.9739354 -1.8179706 4288085770
-0.94860077 1.689461 -1.8270112 4288085770
1.2833977 1.9968271 -1.8206055 4288085770
-0.70446777 1.6987178 -1.8294091 4288085770
1.640564 2.0157664 -1.81821 4288085770
-0.50034332 1.7001355 -1.8217145 4288085770
2.0387383 2.0365751 -1.8178828 4288085770
-0.25020981 1.7053866 -1.8211042 4288085770
2.4749165 2.059262 -1.8196193 4288085770
0.014911652 1.7105889 -1.8215154 4288085770
2.9220886 2.0789323 -1.8173593 4288085770
0.29003525 1.7147694 -1.819937 4288085770
3.4272709 2.104409 -1.8202087 4288085770
0.57915878 1.7189045 -1.8193789 4288085770
3.9844532 2.12973 -1.8231342 4288085770
0.87927628 1.7200143 -1.8168241 4288085770
4.5486336 2.1520429 -1.8230567 4288085770
1.203392 1.7220488 -1.8153085 4288085770
5.1808167 2.1771479 -1.8240911 4288085770
1.5425072 1.7220383 -1.8138061 4288085770
5.9100132 2.2079427 -1.8302921 4288085770
1.92062 1.7238989 -1.8153689 4288085770
6.7022076 2.2385492 -1.8365846 4288085770
2.314724 1.7227209 -1.8149426 4288085770
7.5533981 2.2679882 -1.8409592 4288085770
2.7238255 1.719497 -1.8145292 4288085770
8.4475918 2.2943192 -1.8403831 4288085770
3.1649246 1.7151821 -1.8131583 4288085770
9.4447842 2.3213382 -1.8409611 4288085770
3.682024 1.7146075 -1.8199147 4288085770
10.582985 2.3519235 -1.8447613 4288085770
4.2121162 1.7090099 -1.8226689 4288085770
4.7742023 1.7013216 -1.8244609 4288085770
5.3782787 1.691503 -1.8273056 4288085770
6.0553532 1.6814585 -1.8322563 4288085770
6.7784176 1.6672771 -1.8372569 4288085770
7.5884743 1.6518271 -1.8443799 4288085770
8.3765144 1.6274765 -1.8434323 4288085770
9.2885437 1.6007385 -1.8466567 4288085770
10.234554 1.566916 -1.8459005 4288085770
11.265553 1.526844 -1.8442426 4288085770
-1.43787 -4.2773623 -0.029050436 4293729569
-1.4414215 -4.2841086 -0.45301926 4293729569
-1.4648552 -4.2904439 -0.066954002 4293729569
-1.4564438 -4.3092303 -0.49188972 4293729569
-1.4898415 -4.3045354 -0.10585622 4293729569
-1.4854317 -4.3223109 -0.53079051 4293729569
-1.5008545 -4.3256726 -0.14574878 4293729569
-1.5054245 -4.339417 -0.56968725 4293729569
-1.5278282 -4.3347592 -0.18466902 4293729569
-1.5164375 -4.3615575 -0.61057562 4293729569
-1.5168762 -4.3679652 -0.22554222 4293729569
-1.5314369 -4.3786826 -0.65047938 4293729569
-1.5168953 -4.3911433 -0.26744166 4293729569
-1.545433 -4.3958163 -0.69138432 4293729569
-1.514904 -4.4133239 -0.30834797 4293729569
-1.5464554 -4.4199958 -0.73427832 4293729569
-1.5228996 -4.4284797 -0.3502695 4293729569
-1.5504646 -4.4391627 -0.77618879 4293729569
-1.5159187 -4.4506822 -0.39318269 4293729569
-1.5484848 -4.4613557 -0.8200953 4293729569
-1.5179214 -4.4658542 -0.43511271 4293729569
-1.5325317 -4.4905982 -0.86599183 4293729569
-1.5169182 -4.4810414 -0.47804657 4293729569
-1.514576 -4.5208459 -0.91188687 4293729569
2.4744778 -7.323956 -1.4488114 4293729569
2.0463982 -7.0447431 -1.462366 4293729569
1.6452789 -6.7796044 -1.4749004 4293729569
1.2800903 -6.5355735 -1.4873976 4293729569
0.93188477 -6.2995849 -1.4978856 4293729569
-1.5244408 -4.5729423 -1.1766295 4293729569
-1.5243988 -4.57513 -1.2206157 4293729569
-1.5433121 -4.5622478 -1.2616383 4293729569
-1.5375328 -4.5026116 -0.86188644 4293729569
-1.555233 -4.5533872 -1.3026538 4293729569
-1.5344696 -4.4978004 -0.90390587 4293729569
-1.5701332 -4.5385175 -1.34369 4293729569
-1.5423737 -4.4839511 -0.94494748 4293729569
-1.5750504 -4.5286851 -1.3867192 4293729569
-1.5532684 -4.4660888 -0.98500168 4293729569
-1.5739784 -4.5218635 -1.4277444 4293729569
-1.5591583 -4.4492383 -1.0240586 4293729569
-1.574894 -4.5100398 -1.4697871 4293729569
-1.5570679 -4.436419 -1.0651096 4293729569
-1.5718155 -4.5002275 -1.5118276 4293729569
-1.5529785 -4.4226012 -1.1051681 4293729569
-1.5757103 -4.4823909 -1.5528914 4293729569
-1.5498695 -4.4057775 -1.1442372 4293729569
-1.6374626 -4.4233241 -1.5800462 4293729569
-1.5487556 -4.3859429 -1.1823159 4293729569
-1.7381172 -4.3360972 -1.5962644 4293729569
-1.5306702 -4.3761716 -1.2233765 4293729569
-1.9125862 -4.1945758 -1.594606 4293729569
-1.5125809 -4.3643956 -1.2634454 4293729569
-2.0601158 -4.0721507 -1.5969058 4293729569
-1.4884987 -4.3536372 -1.3035181 4293729569
-2.1687317 -3.9748654 -1.6051553 4293729569
-1.453434 -4.349916 -1.3445767 4293729569
-2.2753448 -3.8785844 -1.6124035 4293729569
-1.3854332 -4.3653197 -1.3916012 4293729569
-2.3799553 -3.7813034 -1.6186588 4293729569
-0.6289444 -4.8313003 -1.5667025 4293729569
-2.4815712 -3.687027 -1.6239059 4293729569
-0.78942108 -4.6888528 -1.5730672 4293729569
-2.5801888 -3.5927515 -1.6271573 4293729569
-0.9419136 -4.5514264 -1.5784221 4293729569
-2.6059761 -3.5477676 -1.6483042 4293729569
-1.07444 -4.4270625 -1.5847507 4293729569
-2.5639114 -3.544055 -1.6863734 4293729569
-1.2109604 -4.2996726 -1.5880866 4293729569
-2.5078697 -3.5493922 -1.7264239 4293729569
-1.3315125 -4.1833377 -1.5923985 4293729569
-2.4408493 -3.5597787 -1.7704684 4288085770
-1.4490662 -4.068007 -1.5957108 4293729569
-2.4257011 -3.5339451 -1.7985919 4288085770
-1.5406723 -3.9687686 -1.6029918 4293729569
-2.5013504 -3.4497337 -1.8008335 4288085770
-1.6203079 -3.8765702 -1.6112605 4293729569
-2.5650139 -3.3715672 -1.8050663 4288085770
-1.7119026 -3.7773151 -1.614542 4293729569
-2.6366615 -3.2893591 -1.8053051 4288085770
-1.7855453 -3.6901226 -1.6197982 4293729569
-2.7023201 -3.2101693 -1.8055397 4288085770
-1.841217 -3.6119957 -1.6280414 4293729569
-2.7739639 -3.1279492 -1.802779 4288085770
-1.7930984 -3.5952716 -1.6591716 4293729569
-2.8106728 -3.0648704 -1.8089865 4288085770
-1.7120399 -3.595675 -1.6972753 4293729569
-2.8743286 -2.9866743 -1.8062199 4288085770
-1.613018 -3.605145 -1.7383658 4293729569
-2.9190254 -2.9205508 -1.8074296 4288085770
-1.5279541 -3.6045561 -1.7754788 4288085770
-2.9697037 -2.8493938 -1.8046517 4288085770
-1.5376968 -3.5485859 -1.7886926 4288085770
-2.9964371 -2.7933402 -1.8098439 4288085770
-1.6003304 -3.4624004 -1.787959 4288085770
-3.0341339 -2.729229 -1.8090541 4288085770
-1.6609688 -3.378221 -1.7872207 4288085770
-3.0678444 -2.6681333 -1.8092579 4288085770
-1.7066307 -3.3010936 -1.7884735 4288085770
-3.0895767 -2.6140819 -1.8114487 4288085770
-1.7283401 -3.2380543 -1.7937003 4288085770
-3.1172905 -2.5559998 -1.810648 4288085770
-1.751049 -3.1740127 -1.7989302 4288085770
-3.1360283 -2.5029573 -1.8128388 4288085770
-1.7867317 -3.1039071 -1.7981677 4288085770
-3.1387939 -2.4579749 -1.8180178 4288085770
-1.8074379 -3.0398583 -1.8004003 4288085770
-3.1415672 -2.4139876 -1.8221929 4288085770
-1.8371277 -2.9727712 -1.7996335 4288085770
-3.1652832 -2.3569093 -1.8193938 4288085770
-1.8588333 -2.9087105 -1.7998648 4288085770
-3.1700363 -2.3099084 -1.8215785 4288085770
-1.8745422 -2.8476686 -1.8000919 4288085770
-3.1628151 -2.2689557 -1.8267542 4288085770
-1.886261 -2.7896385 -1.8003118 4288085770
-3.1645699 -2.2239585 -1.8279347 4288085770
-1.9039688 -2.7285824 -1.7985362 4288085770
-3.1653328 -2.1799617 -1.8281124 4288085770
-1.8957214 -2.6796236 -1.8017455 4288085770
-3.164093 -2.1349702 -1.8282968 4288085770
-1.8894615 -2.6296549 -1.8039563 4288085770
-3.1568604 -2.0939999 -1.8294727 4288085770
-1.8862 -2.5776691 -1.8041712 4288085770
-3.1626091 -2.0469756 -1.8266562 4288085770
-1.8659668 -2.5337501 -1.8083758 4288085770
-3.1413994 -2.0110602 -1.8308299 4288085770
-1.8397408 -2.4918489 -1.8125798 4288085770
-3.1511345 -1.9620066 -1.8240163 4288085770
-1.8254852 -2.4438958 -1.8127928 4288085770
-3.1389046 -1.9220433 -1.8231946 4288085770
-1.8092384 -2.3969445 -1.8120044 4288085770
-3.1206894 -1.8851066 -1.8243685 4288085770
-1.7810059 -2.356041 -1.8142068 4288085770
-3.097477 -1.8501883 -1.8265407 4288085770
-1.7567711 -2.3121128 -1.8134165 4288085770
-3.0662727 -1.8172979 -1.8297149 4288085770
-1.71455 -2.27426 -1.817625 4288085770
-3.0330772 -1.7854095 -1.8318878 4288085770
-1.7002945 -2.2252851 -1.8128421 4288085770
-3.0068626 -1.7494917 -1.8320681 4288085770
-1.6490936 -2.1914582 -1.8170459 4288085770
-2.9876366 -1.7115412 -1.8292474 4288085770
-1.6188507 -2.1485405 -1.8142592 4288085770
-2.9464455 -1.6816807 -1.8324224 4288085770
-1.5726357 -2.1106858 -1.8154728 4288085770
-2.9092407 -1.6497998 -1.8336002 4288085770
-1.5284081 -2.0728178 -1.8146836 4288085770
-2.8610535 -1.6219597 -1.836776 4288085770
-1.4562187 -2.043057 -1.8198981 4288085770
-2.8318329 -1.5860391 -1.8339599 4288085770
-1.393013 -2.0102525 -1.8211131 4288085770
-2.7886314 -1.5551715 -1.8341414 4288085770
-1.3447876 -1.9723916 -1.819329 4288085770
-2.7394409 -1.5263262 -1.8353224 4288085770
-1.2735901 -1.9416118 -1.820546 4288085770
-2.6982384 -1.4954448 -1.8335012 4288085770
-1.1973953 -1.91085 -1.8227696 4288085770
-2.6440468 -1.4666138 -1.8346887 4288085770
-1.1231918 -1.8790741 -1.8229944 4288085770
-2.5788612 -1.440825 -1.8378781 4288085770
-1.0429916 -1.8483157 -1.8232229 4288085770
-2.5486336 -1.4048858 -1.830063 4288085770
-0.96977997 -1.8145299 -1.8214546 4288085770
-2.4754601 -1.3801193 -1.8332585 4288085770
-0.85960007 -1.7908812 -1.8266932 4288085770
-2.4002838 -1.356359 -1.8364524 4288085770
-0.78338623 -1.7570906 -1.8219285 4288085770
-2.3410835 -1.3275309 -1.834646 4288085770
-0.68519211 -1.7283854 -1.8221718 4288085770
-2.2579079 -1.3037982 -1.8388501 4288085770
-0.57600403 -1.7007179 -1.8234253 4288085770
-2.1757355 -1.2790504 -1.8400574 4288085770
-0.46082687 -1.6740632 -1.8236825 4288085770
-2.1045456 -1.2512579 -1.8382622 4288085770
-0.34763336 -1.6463985 -1.8229407 4288085770
-2.0083694 -1.2285595 -1.8414789 4288085770
-0.21744537 -1.6207929 -1.8242127 4288085770
-1.9091988 -1.2058702 -1.8446991 4288085770
-0.071273804 -1.5982385 -1.8264929 4288085770
-1.8170204 -1.1811476 -1.8449185 4288085770
0.0809021 -1.5757017 -1.8287805 4288085770
-1.7258224 -1.1544137 -1.8431448 4288085770
0.21709061 -1.5491014 -1.8270639 4288085770
-1.6116562 -1.133769 -1.8463761 4288085770
0.37327194 -1.5245638 -1.8263648 4288085770
-1.5014801 -1.1091046 -1.8476183 4288085770
0.55643845 -1.5041223 -1.8296838 4288085770
-1.3773079 -1.0874848 -1.8498663 4288085770
0.75260162 -1.4847202 -1.8330154 4288085770
-1.2621231 -1.0628223 -1.8481148 4288085770
0.93278503 -1.4602494 -1.8313466 4288085770
-1.1489372 -1.0371532 -1.8463647 4288085770
1.1429558 -1.4398804 -1.8326999 4288085770
-0.99877167 -1.0176191 -1.8506376 4288085770
1.3651199 -1.4205499 -1.8350644 4288085770
-0.8625946 -0.99402285 -1.8499085 4288085770
1.5932961 -1.3992252 -1.8344445 4288085770
-0.70142746 -0.97351599 -1.8531992 4288085770
1.8474541 -1.3809943 -1.8378454 4288085770
-0.61419678 -0.93871689 -1.8384522 4288085770
2.0876389 -1.3566928 -1.8342528 4288085770
-0.46600342 -0.91314697 -1.8357465 4288085770
2.3688049 -1.3385286 -1.8346882 4288085770
-0.29184341 -0.89166689 -1.8360578 4288085770
2.680954 -1.3214693 -1.8381592 4288085770
-0.13564682 -0.86511278 -1.8313662 4288085770
2.9941235 -1.3023958 -1.8376392 4288085770
0.052532196 -0.84266949 -1.8306988 4288085770
3.3222942 -1.282362 -1.8361418 4288085770
0.25370789 -0.82026482 -1.8300483 4288085770
3.6644707 -1.2613626 -1.8326665 4288085770
0.47188568 -0.79791498 -1.8304193 4288085770
4.0456409 -1.2424855 -1.8312325 4288085770
0.69006729 -0.77455664 -1.828794 4288085770
4.507782 -1.2298732 -1.8358777 4288085770
0.91625595 -0.7492137 -1.8251868 4288085770
4.9429588 -1.2101431 -1.831516 4288085770
1.1994171 -0.73007631 -1.8306282 4288085770
5.4740982 -1.1987357 -1.8362445 4288085770
1.4895859 -0.70894289 -1.8320862 4288085770
6.0682373 -1.1875129 -1.841053 4288085770
1.7897568 -0.68683863 -1.8335608 4288085770
6.6773872 -1.1743178 -1.8418883 4288085770
2.0899467 -0.66171408 -1.8300475 4288085770
7.3705273 -1.1633844 -1.8458223 4288085770
2.4551163 -0.64081049 -1.8336004 4288085770
8.1086807 -1.1495671 -1.8458256 4288085770
2.8033085 -0.61483192 -1.8311517 4288085770
8.8858433 -1.1348476 -1.8418818 4288085770
3.1745014 -0.58891344 -1.8267323 4288085770
9.7490101 -1.1183791 -1.8370556 4288085770
3.5627022 -0.56103563 -1.8203423 4288085770
10.677183 -1.1020937 -1.8303113 4288085770
3.9929066 -0.53228712 -1.8150094 4288085770
4.5260735 -0.50988388 -1.8197834 4288085770
5.0842628 -0.48353767 -1.8206049 4288085770
5.7014503 -0.45736647 -1.8215008 4288085770
6.3986359 -0.43044424 -1.8255024 4288085770
7.1428356 -0.40164328 -1.8255713 4288085770
7.9700432 -0.37008381 -1.8247573 4288085770
8.8822517 -0.33777905 -1.8250548 4288085770
9.9044724 -0.3027873 -1.8225036 4288085770
11.154678 -0.26851034 -1.8302412 4288085770
11.21562 3.0434456 -1.8711565 4288085770
10.919006 3.1412821 -1.8772334 4288085770
10.609383 3.2351689 -1.8802805 4288085770
10.335762 3.3299508 -1.8833705 4288085770
10.108149 3.4275897 -1.8885219 4288085770
9.9475632 3.5360165 -1.8977903 4288085770
9.7649632 3.6385198 -1.9040108 4288085770
9.5733509 3.7360663 -1.9062014 4288085770
9.4057522 3.8375385 -1.9094341 4288085770
9.2521515 3.937974 -1.9116776 4288085770
9.0955486 4.0374265 -1.9119142 4288085770
9.0399895 4.1555467 -1.9213365 4288085770
9.0084438 4.277597 -1.9308008 4288085770
9.0309315 4.4124722 -1.9443765 4282675967
8.9963894 4.5345473 -1.9498377 4288085770
9.0018749 4.6664896 -1.9593828 4282675967
9.0313778 4.8053656 -1.9679824 4282675967
9.0028458 4.9284363 -1.9704545 4282675967
9.0713787 5.0781941 -1.9801409 4282675967
9.1088982 5.2220597 -1.9857702 4282675967
9.1904564 5.3797841 -1.9945035 4282675967
9.2329903 5.5266509 -1.99615 4282675967
9.3265686 5.689353 -2.0019166 4282675967
9.4111404 5.8500896 -2.0056655 4288085770
9.459692 6.001956 -2.0033393 4288085770
9.6713905 6.207284 -2.0164082 4288085770
9.9361362 6.4314485 -2.0316112 4288085770
10.193892 6.6576385 -2.045815 4288085770
10.468674 6.8937864 -2.0580781 4282675967
10.700436 7.1190891 -2.0632503 4288085770
10.96925 7.3632803 -2.0695398 4288085770
11.25209 7.6154346 -2.074877 4288085770
10.739733 0.028958797 -1.8228408 4288085770
9.4178066 0.019784451 -1.8236094 4288085770
8.2388897 0.013199329 -1.8235184 4288085770
7.1829834 0.0092606544 -1.8225501 4288085770
6.234087 0.0080242157 -1.8186901 4288085770
5.3362045 0.0096650124 -1.8088888 4288085770
4.5703182 0.010900974 -1.8042045 4288085770
11.267797 -0.19457245 -1.8142678 4288085770
3.8904324 0.012874126 -1.8026007 4288085770
9.7969589 -0.17430592 -1.8130358 4288085770
3.2975388 0.014577866 -1.8050742 4288085770
8.5501156 -0.15569878 -1.8139974 4288085770
2.7186623 0.019275188 -1.7995734 4288085770
7.4802647 -0.13960934 -1.8161068 4288085770
2.2317791 0.022670746 -1.8021494 4288085770
6.5014172 -0.12277222 -1.8153014 4288085770
1.8018913 0.025892735 -1.8067759 4288085770
5.6045818 -0.10415173 -1.8095777 4288085770
1.3480225 0.032222271 -1.802395 4288085770
4.7947388 -0.08778429 -1.8039225 4288085770
0.9751358 0.036286831 -1.8050767 4288085770
4.1058903 -0.071793079 -1.8043736 4288085770
0.61625671 0.042315483 -1.8067796 4288085770
3.4740391 -0.056964397 -1.8038712 4288085770
0.29537582 0.047224998 -1.8105119 4288085770
2.8841915 -0.042244434 -1.8004062 4288085770
-0.028495789 0.054159641 -1.8102506 4288085770
2.3743382 -0.02777338 -1.8010114 4288085770
-0.30337906 0.059931278 -1.815028 4288085770
1.9004898 -0.014402866 -1.8006444 4288085770
-0.58224869 0.06773138 -1.8158108 4288085770
1.4626312 -0.00014066696 -1.8013136 4288085770
-0.85011292 0.075507641 -1.8146037 4288085770
1.0637741 0.013007641 -1.8020129 4288085770
-1.0989876 0.083224773 -1.8144134 4288085770
0.69891739 0.026052952 -1.8037423 4288085770
-1.3228569 0.090856552 -1.8172451 4288085770
0.37406158 0.037973881 -1.8075023 4288085770
-1.5397301 0.09847641 -1.8180829 4288085770
0.054203033 0.05089283 -1.8082716 4288085770
-1.7535973 0.1070962 -1.8169284 4288085770
-0.23965454 0.063736439 -1.8090638 4288085770
-1.9514656 0.11566925 -1.8157876 4288085770
-0.50951385 0.076501369 -1.811877 4288085770
-2.1253357 0.12415171 -1.8196681 4288085770
-0.77136993 0.088252068 -1.8126935 4288085770
-2.2742157 0.13154411 -1.8275656 4288085770
-1.0222244 0.10197878 -1.8115281 4288085770
-2.4440765 0.14103174 -1.8274541 4288085770
-1.2540817 0.11464214 -1.8123752 4288085770
-2.59095 0.14943552 -1.8313583 4288085770
-1.4769325 0.12729216 -1.8102304 4288085770
-2.7458115 0.15887976 -1.8312603 4288085770
-1.6647949 0.13880682 -1.8161117 4288085770
-2.8846779 0.16826868 -1.833176 4288085770
-1.8486595 0.15032244 -1.8189967 4288085770
-3.0215416 0.17765665 -1.8340938 4288085770
-2.0365105 0.16386175 -1.8188871 4288085770
-3.1694031 0.18810129 -1.8290069 4288085770
-2.2103691 0.17536116 -1.8187813 4288085770
-3.3202515 0.19956303 -1.8219216 4288085770
-2.3612289 0.18777227 -1.8236995 4288085770
-2.5170898 0.20021486 -1.8246139 4288085770
-2.6609497 0.21161795 -1.8265344 4288085770
-2.8058052 0.22403312 -1.8264585 4288085770
-2.9376602 0.2364018 -1.8283939 4288085770
-3.0575218 0.24872684 -1.8323398 4288085770
-3.2063675 0.26218724 -1.8242656 4288085770
-3.3512154 0.2756362 -1.816195 4288085770
-3.3990173 2.2971077 -1.8265276 4288085770
-3.273819 2.3277264 -1.8297542 4288085770
-3.1566315 2.3553853 -1.8289616 4288085770
-3.0264359 2.385998 -1.8301919 4288085770
-2.9112511 2.4106801 -1.8253847 4288085770
-2.7640495 2.4442306 -1.8296402 4288085770
-2.6268539 2.4728317 -1.8288666 4288085770
-2.4746552 2.5053809 -1.8301213 4288085770
-3.3803978 2.2329779 -1.8342534 4288085770
-2.3214531 2.5359313 -1.8303679 4288085770
-3.2682304 2.2516556 -1.8324181 4288085770
-2.1692581 2.5654931 -1.8286095 4288085770
-3.1390572 2.2742672 -1.8346127 4288085770
-2.0020561 2.597003 -1.8288708 4288085770
-3.0319023 2.2889767 -1.828756 4288085770
-1.832859 2.6285152 -1.8271334 4288085770
-2.8917236 2.3125522 -1.8319629 4288085770
-1.6436462 2.6629529 -1.8294237 4288085770
-2.755558 2.3331518 -1.8321538 4288085770
-1.4364319 2.7023296 -1.8337486 4288085770
-2.6183929 2.3527532 -1.8313408 4288085770
-1.2392235 2.7357526 -1.8340403 4288085770
-2.4682198 2.3753037 -1.8335505 4288085770
-1.0310135 2.7711439 -1.8343484 4288085770
-2.3200569 2.3948689 -1.8337455 4288085770
-0.82481003 2.8025537 -1.8316379 4288085770
-2.1598854 2.4153996 -1.8339535 4288085770
-0.59560013 2.8378839 -1.8319614 4288085770
-2.008728 2.4319685 -1.8311375 4288085770
-0.38140106 2.8672793 -1.8272474 4288085770
-1.850563 2.4495132 -1.8293309 4288085770
-0.11917496 2.9085054 -1.8296208 4288085770
-1.6423759 2.479866 -1.8386172 4288085770
0.13103485 2.9427834 -1.8279549 4288085770
-1.4752159 2.4953933 -1.8348085 4288085770
0.41025925 2.9819689 -1.8283318 4288085770
-1.2780495 2.5168037 -1.8380474 4288085770
0.69747925 3.0201313 -1.82871 4288085770
-1.1209106 2.5253816 -1.8292005 4288085770
1.0077057 3.0622225 -1.8301224 4288085770
-0.92274857 2.5428019 -1.8294227 4288085770
1.3179283 3.100327 -1.8285171 4288085770
-0.7095871 2.5621743 -1.8306644 4288085770
1.6751709 3.1472692 -1.832985 4288085770
-0.49242783 2.5795441 -1.8299001 4288085770
2.0253944 3.1872578 -1.8314172 4288085770
-0.2742691 2.5949154 -1.8281279 4288085770
2.4046364 3.2311537 -1.8318878 4288085770
-0.039112091 2.6122241 -1.8293765 4288085770
2.8398972 3.2848616 -1.8384426 4288085770
0.18803406 2.6235781 -1.8255932 4288085770
3.2671413 3.3316143 -1.8399607 4288085770
0.43418503 2.6388636 -1.8248408 4288085770
3.7704182 3.3911166 -1.8485906 4288085770
0.68733215 2.6511335 -1.8230803 4288085770
4.3026981 3.451539 -1.8562458 4288085770
0.9724884 2.6672978 -1.8243606 4288085770
4.867979 3.512866 -1.863929 4288085770
1.2596436 2.6814606 -1.8246334 4288085770
5.4502583 3.5721569 -1.8686154 4288085770
1.5617867 2.6945796 -1.8249123 4288085770
6.0975552 3.6382422 -1.8773794 4288085770
1.8739319 2.7066703 -1.8251941 4288085770
6.8108711 3.7121274 -1.8882256 4288085770
2.1770611 2.7128 -1.8224431 4288085770
7.5441723 3.7789724 -1.8950555 4288085770
2.5292034 2.7237704 -1.8237493 4288085770
8.3955154 3.8614497 -1.9080404 4288085770
2.8743324 2.7307739 -1.8220327 4288085770
9.2448311 3.9329588 -1.9149755 4288085770
3.2524662 2.7386734 -1.8223443 4288085770
10.138144 4.0043488 -1.9199418 4288085770
3.641592 2.7445409 -1.8226548 4288085770
11.215515 4.0981588 -1.9361414 4288085770
4.0657234 2.7522945 -1.8259991 4288085770
4.4878387 2.7540708 -1.8253156 4288085770
4.9579582 2.7576962 -1.8276755 4288085770
5.4550743 2.7602379 -1.83105 4288085770
5.9831791 2.7606907 -1.8344383 4288085770
6.5632954 2.7629797 -1.8408725 4288085770
7.1673965 2.7621994 -1.8473105 4288085770
7.7484741 2.749516 -1.8466792 4288085770
8.3725452 2.7366953 -1.8490784 4288085770
9.0606174 2.7236805 -1.8535236 4288085770
9.7026443 2.6948338 -1.8498654 4288085770
10.455687 2.6706395 -1.8523086 4288085770
11.1917 2.636508 -1.8516954 4288085770
5.740015 -3.0124683 -0.3198652 4293729569
5.6228943 -3.0881853 -0.3314473 4293729569
10.548042 -4.8772302 -0.50915092 4293729569
10.435822 -4.9850173 -0.53359491 4293729569
4.5156136 -4.6111808 -0.11993883 4293729569
4.5241337 -4.6371198 -0.7938351 4293729569
4.4744663 -4.6902308 -0.15756087 4293729569
2.902853 -4.0901999 -0.74006724 4293729569
2.6839619 -4.0846715 -0.76293296 4293729569
3.0717545 -4.3024487 -0.21925107 4293729569
2.4840546 -4.0842013 -0.78679001 4293729569
2.504282 -4.1499381 -0.24851125 4293729569
2.3690529 -4.1150041 -0.816571 4293729569
2.3703022 -4.1717019 -0.28231817 4293729569
2.333952 -4.1790624 -0.85226351 4293729569
2.3332062 -4.2337594 -0.31901792 4293729569
2.3248177 -4.2532105 -0.89093024 4293729569
2.3190861 -4.3028913 -0.35770297 4293729569
2.3426514 -4.3384461 -0.93256772 4293729569
2.337925 -4.3871284 -0.39834538 4293729569
2.3504944 -4.4196601 -0.97521561 4293729569
2.3447781 -4.4653325 -0.4400056 4293729569
2.3413696 -4.4908242 -1.0178953 4293729569
2.3416405 -4.539515 -0.48267624 4293729569
2.3152599 -4.5559382 -1.0605894 4293729569
6.4962234 -6.5849614 -1.5026819 4293729569
5.9228115 -6.4163442 -1.5110081 4293729569
5.3773842 -6.2528014 -1.5183324 4293729569
4.8699303 -6.0993762 -1.5266395 4293729569
4.3435249 -5.9288716 -1.5300082 4293729569
3.9219856 -5.8037095 -1.5422534 4293729569
3.4755058 -5.659451 -1.5485647 4293729569
3.0220585 -5.5041595 -1.5519195 4293729569
2.61656 -5.3670135 -1.557229 4293729569
0.43893051 -4.290669 -1.3153944 4293729569
0.39632034 -4.2795787 -0.86040592 4293729569
0.35498428 -4.3015857 -1.3512849 4293729569
0.32635117 -4.2955565 -0.90028399 4293729569
0.30298996 -4.3276181 -1.3921317 4293729569
0.28036118 -4.3216128 -0.94313496 4293729569
0.26497269 -4.360703 -1.4359577 4293729569
0.27030945 -4.3647923 -0.98993617 4293729569
0.25890732 -4.4089026 -1.4847398 4293729569
0.27324295 -4.4150176 -1.0387157 4293729569
0.26082993 -4.4611382 -1.5365101 4293729569
0.26719284 -4.4592175 -1.0875154 4293729569
0.25577545 -4.508348 -1.5872972 4293729569
0.26214218 -4.502419 -1.1363198 4293729569
0.034095764 -4.4307714 -1.6004777 4293729569
2.9394913 -6.0628619 -1.5253731 4293729569
-0.194561 -4.3461537 -1.6096842 4293729569
2.4731998 -5.8535419 -1.5309566 4293729569
-0.46712112 -4.2323728 -1.6099875 4293729569
2.0348816 -5.6532979 -1.5355207 4293729569
-0.70573425 -4.1347003 -1.6132445 4293729569
1.6395073 -5.4721866 -1.5420312 4293729569
-0.9672966 -4.0199418 -1.6115603 4293729569
1.2760963 -5.3051724 -1.5495031 4293729569
-1.1739426 -3.9333711 -1.6167916 4293729569
0.94962311 -5.1542735 -1.5589308 4293729569
-1.3875694 -3.8407683 -1.6190443 4293729569
0.62018585 -4.997354 -1.5653826 4293729569
-1.5682449 -3.7632818 -1.6262543 4293729569
0.32768631 -4.8585486 -1.5737816 4293729569
-1.76688 -3.673718 -1.6275046 4293729569
0.066143036 -4.7348371 -1.5831361 4293729569
-1.9265747 -3.6032968 -1.6356984 4293729569
-0.18939209 -4.6101432 -1.5924994 4293729569
-2.0134048 -3.5761552 -1.659754 4293729569
-0.46787643 -4.468348 -1.5939217 4293729569
-2.0463295 -3.5792208 -1.6957151 4293729569
-0.69144821 -4.3567424 -1.6022505 4293729569
-2.08424 -3.579268 -1.7306861 4293729569
-0.93996429 -4.2260308 -1.6026455 4293729569
-2.1251411 -3.5743022 -1.7646767 4288085770
-1.2074394 -4.0812373 -1.5970893 4293729569
-2.1800117 -3.5602794 -1.7946972 4288085770
-1.4020386 -3.9787059 -1.6033992 4293729569
-2.3137169 -3.4939294 -1.8018917 4288085770
-1.5716743 -3.8882604 -1.6126736 4293729569
-2.4623795 -3.4155092 -1.8031288 4288085770
-1.7612648 -3.7837224 -1.613996 4293729569
-2.5960732 -3.3451462 -1.807341 4288085770
-1.9129257 -3.7003336 -1.6242524 4293729569
-2.7397385 -3.2657323 -1.8065861 4288085770
-2.0835342 -3.6028547 -1.6265574 4293729569
-2.8684196 -3.1943707 -1.8078066 4288085770
-2.1373711 -3.5768261 -1.6546308 4293729569
-2.9941063 -3.123013 -1.8080291 4288085770
-2.1552696 -3.5719404 -1.6916366 4293729569
-3.1167908 -3.0506601 -1.807258 4288085770
-2.1621933 -3.5720987 -1.7316276 4293729569
-3.2354813 -2.9803185 -1.8064811 4288085770
-2.154129 -3.5793095 -1.7735983 4288085770
-3.3381958 -2.9190402 -1.8096758 4288085770
-2.2089462 -3.5462694 -1.7997016 4288085770
-2.3505745 -3.4568653 -1.7999917 4288085770
-2.4762344 -3.3755169 -1.8022578 4288085770
-2.592907 -3.298203 -1.8065122 4288085770
-2.713562 -3.216856 -1.8057817 4288085770
-2.8481865 -3.1254516 -1.8010859 4288085770
-2.9309082 -3.0652485 -1.8082893 4288085770
-3.038578 -2.9879341 -1.8065505 4288085770
-3.1492348 -2.9086032 -1.8028185 4288085770
-3.2249603 -2.8494115 -1.8080225 4288085770
-3.3096695 -2.784173 -1.8082469 4288085770
-3.4013481 -2.7128959 -1.8044932 4288085770
-3.4318848 -0.83723879 -1.8384649 4288085770
-3.3667259 -0.82043219 -1.8385754 4288085770
-3.3085594 -0.80059719 -1.8366948 4288085770
-3.239399 -0.78280258 -1.8368121 4288085770
-3.1752319 -0.76298475 -1.8349348 4288085770
-3.1080666 -0.74417162 -1.832055 4288085770
-3.0219154 -0.72843409 -1.8341734 4288085770
-2.9537468 -0.70861435 -1.8292985 4288085770
-2.8735886 -0.69084787 -1.8284218 4288085770
-2.7934227 -0.67306662 -1.824545 4288085770
-2.7082596 -0.65430546 -1.8216757 4288085770
-2.5931129 -0.64166594 -1.8267976 4288085770
-2.5109482 -0.62288189 -1.8209262 4288085770
-2.3958015 -0.60922909 -1.8230523 4288085770
-3.3872414 -0.42942715 -1.8362331 4288085770
-2.2676544 -0.59662151 -1.8271817 4288085770
-3.3090782 -0.4136405 -1.8323467 4288085770
-2.1495018 -0.58096409 -1.826318 4288085770
-3.2189331 -0.398911 -1.8334628 4288085770
-2.0023651 -0.56942081 -1.8324538 4288085770
-3.1297722 -0.38216066 -1.830587 4288085770
-1.871212 -0.55480051 -1.8315933 4288085770
-3.0236282 -0.36848593 -1.8337079 4288085770
-1.7360611 -0.54019117 -1.8307348 4288085770
-2.9494629 -0.35066175 -1.8238274 4288085770
-1.5939064 -0.52459908 -1.8288846 4288085770
-2.8403091 -0.3359828 -1.8239542 4288085770
-1.4427528 -0.51003599 -1.8280354 4288085770
-2.7221642 -0.3223381 -1.8260821 4288085770
-1.2796021 -0.49651289 -1.8281884 4288085770
-2.6230011 -0.30660343 -1.8202071 4288085770
-1.1174507 -0.48197365 -1.8253452 4288085770
-2.4928551 -0.29299307 -1.8223416 4288085770
-0.93529892 -0.4675045 -1.8255134 4288085770
-2.346714 -0.28044319 -1.8274809 4288085770
-0.75015259 -0.45403624 -1.8236789 4288085770
-2.2065697 -0.26785278 -1.8276165 4288085770
-0.54400635 -0.44063616 -1.8238561 4288085770
-2.0554199 -0.25430298 -1.8297626 4288085770
-0.33885574 -0.42722082 -1.8210328 4288085770
-1.904274 -0.24074078 -1.8289088 4288085770
-0.11070633 -0.41488457 -1.8212181 4288085770
-1.7431297 -0.22721624 -1.8300602 4288085770
0.11843872 -0.40053368 -1.8174126 4288085770
-1.5879745 -0.21265221 -1.8262126 4288085770
0.35459518 -0.38619947 -1.8126106 4288085770
-1.4248199 -0.19811487 -1.8233694 4288085770
0.62374115 -0.37297297 -1.8108234 4288085770
-1.2306709 -0.18468523 -1.8245398 4288085770
0.91489029 -0.3608098 -1.8090442 4288085770
-1.025528 -0.17228746 -1.8257116 4288085770
1.2230453 -0.34768724 -1.8052789 4288085770
-0.83537292 -0.15681982 -1.8208878 4288085770
1.5711823 -0.33670139 -1.8065275 4288085770
-0.597229 -0.14552069 -1.8230741 4288085770
1.9493217 -0.32679844 -1.8067888 4288085770
-0.37007523 -0.13117313 -1.8212668 4288085770
2.348465 -0.31495142 -1.8060704 4288085770
-0.12892914 -0.11786652 -1.8194628 4288085770
2.7836056 -0.30521297 -1.8063637 4288085770
0.098228455 -0.10148811 -1.8106637 4288085770
3.2997341 -0.2967248 -1.8106985 4288085770
0.3623848 -0.087229729 -1.8048768 4288085770
3.8148785 -0.28621197 -1.810041 4288085770
0.68753052 -0.075186729 -1.808116 4288085770
4.3860149 -0.27686071 -1.8094107 4288085770
1.0076828 -0.061102867 -1.8053606 4288085770
5.041153 -0.26776171 -1.8108277 4288085770
1.375824 -0.048174381 -1.8066281 4288085770
5.8042774 -0.26199484 -1.8172932 4288085770
1.7629738 -0.035297394 -1.806906 4288085770
6.6124096 -0.25433683 -1.818792 4288085770
2.1741276 -0.02148056 -1.8052012 4288085770
7.5415363 -0.2480402 -1.8233547 4288085770
2.6372757 -0.0078225136 -1.8055259 4288085770
8.5396709 -0.24091625 -1.8219601 4288085770
3.1614208 0.0046510696 -1.8078806 4288085770
9.6758118 -0.2331872 -1.8196473 4288085770
3.7265663 0.017006397 -1.810258 4288085770
11.077925 -0.23026705 -1.8274677 4288085770
4.3437157 0.031221867 -1.8106731 4288085770
5.0568619 0.044141769 -1.8151379 4288085770
5.8810024 0.055720329 -1.8246605 4288085770
6.7721539 0.070126534 -1.8292334 4288085770
7.7763023 0.08320713 -1.833865 4288085770
8.8494606 0.099110126 -1.8335475 4288085770
10.135616 0.11438179 -1.8373495 4288085770
11.14327 0.36110735 -1.840987 4288085770
9.7123928 0.36920595 -1.8415965 4288085770
8.4895248 0.37871146 -1.8412741 4288085770
7.4726524 0.38759041 -1.8490102 4288085770
6.4167843 0.3966651 -1.8377368 4288085770
5.5139179 0.40627813 -1.831511 4288085770
4.6410522 0.41584921 -1.815295 4288085770
11.545197 0.43993258 -1.8383892 4288085770
3.934185 0.42588687 -1.8121296 4288085770
9.9743462 0.45546794 -1.8309958 4288085770
3.287323 0.43576479 -1.8059816 4288085770
8.7884884 0.46982741 -1.8397095 4288085770
2.762455 0.44525313 -1.8088676 4288085770
7.7686329 0.48471069 -1.8484745 4288085770
2.2635918 0.45567584 -1.8097658 4288085770
6.7377777 0.49769115 -1.8422289 4288085770
1.800724 0.46500397 -1.8086699 4288085770
5.7819195 0.5104785 -1.8310051 4288085770
1.3878593 0.47517943 -1.8095925 4288085770
4.9140644 0.52302194 -1.8178062 4288085770
0.9909935 0.48531795 -1.8085201 4288085770
4.1782074 0.53616023 -1.8106484 4288085770
0.65513229 0.49525952 -1.8124645 4288085770
3.5553493 0.5479517 -1.8085178 4288085770
0.32826996 0.50618792 -1.813416 4288085770
2.981493 0.56060743 -1.8054055 4288085770
0.015403748 0.51608109 -1.8133675 4288085770
2.4886341 0.57300782 -1.8073156 4288085770
-0.25645447 0.52683878 -1.8173347 4288085770
2.0447731 0.58526397 -1.8102396 4288085770
-0.51432037 0.53756022 -1.8203058 4288085770
1.6289139 0.59744382 -1.8121715 4288085770
-0.76618576 0.5482738 -1.8212792 4288085770
1.2240601 0.6096096 -1.8101068 4288085770
-1.0030479 0.55894399 -1.8222566 4288085770
0.85919952 0.62165618 -1.8090534 4288085770
-1.2309074 0.56860185 -1.8202323 4288085770
0.53334045 0.63357759 -1.8110106 4288085770
-1.4317741 0.5801599 -1.8232244 4288085770
0.24148178 0.64639258 -1.8149818 4288085770
-1.6386337 0.59075308 -1.8222106 4288085770
-0.051376343 0.65822816 -1.8149487 4288085770
-1.8234978 0.60127425 -1.8232028 4288085770
-0.3162384 0.66997433 -1.8169234 4288085770
-1.9903564 0.61273456 -1.8262045 4288085770
-0.57009506 0.68269801 -1.8169056 4288085770
-2.15522 0.62419391 -1.8282069 4288085770
-0.802948 0.69535232 -1.8188936 4288085770
-2.3030777 0.63559985 -1.831214 4288085770
-1.0268097 0.70698977 -1.8188797 4288085770
-2.4639397 0.646065 -1.8292134 4288085770
-1.2286682 0.71955538 -1.8208765 4288085770
-2.5937958 0.65841079 -1.8342298 4288085770
-1.4305267 0.73112941 -1.820869 4288085770
-2.7186584 0.66974616 -1.8382434 4288085770
-1.6213837 0.74367642 -1.819869 4288085770
-2.8295135 0.68202853 -1.8452652 4288085770
-1.794239 0.75616288 -1.8208741 4288085770
-2.9493752 0.69435859 -1.8472847 4288085770
-1.9510956 0.76859498 -1.8238833 4288085770
-3.0892334 0.70478106 -1.8412904 4288085770
-2.1059494 0.78102946 -1.8248934 4288085770
-3.2230949 0.71518636 -1.8352977 4288085770
-2.2388077 0.794384 -1.8299136 4288085770
-3.3599586 0.72561359 -1.8263047 4288085770
-2.3776665 0.80776858 -1.8319325 4288085770
-2.534523 0.81823564 -1.8269337 4288085770
-2.6423759 0.83251333 -1.8329653 4288085770
-2.7632332 0.84585047 -1.8339893 4288085770
-2.8710861 0.85914159 -1.8370167 4288085770
-2.9769363 0.87242699 -1.8400449 4288085770
-3.0917969 0.88476467 -1.8370663 4288085770
-3.2126541 0.89613271 -1.831082 4288085770
-3.3315125 0.90749502 -1.8250985 4288085770
-0.89303207 4.048779 -1.8712407 4288085770
-0.6546936 4.1310678 -1.8766491 4288085770
-0.4103508 4.2113481 -1.8800497 4288085770
-0.16201782 4.2906208 -1.8824462 4288085770
-1.8371048 3.5435348 -1.8548176 4288085770
0.1163559 4.3817945 -1.8879011 4288085770
-1.6858902 3.5821171 -1.8500159 4288085770
0.39871979 4.4709654 -1.8913474 4288085770
-1.4896202 3.6375265 -1.8552974 4288085770
0.70510101 4.5660543 -1.8978245 4288085770
-1.3043747 3.6849895 -1.8555415 4288085770
1.0304947 4.6670885 -1.9043313 4288085770
-1.1061211 3.7354064 -1.8578008 4288085770
1.3308487 4.7512341 -1.9017583 4288085770
-0.88885117 3.7927601 -1.8620944 4288085770
1.7112885 4.8670936 -1.912341 4288085770
-0.66457748 3.8490934 -1.866385 4288085770
2.1097412 4.9869046 -1.9219439 4288085770
-0.4323082 3.9054081 -1.8696765 4288085770
2.5201855 5.1046906 -1.9295402 4288085770
-0.19503784 3.9627047 -1.8739733 4288085770
2.9376278 5.2204695 -1.9341284 4288085770
0.054233551 4.0189748 -1.8762676 4288085770
3.4041119 5.3520856 -1.9437957 4288085770
0.28948212 4.0682988 -1.8755282 4288085770
3.9016151 5.4896126 -1.9534947 4288085770
0.55575943 4.1255164 -1.8788297 4288085770
4.407114 5.6251302 -1.9601859 4288085770
0.845047 4.1886592 -1.8841615 4288085770
4.9846687 5.7804146 -1.9729779 4288085770
1.1403275 4.2497935 -1.8874855 4288085770
5.5692043 5.9317007 -1.9807533 4288085770
1.437603 4.3079262 -1.8897961 4288085770
6.2608395 6.1156406 -1.9976926 4288085770
1.736866 4.3630619 -1.8900938 4288085770
6.9904957 6.3064709 -2.0146689 4282675967
2.0691566 4.425086 -1.894428 4288085770
7.7952003 6.5140724 -2.0347331 4288085770
2.4214516 4.4910522 -1.898783 4288085770
8.6899681 6.7444024 -2.0579138 4282675967
2.7967625 4.5609393 -1.9061594 4288085770
9.5456638 6.9488935 -2.0699723 4282675967
3.114994 4.6030474 -1.9004021 4288085770
10.357285 7.1265545 -2.0719035 4282675967
3.4812641 4.658987 -1.9017146 4288085770
11.190903 7.3031611 -2.0718331 4288085770
3.9135895 4.7347059 -1.9101266 4288085770
4.3949375 4.8182669 -1.9225823 4288085770
4.8792706 4.8968277 -1.9330158 4288085770
5.3886108 4.9773216 -1.9424622 4288085770
5.8749065 5.0428987 -1.9478382 4288085770
6.4162331 5.1183052 -1.9562672 4288085770
6.9685459 5.1896892 -1.9626802 4288085770
7.5698833 5.2689104 -1.9741365 4282675967
8.2052269 5.3510342 -1.9856112 4282675967
8.8315334 5.4192057 -1.9920225 4282675967
9.5538902 5.5060668 -2.0065331 4282675967
10.460367 5.6353245 -2.0382645 4282675967
11.045563 5.6646714 -2.0314949 4282675967
11.522665 5.6593781 -2.0135522 4288085770
11.21981 -3.9163194 -1.8077682 4288085770
5.960022 -2.8463902 -1.3876699 4293729569
6.1888618 -2.952198 -0.73822933 4293729569
5.9938221 -2.9517064 -1.4362061 4293729569
5.7719707 -2.9501214 -0.76416987 4293729569
5.9876537 -3.0458956 -1.4817849 4293729569
5.7098427 -3.0301371 -0.80680293 4293729569
5.629734 -3.0549269 -1.4936857 4293729569
5.6347313 -3.1051106 -0.84845614 4293729569
5.4417038 -3.1005154 -1.5214516 4293729569
5.0919685 -3.0566306 -0.86458319 4293729569
5.1767426 -3.122849 -1.5413083 4293729569
5.0068798 -3.1235795 -0.90727079 4293729569
5.1655979 -3.2100363 -1.5899178 4293729569
5.0097294 -3.2118034 -0.95487773 4293729569
5.9777908 -3.5230041 -1.7336558 4293729569
5.6270828 -3.4709892 -1.0478232 4293729569
6.0355759 -3.6334467 -1.7951727 4288085770
5.8957043 -3.6380792 -1.119122 4293729569
5.5428162 -3.5870218 -1.7912986 4288085770
10.472704 -5.0600047 -1.5255306 4293729569
5.1000347 -3.5477581 -1.7914009 4288085770
10.153725 -5.0873151 -1.5753559 4293729569
4.6812496 -3.5105667 -1.7924982 4288085770
9.3212166 -4.9529519 -1.579818 4293729569
4.2614841 -3.4653597 -1.7906308 4288085770
8.5796566 -4.8358665 -1.5882185 4293729569
3.8357391 -3.4141278 -1.7867894 4288085770
7.9140568 -4.7320094 -1.5985721 4293729569
3.4659634 -3.3730769 -1.7879119 4288085770
7.2654705 -4.624186 -1.6059465 4293729569
3.1171799 -3.3350916 -1.7900243 4288085770
6.6408882 -4.5154271 -1.612329 4293729569
2.7634163 -3.2900786 -1.7891672 4288085770
6.0253143 -4.4026818 -1.615731 4293729569
2.413662 -3.2420726 -1.7873241 4288085770
5.4597206 -4.2980838 -1.6201047 4293729569
2.1028786 -3.2031908 -1.7884469 4288085770
4.9141293 -4.192534 -1.6224862 4293729569
1.8110962 -3.1653776 -1.7925678 4288085770
4.3955345 -4.0880561 -1.6238673 4293729569
1.511322 -3.1215239 -1.7927147 4288085770
3.9468746 -4.0048127 -1.6321656 4293729569
1.2455292 -3.0867844 -1.7968266 4288085770
3.5451889 -3.9317098 -1.6424259 4293729569
0.94878387 -3.0359259 -1.7940052 4288085770
3.2094536 -3.8768191 -1.6576159 4293729569
0.68801117 -2.9931889 -1.7951534 4288085770
2.9536362 -3.8482003 -1.6827017 4293729569
0.44422913 -2.9545035 -1.7972863 4288085770
2.7637634 -3.8408055 -1.7157035 4293729569
0.18846893 -2.9087715 -1.7964488 4288085770
2.5848866 -3.8334441 -1.7487072 4288085770
-0.039310455 -2.8691335 -1.7985888 4288085770
2.4020233 -3.8230662 -1.7807232 4288085770
-0.27007675 -2.8254766 -1.7987462 4288085770
2.1292686 -3.7733588 -1.7969005 4288085770
-0.47286987 -2.7899184 -1.8028721 4288085770
1.8035927 -3.6984534 -1.8021816 4288085770
-0.67464828 -2.7513585 -1.8060113 4288085770
1.4389687 -3.6043921 -1.7975419 4288085770
-0.87443161 -2.7117963 -1.8071556 4288085770
1.1173134 -3.5214796 -1.7988592 4288085770
-1.0801926 -2.6662068 -1.8063258 4288085770
0.80565643 -3.4395833 -1.797174 4288085770
-1.2719688 -2.6246624 -1.8064802 4288085770
0.51797485 -3.364769 -1.7984611 4288085770
-1.4637299 -2.5791144 -1.8056524 4288085770
0.21832657 -3.2798939 -1.7937909 4288085770
-1.6235275 -2.546679 -1.8097714 4288085770
-0.040363312 -3.2091622 -1.7950644 4288085770
-1.7763252 -2.5132732 -1.8158959 4288085770
-0.28705978 -3.1414652 -1.7963265 4288085770
-1.9460945 -2.4717875 -1.8150538 4288085770
-0.53175354 -3.070765 -1.7956023 4288085770
-2.0998802 -2.434361 -1.817196 4288085770
-0.75645447 -3.005127 -1.7958587 4288085770
-2.2486649 -2.3969488 -1.8193392 4288085770
-0.96318054 -2.9455481 -1.7980909 4288085770
-2.3904533 -2.3605561 -1.8214786 4288085770
-1.1559143 -2.8900189 -1.8023076 4288085770
-2.5202484 -2.3272071 -1.8256067 4288085770
-1.3576202 -2.8264418 -1.8015585 4288085770
-2.6670265 -2.2847786 -1.8227725 4288085770
-1.5513382 -2.7648878 -1.8008018 4288085770
-2.7858276 -2.2534704 -1.8288931 4288085770
-1.7200813 -2.7124228 -1.8040087 4288085770
-2.9116173 -2.2181191 -1.8300308 4288085770
-1.8988037 -2.6529117 -1.8032453 4288085770
-3.030407 -2.1827931 -1.8321693 4288085770
-2.0755196 -2.5923972 -1.8004866 4288085770
-3.1711655 -2.1353683 -1.8263586 4288085770
-2.218277 -2.5460157 -1.8056705 4288085770
-3.2859497 -2.0990453 -1.8265021 4288085770
-2.3350677 -2.5097303 -1.8158134 4288085770
-3.3867569 -2.068779 -1.830621 4288085770
-2.4818115 -2.4573154 -1.8160233 4288085770
-2.6215591 -2.40692 -1.8162256 4288085770
-2.7423286 -2.3635964 -1.8203994 4288085770
-2.8591003 -2.3212857 -1.8245692 4288085770
-2.9728661 -2.2779779 -1.827744 4288085770
-3.0946236 -2.22963 -1.8269401 4288085770
-3.2133751 -2.1812863 -1.8251365 4288085770
-3.3291321 -2.132956 -1.8243334 4288085770
-3.435894 -2.0876508 -1.8235183 4288085770
-3.4257584 0.03787756 -1.8147631 4288085770
-3.3216171 0.049561024 -1.8178213 4288085770
-3.1964798 0.060161591 -1.8258762 4288085770
-3.0703392 0.07076931 -1.8319312 4288085770
-2.9651985 0.082471848 -1.8299892 4288085770
-2.8590508 0.095175743 -1.8270516 4288085770
-2.7459068 0.10786009 -1.8241144 4288085770
-2.6227608 0.11950684 -1.8231733 4288085770
-2.4816246 0.13008928 -1.8252286 4288085770
-3.4223709 0.20180368 -1.8194779 4288085770
-2.3474808 0.1427083 -1.8232921 4288085770
-3.3182297 0.21250486 -1.8185315 4288085770
-2.2023392 0.15329266 -1.8223474 4288085770
-3.1580963 0.22097063 -1.834579 4288085770
-2.0621948 0.16590357 -1.8184112 4288085770
-3.0229607 0.23055649 -1.8396297 4288085770
-1.9030495 0.17745209 -1.8164716 4288085770
-2.9138184 0.24226117 -1.8346875 4288085770
-1.7299156 0.18795156 -1.8165281 4288085770
-2.7816811 0.25187325 -1.8357377 4288085770
-1.5547714 0.1994586 -1.813589 4288085770
-2.6705437 0.26358533 -1.8277956 4288085770
-1.3856316 0.21099138 -1.8086494 4288085770
-2.5374107 0.27321267 -1.8248457 4288085770
-1.1595001 0.22132182 -1.8127083 4288085770
-2.3972702 0.28381991 -1.8219006 4288085770
-0.93935776 0.23168254 -1.8137667 4288085770
-2.2261391 0.29230738 -1.8259478 4288085770
-0.70622253 0.24201012 -1.8138256 4288085770
-2.0730019 0.30288172 -1.8220031 4288085770
-0.46508026 0.25331974 -1.8128891 4288085770
-1.8958588 0.31236935 -1.8220551 4288085770
-0.2069397 0.26358485 -1.810949 4288085770
-1.7167282 0.32185602 -1.8211069 4288085770
0.074199677 0.27377558 -1.8110096 4288085770
-1.525589 0.3313086 -1.8201591 4288085770
0.37533569 0.28390455 -1.8120712 4288085770
-1.3344574 0.3397696 -1.8172069 4288085770
