# .PCD v0.7 - Point Cloud Data file format
VERSION 0.7
FIELDS x y z rgb
SIZE 4 4 4 4
TYPE F F F U
COUNT 1 1 1 1
WIDTH 1124
HEIGHT 1
VIEWPOINT 0 0 0 1 0 0 0
POINTS 1124
DATA ascii
16.274933 2.3941698 -1.7203679 4288085770
16.832062 2.3672938 -1.7141858 4288085770
17.547134 2.353456 -1.7202374 4288085770
18.216263 2.3266058 -1.7192197 4288085770
19.000366 2.302783 -1.7253715 4288085770
19.688492 2.2589378 -1.7193809 4288085770
19.61113 -5.9684772 -0.79879779 4293729569
19.670212 -6.1314697 -0.84087366 4293729569
13.538239 -5.7879725 -0.51886117 4293729569
13.485245 -5.79599 -1.2367818 4293729569
13.494293 -5.8639879 -0.56879002 4293729569
13.432327 -5.8700075 -1.2856977 4293729569
13.53833 -5.9769831 -0.62484568 4293729569
13.512375 -6.0009937 -1.3478051 4293729569
16.530289 -7.4403009 -1.7071445 4293729569
15.820343 -7.2334719 -1.7041124 4293729569
10.870636 -5.0696239 -1.2369789 4293729569
10.817459 -5.0856361 -0.68889844 4293729569
10.67868 -5.0546741 -1.2646962 4293729569
10.638519 -5.0736828 -0.72663468 4293729569
10.51474 -5.0527172 -1.2964541 4293729569
10.461563 -5.060729 -0.76437384 4293729569
10.348801 -5.0437622 -1.3272091 4293729569
10.325623 -5.0637665 -0.80317211 4293729569
10.214859 -5.0477982 -1.3610103 4293729569
10.174667 -5.0548077 -0.840949 4293729569
10.184906 -5.100811 -1.4079611 4293729569
10.168732 -5.1168146 -0.89093417 4293729569
10.179947 -5.1648178 -1.4599478 4293729569
10.171753 -5.181819 -0.94293231 4293729569
10.179993 -5.2318239 -1.5139415 4293729569
10.166824 -5.241827 -0.99391884 4293729569
10.180038 -5.2958307 -1.5689352 4293729569
10.159866 -5.3008327 -1.0479025 4293729569
9.5061646 -5.0119905 -1.5229626 4293729569
9.5019226 -5.0199919 -1.034953 4293729569
9.4362183 -5.0350132 -1.5658565 4293729569
9.4449615 -5.0450106 -1.0808656 4293729569
9.3992462 -5.074028 -1.6137975 4293729569
9.4049988 -5.0790262 -1.1288023 4293729569
9.4012909 -5.1310339 -1.6697946 4293729569
9.4000549 -5.1290331 -1.1817893 4293729569
9.3283386 -5.1470566 -1.7126842 4293729569
9.3770905 -5.1670427 -1.2337506 4293729569
9.1784058 -5.1190977 -1.7424636 4293729569
9.4361267 -5.2500353 -1.2958288 4293729569
8.8854828 -5.0091705 -1.7440388 4293729569
12.016006 -6.7204456 -1.7045115 4293729569
8.5965576 -4.8982439 -1.7446202 4293729569
11.551041 -6.5235586 -1.7118393 4293729569
8.3196411 -4.788312 -1.7442191 4293729569
11.0961 -6.3236704 -1.714182 4293729569
8.0577087 -4.6833792 -1.7438396 4293729569
10.642151 -6.118782 -1.7125269 4293729569
7.859787 -4.6114311 -1.7545519 4293729569
10.241211 -5.93888 -1.7139478 4293729569
7.6348724 -4.5194893 -1.757226 4293729569
9.8652802 -5.7669744 -1.715405 4293729569
7.4209595 -4.4315434 -1.7599158 4293729569
9.5173492 -5.6070595 -1.7179025 4293729569
7.2870178 -4.3875809 -1.7797201 4293729569
9.1994019 -5.4611387 -1.7224433 4293729569
7.2510834 -4.3985958 -1.8216641 4288085770
8.9424591 -5.3452053 -1.7340713 4293729569
7.2011261 -4.3996143 -1.8585882 4288085770
8.6515503 -5.2062778 -1.7366513 4293729569
7.1291809 -4.3856373 -1.891481 4288085770
8.3136139 -5.0363617 -1.7281648 4293729569
6.9452667 -4.3026848 -1.8952149 4288085770
8.0417175 -4.9004307 -1.7277727 4293729569
6.77034 -4.2227316 -1.8979617 4288085770
7.846756 -4.8084812 -1.7394905 4293729569
6.5374451 -4.1037903 -1.8836261 4288085770
7.6378479 -4.7045345 -1.7471884 4293729569
6.3415375 -4.0048409 -1.8763434 4288085770
7.3909302 -4.5755978 -1.7428329 4293729569
6.2026215 -3.93888 -1.8821422 4288085770
7.1640015 -4.4546556 -1.7405059 4293729569
6.0567017 -3.8659191 -1.884931 4288085770
7.0340729 -4.3916922 -1.7583169 4293729569
5.9138031 -3.7929583 -1.8867244 4288085770
6.9951172 -4.3807087 -1.7972572 4293729569
5.756897 -3.7079992 -1.881498 4288085770
6.9961548 -4.3927135 -1.8452542 4288085770
5.6249847 -3.6380358 -1.8833071 4288085770
6.9562225 -4.3777285 -1.8831934 4288085770
5.4990692 -3.5690708 -1.8831249 4288085770
6.837265 -4.3117638 -1.8980204 4288085770
5.3771667 -3.5011053 -1.8829488 4288085770
6.6273499 -4.188818 -1.8867189 4288085770
5.2482452 -3.4261408 -1.879763 4288085770
6.421463 -4.0658703 -1.8744234 4288085770
5.1343536 -3.3601732 -1.8785986 4288085770
6.2665558 -3.9729128 -1.8732001 4288085770
5.0104523 -3.2852068 -1.87242 4288085770
6.1466217 -3.8989468 -1.8800265 4288085770
6.0167236 -3.8179817 -1.8808392 4288085770
5.8868103 -3.7350187 -1.8796521 4288085770
5.7619019 -3.6530523 -1.8794721 4288085770
5.644989 -3.5750847 -1.8793038 4288085770
5.5310669 -3.4981174 -1.8771394 4288085770
5.4251556 -3.4241476 -1.8759869 4288085770
5.3162689 -3.3481779 -1.8728303 4288085770
5.2213593 -3.2792063 -1.8726932 4288085770
5.1164398 -3.2032366 -1.8665425 4288085770
5.029541 -3.1372623 -1.8644172 4288085770
5.0175323 -1.1206036 -1.8222904 4288085770
5.0726318 -1.0985956 -1.8163656 4288085770
5.1537476 -1.0825825 -1.8184767 4288085770
5.230835 -1.0655708 -1.8175821 4288085770
5.3069458 -1.0475578 -1.8156862 4288085770
5.4060516 -1.0335407 -1.8198223 4288085770
5.4781647 -1.0145302 -1.8149208 4288085770
5.5742493 -0.99851322 -1.8150523 4288085770
5.6713715 -0.98249722 -1.8151853 4288085770
5.7744598 -0.96647739 -1.8153266 4288085770
5.8825684 -0.95145702 -1.8154746 4288085770
6.0326691 -0.94142914 -1.8256807 4288085770
6.1197662 -0.92141342 -1.8167996 4288085770
5.0287933 -0.74467182 -1.8062903 4288085770
6.2158966 -0.90239716 -1.808931 4288085770
5.1358948 -0.73165131 -1.8114371 4288085770
6.3579865 -0.88936901 -1.8121258 4288085770
5.2259979 -0.71563625 -1.8085605 4288085770
6.4980927 -0.87534237 -1.8133179 4288085770
5.3181 -0.70062065 -1.8056866 4288085770
6.6421967 -0.86131477 -1.8135153 4288085770
5.41922 -0.68560171 -1.8038249 4288085770
6.7922821 -0.84628582 -1.812721 4288085770
5.5323181 -0.67158175 -1.8039798 4288085770
6.9493866 -0.83225441 -1.8119361 4288085770
5.6514282 -0.65755987 -1.8051429 4288085770
7.1074982 -0.8172226 -1.8091527 4288085770
5.7705231 -0.64253807 -1.8033059 4288085770
7.285614 -0.80218697 -1.8083969 4288085770
5.9196167 -0.6305089 -1.8095104 4288085770
7.521698 -0.79413795 -1.8197209 4288085770
6.0707092 -0.61847878 -1.8137172 4288085770
7.7108002 -0.77910042 -1.8159798 4288085770
6.1778259 -0.6004591 -1.8038635 4288085770
7.8939209 -0.76206303 -1.8092306 4288085770
6.3349304 -0.58742857 -1.8060788 4288085770
8.0990448 -0.74701977 -1.8045114 4288085770
6.5010529 -0.57439613 -1.8073063 4288085770
8.3171387 -0.73197365 -1.7998102 4288085770
6.6911469 -0.56235743 -1.8135668 4288085770
8.580246 -0.7189188 -1.8001707 4288085770
6.8502502 -0.54732561 -1.8087844 4288085770
8.8163605 -0.70286942 -1.7924939 4288085770
7.0233459 -0.53228998 -1.8060212 4288085770
9.0904694 -0.6888113 -1.7898692 4288085770
7.2214508 -0.51924992 -1.8052924 4288085770
9.4035645 -0.67574263 -1.7892985 4288085770
7.4675598 -0.50819921 -1.8156296 4288085770
9.7436829 -0.66466904 -1.7907643 4288085770
7.6996307 -0.49514961 -1.8169475 4288085770
10.097794 -0.65159178 -1.7882496 4288085770
7.9207458 -0.4811039 -1.8142498 4288085770
10.480896 -0.63950825 -1.7887745 4288085770
8.1238708 -0.46406221 -1.8045274 4288085770
10.862 -0.62542486 -1.7812963 4288085770
8.3509979 -0.44801426 -1.7958378 4288085770
11.324112 -0.61332226 -1.7809293 4288085770
8.6270905 -0.43495607 -1.7952156 4288085770
11.814209 -0.60121346 -1.7786007 4288085770
8.8912048 -0.41889954 -1.7875766 4288085770
12.335312 -0.58809805 -1.7763144 4288085770
9.205307 -0.40483046 -1.7860062 4288085770
12.959427 -0.57795715 -1.7781696 4288085770
9.5804138 -0.39274979 -1.7905196 4288085770
13.622528 -0.56680822 -1.7780777 4288085770
9.9215088 -0.37667561 -1.7839859 4288085770
14.361633 -0.55564213 -1.7780902 4288085770
10.329636 -0.36358595 -1.7845441 4288085770
15.18074 -0.54445648 -1.7772123 4288085770
10.747742 -0.34849358 -1.780116 4288085770
16.118851 -0.53424263 -1.7774973 4288085770
11.233841 -0.3343854 -1.7807809 4288085770
17.158951 -0.52300501 -1.7749219 4288085770
11.723953 -0.31827641 -1.7754509 4288085770
18.309052 -0.51174307 -1.7704968 4288085770
12.302048 -0.3041482 -1.7762417 4288085770
19.614182 -0.50044298 -1.7642841 4288085770
12.916153 -0.28900909 -1.7730813 4288085770
13.635254 -0.27384758 -1.7750653 4288085770
14.490356 -0.25965357 -1.783235 4288085770
15.34845 -0.24245834 -1.7794082 4288085770
16.339569 -0.22522879 -1.7777624 4288085770
17.445679 -0.20697689 -1.7752723 4288085770
18.822784 -0.18966055 -1.7811527 4288085770
19.675873 0.040489674 -1.7588282 4288085770
18.296982 0.045192242 -1.7703118 4288085770
17.007095 0.050916195 -1.7688943 4288085770
15.90419 0.057678699 -1.7716821 4288085770
14.973282 0.065477371 -1.778659 4288085770
14.041397 0.072275639 -1.7716359 4288085770
13.201523 0.080093861 -1.7647139 4288085770
12.530624 0.088947296 -1.7679769 4288085770
18.63266 0.1512146 -1.7606177 4288085770
11.910706 0.096810818 -1.7692961 4288085770
17.277771 0.16092587 -1.7581345 4288085770
11.31781 0.10568094 -1.7656455 4288085770
16.199875 0.17169237 -1.7659541 4288085770
10.820923 0.11457109 -1.7690998 4288085770
15.23996 0.18248606 -1.7699029 4288085770
10.401016 0.12347698 -1.7776384 4288085770
14.364059 0.19329739 -1.7719443 4288085770
9.9851074 0.13338423 -1.7821822 4288085770
13.479187 0.20310783 -1.7619771 4288085770
9.613205 0.14329958 -1.7877738 4288085770
12.75029 0.2129488 -1.7581797 4288085770
9.1903229 0.15220594 -1.7793107 4288085770
12.17038 0.22382116 -1.7655448 4288085770
8.8844299 0.16213465 -1.7859746 4288085770
11.601486 0.23469687 -1.7669222 4288085770
8.5795288 0.17206526 -1.7896402 4288085770
11.037598 0.24557352 -1.761306 4288085770
8.314621 0.18300247 -1.7973495 4288085770
10.594696 0.25647497 -1.7678213 4288085770
8.0637207 0.19294357 -1.8050742 4288085770
10.223785 0.26939011 -1.7794152 4288085770
7.820816 0.20388746 -1.8098079 4288085770
9.8168945 0.28029919 -1.7789706 4288085770
7.6659088 0.21584702 -1.8306371 4288085770
9.4429932 0.2912159 -1.7795619 4288085770
7.382019 0.22578239 -1.8193269 4288085770
9.0970917 0.30213785 -1.7801839 4288085770
7.1221313 0.23572302 -1.811043 4288085770
8.7872009 0.31406641 -1.7828454 4288085770
6.9702148 0.247684 -1.8248761 4288085770
8.4992981 0.32500076 -1.7855306 4288085770
6.8672943 0.26165438 -1.8487624 4288085770
8.2533875 0.3379426 -1.7932619 4288085770
6.6564026 0.27160549 -1.8425319 4288085770
8.0254974 0.35088825 -1.8000128 4288085770
6.4665222 0.2815609 -1.8403244 4288085770
7.8145905 0.3638382 -1.8087822 4288085770
6.3785858 0.29653454 -1.8632275 4282675967
7.6406708 0.37779474 -1.8225918 4288085770
6.0947266 0.30247307 -1.8279189 4288085770
7.3677979 0.38773298 -1.8112949 4288085770
5.8368835 0.30941677 -1.7976388 4288085770
7.1229248 0.39767694 -1.8020283 4288085770
5.6719818 0.31937647 -1.7904593 4288085770
6.9929962 0.41264296 -1.8178858 4288085770
5.5260925 0.32934189 -1.7862999 4288085770
6.8670654 0.42760897 -1.8337481 4288085770
5.387207 0.33930683 -1.7821486 4288085770
6.7601471 0.4445796 -1.8516309 4282675967
5.2853088 0.35227919 -1.7890375 4288085770
6.5132751 0.45152426 -1.8313628 4288085770
5.1853943 0.36425161 -1.7949282 4288085770
6.4453735 0.47050142 -1.8562881 4282675967
5.0385132 0.37421656 -1.7837688 4288085770
6.319458 0.48446941 -1.8641508 4282675967
5.9956207 0.48440075 -1.8138002 4288085770
5.7867432 0.49135399 -1.7915736 4288085770
5.6478729 0.50331974 -1.787423 4288085770
5.4909821 0.51228285 -1.7772528 4288085770
5.3860779 0.52525473 -1.7801389 4288085770
5.2851715 0.53922844 -1.7830292 4288085770
5.172287 0.55119944 -1.7799067 4288085770
5.0693817 0.56417179 -1.7797953 4288085770
5.0898285 2.8276286 -1.7267947 4288085770
5.2079315 2.8806458 -1.7269174 4288085770
5.3220215 2.9296618 -1.7250353 4288085770
5.4391174 2.9796786 -1.7221564 4288085770
5.5742188 3.0356989 -1.7222961 4288085770
5.7003021 3.0867176 -1.7194263 4288085770
5.8594055 3.1527424 -1.7235912 4288085770
6.013504 3.2137661 -1.7237502 4288085770
5.0206299 2.7515697 -1.7366966 4288085770
6.1516113 3.2647872 -1.7178919 4288085770
5.1317291 2.7895861 -1.7328101 4288085770
6.3656769 3.3528218 -1.730114 4288085770
5.2498322 2.8306026 -1.7319311 4288085770
6.5347748 3.4148486 -1.7282878 4288085770
5.3629456 2.8656192 -1.727046 4288085770
6.7348633 3.4908803 -1.733494 4288085770
5.4940338 2.9096375 -1.7271799 4288085770
6.9439392 3.5689144 -1.7377095 4288085770
5.6401367 2.9586601 -1.7283295 4288085770
7.1500397 3.641948 -1.7379211 4288085770
5.7922211 3.0076838 -1.7304846 4288085770
7.335144 3.7019777 -1.7321099 4288085770
5.9433289 3.0557065 -1.7316388 4288085770
7.5492401 3.7740135 -1.7303292 4288085770
6.085434 3.0957289 -1.7277827 4288085770
7.8133087 3.8670576 -1.7366004 4288085770
6.2615204 3.1507559 -1.7319623 4288085770
8.0084229 3.9250903 -1.7267984 4288085770
6.4246216 3.1967812 -1.7311275 4288085770
8.2565308 4.0031319 -1.7240516 4288085770
6.5867157 3.2408066 -1.7282915 4288085770
8.5376129 4.0941792 -1.7273389 4288085770
6.7878113 3.3008389 -1.7334961 4288085770
8.824707 4.1842289 -1.7276318 4288085770
6.9619141 3.3438666 -1.7306718 4288085770
9.1087952 4.2692776 -1.724921 4288085770
7.1590118 3.396898 -1.7308711 4288085770
9.4208832 4.3643312 -1.7252389 4288085770
7.3540955 3.4439297 -1.7290674 4288085770
9.7029724 4.4393797 -1.7165241 4288085770
7.5602112 3.4949636 -1.7282753 4288085770
10.013077 4.5244341 -1.7098383 4288085770
7.7362976 3.5299916 -1.7204511 4288085770
10.349167 4.6164923 -1.7061789 4288085770
7.9504089 3.5770276 -1.7176659 4288085770
10.700272 4.7105546 -1.7015342 4288085770
8.1725159 3.6260643 -1.7148887 4288085770
11.095352 4.8176236 -1.6999344 4288085770
8.4226074 3.6831052 -1.7171401 4288085770
11.486465 4.9186926 -1.6943297 4288085770
8.6767273 3.7391479 -1.7173951 4288085770
11.84256 4.9987555 -1.6816872 4288085770
8.9378052 3.7931914 -1.7166566 4288085770
11.221863 4.6756468 -1.5360268 4293729569
9.1909027 3.8412342 -1.7129091 4288085770
10.888123 4.4755878 -1.4346662 4293729569
9.480011 3.8992832 -1.7141982 4288085770
10.985275 4.4476051 -1.3907537 4293729569
9.7790985 3.9583342 -1.7154971 4288085770
11.153412 4.4466333 -1.3549149 4293729569
10.065201 4.0063829 -1.7117815 4288085770
11.415558 4.4776807 -1.3291728 4293729569
10.3853 4.0644379 -1.7121004 4288085770
11.538696 4.4547024 -1.2882862 4293729569
10.695404 4.114491 -1.7084084 4288085770
11.636841 4.4187193 -1.2433733 4293729569
11.013504 4.1625462 -1.7047234 4288085770
11.806976 4.4077501 -1.2065345 4293729569
11.365601 4.2186069 -1.7040731 4288085770
17.831192 6.4958372 -1.7207338 4282675967
11.728699 4.2736702 -1.7034326 4288085770
18.673264 6.6789913 -1.7175788 4282675967
12.086792 4.3217316 -1.6987863 4288085770
19.519363 6.8511467 -1.7094256 4282675967
12.483887 4.3768015 -1.6981789 4288085770
12.887985 4.429872 -1.6965777 4288085770
13.366074 4.501956 -1.7020514 4288085770
13.854156 4.5700421 -1.706534 4288085770
14.330261 4.6271262 -1.707003 4288085770
14.880341 4.7012229 -1.7135462 4288085770
15.410446 4.7613173 -1.7160677 4288085770
15.960526 4.8184147 -1.7176077 4288085770
16.550629 4.8815188 -1.7211872 4288085770
17.126724 4.9316225 -1.7207508 4288085770
17.66684 4.9647188 -1.7162765 4288085770
18.212952 4.9898157 -1.7098067 4288085770
18.876038 5.0409346 -1.7114543 4288085770
19.511139 5.0730476 -1.710071 4288085770
19.340012 -4.1284914 -1.8580354 4288085770
18.713089 -4.1186142 -1.8584344 4288085770
18.141205 -4.1137276 -1.8628854 4288085770
17.550293 -4.0968428 -1.8623207 4288085770
16.979401 -4.0769548 -1.863776 4288085770
16.444504 -4.0570602 -1.8642653 4288085770
15.933609 -4.0361624 -1.8667781 4288085770
15.414719 -4.0062628 -1.8662853 4288085770
14.894806 -3.9703646 -1.8637929 4288085770
14.395905 -3.9314623 -1.860321 4288085770
13.937012 -3.8975534 -1.8598865 4288085770
19.953522 -5.6324387 -1.7212956 4293729569
13.493118 -3.8616409 -1.858467 4288085770
19.111603 -5.517601 -1.7305101 4293729569
13.055206 -3.8207283 -1.8560542 4288085770
18.192673 -5.367775 -1.7266581 4293729569
12.629318 -3.777812 -1.8536534 4288085770
17.379761 -5.2369308 -1.7259036 4293729569
12.251419 -3.7428885 -1.8542969 4288085770
16.703827 -5.1360636 -1.7352743 4293729569
11.902496 -3.7119579 -1.8579674 4288085770
15.958923 -5.0062056 -1.7315851 4293729569
11.531616 -3.6690321 -1.8556193 4288085770
15.330994 -4.9023285 -1.7360027 4293729569
11.194702 -3.6331005 -1.8563025 4288085770
14.778091 -4.8164358 -1.7444885 4293729569
10.863815 -3.5941668 -1.8569921 4288085770
14.329163 -4.7575274 -1.7630686 4293729569
10.553909 -3.5582304 -1.8597013 4288085770
13.989243 -4.729599 -1.7917467 4293729569
10.233994 -3.5132961 -1.8574026 4288085770
13.701294 -4.7136621 -1.8244721 4288085770
9.9531097 -3.4783535 -1.8611394 4288085770
13.430389 -4.6987238 -1.8582134 4288085770
9.6742096 -3.4404106 -1.8618788 4288085770
13.049469 -4.6408014 -1.8738583 4288085770
9.3852997 -3.3934698 -1.8586102 4288085770
12.611557 -4.557889 -1.8794543 4288085770
9.1174011 -3.3525248 -1.8583606 4288085770
12.14064 -4.4569807 -1.8770219 4288085770
8.8724976 -3.3145752 -1.8611326 4288085770
11.689728 -4.3580685 -1.8736087 4288085770
8.6286011 -3.2746267 -1.860906 4288085770
11.270828 -4.265152 -1.871225 4288085770
8.3956909 -3.2346754 -1.8616898 4288085770
10.907913 -4.1872234 -1.8738917 4288085770
8.1607971 -3.1917229 -1.8594724 4288085770
10.521011 -4.0962992 -1.8705381 4288085770
7.9338989 -3.1477709 -1.8582628 4288085770
10.174103 -4.0153685 -1.870221 4288085770
7.7309875 -3.1108141 -1.8600749 4288085770
9.8461761 -3.9374342 -1.8699213 4288085770
7.536087 -3.0748568 -1.8618944 4288085770
9.5522766 -3.8704948 -1.8736521 4288085770
7.3302002 -3.030899 -1.8607049 4288085770
9.2503662 -3.7955551 -1.8723768 4288085770
7.1242981 -2.9849415 -1.856516 4288085770
8.9454803 -3.7146177 -1.8691 4288085770
6.944397 -2.9469814 -1.8573503 4288085770
8.6945648 -3.6536703 -1.8728708 4288085770
6.7705078 -2.9090185 -1.8581907 4288085770
8.4316406 -3.5847235 -1.8726317 4288085770
6.5746002 -2.8590593 -1.8510122 4288085770
8.1847534 -3.5177746 -1.8724076 4288085770
6.40271 -2.8170967 -1.848855 4288085770
7.9518433 -3.4548235 -1.873196 4288085770
6.260788 -2.786129 -1.8537242 4288085770
7.6989441 -3.3798742 -1.8659679 4288085770
6.0939026 -2.7411652 -1.8495724 4288085770
7.4800262 -3.3169203 -1.8647699 4288085770
5.9519958 -2.7061958 -1.8504426 4288085770
7.2691345 -3.2539635 -1.8635794 4288085770
5.812088 -2.670228 -1.8513149 4288085770
7.0662231 -3.1930065 -1.8623962 4288085770
5.683197 -2.6362572 -1.8531973 4288085770
6.8773193 -3.1350451 -1.861226 4288085770
5.5422821 -2.5952873 -1.8510698 4288085770
6.697403 -3.0790844 -1.8610638 4288085770
5.4063873 -2.5563183 -1.8489467 4288085770
6.4975281 -3.012126 -1.8538853 4288085770
5.2914886 -2.5233459 -1.8518422 4288085770
6.3166351 -2.9521627 -1.8487232 4288085770
5.1645813 -2.484374 -1.8487276 4288085770
6.1787109 -2.9091959 -1.8535982 4288085770
5.047699 -2.4474001 -1.8476222 4288085770
6.0298004 -2.8582277 -1.8544647 4288085770
5.8739014 -2.8042631 -1.8523253 4288085770
5.730011 -2.7522945 -1.8501968 4288085770
5.5961151 -2.7043247 -1.850077 4288085770
5.4752045 -2.6603527 -1.8519689 4288085770
5.3383179 -2.6073818 -1.8468474 4288085770
5.2264099 -2.5654078 -1.8477474 4288085770
5.1235046 -2.5254335 -1.8516556 4288085770
5.0166016 -2.4824591 -1.8505605 4288085770
5.068512 -0.28596354 -1.7926481 4288085770
5.1626129 -0.27195263 -1.7887284 4288085770
5.2697144 -0.25993872 -1.7878194 4288085770
5.3798218 -0.24792337 -1.7869129 4288085770
5.490921 -0.23590994 -1.7840072 4288085770
5.6160431 -0.22289228 -1.7841136 4288085770
5.7621307 -0.2118721 -1.7882376 4288085770
5.9102478 -0.20085192 -1.791363 4288085770
6.0833435 -0.18982792 -1.7985098 4288085770
5.1133728 -0.13000298 -1.7996858 4288085770
6.2284393 -0.1778059 -1.7956326 4288085770
5.2134705 -0.11898994 -1.7947704 4288085770
6.4195404 -0.16677856 -1.8037944 4288085770
5.3235931 -0.10797596 -1.7908636 4288085770
6.6116333 -0.15575075 -1.8089569 4288085770
5.4416962 -0.097959518 -1.7869631 4288085770
6.8187408 -0.14472055 -1.8151321 4288085770
5.5857849 -0.087940216 -1.7910848 4288085770
7.0008392 -0.13269377 -1.8122858 4288085770
5.7268982 -0.076920033 -1.791204 4288085770
7.1679535 -0.11966658 -1.8034266 4288085770
5.9030151 -0.067894936 -1.7993525 4288085770
7.39505 -0.10863256 -1.8056183 4288085770
6.0601196 -0.056872368 -1.7994851 4288085770
7.6391754 -0.097596169 -1.8088242 4288085770
6.3191833 -0.048835278 -1.825704 4288085770
7.8652649 -0.085559845 -1.8050146 4288085770
6.4403076 -0.037817478 -1.8108054 4288085770
8.08638 -0.073524952 -1.7952007 4288085770
6.6554108 -0.027785778 -1.8189865 4288085770
8.3284912 -0.061486244 -1.7884042 4288085770
6.864502 -0.018754005 -1.8221625 4288085770
8.601593 -0.050442219 -1.7836341 4288085770
7.0506134 -0.0087256432 -1.8173188 4288085770
8.919693 -0.03839159 -1.7839017 4288085770
7.2107391 0.0012998581 -1.8034526 4288085770
9.2228088 -0.027341366 -1.7771564 4288085770
7.5338135 0.010347366 -1.8247246 4288085770
9.6448975 -0.016274452 -1.7865114 4288085770
7.7549286 0.020383835 -1.8169099 4288085770
10.00502 -0.0042133331 -1.778814 4288085770
7.9790497 0.029418468 -1.8090973 4288085770
10.412125 0.0068531036 -1.7751557 4288085770
8.2241516 0.037457466 -1.8023021 4288085770
10.84024 0.017925262 -1.7695148 4288085770
8.4652557 0.045497894 -1.7905035 4288085770
11.315353 0.029005527 -1.7629133 4288085770
8.7783661 0.054546833 -1.7887657 4288085770
11.88446 0.03910017 -1.7653909 4288085770
9.0595093 0.06259346 -1.7780002 4288085770
12.493561 0.0502038 -1.7649018 4288085770
9.4465942 0.070656776 -1.7823243 4288085770
13.154648 0.061316013 -1.7624561 4288085770
9.8526917 0.078722477 -1.784664 4288085770
13.957764 0.072453022 -1.7681297 4288085770
10.239807 0.085787296 -1.776987 4288085770
14.869873 0.084609509 -1.7738945 4288085770
10.680923 0.092860222 -1.7733552 4288085770
15.782974 0.095766544 -1.7686595 4288085770
11.162033 0.099941254 -1.7697569 4288085770
16.797089 0.10694265 -1.7605087 4288085770
11.712128 0.10603428 -1.7692159 4288085770
18.041183 0.11915922 -1.7615508 4288085770
12.319229 0.11213684 -1.7697228 4288085770
19.374298 0.12939119 -1.7516668 4288085770
12.974335 0.11824846 -1.7672694 4288085770
13.72345 0.12337589 -1.7678944 4288085770
14.649536 0.12853289 -1.7786672 4288085770
15.576645 0.13169336 -1.7764399 4288085770
16.609772 0.13387203 -1.7713004 4288085770
17.759888 0.13507271 -1.7632583 4288085770
19.156982 0.1353159 -1.7644223 4288085770
19.626846 -6.1196012 -0.54126531 4293729569
19.624908 -5.9796143 -0.58627629 4293729569
18.841019 0.38008404 -1.7545754 4288085770
17.556107 0.40389013 -1.7537408 4288085770
16.510208 0.42873144 -1.7600616 4288085770
15.584305 0.45059013 -1.7644604 4288085770
14.732422 0.47146034 -1.7649076 4288085770
13.911514 0.48933458 -1.7603748 4288085770
13.177643 0.50722313 -1.7548988 4288085770
19.896652 0.79819012 -1.7192672 4288085770
12.582718 0.5261302 -1.7585129 4288085770
18.627777 0.81099892 -1.7274438 4288085770
12.026825 0.54404354 -1.7611525 4288085770
17.507858 0.82282925 -1.7347172 4288085770
11.497925 0.5609622 -1.7588098 4288085770
16.482956 0.83367538 -1.7380527 4288085770
11.030045 0.57788706 -1.7595068 4288085770
15.578079 0.84453821 -1.7394657 4288085770
10.604141 0.59482002 -1.7612308 4288085770
14.791168 0.85841703 -1.7449558 4288085770
10.219238 0.61275768 -1.7639819 4288085770
14.017273 0.86630058 -1.740454 4288085770
9.8883514 0.6307044 -1.7697678 4288085770
13.31839 0.87519455 -1.7360009 4288085770
9.5414429 0.64664841 -1.7695435 4288085770
12.745483 0.88910532 -1.7406298 4288085770
9.2315521 0.6625967 -1.771343 4288085770
12.207596 0.90102148 -1.7412815 4288085770
8.9606476 0.68055105 -1.777168 4288085770
11.696686 0.91294193 -1.7399508 4288085770
8.6627655 0.69550323 -1.7739757 4288085770
11.22081 0.92286873 -1.7376426 4288085770
8.4338531 0.71346331 -1.780828 4288085770
10.821915 0.93680477 -1.7403846 4288085770
8.1999512 0.72942352 -1.7826769 4288085770
10.450012 0.95074511 -1.743144 4288085770
8.0100555 0.7483902 -1.7915548 4288085770
10.103119 0.96468925 -1.7449201 4288085770
7.8291473 0.76735687 -1.7994386 4288085770
9.8032227 0.98063946 -1.7507263 4288085770
7.6312561 0.78432226 -1.8023112 4288085770
9.5063171 0.99559069 -1.7535347 4288085770
7.4783478 0.80429459 -1.811213 4288085770
9.1964111 1.0075417 -1.7503346 4288085770
7.2234802 0.81225348 -1.7950482 4288085770
8.9385071 1.0224977 -1.7531682 4288085770
7.0795593 0.83122683 -1.8019561 4288085770
8.6946259 1.0364566 -1.754011 4288085770
6.9486694 0.85020065 -1.8098722 4288085770
8.4607391 1.0514178 -1.7548602 4288085770
6.803772 0.86717415 -1.8137792 4288085770
8.254837 1.0663824 -1.7577275 4288085770
6.6418762 0.88214588 -1.8096751 4288085770
8.0359344 1.0803456 -1.7565867 4288085770
6.5539856 0.90412617 -1.8246194 4288085770
7.8620453 1.0983148 -1.760475 4288085770
6.4280701 0.92210197 -1.8265389 4288085770
7.68013 1.1132822 -1.7623578 4288085770
6.2312012 0.92907095 -1.8074119 4288085770
7.5592194 1.1362581 -1.7742809 4288085770
6.1082916 0.94404745 -1.8073331 4288085770
7.4053345 1.1542301 -1.7781821 4288085770
5.9524078 0.95502138 -1.7952331 4288085770
7.2614441 1.1722035 -1.7820901 4288085770
5.7875214 0.9629941 -1.7801269 4288085770
7.0695648 1.1811719 -1.7719665 4288085770
5.6576385 0.97497129 -1.7720437 4288085770
6.9376678 1.2001462 -1.7758821 4288085770
5.5437317 0.98894978 -1.7679708 4288085770
6.8017426 1.2161217 -1.7757952 4288085770
5.4408417 1.0039301 -1.7649052 4288085770
6.6748505 1.233098 -1.775714 4288085770
5.3559418 1.0209126 -1.7668513 4288085770
6.5539551 1.2500753 -1.7766368 4288085770
5.2670593 1.0368948 -1.7657945 4288085770
6.4420624 1.2670541 -1.7765654 4288085770
5.1821594 1.0528769 -1.7637408 4288085770
6.3451691 1.287034 -1.7805039 4288085770
5.1112518 1.0718617 -1.7666961 4288085770
6.192276 1.2950087 -1.7674056 4288085770
5.0153656 1.0848427 -1.7606349 4288085770
6.069397 1.3069863 -1.7613268 4288085770
5.9704895 1.323967 -1.7592638 4288085770
5.8605957 1.3379464 -1.7541935 4288085770
5.7647095 1.3539281 -1.7501326 4288085770
5.6788177 1.3709106 -1.749078 4288085770
5.5889282 1.3868928 -1.7460209 4288085770
5.5130157 1.4058766 -1.7449729 4288085770
5.4371338 1.4238605 -1.743925 4288085770
5.3662415 1.4428449 -1.7418802 4288085770
5.3013458 1.4618301 -1.7418393 4288085770
5.240448 1.4828157 -1.7418014 4288085770
5.1855469 1.5038028 -1.7427669 4288085770
5.1376495 1.5277901 -1.7457373 4288085770
5.0757599 1.5457764 -1.7416985 4288085770
5.0238647 1.5667634 -1.7406662 4288085770
5.0282593 3.0965219 -1.7117348 4288085770
5.0913544 3.1585245 -1.7117771 4288085770
5.144455 3.2145257 -1.706813 4288085770
5.2325592 3.2895312 -1.711872 4288085770
5.3086548 3.3585355 -1.7119229 4288085770
5.3877411 3.4275401 -1.7099756 4288085770
5.4838257 3.5065467 -1.7130396 4288085770
5.5779266 3.5835536 -1.7131022 4288085770
5.7090149 3.6835637 -1.7221895 4288085770
5.8201141 3.7695718 -1.7232629 4288085770
5.9342194 3.8565807 -1.7233384 4288085770
6.077301 3.9605927 -1.7294329 4288085770
6.2273865 4.0686064 -1.7355318 4288085770
6.4144745 4.1996226 -1.7496557 4288085770
5.0936432 3.4394526 -1.7177755 4288085770
6.5405884 4.2896338 -1.7437382 4288085770
5.1957397 3.5104601 -1.717842 4288085770
6.6936798 4.395648 -1.7438384 4288085770
5.303833 3.5844681 -1.7179124 4288085770
6.8517609 4.5026622 -1.7419416 4288085770
5.4369354 3.6724792 -1.7239994 4288085770
7.0378418 4.6266799 -1.7450635 4288085770
5.588028 3.7724917 -1.7330983 4288085770
7.2429199 4.7616997 -1.7501976 4288085770
5.7101135 3.8505015 -1.7321771 4288085770
7.4270325 4.8807178 -1.7463174 4288085770
5.841217 3.9335129 -1.7302618 4288085770
7.5991364 4.9897346 -1.7384288 4288085770
5.9902954 4.025526 -1.7323583 4288085770
7.7902069 5.1087532 -1.7315524 4288085770
6.1903992 4.1505442 -1.7464887 4288085770
7.9893188 5.2297735 -1.7236809 4288085770
6.3654785 4.2555604 -1.7516018 4288085770
8.224411 5.372798 -1.7208331 4288085770
6.5175934 4.3435736 -1.7476993 4288085770
8.4134979 5.4828167 -1.7059541 4288085770
6.6966705 4.4465914 -1.7488143 4288085770
8.0127411 5.211772 -1.5736817 4293729569
6.8717651 4.5456076 -1.7449263 4288085770
7.786911 5.0527449 -1.4815261 4293729569
7.1018372 4.67663 -1.7540745 4288085770
7.7860565 5.0347443 -1.4305202 4293729569
7.2999573 4.7836494 -1.7522011 4288085770
7.8031769 5.0277443 -1.3845261 4293729569
7.496048 4.8876686 -1.7473258 4288085770
7.7953339 5.0017414 -1.3335153 4293729569
7.7021332 4.9956894 -1.7424567 4288085770
7.7974701 4.9807405 -1.2835109 4293729569
7.9052429 5.0967093 -1.7345852 4288085770
7.8126068 4.9667397 -1.236515 4293729569
8.1183472 5.2027316 -1.7267196 4288085770
7.8047485 4.9357371 -1.1865038 4293729569
8.3724213 5.3297577 -1.7238809 4288085770
7.8278961 4.9217377 -1.1415128 4293729569
8.1746063 5.1717353 -1.6307431 4293729569
7.8630066 4.9147406 -1.0975295 4293729569
7.8318176 4.9236956 -1.51351 4293729569
7.887146 4.8987403 -1.052539 4293729569
7.8349609 4.8896942 -1.4635049 4293729569
7.905304 4.8767414 -1.0065442 4293729569
7.8631134 4.8696966 -1.4185164 4293729569
7.9624329 4.8767452 -0.96557492 4293729569
7.8682404 4.8346944 -1.3705128 4293729569
8.0115509 4.8697491 -0.92360038 4293729569
7.8943939 4.8096962 -1.3255227 4293729569
8.0766754 4.8707542 -0.88363582 4293729569
7.920517 4.7846966 -1.2815324 4293729569
8.1558228 4.8777614 -0.84468025 4293729569
7.9356537 4.7506962 -1.2375348 4293729569
8.2589417 4.8967714 -0.80874008 4293729569
7.9557953 4.7186966 -1.1935402 4293729569
8.4000549 4.9357853 -0.77382451 4293729569
7.9829254 4.6896968 -1.1515504 4293729569
8.532196 4.9667988 -0.73890269 4293729569
8.0250549 4.6676993 -1.11157 4293729569
8.6493073 4.9868097 -0.70197082 4293729569
8.0711823 4.6457024 -1.072592 4293729569
8.980423 5.1238461 -0.68017751 4293729569
8.1273346 4.6277065 -1.0356205 4293729569
9.0095367 5.0888476 -0.63518769 4293729569
8.1984558 4.6177115 -1.0006584 4293729569
9.0196991 5.0408459 -0.58918554 4293729569
8.2905731 4.6167197 -0.96770984 4293729569
10.223724 5.6429873 -0.61195499 4293729569
8.3807068 4.6127272 -0.93575972 4293729569
10.13887 5.5349746 -0.55789006 4293729569
8.480835 4.6107359 -0.90281564 4293729569
9.2590942 5.0018663 -0.46731299 4293729569
8.5749664 4.6057444 -0.87086767 4293729569
11.079056 5.9030828 -0.5014748 4293729569
8.6860809 4.6067543 -0.8399303 4293729569
9.6083221 5.0659027 -0.39551884 4293729569
8.8152008 4.6157656 -0.81200433 4293729569
9.634491 5.0169029 -0.35352588 4293729569
8.9033356 4.6007729 -0.7790519 4293729569
9.6816101 4.9769058 -0.31354648 4293729569
9.0374451 4.6067863 -0.75012851 4293729569
9.7787476 4.9609141 -0.27459872 4293729569
9.1795807 4.6147995 -0.72220993 4293729569
10.024857 5.0159402 -0.23974581 4293729569
9.3336945 4.6258135 -0.69529867 4293729569
10.284973 5.0739689 -0.20390134 4293729569
9.2598419 4.5248017 -0.652242 4293729569
9.312973 4.4838042 -0.61926615 4293729569
9.3321075 4.4258032 -0.58426857 4293729569
10.053192 4.6908841 -0.58971584 4293729569
10.115295 4.6458879 -0.55774456 4293729569
10.198441 4.6088939 -0.52678657 4293729569
10.45755 4.648921 -0.50393939 4293729569
10.77066 4.7059536 -0.48412549 4293729569
10.912796 4.6869659 -0.45620376 4293729569
10.988922 4.6379709 -0.42624021 4293729569
11.280029 4.6760015 -0.4044112 4293729569
11.529144 4.6920271 -0.38155526 4293729569
19.852737 -1.8656902 -1.8024855 4288085770
19.063858 -1.9047861 -1.8070289 4288085770
18.287949 -1.9358788 -1.8075808 4288085770
17.582077 -1.9629641 -1.8101732 4288085770
16.942169 -1.9900417 -1.8158034 4288085770
16.313263 -2.011117 -1.8184407 4288085770
15.680374 -2.0221939 -1.8160769 4288085770
15.127502 -2.037261 -1.8197584 4288085770
14.548584 -2.0413322 -1.8164263 4288085770
14.044693 -2.050395 -1.8191367 4288085770
13.516815 -2.0484581 -1.8148347 4288085770
13.034927 -2.0475168 -1.8125588 4288085770
19.526077 -3.1128292 -1.8321438 4288085770
12.591034 -2.0465717 -1.8123047 4288085770
18.52916 -3.0529451 -1.8285801 4288085770
12.156143 -2.0426254 -1.8100563 4288085770
17.673279 -3.0050449 -1.8300959 4288085770
11.775238 -2.0416737 -1.8138382 4288085770
16.907379 -2.9631348 -1.8356621 4288085770
11.38736 -2.0357218 -1.8126169 4288085770
16.105484 -2.9072275 -1.83121 4288085770
11.037445 -2.0317659 -1.8154169 4288085770
15.396576 -2.8593102 -1.83081 4288085770
10.684555 -2.0238104 -1.8142159 4288085770
14.723663 -2.8103905 -1.8294305 4288085770
10.369659 -2.0188513 -1.8170362 4288085770
14.099777 -2.7624636 -1.8270791 4288085770
10.062744 -2.010891 -1.8188614 4288085770
13.547882 -2.7225294 -1.8287678 4288085770
9.7658691 -2.0019283 -1.8206925 4288085770
12.986984 -2.6745958 -1.8254524 4288085770
9.4759674 -1.9909668 -1.8205278 4288085770
12.486084 -2.6326561 -1.8251708 4288085770
9.1770782 -1.9750051 -1.8173587 4288085770
12.020187 -2.591711 -1.8259088 4288085770
8.9561768 -1.9720354 -1.8272326 4288085770
11.572281 -2.550765 -1.8256572 4288085770
8.6912842 -1.956069 -1.8240826 4288085770
11.160385 -2.5118151 -1.8244259 4288085770
8.4543762 -1.9441013 -1.8259486 4288085770
10.784485 -2.4778614 -1.8272148 4288085770
8.2154846 -1.9281321 -1.8248137 4288085770
10.408585 -2.4389086 -1.8260044 4288085770
8.0165863 -1.9201593 -1.8307008 4288085770
10.090698 -2.4099483 -1.8318255 4288085770
7.8076782 -1.9071884 -1.8325826 4288085770
9.7527924 -2.3729897 -1.8306365 4288085770
7.5848083 -1.8882179 -1.8294573 4288085770
9.457901 -2.3430281 -1.8344712 4288085770
7.3939056 -1.8742437 -1.8313496 4288085770
9.1320038 -2.3010683 -1.8282894 4288085770
7.1660004 -1.8482733 -1.8222221 4288085770
8.8851013 -2.2761002 -1.835151 4288085770
6.950119 -1.8233013 -1.8151015 4288085770
8.6141968 -2.2431355 -1.8359997 4288085770
6.7962036 -1.8123236 -1.8210146 4288085770
8.3562927 -2.2091684 -1.835856 4288085770
6.6233215 -1.7953482 -1.8199176 4288085770
8.1014099 -2.1752014 -1.832714 4288085770
6.4354095 -1.7703733 -1.8138129 4288085770
7.8775024 -2.1452312 -1.8355892 4288085770
6.3255157 -1.7673912 -1.8277502 4288085770
7.6546021 -2.1142607 -1.8354651 4288085770
6.1906281 -1.7544127 -1.8326744 4288085770
7.4407196 -2.0822887 -1.8343463 4288085770
6.0937347 -1.7514286 -1.8476189 4288085770
7.2268219 -2.0493164 -1.8322275 4288085770
5.9098206 -1.7214537 -1.8355172 4288085770
7.0389252 -2.0213432 -1.8341233 4288085770
5.7689362 -1.7024746 -1.8354388 4288085770
6.8060303 -1.9783716 -1.8219948 4288085770
5.6250458 -1.6814938 -1.8323588 4288085770
6.6711273 -1.960392 -1.8319194 4288085770
5.5031433 -1.6645136 -1.8342909 4288085770
6.4652405 -1.9214182 -1.8228061 4288085770
5.3782501 -1.6455326 -1.8342214 4288085770
6.333313 -1.9024382 -1.8317324 4288085770
5.2633514 -1.6285496 -1.8361573 4288085770
6.1804199 -1.8754606 -1.8326478 4288085770
5.1524658 -1.612566 -1.8380958 4288085770
6.0685272 -1.859478 -1.8445852 4288085770
5.0305481 -1.5905848 -1.8350283 4288085770
5.8706512 -1.8165035 -1.8294771 4288085770
5.7337341 -1.7895241 -1.8294016 4288085770
5.6028442 -1.7635422 -1.8303294 4288085770
5.4689484 -1.7345619 -1.8282559 4288085770
5.3580627 -1.7125788 -1.8311945 4288085770
5.2371674 -1.6855965 -1.8301282 4288085770
5.1372681 -1.6646137 -1.8350732 4288085770
5.0323486 -1.6406307 -1.8370154 4288085770
5.0352325 0.30668879 -1.7838972 4288085770
5.1663361 0.32069254 -1.7899599 4288085770
5.2754517 0.33269596 -1.787012 4288085770
5.3795624 0.34369898 -1.7810609 4288085770
5.5336609 0.35770416 -1.7891352 4288085770
5.6637726 0.36970806 -1.787197 4288085770
5.8288574 0.38371468 -1.7942762 4288085770
6.0609436 0.40172529 -1.8183886 4288085770
5.0520325 0.36864662 -1.7828839 4288085770
6.4120483 0.42674541 -1.8735603 4282675967
5.2101288 0.38065195 -1.7959596 4288085770
6.4541626 0.43174458 -1.8375775 4288085770
5.3122406 0.38865423 -1.7880073 4288085770
6.6532593 0.44575262 -1.8436725 4288085770
5.4403534 0.39765882 -1.7870679 4288085770
6.8383636 0.45876026 -1.8427603 4288085770
5.5834503 0.40766382 -1.7891355 4288085770
6.9594727 0.46676493 -1.8238164 4288085770
5.7235718 0.41666794 -1.7882016 4288085770
7.1116028 0.47677088 -1.8098875 4288085770
5.9836426 0.43268061 -1.8213269 4288085770
7.2887115 0.48677921 -1.7999709 4288085770
6.2767487 0.45069647 -1.8604685 4282675967
7.6018066 0.50479603 -1.8211211 4288085770
6.45784 0.46070385 -1.863554 4282675967
7.8169098 0.51580667 -1.8142225 4288085770
6.5179749 0.46170378 -1.8305794 4288085770
8.0180359 0.52481699 -1.8013167 4288085770
6.8010559 0.47671843 -1.8557149 4282675967
8.2431335 0.53482771 -1.7904224 4288085770
6.9071808 0.47872114 -1.8317629 4288085770
8.5212402 0.5468421 -1.7865545 4288085770
7.050293 0.48272705 -1.8148289 4288085770
8.8043518 0.55885839 -1.781688 4288085770
7.2283936 0.48773384 -1.8059118 4288085770
9.1164398 0.57087517 -1.7778356 4288085770
7.5345001 0.49975061 -1.8240575 4288085770
9.4425659 0.5818944 -1.7719895 4288085770
7.759613 0.50576162 -1.8201627 4288085770
9.8546753 0.59691811 -1.7771852 4288085770
7.9647217 0.50977135 -1.8082581 4288085770
10.217773 0.60694027 -1.7693561 4288085770
8.1898346 0.5137825 -1.7983629 4288085770
10.637878 0.61896515 -1.7645546 4288085770
8.4619293 0.51879597 -1.7944901 4288085770
11.093002 0.63099384 -1.7597696 4288085770
8.7300415 0.52181101 -1.7856151 4288085770
11.597107 0.64302492 -1.7550077 4288085770
9.0241547 0.52582693 -1.7797524 4288085770
12.188217 0.65806293 -1.7572876 4288085770
9.3532715 0.52884531 -1.7759063 4288085770
12.7883 0.67010021 -1.7535709 4288085770
9.7443695 0.53386784 -1.7800899 4288085770
13.48642 0.68514585 -1.7539008 4288085770
10.102463 0.53488922 -1.7722569 4288085770
14.329529 0.70320225 -1.7633002 4288085770
10.515579 0.53691292 -1.7694498 4288085770
15.180634 0.71725893 -1.760702 4288085770
10.960693 0.53894091 -1.7656579 4288085770
16.085739 0.72931957 -1.7541289 4288085770
11.458801 0.53897095 -1.7648907 4288085770
17.145844 0.74439096 -1.7506293 4288085770
12.028915 0.54000711 -1.767158 4288085770
18.355957 0.75847387 -1.7462008 4288085770
12.613007 0.53804302 -1.7644309 4288085770
19.673065 0.77156496 -1.7368215 4288085770
13.265121 0.53608465 -1.7637357 4288085770
14.04422 0.53413582 -1.7701005 4288085770
14.871323 0.52919054 -1.7714869 4288085770
15.791443 0.52225113 -1.773917 4288085770
16.736557 0.50931454 -1.7653574 4288085770
17.821671 0.4953866 -1.7608635 4288085770
19.062775 0.47847033 -1.7574426 4288085770
9.444931 -5.2642279 -0.13078295 4293729569
9.4030304 -5.1772366 -0.1687621 4293729569
9.3708801 -5.1802511 -0.69674683 4293729569
9.4291229 -5.1272421 -0.20576586 4293729569
9.364975 -5.1142578 -0.73173898 4293729569
9.430191 -5.0632496 -0.24076052 4293729569
9.4250641 -5.0812616 -0.77075499 4293729569
9.4962921 -5.0322514 -0.27677858 4293729569
9.4711609 -5.0412655 -0.80776584 4293729569
10.181396 -5.3232193 -0.3310191 4293729569
10.143234 -5.3282366 -0.89800137 4293729569
10.171478 -5.2452269 -0.36600941 4293729569
10.166321 -5.2672415 -0.93300372 4293729569
10.146576 -5.159236 -0.39799452 4293729569
10.167419 -5.1942482 -0.96599799 4293729569
10.130661 -5.0772429 -0.42998278 4293729569
10.168503 -5.1202545 -0.99699229 4293729569
10.242752 -5.0572433 -0.46501666 4293729569
10.196609 -5.0602589 -1.028996 4293729569
10.421844 -5.0692406 -0.50307441 4293729569
10.353683 -5.0612574 -1.0730458 4293729569
10.596939 -5.0752382 -0.54013044 4293729569
10.50177 -5.0562563 -1.1160923 4293729569
10.784027 -5.0852337 -0.57819057 4293729569
10.691864 -5.0682526 -1.1631535 4293729569
10.865952 -5.0692501 -1.2072088 4293729569
15.184998 -6.9750242 -1.7097296 4293729569
14.987091 -6.7700434 -1.7196507 4293729569
13.495407 -5.9601116 -0.84212142 4293729569
13.436203 -5.9651327 -1.5710951 4293729569
13.4655 -5.8451204 -0.8671028 4293729569
13.415298 -5.8521414 -1.5940797 4293729569
13.560593 -5.7831211 -0.89912826 4293729569
13.498383 -5.7861423 -1.6271008 4293729569
14.089462 -5.9311171 -1.7213 4293729569
13.881546 -5.7351351 -1.717219 4293729569
13.738663 -5.5711489 -1.7191608 4293729569
13.663757 -5.4341593 -1.7271268 4293729569
13.519852 -5.2721739 -1.7250686 4293729569
13.386932 -5.1151867 -1.7220143 4293729569
13.300049 -4.9771976 -1.7239761 4293729569
13.260132 -4.8582058 -1.7299544 4293729569
13.236252 -4.7462149 -1.7359381 4293729569
13.404327 -4.7022114 -1.7649883 4293729569
13.727432 -4.7102013 -1.8140916 4288085770
14.092499 -4.7261868 -1.866209 4288085770
14.238617 -4.6661863 -1.8892506 4288085770
14.216705 -4.5481949 -1.8882347 4288085770
14.142822 -4.4162045 -1.8792008 4288085770
19.564056 -5.9579058 -1.5710518 4293729569
14.141907 -4.3072109 -1.8781921 4288085770
19.561157 -5.8079138 -1.571039 4293729569
14.098022 -4.1852198 -1.8701686 4288085770
19.675262 -5.6939154 -1.579066 4293729569
14.127136 -4.0852242 -1.8701698 4288085770
14.152222 -3.986228 -1.8681699 4288085770
14.160309 -3.8812351 -1.862164 4288085770
14.21344 -3.7882376 -1.8611734 4288085770
14.246521 -3.6892424 -1.8561759 4288085770
14.323624 -3.6012449 -1.8551934 4288085770
14.404724 -3.514246 -1.8532121 4288085770
14.514832 -3.4322481 -1.8532404 4288085770
14.599945 -3.347249 -1.8492597 4288085770
14.723053 -3.2662468 -1.8472922 4288085770
14.829147 -3.1792479 -1.8423187 4288085770
14.986237 -3.1032457 -1.8413618 4288085770
15.174347 -3.0322428 -1.8434154 4288085770
15.328461 -2.9532413 -1.8394572 4288085770
15.550552 -2.883234 -1.8405215 4288085770
15.769669 -2.8112297 -1.8395846 4288085770
15.959763 -2.7322254 -1.8336376 4288085770
16.214859 -2.6622181 -1.8327118 4288085770
16.498978 -2.5922089 -1.8327959 4288085770
16.74707 -2.5152025 -1.826867 4288085770
17.081177 -2.4461918 -1.8269663 4288085770
17.473282 -2.3831758 -1.8310841 4288085770
17.809387 -2.3061647 -1.8261831 4288085770
18.141495 -2.2261543 -1.8182802 4288085770
18.641602 -2.1601343 -1.8224317 4288085770
19.076691 -2.0831175 -1.8165613 4288085770
19.607803 -2.0080948 -1.8167217 4288085770
19.171204 0.81101561 -1.7392 4288085770
18.114319 0.85397863 -1.7400328 4288085770
17.156433 0.89494371 -1.7388811 4288085770
16.321533 0.9339118 -1.740749 4288085770
15.603622 0.9718852 -1.7446346 4288085770
14.94873 1.0078597 -1.7475303 4288085770
14.282852 1.0368338 -1.7414255 4288085770
13.675964 1.0658102 -1.7363297 4288085770
13.130066 1.0927882 -1.7322434 4288085770
12.642166 1.1227674 -1.730166 4288085770
19.251205 1.7449441 -1.7111024 4288085770
12.224274 1.1527495 -1.7320992 4288085770
18.397308 1.7679129 -1.7199699 4288085770
11.818359 1.1807313 -1.7310344 4288085770
17.492416 1.7788811 -1.7158312 4288085770
11.459488 1.208715 -1.7329768 4288085770
16.77153 1.7988544 -1.7207196 4288085770
11.117584 1.2366986 -1.733922 4288085770
16.04863 1.8128271 -1.7176085 4288085770
10.784683 1.2606831 -1.7308689 4288085770
15.44574 1.8318038 -1.7195148 4288085770
10.492798 1.2876687 -1.731822 4288085770
14.831833 1.8447804 -1.7154204 4288085770
10.2379 1.3166547 -1.7357805 4288085770
14.246948 1.8567572 -1.7083309 4288085770
9.9730072 1.3436418 -1.7347379 4288085770
13.805054 1.8807387 -1.7142617 4288085770
9.7161102 1.3676276 -1.7326967 4288085770
13.311157 1.8927183 -1.7061857 4288085770
9.5172272 1.3976159 -1.7386638 4288085770
12.887268 1.9107003 -1.70512 4288085770
9.293335 1.4226036 -1.7366277 4288085770
12.509369 1.9316835 -1.705061 4288085770
9.0944214 1.4495912 -1.7375951 4288085770
12.155487 1.9516673 -1.7040058 4288085770
8.9115448 1.4765806 -1.7395653 4288085770
11.844574 1.9756532 -1.7059568 4288085770
8.7276459 1.5015693 -1.7385353 4288085770
11.536697 1.9966373 -1.7049086 4288085770
8.5517578 1.5265584 -1.7375065 4288085770
11.266785 2.0216241 -1.7068657 4288085770
8.3948669 1.5535483 -1.7384806 4288085770
11.011902 2.0456109 -1.7078253 4288085770
8.242981 1.5795374 -1.7384557 4288085770
10.768021 2.0695987 -1.7077864 4288085770
8.0970764 1.604528 -1.7374314 4288085770
10.543121 2.0945859 -1.7077504 4288085770
7.9511719 1.6295176 -1.7364075 4288085770
10.32222 2.1195736 -1.7077153 4288085770
7.8162842 1.6545076 -1.7343854 4288085770
10.132324 2.147562 -1.7096844 4288085770
7.6993866 1.6824985 -1.7353653 4288085770
9.9324341 2.1705503 -1.7076524 4288085770
7.5944977 1.7124896 -1.7373471 4288085770
9.75354 2.1985393 -1.7076235 4288085770
7.5036011 1.7434807 -1.742331 4288085770
9.5996399 2.2295289 -1.7095978 4288085770
7.3897095 1.7694716 -1.740312 4288085770
9.4527588 2.260519 -1.7125734 4288085770
7.2928162 1.7984629 -1.7412953 4288085770
9.2948608 2.2885084 -1.7105477 4288085770
7.1969299 1.8264546 -1.7402787 4288085770
9.1589813 2.3184981 -1.711525 4288085770
7.1130371 1.8574462 -1.7412639 4288085770
9.0300598 2.3504887 -1.7125031 4288085770
7.0451355 1.8904376 -1.7452512 4288085770
8.9211884 2.3844795 -1.7144841 4288085770
6.9602356 1.9194293 -1.7442366 4288085770
8.8082733 2.41747 -1.7154649 4288085770
6.9003448 1.9534221 -1.7482249 4288085770
8.7133942 2.4544616 -1.718448 4288085770
6.8274384 1.9844136 -1.7472118 4288085770
8.6124878 2.488452 -1.7184304 4288085770
6.7695465 2.0184064 -1.7502005 4288085770
8.5036011 2.5194435 -1.7164118 4288085770
6.6866608 2.0443978 -1.7451863 4288085770
8.3897095 2.5474343 -1.7113928 4288085770
6.599762 2.0683899 -1.7381717 4288085770
8.3178101 2.5874267 -1.7133791 4288085770
6.5518646 2.1033826 -1.740162 4288085770
8.2279358 2.6214175 -1.7113631 4288085770
6.5079803 2.1403751 -1.7421529 4288085770
8.1360168 2.6524091 -1.707347 4288085770
6.4500885 2.1703672 -1.740142 4288085770
8.0621338 2.6884012 -1.7053334 4288085770
6.4321899 2.2143612 -1.7471361 4288085770
8.0102386 2.7323937 -1.7073224 4288085770
6.4292908 2.2643547 -1.7571319 4288085770
7.945343 2.7703853 -1.7063099 4288085770
6.395401 2.3023477 -1.759124 4288085770
7.9014435 2.8153777 -1.7072999 4288085770
6.338501 2.3323402 -1.7531135 4288085770
7.8605652 2.8623705 -1.7082905 4288085770
6.2796173 2.3613324 -1.7461029 4288085770
7.8066711 2.9033632 -1.7062795 4288085770
6.2487183 2.4003258 -1.7460955 4288085770
7.771759 2.950356 -1.7072706 4288085770
6.2028198 2.4323187 -1.7400866 4288085770
7.7488708 3.0013485 -1.7092633 4288085770
6.1749268 2.4703116 -1.7390796 4288085770
7.7180023 3.0493422 -1.7082553 4288085770
6.1510468 2.5103049 -1.7380732 4288085770
7.6980896 3.1013355 -1.7092483 4288085770
6.1271667 2.5502987 -1.7360668 4288085770
7.686203 3.1563282 -1.7112423 4288085770
6.1072693 2.5912914 -1.7350608 4288085770
7.6692963 3.2093215 -1.7102358 4288085770
6.1123657 2.6422853 -1.7390578 4288085770
7.6574097 3.2643147 -1.7102298 4288085770
6.0884705 2.6822786 -1.7350515 4288085770
7.6585236 3.3243086 -1.7112254 4288085770
6.0715637 2.7232723 -1.7320458 4288085770
7.6876221 3.3973029 -1.718224 4288085770
6.0646973 2.7692657 -1.7300415 4288085770
7.6937256 3.4592967 -1.71822 4288085770
6.0767822 2.8232598 -1.7330391 4288085770
7.6858368 3.5162897 -1.7152145 4288085770
6.0659027 2.8672533 -1.7290344 4288085770
7.7129364 3.5892842 -1.7172128 4288085770
6.0880127 2.9262476 -1.7330331 4288085770
7.7390442 3.6622782 -1.7192111 4288085770
6.0841064 2.9742417 -1.7300291 4288085770
7.7541504 3.7302721 -1.7172079 4288085770
6.09021 3.0252352 -1.7270261 4288085770
7.8112335 3.8172667 -1.7242095 4288085770
6.1023254 3.0802298 -1.7250237 4288085770
7.8583679 3.9022615 -1.7262099 4288085770
6.1234283 3.1402235 -1.7260222 4288085770
7.8844604 3.9752553 -1.7232077 4288085770
6.144516 3.1992178 -1.7250208 4288085770
7.9445801 4.0662498 -1.7262095 4288085770
6.1486359 3.2482119 -1.7180177 4288085770
7.9906769 4.1502447 -1.7252097 4288085770
6.1907349 3.3182065 -1.7200184 4288085770
8.0717621 4.2532401 -1.7302133 4288085770
6.2098389 3.3772011 -1.7160168 4288085770
8.1438751 4.3532343 -1.731216 4288085770
6.279953 3.4621961 -1.7240202 4288085770
8.2129669 4.4502301 -1.731218 4288085770
6.3350525 3.5401905 -1.7270221 4288085770
8.2630768 4.5382242 -1.7242181 4288085770
6.3871765 3.6171851 -1.7280236 4288085770
8.2901917 4.6142187 -1.711216 4288085770
6.4602509 3.7061806 -1.7330271 4288085770
8.2802887 4.6682119 -1.6902099 4293729569
6.5283813 3.7921751 -1.7350301 4288085770
8.253418 4.7112045 -1.665202 4293729569
6.6144867 3.8891709 -1.7400348 4288085770
8.1555176 4.7121973 -1.6231869 4293729569
6.7085724 3.9911661 -1.7460401 4288085770
7.9906464 4.6721878 -1.5691655 4293729569
6.8226929 4.1051617 -1.7560474 4288085770
7.8867493 4.6651802 -1.5261501 4293729569
