# .PCD v0.7 - Point Cloud Data file format
VERSION 0.7
FIELDS x y z rgb
SIZE 4 4 4 4
TYPE F F F U
COUNT 1 1 1 1
WIDTH 1113
HEIGHT 1
VIEWPOINT 0 0 0 1 0 0 0
POINTS 1113
DATA ascii
-3.338974 0.037508845 -1.8276378 4288085770
-3.2267761 0.048819065 -1.8298813 4288085770
-3.1266174 0.062193692 -1.8252033 4288085770
-3.010437 0.07347542 -1.8244213 4288085770
-2.8972626 0.085771978 -1.8206583 4288085770
-2.7520599 0.095884204 -1.8256844 4288085770
-2.6228943 0.10808378 -1.8228158 4288085770
-2.4807129 0.11920631 -1.8218616 4288085770
-2.3655853 0.13148236 -1.8120872 4288085770
-3.3279724 0.20740283 -1.8304156 4288085770
-2.1713409 0.14030075 -1.8217899 4288085770
-3.2128143 0.21768945 -1.828643 4288085770
-2.0081787 0.15129364 -1.8196973 4288085770
-3.0836334 0.22789437 -1.8297769 4288085770
-1.7859344 0.15994257 -1.8312148 4288085770
-2.9705048 0.23818833 -1.8240181 4288085770
-1.6077728 0.17084199 -1.8280236 4288085770
-2.830307 0.24832493 -1.8240796 4288085770
-1.4306183 0.18274373 -1.8218383 4288085770
-2.6981812 0.25850457 -1.8201951 4288085770
-1.2304688 0.19250953 -1.8195032 4288085770
-2.5339661 0.26749736 -1.8230988 4288085770
-1.0082855 0.2031433 -1.8190206 4288085770
-2.3768158 0.27652842 -1.82205 4288085770
-0.76811218 0.21266681 -1.8184203 4288085770
-2.2196655 0.28655595 -1.8180002 4288085770
-0.50791931 0.22306877 -1.8186864 4288085770
-2.0284729 0.29538494 -1.8217262 4288085770
-0.25376892 0.23250407 -1.8159946 4288085770
-1.8062439 0.30303031 -1.8302475 4288085770
0.026397705 0.24277979 -1.8131293 4288085770
-1.5960541 0.31274074 -1.8318468 4288085770
0.31854248 0.2529797 -1.8081852 4288085770
-1.4119415 0.32159823 -1.8246208 4288085770
0.64672852 0.26196235 -1.8060032 4288085770
-1.1677246 0.33010393 -1.8289968 4288085770
1.0349274 0.27058798 -1.8114239 4288085770
-0.9546051 0.3377853 -1.8225809 4288085770
1.4030762 0.2793234 -1.8069791 4288085770
-0.71748352 0.346322 -1.8180052 4288085770
1.8132477 0.28880364 -1.8042549 4288085770
-0.46434021 0.35476238 -1.8143238 4288085770
2.2744141 0.29697484 -1.8031944 4288085770
-0.18818665 0.36306268 -1.8114904 4288085770
2.7165222 0.30525047 -1.7932619 4288085770
0.10795593 0.37024039 -1.8075262 4288085770
3.2556763 0.31394142 -1.7906855 4288085770
0.43711853 0.37721866 -1.8063442 4288085770
3.8138275 0.32151145 -1.7839855 4288085770
0.82232666 0.38386279 -1.8117913 4288085770
4.4049225 0.32887274 -1.7720689 4288085770
1.2224884 0.38941056 -1.8131415 4288085770
5.0640411 0.33681995 -1.7617015 4288085770
1.6266327 0.39592713 -1.8094651 4288085770
5.8181458 0.3431862 -1.7517072 4288085770
2.0877991 0.40209883 -1.8084117 4288085770
6.7623444 0.34840542 -1.7534548 4288085770
2.5499115 0.40625721 -1.8023561 4288085770
7.8725433 0.35261136 -1.7571055 4288085770
3.056015 0.41114539 -1.795009 4288085770
9.1637726 0.35671204 -1.7625579 4288085770
3.6171265 0.41469878 -1.7893001 4288085770
10.826096 0.35656327 -1.7835582 4288085770
4.2312317 0.41792697 -1.7822422 4288085770
4.8552856 0.42108339 -1.7671188 4288085770
5.6193848 0.42239469 -1.7610725 4288085770
6.4985046 0.4230054 -1.7572669 4288085770
7.5396576 0.42163068 -1.7573928 4288085770
8.8008575 0.41891855 -1.7640654 4288085770
10.437134 0.41293126 -1.785262 4288085770
8.5119781 -4.9368324 -0.20388579 4293729569
8.5550385 -4.8280354 -0.2485199 4293729569
10.628616 0.68023056 -1.7851888 4288085770
9.1127319 0.70628899 -1.7687603 4288085770
7.7998505 0.730133 -1.7541825 4288085770
6.8130951 0.7550419 -1.7557582 4288085770
5.9403229 0.77826864 -1.7576886 4288085770
5.1815643 0.80081517 -1.7619737 4288085770
4.5908661 0.82436472 -1.7753078 4288085770
3.9620819 0.8441295 -1.7778574 4288085770
10.27269 1.0823348 -1.7640711 4288085770
3.4213409 0.86437136 -1.7839085 4288085770
8.8697205 1.0907164 -1.7500015 4288085770
2.9415894 0.88524956 -1.791613 4288085770
7.7698669 1.1032956 -1.7472161 4288085770
2.4818268 0.90400416 -1.7962052 4288085770
6.7860107 1.1161809 -1.7447723 4288085770
2.0680389 0.92248267 -1.8005375 4288085770
5.9231262 1.12834 -1.7416457 4288085770
1.653244 0.93996161 -1.7998747 4288085770
5.2543793 1.1463525 -1.7514178 4288085770
1.3104858 0.95801693 -1.8058051 4288085770
4.6796417 1.1648037 -1.7636584 4288085770
0.96368408 0.97609025 -1.8067559 4288085770
4.1108551 1.1812115 -1.768865 4288085770
0.60482788 0.99022752 -1.8007778 4288085770
3.5630493 1.1944902 -1.7709552 4288085770
0.27497864 1.0041914 -1.7956353 4288085770
3.1072693 1.2112224 -1.7775224 4288085770
0.004196167 1.0208118 -1.7981573 4288085770
2.6905212 1.228723 -1.7858683 4288085770
-0.24961853 1.0373273 -1.7985827 4288085770
2.2967377 1.2450826 -1.7910849 4288085770
-0.47436523 1.0546739 -1.8038439 4288085770
1.9259491 1.260303 -1.7951719 4288085770
-0.70918274 1.0700748 -1.8031617 4288085770
1.5641327 1.2744653 -1.796208 4288085770
-0.91798401 1.0853217 -1.8043336 4288085770
1.2523651 1.2913332 -1.8009597 4288085770
-1.1257935 1.1005607 -1.804499 4288085770
0.93054199 1.3052549 -1.8007692 4288085770
-1.3005676 1.1176069 -1.8084766 4288085770
0.60968018 1.3171661 -1.7965742 4288085770
-1.4513092 1.1365135 -1.8163172 4288085770
0.29580688 1.3270321 -1.7893411 4288085770
-1.6421356 1.1506464 -1.8123862 4288085770
0.037963867 1.3415697 -1.7887882 4288085770
-1.8239899 1.1637251 -1.8084048 4288085770
-0.1867981 1.3579147 -1.7920467 4288085770
-2.010849 1.1758296 -1.8004524 4288085770
-0.41061401 1.3722503 -1.7933019 4288085770
-2.1576538 1.1917033 -1.8002712 4288085770
-0.63244629 1.3865705 -1.7905449 4288085770
-2.3014679 1.2065578 -1.7990736 4288085770
-0.8422699 1.3998199 -1.788721 4288085770
-2.4102173 1.2252119 -1.8056759 4288085770
-1.0270844 1.4149203 -1.7887548 4288085770
-2.5450439 1.239011 -1.8034283 4288085770
-1.1748352 1.4328082 -1.7955776 4288085770
-2.664856 1.2537222 -1.8030955 4288085770
-1.3125763 1.4526355 -1.8023423 4288085770
-2.77565 1.2703822 -1.8047096 4288085770
-1.4773865 1.4676158 -1.8012627 4288085770
-2.8884583 1.2860506 -1.8033358 4288085770
-1.6732941 1.4767706 -1.7903615 4288085770
-3.0073242 1.2987506 -1.7979983 4288085770
-1.8161011 1.4916201 -1.7901577 4288085770
-3.0990906 1.316299 -1.8015043 4288085770
-1.9549103 1.5064445 -1.7889313 4288085770
-3.2059174 1.3299277 -1.7970978 4288085770
-2.0877228 1.5222323 -1.7876695 4288085770
-3.272644 1.3503306 -1.8044606 4288085770
-2.2025146 1.5389173 -1.790306 4288085770
-3.329361 1.3716772 -1.8147663 4288085770
-2.3233185 1.5546339 -1.7889763 4288085770
-2.4271088 1.5722506 -1.7895499 4288085770
-2.539917 1.587919 -1.7881752 4288085770
-2.6517487 1.6025796 -1.7847954 4288085770
-2.727478 1.6240337 -1.7902075 4288085770
-2.8433533 1.6357131 -1.7828528 4288085770
-2.9151001 1.6561413 -1.7862431 4288085770
-3.0179291 1.6697245 -1.7808117 4288085770
-3.0716553 1.693048 -1.7880937 4288085770
-3.1494598 1.7105048 -1.7865154 4288085770
-3.2091827 1.7308595 -1.7898337 4288085770
-3.2548981 1.7551346 -1.7970699 4288085770
-3.3237152 1.7725372 -1.7954415 4288085770
-3.3935089 1.7899449 -1.7928182 4288085770
-3.3901978 3.5865884 -1.7724065 4288085770
-3.3157196 3.6501365 -1.7709435 4288085770
-3.2372131 3.7146606 -1.7694579 4288085770
-3.1517181 3.7831435 -1.7689303 4288085770
-3.0511169 3.8605404 -1.7713112 4288085770
-2.9616241 3.9289975 -1.7687627 4288085770
-2.8439636 4.0142937 -1.7720429 4288085770
-2.7404175 4.0906682 -1.7704099 4288085770
-2.6197968 4.1749425 -1.770676 4288085770
-2.4921417 4.2641768 -1.7718989 4288085770
-2.3544617 4.3573513 -1.7730635 4288085770
-2.2208099 4.4465461 -1.7712549 4288085770
-3.3966675 3.7955599 -1.7773525 4288085770
-2.0701141 4.5446424 -1.7723445 4288085770
-3.2841187 3.8678837 -1.778675 4288085770
-1.9043427 4.6516495 -1.7743431 4288085770
-3.1735687 3.9382176 -1.7780107 4288085770
-1.7215271 4.7675562 -1.7772399 4288085770
-3.0681 4.0025773 -1.7733806 4288085770
-1.5457611 4.8765025 -1.7771834 4288085770
-2.9375153 4.0817952 -1.7755989 4288085770
-1.3659973 4.9864225 -1.7751049 4288085770
-2.7978821 4.1659575 -1.777763 4288085770
-1.1691742 5.1042409 -1.7739257 4288085770
-2.6673431 4.2411714 -1.7759861 4288085770
-0.95532227 5.2309594 -1.7746445 4288085770
-2.5166779 4.3282685 -1.778088 4288085770
-0.71533203 5.3725262 -1.7772073 4288085770
-2.3630676 4.4143467 -1.7781757 4288085770
-0.47036743 5.5130606 -1.7777447 4288085770
-2.1903534 4.5103145 -1.7811495 4288085770
-0.21037292 5.6615047 -1.7791933 4288085770
-2.0357666 4.5923815 -1.7772371 4288085770
0.018447876 5.7871251 -1.7708355 4288085770
-1.8580933 4.6873159 -1.7781864 4288085770
0.32762146 5.9592795 -1.7739938 4288085770
-1.6753998 4.7822175 -1.7761089 4288085770
0.62266541 6.1185102 -1.770243 4288085770
-1.4676361 4.8909755 -1.7788817 4288085770
0.96893311 6.3064423 -1.7731856 4288085770
-1.2689362 4.9897823 -1.7767142 4288085770
1.3733978 6.525033 -1.7807816 4288085770
-1.0401306 5.105412 -1.7783669 4288085770
1.7898712 6.7465487 -1.7853109 4288085770
-0.81335449 5.2160535 -1.7770363 4288085770
2.2063141 6.9630594 -1.7858466 4288085770
-0.543396 5.3494444 -1.7834491 4288085770
2.6276855 7.1785378 -1.783358 4288085770
-0.26142883 5.4867616 -1.7887932 4288085770
3.0932007 7.4137535 -1.7806109 4288085770
0.0014038086 5.6091866 -1.7862571 4288085770
3.5466156 7.6360359 -1.7719444 4288085770
0.24111938 5.7137423 -1.777866 4288085770
1.5696259 6.4264607 -1.4369296 4293729569
0.54101562 5.8489461 -1.7771174 4288085770
1.7087097 6.4645791 -1.3931547 4293729569
0.85397339 5.9880714 -1.7752947 4288085770
2.0385742 6.6085835 -1.3712372 4293729569
1.2050323 6.1459742 -1.7782475 4288085770
1.5781708 6.2952003 -1.2560726 4293729569
1.5691376 6.3047976 -1.7791301 4288085770
1.5887146 6.2530713 -1.199077 4293729569
1.9944 6.4932623 -1.7856516 4288085770
1.6022644 6.2099247 -1.1420661 4293729569
2.4055939 6.6688061 -1.7872645 4288085770
1.6318817 6.1746855 -1.0879599 4293729569
2.8799591 6.8719778 -1.7935077 4288085770
1.6373596 6.1245866 -1.0309998 4293729569
3.3070679 7.0434198 -1.7890409 4288085770
1.7462769 6.1298838 -0.98542297 4293729569
3.7391663 7.2108283 -1.7815524 4288085770
1.7708282 6.0856762 -0.93235338 4293729569
1.9312592 6.1592803 -1.475428 4293729569
1.6859741 5.9811115 -0.87093723 4293729569
1.7369385 5.9913459 -1.3936688 4293729569
1.6934662 5.9250054 -0.81797183 4293729569
1.775528 5.9480581 -1.3435222 4293729569
1.7290649 5.8837352 -0.76883948 4293729569
1.8803406 5.9373822 -1.3019842 4293729569
1.838913 5.8790283 -0.72426832 4293729569
1.9088898 5.8871551 -1.2528991 4293729569
1.9306793 5.8624282 -0.67880702 4293729569
2.0207214 5.8764405 -1.2133235 4293729569
2.0334778 5.8497629 -0.63428247 4293729569
2.1134491 5.8538356 -1.1708635 4293729569
2.1513062 5.8420095 -0.59067178 4293729569
2.2433472 5.8490157 -1.133185 4293729569
2.2440338 5.8184037 -0.54621315 4293729569
2.5337677 5.9192538 -1.1095637 4293729569
2.4190216 5.8343115 -0.5042702 4293729569
2.7227936 5.9360862 -1.0765446 4293729569
2.5669098 5.8333807 -0.46249127 4293729569
2.9780426 5.9815283 -1.0481395 4293729569
2.7027283 5.8235211 -0.41978669 4293729569
2.936264 5.8827157 -0.99548423 4293729569
2.8495941 5.8175955 -0.37801886 4293729569
2.9677277 5.8164744 -0.95040071 4293729569
7.1795654 7.7388239 -0.42472982 4293729569
3.2168884 5.8499541 -0.92204154 4293729569
3.1632996 5.8046269 -0.29437733 4293729569
3.2313232 5.7748141 -0.87605894 4293729569
3.4292755 5.778595 -0.84500682 4293729569
3.5601654 5.8181648 -0.21226215 4293729569
3.6121979 5.7744627 -0.81104434 4293729569
3.7950897 5.7653332 -0.77908766 4293729569
3.9929962 5.7611141 -0.74704516 4293729569
4.2019348 5.7568297 -0.71594369 4293729569
4.4198303 5.752491 -0.6837945 4293729569
4.630722 5.7421947 -0.6526897 4293729569
4.8536377 5.733829 -0.62351847 4293729569
5.088562 5.7283926 -0.59428012 4293729569
5.3244476 5.7169495 -0.56404316 4293729569
5.5743713 5.7074242 -0.53672934 4293729569
5.8302765 5.6958628 -0.5083859 4293729569
6.114212 5.6921358 -0.48088431 4293729569
6.6427002 5.7699575 -0.46098697 4293729569
7.0398254 5.7925572 -0.43585205 4293729569
7.2485352 5.7472782 -0.40879869 4293729569
7.3590088 5.6665831 -0.37930906 4293729569
11.051025 -1.8625007 -1.8283654 4288085770
10.162033 -1.8712094 -1.8221074 4288085770
9.2230835 -1.8606303 -1.8050939 4288085770
8.4811249 -1.8642144 -1.8010482 4288085770
7.8201904 -1.8713045 -1.8015717 4288085770
7.1962585 -1.8745883 -1.8018743 4288085770
6.5943451 -1.8740048 -1.801057 4288085770
6.0434723 -1.8737226 -1.8029698 4288085770
5.5325775 -1.8746791 -1.8056725 4288085770
5.0766754 -1.8769605 -1.8110851 4288085770
4.5758362 -1.866981 -1.8087248 4288085770
11.477646 -3.1301556 -1.8233095 4288085770
4.1359711 -1.8603618 -1.8110446 4288085770
10.386215 -3.0406556 -1.8170029 4288085770
3.7171326 -1.8528671 -1.8132526 4288085770
9.3717957 -2.9506171 -1.8092886 4288085770
3.3402863 -1.8486209 -1.8182412 4288085770
8.4593353 -2.8701842 -1.8040434 4288085770
2.9784546 -1.8424644 -1.8231491 4288085770
7.6988068 -2.8076501 -1.8070101 4288085770
2.6246185 -1.8333573 -1.8260118 4288085770
6.971283 -2.7443149 -1.8078016 4288085770
2.3047943 -1.8264511 -1.8316962 4288085770
6.2707367 -2.6791441 -1.8054489 4288085770
1.9789886 -1.8155105 -1.835409 4288085770
5.6332092 -2.6193464 -1.8057677 4288085770
1.650177 -1.799556 -1.8351334 4288085770
5.0736084 -2.568011 -1.8096818 4288085770
1.3423767 -1.7837257 -1.8357469 4288085770
4.5440216 -2.5178554 -1.8124379 4288085770
1.0665741 -1.7710831 -1.8401939 4288085770
4.0464325 -2.4688904 -1.8150259 4288085770
0.80776978 -1.760541 -1.8455526 4288085770
3.5988159 -2.4252217 -1.8203543 4288085770
0.53898621 -1.742944 -1.8459579 4288085770
3.156189 -2.3785868 -1.821654 4288085770
0.27919006 -1.7254009 -1.8463162 4288085770
2.7455902 -2.3341405 -1.8247858 4288085770
0.074386597 -1.7191764 -1.8563932 4288085770
2.3699341 -2.2939014 -1.8297368 4288085770
-0.19537354 -1.6915789 -1.8507954 4288085770
1.9983063 -2.25069 -1.8306638 4288085770
-0.3981781 -1.6803694 -1.8578573 4288085770
1.6436768 -2.2075794 -1.8325013 4288085770
-0.63493347 -1.6569668 -1.8540887 4288085770
1.3360291 -2.1727445 -1.8390974 4288085770
-0.85971069 -1.634634 -1.8532575 4288085770
1.0273743 -2.1349068 -1.8426963 4288085770
-1.0694733 -1.61239 -1.852347 4288085770
0.74169922 -2.099205 -1.8471752 4288085770
-1.2522583 -1.5963041 -1.8552991 4288085770
0.45404053 -2.0594945 -1.8486615 4288085770
-1.4430389 -1.5751731 -1.8552893 4288085770
0.1803894 -2.0208673 -1.8500749 4288085770
-1.6277924 -1.5540776 -1.8552479 4288085770
-0.05329895 -1.9914744 -1.8562845 4288085770
-1.8225555 -1.5279266 -1.8512548 4288085770
-0.31794739 -1.9489038 -1.854647 4288085770
-1.9953308 -1.5059035 -1.850149 4288085770
-0.57460022 -1.9063826 -1.8509673 4288085770
-2.1560822 -1.4839516 -1.8499798 4288085770
-0.78729248 -1.8741179 -1.8540636 4288085770
-2.3068695 -1.4650575 -1.8517607 4288085770
-1.0219574 -1.8337271 -1.8512694 4288085770
-2.4726105 -1.4400792 -1.8476154 4288085770
-1.2396393 -1.7944372 -1.8493866 4288085770
-2.5953827 -1.4263467 -1.8552524 4288085770
-1.4263306 -1.7643275 -1.8523473 4288085770
-2.742157 -1.4024804 -1.8530077 4288085770
-1.6330109 -1.7251041 -1.8494066 4288085770
-2.8609314 -1.3867738 -1.858622 4288085770
-1.8267059 -1.6879578 -1.8463987 4288085770
-3.0106812 -1.3598915 -1.8533908 4288085770
-2.0013733 -1.6549213 -1.8472937 4288085770
-3.1484375 -1.3340797 -1.8500968 4288085770
-2.1700897 -1.6219232 -1.8461574 4288085770
-3.2462158 -1.3214967 -1.8576027 4288085770
-2.3397827 -1.5869193 -1.8440248 4288085770
-3.3739929 -1.2967446 -1.8542572 4288085770
-2.4815063 -1.5590787 -1.8467501 4288085770
-2.613205 -1.5322957 -1.8514231 4288085770
-2.7509308 -1.5034802 -1.8521267 4288085770
-2.8856354 -1.4736831 -1.8528136 4288085770
-3.0233459 -1.4408705 -1.8505138 4288085770
-3.1600494 -1.4080646 -1.8472086 4288085770
-3.2797699 -1.3793577 -1.8468174 4288085770
-3.3815002 -1.3557534 -1.8513349 4288085770
-3.3109741 0.65209061 -1.8223454 4288085770
-3.1927948 0.66338092 -1.821709 4288085770
-3.1066895 0.67385358 -1.8092443 4288085770
-2.9785004 0.68508476 -1.8085548 4288085770
-2.8283081 0.69718748 -1.8117479 4288085770
-2.6730804 0.70926112 -1.8149139 4288085770
-2.5319214 0.72041363 -1.8121554 4288085770
-2.366745 0.73242575 -1.8132685 4288085770
-3.2616882 0.72175628 -1.8310405 4288085770
-2.2065582 0.74346536 -1.8104089 4288085770
-3.1635742 0.72915989 -1.8215138 4288085770
-2.0283813 0.75440103 -1.8114537 4288085770
-3.0404205 0.73741883 -1.8178536 4288085770
-1.8191528 0.76715463 -1.816332 4288085770
-2.9022522 0.74559051 -1.817113 4288085770
-1.5919342 0.77980226 -1.8231145 4288085770
-2.7681274 0.75378424 -1.813394 4288085770
-1.3987732 0.79064471 -1.8190793 4288085770
-2.6089478 0.76183337 -1.8155419 4288085770
-1.1705627 0.80228406 -1.8208567 4288085770
-2.4467621 0.770863 -1.815673 4288085770
-0.95440674 0.81298977 -1.8166991 4288085770
-2.2896423 0.77792019 -1.8118323 4288085770
-0.70222473 0.82448465 -1.8163491 4288085770
-2.0994568 0.78578597 -1.8158153 4288085770
-0.4410553 0.8349244 -1.8139518 4288085770
-1.9012756 0.79360336 -1.8177556 4288085770
-0.17590332 0.84533936 -1.8105336 4288085770
-1.6580505 0.80315894 -1.8284549 4288085770
0.10824585 0.85564095 -1.8060139 4288085770
-1.4618988 0.8099851 -1.8254064 4288085770
0.43144226 0.86671323 -1.8042859 4288085770
-1.2617798 0.81478447 -1.8193382 4288085770
0.81367493 0.87944037 -1.8112422 4288085770
-1.0106049 0.82228833 -1.8229963 4288085770
1.2078857 0.89109212 -1.8131357 4288085770
-0.79249573 0.82697994 -1.8148321 4288085770
1.5940399 0.90178829 -1.808072 4288085770
-0.53335571 0.83243257 -1.8134488 4288085770
2.0372314 0.91214734 -1.807705 4288085770
-0.26823425 0.83684748 -1.8090347 4288085770
2.4923859 0.92243367 -1.8032745 4288085770
0.033920288 0.84104592 -1.8094231 4288085770
2.9775391 0.93253976 -1.7966837 4288085770
0.35105896 0.84515446 -1.8087314 4288085770
3.5086823 0.94137269 -1.7908491 4288085770
0.70820618 0.85002691 -1.8098265 4288085770
4.1168671 0.95175105 -1.7876028 4288085770
1.1264191 0.85454148 -1.8185967 4288085770
4.7650146 0.96088868 -1.7811443 4288085770
1.4895172 0.85637277 -1.8116614 4288085770
5.4241333 0.96795684 -1.7676283 4288085770
1.926651 0.85776955 -1.8123325 4288085770
6.2462769 0.97706121 -1.7622424 4288085770
2.3767548 0.85808653 -1.8089346 4288085770
7.2065125 0.98835069 -1.7631196 4288085770
2.8498535 0.85726541 -1.8034149 4288085770
8.3587799 1.0015037 -1.7709721 4288085770
3.3519287 0.85527116 -1.7967418 4288085770
9.7530823 1.016221 -1.7835342 4288085770
3.9260254 0.85184997 -1.7916857 4288085770
11.303391 1.0310109 -1.7932645 4288085770
4.5550995 0.84710377 -1.7873372 4288085770
5.2191467 0.84014636 -1.7798036 4288085770
5.9571533 0.83074898 -1.7708772 4288085770
6.8502502 0.82143563 -1.7691246 4288085770
7.925354 0.81104559 -1.7754027 4288085770
9.2465668 0.79916483 -1.7893664 4288085770
10.768707 0.78312892 -1.8062445 4288085770
8.6323853 -7.407918 -1.6122845 4293729569
8.3780212 -7.1624098 -1.6275729 4293729569
8.2164307 -6.964448 -1.6483654 4293729569
8.1495972 -6.8070431 -1.6756479 4293729569
8.0159302 -6.6222463 -1.6952921 4293729569
7.9081726 -6.4476027 -1.7147967 4293729569
7.7933807 -6.2739201 -1.7303418 4288085770
7.7075348 -6.1124077 -1.7467309 4288085770
7.6256714 -5.9549189 -1.7621011 4288085770
7.5447693 -5.799437 -1.7734665 4288085770
7.480835 -5.649056 -1.7867402 4288085770
7.3949127 -5.492547 -1.7951344 4288085770
7.3019867 -5.3359971 -1.8005682 4288085770
7.2379761 -5.191618 -1.8068463 4288085770
7.1689606 -5.0462103 -1.8111526 4288085770
7.1179199 -4.9069085 -1.8153611 4288085770
7.0778503 -4.7726722 -1.8195115 4288085770
7.0257874 -4.6343656 -1.8197273 4288085770
8.5208588 -4.9874506 -1.1104985 4293729569
6.9946747 -4.5031824 -1.8218299 4288085770
8.510788 -4.8553882 -1.1164812 4293729569
7.0084991 -4.3892627 -1.8266882 4288085770
7.0742493 -4.290648 -1.8352627 4288085770
7.0601044 -4.1676083 -1.8342699 4288085770
7.0838928 -4.054749 -1.8360707 4288085770
7.0886841 -3.9377799 -1.8329762 4288085770
7.1753845 -3.8422909 -1.8374332 4288085770
7.2021179 -3.7304513 -1.8342186 4288085770
7.2518616 -3.6247463 -1.8328782 4288085770
7.3495483 -3.5313225 -1.8342746 4288085770
7.4102478 -3.4266832 -1.8298734 4288085770
7.5408936 -3.3394547 -1.8310877 4288085770
7.6155701 -3.2388976 -1.82561 4288085770
7.7582092 -3.1507394 -1.8257571 4288085770
7.8898468 -3.0585175 -1.8219639 4288085770
8.0404663 -2.970407 -1.8190662 4288085770
8.2430725 -2.8896015 -1.8198797 4288085770
8.4436646 -2.8067849 -1.8177038 4288085770
8.6452637 -2.7209747 -1.8145207 4288085770
8.914856 -2.6455629 -1.8159603 4288085770
9.1834259 -2.5671461 -1.8144039 4288085770
9.503006 -2.4930282 -1.8155631 4288085770
9.8865509 -2.4242859 -1.8203653 4288085770
10.312103 -2.36079 -1.8269328 4288085770
10.742661 -2.2893248 -1.8294686 4288085770
11.214203 -2.2211001 -1.8327748 4288085770
10.826218 1.1406546 -1.7829839 4288085770
9.5444031 1.1771133 -1.7665411 4288085770
8.4816589 1.2142963 -1.7598079 4288085770
7.565918 1.2506227 -1.7552091 4288085770
6.7972107 1.2850924 -1.7557434 4288085770
6.0434418 1.3164763 -1.7501901 4288085770
5.4587708 1.3518748 -1.7556409 4288085770
4.933075 1.3849289 -1.760744 4288085770
4.4834442 1.420541 -1.7713994 4288085770
11.389771 1.9843869 -1.7307299 4288085770
4.0127258 1.4512758 -1.7731787 4288085770
10.281906 1.9968293 -1.7292641 4288085770
3.5649719 1.4788771 -1.7728227 4288085770
9.2680359 2.0067246 -1.7262446 4288085770
3.2073212 1.5109529 -1.7809364 4288085770
8.403183 2.0207529 -1.7243468 4288085770
2.8456116 1.5400536 -1.7840737 4288085770
7.6483765 2.0381401 -1.7268013 4288085770
2.5198822 1.568944 -1.787999 4288085770
6.9315338 2.051307 -1.7240313 4288085770
2.2131805 1.5977235 -1.7908126 4288085770
6.2796783 2.0660954 -1.7208792 4288085770
1.9054413 1.6235099 -1.7906321 4288085770
5.7609406 2.089108 -1.7279428 4288085770
1.5916443 1.6463313 -1.7864872 4288085770
5.2661896 2.1099815 -1.7318653 4288085770
1.3108673 1.66996 -1.7851478 4288085770
4.828476 2.1335237 -1.7374519 4288085770
1.0691223 1.6953621 -1.7865785 4288085770
4.4006653 2.1530077 -1.7379798 4288085770
0.84437561 1.7206645 -1.7869095 4288085770
4.0339355 2.1781361 -1.7431482 4288085770
0.61860657 1.7449739 -1.7862464 4288085770
3.6782074 2.2012005 -1.7472521 4288085770
0.40986633 1.7691829 -1.7864829 4288085770
3.3374329 2.2241781 -1.7492677 4288085770
0.20310974 1.7923818 -1.7847079 4288085770
3.0507355 2.2508409 -1.7549652 4288085770
0.018341064 1.816452 -1.7838033 4288085770
2.7449646 2.2706156 -1.7547742 4288085770
-0.13336182 1.8453288 -1.788705 4288085770
2.4812317 2.296144 -1.7583369 4288085770
-0.30712891 1.8683352 -1.7867357 4288085770
2.240509 2.32254 -1.7617632 4288085770
-0.4528656 1.8941774 -1.7886018 4288085770
2.0087738 2.3488822 -1.7651373 4288085770
-0.61463928 1.9161143 -1.7855619 4288085770
1.7700195 2.3712668 -1.7645522 4288085770
-0.7714386 1.9380221 -1.7814928 4288085770
1.5612488 2.3964756 -1.7657908 4288085770
-0.89215088 1.9657185 -1.784212 4288085770
1.3404694 2.4177558 -1.7630998 4288085770
-1.0119019 1.9924102 -1.7849256 4288085770
1.1457367 2.442884 -1.763256 4288085770
-1.1256409 2.0180666 -1.7856034 4288085770
0.96798706 2.4689126 -1.7643124 4288085770
-1.2223206 2.0476234 -1.7901818 4288085770
0.80426025 2.4958603 -1.7652863 4288085770
-1.3320923 2.073257 -1.7888366 4288085770
0.66055298 2.5256913 -1.7681421 4288085770
-1.4568939 2.0939784 -1.7835792 4288085770
0.5479126 2.5613401 -1.7758161 4288085770
-1.5676727 2.1166184 -1.77924 4288085770
0.39816284 2.588207 -1.7747079 4288085770
-1.6483765 2.1460826 -1.7817243 4288085770
0.2383728 2.610132 -1.7706584 4288085770
-1.7491455 2.1696644 -1.7783262 4288085770
0.10862732 2.6378818 -1.7694324 4288085770
-1.8278809 2.1971173 -1.7787989 4288085770
-0.030151367 2.6616845 -1.7652594 4288085770
-1.903595 2.2255523 -1.7792538 4288085770
-0.12683105 2.6952424 -1.7678396 4288085770
-1.9723053 2.2549472 -1.7806677 4288085770
-0.24255371 2.7239108 -1.7665316 4288085770
-2.049057 2.2823889 -1.7781292 4288085770
-0.32821655 2.7594042 -1.7690474 4288085770
-2.1167908 2.3097777 -1.7775375 4288085770
-0.40287781 2.7958336 -1.7724985 4288085770
-2.1775055 2.340126 -1.7779049 4288085770
-0.49159241 2.8293447 -1.7720324 4288085770
-2.2372284 2.3694687 -1.7772661 4288085770
-0.5712738 2.8638029 -1.7735132 4288085770
-2.3009796 2.3968346 -1.7746514 4288085770
-0.63293457 2.9021571 -1.7758883 4288085770
-2.3566895 2.4271545 -1.7739896 4288085770
-0.71063232 2.9366043 -1.7743577 4288085770
-2.4094391 2.4564562 -1.7723104 4288085770
-0.79335022 2.9680817 -1.7708563 4288085770
-2.4561462 2.4887233 -1.7715961 4288085770
-0.85704041 3.0034475 -1.7702435 4288085770
-2.4857941 2.5248907 -1.7747818 4288085770
-0.91773987 3.0407963 -1.7696131 4288085770
-2.5335236 2.5551639 -1.7720734 4288085770
-0.96836853 3.0810857 -1.7699248 4288085770
-2.5722198 2.5893836 -1.7713126 4288085770
-1.0210419 3.1193881 -1.7692477 4288085770
-2.6029053 2.6245577 -1.7725047 4288085770
-1.0637054 3.1616316 -1.7685126 4288085770
-2.6416168 2.6567783 -1.7697438 4288085770
-1.0943298 3.2068052 -1.7707068 4288085770
-2.6582489 2.6968703 -1.7728542 4288085770
-1.1369781 3.2470493 -1.7689716 4288085770
-2.6799316 2.7349913 -1.7729942 4288085770
-1.1595917 3.295177 -1.7701195 4288085770
-2.7076111 2.770148 -1.7711691 4288085770
-1.193222 3.3393688 -1.7683319 4288085770
-2.7242584 2.8102403 -1.7722796 4288085770
-1.220871 3.3845258 -1.7665094 4288085770
-2.7459717 2.8473618 -1.77042 4288085770
-1.2424927 3.4316473 -1.7666517 4288085770
-2.7575989 2.8884256 -1.770502 4288085770
-1.2651215 3.4787755 -1.7638005 4288085770
-2.7612152 2.9334419 -1.7725371 4288085770
-1.2626495 3.5367565 -1.7668031 4288085770
-2.7729034 2.9745054 -1.7706193 4288085770
-1.2692413 3.5897918 -1.7658588 4288085770
-2.7775116 3.018528 -1.7706605 4288085770
-1.274826 3.6438208 -1.7649084 4288085770
-2.7731018 3.0674982 -1.7726496 4288085770
-1.2804108 3.6978493 -1.7629582 4288085770
-2.777771 3.1105208 -1.7706913 4288085770
-1.2488556 3.7676625 -1.7677923 4288085770
-2.764328 3.1624384 -1.7736281 4288085770
-1.2444153 3.8266335 -1.7667845 4288085770
-2.7669678 3.2074504 -1.7706584 4288085770
-1.2429962 3.8836226 -1.7627941 4288085770
-2.7505493 3.2613506 -1.7725781 4288085770
-1.2295227 3.9465418 -1.7607342 4288085770
-2.7220612 3.3211794 -1.7774283 4288085770
-1.1608582 4.0351381 -1.7703539 4288085770
-2.7056427 3.3750815 -1.7773484 4288085770
-1.1554413 4.0941048 -1.764341 4288085770
-2.6851959 3.4309583 -1.7772454 4288085770
-1.1148682 4.1708655 -1.7651244 4288085770
-2.6728058 3.4828835 -1.7731892 4288085770
-1.0672913 4.2515869 -1.7658676 4288085770
-2.6403351 3.5446906 -1.7750167 4288085770
-1.037796 4.3224139 -1.7617155 4288085770
-2.6138916 3.6045337 -1.7738796 4288085770
-0.97113037 4.413023 -1.7643489 4288085770
-2.5683594 3.6732655 -1.776632 4288085770
-0.8994751 4.5056047 -1.7669529 4288085770
-2.5399017 3.7330971 -1.7744833 4288085770
-0.81877136 4.6051345 -1.7695056 4288085770
-2.4983978 3.7998533 -1.7732593 4288085770
-0.74510193 4.6997027 -1.7700988 4288085770
-2.4619446 3.8636389 -1.7710644 4288085770
-0.66943359 4.7972617 -1.7686812 4288085770
-2.3963318 3.9452538 -1.774702 4288085770
-0.57870483 4.9037333 -1.7691768 4288085770
-2.3528442 4.0129991 -1.7704664 4288085770
-0.46386719 5.024065 -1.7725338 4288085770
-2.2802277 4.0985742 -1.7740642 4288085770
-0.32894897 5.15628 -1.7787749 4288085770
-2.2337341 4.168303 -1.7688118 4288085770
-0.19102478 5.2914767 -1.7829994 4288085770
-2.14505 4.2637844 -1.7723171 4288085770
-0.063156128 5.4207339 -1.7832819 4288085770
-2.07547 4.3463783 -1.7709321 4288085770
0.026535034 5.528214 -1.7747856 4288085770
-1.9988708 4.4329324 -1.7685066 4288085770
0.13729858 5.647572 -1.7681676 4288085770
-1.8991394 4.5343494 -1.7719487 4288085770
0.27920532 5.7857485 -1.7643703 4288085770
-1.8014374 4.6347804 -1.7724022 4288085770
0.45422363 5.9457331 -1.7653831 4288085770
-1.6906891 4.742136 -1.7737807 4288085770
0.64332581 6.1146364 -1.7663149 4288085770
-1.5779572 4.85148 -1.7731484 4288085770
0.83543396 6.2845225 -1.7642297 4288085770
-1.4541779 4.9677601 -1.7744523 4288085770
1.0767365 6.487123 -1.7688621 4288085770
-1.3343964 5.0810642 -1.7717799 4288085770
1.3451843 6.7075667 -1.7743393 4288085770
-1.1965637 5.2062631 -1.7720035 4288085770
1.6216125 6.9329638 -1.7767707 4288085770
-1.051712 5.3344231 -1.7711867 4288085770
1.9030762 7.1633344 -1.7781743 4288085770
-0.88877869 5.4754758 -1.7722667 4288085770
2.1583862 7.3758574 -1.7707282 4288085770
-0.71882629 5.6194901 -1.7723063 4288085770
2.372467 7.5616217 -1.7525195 4288085770
-0.53381348 5.7744174 -1.7722598 4288085770
2.3373566 7.5828381 -1.6947418 4293729569
-0.32972717 5.9402328 -1.7731038 4288085770
2.2107697 7.5405874 -1.6214885 4293729569
-0.12867737 6.1040673 -1.7699653 4288085770
1.4692993 7.0849128 -1.4647628 4293729569
0.10952759 6.2906871 -1.7726134 4288085770
1.3658142 7.0495248 -1.3993741 4293729569
0.37286377 6.4941597 -1.7761177 4288085770
1.3185577 7.0478125 -1.3406614 4293729569
0.66429138 6.7164712 -1.7814611 4288085770
1.2662659 7.0401278 -1.2819768 4293729569
0.97076416 6.9466963 -1.7847182 4288085770
1.3696899 7.1345401 -1.2413985 4293729569
1.287262 7.1838627 -1.7859179 4288085770
1.3796539 7.1634951 -1.1873554 4293729569
1.6077271 7.4220095 -1.7810947 4288085770
1.4709625 7.2459784 -1.1398455 4293729569
1.9593353 7.6789751 -1.7790931 4288085770
1.3884583 7.2064714 -1.0753306 4293729569
2.3520813 7.9617033 -1.7778555 4288085770
1.3671875 7.2056088 -1.0154642 4293729569
2.792038 8.2751579 -1.7793471 4288085770
1.3600006 7.2126651 -0.95751607 4293729569
1.3678436 7.2256327 -0.90048087 4293729569
1.3685455 7.2954712 -1.4465131 4293729569
1.3666382 7.2296562 -0.84249651 4293729569
1.38237 7.3034058 -1.3884407 4293729569
1.359375 7.2277136 -0.78354609 4293729569
1.4483948 7.3460369 -1.336069 4293729569
1.364151 7.2307005 -0.72452581 4293729569
1.4219971 7.3202038 -1.272225 4293729569
1.3558655 7.2217636 -0.66657937 4293729569
1.3975525 7.2933617 -1.2083687 4293729569
1.3666229 7.2237177 -0.60652304 4293729569
1.7438354 7.5193653 -1.1843902 4293729569
1.3743591 7.2196889 -0.54848254 4293729569
1.4601746 7.3080282 -1.0930151 4293729569
1.3790741 7.2116776 -0.48945904 4293729569
1.3573608 7.2196403 -1.0236048 4293729569
1.4028625 7.2135549 -0.43332517 4293729569
1.3499146 7.1926641 -0.96263969 4293729569
1.4747925 7.245121 -0.37591457 4293729569
1.3525696 7.1716652 -0.90363824 4293729569
1.5166168 7.2538967 -0.31869018 4293729569
1.3562012 7.1486602 -0.84563005 4293729569
1.534317 7.2428112 -0.26060259 4293729569
1.3497467 7.1147146 -0.78567755 4293729569
1.7176514 7.3407707 -0.20356631 4293729569
1.3382874 7.0757976 -0.72675335 4293729569
1.5626221 7.2076836 -0.14346445 4293729569
1.3398438 7.0428047 -0.66875374 4293729569
1.5943298 7.1975179 -0.085294008 4293729569
1.3454285 7.0097885 -0.6117301 4293729569
1.3459778 6.9718022 -0.55673444 4293729569
1.3505554 6.9347906 -0.50171518 4293729569
1.3751831 6.9076643 -0.44757998 4293729569
1.4329529 6.9013472 -0.39625537 4293729569
1.5539551 6.9316645 -0.34656775 4293729569
1.6598511 6.950068 -0.29496598 4293729569
2.0769501 7.1616755 -0.24958491 4293729569
2.0904541 7.1146135 -0.1965096 4293729569
1.8370056 6.8980927 -0.14295852 4293729569
2.5410156 7.2760477 -0.093935966 4293729569
2.6799316 7.2962618 -0.041140914 4293729569
11.416962 -0.80885661 -1.8021137 4288085770
10.277908 -0.82731616 -1.8007799 4288085770
9.1438904 -0.83479959 -1.7894202 4288085770
8.1708679 -0.84321183 -1.7841173 4288085770
7.2948914 -0.84818095 -1.7782475 4288085770
6.5439301 -0.85587215 -1.7796441 4288085770
5.8720093 -0.86301833 -1.7825783 4288085770
5.2670898 -0.86955035 -1.7871202 4288085770
4.676178 -0.87116134 -1.7885817 4288085770
4.1902618 -0.87837964 -1.7974261 4288085770
10.343796 -1.5417035 -1.8061427 4288085770
3.7063904 -0.88060784 -1.8032609 4288085770
9.1001129 -1.4845598 -1.7934488 4288085770
3.2335052 -0.87989771 -1.8050321 4288085770
8.1194305 -1.4449332 -1.7942089 4288085770
2.8516541 -0.88371491 -1.8162683 4288085770
7.1717377 -1.4004929 -1.7887768 4288085770
2.4687805 -0.88352412 -1.8225125 4288085770
6.3530121 -1.361796 -1.7875878 4288085770
2.0789032 -0.87929136 -1.8247987 4288085770
5.6432953 -1.3307266 -1.7897576 4288085770
1.7450562 -0.8783828 -1.831756 4288085770
5.0215759 -1.3041642 -1.7954105 4288085770
1.4612274 -0.88076407 -1.8444186 4288085770
4.4148407 -1.273687 -1.7979771 4288085770
1.1093597 -0.8707478 -1.8424846 4288085770
3.8901062 -1.2496822 -1.8040606 4288085770
0.80050659 -0.86398053 -1.8442975 4288085770
3.4063721 -1.2259128 -1.8099042 4288085770
0.51567078 -0.8573522 -1.8479697 4288085770
2.9636383 -1.2043799 -1.8175071 4288085770
0.22583008 -0.84769279 -1.8476721 4288085770
2.5509186 -1.1840194 -1.8259333 4288085770
-0.071029663 -0.83399135 -1.8424174 4288085770
2.1551514 -1.1617558 -1.8312613 4288085770
-0.31085205 -0.82662177 -1.8468262 4288085770
1.800415 -1.1427283 -1.839348 4288085770
-0.56069946 -0.81519186 -1.8452953 4288085770
1.47966 -1.1258978 -1.8492347 4288085770
-0.78953552 -0.80488449 -1.8466409 4288085770
1.1379242 -1.1019424 -1.8522471 4288085770
-0.98735046 -0.79675657 -1.8518044 4288085770
0.78015137 -1.0728917 -1.8473552 4288085770
-1.2071838 -0.78449923 -1.850098 4288085770
0.50039673 -1.0542946 -1.8540026 4288085770
-1.3900146 -0.77545732 -1.854174 4288085770
0.23062134 -1.0347542 -1.8585919 4288085770
-1.5628204 -0.76747382 -1.860191 4288085770
-0.042114258 -1.0121951 -1.8611997 4288085770
-1.7346497 -0.75749439 -1.8632027 4288085770
-0.34689331 -0.98244661 -1.8529974 4288085770
-1.8974609 -0.748568 -1.8681613 4288085770
-0.59367371 -0.96003616 -1.8534533 4288085770
-2.0682831 -0.73559314 -1.8681685 4288085770
-0.80641174 -0.94182241 -1.8577083 4288085770
-2.2441101 -0.71958727 -1.8642064 4288085770
-1.0261993 -0.92056781 -1.8590058 4288085770
-2.3979492 -0.70771027 -1.8641137 4288085770
-1.2479706 -0.89729941 -1.8573157 4288085770
-2.5717621 -0.68971479 -1.8581403 4288085770
-1.4527435 -0.87612969 -1.857525 4288085770
-2.7446289 -0.67072332 -1.8481618 4288085770
-1.6175232 -0.86019385 -1.864499 4288085770
-2.881424 -0.65794402 -1.8489701 4288085770
-1.7832794 -0.84325069 -1.8694786 4288085770
-3.0052338 -0.64624077 -1.8517016 4288085770
-1.9790649 -0.81913018 -1.8646365 4288085770
-3.1390533 -0.63147712 -1.8494931 4288085770
-2.1948547 -0.7888909 -1.8519143 4288085770
-3.2508698 -0.61984336 -1.8531548 4288085770
-2.3336487 -0.77310288 -1.8567353 4288085770
-2.4964447 -0.75117356 -1.8546997 4288085770
-2.6602325 -0.7282365 -1.8496703 4288085770
-2.8140106 -0.70535696 -1.8445824 4288085770
-2.9547882 -0.68455338 -1.8424176 4288085770
-3.0725861 -0.66788483 -1.8451165 4288085770
-3.1943665 -0.64919221 -1.8458396 4288085770
-3.3071594 -0.63155186 -1.84751 4288085770
-3.4048615 1.2155154 -1.8106402 4288085770
-3.291687 1.2298691 -1.810033 4288085770
-3.2005768 1.2403536 -1.8015465 4288085770
-3.0813751 1.2546744 -1.7999061 4288085770
-2.9802704 1.2641032 -1.7903639 4288085770
-2.8260193 1.2822185 -1.7965325 4288085770
-2.6998749 1.294502 -1.7918538 4288085770
-2.5516815 1.3096569 -1.7920538 4288085770
-3.3640289 1.221251 -1.8115195 4288085770
-2.3864441 1.3257127 -1.7951616 4288085770
-3.2498779 1.2316 -1.8099056 4288085770
-2.2322693 1.3398361 -1.7923301 4288085770
-3.1437683 1.2379987 -1.8033336 4288085770
-2.0630798 1.3548713 -1.7924165 4288085770
-3.0266418 1.2463326 -1.7997023 4288085770
-1.8738708 1.3707922 -1.7943925 4288085770
-2.8914642 1.256562 -1.7989727 4288085770
-1.68367 1.3867092 -1.7943643 4288085770
-2.754303 1.26578 -1.7982317 4288085770
-1.4293365 1.409251 -1.8079857 4288085770
-2.6091614 1.2749524 -1.7974471 4288085770
-1.2411804 1.4221838 -1.8029679 4288085770
-2.4459686 1.2850211 -1.7995633 4288085770
-1.0450287 1.4340723 -1.7969059 4288085770
-2.2938232 1.2931552 -1.7977401 4288085770
-0.82987976 1.4478519 -1.7917405 4288085770
-2.1236572 1.3021846 -1.7988185 4288085770
-0.59669495 1.4615283 -1.7884759 4288085770
-1.9555206 1.3092291 -1.7959069 4288085770
-0.3425293 1.4760847 -1.7860965 4288085770
-1.7543182 1.320081 -1.7998158 4288085770
-0.075332642 1.4915681 -1.7836465 4288085770
-1.5170746 1.3327234 -1.809527 4288085770
0.22889709 1.5088372 -1.7859939 4288085770
-1.3059082 1.3415198 -1.8123807 4288085770
0.56114197 1.5269465 -1.7891883 4288085770
-1.1288147 1.3445184 -1.8034192 4288085770
0.89533997 1.5430489 -1.7883707 4288085770
-0.9367218 1.3474309 -1.7963744 4288085770
1.2154999 1.5562348 -1.7826296 4288085770
-0.70358276 1.3541064 -1.795107 4288085770
1.5776825 1.5711811 -1.7786592 4288085770
-0.46646118 1.3587599 -1.792817 4288085770
2.0279541 1.5916197 -1.7852072 4288085770
-0.21835327 1.3623528 -1.7884661 4288085770
2.4451294 1.6062558 -1.7799357 4288085770
0.056793213 1.3667903 -1.7879673 4288085770
2.8742676 1.6188269 -1.7715977 4288085770
0.35095215 1.3711188 -1.7883648 4288085770
3.3494568 1.6331346 -1.7660083 4288085770
0.68711853 1.3772056 -1.7925323 4288085770
3.8395844 1.6443613 -1.7563359 4288085770
1.0492859 1.3831451 -1.7975572 4288085770
4.4217834 1.6610618 -1.7531613 4288085770
1.3553467 1.3804142 -1.7888864 4288085770
4.9808807 1.6708996 -1.7411107 4288085770
1.7404938 1.3832266 -1.7907854 4288085770
5.6500702 1.6851113 -1.7334582 4288085770
2.1606445 1.3848398 -1.793491 4288085770
6.4222717 1.7027349 -1.7302428 4288085770
2.5516815 1.3806272 -1.785354 4288085770
7.3105316 1.7236991 -1.7303931 4288085770
2.9867554 1.3761623 -1.7809757 4288085770
8.2247162 1.7385225 -1.7233988 4288085770
3.4227905 1.3676956 -1.77259 4288085770
9.36203 1.7640734 -1.7271868 4288085770
3.9278412 1.3618348 -1.7678281 4288085770
10.621323 1.7879343 -1.7293061 4288085770
4.4759064 1.3527303 -1.7638286 4288085770
5.0218964 1.3396428 -1.7538363 4288085770
5.6328735 1.3241863 -1.7444888 4288085770
6.349884 1.3091249 -1.7405607 4288085770
7.2180023 1.2971997 -1.7468067 4288085770
8.0859833 1.276284 -1.743049 4288085770
9.1570587 1.2572091 -1.7501796 4288085770
10.334091 1.2315373 -1.7547263 4288085770
2.1797485 -7.1014228 -0.50915122 4293729569
2.1681671 -7.1034236 -0.57222962 4293729569
2.1775513 -7.1165447 -0.63718712 4293729569
2.0777893 -7.0491104 -0.75881803 4293729569
2.0353851 -7.0159349 -0.81909359 4293729569
2.0318756 -7.0069809 -0.8811413 4293729569
2.0214081 -6.9899879 -0.94323385 4293729569
2.0348663 -6.9881306 -1.0061861 4293729569
2.0383453 -6.9752169 -1.0682017 4293729569
2.0588379 -6.9703984 -1.1311208 4293729569
2.2655334 -7.0419645 -0.55897474 4293729569
2.0753326 -6.9605584 -1.1940659 4293729569
2.2690887 -7.0160499 -0.62000477 4293729569
2.1077881 -6.9588084 -1.25692 4293729569
2.2946014 -7.0032563 -0.67990708 4293729569
2.1422119 -6.9560714 -1.3207651 4293729569
2.2962036 -6.9693284 -0.73995602 4293729569
2.1547852 -6.9332061 -1.3807448 4293729569
2.2778931 -6.9192867 -0.79712474 4293729569
2.209198 -6.9375825 -1.4454788 4293729569
2.2904816 -6.8884182 -0.85511386 4293729569
2.2377167 -6.9208083 -1.5063702 4293729569
2.315033 -6.8636179 -0.91303432 4293729569
2.3041382 -6.9262547 -1.573042 4293729569
2.3505707 -6.8408809 -0.97189653 4293729569
3.0883636 -7.4208498 -1.7414807 4293729569
2.3910675 -6.8221703 -1.0287288 4293729569
2.9983215 -7.3093929 -1.787088 4288085770
2.433609 -6.7994709 -1.0865551 4293729569
2.7088776 -7.063777 -1.7988688 4288085770
2.4871216 -6.7818346 -1.1443197 4293729569
2.5360413 -6.8958335 -1.8249635 4288085770
2.5416412 -6.7622023 -1.2010814 4293729569
2.2186432 -6.6300478 -1.8249084 4288085770
2.5831909 -6.7314944 -1.2549227 4293729569
1.9720306 -6.4116693 -1.8324364 4288085770
2.6387329 -6.7068653 -1.3096853 4293729569
1.7173615 -6.1902404 -1.8350083 4288085770
2.7122345 -6.6913404 -1.366346 4293729569
1.468689 -5.9718428 -1.8355454 4288085770
2.7957001 -6.6788716 -1.4229528 4293729569
1.2748413 -5.79076 -1.8417593 4288085770
2.8662262 -6.6563263 -1.4766372 4293729569
1.0800018 -5.6076689 -1.8449799 4288085770
2.8998413 -6.6075687 -1.5255407 4293729569
0.86715698 -5.4154687 -1.841302 4288085770
2.991333 -6.5921426 -1.5801107 4293729569
0.70716858 -5.2565751 -1.8453163 4288085770
3.100769 -6.5848198 -1.6365801 4293729569
0.50627136 -5.0734415 -1.8395659 4288085770
3.0835571 -6.498764 -1.6737853 4293729569
0.34623718 -4.9155407 -1.8375777 4288085770
3.3286591 -6.5672221 -1.746477 4293729569
0.2121582 -4.7757916 -1.8404366 4288085770
3.4899902 -6.5811958 -1.807659 4288085770
0.098007202 -4.6471553 -1.8441809 4288085770
3.3171844 -6.3972373 -1.818771 4288085770
0.017745972 -4.5387158 -1.8527292 4288085770
3.0944824 -6.1839852 -1.8191699 4288085770
-0.077484131 -4.4231863 -1.8563615 4288085770
2.9016876 -5.9919043 -1.8213919 4288085770
-0.17269897 -4.3076558 -1.8589936 4288085770
2.734787 -5.8169708 -1.8244623 4288085770
-0.26596069 -4.1941338 -1.8586136 4288085770
2.596817 -5.6572027 -1.8303674 4288085770
-0.35722351 -4.0806217 -1.8582226 4288085770
2.3829956 -5.4589915 -1.8217021 4288085770
-0.43852234 -3.9751668 -1.8577718 4288085770
2.2220154 -5.2910843 -1.8187331 4288085770
-0.50886536 -3.8757737 -1.8582584 4288085770
2.0949554 -5.1433711 -1.8185676 4288085770
-0.58917236 -3.7713223 -1.8558012 4288085770
1.9938202 -5.0098081 -1.8222545 4288085770
-0.63757324 -3.6840551 -1.8581623 4288085770
1.8587494 -4.8600445 -1.8171321 4288085770
-0.70495605 -3.5876763 -1.8556298 4288085770
1.7745514 -4.7375755 -1.8197197 4288085770
-0.77932739 -3.4892538 -1.8491353 4288085770
1.729248 -4.6363292 -1.8260854 4288085770
-0.8167572 -3.4090474 -1.8504323 4288085770
1.6679993 -4.5259905 -1.8295425 4288085770
-0.86019897 -3.3258049 -1.849763 4288085770
1.5987244 -4.4126015 -1.8290433 4288085770
-0.90762329 -3.2415354 -1.8451155 4288085770
1.5244446 -4.2991824 -1.8255702 4288085770
-0.93612671 -3.1683788 -1.8453592 4288085770
1.4571686 -4.1898031 -1.8230566 4288085770
-0.93864441 -3.1063726 -1.8504585 4288085770
1.4397736 -4.1027117 -1.8272647 4288085770
-0.9801178 -3.0271358 -1.8447751 4288085770
1.3854218 -4.0014043 -1.8236762 4288085770
-0.99761963 -2.9590387 -1.8439571 4288085770
1.3560486 -3.9112382 -1.8219486 4288085770
-0.99517822 -2.9000576 -1.8460284 4288085770
1.3436127 -3.8281727 -1.8241273 4288085770
-1.0137024 -2.8309529 -1.843217 4288085770
1.3361816 -3.7481325 -1.824277 4288085770
-1.0172577 -2.7689347 -1.842322 4288085770
1.3227539 -3.6640577 -1.8234621 4288085770
-1.0278015 -2.7038741 -1.838466 4288085770
1.3292847 -3.590096 -1.8235351 4288085770
-1.0183868 -2.6479309 -1.8394991 4288085770
1.3318024 -3.514111 -1.8226308 4288085770
-0.99797058 -2.59605 -1.841472 4288085770
1.3463135 -3.442194 -1.8226613 4288085770
-0.97454834 -2.5441852 -1.84243 4288085770
1.3688049 -3.374321 -1.8216468 4288085770
-0.95417786 -2.4923024 -1.8424031 4288085770
1.3892975 -3.3054364 -1.8206445 4288085770
-0.92478943 -2.4444721 -1.8443269 4288085770
1.4217529 -3.2416193 -1.8195759 4288085770
-0.88041687 -2.4007282 -1.8481704 4288085770
1.4691925 -3.1818881 -1.8204275 4288085770
-0.86102295 -2.3468351 -1.8441516 4288085770
1.5196381 -3.123174 -1.8212625 4288085770
-0.8306427 -2.298007 -1.8430723 4288085770
1.5680695 -3.063446 -1.82011 4288085770
-0.77728271 -2.2563117 -1.8458692 4288085770
1.6294861 -3.0077906 -1.8188876 4288085770
-0.73492432 -2.2105522 -1.8457266 4288085770
1.6939087 -2.9531536 -1.8186494 4288085770
-0.67358398 -2.1719017 -1.8484806 4288085770
1.7653046 -2.8995545 -1.8173753 4288085770
-0.61322021 -2.1312451 -1.8502423 4288085770
1.8426971 -2.8479886 -1.8160695 4288085770
-0.5539093 -2.0895803 -1.8500108 4288085770
1.9360657 -2.8005137 -1.815679 4288085770
-0.48956299 -2.0499449 -1.850752 4288085770
2.0244598 -2.7490087 -1.8133188 4288085770
-0.43421936 -2.0042541 -1.847546 4288085770
2.1707916 -2.7148378 -1.8196481 4288085770
-0.35287476 -1.9677148 -1.8491992 4288085770
2.2771606 -2.6674333 -1.8171946 4288085770
-0.28456116 -1.9260976 -1.8469242 4288085770
2.3965149 -2.6211026 -1.8156749 4288085770
-0.1932373 -1.8916154 -1.849526 4288085770
2.5318604 -2.580862 -1.8150686 4288085770
-0.095947266 -1.8571653 -1.8510984 4288085770
2.6731873 -2.5396552 -1.8144346 4288085770
-0.019607544 -1.8155906 -1.8467847 4288085770
2.8205261 -2.4984813 -1.8127712 4288085770
0.084701538 -1.7811797 -1.848323 4288085770
2.9968414 -2.4634721 -1.8139564 4288085770
0.19000244 -1.744772 -1.8478595 4288085770
3.1621704 -2.4233968 -1.8112036 4288085770
0.27531433 -1.7032466 -1.8425027 4288085770
3.3374786 -2.3833768 -1.8074018 4288085770
0.3966217 -1.669928 -1.8419565 4288085770
3.5417786 -2.3485234 -1.8074499 4288085770
0.51391602 -1.6345878 -1.8414339 4288085770
3.7301025 -2.3085742 -1.8025852 4288085770
0.6492157 -1.6013477 -1.8408192 4288085770
3.9543915 -2.2748303 -1.8005344 4288085770
0.77351379 -1.5660434 -1.8382629 4288085770
4.2116699 -2.2452738 -1.8013154 4288085770
0.92979431 -1.5349228 -1.8395427 4288085770
4.4579773 -2.21065 -1.7971588 4288085770
1.0840912 -1.5027878 -1.8378345 4288085770
4.7802124 -2.1884611 -1.8006102 4288085770
1.2323914 -1.4666162 -1.8341619 4288085770
5.0715027 -2.1570899 -1.7972282 4288085770
1.4126587 -1.435629 -1.8343247 4288085770
5.3937683 -2.1288941 -1.7956897 4288085770
1.5959625 -1.4036568 -1.8334748 4288085770
5.7550201 -2.1019168 -1.7939576 4288085770
1.7962341 -1.3727796 -1.8325399 4288085770
6.1082916 -2.071892 -1.7902709 4288085770
1.9955139 -1.3398957 -1.8306137 4288085770
6.5605164 -2.0544291 -1.7930793 4288085770
2.2098083 -1.3070953 -1.8286139 4288085770
6.9927673 -2.0288465 -1.7899989 4288085770
2.4640961 -1.2785237 -1.8304113 4288085770
7.5090027 -2.0107398 -1.7914945 4288085770
2.6993713 -1.2458384 -1.8263096 4288085770
8.0322266 -1.9896674 -1.788962 4288085770
2.9276733 -1.20811 -1.8192497 4288085770
8.6404266 -1.9750748 -1.7900027 4288085770
3.1799316 -1.1725172 -1.8130692 4288085770
9.2656555 -1.9545717 -1.7869684 4288085770
3.4402161 -1.1359667 -1.8048521 4288085770
10.169815 -1.9646533 -1.8035194 4288085770
3.7525024 -1.1017121 -1.8013757 4288085770
11.014023 -1.9573834 -1.8073927 4288085770
4.0787964 -1.067535 -1.796832 4288085770
4.4410706 -1.0345603 -1.7931105 4288085770
4.8453522 -1.0028223 -1.7911814 4288085770
5.2696533 -0.96919483 -1.7881578 4288085770
5.7289429 -0.93576264 -1.7849637 4288085770
6.2302399 -0.90156633 -1.782565 4288085770
6.8005371 -0.8677569 -1.7808281 4288085770
7.4418488 -0.834346 -1.7807435 4288085770
8.1571808 -0.80035084 -1.782298 4288085770
8.9815063 -0.76696831 -1.7863182 4288085770
9.9678802 -0.73649889 -1.7965409 4288085770
10.964233 -0.69707435 -1.7977306 4288085770
11.394547 1.8513153 -1.7474202 4288085770
10.472885 1.9034379 -1.7335826 4288085770
9.7772827 1.9652891 -1.7327658 4288085770
9.1306763 2.0218711 -1.7307252 4288085770
8.5050507 2.0743411 -1.7255841 4288085770
7.9764404 2.129267 -1.7250203 4288085770
7.4968262 2.1829214 -1.7242388 4288085770
7.0451965 2.235419 -1.724331 4288085770
6.6085663 2.2848387 -1.7213515 4288085770
6.2259369 2.3349566 -1.720136 4288085770
5.892334 2.3887985 -1.721711 4288085770
5.5927582 2.4434495 -1.7251381 4288085770
5.3241882 2.4979286 -1.7284285 4288085770
5.0836182 2.5552497 -1.7336007 4288085770
4.812973 2.6037459 -1.7328888 4288085770
4.5883942 2.6579838 -1.7349852 4288085770
4.4098358 2.7169609 -1.740888 4288085770
4.2132416 2.7710431 -1.7428604 4288085770
4.018631 2.8231163 -1.7438191 4288085770
11.52597 4.2815957 -1.752586 4288085770
3.82901 2.8741646 -1.7427553 4288085770
11.021225 4.3203988 -1.7448875 4288085770
3.6914673 2.9339163 -1.7474793 4288085770
10.646667 4.3804674 -1.746657 4288085770
3.5468903 2.990711 -1.7492281 4288085770
10.249039 4.4316726 -1.7425109 4288085770
3.4223328 3.0493917 -1.7528933 4288085770
9.8152924 4.4690866 -1.7324971 4288085770
3.2897644 3.1061215 -1.7535895 4288085770
9.4436188 4.5151544 -1.725227 4288085770
3.1621704 3.1618257 -1.7532619 4288085770
9.3363647 4.6187224 -1.739904 4288085770
3.0576019 3.2223992 -1.7548424 4288085770
9.0106812 4.6685367 -1.731439 4288085770
2.9570465 3.2829509 -1.7564055 4288085770
8.8903809 4.7651863 -1.7411603 4288085770
2.8715057 3.3454194 -1.7579058 4288085770
8.7109375 4.8471746 -1.7431132 4288085770
