# .PCD v0.7 - Point Cloud Data file format
VERSION 0.7
FIELDS x y z rgb
SIZE 4 4 4 4
TYPE F F F U
COUNT 1 1 1 1
WIDTH 1122
HEIGHT 1
VIEWPOINT 0 0 0 1 0 0 0
POINTS 1122
DATA ascii
7.025177 8.0638275 -1.6718645 4288085770
14.777649 -1.2758145 -1.7953458 4288085770
13.902954 -1.3191948 -1.8006482 4288085770
12.999176 -1.3487177 -1.7979379 4288085770
12.154388 -1.3720193 -1.7931275 4288085770
11.4086 -1.3949227 -1.7921867 4288085770
10.719788 -1.4136019 -1.792156 4288085770
10.069 -1.431129 -1.7930713 4288085770
9.4211121 -1.4396667 -1.78795 4288085770
8.8592834 -1.4498491 -1.788722 4288085770
8.3244324 -1.4579353 -1.7874513 4288085770
7.8215942 -1.4638848 -1.7891307 4288085770
14.589294 -2.3896241 -1.8126643 4288085770
7.3777466 -1.4715996 -1.7927396 4288085770
13.540253 -2.3456936 -1.8128748 4288085770
6.928833 -1.4743443 -1.7933371 4288085770
12.493164 -2.2917862 -1.8050468 4288085770
6.5049744 -1.4749918 -1.7938943 4288085770
11.610107 -2.2492175 -1.8040462 4288085770
6.0970764 -1.4735847 -1.792423 4288085770
10.795013 -2.2083855 -1.8029625 4288085770
5.7211914 -1.472043 -1.7939093 4288085770
10.011993 -2.1634407 -1.7988224 4288085770
5.3823242 -1.4733462 -1.7983577 4288085770
9.3449707 -2.129024 -1.8005688 4288085770
5.0604248 -1.4715838 -1.8027728 4288085770
8.7169495 -2.0944571 -1.8022637 4288085770
4.7395325 -1.4678297 -1.8041792 4288085770
8.1349182 -2.0597153 -1.8028979 4288085770
4.4096375 -1.4571276 -1.8005719 4288085770
7.5809021 -2.0238721 -1.8014917 4288085770
4.1327209 -1.4541907 -1.8049238 4288085770
7.0969238 -1.9967363 -1.8060257 4288085770
3.856842 -1.4482574 -1.8072636 4288085770
6.6279602 -1.9645529 -1.8075213 4288085770
3.5919189 -1.4392862 -1.8085778 4288085770
6.1889648 -1.9352505 -1.809989 4288085770
3.3370361 -1.4312711 -1.8108823 4288085770
5.7849731 -1.9068134 -1.8124137 4288085770
3.0871277 -1.4212441 -1.811173 4288085770
5.4049683 -1.8802783 -1.8158143 4288085770
2.867218 -1.4140911 -1.8144355 4288085770
5.0370178 -1.8506999 -1.8181875 4288085770
2.6473083 -1.4039397 -1.8166862 4288085770
4.7130432 -1.8269448 -1.8225245 4288085770
2.4433899 -1.3957248 -1.8199236 4288085770
4.3670349 -1.7942972 -1.8208585 4288085770
2.2344666 -1.3835354 -1.8211532 4288085770
4.059021 -1.7674911 -1.8221641 4288085770
2.0305481 -1.3703337 -1.8203721 4288085770
3.749054 -1.7366996 -1.8214569 4288085770
1.8346252 -1.3561025 -1.819577 4288085770
3.4870605 -1.7137048 -1.8257165 4288085770
1.6456604 -1.342844 -1.8187766 4288085770
3.2150574 -1.6847663 -1.8249669 4288085770
1.4767456 -1.3304949 -1.8209529 4288085770
2.9640808 -1.6587393 -1.8262005 4288085770
1.2937927 -1.3142166 -1.8191335 4288085770
2.7191162 -1.6316931 -1.8264229 4288085770
1.1429138 -1.3037949 -1.8222935 4288085770
2.4911499 -1.6055763 -1.8276262 4288085770
0.97695923 -1.2874465 -1.8214514 4288085770
2.2681885 -1.5794449 -1.8278229 4288085770
0.83001709 -1.2740178 -1.8225954 4288085770
2.0601807 -1.554255 -1.8280034 4288085770
0.69909668 -1.2635078 -1.8287287 4288085770
1.8562012 -1.5290499 -1.8281789 4288085770
0.55316162 -1.2470818 -1.8278606 4288085770
1.6512146 -1.4998598 -1.825341 4288085770
0.39019775 -1.2247481 -1.819993 4288085770
1.4622498 -1.4735994 -1.8244929 4288085770
0.26626587 -1.211226 -1.8221066 4288085770
1.2992859 -1.4522247 -1.8276289 4288085770
0.13833618 -1.1957269 -1.8222182 4288085770
1.136322 -1.428853 -1.829757 4288085770
0.031433105 -1.1841273 -1.8273163 4288085770
0.97433472 -1.4044895 -1.8288805 4288085770
0.80737305 -1.3771515 -1.826 4288085770
0.63735962 -1.3478408 -1.8191161 4288085770
0.5194397 -1.3302765 -1.8262067 4288085770
0.38345337 -1.3068123 -1.8252997 4288085770
0.23745728 -1.2803998 -1.820395 4288085770
0.12451172 -1.260828 -1.824472 4288085770
0.0045471191 -1.2382941 -1.8255475 4288085770
0.053894043 0.74184561 -1.7720163 4288085770
0.18493652 0.75534153 -1.7727818 4288085770
0.31903076 0.76884556 -1.7725425 4288085770
0.45806885 0.78237009 -1.7722957 4288085770
0.62316895 0.79700899 -1.7770083 4288085770
0.74822998 0.80844975 -1.7687888 4288085770
0.91229248 0.82207203 -1.769506 4288085770
-0.013397217 0.76855326 -1.7749977 4288085770
1.0723877 0.8356638 -1.7662289 4288085770
0.13369751 0.78013229 -1.7817469 4288085770
1.2674561 0.85041857 -1.7708983 4288085770
0.24975586 0.78854322 -1.7745509 4288085770
1.443512 0.86306858 -1.7666016 4288085770
0.38586426 0.79704952 -1.7733264 4288085770
1.6455994 0.87783813 -1.7682602 4288085770
0.53991699 0.80763769 -1.7750683 4288085770
1.8656616 0.89267683 -1.7698934 4288085770
0.68701172 0.81618452 -1.7728279 4288085770
2.0797424 0.90647793 -1.7675381 4288085770
0.86212158 0.826859 -1.7765398 4288085770
2.323822 0.92141199 -1.7701364 4288085770
1.0171814 0.83442783 -1.7722912 4288085770
2.5509033 0.93325186 -1.7647691 4288085770
1.2033081 0.84413719 -1.7739906 4288085770
2.80896 0.94721937 -1.7623508 4288085770
1.4013977 0.85389137 -1.7756729 4288085770
3.0850525 0.96125698 -1.7599061 4288085770
1.5924988 0.86160612 -1.7733719 4288085770
3.374115 0.97533941 -1.7564425 4288085770
1.7955627 0.86936808 -1.7720535 4288085770
3.6851807 0.98950863 -1.7539473 4288085770
2.0186462 0.87821436 -1.7727032 4288085770
4.0192261 1.0037708 -1.7524185 4288085770
2.2367554 0.88502264 -1.7683666 4288085770
4.3833008 1.0191422 -1.7498434 4288085770
2.4698792 0.8908968 -1.766012 4288085770
4.7713928 1.0346079 -1.7482328 4288085770
2.7249451 0.89785671 -1.764622 4288085770
5.1844482 1.0491624 -1.74459 4288085770
2.9970703 0.90488148 -1.763207 4288085770
5.6484985 1.0649219 -1.7438698 4288085770
3.2821655 0.90995169 -1.7607806 4288085770
6.1575623 1.0818515 -1.7430811 4288085770
3.5762634 0.91505003 -1.7563415 4288085770
6.6646118 1.0957518 -1.736306 4288085770
3.9213867 0.92136717 -1.7588243 4288085770
7.2666931 1.1140389 -1.7363789 4288085770
4.2664795 0.92566061 -1.7553148 4288085770
7.9157715 1.1304989 -1.7343915 4288085770
4.6385498 0.93006563 -1.7537661 4288085770
8.6238098 1.1481709 -1.7293143 4288085770
5.0467224 0.93360424 -1.7511683 4288085770
9.441864 1.1682792 -1.7290716 4288085770
5.4868469 0.93627167 -1.7505279 4288085770
10.328918 1.1866398 -1.7257364 4288085770
5.9609375 0.93906832 -1.7498384 4288085770
11.34198 1.2084894 -1.7252076 4288085770
6.4560852 0.93993711 -1.7471247 4288085770
12.517029 1.2319636 -1.7264414 4288085770
7.0181885 0.94006395 -1.7453184 4288085770
13.855072 1.2570572 -1.7274358 4288085770
7.6263123 0.93936586 -1.7434487 4288085770
8.2834473 0.93685102 -1.7405155 4288085770
9.0415649 0.93373394 -1.7414393 4288085770
9.8467102 0.92878151 -1.7383013 4288085770
10.792877 0.92238569 -1.7409668 4288085770
11.85202 0.91341686 -1.7424791 4288085770
13.062225 0.90302944 -1.7457795 4288085770
14.424438 0.88921833 -1.7488737 4288085770
7.0802002 -7.500567 -0.81140351 4293729569
4.1870422 -5.6339469 -0.67713737 4293729569
4.0697632 -5.509263 -0.71385932 4293729569
3.2607727 -4.961381 -0.69512796 4293729569
3.2387085 -4.8993411 -0.73093033 4293729569
3.2537537 -4.8571501 -0.76974607 4293729569
3.342926 -4.8576598 -0.81460071 4293729569
3.3439026 -4.8045335 -0.85039878 4293729569
3.3919983 -4.7772183 -0.88921666 4293729569
3.3849487 -4.7171288 -0.92300177 4293729569
8.4145508 -7.5171804 -1.4862499 4293729569
8.642395 -7.5049372 -0.76283598 4293729569
8.5908203 -7.5222769 -1.5549784 4293729569
8.8566895 -7.5259156 -0.82456183 4293729569
8.7219238 -7.5015645 -1.6176839 4293729569
9.0178833 -7.5151081 -0.88225555 4293729569
8.894165 -7.4986835 -1.6843889 4293729569
8.9972229 -7.4540944 -1.7420514 4293729569
9.3461914 -7.4844704 -0.99760032 4293729569
4.8688965 -5.1482906 -1.2821813 4293729569
9.6355896 -7.53016 -1.0612957 4293729569
4.8768005 -5.0801563 -1.3129127 4293729569
9.8648682 -7.5400887 -1.1209559 4293729569
4.9147949 -5.0259023 -1.3456471 4293729569
4.559845 -4.7343192 -0.76914167 4293729569
4.8154602 -4.9002295 -1.3603387 4293729569
10.476624 -7.6243353 -1.2502663 4293729569
4.5527954 -4.6922574 -1.3509908 4293729569
4.4995728 -4.5934072 -1.366708 4293729569
4.6246643 -4.5808005 -1.406456 4293729569
6.0021362 -5.1311345 -0.98726392 4293729569
5.315979 -4.8387818 -1.5242884 4293729569
6.013031 -5.0510077 -1.0129461 4293729569
6.0002136 -5.0817876 -1.6430767 4293729569
6.1120605 -5.0105267 -1.044632 4293729569
6.0531311 -5.0194917 -1.6717567 4293729569
6.2713928 -5.0324917 -1.7234478 4293729569
12.467377 -7.683393 -1.6682191 4293729569
6.1499939 -4.8889523 -1.7241096 4293729569
12.170502 -7.4155121 -1.6697028 4293729569
6.0877075 -4.7711616 -1.7327714 4293729569
11.944763 -7.1843491 -1.6752064 4293729569
6.0113525 -4.6484432 -1.736438 4293729569
11.745087 -6.9660902 -1.6797166 4293729569
5.8669128 -4.4980197 -1.7291121 4293729569
7.4102173 -5.0248394 -1.2795587 4293729569
5.7454834 -4.3595057 -1.7227933 4293729569
7.4089966 -4.9268022 -1.2931938 4293729569
5.6982117 -4.2536774 -1.7264755 4293729569
7.5329895 -4.8782496 -1.318809 4293729569
5.8523254 -4.2299829 -1.7601347 4293729569
11.122681 -6.1934171 -1.6918452 4293729569
6.0815125 -4.2329702 -1.8037703 4288085770
11.032196 -6.0317516 -1.6953881 4293729569
6.2937012 -4.2270336 -1.8444009 4288085770
10.857605 -5.8394384 -1.6889546 4293729569
6.3655701 -4.1627102 -1.8610432 4288085770
10.818176 -5.7005782 -1.6934998 4293729569
6.3072815 -4.050952 -1.8567212 4288085770
10.009613 -5.2828989 -1.6172633 4293729569
6.236969 -3.9332485 -1.8493967 4288085770
10.076416 -5.1876135 -1.6287975 4293729569
6.1485901 -3.8106332 -1.8370838 4288085770
10.470703 -5.2069788 -1.6732233 4293729569
6.1353455 -3.7166941 -1.8357549 4288085770
10.625549 -5.1383381 -1.6917126 4293729569
6.1271667 -3.6247401 -1.8334248 4288085770
10.777466 -5.067718 -1.7071993 4293729569
6.1409302 -3.5406926 -1.8340886 4288085770
10.728058 -4.9299383 -1.6997647 4293729569
6.1427002 -3.4527054 -1.8307571 4288085770
10.852875 -4.8464422 -1.7092476 4293729569
6.1615601 -3.3696461 -1.829416 4288085770
10.916595 -4.7442012 -1.7117608 4293729569
6.1923828 -3.2925379 -1.8290772 4288085770
10.991394 -4.645925 -1.7122698 4293729569
6.2102051 -3.2094939 -1.8247383 4288085770
11.072144 -4.5476313 -1.7117696 4293729569
6.2910767 -3.1461806 -1.8293693 4288085770
11.292053 -4.4887676 -1.7241886 4293729569
6.342926 -3.0729973 -1.8280113 4288085770
11.678192 -4.4732261 -1.7514968 4293729569
6.4048157 -3.0017765 -1.8266435 4288085770
12.124329 -4.4694481 -1.78175 4288085770
6.469635 -2.9325488 -1.8242788 4288085770
12.669586 -4.4862652 -1.8209176 4288085770
6.5525208 -2.8652458 -1.8238914 4288085770
13.091644 -4.4626036 -1.844136 4288085770
6.6444092 -2.800905 -1.8245003 4288085770
13.456665 -4.4181852 -1.8593702 4288085770
6.7282715 -2.7316096 -1.8211043 4288085770
13.67749 -4.3353653 -1.8586977 4288085770
6.8451843 -2.6711733 -1.8216867 4288085770
13.891266 -4.2485867 -1.8540215 4288085770
6.9430237 -2.6048265 -1.8182786 4288085770
14.167114 -4.1735582 -1.8542876 4288085770
7.0668945 -2.5433731 -1.8168457 4288085770
8.9725037 -2.8859031 -1.3479979 4293729569
7.2248535 -2.4877806 -1.8183784 4288085770
8.9441833 -2.7771049 -1.3236375 4293729569
7.3647461 -2.4272678 -1.8169227 4288085770
8.9508972 -2.6771715 -1.3002524 4293729569
7.5026245 -2.3637733 -1.8124588 4288085770
9.0907593 -2.6046979 -1.2877512 4293729569
7.6775208 -2.3061247 -1.8119564 4288085770
9.0453796 -2.4949806 -1.2584152 4293729569
7.8444214 -2.2445176 -1.8084521 4288085770
10.046967 -2.5800266 -1.3140879 4293729569
8.0563354 -2.1917279 -1.8089066 4288085770
8.2792664 -2.1358953 -1.8093314 4288085770
8.5061646 -2.0790565 -1.8077462 4288085770
8.7480774 -2.022161 -1.8061359 4288085770
9.0440063 -1.9710488 -1.8084583 4288085770
9.3168945 -1.9130435 -1.8047924 4288085770
9.6698914 -1.862711 -1.8090241 4288085770
9.9617615 -1.8006425 -1.8033113 4288085770
10.395752 -1.7549956 -1.8104265 4288085770
10.786682 -1.6995339 -1.8105755 4288085770
11.162537 -1.6381476 -1.805727 4288085770
11.658478 -1.5822828 -1.808702 4288085770
12.17337 -1.5253539 -1.8096406 4288085770
12.688263 -1.4624395 -1.8065574 4288085770
13.391205 -1.4087729 -1.8161995 4288085770
14.016113 -1.3414512 -1.811918 4288085770
14.708954 -1.2718668 -1.8095162 4288085770
13.895203 1.295053 -1.7309268 4288085770
12.908173 1.3384047 -1.7306356 4288085770
12.024139 1.3771305 -1.7281666 4288085770
11.217133 1.4151421 -1.7265549 4288085770
10.531097 1.4546127 -1.7287087 4288085770
9.8740845 1.4891801 -1.7278264 4288085770
9.2850952 1.5219951 -1.7258215 4288085770
8.7391052 1.5549717 -1.724735 4288085770
8.2800598 1.5892854 -1.7284787 4288085770
13.834625 2.1799908 -1.5177484 4293729569
7.808075 1.6195269 -1.7252626 4288085770
13.741516 2.2798843 -1.5875552 4293729569
7.3890991 1.6499734 -1.7249451 4288085770
14.183258 2.4389033 -1.7011282 4288085770
6.9981079 1.6795211 -1.7235785 4288085770
13.366333 2.455894 -1.7036154 4288085770
6.6340942 1.7071643 -1.7211673 4288085770
12.588379 2.4720216 -1.7040329 4288085770
6.3241272 1.7410264 -1.7246313 4288085770
11.880463 2.4884057 -1.7043164 4288085770
6.0281372 1.7729373 -1.7270763 4288085770
11.222504 2.5029664 -1.7015119 4288085770
5.7311401 1.8008313 -1.725538 4288085770
10.644562 2.5208287 -1.7015433 4288085770
5.4751587 1.8328886 -1.7279065 4288085770
10.141602 2.5459819 -1.7054064 4288085770
5.2071533 1.8598857 -1.7253165 4288085770
9.6476746 2.566155 -1.7052708 4288085770
4.9701843 1.8890033 -1.7246604 4288085770
9.1906738 2.5854564 -1.7030683 4288085770
4.7632141 1.9202414 -1.7269392 4288085770
8.7727356 2.6079078 -1.70278 4288085770
4.571228 1.9535389 -1.7301824 4288085770
8.3777771 2.6294417 -1.701452 4288085770
4.3642578 1.9807601 -1.7274766 4288085770
8.0217896 2.6541219 -1.7010384 4288085770
4.1802673 2.0100756 -1.7277222 4288085770
7.6708374 2.6748099 -1.697634 4288085770
4.005249 2.0404258 -1.7279458 4288085770
7.3668823 2.700686 -1.6981194 4288085770
3.8422546 2.0698171 -1.72715 4288085770
7.0858765 2.7286458 -1.6985538 4288085770
3.6972961 2.1022844 -1.7293084 4288085770
6.816925 2.7556472 -1.6979682 4288085770
3.5582886 2.1347704 -1.7304561 4288085770
6.579895 2.7867723 -1.6993072 4288085770
3.4162903 2.1642375 -1.7296202 4288085770
6.3449402 2.8168979 -1.6986461 4288085770
3.2813416 2.1947317 -1.7287672 4288085770
6.1279602 2.8460908 -1.6979542 4288085770
3.1473389 2.2242222 -1.7259164 4288085770
5.9189758 2.8763127 -1.6972435 4288085770
3.0483398 2.2598615 -1.7289767 4288085770
5.7359619 2.9096341 -1.6974716 4288085770
2.9273376 2.2894034 -1.7271004 4288085770
5.5569458 2.9419646 -1.6966963 4288085770
2.820343 2.3209968 -1.7251909 4288085770
5.3929749 2.9773555 -1.6968811 4288085770
2.7362976 2.3586917 -1.7282155 4288085770
5.22995 3.0107436 -1.6950717 4288085770
2.6283569 2.3882742 -1.7243145 4288085770
5.0829468 3.0461926 -1.6942241 4288085770
2.5643311 2.42905 -1.7292898 4288085770
4.9579468 3.0867295 -1.6953163 4288085770
2.4623108 2.4576535 -1.7253814 4288085770
4.8329163 3.1252627 -1.6954157 4288085770
2.3933411 2.4953971 -1.726377 4288085770
4.7338562 3.1709037 -1.6984398 4288085770
2.3323364 2.5351739 -1.7283502 4288085770
4.6058655 3.2064147 -1.6955562 4288085770
2.2463379 2.5668368 -1.724401 4288085770
4.5088501 3.2490516 -1.6955876 4288085770
2.1812744 2.6035867 -1.723393 4288085770
4.4177856 3.2937102 -1.6956 4288085770
2.1372986 2.6464295 -1.7263222 4288085770
4.3217773 3.3353438 -1.6936333 4288085770
2.0812378 2.6852136 -1.7252898 4288085770
4.2586975 3.3871121 -1.6955667 4288085770
2.0282593 2.7250075 -1.7242479 4288085770
4.1956482 3.4378753 -1.6965041 4288085770
1.9692078 2.7607713 -1.7202322 4288085770
4.1245728 3.4856048 -1.6954677 4288085770
1.9541321 2.8117328 -1.7270772 4288085770
4.0695496 3.5363955 -1.695389 4288085770
1.9081726 2.8515496 -1.7250216 4288085770
4.0184937 3.5902009 -1.6952925 4288085770
1.8651123 2.8923745 -1.7219574 4288085770
3.9754028 3.6460357 -1.6951735 4288085770
1.8190613 2.9321895 -1.7189023 4288085770
3.9502563 3.7079463 -1.697998 4288085770
1.776062 2.9720054 -1.7138414 4288085770
3.8931885 3.7587113 -1.6929243 4288085770
1.7659912 3.0249724 -1.7166698 4288085770
3.8630981 3.8175902 -1.6917691 4288085770
1.7449341 3.0718884 -1.7165413 4288085770
3.8500061 3.8825412 -1.6935599 4288085770
1.7288818 3.121819 -1.7153924 4288085770
3.8778381 3.964664 -1.7012095 4288085770
1.7018127 3.1656985 -1.7112865 4288085770
3.8637085 4.0306001 -1.6999984 4288085770
1.7017822 3.2226977 -1.7130814 4288085770
3.8516235 4.0965419 -1.6977837 4288085770
1.7046814 3.2797093 -1.7148705 4288085770
3.8554688 4.1715484 -1.6975055 4288085770
1.6946106 3.3316541 -1.7117028 4288085770
3.8573303 4.243546 -1.6962421 4288085770
1.7025146 3.3916802 -1.7124715 4288085770
3.8911438 4.3306718 -1.6988626 4288085770
1.7263794 3.4587741 -1.7161841 4288085770
3.8939819 4.4036613 -1.6945932 4288085770
1.7352905 3.5197959 -1.714947 4288085770
3.901825 4.4796672 -1.690304 4288085770
1.7532043 3.5848584 -1.7156785 4288085770
3.949585 4.5738406 -1.6918726 4288085770
1.7550964 3.6418405 -1.7104695 4288085770
3.9973755 4.6690135 -1.6924372 4288085770
1.7779846 3.7089181 -1.7101841 4288085770
4.0321655 4.758122 -1.6890485 4288085770
1.8088074 3.7800241 -1.7098687 4288085770
4.0709534 4.8492427 -1.6846447 4288085770
1.830719 3.8480849 -1.7065818 4288085770
4.1636658 4.9685903 -1.6880357 4288085770
1.8745422 3.9272466 -1.7082121 4288085770
4.241333 5.0808692 -1.6884809 4288085770
1.9243774 4.0084262 -1.7088237 4288085770
4.3210754 5.1951499 -1.6869149 4288085770
1.9831848 4.0956407 -1.7103961 4288085770
4.4117432 5.3164687 -1.6853025 4288085770
2.0220337 4.1727653 -1.7070436 4288085770
4.5144043 5.444839 -1.6846411 4288085770
2.0917969 4.2670197 -1.7085695 4288085770
4.6270447 5.5772395 -1.682946 4288085770
2.1585693 4.3592563 -1.7081087 4288085770
4.7436523 5.7146554 -1.6812255 4288085770
2.2223816 4.4504762 -1.7056568 4288085770
4.8782349 5.8641324 -1.6784265 4288085770
2.3131104 4.5578113 -1.7080951 4288085770
5.0137939 6.0136132 -1.6756258 4288085770
2.3699036 4.645988 -1.7006679 4288085770
5.1943054 6.1902766 -1.6776397 4288085770
2.4676514 4.7573457 -1.7020779 4288085770
5.3717651 6.3669143 -1.6756599 4288085770
2.5463867 4.8586078 -1.6965609 4288085770
5.5791931 6.5626693 -1.6755531 4288085770
2.6630554 4.9830317 -1.6968875 4288085770
5.7905884 6.7624326 -1.6734238 4288085770
2.7846985 5.1104722 -1.6971927 4288085770
6.0049744 6.9651961 -1.6692779 4288085770
2.9153442 5.2439456 -1.6974592 4288085770
6.2642212 7.1961389 -1.6679435 4288085770
3.0479736 5.3794188 -1.6947145 4288085770
6.5115356 7.4230161 -1.6616466 4288085770
3.173584 5.5108523 -1.688998 4288085770
6.8486328 7.705256 -1.6639767 4288085770
3.3491516 5.6744971 -1.6910684 4288085770
7.1567688 7.9733596 -1.6584134 4288085770
3.5117188 5.8300767 -1.6881931 4288085770
3.7022095 6.0037675 -1.6871979 4288085770
3.9076233 6.1885123 -1.6871343 4288085770
4.1180725 6.3752675 -1.6840529 4288085770
4.3604431 6.5851483 -1.6828265 4288085770
4.6267395 6.8101201 -1.6834996 4288085770
4.8900452 7.0350604 -1.6781776 4288085770
5.1872559 7.2811389 -1.6757133 4288085770
5.4954529 7.5362401 -1.6701951 4288085770
5.8704834 7.8366151 -1.6713843 4288085770
6.2594604 8.1460247 -1.6685133 4288085770
14.445892 -0.5361166 -1.7724583 4288085770
13.23111 -0.56555128 -1.7691267 4288085770
12.155334 -0.59047842 -1.7664859 4288085770
11.246521 -0.61477137 -1.7714899 4288085770
10.334717 -0.63011026 -1.7664702 4288085770
9.5748596 -0.644876 -1.7671268 4288085770
8.8280334 -0.65660095 -1.7657461 4288085770
8.1921692 -0.66691113 -1.7681258 4288085770
7.6373596 -0.67791653 -1.7733364 4288085770
13.976227 -1.1508551 -1.7914975 4288085770
7.0834961 -0.68393087 -1.7745283 4288085770
12.72522 -1.1244245 -1.7860556 4288085770
6.5606384 -0.68784094 -1.7736478 4288085770
11.618225 -1.098465 -1.7823102 4288085770
6.1077576 -0.69248056 -1.7776215 4288085770
10.688263 -1.0788469 -1.7832117 4288085770
5.6828918 -0.6950202 -1.780529 4288085770
9.8193359 -1.0570135 -1.7819769 4288085770
5.2680359 -0.69553137 -1.7814083 4288085770
9.0023193 -1.0320063 -1.7766216 4288085770
4.8791504 -0.69495106 -1.7812293 4288085770
8.3283997 -1.0154452 -1.7809918 4288085770
4.5432739 -0.69615841 -1.7869442 4288085770
7.6774597 -0.99582148 -1.7793033 4288085770
4.2073975 -0.69438267 -1.7876492 4288085770
7.1184998 -0.97884369 -1.7834289 4288085770
3.8955078 -0.69251299 -1.790303 4288085770
6.5755615 -0.96082592 -1.7825174 4288085770
3.6156311 -0.69051647 -1.7958882 4288085770
6.0966187 -0.94455671 -1.7864761 4288085770
3.3137207 -0.68463135 -1.7925074 4288085770
5.6386719 -0.92722702 -1.7863872 4288085770
3.0538635 -0.68056965 -1.7960439 4288085770
5.2057495 -0.90880537 -1.7862413 4288085770
2.8069458 -0.67546415 -1.7985492 4288085770
4.8098145 -0.89224672 -1.7870235 4288085770
2.5770874 -0.67129087 -1.8030219 4288085770
4.4508667 -0.87654448 -1.7907307 4288085770
2.3521729 -0.66610861 -1.8044803 4288085770
4.1139221 -0.86176491 -1.7933943 4288085770
2.1012573 -0.65504742 -1.7979746 4288085770
3.7960205 -0.84591627 -1.7960136 4288085770
1.9223938 -0.65167522 -1.8063419 4288085770
3.4990845 -0.82999516 -1.7975888 4288085770
1.7334595 -0.6453557 -1.8097208 4288085770
3.2141418 -0.81403399 -1.7981384 4288085770
1.5455627 -0.637043 -1.8100908 4288085770
2.9422302 -0.79802132 -1.79966 4288085770
1.3356628 -0.62483311 -1.8034942 4288085770
2.6903076 -0.78193665 -1.8011394 4288085770
1.1807556 -0.61838484 -1.8088007 4288085770
2.4623718 -0.76776361 -1.8035746 4288085770
1.0028381 -0.60804987 -1.8051429 4288085770
2.2424316 -0.75255919 -1.8059886 4288085770
0.86795044 -0.60251999 -1.8124101 4288085770
2.0274963 -0.73734474 -1.8063931 4288085770
0.71102905 -0.59210205 -1.8107076 4288085770
1.8145447 -0.72012472 -1.8057864 4288085770
0.55911255 -0.58066511 -1.8089905 4288085770
1.620636 -0.70483446 -1.8061454 4288085770
0.42822266 -0.57213449 -1.8122394 4288085770
1.4277039 -0.6885457 -1.8044994 4288085770
0.2862854 -0.56166315 -1.8105052 4288085770
1.2467346 -0.67221117 -1.803828 4288085770
0.15637207 -0.55014324 -1.8097417 4288085770
1.0858154 -0.65779305 -1.8061204 4288085770
0.021484375 -0.53864765 -1.8069892 4288085770
0.91790771 -0.6414113 -1.8054209 4288085770
0.77697754 -0.62791681 -1.8086741 4288085770
0.60800171 -0.60955954 -1.8019707 4288085770
0.4861145 -0.59698725 -1.8081865 4288085770
0.35418701 -0.58246756 -1.8094175 4288085770
0.21124268 -0.56500864 -1.8046622 4288085770
0.092285156 -0.5504427 -1.805865 4288085770
-0.025665283 -0.5358758 -1.8060663 4288085770
0.08682251 1.3405437 -1.7651498 4288085770
0.19787598 1.3549242 -1.7618513 4288085770
0.30892944 1.3692951 -1.7555521 4288085770
0.45404053 1.3898168 -1.7581563 4288085770
0.60305786 1.4093509 -1.7597547 4288085770
0.7401123 1.4258265 -1.7573903 4288085770
0.8711853 1.4392643 -1.7500494 4288085770
0.024749756 1.304285 -1.7684042 4288085770
1.0362244 1.4588523 -1.7506113 4288085770
0.14685059 1.3167152 -1.7680867 4288085770
1.2142639 1.4794927 -1.7531402 4288085770
0.26992798 1.3271427 -1.7657743 4288085770
1.3643494 1.4929981 -1.7457559 4288085770
0.40597534 1.3396258 -1.7664256 4288085770
1.5544128 1.5126748 -1.7462609 4288085770
0.53509521 1.35007 -1.763099 4288085770
1.74646 1.5323539 -1.7457612 4288085770
0.66815186 1.3595295 -1.7597671 4288085770
1.95755 1.5531125 -1.748215 4288085770
0.82324219 1.3720803 -1.760375 4288085770
2.1615906 1.5708289 -1.7456944 4288085770
0.97833252 1.382628 -1.7599893 4288085770
2.3766479 1.5885801 -1.7421489 4288085770
1.1354065 1.3931799 -1.758599 4288085770
2.6317139 1.6114993 -1.7454958 4288085770
1.2984924 1.4027481 -1.7561986 4288085770
2.8737488 1.6313534 -1.7438824 4288085770
1.4825745 1.4144068 -1.7577436 4288085770
3.1477966 1.6523318 -1.7451925 4288085770
1.6506958 1.4219828 -1.7523382 4288085770
3.415863 1.6722727 -1.7415192 4288085770
1.8507996 1.4326982 -1.75385 4288085770
3.691925 1.6892395 -1.7368381 4288085770
2.0328674 1.4393253 -1.7484159 4288085770
3.9909363 1.7082906 -1.7330978 4288085770
2.2569885 1.450129 -1.7508731 4288085770
4.3200073 1.7294593 -1.7322824 4288085770
2.480072 1.459919 -1.7503357 4288085770
4.6640625 1.7496753 -1.7294362 4288085770
2.696167 1.4656782 -1.7468235 4288085770
5.0551147 1.775075 -1.7304633 4288085770
2.9282227 1.4714894 -1.7432809 4288085770
5.440155 1.7944331 -1.7265289 4288085770
3.1783752 1.4783683 -1.7406933 4288085770
5.8961792 1.821064 -1.72841 4288085770
3.4634399 1.4873891 -1.7430196 4288085770
6.3462219 1.8426523 -1.7243211 4288085770
3.7515564 1.4944105 -1.7423456 4288085770
6.8362427 1.8653879 -1.721138 4288085770
4.0586548 1.500504 -1.7426322 4288085770
7.3932495 1.8923731 -1.7207897 4288085770
4.3547668 1.5015359 -1.7369604 4288085770
8.0103149 1.9215817 -1.7232976 4288085770
4.6938782 1.5057359 -1.7351806 4288085770
8.6353455 1.9457951 -1.7188044 4288085770
5.0429688 1.5079675 -1.7323842 4288085770
9.3633728 1.9763966 -1.7200563 4288085770
5.4341125 1.5113583 -1.7324898 4288085770
10.171387 2.0092826 -1.7211204 4288085770
5.82724 1.5117469 -1.7296002 4288085770
11.02243 2.0393162 -1.7200959 4288085770
6.2543335 1.5122647 -1.7286334 4288085770
11.932434 2.0675454 -1.7149448 4288085770
6.7324524 1.5129681 -1.7295511 4288085770
12.989441 2.1033206 -1.715435 4288085770
7.2156067 1.5096784 -1.7264702 4288085770
14.233429 2.1457748 -1.7194808 4288085770
7.7607422 1.5066218 -1.7272482 4288085770
8.3569031 1.5037518 -1.7289102 4288085770
8.9700623 1.4959307 -1.7275505 4288085770
9.6391907 1.4853048 -1.7250731 4288085770
10.409363 1.4760613 -1.7283626 4288085770
11.167572 1.4587431 -1.7227063 4288085770
12.087769 1.4440403 -1.7276745 4288085770
13.077972 1.4245763 -1.7295001 4288085770
14.190186 1.4015574 -1.7340615 4288085770
6.3139648 -7.4602046 -0.71745825 4293729569
6.2371826 -7.4492784 -0.77859354 4293729569
6.1287231 -7.4472513 -0.90582728 4293729569
6.1461792 -7.4909692 -0.97393012 4293729569
2.9200134 -5.3010969 -0.75697422 4293729569
2.919342 -5.3189421 -0.80603337 4293729569
5.9667664 -7.4419994 -1.1611648 4293729569
5.9330444 -7.4379082 -1.2262237 4293729569
2.5652161 -5.113852 -0.91415 4293729569
2.5063171 -5.0819321 -0.95417571 4293729569
5.9632568 -7.4374127 -0.75513482 4293729569
2.5135803 -5.0927525 -1.0021927 4293729569
5.9635315 -7.439198 -0.82113552 4293729569
2.5519409 -5.1234498 -1.0542049 4293729569
2.538147 -5.1153545 -1.0992067 4293729569
2.4651489 -5.064496 -1.1362011 4293729569
2.894165 -5.3062878 -0.75001955 4293729569
2.3390198 -4.9738579 -1.1631842 4293729569
2.9254456 -5.3200178 -0.79999065 4293729569
2.51474 -5.0910001 -1.2361701 4293729569
6.0389709 -7.451848 -1.1559794 4293729569
2.2171021 -4.8780637 -1.2341373 4293729569
6.0602112 -7.4485574 -1.2229145 4293729569
2.1852112 -4.846056 -1.2721004 4293729569
6.0895081 -7.4482412 -1.2888408 4293729569
2.2194824 -4.8587813 -1.3200614 4293729569
6.1167603 -7.4429312 -1.3547544 4293729569
2.1684875 -4.8098555 -1.3540118 4293729569
6.1319885 -7.4256687 -1.419656 4293729569
2.1997375 -4.8155947 -1.4009564 4293729569
6.1231079 -7.3895073 -1.4795496 4293729569
3.0794373 -5.4017978 -1.6098943 4293729569
6.2415466 -7.4368429 -1.5554299 4293729569
3.0324402 -5.3478513 -1.645818 4293729569
6.2938538 -7.4344392 -1.6232955 4293729569
2.9333191 -5.2551236 -1.6707315 4293729569
6.3009644 -7.3992176 -1.684155 4293729569
2.867218 -5.1842675 -1.6996427 4293729569
3.7712402 -5.6762066 -1.3672011 4293729569
2.7199402 -5.0557551 -1.7115476 4293729569
3.7442932 -5.6231747 -1.4070807 4293729569
2.5505371 -4.9133463 -1.7154567 4293729569
3.7052612 -5.559196 -1.4439518 4293729569
2.4112854 -4.7888207 -1.7223566 4293729569
3.9399719 -5.6731052 -1.5247881 4293729569
2.2428589 -4.6444287 -1.7202578 4293729569
3.7415466 -5.5017824 -1.5336671 4293729569
2.1175842 -4.5278544 -1.7271523 4293729569
3.4367371 -5.2619076 -1.5205617 4293729569
1.9983215 -4.415266 -1.7320468 4293729569
3.6383362 -5.3459601 -1.5933738 4293729569
1.8920898 -4.310627 -1.7379375 4293729569
3.6022949 -5.2769952 -1.6232212 4293729569
1.7868347 -4.2059932 -1.741827 4293729569
3.6053467 -5.2308717 -1.6590552 4293729569
1.6785889 -4.0993748 -1.7437158 4293729569
3.5211487 -5.1291156 -1.6769042 4293729569
1.6896973 -4.067246 -1.7725797 4293729569
3.0439148 -4.7850027 -1.6178489 4293729569
1.7458801 -4.0619178 -1.8134289 4288085770
2.9837646 -4.6981616 -1.6356928 4293729569
1.8231506 -4.0685024 -1.858269 4288085770
3.0158997 -4.667943 -1.669513 4293729569
1.8331604 -4.0303845 -1.8851149 4288085770
3.0409241 -4.6307554 -1.7013264 4293729569
1.7409668 -3.9297204 -1.8839874 4288085770
2.9888 -4.5468969 -1.716162 4293729569
1.6497192 -3.8300595 -1.8808613 4288085770
2.8794861 -4.4282827 -1.718013 4293729569
1.5554504 -3.7274156 -1.8757322 4288085770
2.813324 -4.3354936 -1.726851 4293729569
1.466217 -3.6287575 -1.8696046 4288085770
2.7481384 -4.2447081 -1.7336938 4293729569
1.3940125 -3.5410299 -1.8664749 4288085770
2.6698914 -4.1449809 -1.736537 4293729569
1.3318787 -3.4582591 -1.8653383 4288085770
2.691925 -4.1018343 -1.7593372 4293729569
1.2857361 -3.3854229 -1.867198 4288085770
2.801178 -4.1053176 -1.8010917 4293729569
1.2335815 -3.3086174 -1.8660586 4288085770
2.9244385 -4.1137447 -1.8448305 4288085770
1.1844177 -3.233804 -1.8639185 4288085770
2.9885254 -4.0874271 -1.8745894 4288085770
1.1242676 -3.1530437 -1.8577847 4288085770
2.9433594 -4.0035839 -1.8774087 4288085770
1.0891724 -3.086175 -1.8576393 4288085770
2.8821716 -3.9108105 -1.876236 4288085770
1.0570374 -3.0212965 -1.8574936 4288085770
2.8119202 -3.8140829 -1.8710706 4288085770
1.0309448 -2.9593954 -1.8573439 4288085770
2.7076416 -3.7015042 -1.8569314 4288085770
1.0058289 -2.8984914 -1.8571956 4288085770
2.680481 -3.6275978 -1.8597429 4288085770
0.98275757 -2.8375871 -1.8550425 4288085770
2.6313477 -3.5447955 -1.8545759 4288085770
0.96466064 -2.7806582 -1.8548911 4288085770
2.610199 -3.4738717 -1.8563836 4288085770
0.94961548 -2.725719 -1.8547392 4288085770
2.559967 -3.3900802 -1.849216 4288085770
0.93551636 -2.6697838 -1.852582 4288085770
2.5268555 -3.3152177 -1.8450382 4288085770
0.92245483 -2.6138401 -1.8514218 4288085770
2.5197754 -3.2522476 -1.8458402 4288085770
0.92037964 -2.5638547 -1.8512568 4288085770
2.4976196 -3.1823437 -1.8426535 4288085770
0.91732788 -2.5138764 -1.8500941 4288085770
2.4985352 -3.1223483 -1.8424468 4288085770
0.91229248 -2.4619079 -1.8479288 4288085770
2.5004272 -3.0633466 -1.8432415 4288085770
0.92123413 -2.4158804 -1.8487515 4288085770
2.5093689 -3.0073242 -1.8430293 4288085770
0.91317749 -2.363934 -1.8435938 4288085770
2.5203247 -2.9522898 -1.8438153 4288085770
0.93817139 -2.3248403 -1.8474019 4288085770
2.5282288 -2.895278 -1.8416028 4288085770
0.94311523 -2.2778404 -1.8442307 4288085770
2.5391541 -2.8402536 -1.8393893 4288085770
0.95108032 -2.2318311 -1.8410554 4288085770
2.5640869 -2.7891748 -1.8391564 4288085770
0.97506714 -2.1917508 -1.8418627 4288085770
2.585022 -2.7371125 -1.8379297 4288085770
0.99703979 -2.150682 -1.8416712 4288085770
2.6119995 -2.6870327 -1.8356953 4288085770
1.0200195 -2.1096129 -1.8404777 4288085770
2.6499634 -2.6409051 -1.8364487 4288085770
1.0549927 -2.0734847 -1.8422701 4288085770
2.6818848 -2.5918055 -1.833204 4288085770
1.0870056 -2.0353808 -1.842066 4288085770
2.7368774 -2.5516114 -1.8359382 4288085770
1.1229858 -1.9992609 -1.8418589 4288085770
2.7888489 -2.5094368 -1.8356729 4288085770
1.1499634 -1.9591844 -1.83866 4288085770
2.8277893 -2.462322 -1.8314216 4288085770
1.1869507 -1.9210658 -1.8374438 4288085770
2.8907776 -2.4231012 -1.8331399 4288085770
1.2339783 -1.8879049 -1.8382213 4288085770
2.9417114 -2.3789446 -1.8288705 4288085770
1.2909546 -1.8567054 -1.8399816 4288085770
3.0197449 -2.3426721 -1.830564 4288085770
1.3519897 -1.8274894 -1.8427393 4288085770
3.080719 -2.3014767 -1.8272803 4288085770
1.40802 -1.7942967 -1.8434954 4288085770
3.1587219 -2.2642107 -1.8269703 4288085770
1.4490051 -1.7561769 -1.8382695 4288085770
3.2537231 -2.2308788 -1.8286333 4288085770
1.5160217 -1.7259436 -1.8400099 4288085770
3.3537598 -2.1975291 -1.8302848 4288085770
1.5710144 -1.6917682 -1.8367648 4288085770
3.4567566 -2.1651745 -1.8309324 4288085770
1.6450195 -1.6615131 -1.8374882 4288085770
3.5537415 -2.1298497 -1.8285842 4288085770
1.6990356 -1.6273456 -1.8332453 4288085770
3.6637268 -2.0964711 -1.8282115 4288085770
1.7840576 -1.5980475 -1.8349459 4288085770
3.7757568 -2.0630906 -1.8268347 4288085770
1.8590698 -1.5677991 -1.8326669 4288085770
3.8757019 -2.0257657 -1.8214722 4288085770
1.9330444 -1.5355587 -1.8293839 4288085770
4.0397949 -2.0021789 -1.8270056 4288085770
2.0110779 -1.5043025 -1.8260939 4288085770
4.1828003 -1.9736829 -1.8275716 4288085770
2.1080933 -1.4769678 -1.8267727 4288085770
4.3388367 -1.9461412 -1.8281102 4288085770
2.209137 -1.4486203 -1.8264389 4288085770
4.4908447 -1.9156213 -1.8266482 4288085770
2.3301697 -1.4251914 -1.8300745 4288085770
4.645874 -1.8850932 -1.8241792 4288085770
2.4171753 -1.3919115 -1.8247571 4288085770
4.7928467 -1.8516035 -1.8187184 4288085770
2.5032043 -1.359642 -1.8174446 4288085770
4.9888916 -1.8259227 -1.8191693 4288085770
2.6562195 -1.3380933 -1.8230114 4288085770
5.2008972 -1.802186 -1.8195887 4288085770
2.7602539 -1.3067536 -1.8176599 4288085770
5.3879395 -1.7705534 -1.8150396 4288085770
2.87323 -1.2763834 -1.8122902 4288085770
5.5979614 -1.7418368 -1.8114464 4288085770
3.0212708 -1.2508698 -1.8128548 4288085770
5.8169556 -1.7130933 -1.8068321 4288085770
3.1753235 -1.2253385 -1.8124049 4288085770
6.0509949 -1.6832952 -1.8021786 4288085770
3.3183289 -1.1958561 -1.8089681 4288085770
6.3099976 -1.6574061 -1.7994792 4288085770
3.4883728 -1.1702704 -1.80848 4288085770
6.5940552 -1.6324239 -1.7977235 4288085770
3.662384 -1.143672 -1.8069792 4288085770
6.9251099 -1.6122677 -1.7988739 4288085770
3.832428 -1.1150951 -1.8034809 4288085770
7.2391052 -1.5861917 -1.7940438 4288085770
4.0324402 -1.090404 -1.8029251 4288085770
7.5681458 -1.5600629 -1.7891777 4288085770
4.2344666 -1.0627131 -1.8003545 4288085770
7.9702148 -1.5406599 -1.7901621 4288085770
4.4484863 -1.0359755 -1.7987585 4288085770
8.4162903 -1.5221 -1.7920456 4288085770
4.6865234 -1.0101557 -1.7971091 4288085770
8.8583069 -1.4995713 -1.7889252 4288085770
4.9225769 -0.98234797 -1.793457 4288085770
9.3643799 -1.4798083 -1.7886624 4288085770
5.1976013 -0.95639229 -1.7937198 4288085770
9.9194336 -1.4628701 -1.7892935 4288085770
5.4776306 -0.92942429 -1.7919664 4288085770
10.576538 -1.4505563 -1.7956991 4288085770
5.7756348 -0.90139866 -1.7891674 4288085770
11.253632 -1.4341927 -1.7960432 4288085770
6.0846863 -0.87233591 -1.7853386 4288085770
12.001678 -1.4185748 -1.7982223 4288085770
6.4336548 -0.84413338 -1.7824183 4288085770
12.814758 -1.4007401 -1.79724 4288085770
6.8287048 -0.81675386 -1.783392 4288085770
13.780884 -1.3893504 -1.8019178 4288085770
7.2146912 -0.78442812 -1.7783697 4288085770
14.817963 -1.3747253 -1.8034167 4288085770
7.6577148 -0.75489187 -1.7762222 4288085770
8.1307373 -0.72325659 -1.7729964 4288085770
8.6717834 -0.6933713 -1.7726157 4288085770
9.2507324 -0.66035891 -1.7711349 4288085770
9.8867493 -0.62614727 -1.7695146 4288085770
10.60379 -0.59164572 -1.7697015 4288085770
11.434814 -0.55673695 -1.7726178 4288085770
12.301788 -0.51772022 -1.7704341 4288085770
13.296753 -0.47525358 -1.7689362 4288085770
14.51178 -0.43298817 -1.775918 4288085770
14.568024 2.0684319 -0.63682199 4293729569
14.499817 2.1913333 -0.68057752 4293729569
13.578125 2.1841316 -1.574883 4293729569
14.297638 2.3017573 -0.71870542 4293729569
13.499908 2.302979 -1.6126771 4293729569
13.903534 2.3874912 -0.74638915 4293729569
13.98764 2.4849133 -1.6968639 4288085770
13.751373 2.4980731 -0.78039312 4293729569
13.639496 2.5747476 -1.7074208 4288085770
13.545227 2.5994592 -0.81056118 4293729569
13.184357 2.6421742 -1.7053168 4288085770
13.339111 2.6968303 -0.83674264 4293729569
12.72226 2.7045665 -1.6992471 4288085770
13.181915 2.8013721 -0.86377978 4293729569
12.382141 2.7783999 -1.7008381 4288085770
13.079712 2.9121079 -0.89266038 4293729569
12.006042 2.8460937 -1.6975391 4288085770
13.011536 3.0279565 -0.9204402 4293729569
11.713898 2.9200912 -1.6990113 4288085770
12.965302 3.1478791 -0.94815207 4293729569
11.394775 2.9869828 -1.6965744 4288085770
12.956085 3.2719264 -0.97475886 4293729569
11.150665 3.0611424 -1.6979287 4288085770
10.891541 3.1312442 -1.6963332 4288085770
12.937622 3.5250115 -1.0259562 4293729569
10.698395 3.2105851 -1.6995442 4288085770
13.164246 3.6938901 -1.0608308 4293729569
10.491272 3.2838626 -1.6978099 4288085770
13.204956 3.831099 -1.0852706 4293729569
10.274109 3.3541017 -1.695111 4288085770
10.135986 3.4376311 -1.6981723 4288085770
9.9778137 3.51508 -1.6973042 4288085770
9.8426514 3.5966125 -1.698365 4288085770
9.7205505 3.6771836 -1.6973968 4288085770
9.6233826 3.7648492 -1.6993439 4288085770
9.5391846 3.8535542 -1.7002554 4288085770
9.4420166 3.9382081 -1.6982121 4288085770
9.356842 4.0259032 -1.6971297 4288085770
9.3236389 4.1267896 -1.6998744 4288085770
9.2264709 4.2094293 -1.6938381 4288085770
9.2012329 4.311336 -1.6945603 4288085770
9.1650085 4.4111953 -1.6923161 4288085770
9.1557922 4.5171504 -1.690985 4288085770
9.1485596 4.6241126 -1.6896458 4288085770
9.1722717 4.7421851 -1.6901929 4288085770
9.1809998 4.854198 -1.6877975 4288085770
9.2117004 4.9752851 -1.6853173 4288085770
9.273407 5.1054864 -1.68573 4288085770
9.3330688 5.2376761 -1.6841407 4288085770
9.4237061 5.3809772 -1.6844385 4288085770
9.4993591 5.5212121 -1.680783 4288085770
9.59198 5.6675086 -1.678066 4288085770
9.7265625 5.8319564 -1.6771843 4288085770
9.8641052 5.9994121 -1.676285 4288085770
10.048584 6.1880326 -1.676199 4288085770
10.231079 6.3776402 -1.6751146 4288085770
10.440491 6.5813394 -1.6739168 4288085770
10.670898 6.7981105 -1.6726234 4288085770
10.913269 7.0209165 -1.6692796 4288085770
11.169586 7.254765 -1.6648655 4288085770
11.465881 7.5087552 -1.6622841 4288085770
11.85199 7.806066 -1.6643364 4288085770
12.210114 8.0962639 -1.6604815 4288085770
14.318237 -0.095434189 -1.7605226 4288085770
12.953369 -0.11301088 -1.7601173 4288085770
11.777557 -0.12794924 -1.7612135 4288085770
10.718689 -0.13949966 -1.7609956 4288085770
9.7458496 -0.14577866 -1.7555382 4288085770
8.9240112 -0.1525321 -1.7566912 4288085770
8.197113 -0.15796185 -1.7595935 4288085770
7.5352783 -0.16118002 -1.7603204 4288085770
13.554016 -0.3480711 -1.7622526 4288085770
6.9333801 -0.16319609 -1.761888 4288085770
12.246063 -0.33346128 -1.7596014 4288085770
6.3764954 -0.16406107 -1.7633355 4288085770
11.110138 -0.32127047 -1.7585113 4288085770
5.8786316 -0.16372633 -1.7656257 4288085770
10.094208 -0.30768204 -1.7561057 4288085770
5.4117432 -0.16229391 -1.7658327 4288085770
9.2132568 -0.29463291 -1.7563515 4288085770
4.9888916 -0.16070127 -1.7699246 4288085770
8.4403381 -0.28321457 -1.7593222 4288085770
4.6190186 -0.15992641 -1.775882 4288085770
7.7324219 -0.27058935 -1.7591197 4288085770
4.2391357 -0.15620327 -1.775856 4288085770
7.1175232 -0.25964069 -1.7626817 4288085770
3.9092407 -0.1523037 -1.7786994 4288085770
6.5496216 -0.24853802 -1.7651212 4288085770
3.6143494 -0.1492753 -1.7854555 4288085770
6.0316772 -0.2372694 -1.7674308 4288085770
3.3154602 -0.14427567 -1.7872157 4288085770
5.5407715 -0.22492266 -1.7656665 4288085770
3.022583 -0.13826561 -1.7859566 4288085770
5.1108704 -0.21335268 -1.7697461 4288085770
2.7696838 -0.13310623 -1.789597 4288085770
4.7139282 -0.2026763 -1.7727435 4288085770
2.5187988 -0.12694836 -1.7902291 4288085770
4.3580627 -0.19185781 -1.7776334 4288085770
2.276886 -0.11976814 -1.7888346 4288085770
4.0301208 -0.18094444 -1.7824507 4288085770
2.0620117 -0.11348581 -1.791373 4288085770
3.7012024 -0.16904974 -1.7822673 4288085770
1.8551025 -0.10717821 -1.7928903 4288085770
3.3833008 -0.15712261 -1.7810557 4288085770
1.6481934 -0.098880768 -1.7914019 4288085770
3.1013794 -0.1450696 -1.7817502 4288085770
1.471283 -0.092468262 -1.7948408 4288085770
2.8234558 -0.13300943 -1.7804346 4288085770
1.2953796 -0.08405447 -1.7972713 4288085770
2.5946045 -0.12275934 -1.7869966 4288085770
1.1154785 -0.075670719 -1.7947125 4288085770
2.3556519 -0.11056471 -1.7865794 4288085770
0.96658325 -0.068159103 -1.7990756 4288085770
2.1217346 -0.098361492 -1.7841489 4288085770
0.79867554 -0.058736324 -1.7964826 4288085770
1.9308472 -0.087984085 -1.790612 4288085770
0.64575195 -0.050255775 -1.7958534 4288085770
1.7169189 -0.075712681 -1.7881296 4288085770
0.50686646 -0.04172039 -1.7971876 4288085770
1.5390015 -0.064301968 -1.7915561 4288085770
0.38796997 -0.033108234 -1.8024695 4288085770
1.3410645 -0.050985336 -1.7870293 4288085770
0.2510376 -0.023580074 -1.7997956 4288085770
1.1901855 -0.040476799 -1.7923882 4288085770
0.13516235 -0.014962673 -1.8030698 4288085770
1.0342712 -0.029000282 -1.7937577 4288085770
0.0062561035 -0.0044126511 -1.799372 4288085770
0.8793335 -0.016527176 -1.7931216 4288085770
0.72341919 -0.0040612221 -1.7904875 4288085770
0.57348633 0.0074224472 -1.7878416 4288085770
0.45257568 0.019022942 -1.7911198 4288085770
0.33267212 0.03062439 -1.793395 4288085770
0.2147522 0.043228149 -1.794662 4288085770
0.093841553 0.054813385 -1.7929406 4288085770
0.041564941 2.015676 -1.7434998 4288085770
0.14761353 2.0390081 -1.7401338 4288085770
0.27462769 2.0694294 -1.7426875 4288085770
0.40869141 2.0988722 -1.7452252 4288085770
0.54370117 2.1293149 -1.7467563 4288085770
0.66973877 2.1537127 -1.7433317 4288085770
0.8117981 2.1831722 -1.7428467 4288085770
0.95080566 2.2086158 -1.7403824 4288085770
0.056732178 1.9516869 -1.7476468 4288085770
1.105835 2.2391186 -1.7398579 4288085770
0.18380737 1.9741063 -1.7502251 4288085770
1.2698669 2.2706561 -1.7413056 4288085770
0.30285645 1.9934869 -1.7488356 4288085770
1.4298706 2.2981677 -1.7387767 4288085770
0.42092896 2.0098619 -1.7464578 4288085770
1.5868835 2.3246646 -1.7342594 4288085770
0.54595947 2.0282583 -1.7440541 4288085770
1.7689209 2.3562551 -1.7336562 4288085770
0.68405151 2.0487118 -1.7456081 4288085770
1.9539795 2.3858509 -1.7320514 4288085770
0.82611084 2.0691752 -1.7461505 4288085770
2.1739807 2.424583 -1.736321 4288085770
0.96313477 2.0856109 -1.7437203 4288085770
2.3580017 2.4501634 -1.7307312 4288085770
1.117218 2.106113 -1.7442296 4288085770
2.5750122 2.4838691 -1.7300241 4288085770
1.2662659 2.1225886 -1.741765 4288085770
2.7960205 2.5155835 -1.728313 4288085770
1.425354 2.1411033 -1.7412665 4288085770
3.0340271 2.5503573 -1.7275443 4288085770
1.596405 2.1606612 -1.7417312 4288085770
3.2650452 2.5810981 -1.7238078 4288085770
1.7655029 2.178205 -1.7402077 4288085770
3.5280762 2.6159549 -1.7229695 4288085770
1.95755 2.1998382 -1.7426076 4288085770
3.8040771 2.6528554 -1.7230887 4288085770
2.1495972 2.2184644 -1.7430172 4288085770
4.0811157 2.6867471 -1.7192142 4288085770
2.3136902 2.2279725 -1.735532 4288085770
4.3950806 2.7277789 -1.7212152 4288085770
2.5317688 2.2496967 -1.7398593 4288085770
4.6980896 2.760756 -1.7172713 4288085770
2.7198486 2.2612867 -1.7333012 4288085770
5.0281067 2.7968202 -1.7132425 4288085770
2.9539185 2.2810578 -1.7355897 4288085770
5.3710938 2.8339314 -1.7101746 4288085770
3.1599426 2.2917128 -1.7309844 4288085770
5.7611084 2.8772092 -1.7109568 4288085770
3.3970337 2.3074832 -1.7302771 4288085770
6.14505 2.9154506 -1.7067711 4288085770
3.6481323 2.3232989 -1.7295301 4288085770
6.5610657 2.9557996 -1.70349 4288085770
3.8832092 2.3330483 -1.7248468 4288085770
7.0020447 2.9972348 -1.7011359 4288085770
4.1592712 2.3489499 -1.7250304 4288085770
7.4869995 3.0448174 -1.7006402 4288085770
4.4293518 2.3608241 -1.7232425 4288085770
8.0429688 3.1006532 -1.7049215 4288085770
4.7134399 2.3717442 -1.7214189 4288085770
8.55896 3.1423259 -1.7003572 4288085770
5.042511 2.3888283 -1.7244511 4288085770
9.1828918 3.2003779 -1.7034423 4288085770
5.3676147 2.4008884 -1.7245095 4288085770
9.8888245 3.2677121 -1.7102709 4288085770
5.6947021 2.4099498 -1.7225716 4288085770
10.525787 3.3117785 -1.7043622 4288085770
6.0278015 2.4160228 -1.7186263 4288085770
11.279755 3.3702464 -1.7040842 4288085770
6.3928833 2.4232116 -1.7175882 4288085770
12.092682 3.4329114 -1.704628 4288085770
6.7919922 2.4315133 -1.7174518 4288085770
13.026581 3.5049844 -1.7088065 4288085770
7.1871338 2.4357972 -1.7153389 4288085770
13.955536 3.5660176 -1.7060323 4288085770
7.6402283 2.4442859 -1.7180512 4288085770
12.730133 3.2543836 -1.5193965 4293729569
8.096344 2.4477782 -1.7187712 4288085770
12.755341 3.1582026 -1.4406199 4293729569
8.5994568 2.4534278 -1.7213528 4288085770
12.740601 3.0558944 -1.3619726 4293729569
9.1026001 2.4520688 -1.7199559 4288085770
12.709869 2.9485307 -1.2833862 4293729569
9.6237488 2.4477668 -1.7185178 4288085770
12.782074 2.8555274 -1.2114689 4293729569
10.185883 2.4426017 -1.717968 4288085770
12.905304 2.769711 -1.1453876 4293729569
10.804016 2.4376283 -1.7202618 4288085770
12.793579 2.6500764 -1.065064 4293729569
11.422211 2.4256444 -1.7185762 4288085770
12.903839 2.5602231 -1.0010309 4293729569
12.118378 2.4149294 -1.7216699 4288085770
13.049072 2.4704852 -0.93690085 4293729569
12.85257 2.399333 -1.7226722 4288085770
13.279327 2.3890409 -0.87750793 4293729569
13.406769 2.3550835 -1.7042644 4288085770
13.643494 2.3180513 -0.82271075 4293729569
13.450043 2.2460041 -1.6384771 4293729569
14.185699 2.2606635 -0.77337527 4293729569
14.376312 2.2260613 -1.6469572 4293729569
14.370972 2.1610579 -0.71016335 4293729569
14.460266 2.0491276 -0.64325666 4293729569
10.073975 -5.0975547 -0.45530772 4293729569
9.9934692 -5.1797256 -0.48777986 4293729569
7.4759521 -4.9005241 -0.0039434433 4293729569
7.4428406 -4.8995805 -0.65503359 4293729569
7.4083557 -4.9616356 -0.041315556 4293729569
7.36026 -4.9547477 -0.69042993 4293729569
7.3518066 -5.0267048 -0.080669165 4293729569
7.3527832 -5.0406513 -0.73170996 4293729569
6.1130066 -4.9670458 -0.31793547 4293729569
6.1709595 -5.0139632 -0.91991782 4293729569
6.0283508 -5.0031943 -0.36127973 4293729569
6.0412292 -5.0302792 -0.95632792 4293729569
6.0258789 -5.0750685 -0.40650225 4293729569
6.008667 -5.0902553 -1.0005987 4293729569
6.049408 -5.1598525 -0.45369124 4293729569
5.3058472 -4.8215981 -0.98574495 4293729569
4.5338745 -4.5082006 -0.95994854 4293729569
4.5894775 -4.5988703 -1.0100663 4293729569
10.51593 -7.6401691 -0.82772708 4293729569
4.449646 -4.5912385 -1.0404322 4293729569
9.9986267 -7.4737234 -0.87166333 4293729569
4.4942017 -4.6769376 -1.0925653 4293729569
4.3733826 -4.6742344 -1.1258929 4293729569
9.7364197 -7.5191941 -0.99952388 4293729569
4.9580688 -5.0429716 -1.2433751 4293729569
9.6358337 -7.5553236 -1.0659099 4293729569
4.9745789 -5.1137528 -1.2985411 4293729569
4.6696472 -4.9724145 -0.76995778 4293729569
4.8457642 -5.1050692 -1.3338716 4293729569
4.728241 -5.0590587 -0.82505298 4293729569
5.2731628 -5.3983331 -1.446563 4293729569
4.9511414 -5.2371221 -0.89496636 4293729569
6.9302979 -6.375041 -1.7368872 4293729569
9.0059814 -7.5386219 -1.3165979 4293729569
6.3294983 -6.1100674 -1.7167599 4293729569
8.8592834 -7.531909 -1.3799818 4293729569
5.8599854 -5.9096189 -1.7114618 4293729569
8.7285461 -7.5321422 -1.4443424 4293729569
5.4395142 -5.7300048 -1.7080894 4293729569
8.5928345 -7.5243936 -1.5076923 4293729569
5.0631104 -5.5702357 -1.7086546 4293729569
8.473114 -7.5225897 -1.572015 4293729569
4.7337646 -5.4313006 -1.7131512 4293729569
8.3363647 -7.5068483 -1.6343436 4293729569
4.3994446 -5.2853947 -1.7136407 4293729569
3.3396301 -4.649806 -1.0896707 4293729569
3.579834 -4.8473549 -1.6216037 4293729569
3.2718506 -4.6459036 -1.1308444 4293729569
3.2364197 -4.6835117 -1.6110649 4293729569
3.17099 -4.6211267 -1.167048 4293729569
3.1586304 -4.6746559 -1.6482522 4293729569
3.2946472 -4.7275219 -1.2340193 4293729569
3.0627747 -4.6538711 -1.6814542 4293729569
3.3511658 -4.7941575 -1.2940583 4293729569
2.9949951 -4.6469769 -1.7206194 4293729569
3.1460571 -4.700767 -1.3143456 4293729569
2.7878113 -4.5526314 -1.72891 4293729569
3.084259 -4.6918468 -1.3554876 4293729569
2.5605774 -4.4423728 -1.7302089 4293729569
3.13974 -4.7514825 -1.416507 4293729569
2.3413696 -4.3340888 -1.7314913 4293729569
3.3045349 -4.8777051 -1.4964221 4293729569
2.1812744 -4.2595801 -1.7427106 4293729569
3.0502319 -4.7445111 -1.5047269 4293729569
1.9951172 -4.1671791 -1.746949 4293729569
2.9543457 -4.7057266 -1.537873 4293729569
1.8159485 -4.0747547 -1.7511673 4293729569
2.943634 -4.7186122 -1.5879364 4293729569
