# .PCD v0.7 - Point Cloud Data file format
VERSION 0.7
FIELDS x y z rgb
SIZE 4 4 4 4
TYPE F F F U
COUNT 1 1 1 1
WIDTH 1120
HEIGHT 1
VIEWPOINT 0 0 0 1 0 0 0
POINTS 1120
DATA ascii
1.5430374 -2.1895275 -1.8377371 4288085770
1.3902283 -2.1511641 -1.8382128 4288085770
1.2424202 -2.1148186 -1.8377099 4288085770
1.1086082 -2.0804954 -1.8392471 4288085770
0.9797821 -2.0481734 -1.8428055 4288085770
0.84497833 -2.0108633 -1.8413246 4288085770
0.71517563 -1.9745612 -1.8408597 4288085770
0.58138657 -1.9342694 -1.8363653 4288085770
0.65760422 0.24091554 -1.8121724 4288085770
0.77774048 0.25161457 -1.810374 4288085770
0.90187836 0.26330948 -1.8095788 4288085770
1.0300217 0.27497911 -1.8057923 4288085770
1.1811523 0.2856257 -1.8080606 4288085770
1.3292847 0.29726887 -1.8083174 4288085770
1.4784279 0.30889344 -1.8055762 4288085770
1.6425591 0.31949878 -1.8058728 4288085770
0.67861938 0.33687377 -1.8197172 4288085770
1.8057022 0.33008003 -1.8011674 4288085770
0.78477097 0.34657454 -1.8118939 4288085770
1.9888382 0.34163976 -1.8014996 4288085770
0.93088913 0.35523295 -1.8141621 4288085770
2.1949615 0.35216069 -1.8048868 4288085770
1.0570297 0.36389685 -1.8083875 4288085770
2.4030991 0.36366081 -1.8052732 4288085770
1.2101555 0.37252831 -1.8086708 4288085770
2.6222343 0.37413025 -1.8046885 4288085770
1.3732872 0.38114095 -1.8099759 4288085770
2.8493729 0.38558006 -1.804116 4288085770
1.5364151 0.38973808 -1.8082808 4288085770
3.0975075 0.39698005 -1.8035889 4288085770
1.709549 0.39831638 -1.8076077 4288085770
3.37463 0.40733218 -1.8071294 4288085770
1.8926773 0.40587139 -1.8069613 4288085770
3.6497688 0.41766286 -1.805666 4288085770
2.1137924 0.41437244 -1.8133914 4288085770
3.946907 0.42893577 -1.8032448 4288085770
2.3099251 0.42188001 -1.8097733 4288085770
4.2720413 0.43916321 -1.8048892 4288085770
2.5210495 0.42936301 -1.8081876 4288085770
4.6061821 0.45034313 -1.8015482 4288085770
2.7661743 0.43678641 -1.810675 4288085770
5.0043068 0.46141267 -1.8063449 4288085770
3.0113029 0.44419336 -1.8101628 4288085770
5.402441 0.47145104 -1.8051473 4288085770
3.2604332 0.45057535 -1.8066646 4288085770
5.8515759 0.48237824 -1.8060546 4288085770
3.5505486 0.45688629 -1.8082547 4288085770
6.3327103 0.49322438 -1.8060312 4288085770
3.8476791 0.46316457 -1.8068602 4288085770
6.8668442 0.50394964 -1.8071221 4288085770
4.1767998 0.46938276 -1.808535 4288085770
7.4679756 0.51452088 -1.8093578 4288085770
4.5239182 0.47454238 -1.8072537 4288085770
8.1980839 0.52683806 -1.8218614 4288085770
4.8920403 0.47965717 -1.8070179 4288085770
9.0431881 0.53990316 -1.8386081 4288085770
5.308157 0.48366857 -1.8088912 4288085770
9.9063091 0.55188298 -1.8473996 4288085770
5.7402744 0.48763132 -1.8087993 4288085770
10.862434 0.56363106 -1.8543919 4288085770
6.2143917 0.49149418 -1.8087981 4288085770
11.817583 0.573313 -1.8483936 4288085770
6.7435036 0.49423695 -1.8109211 4288085770
12.90473 0.58167624 -1.8416857 4288085770
7.3446083 0.4958241 -1.8162049 4288085770
14.191872 0.59057379 -1.8374047 4288085770
8.0357056 0.49821305 -1.8246783 4288085770
8.8417892 0.50036049 -1.8393999 4288085770
9.6978779 0.50036287 -1.8492407 4288085770
10.66696 0.49810696 -1.8613361 4288085770
11.570078 0.49189186 -1.8513106 4288085770
12.643179 0.48430967 -1.8486582 4288085770
13.887272 0.47433138 -1.848386 4288085770
15.34935 0.46285081 -1.8515908 4288085770
5.4471531 -4.6566811 -0.27374703 4293729569
5.4962883 -4.609602 -0.31160778 4293729569
5.5034752 -4.542428 -0.34827039 4293729569
5.4727135 -4.4561758 -0.38274893 4293729569
5.4869003 -4.3900232 -0.41843227 4293729569
5.5000954 -4.3228855 -0.45110804 4293729569
5.5112915 -4.2557478 -0.48277956 4293729569
5.6233788 -4.2308283 -0.51889539 4293729569
5.8163872 -4.236084 -0.55834818 4293729569
6.0114002 -4.2413502 -0.59680539 4293729569
6.2533646 -4.2637119 -0.63845611 4293729569
7.6784458 -4.7549849 -0.098168626 4293729569
15.422791 -5.9143753 -1.6393362 4293729569
13.647734 -5.2456923 -0.58988971 4293729569
13.640778 -5.231761 -1.5178177 4293729569
13.592167 -5.091466 -0.60795498 4293729569
13.768059 -5.1319208 -1.545572 4293729569
14.904501 -5.3150692 -1.6530383 4293729569
14.86396 -5.1579218 -1.6631212 4293729569
10.321087 -3.7919917 -1.2999256 4293729569
10.380392 -3.6960688 -1.3125505 4293729569
9.7302608 -3.4187722 -1.2646585 4293729569
10.225779 -3.4486442 -0.56889319 4293729569
9.792572 -3.3248725 -1.2743007 4293729569
10.241125 -3.3426542 -0.57436848 4293729569
10.245584 -3.3257351 -1.3163022 4293729569
10.33643 -3.25385 -0.58111006 4293729569
10.460794 -3.2641459 -1.3364512 4293729569
10.445183 -3.1471205 -1.3348 4293729569
10.464546 -3.0381608 -1.3362682 4293729569
15.198395 0.73078537 -1.8413234 4288085770
13.892593 0.76788592 -1.8371576 4288085770
12.781778 0.80353785 -1.8364432 4288085770
11.775963 0.83592916 -1.8339846 4288085770
10.987125 0.86885619 -1.8420175 4288085770
10.191305 0.89774203 -1.8390551 4288085770
9.4104843 0.92055511 -1.8291583 4288085770
8.7456608 0.94611263 -1.8235111 4288085770
8.1098347 0.96759081 -1.8159512 4288085770
14.843899 1.3925369 -1.8310753 4288085770
7.5270081 0.98793221 -1.8065177 4288085770
13.771034 1.4101255 -1.8355404 4288085770
7.0441742 1.0110722 -1.8042974 4288085770
12.707176 1.4206347 -1.8290627 4288085770
6.6053352 1.0331128 -1.8031832 4288085770
11.78632 1.433814 -1.8248966 4288085770
6.1804962 1.0541039 -1.799106 4288085770
10.994459 1.4487007 -1.8240154 4288085770
5.8236504 1.0759647 -1.8011791 4288085770
10.264603 1.4624302 -1.8212814 4288085770
5.4578133 1.0958152 -1.7972422 4288085770
9.5467453 1.4721041 -1.8135955 4288085770
5.1539688 1.1185503 -1.7994313 4288085770
8.9328938 1.4845409 -1.8081323 4288085770
4.8331299 1.1362884 -1.7946079 4288085770
8.3560352 1.4958897 -1.8027588 4288085770
4.5632782 1.1569364 -1.7958853 4288085770
7.8481789 1.5090842 -1.799533 4288085770
4.313427 1.1785429 -1.7982031 4288085770
7.3823242 1.5241792 -1.7963924 4288085770
4.0825806 1.2001033 -1.8005645 4288085770
6.9644661 1.5391698 -1.7953622 4288085770
3.8397369 1.2186666 -1.7979141 4288085770
6.5916119 1.5570638 -1.7964193 4288085770
3.644886 1.2411466 -1.8013526 4288085770
6.2157612 1.5709383 -1.7924901 4288085770
3.445034 1.2616279 -1.8027902 4288085770
5.8799076 1.5867286 -1.7906424 4288085770
3.2401924 1.2790952 -1.799232 4288085770
5.5810528 1.6044462 -1.7918688 4288085770
3.0453491 1.2975438 -1.7966914 4288085770
5.2942009 1.6211195 -1.7901278 4288085770
2.8914986 1.3189263 -1.8002291 4288085770
5.031353 1.639746 -1.7904313 4288085770
2.7186584 1.3363168 -1.7967441 4288085770
4.7915001 1.6583226 -1.7917875 4288085770
2.5768051 1.3576655 -1.7993091 4288085770
4.5546494 1.6758821 -1.7911559 4288085770
2.4309616 1.3780131 -1.7998701 4288085770
4.342804 1.6963923 -1.7925657 4288085770
2.2861176 1.3973479 -1.7984387 4288085770
4.1459503 1.716872 -1.7950099 4288085770
2.1762657 1.4206309 -1.8030666 4288085770
3.9401016 1.7333467 -1.7924545 4288085770
2.0384293 1.4389381 -1.7996563 4288085770
3.7542572 1.7527847 -1.791929 4288085770
1.9255829 1.460212 -1.8012877 4288085770
3.5944061 1.7741761 -1.7944528 4288085770
1.8097343 1.4804833 -1.8009174 4288085770
3.4525604 1.7985301 -1.798002 4288085770
1.7078857 1.5017312 -1.8025738 4288085770
3.2957115 1.8179038 -1.7985429 4288085770
1.6060448 1.5219686 -1.8022356 4288085770
3.140873 1.8372571 -1.7960883 4288085770
1.5141983 1.544193 -1.8039099 4288085770
3.0200272 1.8615608 -1.7996858 4288085770
1.4093552 1.5624216 -1.8005753 4288085770
2.8911858 1.883868 -1.8002751 4288085770
1.3285141 1.5856247 -1.8032694 4288085770
2.7693443 1.9061584 -1.8008806 4288085770
1.2446709 1.6068192 -1.8029671 4288085770
2.6555061 1.9294298 -1.8014991 4288085770
1.1568298 1.6270127 -1.8006608 4288085770
2.5096626 1.9437351 -1.7940913 4288085770
1.1159897 1.6581631 -1.8114046 4288085770
2.4038277 1.9669821 -1.7937281 4288085770
1.0131493 1.6733606 -1.8030903 4288085770
2.2979851 1.9882238 -1.7923757 4288085770
0.94830704 1.6965203 -1.804821 4288085770
2.2031517 2.0114443 -1.7920377 4288085770
0.87546921 1.7176781 -1.8025438 4288085770
2.1033134 2.0336668 -1.7896935 4288085770
0.8216362 1.7438171 -1.8052841 4288085770
2.02248 2.0588593 -1.7903771 4288085770
0.75779343 1.7659638 -1.8050225 4288085770
1.9416466 2.0840521 -1.7910609 4288085770
0.70696259 1.7920902 -1.8067695 4288085770
1.8688126 2.1102252 -1.7917576 4288085770
0.65911865 1.8182147 -1.8095236 4288085770
1.7909813 2.1343951 -1.7894534 4288085770
0.60028458 1.8403392 -1.8072733 4288085770
1.7311554 2.163548 -1.7921643 4288085770
1.6633224 2.1896992 -1.7908723 4288085770
1.6084938 2.2188349 -1.7925948 4288085770
1.5566673 2.2489636 -1.7943186 4288085770
1.4928436 2.2750998 -1.7920361 4288085770
1.4390182 2.3022175 -1.7907711 4288085770
1.3862 2.3313274 -1.7884982 4288085770
1.3413773 2.3614287 -1.7882382 4288085770
1.2915611 2.3895314 -1.7859772 4288085770
1.2557411 2.4226165 -1.7867221 4288085770
1.2219276 2.4546914 -1.786477 4288085770
1.1771126 2.483777 -1.7832222 4288085770
1.1503029 2.5188355 -1.7829773 4288085770
1.1264954 2.5548918 -1.7837343 4288085770
0.6195488 2.3953443 -1.6404097 4293729569
14.927114 -1.1840305 -1.8526717 4288085770
13.982145 -1.2167687 -1.8506037 4288085770
13.188148 -1.2508268 -1.8569012 4288085770
12.44417 -1.2800097 -1.8622913 4288085770
11.720213 -1.303257 -1.8646972 4288085770
11.033268 -1.3206029 -1.8651593 4288085770
10.415321 -1.3370991 -1.868781 4288085770
9.7494354 -1.3415437 -1.8602242 4288085770
9.1625347 -1.3471508 -1.8568614 4288085770
8.5906506 -1.3478098 -1.8505075 4288085770
15.207705 -2.1756835 -1.8716301 4288085770
8.0767555 -1.3505874 -1.8483027 4288085770
14.134901 -2.1361041 -1.8708732 4288085770
7.5728779 -1.3494096 -1.8421005 4288085770
13.184074 -2.1027966 -1.8744392 4288085770
7.164957 -1.3544044 -1.8471591 4288085770
12.267277 -2.0636015 -1.8720546 4288085770
6.7340755 -1.3513861 -1.8441206 4288085770
11.411482 -2.0235591 -1.8688101 4288085770
6.3321896 -1.3484268 -1.8431511 4288085770
10.66367 -1.9887652 -1.8678501 4288085770
5.9972782 -1.3505969 -1.8483679 4288085770
9.9488697 -1.9520597 -1.8649579 4288085770
5.6683788 -1.349792 -1.8515832 4288085770
9.2730808 -1.9124646 -1.859143 4288085770
5.3454857 -1.3460059 -1.8537968 4288085770
8.6203003 -1.8719344 -1.8513777 4288085770
5.0485878 -1.3442783 -1.8570832 4288085770
8.0315113 -1.8335533 -1.8447757 4288085770
4.7636948 -1.3405728 -1.8613874 4288085770
7.5076981 -1.8013062 -1.8423606 4288085770
4.4498367 -1.3288512 -1.8555799 4288085770
7.0178833 -1.7701426 -1.8400321 4288085770
4.1599693 -1.318171 -1.8528348 4288085770
6.5980396 -1.7441187 -1.8428972 4288085770
3.9090843 -1.3115587 -1.8552043 4288085770
6.1792107 -1.7161136 -1.8427539 4288085770
3.6572151 -1.3019538 -1.8555554 4288085770
5.8063641 -1.6921978 -1.8467417 4288085770
3.4283371 -1.2933993 -1.8569669 4288085770
5.4515247 -1.667336 -1.8487672 4288085770
3.1565132 -1.2747993 -1.8472223 4288085770
5.0757179 -1.6354604 -1.8437053 4288085770
2.9706116 -1.2703166 -1.8547574 4288085770
4.7948494 -1.6167493 -1.8509395 4288085770
2.7567482 -1.2578139 -1.8531833 4288085770
4.4870148 -1.5920053 -1.8520771 4288085770
2.5648766 -1.2473421 -1.8556722 4288085770
4.1971817 -1.5663099 -1.8522525 4288085770
2.3600235 -1.2328715 -1.852109 4288085770
3.9103508 -1.5396314 -1.8504295 4288085770
2.1861458 -1.2224436 -1.854641 4288085770
3.615551 -1.5079608 -1.8435609 4288085770
2.0182762 -1.2120357 -1.8561871 4288085770
3.3727074 -1.4843726 -1.8448592 4288085770
1.8354301 -1.1956182 -1.8526658 4288085770
3.1378708 -1.4608088 -1.8451765 4288085770
1.6845551 -1.1852393 -1.8562526 4288085770
2.9110374 -1.4362702 -1.8445075 4288085770
1.521698 -1.1708593 -1.8547884 4288085770
2.7081833 -1.4157667 -1.8479161 4288085770
1.3768234 -1.1585059 -1.8563792 4288085770
2.5123405 -1.3942914 -1.8493372 4288085770
1.2369614 -1.1461649 -1.8579817 4288085770
2.3115044 -1.3698134 -1.8487304 4288085770
1.0501595 -1.1207938 -1.8434029 4288085770
2.1196709 -1.3453689 -1.846145 4288085770
0.93228149 -1.1104894 -1.8480685 4288085770
1.9518204 -1.3259497 -1.8496435 4288085770
0.77944946 -1.0911641 -1.8406028 4288085770
1.7869682 -1.3045483 -1.8511386 4288085770
0.67057037 -1.0798869 -1.8442847 4288085770
1.6201363 -1.281157 -1.8496183 4288085770
1.4622917 -1.2587781 -1.8501246 4288085770
1.3064613 -1.2364144 -1.8486359 4288085770
1.1626205 -1.2140741 -1.8481759 4288085770
1.0087929 -1.1897302 -1.843681 4288085770
0.8699646 -1.1664124 -1.8412275 4288085770
0.73413467 -1.1431012 -1.8387812 4288085770
0.62527084 -1.1258245 -1.8424312 4288085770
0.66316223 0.81734729 -1.8105671 4288085770
0.79430389 0.8320322 -1.811814 4288085770
0.90644836 0.84272647 -1.806035 4288085770
1.0515823 0.85638285 -1.8083217 4288085770
1.2027168 0.87102509 -1.8106179 4288085770
1.3458633 0.88266015 -1.8079107 4288085770
1.487011 0.89428973 -1.8031985 4288085770
0.5998764 0.8304832 -1.8133564 4288085770
1.6601448 0.90787387 -1.8045548 4288085770
0.73100662 0.84016848 -1.8146296 4288085770
1.8362846 0.92145061 -1.8059188 4288085770
0.87213516 0.85083961 -1.8179225 4288085770
2.0254211 0.93599582 -1.8073097 4288085770
0.99826813 0.85851049 -1.8141942 4288085770
2.2055664 0.94753695 -1.8036942 4288085770
1.1293983 0.86516953 -1.8104835 4288085770
2.4136963 0.96103692 -1.8051375 4288085770
1.2855263 0.87479448 -1.811819 4288085770
2.6288376 0.97451472 -1.8055985 4288085770
1.4396515 0.88241386 -1.8111601 4288085770
2.8659821 0.98895001 -1.8081086 4288085770
1.6057816 0.89100957 -1.8115258 4288085770
3.0901222 1.00038 -1.8036027 4288085770
1.7779045 0.89858556 -1.8109117 4288085770
3.3602638 1.0157361 -1.8061897 4288085770
1.9650269 0.9061358 -1.8123348 4288085770
3.6174088 1.0280972 -1.8037603 4288085770
2.1571579 0.91366363 -1.8117704 4288085770
3.9165459 1.0423784 -1.8054246 4288085770
2.3492889 0.92018127 -1.8092117 4288085770
4.211689 1.0546424 -1.8020897 4288085770
2.5744057 0.92765093 -1.8127291 4288085770
4.541832 1.0678439 -1.8028365 4288085770
2.7945328 0.93410635 -1.8112398 4288085770
4.8849754 1.0809982 -1.8006157 4288085770
3.0016632 0.93656659 -1.8047396 4288085770
5.2701225 1.095062 -1.8004938 4288085770
3.2557869 0.94295049 -1.8053347 4288085770
5.6772633 1.1090729 -1.8004267 4288085770
3.5209045 0.94830823 -1.8059626 4288085770
6.1014099 1.1220322 -1.7984073 4288085770
3.816021 0.95360446 -1.8086648 4288085770
6.626545 1.1397963 -1.805612 4288085770
4.1121407 0.95788217 -1.808375 4288085770
7.159687 1.1555145 -1.8078476 4288085770
4.4152565 0.9601326 -1.8061134 4288085770
7.7218285 1.1691527 -1.8081657 4288085770
4.7593727 0.96330047 -1.8069482 4288085770
8.3839703 1.187577 -1.8137057 4288085770
5.1214828 0.96442533 -1.8078383 4288085770
9.1281052 1.2058139 -1.8214495 4288085770
5.4936008 0.96550989 -1.8057538 4288085770
9.9192486 1.223923 -1.8263103 4288085770
5.9037094 0.96450853 -1.8047739 4288085770
10.856382 1.2447114 -1.8375177 4288085770
6.3548145 0.96441889 -1.8058909 4288085770
11.783533 1.2594616 -1.836733 4288085770
6.8589153 0.96321297 -1.8091447 4288085770
12.877678 1.2778361 -1.8413417 4288085770
7.416008 0.96188927 -1.8145305 4288085770
14.085831 1.293916 -1.8422449 4288085770
8.0330982 0.95942712 -1.8210706 4288085770
15.451984 1.3116159 -1.8435298 4288085770
8.7341747 0.95778871 -1.8328141 4288085770
9.4402561 0.95009708 -1.8366022 4288085770
10.291325 0.94309306 -1.8477453 4288085770
11.125402 0.93007755 -1.8488785 4288085770
11.986483 0.91096091 -1.8431108 4288085770
13.032545 0.89144087 -1.8458029 4288085770
14.154602 0.86570716 -1.842716 4288085770
15.551628 0.83938026 -1.8533126 4288085770
7.8291473 -7.6305981 -1.527239 4293729569
7.514864 -7.3607607 -1.5420371 4293729569
7.1856136 -7.0839128 -1.5517603 4293729569
6.8913002 -6.8301439 -1.5626925 4293729569
3.3930092 -4.597331 -0.66214579 4293729569
3.4496536 -4.6709461 -1.1456835 4293729569
3.4081383 -4.5532007 -0.69495672 4293729569
3.3829308 -4.5776768 -1.1670299 4293729569
3.4182816 -4.5060682 -0.72573924 4293729569
3.4100418 -4.5405693 -1.2009079 4293729569
3.4424057 -4.4649649 -0.75758874 4293729569
3.4321671 -4.4994612 -1.2327523 4293729569
3.5024796 -4.443943 -0.79063445 4293729569
3.4802551 -4.471406 -1.2667309 4293729569
3.6414337 -4.4650736 -0.83110058 4293729569
3.5273514 -4.4413481 -1.3006964 4293729569
5.3623066 -5.4211893 -1.6124791 4293729569
5.2197571 -5.2688055 -1.6203246 4293729569
9.6894703 -7.5901537 -1.5307961 4293729569
5.0662308 -5.1134224 -1.6231264 4293729569
9.3931961 -7.3243942 -1.5386604 4293729569
4.961628 -4.9841232 -1.6321887 4293729569
9.1508331 -7.0917454 -1.5508347 4293729569
4.8240814 -4.8387833 -1.6340834 4293729569
8.9344311 -6.8751621 -1.5621585 4293729569
4.714489 -4.7084951 -1.6391276 4293729569
8.7250233 -6.6646128 -1.5705316 4293729569
4.6128845 -4.5842361 -1.6422234 4293729569
8.5275955 -6.4620934 -1.5789768 4293729569
4.5142708 -4.4629831 -1.6453427 4293729569
8.3741016 -6.2856712 -1.5886697 4293729569
4.4416237 -4.3547783 -1.6515958 4293729569
5.4247818 -4.7292109 -1.2610446 4293729569
4.3819618 -4.2546043 -1.6579241 4293729569
5.4749527 -4.6762066 -1.2858989 4293729569
4.2973442 -4.1424055 -1.6571257 4293729569
5.48419 -4.6031351 -1.3045442 4293729569
4.281601 -4.0653124 -1.668686 4293729569
5.4814491 -4.5230522 -1.3201224 4293729569
4.2439079 -3.97719 -1.675133 4293729569
5.4827061 -4.4449835 -1.3347216 4293729569
4.2621231 -3.9151564 -1.6908582 4293729569
5.4899597 -4.368928 -1.3493462 4293729569
4.3951683 -3.9053054 -1.7251486 4293729569
5.4812393 -4.2858515 -1.3608935 4293729569
4.5681496 -3.9115133 -1.7666246 4288085770
5.6382904 -4.2760715 -1.3922457 4293729569
4.7451401 -3.9167318 -1.8081056 4288085770
5.8313007 -4.2783651 -1.4267526 4293729569
4.8792038 -3.899888 -1.8413622 4288085770
6.0422955 -4.2856865 -1.4643317 4293729569
4.8335495 -3.8037944 -1.8387473 4288085770
7.3108921 -4.7288656 -1.6388808 4293729569
4.7779045 -3.7046876 -1.8340909 4288085770
7.3551521 -4.6529102 -1.651601 4293729569
4.7492294 -3.6176348 -1.8315663 4288085770
7.3354988 -4.5498476 -1.6550168 4293729569
4.709568 -3.5265665 -1.8269928 4288085770
7.3338223 -4.4558239 -1.6595254 4293729569
4.7208328 -3.4555788 -1.8306537 4288085770
7.3541222 -4.3708544 -1.6641375 4293729569
4.6991463 -3.3735485 -1.827173 4288085770
7.3654346 -4.281867 -1.6677055 4293729569
4.7054329 -3.3005643 -1.8278109 4288085770
7.3927345 -4.1979179 -1.6713407 4293729569
4.7177048 -3.2315998 -1.8274851 4288085770
7.4480038 -4.1250267 -1.6771049 4293729569
4.7379684 -3.1646495 -1.82819 4288085770
7.6091518 -4.0893269 -1.6953334 4293729569
4.7522469 -3.0966954 -1.8268746 4288085770
7.8731861 -4.0858078 -1.7269924 4293729569
4.7855034 -3.0327711 -1.8286285 4288085770
8.2121506 -4.1044331 -1.7659583 4293729569
4.8047791 -2.9658337 -1.8263311 4288085770
8.5481339 -4.1170607 -1.8028855 4288085770
4.847023 -2.9069362 -1.8271344 4288085770
8.8441772 -4.1126232 -1.833622 4288085770
4.9142494 -2.854084 -1.831033 4288085770
9.0183697 -4.0639877 -1.8458171 4288085770
4.9934578 -2.8042488 -1.8369778 4288085770
9.0866795 -3.9811687 -1.8435632 4288085770
5.0487061 -2.7473936 -1.835825 4288085770
9.1410084 -3.8953371 -1.8372582 4288085770
5.1279259 -2.6965694 -1.8397648 4288085770
9.2413044 -3.8205967 -1.8351283 4288085770
5.1851807 -2.6387248 -1.8376119 4288085770
9.3605804 -3.750896 -1.8340733 4288085770
5.258419 -2.5849118 -1.8365211 4288085770
9.523819 -3.6932807 -1.8371938 4288085770
5.3766098 -2.5431662 -1.8436081 4288085770
9.6930695 -3.6336899 -1.8383194 4288085770
5.4568501 -2.4893765 -1.8415354 4288085770
9.8912907 -3.5821538 -1.8425612 4288085770
5.5470867 -2.4366007 -1.8414934 4288085770
10.087532 -3.5256276 -1.8437721 4288085770
5.6513119 -2.3878579 -1.8415084 4288085770
10.021017 -3.4026361 -1.8119646 4288085770
5.7395573 -2.3340974 -1.8374562 4288085770
10.492027 -3.4116278 -1.8422196 4288085770
5.8617802 -2.2873979 -1.8375281 4288085770
10.734262 -3.3592176 -1.8425699 4288085770
5.9750137 -2.2366872 -1.835556 4288085770
11.019472 -3.3128967 -1.8460619 4288085770
6.1302128 -2.1950517 -1.8387387 4288085770
11.30769 -3.266593 -1.8475621 4288085770
6.2754307 -2.1494088 -1.8388749 4288085770
11.624901 -3.2223597 -1.849147 4288085770
6.4556255 -2.108829 -1.8431273 4288085770
12.038052 -3.1943107 -1.8600621 4288085770
6.6058578 -2.061213 -1.8402662 4288085770
12.396271 -3.1481867 -1.8597426 4288085770
6.7690792 -2.0136232 -1.8384386 4288085770
12.829445 -3.1142173 -1.8646783 4288085770
6.9772797 -1.9731207 -1.8407632 4288085770
13.285627 -3.0793037 -1.8696684 4288085770
7.1944809 -1.9316406 -1.843106 4288085770
13.743837 -3.0374207 -1.8696276 4288085770
7.4047012 -1.8861589 -1.8424101 4288085770
14.257027 -3.0016608 -1.8717598 4288085770
7.6638889 -1.8477693 -1.8468767 4288085770
14.772242 -2.9599214 -1.8708663 4288085770
7.9260883 -1.8073978 -1.849341 4288085770
15.323462 -2.9182849 -1.8670657 4288085770
8.2192822 -1.7680912 -1.8538902 4288085770
8.5334721 -1.7298393 -1.8574989 4288085770
8.9246254 -1.6987276 -1.8703423 4288085770
9.2858219 -1.6585898 -1.8740619 4288085770
9.6470375 -1.6134682 -1.8747559 4288085770
10.07023 -1.5724697 -1.8806304 4288085770
10.564407 -1.5356274 -1.8897085 4288085770
10.940668 -1.4805832 -1.88239 4288085770
11.338938 -1.4236026 -1.8731205 4288085770
11.848167 -1.3748436 -1.8731767 4288085770
12.399405 -1.322196 -1.8713202 4288085770
12.972664 -1.2666173 -1.8665056 4288085770
13.623917 -1.2092175 -1.8638819 4288085770
14.308184 -1.1499062 -1.8593334 4288085770
15.149429 -1.0929446 -1.8612003 4288085770
14.639574 1.3249085 -1.8393463 4288085770
13.815807 1.3829296 -1.8428465 4288085770
13.035042 1.4368203 -1.8414826 4288085770
12.258276 1.4826701 -1.8341708 4288085770
11.610498 1.5292337 -1.8321999 4288085770
11.005714 1.5746934 -1.8303494 4288085770
10.45393 1.6180193 -1.8276515 4288085770
9.9171429 1.6562881 -1.8210196 4288085770
9.4393501 1.6944299 -1.8175461 4288085770
9.0095558 1.7334602 -1.815196 4288085770
8.5707626 1.7674813 -1.8068477 4288085770
8.2059631 1.8053598 -1.8056771 4288085770
7.8931618 1.8471332 -1.8086257 4288085770
14.903427 2.7812572 -1.8435481 4288085770
7.564352 1.8829145 -1.8055615 4288085770
14.220596 2.8119168 -1.8435644 4288085770
7.2625542 1.9186299 -1.8025703 4288085770
13.510767 2.8305993 -1.8355703 4288085770
6.9847488 1.9552977 -1.8016384 4288085770
12.920948 2.8600173 -1.8328418 4288085770
6.7079468 1.9889474 -1.7977246 4288085770
12.43413 2.8972173 -1.8363483 4288085770
6.4691429 2.0255206 -1.7968972 4288085770
11.998325 2.9382992 -1.8409715 4288085770
6.2313385 2.0600812 -1.7940829 4288085770
11.57151 2.9753437 -1.8426392 4288085770
6.0295372 2.0975647 -1.7933497 4288085770
11.155701 3.0093453 -1.8413519 4288085770
5.8527317 2.1380091 -1.7966682 4288085770
10.761892 3.043294 -1.8401237 4288085770
5.6719284 2.175447 -1.7969912 4288085770
10.384081 3.0751936 -1.8369488 4288085770
5.4881248 2.2098768 -1.7943219 4288085770
10.022272 3.1050441 -1.831827 4288085770
5.3143253 2.2462873 -1.7926687 4288085770
9.6834679 3.1378438 -1.8277513 4288085770
5.1675224 2.2846434 -1.7930778 4288085770
9.3846684 3.174552 -1.8247626 4288085770
5.0117264 2.3210053 -1.7904732 4288085770
9.1028652 3.2092192 -1.8218299 4288085770
4.8809204 2.3593221 -1.7909254 4288085770
8.8510723 3.2488186 -1.8199519 4288085770
4.7581215 2.3996201 -1.7913885 4288085770
8.639286 3.2953367 -1.8211452 4288085770
4.646328 2.4408908 -1.7918761 4288085770
8.4374981 3.3408308 -1.8223703 4288085770
4.534523 2.4811623 -1.7923684 4288085770
8.2537117 3.389287 -1.8246281 4288085770
4.4267273 2.5214181 -1.7918718 4288085770
8.0869331 3.4396963 -1.8259213 4288085770
4.3279381 2.5626526 -1.7913942 4288085770
7.9001541 3.4831331 -1.8231971 4288085770
4.2361412 2.6038699 -1.7909355 4288085770
7.7623844 3.537477 -1.8255476 4288085770
4.1403542 2.6450913 -1.7894659 4288085770
7.6096134 3.5868368 -1.8238837 4288085770
4.0745659 2.6922612 -1.792046 4288085770
7.4888515 3.6431396 -1.8262695 4288085770
4.0027809 2.7374353 -1.7926201 4288085770
7.3800945 3.7014084 -1.8276772 4288085770
3.9369926 2.7825947 -1.7932105 4288085770
7.2823372 3.7606559 -1.8301095 4288085770
3.8732185 2.8297441 -1.7927958 4288085770
7.1855831 3.8198903 -1.8305442 4288085770
3.8174324 2.8758795 -1.7934079 4288085770
7.0978413 3.8821027 -1.8309878 4288085770
3.7516556 2.9210234 -1.7909981 4288085770
7.0301018 3.9482772 -1.8334644 4288085770
3.7148857 2.974123 -1.793625 4288085770
6.9603672 4.0144458 -1.8339354 4288085770
3.6791191 3.0272098 -1.7942544 4288085770
6.908638 4.0855818 -1.8364291 4288085770
3.6343498 3.0763078 -1.7928805 4288085770
6.8559132 4.1557093 -1.8369254 4288085770
3.639595 3.1443372 -1.8015425 4288085770
6.842207 4.2387686 -1.842459 4288085770
3.6008301 3.1954205 -1.8001745 4288085770
6.8114948 4.3158479 -1.8439784 4288085770
3.5880737 3.2554567 -1.8018296 4288085770
6.7757893 4.3929243 -1.8424838 4288085770
3.5583191 3.3095186 -1.8004699 4288085770
6.7470875 4.4709883 -1.842003 4288085770
0.91463852 2.3619978 -1.2382848 4293729569
6.7524014 4.5609908 -1.8455517 4288085770
0.91584778 2.4060001 -1.2400603 4293729569
6.815752 4.6738949 -1.8571376 4288085770
0.9270668 2.4549837 -1.2428367 4293729569
6.8370876 4.770853 -1.8596932 4288085770
0.66917419 2.3943167 -1.187459 4293729569
6.9044514 4.8867311 -1.8682742 4288085770
0.59534836 2.4054127 -1.1722034 4293729569
6.9948406 5.0165696 -1.8798445 4288085770
0.98360062 2.5872102 -0.93230069 4293729569
0.86375046 2.5803862 -0.9110145 4293729569
0.74189377 2.5695615 -0.88874364 4293729569
0.655056 2.5726728 -0.87049466 4293729569
15.470667 -0.52315187 -1.8451685 4288085770
14.149736 -0.54599237 -1.835626 4288085770
13.019793 -0.5672636 -1.8326048 4288085770
12.042847 -0.58588934 -1.8329942 4288085770
11.169905 -0.60176086 -1.8346573 4288085770
10.379971 -0.61483383 -1.8365359 4288085770
9.6150665 -0.62199783 -1.8324528 4288085770
8.9261551 -0.62833595 -1.8305755 4288085770
8.2762604 -0.63177919 -1.8267913 4288085770
14.469267 -1.0597582 -1.8462465 4288085770
7.6903687 -0.63437653 -1.8231801 4288085770
13.243439 -1.0348029 -1.8417143 4288085770
7.1554756 -0.63509274 -1.8207005 4288085770
12.21557 -1.0152793 -1.8467602 4288085770
6.6885624 -0.63794184 -1.8244209 4288085770
11.30171 -0.99604225 -1.8501238 4288085770
6.2446651 -0.63886213 -1.8251948 4288085770
10.475845 -0.97801876 -1.8537378 4288085770
5.8077831 -0.63582039 -1.8219672 4288085770
9.6160412 -0.95098448 -1.8432096 4288085770
5.3889141 -0.63083267 -1.816779 4288085770
8.9041977 -0.93026304 -1.8421257 4288085770
5.0140343 -0.62693071 -1.8157188 4288085770
8.2353649 -0.90866041 -1.8381562 4288085770
4.6711464 -0.62410593 -1.8147528 4288085770
7.5995445 -0.88515854 -1.830268 4288085770
4.3602562 -0.62034273 -1.816871 4288085770
7.0606976 -0.86685944 -1.8286766 4288085770
4.0573769 -0.61461449 -1.8160008 4288085770
6.5968227 -0.85170603 -1.8343101 4288085770
3.771492 -0.60992289 -1.8161832 4288085770
6.1779442 -0.83766079 -1.8400742 4288085770
3.5235939 -0.60629702 -1.8214767 4288085770
5.7520905 -0.82063007 -1.8398031 4288085770
3.2837029 -0.60070562 -1.8237821 4288085770
5.3142662 -0.79860735 -1.832472 4288085770
3.0498161 -0.59512901 -1.8261042 4288085770
4.9244385 -0.77869034 -1.8272852 4288085770
2.8109474 -0.58656645 -1.8233963 4288085770
4.5885696 -0.76286697 -1.8292701 4288085770
2.5990715 -0.57905293 -1.8237692 4288085770
4.2637177 -0.74608612 -1.8282803 4288085770
2.3862 -0.57054377 -1.8231338 4288085770
3.9408836 -0.72733068 -1.8232855 4288085770
2.2093086 -0.56409407 -1.8276094 4288085770
3.6780128 -0.71367311 -1.8274844 4288085770
2.020443 -0.5556469 -1.8260411 4288085770
3.4161568 -0.69804525 -1.8266757 4288085770
1.83358 -0.54620981 -1.823473 4288085770
3.1603012 -0.68143082 -1.8258781 4288085770
1.678688 -0.53881502 -1.8280046 4288085770
2.9144592 -0.66484642 -1.8241086 4288085770
1.5028305 -0.52840948 -1.8244618 4288085770
2.6945992 -0.65031338 -1.824422 4288085770
1.3569489 -0.52004051 -1.8280132 4288085770
2.4857368 -0.63480377 -1.8257608 4288085770
1.2150688 -0.51069164 -1.8295704 4288085770
2.2878761 -0.62032461 -1.8261356 4288085770
1.0831871 -0.50235701 -1.8331609 4288085770
2.0940208 -0.60486031 -1.8255162 4288085770
0.92533875 -0.49001026 -1.8266577 4288085770
1.9171562 -0.5904274 -1.8269495 4288085770
0.79747391 -0.48070145 -1.8272538 4288085770
1.7323151 -0.57300043 -1.8233448 4288085770
0.65262222 -0.46738148 -1.8217816 4288085770
1.5764465 -0.55961275 -1.8258417 4288085770
1.4255867 -0.54524183 -1.8273476 4288085770
1.2757225 -0.53087902 -1.8278562 4288085770
1.1248779 -0.51453447 -1.8243513 4288085770
0.97703171 -0.49819756 -1.820855 4288085770
0.83818436 -0.48287678 -1.8183888 4288085770
0.70933151 -0.46757555 -1.8169507 4288085770
0.59746552 -0.4542985 -1.8185704 4288085770
0.69224167 1.435873 -1.8111262 4288085770
0.80038834 1.4505804 -1.8063563 4288085770
0.92154312 1.4682724 -1.8046077 4288085770
1.0516968 1.4859419 -1.8028848 4288085770
1.1878471 1.5046129 -1.8041737 4288085770
1.3300095 1.5232589 -1.8034799 4288085770
1.4541702 1.535912 -1.7957661 4288085770
0.61081314 1.3860338 -1.8101608 4288085770
1.621315 1.5575235 -1.8001276 4288085770
0.71995163 1.3967493 -1.8074147 4288085770
1.7844734 1.5771241 -1.8004884 4288085770
0.85308838 1.4104328 -1.809721 4288085770
1.9596252 1.5967007 -1.8018833 4288085770
0.9702301 1.4201236 -1.806003 4288085770
2.1387749 1.6162622 -1.8022896 4288085770
1.099369 1.4307961 -1.8043138 4288085770
2.3139381 1.6338131 -1.7986952 4288085770
1.2345085 1.4414542 -1.8026417 4288085770
2.5080986 1.6533334 -1.7981445 4288085770
1.3866425 1.4540918 -1.8050075 4288085770
2.7182541 1.6738253 -1.7996339 4288085770
1.5397797 1.4657166 -1.8053814 4288085770
2.9444046 1.6952789 -1.8011638 4288085770
1.6669197 1.4703572 -1.7967182 4288085770
3.2015533 1.7206883 -1.8087609 4288085770
1.8500481 1.4859407 -1.8031566 4288085770
3.4217224 1.7371199 -1.8033003 4288085770
2.0301781 1.4975054 -1.8046077 4288085770
3.6688766 1.7565067 -1.8019005 4288085770
2.1953125 1.5050859 -1.8020369 4288085770
3.9230385 1.7758718 -1.799521 4288085770
2.3954391 1.5176125 -1.8055397 4288085770
4.2081985 1.7971773 -1.8002193 4288085770
2.5725784 1.5241587 -1.8020084 4288085770
4.4903603 1.8144693 -1.7969298 4288085770
2.8027 1.5376287 -1.8085912 4288085770
4.814518 1.8376856 -1.7987288 4288085770
3.0118332 1.5461073 -1.8071408 4288085770
5.1346855 1.8568857 -1.7955374 4288085770
3.2189636 1.5515809 -1.8037004 4288085770
5.493845 1.8790123 -1.7964414 4288085770
3.4490929 1.5590148 -1.8033149 4288085770
5.8740082 1.9020884 -1.7974002 4288085770
3.6662216 1.5624585 -1.7989134 4288085770
6.3011703 1.928066 -1.8014772 4288085770
3.9303436 1.5698204 -1.8006248 4288085770
6.7363358 1.9520037 -1.8015876 4288085770
4.1924667 1.5741713 -1.7993462 4288085770
7.2005005 1.9748764 -1.802786 4288085770
4.4655952 1.5784957 -1.7980992 4288085770
7.7036667 1.9986496 -1.8030902 4288085770
4.7587128 1.5827773 -1.7979093 4288085770
8.2618332 2.0263107 -1.8075305 4288085770
5.0758247 1.5860054 -1.7987928 4288085770
8.8920021 2.0578079 -1.8141551 4288085770
5.4039421 1.588202 -1.798713 4288085770
9.5321732 2.084255 -1.8158344 4288085770
5.765049 1.5913348 -1.8017218 4288085770
10.265345 2.1164982 -1.8217475 4288085770
6.1331615 1.5914299 -1.8007666 4288085770
11.026516 2.1436532 -1.8237666 4288085770
6.5262661 1.5914748 -1.8018826 4288085770
11.850691 2.1716557 -1.8259603 4288085770
6.9513683 1.5904474 -1.8040951 4288085770
12.80887 2.2063546 -1.8324995 4288085770
7.4134655 1.5873308 -1.8064233 4288085770
13.786051 2.2329721 -1.8321347 4288085770
7.8855648 1.5831795 -1.8067857 4288085770
14.899231 2.2632704 -1.8341368 4288085770
8.4306488 1.5798829 -1.8133507 4288085770
8.9937325 1.5725272 -1.8169879 4288085770
9.6158066 1.5650394 -1.8227934 4288085770
10.332872 1.5583479 -1.8338645 4288085770
11.009939 1.539696 -1.8338845 4288085770
11.747002 1.5209095 -1.8360755 4288085770
12.585047 1.4999001 -1.8425648 4288085770
13.439087 1.4708209 -1.8431418 4288085770
14.361115 1.4355719 -1.842944 4288085770
15.360134 1.3951318 -1.8419917 4288085770
3.5818176 -4.4216785 -0.11680006 4293729569
3.5147934 -4.4383497 -0.14969587 4293729569
3.4587517 -4.4580431 -0.18363869 4293729569
3.4216881 -4.4887829 -0.21769285 4293729569
3.4015999 -4.5285568 -0.25284228 4293729569
3.4274445 -4.5934267 -0.29125199 4293729569
6.7976398 -7.581337 -1.5303154 4293729569
6.338419 -7.2921782 -1.5385059 4293729569
5.9470825 -7.0451584 -1.5521085 4293729569
5.5487881 -6.7891626 -1.5576448 4293729569
5.1584969 -6.5341949 -1.5612093 4293729569
4.817131 -6.3093319 -1.5680695 4293729569
4.5017242 -6.0995359 -1.5740818 4293729569
4.2282524 -5.9148254 -1.5833435 4293729569
3.9767418 -5.7431622 -1.5937359 4293729569
3.7841225 -5.6096048 -1.6114933 4293729569
6.7596474 -7.5943069 -1.5262465 4293729569
3.5705566 -5.4600334 -1.6221085 4293729569
6.3524189 -7.3052588 -1.5375868 4293729569
3.2971458 -5.2643948 -1.6173142 4293729569
5.9821396 -7.0372992 -1.5491421 4293729569
3.0646553 -5.0968237 -1.6187823 4293729569
5.6008949 -6.7613459 -1.5546247 4293729569
2.8900528 -4.9673586 -1.6276125 4293729569
5.2725601 -6.5195084 -1.5624348 4293729569
2.6975021 -4.8228846 -1.6293141 4293729569
4.9652061 -6.2897272 -1.5693673 4293729569
2.5069504 -4.6794195 -1.6300267 4293729569
4.6648407 -6.063982 -1.5723407 4293729569
2.3663025 -4.5680351 -1.6390477 4293729569
4.4084015 -5.8663197 -1.580585 4293729569
2.1967278 -4.435626 -1.6388775 4293729569
4.1928902 -5.6957426 -1.5910861 4293729569
2.0511093 -4.3192596 -1.6418587 4293729569
3.9813805 -5.5271873 -1.5996093 4293729569
1.8875427 -4.1878815 -1.6387111 4293729569
3.7978249 -5.3756933 -1.6093005 4293729569
1.7768555 -4.0925837 -1.6449009 4293729569
3.5953217 -5.2101841 -1.6128652 4293729569
1.6641922 -3.9942856 -1.6500697 4293729569
3.4157753 -5.0607262 -1.6175784 4293729569
1.5714798 -3.9090214 -1.658363 4293729569
3.2621803 -4.9273109 -1.6264488 4293729569
1.458828 -3.8097501 -1.658527 4293729569
3.1335449 -4.8099546 -1.6354735 4293729569
1.3990479 -3.7445393 -1.6720181 4293729569
2.9709892 -4.6685514 -1.6372771 4293729569
1.4360542 -3.7434378 -1.710117 4293729569
2.8263969 -4.5401945 -1.6391995 4293729569
1.4740601 -3.7413378 -1.7482135 4293729569
2.6858063 -4.4128504 -1.6401387 4293729569
1.5350189 -3.7512627 -1.792438 4288085770
2.5851364 -4.3115673 -1.6483266 4293729569
1.5640564 -3.739162 -1.8264575 4288085770
2.4834785 -4.2092972 -1.6535065 4293729569
1.4843597 -3.6549659 -1.8277935 4288085770
2.361866 -4.093008 -1.652557 4293729569
1.3956947 -3.5647674 -1.825073 4288085770
2.2672043 -3.994771 -1.6547778 4293729569
1.3170052 -3.4805832 -1.8244122 4288085770
2.1725388 -3.8965316 -1.6569988 4293729569
1.2642632 -3.4114356 -1.8289033 4288085770
2.0968475 -3.8083291 -1.6613257 4293729569
1.1955643 -3.3332753 -1.8283021 4288085770
2.1299248 -3.7862649 -1.6903052 4293729569
1.1408348 -3.2631383 -1.8297822 4288085770
2.2079086 -3.7902508 -1.7305475 4293729569
1.0741425 -3.1849985 -1.826187 4288085770
2.287899 -3.7932477 -1.7697905 4288085770
1.0224152 -3.1158795 -1.8256812 4288085770
2.3688889 -3.7952471 -1.809031 4288085770
0.97967148 -3.052772 -1.827232 4288085770
2.3780441 -3.7521706 -1.8288336 4288085770
0.93893051 -2.9896736 -1.8277888 4288085770
2.2943954 -3.6570005 -1.8231019 4288085770
0.90716934 -2.9325867 -1.8304023 4288085770
2.2147484 -3.5638394 -1.8173921 4288085770
0.8624382 -2.8674946 -1.8279371 4288085770
2.1620369 -3.4867125 -1.8178422 4288085770
0.83467865 -2.8114228 -1.8295673 4288085770
2.1273003 -3.4186144 -1.8213902 4288085770
0.79694366 -2.7503529 -1.826143 4288085770
2.0995522 -3.3545375 -1.8239788 4288085770
0.78914642 -2.7053084 -1.8318874 4288085770
2.0578346 -3.283442 -1.8234915 4288085770
0.77536011 -2.6572595 -1.8355988 4288085770
2.0281029 -3.2183704 -1.8240695 4288085770
0.7545929 -2.6052141 -1.8352698 4288085770
2.0003586 -3.1542983 -1.8256584 4288085770
0.72983932 -2.5501757 -1.8319139 4288085770
1.9596481 -3.0832267 -1.8211741 4288085770
0.72803497 -2.5071511 -1.8366858 4288085770
1.9438858 -3.0251832 -1.8228284 4288085770
0.7252388 -2.4631338 -1.8394496 4288085770
1.9181557 -2.9621367 -1.8204284 4288085770
0.72145081 -2.4191198 -1.8412106 4288085770
1.9113846 -2.9091158 -1.8221343 4288085770
0.71067429 -2.3721046 -1.8399363 4288085770
1.8976326 -2.8520927 -1.8207996 4288085770
0.71387482 -2.3311071 -1.8417329 4288085770
1.8878822 -2.79708 -1.8194869 4288085770
0.71208954 -2.2871084 -1.8414997 4288085770
1.90308 -2.7530956 -1.8243023 4288085770
0.7152977 -2.2451205 -1.8412914 4288085770
1.9112892 -2.7061057 -1.8270824 4288085770
0.70952606 -2.1991229 -1.8390365 4288085770
1.9324875 -2.6651416 -1.8309305 4288085770
0.73269653 -2.1671581 -1.8439369 4288085770
1.9447021 -2.6191654 -1.8327271 4288085770
0.73790741 -2.1261806 -1.8427393 4288085770
1.9629059 -2.5762043 -1.8345565 4288085770
0.74611282 -2.0862107 -1.8415556 4288085770
1.9861069 -2.5352545 -1.8364104 4288085770
0.7663002 -2.0512543 -1.8434321 4288085770
2.0033264 -2.4903021 -1.8362268 4288085770
0.77950668 -2.0132966 -1.8422731 4288085770
2.0105591 -2.4423447 -1.8319988 4288085770
0.78771591 -1.9733372 -1.8390895 4288085770
2.0337715 -2.4004064 -1.8318479 4288085770
0.82588196 -1.9454083 -1.8440537 4288085770
2.0859337 -2.3695011 -1.8388367 4288085770
0.84507751 -1.9094653 -1.8429223 4288085770
2.1191368 -2.3305864 -1.8387299 4288085770
0.86627197 -1.8745265 -1.8418018 4288085770
2.158329 -2.2936807 -1.8396504 4288085770
0.90244675 -1.8436079 -1.8437448 4288085770
2.179554 -2.2497578 -1.8354837 4288085770
0.92963791 -1.8106842 -1.8426517 4288085770
2.2297401 -2.2158732 -1.8374513 4288085770
0.96681595 -1.7807741 -1.8436028 4288085770
2.277935 -2.180994 -1.8374081 4288085770
1.0059891 -1.7508688 -1.8445598 4288085770
2.324131 -2.1451159 -1.836354 4288085770
1.0331955 -1.7159548 -1.8414567 4288085770
2.3653412 -2.106236 -1.8332704 4288085770
1.0953407 -1.693079 -1.8475155 4288085770
2.4315109 -2.0763898 -1.8353047 4288085770
1.1295357 -1.6601815 -1.8444427 4288085770
2.4847145 -2.0415339 -1.8332762 4288085770
1.1597404 -1.6262851 -1.8393533 4288085770
2.5628815 -2.0137119 -1.836355 4288085770
1.2278862 -1.6034241 -1.8454295 4288085770
2.6260719 -1.9808788 -1.8343654 4288085770
1.2820587 -1.5765591 -1.845445 4288085770
2.7062492 -1.9520674 -1.836445 4288085770
1.3382339 -1.5486999 -1.845461 4288085770
2.7814293 -1.921258 -1.8355001 4288085770
1.4033966 -1.5238514 -1.8475183 4288085770
2.8805885 -1.8974867 -1.8386599 4288085770
1.4675636 -1.4980059 -1.8485676 4288085770
2.9617691 -1.8666925 -1.8377322 4288085770
1.5317345 -1.4721651 -1.848617 4288085770
3.0569458 -1.839932 -1.8368653 4288085770
1.5999146 -1.4453402 -1.8476728 4288085770
3.1651077 -1.8141818 -1.8400407 4288085770
1.6810646 -1.4225254 -1.8507863 4288085770
3.2752762 -1.7894526 -1.8402271 4288085770
1.7492447 -1.3957052 -1.848842 4288085770
3.3794594 -1.7617192 -1.8383809 4288085770
1.8314133 -1.3709078 -1.8489482 4288085770
3.5136032 -1.7410264 -1.8426566 4288085770
1.9315529 -1.3511286 -1.8541316 4288085770
3.6207962 -1.7113104 -1.8388089 4288085770
2.0147285 -1.3253436 -1.8522357 4288085770
3.7529564 -1.6876335 -1.8390636 4288085770
2.1158867 -1.3035822 -1.854412 4288085770
3.9021187 -1.6649871 -1.8413723 4288085770
2.2070541 -1.2788124 -1.853544 4288085770
4.0622673 -1.6443677 -1.8437226 4288085770
2.3202057 -1.2580795 -1.8557597 4288085770
4.2503967 -1.6287951 -1.8501791 4288085770
2.423378 -1.2333384 -1.8549262 4288085770
4.4185562 -1.606205 -1.8505423 4288085770
2.5435295 -1.2126222 -1.8571622 4288085770
4.6136971 -1.5886593 -1.8550086 4288085770
2.6587029 -1.1879148 -1.8553631 4288085770
4.7998619 -1.5661178 -1.8544234 4288085770
2.7808685 -1.1652193 -1.8545947 4288085770
4.9810371 -1.541574 -1.8518136 4288085770
2.903038 -1.1415286 -1.852821 4288085770
5.1851997 -1.5200758 -1.8512852 4288085770
3.009243 -1.1128311 -1.8449757 4288085770
5.3973732 -1.4976072 -1.848775 4288085770
3.1484032 -1.0901761 -1.8442559 4288085770
5.6575069 -1.4812179 -1.8534328 4288085770
3.2965698 -1.0675478 -1.8425622 4288085770
5.9166584 -1.4628463 -1.8540777 4288085770
3.4457474 -1.0439277 -1.8398659 4288085770
6.1588402 -1.4384656 -1.8486431 4288085770
3.6089134 -1.0213304 -1.839215 4288085770
6.4629841 -1.4221926 -1.8514276 4288085770
3.7810822 -0.99876499 -1.8365901 4288085770
6.7701397 -1.4029417 -1.8512049 4288085770
3.9812355 -0.97824192 -1.8390554 4288085770
7.0643177 -1.3806863 -1.8459297 4288085770
4.1843872 -0.95773125 -1.8405296 4288085770
7.4424572 -1.3655906 -1.8489316 4288085770
4.3995514 -0.93625879 -1.8400332 4288085770
7.8046265 -1.3454881 -1.8458618 4288085770
4.6417007 -0.91583681 -1.8426191 4288085770
8.2347641 -1.3305235 -1.8480128 4288085770
4.8638725 -0.89239216 -1.8401324 4288085770
8.7048988 -1.3176494 -1.8512888 4288085770
5.130024 -0.87203217 -1.8417875 4288085770
9.2240276 -1.3048887 -1.8557051 4288085770
5.4031925 -0.8496995 -1.8414522 4288085770
9.7951508 -1.2942529 -1.8602812 4288085770
5.7063484 -0.8284297 -1.8432082 4288085770
10.438261 -1.2847748 -1.8680687 4288085770
5.9995289 -0.80416632 -1.8389204 4288085770
11.082415 -1.2693462 -1.8668286 4288085770
6.3067169 -0.77794123 -1.8336623 4288085770
11.744585 -1.2519755 -1.8626299 4288085770
6.6598854 -0.75480652 -1.8325516 4288085770
12.531727 -1.2388849 -1.8628103 4288085770
7.0210724 -0.72871161 -1.8274485 4288085770
13.353897 -1.2219095 -1.8570707 4288085770
7.4372425 -0.70472336 -1.8275135 4288085770
14.327036 -1.2102618 -1.8587898 4288085770
7.9413834 -0.68391609 -1.8338461 4288085770
15.415188 -1.1979113 -1.8568337 4288085770
8.4415531 -0.66012955 -1.834152 4288085770
8.9637318 -0.63340664 -1.8325056 4288085770
9.6038895 -0.60893679 -1.8372082 4288085770
10.258064 -0.58252668 -1.8369405 4288085770
11.019238 -0.55435324 -1.8409697 4288085770
11.810429 -0.52428246 -1.8390747 4288085770
12.729614 -0.4925046 -1.8405366 4288085770
13.74581 -0.45897055 -1.8402666 4288085770
15.069956 -0.42810535 -1.8548905 4288085770
15.437244 3.2989039 -1.8788118 4288085770
15.185596 3.4015112 -1.8795831 4288085770
14.958952 3.5060585 -1.8804158 4288085770
14.820312 3.6204195 -1.8864496 4288085770
14.737696 3.7466657 -1.8965833 4288085770
14.542055 3.8491235 -1.8945144 4288085770
14.478441 3.9753141 -1.9027026 4288085770
14.365826 4.0925875 -1.9037958 4288085770
14.29122 4.216784 -1.9079624 4288085770
14.323637 4.360764 -1.9203348 4288085770
14.336063 4.5037713 -1.9286549 4288085770
14.524544 4.6874361 -1.9532726 4288085770
14.546988 4.8334098 -1.9596065 4288085770
14.558434 4.9793944 -1.9629091 4288085770
14.558886 5.1223907 -1.9631954 4288085770
14.584347 5.271327 -1.9635231 4288085770
14.615826 5.424243 -1.9628482 4288085770
14.653305 5.5771403 -1.9611906 4288085770
14.718805 5.739975 -1.9605628 4288085770
14.867352 5.9276395 -1.9660472 4288085770
15.08794 6.1411552 -1.9766072 4288085770
15.417603 6.3904448 -1.9942985 4288085770
15.015335 -0.13064432 -1.8459383 4288085770
13.542448 -0.13712549 -1.8346992 4288085770
12.326551 -0.14220238 -1.8291987 4288085770
11.267645 -0.14663887 -1.8281502 4288085770
10.357738 -0.14943504 -1.8275259 4288085770
9.4668636 -0.14831209 -1.8199362 4288085770
8.6989822 -0.1474719 -1.8157051 4288085770
15.393585 -0.32964897 -1.8350986 4288085770
7.9841118 -0.14477396 -1.8086178 4288085770
13.887751 -0.31002617 -1.8286284 4288085770
7.3872204 -0.14232635 -1.8088746 4288085770
12.599907 -0.29192924 -1.8227987 4288085770
6.8233395 -0.13897896 -1.8052225 4288085770
11.49205 -0.27524805 -1.8214988 4288085770
6.3154564 -0.13475132 -1.8047283 4288085770
10.548182 -0.26095247 -1.8226871 4288085770
5.829586 -0.12959719 -1.800293 4288085770
9.6533413 -0.24381018 -1.8170031 4288085770
5.4146957 -0.1245842 -1.8020647 4288085770
8.89048 -0.22896242 -1.816714 4288085770
5.0218124 -0.11963511 -1.8019004 4288085770
8.1506424 -0.21321011 -1.8084865 4288085770
4.6809196 -0.11379147 -1.8058828 4288085770
7.5247803 -0.19869184 -1.8085967 4288085770
4.3360367 -0.10795784 -1.8058531 4288085770
6.9389305 -0.18429661 -1.8038235 4288085770
4.0211601 -0.10120153 -1.804906 4288085770
6.4250679 -0.17105484 -1.8032651 4288085770
3.7322845 -0.094499111 -1.8060347 4288085770
5.9272232 -0.15687704 -1.7977481 4288085770
3.4444122 -0.086817741 -1.803161 4288085770
5.5213451 -0.14487648 -1.80151 4288085770
3.1965256 -0.079204082 -1.8064039 4288085770
5.1294746 -0.13192463 -1.8023075 4288085770
2.9556465 -0.07161665 -1.8076671 4288085770
4.7766037 -0.12005663 -1.8052236 4288085770
2.7187729 -0.064053535 -1.8059422 4288085770
4.4327393 -0.10722542 -1.805161 4288085770
2.5158882 -0.056553364 -1.8083162 4288085770
4.1008835 -0.093438625 -1.8021283 4288085770
2.3120155 -0.048060417 -1.8086822 4288085770
3.8000259 -0.080721855 -1.8001908 4288085770
2.1141472 -0.039587498 -1.8080657 4288085770
3.5131721 -0.068038464 -1.7982942 4288085770
1.9442635 -0.031161785 -1.8115308 4288085770
3.2732887 -0.056438446 -1.8025398 4288085770
1.7783813 -0.022750854 -1.8140076 4288085770
3.021431 -0.043839931 -1.8007454 4288085770
1.6055107 -0.013342857 -1.812459 4288085770
2.8105545 -0.032315254 -1.8040755 4288085770
1.4386482 -0.0039548874 -1.8099275 4288085770
2.5846939 -0.019779205 -1.8023567 4288085770
1.2967682 0.0053987503 -1.8124691 4288085770
2.4048119 -0.0083198547 -1.8077774 4288085770
1.1708794 0.013728142 -1.8180628 4288085770
2.2139435 0.00314188 -1.8081658 4288085770
1.0270157 0.024060726 -1.8155932 4288085770
2.0230865 0.016592979 -1.8065441 4288085770
0.90013885 0.033372402 -1.8171786 4288085770
1.8512154 0.028008461 -1.8069879 4288085770
0.77926636 0.042669773 -1.8187814 4288085770
1.6893539 0.040399551 -1.8074559 4288085770
0.64840698 0.052966595 -1.8153497 4288085770
1.5344849 0.052773952 -1.8079441 4288085770
1.3776283 0.06513834 -1.8054265 4288085770
1.2397575 0.077476501 -1.8069644 4288085770
1.1088905 0.088798046 -1.8085277 4288085770
0.98402405 0.10109997 -1.8091034 4288085770
0.86515427 0.11339211 -1.810697 4288085770
0.74929428 0.12566757 -1.810299 4288085770
0.64142227 0.13793302 -1.8119243 4288085770
0.58412552 2.1365221 -1.7970799 4288085770
0.68930435 2.1632535 -1.795264 4288085770
0.80448914 2.192966 -1.7944634 4288085770
0.94166565 2.2286549 -1.7996991 4288085770
1.0578423 2.2553549 -1.7969165 4288085770
1.1950226 2.2880292 -1.7991674 4288085770
1.3282089 2.3186975 -1.7984163 4288085770
1.4543953 2.3443632 -1.7936692 4288085770
0.58776474 2.0734997 -1.8014239 4288085770
1.6085815 2.3789964 -1.7959617 4288085770
0.70392609 2.0962148 -1.8016613 4288085770
1.7687645 2.4136147 -1.7982725 4288085770
0.81108856 2.1139317 -1.7978966 4288085770
1.9149551 2.4422326 -1.7935712 4288085770
0.948246 2.1416206 -1.8031726 4288085770
2.0801392 2.474829 -1.7939074 4288085770
1.0594025 2.1573277 -1.7994303 4288085770
2.2493248 2.5074108 -1.7932554 4288085770
1.190567 2.1800065 -1.7997134 4288085770
2.4425201 2.5459547 -1.7966464 4288085770
1.3407211 2.2066641 -1.8050338 4288085770
2.6137123 2.5755119 -1.7920161 4288085770
1.4978752 2.2343049 -1.8103704 4288085770
2.8469086 2.6229839 -1.800483 4288085770
1.5920372 2.237999 -1.7956375 4288085770
3.0521011 2.658484 -1.8009256 4288085770
1.7502022 2.2626224 -1.7979923 4288085770
3.2642975 2.6939569 -1.7993896 4288085770
1.9113579 2.2862387 -1.8003615 4288085770
3.4784966 2.7274203 -1.7968698 4288085770
2.0575142 2.3028662 -1.7977207 4288085770
3.7106934 2.7638502 -1.7963895 4288085770
2.2266731 2.3244534 -1.7981243 4288085770
3.9578934 2.8032486 -1.7969395 4288085770
2.3888283 2.3430471 -1.7965219 4288085770
4.2120972 2.8406258 -1.7965212 4288085770
2.5839882 2.3685913 -1.8009844 4288085770
4.4833031 2.879961 -1.7961444 4288085770
2.7631416 2.3871446 -1.7994337 4288085770
4.7765083 2.9232535 -1.7978144 4288085770
2.9682922 2.4096596 -1.8029416 4288085770
5.0737228 2.963522 -1.7965114 4288085770
3.1534538 2.4261885 -1.7994194 4288085770
5.4059353 3.0117302 -1.8002748 4288085770
3.3536072 2.4436955 -1.7989376 4288085770
5.7271442 3.0519402 -1.7990452 4288085770
3.5687637 2.463172 -1.7994914 4288085770
6.1053638 3.1030374 -1.8029332 4288085770
3.7759132 2.4766476 -1.7960513 4288085770
6.4915848 3.1521106 -1.8058555 4288085770
