# .PCD v0.7 - Point Cloud Data file format
VERSION 0.7
FIELDS x y z rgb
SIZE 4 4 4 4
TYPE F F F U
COUNT 1 1 1 1
WIDTH 1124
HEIGHT 1
VIEWPOINT 0 0 0 1 0 0 0
POINTS 1124
DATA ascii
7.5402641 -0.34424114 -1.7874413 4288085770
9.5253525 -0.41366267 -1.7755053 4288085770
7.2773705 -0.33732224 -1.7861668 4288085770
9.1704521 -0.40277219 -1.7821354 4288085770
7.0594673 -0.33139181 -1.7919394 4288085770
8.813549 -0.38988113 -1.7827634 4288085770
6.8275757 -0.32346416 -1.7906976 4288085770
8.4596558 -0.37698889 -1.7793947 4288085770
6.6326675 -0.31752658 -1.7964942 4288085770
8.1307564 -0.36408949 -1.7760522 4288085770
6.4177742 -0.30859375 -1.7932703 4288085770
7.8668556 -0.35317183 -1.7807775 4288085770
6.2388725 -0.30165124 -1.7970839 4288085770
7.6029549 -0.34125376 -1.7825028 4288085770
6.0589752 -0.29270887 -1.7978965 4288085770
7.3470535 -0.32933354 -1.7832366 4288085770
5.8890762 -0.28476334 -1.7987196 4288085770
7.1151581 -0.31740642 -1.7849954 4288085770
5.7271805 -0.27681565 -1.7995511 4288085770
6.8952522 -0.30547571 -1.7867668 4288085770
5.5602798 -0.26686883 -1.7973777 4288085770
6.687355 -0.29354143 -1.7885506 4288085770
5.4103851 -0.2579174 -1.7972218 4288085770
6.4884529 -0.28160429 -1.789344 4288085770
5.2654839 -0.24896455 -1.7970712 4288085770
6.297554 -0.269665 -1.7891458 4288085770
5.1455879 -0.24000502 -1.8019469 4288085770
6.1366501 -0.25771761 -1.7949789 4288085770
5.0056877 -0.23005033 -1.7988017 4288085770
5.952755 -0.24577546 -1.791788 4288085770
5.7798615 -0.23283052 -1.7886088 4288085770
5.6409569 -0.22187638 -1.7934647 4288085770
5.48806 -0.20892572 -1.7913065 4288085770
5.3331642 -0.19597507 -1.7871459 4288085770
5.2182655 -0.18501449 -1.793027 4288085770
5.0963631 -0.17305493 -1.7949009 4288085770
5.065403 1.9043388 -1.7610393 4288085770
5.2004929 1.9343727 -1.7631813 4288085770
5.352581 1.9694111 -1.7693413 4288085770
5.5216713 2.0084543 -1.7775196 4288085770
5.6657677 2.0384912 -1.7776707 4288085770
5.7868767 2.0575225 -1.7687968 4288085770
5.9339752 2.0855606 -1.7659506 4288085770
6.0790787 2.1105983 -1.761102 4288085770
5.1022034 1.8263099 -1.7700597 4288085770
6.2431717 2.1396413 -1.7602735 4288085770
5.2373009 1.848344 -1.7722005 4288085770
6.450264 2.1796954 -1.7684906 4288085770
5.3973846 1.8763844 -1.7813678 4288085770
6.633358 2.2117436 -1.767682 4288085770
5.5474854 1.9004226 -1.7845242 4288085770
6.8274574 2.2437949 -1.7678845 4288085770
5.6725883 1.9144545 -1.7796537 4288085770
7.048542 2.2828536 -1.7721157 4288085770
5.7946968 1.9254858 -1.7717797 4288085770
7.2366486 2.3089039 -1.7663113 4288085770
5.9118118 1.934516 -1.7629001 4288085770
7.4587402 2.3429637 -1.7675428 4288085770
6.0899048 1.9595621 -1.7680855 4288085770
7.6858406 2.3770247 -1.7657796 4288085770
6.2130203 1.9665942 -1.7572119 4288085770
7.9219322 2.4100883 -1.7650251 4288085770
6.4330978 2.0006516 -1.7714415 4288085770
8.1810303 2.4461589 -1.7652948 4288085770
6.6051979 2.0176966 -1.7706194 4288085770
8.450119 2.4832318 -1.7655748 4288085770
6.7972984 2.0377474 -1.7718183 4288085770
8.719223 2.5173054 -1.7628543 4288085770
6.9973946 2.0588002 -1.7740256 4288085770
9.0343132 2.5593915 -1.7661821 4288085770
7.1775017 2.0718479 -1.7702111 4288085770
9.3823929 2.6074872 -1.7735444 4288085770
7.3985939 2.092907 -1.7734396 4288085770
9.7834702 2.6655972 -1.7859626 4288085770
7.6136971 2.1099644 -1.7736617 4288085770
10.223545 2.7287188 -1.8004211 4288085770
7.8297958 2.1250222 -1.7728845 4288085770
10.73061 2.8028584 -1.8219501 4288085770
8.0279083 2.1330757 -1.7650877 4288085770
11.251671 2.8760026 -1.840493 4288085770
8.3040009 2.15715 -1.7723732 4288085770
11.691757 2.9241254 -1.8429494 4288085770
8.5511055 2.171217 -1.7716274 4288085770
12.080868 2.9542346 -1.8323511 4288085770
8.8192024 2.1872897 -1.7729033 4288085770
12.574959 3.0043733 -1.8348631 4288085770
9.1002998 2.2033663 -1.7751926 4288085770
13.071053 3.0485129 -1.8333762 4288085770
9.3514099 2.209435 -1.7694499 4288085770
13.428177 3.0566144 -1.8097421 4288085770
9.6835022 2.2295256 -1.775792 4288085770
13.806301 3.0647223 -1.7851295 4288085770
10.017597 2.2456174 -1.7791356 4288085770
14.262421 3.0848522 -1.7675982 4288085770
10.401688 2.2687232 -1.7885313 4288085770
14.837524 3.1230154 -1.7601914 4288085770
10.843769 2.2978446 -1.8049873 4288085770
15.500618 3.1722035 -1.7588761 4288085770
11.334846 2.33198 -1.8244939 4288085770
16.252705 3.2294171 -1.7596529 4288085770
11.721947 2.3390875 -1.8248905 4288085770
16.997803 3.2766292 -1.7564212 4288085770
12.027065 2.3281727 -1.8122004 4288085770
17.841896 3.3328702 -1.7552919 4288085770
12.384186 2.3212729 -1.8035644 4288085770
18.747986 3.3901286 -1.7542264 4288085770
12.883274 2.3354118 -1.8120764 4288085770
19.744072 3.4504135 -1.7532532 4288085770
13.243401 2.3185132 -1.7984419 4288085770
13.527546 2.2855937 -1.7737274 4288085770
13.892673 2.2616968 -1.7580971 4288085770
14.262806 2.2328014 -1.7404711 4288085770
14.735916 2.2159348 -1.7339523 4288085770
15.259033 2.1990824 -1.7294846 4288085770
15.820148 2.1802409 -1.7260554 4288085770
16.424259 2.1604118 -1.7246702 4288085770
17.050377 2.1345892 -1.7213066 4288085770
17.730492 2.1067827 -1.7199982 4288085770
18.479607 2.078995 -1.7217602 4288085770
19.284714 2.0442243 -1.7225785 4288085770
15.244682 -7.8064137 -1.7520794 4293729569
14.758728 -7.6615629 -1.7705995 4293729569
14.147766 -7.4437447 -1.7720016 4288085770
13.015797 -6.9430723 -1.7029097 4288085770
12.38884 -6.6962585 -1.6912999 4288085770
11.877892 -6.5024118 -1.6888019 4288085770
11.384945 -6.3105602 -1.6853218 4293729569
10.948002 -6.1416931 -1.6868961 4293729569
9.4940567 -5.4031019 -1.5275086 4293729569
9.4966125 -5.4090471 -1.0285088 4293729569
9.4531174 -5.4381256 -1.5774603 4293729569
9.4456711 -5.433073 -1.0774516 4293729569
9.4251823 -5.4771442 -1.6304245 4293729569
9.4157333 -5.4670935 -1.1294143 4293729569
9.3082466 -5.465189 -1.6683047 4293729569
9.4118004 -5.5141068 -1.184402 4293729569
9.0273132 -5.3552771 -1.677031 4293729569
9.4098625 -5.5611181 -1.2413915 4293729569
8.7443771 -5.240366 -1.6827557 4293729569
12.217022 -7.2343588 -1.6640278 4293729569
8.4434433 -5.1104584 -1.6824642 4293729569
11.677052 -6.9765215 -1.6655091 4293729569
8.1385117 -4.9735518 -1.6791697 4293729569
11.159088 -6.724678 -1.6640121 4293729569
7.9255791 -4.8866205 -1.6899625 4293729569
10.672127 -6.4848242 -1.6625454 4293729569
7.7136497 -4.7976885 -1.6997565 4293729569
10.257168 -6.281951 -1.6661472 4293729569
7.4967232 -4.7027578 -1.7055465 4293729569
9.8602142 -6.0840721 -1.668767 4293729569
7.4027901 -4.6787939 -1.7364521 4293729569
9.4612617 -5.8801928 -1.6653854 4293729569
7.3418579 -4.6718216 -1.774389 4288085770
9.1273155 -5.7112951 -1.6690655 4293729569
7.2889214 -4.6698465 -1.8133334 4288085770
8.8053665 -5.5453939 -1.6717576 4293729569
7.2219849 -4.6558762 -1.8482654 4288085770
8.4894218 -5.3784904 -1.6714561 4293729569
7.1000519 -4.6059189 -1.8701459 4282675967
8.1614876 -5.2015905 -1.6651437 4293729569
6.911129 -4.5109797 -1.8729645 4282675967
7.9135475 -5.0706692 -1.6709068 4293729569
6.698204 -4.3990459 -1.866761 4288085770
7.7256088 -4.9727306 -1.6857265 4293729569
6.4992867 -4.2921095 -1.862571 4288085770
7.5016747 -4.849802 -1.6905131 4293729569
6.3143654 -4.1921682 -1.8593944 4288085770
7.2877426 -4.7308702 -1.6943092 4293729569
6.1404457 -4.0962229 -1.8562286 4288085770
7.1768074 -4.6739101 -1.7192019 4293729569
5.9955292 -4.0162716 -1.8590901 4288085770
7.1438675 -4.6629295 -1.7591678 4293729569
5.8396072 -3.9283206 -1.8569417 4288085770
7.1289253 -4.6619444 -1.8041505 4288085770
5.6896896 -3.8413699 -1.8537991 4288085770
7.1109886 -4.6569605 -1.8471307 4288085770
5.5517731 -3.7594154 -1.852668 4288085770
6.9940529 -4.5880022 -1.8660189 4288085770
5.4218597 -3.6814582 -1.8525448 4288085770
6.8181229 -4.4790592 -1.8668526 4288085770
5.2979431 -3.6054995 -1.8514274 4288085770
6.6282043 -4.3601189 -1.8616735 4288085770
5.1710281 -3.5255411 -1.8483075 4288085770
6.4512787 -4.2471743 -1.8575071 4288085770
5.0611115 -3.4555786 -1.8482037 4288085770
6.284359 -4.1382284 -1.8533499 4288085770
6.1344376 -4.0382767 -1.8512092 4288085770
6.0045128 -3.9493201 -1.8530871 4288085770
5.8745918 -3.8603632 -1.8519653 4288085770
5.7346764 -3.7634079 -1.8458344 4288085770
5.6167564 -3.678447 -1.8447241 4288085770
5.5028419 -3.5954864 -1.8426178 4288085770
5.4069214 -3.5215199 -1.8445284 4288085770
5.3070107 -3.4445541 -1.8424355 4288085770
5.2080956 -3.3675873 -1.8393437 4288085770
5.1181831 -3.2956192 -1.8372604 4288085770
5.0212746 -3.2176516 -1.8311708 4288085770
5.0235214 -1.2669499 -1.8073081 4288085770
5.0976143 -1.248934 -1.8093816 4288085770
5.1417198 -1.224926 -1.8004265 4288085770
5.2258186 -1.2079079 -1.8035096 4288085770
5.3089218 -1.1908894 -1.8045917 4288085770
5.3840218 -1.1718736 -1.8026662 4288085770
5.4691238 -1.1538541 -1.8027502 4288085770
5.5532227 -1.1368356 -1.8008333 4288085770
5.643322 -1.1188149 -1.7999223 4288085770
5.758419 -1.1047883 -1.8050355 4288085770
5.848526 -1.0857673 -1.8011246 4288085770
5.9466286 -1.0677443 -1.7982212 4288085770
6.0597267 -1.0517175 -1.7983323 4288085770
6.1778297 -1.0346889 -1.7974485 4288085770
5.0698242 -0.84101009 -1.799382 4288085770
6.2909355 -1.0176618 -1.7945596 4288085770
5.1709213 -0.82698679 -1.8024812 4288085770
6.4200325 -1.0016301 -1.7936865 4288085770
5.2610283 -0.80996609 -1.7995701 4288085770
6.5411377 -0.98360038 -1.7888055 4288085770
5.3601303 -0.79394293 -1.7986677 4288085770
6.7032356 -0.97056007 -1.7929641 4288085770
5.4562302 -0.77692056 -1.7957623 4288085770
6.8473396 -0.95452404 -1.7911054 4288085770
5.5743332 -0.76289248 -1.7968781 4288085770
7.0034409 -0.93948436 -1.7892582 4288085770
5.6984329 -0.74886274 -1.7989997 4288085770
7.1665459 -0.92344308 -1.7874181 4288085770
5.81353 -0.73283482 -1.7971127 4288085770
7.3386497 -0.90839911 -1.7855864 4288085770
5.9466324 -0.71780205 -1.7982432 4288085770
7.5427475 -0.89634657 -1.7887857 4288085770
6.0847359 -0.70376801 -1.7983783 4288085770
7.7518463 -0.88329244 -1.7899901 4288085770
6.2118378 -0.68773699 -1.794503 4288085770
7.9409523 -0.86624312 -1.785175 4288085770
6.3729401 -0.67369676 -1.7966605 4288085770
8.162056 -0.85118508 -1.782391 4288085770
6.5240402 -0.6586585 -1.7948083 4288085770
8.3911591 -0.83612466 -1.7796147 4288085770
6.6701508 -0.64162183 -1.7889514 4288085770
8.6412659 -0.8220582 -1.7768587 4288085770
6.854248 -0.62757468 -1.7911311 4288085770
8.9253654 -0.80898237 -1.7781359 4288085770
7.0463486 -0.61352563 -1.7923188 4288085770
9.2134705 -0.79490566 -1.7764169 4288085770
7.2584457 -0.6004703 -1.7955257 4288085770
9.5055771 -0.78082705 -1.7717017 4288085770
7.4335556 -0.58342505 -1.787697 4288085770
9.837677 -0.76673722 -1.7700254 4288085770
7.6506577 -0.5683682 -1.7869089 4288085770
10.203785 -0.75463796 -1.769382 4288085770
7.8707619 -0.55231071 -1.7841237 4288085770
10.591885 -0.74153233 -1.7677602 4288085770
8.1208611 -0.53824425 -1.7833676 4288085770
11.005989 -0.7274189 -1.7651637 4288085770
8.3779678 -0.52317595 -1.7806181 4288085770
11.500092 -0.71728349 -1.7676444 4288085770
8.6440697 -0.50710535 -1.7778776 4288085770
12.02219 -0.70614004 -1.7691526 4288085770
9.0281563 -0.49700284 -1.7922513 4288085770
12.5023 -0.69000745 -1.7586199 4288085770
9.286274 -0.47893286 -1.779503 4288085770
13.095409 -0.67784286 -1.7551969 4288085770
9.6033783 -0.46184731 -1.7728119 4288085770
13.727516 -0.6636672 -1.749812 4288085770
9.9934769 -0.44774151 -1.7751914 4288085770
14.383629 -0.64848328 -1.7374502 4288085770
10.366589 -0.43063951 -1.7685547 4288085770
15.197731 -0.63625598 -1.734242 4288085770
10.832684 -0.41651225 -1.771008 4288085770
16.047844 -0.62201738 -1.7240686 4288085770
11.344784 -0.40137196 -1.7745062 4288085770
17.104946 -0.6117208 -1.7230964 4288085770
11.918877 -0.38621378 -1.7800646 4288085770
18.26506 -0.60039425 -1.7182239 4288085770
12.41399 -0.3670764 -1.7665461 4288085770
19.637161 -0.58900714 -1.7135577 4288085770
13.003098 -0.34891272 -1.7591189 4288085770
13.696201 -0.33072019 -1.7557929 4288085770
14.388317 -0.31052637 -1.7434654 4288085770
15.261417 -0.2912817 -1.740314 4288085770
16.226521 -0.27101135 -1.7362517 4288085770
17.352627 -0.24969506 -1.7323459 4288085770
18.600731 -0.22734308 -1.7245582 4288085770
18.414215 -0.00097060204 -1.711907 4288085770
17.15731 0.00067663193 -1.7219032 4288085770
16.021412 0.0043568611 -1.7259964 4288085770
15.022507 0.0090756416 -1.7321988 4288085770
14.193604 0.013840914 -1.7415366 4288085770
13.478699 0.019637585 -1.7549657 4288085770
12.745804 0.025429487 -1.7563806 4288085770
18.737885 0.051082373 -1.7061192 4288085770
12.181892 0.032268286 -1.7699298 4288085770
17.438988 0.061717987 -1.7150855 4288085770
11.633991 0.040110826 -1.7794923 4288085770
16.276085 0.07239151 -1.7191602 4288085770
11.053097 0.045945406 -1.7750288 4288085770
15.273182 0.083108902 -1.7263619 4288085770
10.613194 0.053818703 -1.7846774 4288085770
14.369278 0.092853785 -1.7306427 4288085770
10.137295 0.062681913 -1.7842977 4288085770
13.65937 0.10465217 -1.7450774 4288085770
9.6864014 0.070552349 -1.7799382 4288085770
12.915474 0.11444139 -1.7464854 4288085770
9.2655106 0.079431057 -1.7746028 4288085770
12.322567 0.12627196 -1.7580134 4288085770
8.9366035 0.088335037 -1.7813402 4288085770
11.819653 0.1371274 -1.7726126 4288085770
8.6636963 0.097253799 -1.7931218 4288085770
11.28075 0.1479733 -1.7761838 4288085770
8.2878075 0.10614538 -1.7808225 4288085770
10.771854 0.15882778 -1.7757792 4288085770
8.0399094 0.1150713 -1.7906244 4288085770
10.310955 0.16969514 -1.7764124 4288085770
7.7860031 0.12499595 -1.7944216 4288085770
9.9310493 0.18158484 -1.78511 4288085770
7.5171089 0.13391662 -1.7932073 4288085770
9.462162 0.19145083 -1.7717375 4288085770
7.2822113 0.14384651 -1.7940198 4288085770
9.1122627 0.20234895 -1.7744591 4288085770
7.0403175 0.1537745 -1.7908272 4288085770
8.8003654 0.21425724 -1.7792108 4288085770
6.8524132 0.16371751 -1.7976769 4288085770
8.5084572 0.22617149 -1.7839785 4288085770
6.6505203 0.17365646 -1.797516 4288085770
8.1875687 0.23607802 -1.7787236 4288085770
6.4686203 0.18460083 -1.8003709 4288085770
7.9666634 0.24901128 -1.7905474 4288085770
6.2797203 0.1945436 -1.7982203 4288085770
7.6937675 0.25993109 -1.7863305 4288085770
6.1168251 0.20449352 -1.8010902 4288085770
7.4658661 0.27186298 -1.789149 4288085770
5.96492 0.21544647 -1.8039689 4288085770
7.2169724 0.28278899 -1.7849514 4288085770
5.8040237 0.22639704 -1.8028408 4288085770
7.0200729 0.29472947 -1.7897946 4288085770
5.6661263 0.23735356 -1.8057308 4288085770
6.8371658 0.30667377 -1.7936488 4288085770
5.5172272 0.24730754 -1.8036121 4288085770
6.6492691 0.31861663 -1.7944995 4288085770
5.377327 0.25826383 -1.8025008 4288085770
6.4733696 0.33056307 -1.7953595 4288085770
5.2634315 0.26922727 -1.8064098 4288085770
6.2984734 0.34150982 -1.7942206 4288085770
5.1305389 0.28018546 -1.802304 4288085770
6.1455727 0.35446215 -1.7970989 4288085770
5.0306358 0.29215264 -1.8072242 4288085770
5.9986725 0.36641669 -1.797982 4288085770
5.84478 0.37736917 -1.7958596 4288085770
5.6928864 0.38932228 -1.791739 4288085770
5.5679817 0.40128255 -1.7936395 4288085770
5.4490852 0.41424429 -1.7965449 4288085770
5.3371887 0.42720866 -1.7984557 4288085770
5.2142868 0.43916953 -1.7963582 4288085770
5.1053886 0.45213425 -1.7962714 4288085770
5.0034943 0.46410108 -1.7971904 4288085770
5.0698776 2.753624 -1.805081 4288085770
5.182972 2.8006494 -1.8041635 4288085770
5.302063 2.8486767 -1.8032501 4288085770
5.4021645 2.8866992 -1.7953221 4288085770
5.550251 2.9467342 -1.8004303 4288085770
5.7113304 3.0107727 -1.8075483 4288085770
5.8854103 3.0798147 -1.8156756 4288085770
6.0025139 3.1188419 -1.8057599 4288085770
6.1296158 3.1608715 -1.7978517 4288085770
5.0847969 2.6965845 -1.7980657 4288085770
6.2867088 3.2149091 -1.7959656 4288085770
5.2408791 2.7526214 -1.8091795 4288085770
6.446804 3.2689474 -1.7930815 4288085770
5.346981 2.7826452 -1.8022556 4288085770
6.6328888 3.3339927 -1.7952172 4288085770
5.4770737 2.8216758 -1.8013496 4288085770
6.7919846 3.3830309 -1.788332 4288085770
5.6111755 2.861707 -1.8004463 4288085770
7.0030708 3.4540834 -1.7914855 4288085770
5.7812538 2.9167478 -1.8085697 4288085770
7.1991577 3.5161316 -1.7896278 4288085770
5.9273529 2.9577823 -1.8086753 4288085770
7.4452362 3.5991929 -1.7978071 4288085770
6.0604553 2.9908135 -1.8027707 4288085770
7.7223091 3.691263 -1.8090092 4288085770
6.20755 3.0288484 -1.7988763 4288085770
8.0123825 3.788336 -1.8212206 4288085770
6.323658 3.049875 -1.7869588 4288085770
8.2294769 3.8473902 -1.8133773 4288085770
6.517746 3.1039224 -1.7930992 4288085770
8.4955635 3.9254575 -1.8145703 4288085770
6.6768456 3.1409609 -1.7892133 4288085770
8.783638 4.0105305 -1.8167793 4288085770
6.8279457 3.1719971 -1.7813213 4288085770
9.0867157 4.0976076 -1.8199993 4288085770
7.0020409 3.2110391 -1.7774463 4288085770
9.4527855 4.2077017 -1.8312654 4288085770
7.2041321 3.2580891 -1.7795917 4288085770
9.8648453 4.3338084 -1.8475654 4288085770
7.4272194 3.3121443 -1.7847524 4288085770
10.316898 4.4699249 -1.8668946 4288085770
7.6663017 3.370204 -1.7909249 4288085770
10.768959 4.6020422 -1.8822232 4288085770
7.9563789 3.4462771 -1.8061348 4288085770
11.14904 4.6981406 -1.8814977 4288085770
8.2154617 3.5053422 -1.8123214 4288085770
11.566113 4.8032494 -1.8827995 4288085770
8.4755516 3.5614076 -1.8165084 4288085770
11.961201 4.8953514 -1.8780842 4288085770
8.7676315 3.6264815 -1.8247186 4288085770
12.332294 4.971447 -1.8663507 4288085770
9.0217247 3.6735454 -1.8239006 4288085770
12.720387 5.0495477 -1.8526293 4288085770
9.2818222 3.7176108 -1.8220867 4288085770
13.143475 5.1376572 -1.8429335 4288085770
9.6169052 3.7876966 -1.8313276 4288085770
13.57457 5.2207699 -1.8312429 4288085770
9.9019966 3.8347688 -1.8305314 4288085770
14.107647 5.3359094 -1.8286269 4288085770
10.352058 3.9378853 -1.8558563 4288085770
14.716713 5.4710693 -1.8300662 4288085770
10.791122 4.0319986 -1.8761727 4282675967
15.2668 5.5772133 -1.8214614 4288085770
11.180202 4.101099 -1.8844516 4282675967
15.940865 5.7213912 -1.8229469 4288085770
11.494297 4.1391792 -1.8786752 4282675967
16.70892 5.8865948 -1.8295013 4288085770
11.8074 4.1722598 -1.8708975 4288085770
17.541969 6.0628157 -1.8361018 4288085770
12.125507 4.2013407 -1.8611231 4288085770
18.365036 6.2270336 -1.8366942 4288085770
12.477604 4.2384315 -1.8563732 4288085770
19.213097 6.3862591 -1.8353038 4288085770
12.815712 4.2655177 -1.8466126 4288085770
13.152817 4.2886047 -1.8358511 4288085770
13.490929 4.3056912 -1.8230896 4288085770
13.853035 4.3257842 -1.8113452 4288085770
14.256142 4.353889 -1.8046306 4288085770
14.680244 4.381999 -1.7989306 4288085770
15.134346 4.4131165 -1.7942522 4288085770
15.632439 4.4492464 -1.792605 4288085770
16.163536 4.4883857 -1.7929814 4288085770
16.662643 4.5115156 -1.7873341 4288085770
17.197746 4.5346556 -1.7837119 4288085770
17.795845 4.5668125 -1.7831351 4288085770
18.401939 4.5939717 -1.7825633 4288085770
19.086029 4.6301522 -1.7870473 4288085770
19.754128 4.6533279 -1.7875189 4288085770
19.48558 -4.3951025 -1.7275815 4288085770
18.850685 -4.3832788 -1.7291354 4288085770
18.265785 -4.3734426 -1.7337241 4288085770
17.69088 -4.3576031 -1.7373202 4288085770
17.136978 -4.3377581 -1.7399313 4288085770
16.639072 -4.3258991 -1.7475816 4288085770
16.14217 -4.3070383 -1.753233 4288085770
15.668266 -4.2871714 -1.7609003 4288085770
15.22736 -4.2702951 -1.7685909 4288085770
14.787453 -4.2464209 -1.7742828 4288085770
14.241547 -4.186573 -1.7669026 4288085770
13.76564 -4.1397066 -1.7655709 4288085770
13.322735 -4.0958319 -1.7652619 4288085770
12.958832 -4.0709352 -1.7730074 4288085770
19.847496 -6.2730789 -1.7556932 4288085770
12.550922 -4.0280504 -1.773723 4288085770
18.650551 -6.0164061 -1.7318691 4288085770
12.160015 -3.9831617 -1.7744509 4288085770
17.84861 -5.8726292 -1.7373147 4288085770
11.777107 -3.93627 -1.7741843 4288085770
17.154671 -5.7538214 -1.7468344 4288085770
11.443199 -3.8993657 -1.7789518 4288085770
16.508739 -5.6430016 -1.7583877 4288085770
11.11729 -3.861459 -1.7827247 4288085770
15.892803 -5.5331726 -1.7699616 4288085770
10.787384 -3.8175533 -1.7844955 4288085770
15.292877 -5.4203396 -1.777547 4288085770
10.485477 -3.77964 -1.7892853 4288085770
14.705948 -5.3045034 -1.7821419 4288085770
10.21257 -3.7467191 -1.7960953 4288085770
14.100018 -5.1736727 -1.7807244 4288085770
9.9226608 -3.7048018 -1.7988939 4288085770
13.577091 -5.0658188 -1.7863637 4288085770
9.6477509 -3.6648819 -1.8027029 4288085770
13.094166 -4.9659548 -1.7920306 4288085770
9.3808441 -3.6219594 -1.8065177 4288085770
12.625237 -4.8650866 -1.7977074 4288085770
9.1319389 -3.5840318 -1.8103448 4288085770
12.153316 -4.7552195 -1.7973827 4288085770
8.888031 -3.5431025 -1.8141758 4288085770
11.680393 -4.6393518 -1.7930578 4288085770
8.651123 -3.5031717 -1.8180115 4288085770
11.25547 -4.5374718 -1.7937654 4288085770
8.4032097 -3.4552438 -1.8178402 4288085770
10.845547 -4.4345865 -1.7914839 4288085770
8.1953049 -3.4193056 -1.8246958 4288085770
10.516624 -4.3606815 -1.8002573 4288085770
7.9753952 -3.3753693 -1.8255439 4288085770
10.202709 -4.2887716 -1.8080407 4288085770
7.7614861 -3.332433 -1.8283958 4288085770
9.8547897 -4.1968708 -1.807802 4288085770
7.5535812 -3.286494 -1.8282523 4288085770
9.5538712 -4.1209564 -1.8115951 4288085770
7.3436737 -3.2385557 -1.8271075 4288085770
9.2739525 -4.0500374 -1.8174024 4288085770
7.1447678 -3.1926148 -1.8269702 4288085770
8.9950371 -3.9761178 -1.8222107 4288085770
6.955864 -3.147671 -1.8268402 4288085770
8.7101173 -3.8952 -1.8210154 4288085770
6.7839546 -3.107722 -1.8297213 4288085770
8.4652061 -3.8292716 -1.825847 4288085770
6.614048 -3.0667727 -1.8316041 4288085770
8.2132912 -3.757345 -1.8276743 4288085770
6.4401436 -3.0208256 -1.8304845 4288085770
7.9853783 -3.6914113 -1.8315177 4288085770
6.2642403 -2.9728777 -1.8273635 4288085770
7.7504616 -3.6204798 -1.8313569 4288085770
6.1153259 -2.9329226 -1.8302609 4288085770
7.5085487 -3.5435503 -1.8281913 4288085770
5.9564285 -2.8879712 -1.8291516 4288085770
7.3266373 -3.4906042 -1.8360661 4288085770
5.8145218 -2.8480146 -1.830054 4288085770
7.1127281 -3.4206674 -1.8329198 4288085770
5.6636162 -2.8030608 -1.8279504 4288085770
6.9228134 -3.3587239 -1.8347898 4288085770
5.5277061 -2.761102 -1.8278569 4288085770
6.7198944 -3.2887833 -1.8316513 4288085770
5.3987999 -2.7221415 -1.8287683 4288085770
6.5439873 -3.2298357 -1.8315308 4288085770
5.2698936 -2.6811817 -1.8286798 4288085770
6.3780746 -3.1718862 -1.8334172 4288085770
5.1409874 -2.6382215 -1.8255913 4288085770
6.1961632 -3.1059401 -1.8282931 4288085770
5.0210838 -2.5982592 -1.8255091 4288085770
6.0412521 -3.0489876 -1.829187 4288085770
5.8973465 -2.9970305 -1.8310885 4288085770
5.7434387 -2.9370773 -1.8269836 4288085770
5.6055298 -2.8841193 -1.8278891 4288085770
5.4666214 -2.8291624 -1.8257943 4288085770
5.3407135 -2.7782009 -1.8257083 4288085770
5.217804 -2.7282393 -1.8246244 4288085770
5.0998993 -2.6782768 -1.8245437 4288085770
5.0572968 -0.37678242 -1.7923789 4288085770
5.1663971 -0.36475873 -1.7944474 4288085770
5.2645035 -0.35173845 -1.790509 4288085770
5.3866005 -0.33971167 -1.7915857 4288085770
5.5047035 -0.32668591 -1.7906598 4288085770
5.6338043 -0.31465721 -1.7917408 4288085770
5.7559052 -0.30163002 -1.7878176 4288085770
5.9010086 -0.28959727 -1.7889088 4288085770
6.048111 -0.27756405 -1.7890013 4288085770
5.0821381 -0.20582056 -1.8003814 4288085770
6.1982117 -0.26552987 -1.7870954 4288085770
5.1912384 -0.19379711 -1.7974496 4288085770
6.3673134 -0.25349092 -1.788202 4288085770
5.3153381 -0.18276978 -1.7975277 4288085770
6.5324173 -0.24145293 -1.7863058 4288085770
5.4474449 -0.17174053 -1.7976104 4288085770
6.715519 -0.2304101 -1.7864211 4288085770
5.5765495 -0.16171217 -1.7966915 4288085770
6.9006271 -0.21836734 -1.7845374 4288085770
5.7186546 -0.15068007 -1.7957805 4288085770
7.1047287 -0.20631909 -1.7846659 4288085770
5.8647537 -0.13964701 -1.794872 4288085770
7.3158302 -0.19526911 -1.7827988 4288085770
6.0268593 -0.12960982 -1.7969741 4288085770
7.5359344 -0.18321681 -1.7809372 4288085770
6.2029572 -0.11956906 -1.7990847 4288085770
7.7920341 -0.17215514 -1.7830986 4288085770
6.3600616 -0.10853314 -1.7941833 4288085770
8.0711365 -0.16108775 -1.7862746 4288085770
6.5391655 -0.098491669 -1.7932955 4288085770
8.3502388 -0.15001988 -1.7864503 4288085770
6.7312698 -0.088446856 -1.7924161 4288085770
8.6653366 -0.13894248 -1.7886491 4288085770
6.9493713 -0.078395128 -1.7955532 4288085770
8.9124527 -0.12588406 -1.7738042 4288085770
7.1624718 -0.068344593 -1.7936872 4288085770
9.2495537 -0.11480117 -1.7730166 4288085770
7.3755798 -0.058294296 -1.789821 4288085770
9.6356544 -0.10370588 -1.7752601 4288085770
7.6336823 -0.048232317 -1.7919832 4288085770
10.09375 -0.092591286 -1.7835493 4288085770
7.9237823 -0.039161682 -1.7971659 4288085770
10.508854 -0.081488848 -1.7788109 4288085770
8.1358948 -0.029112101 -1.7832986 4288085770
10.938965 -0.069382191 -1.7710818 4288085770
8.4649925 -0.020031691 -1.7885059 4288085770
11.463066 -0.059250832 -1.7714125 4288085770
8.7630959 -0.010959387 -1.7836932 4288085770
12.026169 -0.047109604 -1.7687676 4288085770
9.0962029 -0.0018780231 -1.7809026 4288085770
12.551281 -0.035978556 -1.7540983 4288085770
9.4493103 0.0072083473 -1.7771246 4288085770
13.202389 -0.024814606 -1.7475089 4288085770
9.8894081 0.016318083 -1.7844018 4288085770
13.925495 -0.013632059 -1.7409649 4288085770
10.32251 0.024425268 -1.7826744 4288085770
14.722607 -0.0024299622 -1.7314677 4288085770
10.770618 0.032536268 -1.7779562 4288085770
15.610714 0.0087954998 -1.7220279 4288085770
11.281723 0.03966403 -1.776278 4288085770
16.695816 0.020072222 -1.7197127 4288085770
11.877823 0.047813654 -1.7786534 4288085770
17.843925 0.031365156 -1.7074372 4288085770
12.385937 0.054939985 -1.7619728 4288085770
19.344032 0.041749954 -1.7083845 4288085770
13.003048 0.061094761 -1.7523612 4288085770
13.751152 0.068283558 -1.749832 4288085770
14.505268 0.073473454 -1.7373067 4288085770
15.393372 0.078698874 -1.7298659 4288085770
16.419483 0.082959652 -1.724512 4288085770
17.599594 0.087260246 -1.7192553 4288085770
18.983704 0.089614153 -1.7131274 4288085770
18.588951 0.31144643 -1.7005124 4288085770
17.413036 0.3351717 -1.7128363 4288085770
16.330139 0.35591817 -1.7192138 4288085770
15.342232 0.37468624 -1.7216463 4288085770
14.515331 0.3944912 -1.7301705 4288085770
13.809425 0.41432452 -1.7417641 4288085770
13.124523 0.4321624 -1.7453698 4288085770
19.81855 0.67967832 -1.7021503 4288085770
12.525623 0.45001984 -1.752025 4288085770
18.421654 0.68935382 -1.7043515 4288085770
12.079712 0.47091305 -1.7717668 4288085770
17.238747 0.69907796 -1.707675 4288085770
11.595802 0.489797 -1.7804877 4288085770
16.221848 0.71084023 -1.7130928 4288085770
11.060913 0.50266862 -1.7741804 4288085770
15.304947 0.72162545 -1.7165681 4288085770
10.61301 0.51856041 -1.7749224 4288085770
14.528042 0.73544264 -1.7251228 4288085770
10.227108 0.53546739 -1.7806997 4288085770
13.880135 0.75128973 -1.7387511 4288085770
9.7912178 0.54836142 -1.7724491 4288085770
13.28323 0.76614833 -1.7504083 4288085770
9.4523125 0.56327856 -1.7752535 4288085770
12.655334 0.77699947 -1.7490487 4288085770
9.121418 0.57819748 -1.7750626 4288085770
12.171432 0.79288387 -1.7607704 4288085770
8.8275185 0.59312463 -1.7768928 4288085770
11.754524 0.81078351 -1.7735302 4288085770
8.5416222 0.60705364 -1.7757275 4288085770
11.28363 0.82167065 -1.7742599 4288085770
8.2827225 0.62198913 -1.7785779 4288085770
10.806732 0.83155596 -1.767987 4288085770
8.0348206 0.63692689 -1.7794346 4288085770
10.379841 0.8414526 -1.7637422 4288085770
7.7769318 0.64886212 -1.7742858 4288085770
10.032944 0.85536814 -1.7675428 4288085770
7.5700302 0.66480947 -1.7771657 4288085770
9.6700478 0.86627972 -1.7643344 4288085770
7.3541336 0.67775452 -1.7750409 4288085770
9.3251495 0.87719536 -1.7601366 4288085770
7.1622353 0.69370544 -1.7769293 4288085770
9.0282516 0.88912213 -1.7609657 4288085770
6.9803352 0.70765793 -1.7778238 4288085770
8.788353 0.90506208 -1.7668271 4288085770
6.8074379 0.72261345 -1.7787235 4288085770
8.5034561 0.91599143 -1.7626634 4288085770
6.6385422 0.73656929 -1.7776254 4288085770
8.2565575 0.92892957 -1.7615212 4288085770
6.4726448 0.75052559 -1.7755291 4288085770
8.0306625 0.94287252 -1.7623909 4288085770
6.2897491 0.76047814 -1.7664237 4288085770
7.823761 0.95682025 -1.7632713 4288085770
6.1528473 0.77544165 -1.7683438 4288085770
7.6218605 0.97076857 -1.7631547 4288085770
6.0139542 0.78940427 -1.7662631 4288085770
7.4209671 0.98371732 -1.7610388 4288085770
5.8770599 0.8033675 -1.7641834 4288085770
7.2500687 0.99767292 -1.7629397 4288085770
5.7751579 0.82033908 -1.7691232 4288085770
7.090168 1.013631 -1.7648467 4288085770
5.6602554 0.83530724 -1.770056 4288085770
6.9192734 1.0265864 -1.762748 4288085770
5.5503616 0.85027671 -1.7699916 4288085770
6.7713737 1.0425473 -1.7636617 4288085770
5.4434624 0.86524677 -1.7699291 4288085770
6.6264763 1.0565088 -1.7635777 4288085770
5.3495636 0.88222015 -1.7728735 4288085770
6.4825783 1.0704705 -1.7614943 4288085770
5.251667 0.89619231 -1.771816 4288085770
6.3396873 1.0834321 -1.7574114 4288085770
5.1527672 0.91116416 -1.7697581 4288085770
6.2107887 1.0973972 -1.7563363 4288085770
5.0578728 0.92513692 -1.7677025 4288085770
6.1178856 1.117371 -1.763281 4288085770
6.0259819 1.1373448 -1.7682265 4288085770
5.9350815 1.1563188 -1.7731727 4288085770
5.8451843 1.1742929 -1.7761194 4288085770
5.7622795 1.1932688 -1.7810701 4288085770
5.680378 1.213245 -1.7840214 4288085770
5.5964775 1.2312204 -1.7859715 4288085770
5.5175743 1.2501971 -1.7879245 4288085770
5.4256783 1.2661704 -1.7848706 4288085770
5.3477821 1.2831473 -1.7848244 4288085770
5.2718849 1.3011245 -1.7837793 4288085770
5.1789894 1.3140975 -1.7767251 4288085770
5.1060905 1.3320754 -1.7746818 4288085770
5.023201 1.3460506 -1.7686331 4288085770
5.015274 3.1587486 -1.8064231 4288085770
5.0903664 3.2237589 -1.8084575 4288085770
5.1814575 3.2977734 -1.8135003 4288085770
5.2645493 3.3667858 -1.814539 4288085770
5.3546295 3.4387999 -1.8165811 4288085770
5.4627113 3.5218177 -1.8226322 4288085770
5.5648003 3.599834 -1.8246802 4288085770
5.6948814 3.6938567 -1.8327422 4288085770
5.8229637 3.7868788 -1.8388033 4288085770
5.9110603 3.8518913 -1.8308443 4288085770
6.0171471 3.9279079 -1.8258945 4288085770
6.1122475 3.9959219 -1.8169389 4288085770
6.2313385 4.0769415 -1.8129956 4288085770
5.1195183 3.4647002 -1.8294367 4288085770
6.358429 4.1619625 -1.8080561 4288085770
5.2475967 3.5477223 -1.8364981 4288085770
6.4805183 4.2419825 -1.8011143 4288085770
5.3576889 3.6187403 -1.8365507 4288085770
6.6416016 4.3450108 -1.8011918 4288085770
5.4847755 3.6987617 -1.8406117 4288085770
6.8016891 4.4460392 -1.7992685 4288085770
5.6208611 3.7817855 -1.8446772 4288085770
6.9857712 4.5600734 -1.8013575 4288085770
5.7569466 3.8638089 -1.8467429 4288085770
7.1778526 4.6771088 -1.8014504 4288085770
5.8790436 3.9348292 -1.8418014 4288085770
7.394928 4.8071489 -1.8055556 4288085770
5.9811401 3.9918444 -1.8298503 4288085770
7.625 4.9431925 -1.8096673 4288085770
6.1292229 4.0748701 -1.829922 4288085770
7.8810692 5.0932417 -1.8157918 4288085770
6.2483253 4.1378889 -1.8189793 4288085770
8.1421394 5.2432923 -1.819919 4288085770
6.3814201 4.207911 -1.8110435 4288085770
8.4202118 5.4023457 -1.8250543 4288085770
6.5295143 4.2849364 -1.8051152 4288085770
8.7362785 5.5804076 -1.8332084 4288085770
6.7145958 4.3829703 -1.8072053 4288085770
9.0963326 5.7824793 -1.8463845 4288085770
6.878685 4.4649992 -1.8012851 4288085770
9.494381 6.0035591 -1.8625791 4288085770
7.0777702 4.5660353 -1.8013821 4288085770
9.9174271 6.2376442 -1.8787862 4288085770
7.2958527 4.6770763 -1.8044883 4288085770
10.289494 6.4337168 -1.8799682 4288085770
7.5359306 4.7981219 -1.8096057 4288085770
10.728546 6.6678057 -1.8891832 4288085770
7.7860069 4.9221697 -1.8147279 4288085770
11.145607 6.8828878 -1.8903874 4288085770
8.0460854 5.0482187 -1.8198552 4288085770
11.566669 7.0949707 -1.8865937 4288085770
8.3301582 5.1852741 -1.8249944 4288085770
12.057724 7.3420696 -1.8868344 4288085770
8.6132393 5.317328 -1.8271332 4288085770
12.610771 7.6211805 -1.8921058 4288085770
8.9423027 5.4733925 -1.8372947 4288085770
13.148819 7.8832893 -1.8903701 4288085770
9.3303642 5.6594701 -1.8534853 4288085770
9.7534065 5.8615551 -1.8736933 4288085770
10.153473 6.0436344 -1.88389 4288085770
10.539539 6.2117109 -1.8880799 4288085770
10.956604 6.3937931 -1.8942852 4288085770
11.359673 6.5598726 -1.8944836 4288085770
11.751751 6.7149477 -1.8886768 4288085770
12.217815 6.9040413 -1.8909063 4288085770
12.645893 7.0661249 -1.8831177 4288085770
13.110962 7.2422161 -1.8793471 4288085770
13.605034 7.4263134 -1.874591 4288085770
14.233086 7.6734409 -1.881901 4288085770
14.777153 7.8685484 -1.87517 4288085770
19.525757 -1.9341228 -1.7066177 4288085770
18.809875 -1.9782736 -1.7132598 4288085770
18.099991 -2.0144241 -1.717905 4288085770
17.467091 -2.0505574 -1.7255886 4288085770
16.836197 -2.0776923 -1.7292732 4288085770
16.233307 -2.1018198 -1.7339717 4288085770
15.680412 -2.1249378 -1.7396952 4288085770
15.162521 -2.1440485 -1.7464361 4288085770
14.661629 -2.1611555 -1.7511855 4288085770
14.16473 -2.171262 -1.7549368 4288085770
13.664833 -2.176368 -1.7556869 4288085770
13.179939 -2.175472 -1.754444 4288085770
19.600235 -3.2821925 -1.7086521 4288085770
12.797047 -2.1865556 -1.7632524 4288085770
18.667328 -3.2323864 -1.7151855 4288085770
12.44215 -2.198632 -1.7740747 4288085770
17.835426 -3.1885588 -1.7227691 4288085770
12.137249 -2.2136991 -1.7889218 4288085770
16.995518 -3.1327345 -1.7233489 4288085770
11.73835 -2.2077854 -1.7887219 4288085770
16.336609 -3.1008723 -1.7360189 4288085770
11.391453 -2.2068608 -1.7935481 4288085770
15.6287 -3.0530207 -1.7386645 4288085770
11.072556 -2.2079298 -1.8013883 4288085770
15.008797 -3.0141509 -1.7463542 4288085770
10.69466 -2.1920125 -1.7961988 4288085770
14.426891 -2.9752734 -1.7530626 4288085770
10.357765 -2.1810868 -1.7950301 4288085770
13.837986 -2.9273984 -1.7547675 4288085770
10.006866 -2.1611631 -1.7888541 4288085770
13.272083 -2.8795173 -1.7544842 4288085770
9.6889725 -2.1462324 -1.7866949 4288085770
12.800179 -2.8446181 -1.7622477 4288085770
9.419075 -2.1372926 -1.7905593 4288085770
12.325272 -2.801719 -1.7640096 4288085770
9.1551781 -2.1263516 -1.7924267 4288085770
11.860371 -2.757818 -1.7637765 4288085770
8.8782768 -2.108413 -1.7902879 4288085770
11.455467 -2.7209046 -1.7685733 4288085770
8.6513824 -2.1004636 -1.7951739 4288085770
11.076561 -2.6869857 -1.7743833 4288085770
8.4124794 -2.0865176 -1.7970539 4288085770
10.694656 -2.6480687 -1.7761917 4288085770
8.1825829 -2.0715687 -1.7989384 4288085770
10.337753 -2.6111453 -1.7790128 4288085770
7.9636841 -2.0576179 -1.8008285 4288085770
9.9978485 -2.574219 -1.7818421 4288085770
7.7707863 -2.047663 -1.8067315 4288085770
9.6849442 -2.5392873 -1.7846849 4288085770
7.5978851 -2.0397022 -1.8146443 4288085770
9.3910446 -2.5073516 -1.7895373 4288085770
7.368988 -2.015754 -1.8095292 4288085770
9.0831375 -2.4674189 -1.7883826 4288085770
7.175087 -1.9967988 -1.8104318 4288085770
8.815239 -2.4354775 -1.7922479 4288085770
6.9951897 -1.9808404 -1.8123412 4288085770
8.5643311 -2.4045336 -1.7971218 4288085770
6.8382912 -1.9688766 -1.8172621 4288085770
8.3354301 -2.3775847 -1.8030064 4288085770
6.6323929 -1.939924 -1.8091583 4288085770
8.0775299 -2.3386414 -1.8018768 4288085770
6.4734955 -1.9239609 -1.8120784 4288085770
7.8626213 -2.3106897 -1.8067685 4288085770
6.3285942 -1.9089954 -1.8170052 4288085770
7.6427231 -2.2777393 -1.8076577 4288085770
6.1556969 -1.8850358 -1.811918 4288085770
7.413826 -2.2397902 -1.8055425 4288085770
6.0037956 -1.865072 -1.8118414 4288085770
7.2099228 -2.2078369 -1.8064396 4288085770
5.8698997 -1.8491037 -1.8147739 4288085770
7.0160217 -2.1758811 -1.8073419 4288085770
5.730999 -1.8291366 -1.8157036 4288085770
6.8401184 -2.1479218 -1.810253 4288085770
5.5981026 -1.810169 -1.8166364 4288085770
6.6482162 -2.1129653 -1.8081565 4288085770
5.4511986 -1.7852037 -1.8115623 4288085770
6.4753113 -2.0820053 -1.8080691 4288085770
5.3293037 -1.7662337 -1.8125007 4288085770
6.3134117 -2.0520427 -1.8089871 4288085770
5.2144012 -1.7482617 -1.8154424 4288085770
6.1635132 -2.0240781 -1.8129113 4288085770
5.0995064 -1.7292902 -1.8163842 4288085770
6.0026131 -1.9921157 -1.8108302 4288085770
5.850708 -1.9601514 -1.8087531 4288085770
5.718811 -1.9341829 -1.8126863 4288085770
5.5839081 -1.9062159 -1.8136179 4288085770
5.4520111 -1.8772471 -1.812551 4288085770
5.3141136 -1.8442805 -1.8084812 4288085770
5.2062111 -1.820307 -1.8134261 4288085770
5.0893097 -1.7923353 -1.8133668 4288085770
5.0569305 0.22900367 -1.7929664 4288085770
5.1930351 0.24202347 -1.7990223 4288085770
5.3181343 0.25404119 -1.8000735 4288085770
5.4442406 0.26705861 -1.7991252 4288085770
5.558342 0.27807379 -1.7931714 4288085770
5.7074432 0.2910955 -1.7962327 4288085770
5.8685455 0.30412006 -1.799299 4288085770
5.9936562 0.31513667 -1.79135 4288085770
5.1027031 0.30197144 -1.8029667 4288085770
6.1527596 0.32716012 -1.7904152 4288085770
5.2318039 0.31198978 -1.8040196 4288085770
6.3288612 0.33918691 -1.7924877 4288085770
5.361908 0.32200789 -1.8040729 4288085770
6.5149612 0.35221529 -1.7935643 4288085770
5.4790154 0.33002329 -1.7981206 4288085770
6.6780701 0.36323905 -1.7866312 4288085770
5.6261215 0.34004498 -1.800181 4288085770
6.8801689 0.37527013 -1.7877146 4288085770
5.7682266 0.34906507 -1.7972391 4288085770
7.0852737 0.38830209 -1.785799 4288085770
5.9193268 0.3570869 -1.7953011 4288085770
7.3003769 0.39933562 -1.7838877 4288085770
6.0914307 0.36611295 -1.7983718 4288085770
7.5294838 0.41137123 -1.7809824 4288085770
6.2605362 0.37513804 -1.7974414 4288085770
7.7925835 0.42441392 -1.7840912 4288085770
6.4446373 0.38416624 -1.798517 4288085770
8.051693 0.43645525 -1.7821983 4288085770
6.6547394 0.39319921 -1.8036036 4288085770
8.3117943 0.44749653 -1.7763057 4288085770
6.8208504 0.39922333 -1.7946719 4288085770
8.6748924 0.46255744 -1.7874566 4288085770
7.0099564 0.40625167 -1.7877495 4288085770
8.991993 0.47460961 -1.7855878 4288085770
7.2400551 0.41428804 -1.7908444 4288085770
9.3101006 0.48566103 -1.7787194 4288085770
7.4821625 0.42132628 -1.7919446 4288085770
9.6712036 0.49772084 -1.7758691 4288085770
7.7212639 0.4283638 -1.7890431 4288085770
10.069313 0.50978708 -1.7740343 4288085770
7.9783707 0.43440485 -1.7871492 4288085770
10.540413 0.52386737 -1.7782301 4288085770
8.2324791 0.43944478 -1.7802541 4288085770
10.987518 0.53594196 -1.7724154 4288085770
8.5665779 0.44650006 -1.7873925 4288085770
11.545616 0.55103791 -1.7786475 4288085770
8.874691 0.45155001 -1.78352 4288085770
12.050724 0.56112242 -1.7678571 4288085770
9.1717949 0.45459735 -1.7736428 4288085770
12.546837 0.56920505 -1.7500627 4288085770
9.5808983 0.4606663 -1.7808124 4288085770
13.224941 0.58132172 -1.7483449 4288085770
9.970005 0.46473074 -1.7789736 4288085770
13.905048 0.59243798 -1.7366275 4288085770
10.398106 0.46780229 -1.778151 4288085770
14.625164 0.60156131 -1.7229267 4288085770
10.834217 0.46987522 -1.7733318 4288085770
15.555267 0.61472297 -1.7203141 4288085770
11.375317 0.47296739 -1.7775564 4288085770
16.57037 0.62790012 -1.7147368 4288085770
11.925423 0.47406065 -1.776785 4288085770
17.733475 0.64110386 -1.7102212 4288085770
12.390537 0.46913731 -1.7569776 4288085770
19.088585 0.65534198 -1.7047858 4288085770
12.974644 0.46623647 -1.7472202 4288085770
13.692749 0.46335995 -1.7465185 4288085770
14.409863 0.45648253 -1.7358164 4288085770
15.22197 0.44862199 -1.7271541 4288085770
16.167084 0.43978596 -1.7215469 4288085770
17.252193 0.42897499 -1.7169983 4288085770
18.483307 0.41418993 -1.7115108 4288085770
19.94841 0.39744759 -1.7121205 4288085770
9.4153862 -5.5915184 -0.16372788 4293729569
9.4284706 -5.5445194 -0.21072564 4293729569
9.414547 -5.4805231 -0.25471181 4293729569
9.4366264 -5.4365225 -0.2997131 4293729569
9.4807091 -5.4025183 -0.34372348 4293729569
9.5977974 -5.4085016 -0.38976443 4293729569
18.097565 -7.8451128 -1.7590343 4293729569
17.782623 -7.5721712 -1.7658896 4293729569
17.466682 -7.3032303 -1.7687452 4288085770
17.197742 -7.0592813 -1.7736201 4288085770
16.91481 -6.8133335 -1.77449 4288085770
16.658878 -6.5823832 -1.7743713 4288085770
16.366943 -6.3414392 -1.7682389 4288085770
16.181015 -6.1464758 -1.770149 4288085770
15.964085 -5.9415188 -1.7660472 4288085770
15.832165 -5.7705479 -1.7699794 4288085770
15.732239 -5.6115704 -1.7739241 4288085770
15.602318 -5.4455986 -1.7748576 4288085770
15.510399 -5.2946205 -1.7758063 4288085770
15.417477 -5.1446428 -1.7757547 4288085770
15.305561 -4.9886675 -1.7726957 4288085770
15.253643 -4.8546839 -1.7736603 4288085770
15.186726 -4.7157021 -1.7716193 4288085770
15.144806 -4.5857162 -1.7705879 4288085770
15.121895 -4.4617271 -1.7705642 4288085770
15.114983 -4.3447351 -1.7705468 4288085770
15.103069 -4.2267456 -1.7685274 4288085770
15.098156 -4.1107531 -1.7655107 4288085770
15.117233 -4.0007572 -1.7635037 4288085770
15.157326 -3.8967583 -1.7625043 4288085770
15.201412 -3.7937582 -1.7615062 4288085770
15.248501 -3.6897581 -1.7585094 4288085770
15.330593 -3.5947526 -1.7575259 4288085770
15.404682 -3.4977481 -1.7545391 4288085770
15.500771 -3.4047401 -1.7525606 4288085770
15.591866 -3.3107336 -1.74858 4288085770
15.726955 -3.221719 -1.7476158 4288085770
15.83905 -3.1297095 -1.7416428 4288085770
15.98914 -3.0426934 -1.7396839 4288085770
16.203232 -2.9656661 -1.7417486 4288085770
16.353329 -2.8756502 -1.734789 4288085770
16.560421 -2.7916253 -1.7328502 4288085770
16.832512 -2.7155898 -1.7339351 4288085770
17.039608 -2.6265647 -1.7269958 4288085770
17.381691 -2.5575178 -1.7321062 4288085770
17.693787 -2.4804757 -1.7312047 4288085770
17.962883 -2.3914416 -1.7232869 4288085770
18.31897 -2.312393 -1.7214007 4288085770
18.693069 -2.2293427 -1.7175202 4288085770
19.177155 -2.1552737 -1.7206789 4288085770
19.694244 -2.0772007 -1.7228491 4288085770
19.251915 0.69462454 -1.702845 4288085770
18.118011 0.73748255 -1.7065257 4288085770
17.150112 0.77836037 -1.7122527 4288085770
16.30621 0.81825352 -1.7200143 4288085770
15.504307 0.85215116 -1.720788 4288085770
14.826408 0.88706422 -1.7275962 4288085770
14.195511 0.91998279 -1.7304174 4288085770
13.716606 0.95792007 -1.7462801 4288085770
13.236706 0.99085689 -1.7551433 4288085770
12.711811 1.0187879 -1.7539948 4288085770
18.996811 1.5535145 -1.7046562 4288085770
12.312908 1.0507346 -1.7638805 4288085770
18.000923 1.5653901 -1.7053802 4288085770
11.978008 1.0856891 -1.7777836 4288085770
17.141022 1.5822821 -1.709141 4288085770
11.663105 1.1196462 -1.7906923 4288085770
16.40213 1.6011884 -1.7139349 4288085770
11.317207 1.1485991 -1.7945932 4288085770
15.65823 1.6130939 -1.7117285 4288085770
10.885315 1.1655409 -1.7814721 4288085770
15.05933 1.6350169 -1.7185608 4288085770
10.509418 1.1844896 -1.7723662 4288085770
14.526432 1.6579481 -1.7264112 4288085770
10.212521 1.2084483 -1.7722813 4288085770
14.073528 1.6848888 -1.7372831 4288085770
9.928627 1.2324084 -1.7722002 4288085770
13.660629 1.7138344 -1.749166 4288085770
9.6587334 1.2553704 -1.7701229 4288085770
13.34473 1.7497917 -1.7680744 4288085770
9.3978348 1.2773331 -1.7680485 4288085770
12.98983 1.778744 -1.7789732 4288085770
9.1509323 1.2982976 -1.763978 4288085770
12.56493 1.7936876 -1.7758546 4288085770
8.9450378 1.3232673 -1.7659184 4288085770
12.219036 1.8176405 -1.7797568 4288085770
8.747139 1.3482378 -1.7668608 4288085770
11.94413 1.8496026 -1.7916774 4288085770
8.5522461 1.3712089 -1.7668045 4288085770
11.690231 1.8805671 -1.8016038 4288085770
8.3643456 1.3941805 -1.7647501 4288085770
11.407333 1.9055278 -1.8055234 4288085770
8.1964417 1.4181552 -1.7657014 4288085770
11.053432 1.9164801 -1.7944252 4288085770
8.0405426 1.443131 -1.7676557 4288085770
10.67654 1.9194288 -1.7773215 4288085770
7.9056473 1.4711092 -1.7716154 4288085770
10.419643 1.9403924 -1.7762487 4288085770
7.7467499 1.4930844 -1.7685692 4288085770
10.159748 1.9583554 -1.7711754 4288085770
7.6018524 1.5160611 -1.7665267 4288085770
9.9208527 1.9763211 -1.7671077 4288085770
7.4629555 1.5390388 -1.7654861 4288085770
9.7109566 1.9982904 -1.7660476 4288085770
7.3520584 1.5650198 -1.7674526 4288085770
9.4990616 2.0182593 -1.7619872 4288085770
7.2351608 1.591 -1.7684177 4288085770
9.3221664 2.0432324 -1.7619361 4288085770
7.1242676 1.6159811 -1.7683846 4288085770
9.1492691 2.0672059 -1.761886 4288085770
7.0133667 1.639962 -1.7673515 4288085770
8.9783745 2.0901797 -1.7588366 4288085770
6.9264679 1.668946 -1.7703243 4288085770
8.8274765 2.1161561 -1.7587925 4288085770
6.807579 1.6889257 -1.7642896 4288085770
8.7005768 2.1451354 -1.7617545 4288085770
6.7326736 1.7189112 -1.7682658 4288085770
8.5616798 2.1721127 -1.7607137 4288085770
6.6377792 1.743894 -1.766237 4288085770
8.4647827 2.2070956 -1.7666832 4288085770
6.5528831 1.7698781 -1.765211 4288085770
8.3388824 2.2340748 -1.7646461 4288085770
6.462986 1.7938616 -1.763184 4288085770
8.1999893 2.2570524 -1.7596055 4288085770
6.3820877 1.8198459 -1.7611591 4288085770
8.0880928 2.2860332 -1.7585721 4288085770
6.2941971 1.8428296 -1.7551327 4288085770
7.9751968 2.3120139 -1.7555383 4288085770
6.2052994 1.864813 -1.7491059 4288085770
7.883297 2.3429968 -1.75551 4288085770
6.1553993 1.8968012 -1.7530891 4288085770
7.7953987 2.3749804 -1.7554827 4288085770
6.0985031 1.9267886 -1.7530704 4288085770
7.7025032 2.4049635 -1.752454 4288085770
6.0456085 1.9567766 -1.7530527 4288085770
7.6286087 2.4389486 -1.7534305 4288085770
5.9917107 1.9867642 -1.7530349 4288085770
7.5407104 2.4679322 -1.7494034 4288085770
5.9598122 2.0227547 -1.7580224 4288085770
7.4668121 2.4999175 -1.7473798 4288085770
5.9309082 2.0597456 -1.7630106 4288085770
7.4059143 2.5359044 -1.7483596 4288085770
5.9030113 2.0967364 -1.7669991 4288085770
7.3460159 2.5728912 -1.7473395 4288085770
5.8631134 2.1297259 -1.7669849 4288085770
7.2971153 2.6118793 -1.7483221 4288085770
5.864212 2.1777205 -1.7789803 4288085770
7.2462196 2.6498671 -1.7483044 4288085770
5.8473091 2.2187126 -1.7829715 4288085770
7.1983185 2.6888552 -1.7472873 4288085770
5.83041 2.2597048 -1.7879627 4288085770
7.1624184 2.7318449 -1.7482731 4288085770
5.7955132 2.2936947 -1.7869498 4288085770
7.1445236 2.781837 -1.7532632 4288085770
5.7766113 2.3336864 -1.7889404 4288085770
7.0996246 2.8198252 -1.7492471 4288085770
5.7667122 2.3766737 -1.792933 4288085770
7.0807228 2.8678114 -1.752237 4288085770
5.758812 2.4206674 -1.7969267 4288085770
7.0638199 2.9178038 -1.7542278 4288085770
5.7409096 2.4606595 -1.7969182 4288085770
7.0819168 2.9818006 -1.7632266 4288085770
5.7440109 2.5096545 -1.8029144 4288085770
7.0560188 3.0257916 -1.7612153 4288085770
5.7171135 2.5446455 -1.7979039 4288085770
7.0411186 3.075784 -1.7602067 4288085770
5.7362137 2.6006424 -1.8069037 4288085770
7.0522156 3.1367795 -1.7642039 4288085770
5.7383118 2.6496367 -1.8098997 4288085770
7.0483131 3.1907735 -1.7651979 4288085770
5.7104149 2.6836278 -1.802889 4288085770
7.064415 3.2547693 -1.7691962 4288085770
5.6745186 2.7146173 -1.7918764 4288085770
7.080513 3.3177657 -1.7721945 4288085770
5.6726227 2.7606113 -1.7908717 4288085770
7.1206093 3.3927643 -1.7801982 4288085770
5.6847191 2.812607 -1.7938702 4288085770
7.126709 3.4517591 -1.7781943 4288085770
5.6948204 2.8636024 -1.7948681 4288085770
7.1778069 3.5327592 -1.7872006 4288085770
5.7109184 2.9185984 -1.7968673 4288085770
7.2019043 3.6007559 -1.7872007 4288085770
5.7510147 2.9845974 -1.8048718 4288085770
7.2240028 3.6677523 -1.7862004 4288085770
5.7711143 3.0405939 -1.805872 4288085770
7.2740974 3.7487521 -1.7912062 4288085770
5.8092117 3.1075926 -1.8118761 4288085770
7.3291893 3.8327522 -1.7952131 4288085770
5.842308 3.169591 -1.8138791 4288085770
7.370285 3.9107509 -1.7952169 4288085770
5.8734055 3.2335882 -1.8158815 4288085770
7.4323807 3.999752 -1.7992253 4288085770
5.907505 3.2975862 -1.8168846 4288085770
7.4814796 4.0817509 -1.7982308 4288085770
5.9525986 3.3675857 -1.8188902 4288085770
7.5175781 4.1577487 -1.7932333 4288085770
5.9787025 3.4285822 -1.8158916 4288085770
7.5856743 4.2497501 -1.7932429 4288085770
6.0178032 3.4945805 -1.8148959 4288085770
