# .PCD v0.7 - Point Cloud Data file format
VERSION 0.7
FIELDS x y z rgb
SIZE 4 4 4 4
TYPE F F F U
COUNT 1 1 1 1
WIDTH 1108
HEIGHT 1
VIEWPOINT 0 0 0 1 0 0 0
POINTS 1108
DATA ascii
8.3984299 -0.70384359 -1.7918928 4288085770
4.0729599 -0.4386363 -1.7808996 4288085770
7.6445169 -0.68920517 -1.7891361 4288085770
3.7200356 -0.4412775 -1.7852027 4288085770
6.9725914 -0.67642069 -1.7890053 4288085770
3.3721333 -0.44090986 -1.7865446 4288085770
6.4036207 -0.66645145 -1.7956607 4288085770
3.0462265 -0.44050217 -1.7880547 4288085770
5.8177147 -0.65151119 -1.7931874 4288085770
2.7423115 -0.44005442 -1.7907325 4288085770
5.2977962 -0.63845301 -1.7922177 4288085770
2.4733753 -0.43954611 -1.7966779 4288085770
4.8019009 -0.62335062 -1.7884321 4288085770
2.2054615 -0.43703365 -1.7986314 4288085770
4.3539906 -0.6101613 -1.7870126 4288085770
1.9755154 -0.43645525 -1.8058746 4288085770
3.957058 -0.59788227 -1.7889826 4288085770
1.7136288 -0.43093157 -1.8038746 4288085770
3.5941124 -0.5855422 -1.7922122 4288085770
1.4777355 -0.42536116 -1.8030733 4288085770
3.234211 -0.57219505 -1.7904649 4288085770
1.2338619 -0.41880512 -1.7992108 4288085770
2.9262619 -0.56175566 -1.7951144 4288085770
1.0189629 -0.41219664 -1.7975701 4288085770
2.6293106 -0.54929638 -1.798848 4288085770
0.8270359 -0.40654898 -1.8011047 4288085770
2.3543682 -0.53779793 -1.8027499 4288085770
0.63513374 -0.40089989 -1.8016392 4288085770
2.0834465 -0.52529192 -1.8036823 4288085770
0.46720505 -0.39520741 -1.8053572 4288085770
1.8335094 -0.51374769 -1.806775 4288085770
0.29229927 -0.38752842 -1.806022 4288085770
1.5816078 -0.49920607 -1.804853 4288085770
0.12938499 -0.38082743 -1.8077786 4288085770
1.33671 -0.48465204 -1.8019845 4288085770
-0.036500931 -0.37213135 -1.8055124 4288085770
1.1078167 -0.47006893 -1.7992383 4288085770
-0.1924057 -0.36341715 -1.8053226 4288085770
0.89390564 -0.45645952 -1.7986064 4288085770
-0.33431435 -0.35567904 -1.8062396 4288085770
0.71696281 -0.44578457 -1.8032565 4288085770
-0.44927216 -0.35089302 -1.8143623 4288085770
0.53005219 -0.43212605 -1.8028309 4288085770
-0.59316063 -0.34115696 -1.8122643 4288085770
0.35114288 -0.4194541 -1.8024662 4288085770
-0.72805214 -0.33140469 -1.8102353 4288085770
0.18222427 -0.40576363 -1.8031781 4288085770
0.017320633 -0.392066 -1.8019204 4288085770
-0.14457512 -0.37836313 -1.7996861 4288085770
-0.26753426 -0.36759138 -1.8067485 4288085770
-0.40644646 -0.35484743 -1.8066893 4288085770
-0.54135895 -0.34109545 -1.806661 4288085770
-0.6632843 -0.32832146 -1.8087314 4288085770
-0.60997391 1.6231163 -1.7975057 4288085770
-0.49684906 1.6383166 -1.7933757 4288085770
-0.37473869 1.6555328 -1.7903152 4288085770
-0.22168922 1.6778042 -1.794493 4288085770
-0.068624496 1.6990759 -1.7966708 4288085770
0.071487427 1.716325 -1.7937484 4288085770
0.23256302 1.7376115 -1.7949878 4288085770
-0.70008659 1.5519185 -1.7967989 4288085770
0.39664841 1.7569032 -1.7952498 4288085770
-0.58296967 1.5631256 -1.794699 4288085770
0.56274605 1.7761993 -1.7935275 4288085770
-0.45386505 1.5753543 -1.7936914 4288085770
0.74383736 1.7965221 -1.7929205 4288085770
-0.30580902 1.5906167 -1.7988302 4288085770
0.9458828 1.8198824 -1.797475 4288085770
-0.17468452 1.6008492 -1.7958376 4288085770
1.1798878 1.8482997 -1.8062757 4288085770
-0.039556503 1.6100895 -1.792876 4288085770
1.3520508 1.8616078 -1.7975991 4288085770
0.13547707 1.6264 -1.800222 4288085770
1.5711308 1.8829994 -1.7982841 4288085770
0.26664734 1.6326339 -1.7922295 4288085770
1.7912369 1.9023938 -1.7959768 4288085770
0.44670868 1.6469543 -1.7966139 4288085770
2.0223446 1.9208076 -1.7937536 4288085770
0.61181068 1.6562486 -1.7958826 4288085770
2.2664394 1.9412453 -1.7916307 4288085770
0.79789925 1.6685803 -1.7973129 4288085770
2.5514851 1.9667559 -1.7958235 4288085770
1.0219154 1.6859798 -1.8070358 4288085770
2.8295784 1.9872549 -1.794962 4288085770
1.2150192 1.6953242 -1.8075198 4288085770
3.11269 2.0077634 -1.7921388 4288085770
1.3911762 1.6996391 -1.8018725 4288085770
3.4167824 2.0283091 -1.7914772 4288085770
1.5823231 1.7049809 -1.797341 4288085770
3.7229195 2.0458593 -1.7858305 4288085770
1.8104172 1.7143891 -1.7990938 4288085770
4.0790005 2.0694997 -1.7865689 4288085770
2.0195694 1.7177632 -1.7947004 4288085770
4.4590702 2.0931828 -1.7884914 4288085770
2.2506962 1.7241771 -1.7924762 4288085770
4.8581638 2.1169016 -1.7875603 4288085770
2.5137939 1.7316489 -1.7944977 4288085770
5.3032284 2.1427028 -1.7899828 4288085770
2.7818985 1.7381291 -1.795558 4288085770
5.7822819 2.1705654 -1.7936667 4288085770
3.0570202 1.7426226 -1.7946717 4288085770
6.2414112 2.1903932 -1.7891964 4288085770
3.3361664 1.7441237 -1.7918161 4288085770
6.767498 2.2153413 -1.7892414 4288085770
3.6412849 1.7476714 -1.7921603 4288085770
7.304616 2.23631 -1.7863708 4288085770
3.9524288 1.7482309 -1.7895505 4288085770
7.9606495 2.2674935 -1.7924154 4288085770
4.2965393 1.7498491 -1.7911942 4288085770
8.6127396 2.2936704 -1.7924293 4288085770
4.6746445 1.751529 -1.7940995 4288085770
9.3008585 2.3159137 -1.7897193 4288085770
5.0807381 1.7532594 -1.7982198 4288085770
10.061972 2.3402884 -1.7875707 4288085770
5.4669018 1.7479546 -1.7951859 4288085770
10.881091 2.3637683 -1.7848681 4288085770
5.8870449 1.7427115 -1.7944136 4288085770
11.75124 2.3843417 -1.7795572 4288085770
6.3281994 1.7355061 -1.7928023 4288085770
12.735354 2.409121 -1.7781229 4288085770
6.8053427 1.726366 -1.7934675 4288085770
13.845459 2.4361289 -1.7776574 4288085770
7.3354769 1.7173219 -1.7955402 4288085770
7.8866301 1.7053158 -1.7957741 4288085770
8.4767809 1.6903801 -1.7973076 4288085770
9.0809708 1.670471 -1.7949481 4288085770
9.7551384 1.6486881 -1.7961267 4288085770
10.420367 1.6198895 -1.7912358 4288085770
11.183572 1.5892687 -1.7900978 4288085770
11.996794 1.5527384 -1.7883437 4288085770
12.803086 1.5071962 -1.7795353 4288085770
13.736331 1.4598839 -1.7777028 4288085770
3.7631226 -4.7984996 -0.093443394 4293729569
3.7601013 -4.8665137 -0.12741826 4293729569
6.118721 -7.6984534 -1.4474808 4293729569
5.6402283 -7.4313283 -1.4618208 4293729569
5.1587543 -7.1542087 -1.4711381 4293729569
4.7303181 -6.9079938 -1.4828613 4293729569
4.3499298 -6.6886888 -1.4949522 4293729569
3.9565487 -6.4544091 -1.5029438 4293729569
3.5951996 -6.2380719 -1.51018 4293729569
3.2798805 -6.0476508 -1.5207691 4293729569
2.9835815 -5.8661952 -1.5305037 4293729569
2.7173119 -5.7026849 -1.5414681 4293729569
2.4800396 -5.5541215 -1.5556549 4293729569
5.4816132 -7.5356612 -1.4496416 4293729569
2.2038002 -5.3766294 -1.5585427 4293729569
5.0290661 -7.2364898 -1.4631815 4293729569
1.9765797 -5.2300487 -1.5668061 4293729569
4.6265888 -6.9682288 -1.4751045 4293729569
1.7463722 -5.0784717 -1.5720463 4293729569
4.2621479 -6.7218957 -1.4883187 4293729569
1.5331841 -4.935864 -1.577417 4293729569
3.9027424 -6.4765553 -1.4965711 4293729569
1.3659916 -4.8221755 -1.5901401 4293729569
3.565361 -6.243175 -1.504992 4293729569
1.1758194 -4.6905265 -1.5956868 4293729569
3.2840176 -6.045691 -1.5168421 4293729569
1.0186558 -4.5808177 -1.6054865 4293729569
3.0297031 -5.8641591 -1.5288992 4293729569
0.8455143 -4.4571376 -1.6091636 4293729569
2.7743988 -5.6806293 -1.5389483 4293729569
0.69537354 -4.3474164 -1.616017 4293729569
2.5791187 -5.5349908 -1.5554576 4293729569
0.51226807 -4.2137542 -1.6126175 4293729569
2.3148689 -5.341475 -1.5564376 4293729569
0.36015701 -4.0990357 -1.6144555 4293729569
2.1186256 -5.1918387 -1.5669391 4293729569
0.24003792 -4.00526 -1.6215385 4293729569
1.9433994 -5.0551629 -1.5776012 4293729569
0.12594032 -3.9144731 -1.6276678 4293729569
1.7422085 -4.8995337 -1.5800641 4293729569
0.039823532 -3.8406358 -1.6400118 4293729569
1.5740166 -4.7658448 -1.58778 4293729569
-0.031288147 -3.7767711 -1.6544707 4293729569
1.4098511 -4.6331477 -1.5925264 4293729569
-0.038444519 -3.7547908 -1.6844202 4293729569
1.2626934 -4.5104213 -1.5984035 4293729569
-0.030614853 -3.7407832 -1.7184851 4293729569
1.1285439 -4.3966718 -1.6053798 4293729569
0.0051898956 -3.7437263 -1.7597648 4288085770
1.0064106 -4.2898984 -1.6124482 4293729569
0.031002045 -3.7386851 -1.7979678 4288085770
0.88028908 -4.1781344 -1.616486 4293729569
-0.055065155 -3.6568484 -1.8023121 4288085770
0.76917839 -4.0773406 -1.6216388 4293729569
-0.15410233 -3.5670333 -1.8005563 4288085770
0.66307259 -3.9785399 -1.6268299 4293729569
-0.23614502 -3.4861875 -1.8019313 4288085770
0.56997681 -3.8867145 -1.6321205 4293729569
-0.30420685 -3.4143167 -1.8074133 4288085770
0.47289467 -3.7928958 -1.6353806 4293729569
-0.3802433 -3.3364606 -1.8088342 4288085770
0.49472618 -3.7718625 -1.667554 4293729569
-0.44926453 -3.2635913 -1.8093086 4288085770
0.56553078 -3.7797418 -1.7101038 4293729569
-0.50830269 -3.1947036 -1.8128597 4288085770
0.61934471 -3.7756515 -1.7485231 4288085770
-0.56432915 -3.1288109 -1.8154337 4288085770
0.68315125 -3.7755427 -1.7890193 4288085770
-0.63333321 -3.0529408 -1.8119081 4288085770
0.61808014 -3.6966653 -1.793525 4288085770
-0.67935371 -2.9930296 -1.8155589 4288085770
0.53503418 -3.6058211 -1.7928926 4288085770
0.45900154 -3.5189652 -1.7913138 4288085770
0.40995216 -3.44906 -1.7959423 4288085770
0.35990906 -3.3771558 -1.7995631 4288085770
0.3018837 -3.3022666 -1.8001223 4288085770
0.255867 -3.2323546 -1.8007737 4288085770
0.21483994 -3.1654348 -1.8034635 4288085770
0.1728344 -3.0975165 -1.8031456 4288085770
0.13681984 -3.0335875 -1.8048737 4288085770
0.10482597 -2.9726505 -1.8046327 4288085770
0.076824188 -2.9117064 -1.8054222 4288085770
0.049825668 -2.8527608 -1.8062195 4288085770
0.038825989 -2.8007855 -1.8091396 4288085770
0.020837784 -2.7468243 -1.8100059 4288085770
0.00086021423 -2.690865 -1.808857 4288085770
-0.0061321259 -2.6418829 -1.8108078 4288085770
-0.015108109 -2.5909042 -1.8107432 4288085770
-0.023082733 -2.5409231 -1.8106863 4288085770
-0.026052475 -2.4929338 -1.810668 4288085770
-0.020027161 -2.4489279 -1.8117188 4288085770
-0.025981903 -2.3989439 -1.8096774 4288085770
-0.021944046 -2.352942 -1.8087128 4288085770
-0.0099086761 -2.3119245 -1.8098099 4288085770
0.0051231384 -2.2709026 -1.8109301 4288085770
0.020172119 -2.2288799 -1.8100504 4288085770
0.049198151 -2.1928325 -1.8132782 4288085770
0.065250397 -2.1528087 -1.8124058 4288085770
0.092298508 -2.1157641 -1.8126185 4288085770
0.11834717 -2.0787215 -1.8128234 4288085770
0.15339279 -2.0446634 -1.8140976 4288085770
0.19443321 -2.0125937 -1.8164181 4288085770
0.23048973 -1.9775324 -1.8157001 4288085770
0.27053642 -1.9434652 -1.8170129 4288085770
0.32158852 -1.9133768 -1.8184105 4288085770
0.35466766 -1.8763218 -1.8146695 4288085770
0.41171646 -1.8482227 -1.8171134 4288085770
-0.72401237 -1.4882951 -1.8293549 4288085770
0.46677589 -1.8181272 -1.8175418 4288085770
-0.68194199 -1.4602232 -1.8286827 4288085770
0.52483559 -1.7880263 -1.8179936 4288085770
-0.6288929 -1.436132 -1.8320949 4288085770
0.57790756 -1.7559347 -1.816407 4288085770
-0.59679604 -1.4050775 -1.8273454 4288085770
0.62800026 -1.7218485 -1.8117971 4288085770
-0.5527153 -1.3770027 -1.8256885 4288085770
0.68807411 -1.6917443 -1.8102646 4288085770
-0.50164032 -1.350915 -1.8250856 4288085770
0.76314163 -1.6646123 -1.8108475 4288085770
-0.45555496 -1.3228364 -1.8224442 4288085770
0.85118675 -1.6404562 -1.8145308 4288085770
-0.39149666 -1.2997241 -1.8249415 4288085770
0.92426682 -1.6123285 -1.8130987 4288085770
-0.32942581 -1.2756166 -1.8254236 4288085770
1.0123367 -1.5881724 -1.8137821 4288085770
-0.25637627 -1.2534885 -1.8289906 4288085770
1.0964146 -1.5600243 -1.8124349 4288085770
-0.19429016 -1.2283797 -1.8274726 4288085770
1.1914902 -1.5348563 -1.8121728 4288085770
-0.10824776 -1.209228 -1.8321398 4288085770
1.298542 -1.5126662 -1.8150028 4288085770
-0.035169601 -1.1850996 -1.831707 4288085770
1.4186001 -1.4914517 -1.8179336 4288085770
0.040904999 -1.1609664 -1.8322973 4288085770
1.5356674 -1.469243 -1.8198415 4288085770
0.11898994 -1.1378288 -1.8309031 4288085770
1.6477489 -1.4440441 -1.8187108 4288085770
0.20905495 -1.1156697 -1.8326018 4288085770
1.7868099 -1.4237957 -1.8217887 4288085770
0.30811501 -1.0944943 -1.8353698 4288085770
1.9238834 -1.4025502 -1.8228511 4288085770
0.39420128 -1.071342 -1.8340374 4288085770
2.0849323 -1.3842616 -1.8280991 4288085770
0.51025772 -1.0521355 -1.837937 4288085770
2.2270164 -1.3610072 -1.8272004 4288085770
0.58338356 -1.0240073 -1.8305045 4288085770
2.4030724 -1.3426914 -1.8315647 4288085770
0.68747139 -1.0018225 -1.8293116 4288085770
2.5641594 -1.3204021 -1.8308131 4288085770
0.78757095 -0.97664499 -1.8260878 4288085770
2.7252579 -1.2971139 -1.8280616 4288085770
0.89467239 -0.95345449 -1.8229181 4288085770
2.8703823 -1.2688541 -1.8211865 4288085770
1.0137615 -0.93124199 -1.8218411 4288085770
3.0434895 -1.245543 -1.8175282 4288085770
1.1388474 -0.90901899 -1.8208107 4288085770
3.2595615 -1.2271538 -1.8202021 4288085770
1.2889175 -0.88975048 -1.8229735 4288085770
3.4406929 -1.2008276 -1.8126057 4288085770
1.4579582 -0.87244701 -1.829283 4288085770
3.6547985 -1.1774426 -1.8092645 4288085770
1.5950661 -0.84820175 -1.8253458 4288085770
3.9098759 -1.1599822 -1.8112403 4288085770
1.7531567 -0.82691813 -1.8245708 4288085770
4.1489906 -1.1375499 -1.8070929 4288085770
1.9162445 -0.80562639 -1.8238343 4288085770
4.4600487 -1.1229882 -1.8125019 4288085770
2.0873375 -0.783319 -1.8221601 4288085770
4.7451515 -1.1024723 -1.8107103 4288085770
2.2564526 -0.75901508 -1.8174706 4288085770
5.0772343 -1.0848708 -1.8122823 4288085770
2.4365597 -0.73569155 -1.813866 4288085770
5.4333134 -1.0692263 -1.8150401 4288085770
2.6176872 -0.71136475 -1.8072695 4288085770
5.8333817 -1.0535011 -1.8191383 4288085770
2.8188019 -0.68800354 -1.8028276 4288085770
6.2025032 -1.0318322 -1.8149973 4288085770
3.0389099 -0.66460657 -1.7995328 4288085770
6.6346064 -1.0140491 -1.8143437 4288085770
3.2800083 -0.64217091 -1.7974006 4288085770
7.076726 -0.99324656 -1.8107679 4288085770
3.5351067 -0.61871099 -1.7953768 4288085770
7.5798407 -0.97433233 -1.8086642 4288085770
3.8152027 -0.59620428 -1.7935464 4288085770
8.1349421 -0.95732498 -1.8089628 4288085770
4.0993176 -0.57269096 -1.7897472 4288085770
8.7290602 -0.93824482 -1.8065639 4288085770
4.4343987 -0.55008411 -1.7903427 4288085770
9.3851833 -0.91805172 -1.803645 4288085770
4.7924862 -0.5264349 -1.7901164 4288085770
10.074328 -0.89679813 -1.7979819 4288085770
5.2085285 -0.50568056 -1.7963389 4288085770
10.856465 -0.87737513 -1.7940387 4288085770
5.5856495 -0.47899675 -1.7902601 4288085770
11.738598 -0.85676861 -1.7898697 4288085770
6.0427237 -0.45516682 -1.7918003 4288085770
12.643793 -0.83312082 -1.7778795 4288085770
6.5368032 -0.42926979 -1.7926273 4288085770
13.758935 -0.81308985 -1.7745149 4288085770
7.0369167 -0.40136147 -1.7885011 4288085770
7.6070185 -0.37232542 -1.785917 4288085770
8.2970743 -0.34507036 -1.7902616 4288085770
9.0251474 -0.31574631 -1.791901 4288085770
9.8262291 -0.28328753 -1.7921057 4288085770
10.682336 -0.2477293 -1.7887367 4288085770
11.657434 -0.21095324 -1.7862893 4288085770
12.793517 -0.1708827 -1.7860889 4288085770
14.082828 3.0760741 -1.794373 4288085770
13.880692 3.1876986 -1.7997916 4288085770
13.712526 3.3053856 -1.8074738 4288085770
13.502427 3.4149952 -1.80883 4288085770
13.3393 3.5286908 -1.8125514 4288085770
13.201171 3.6444321 -1.816467 4288085770
13.090029 3.765223 -1.8205923 4288085770
13.060825 3.8991647 -1.8303542 4288085770
12.936734 4.0139313 -1.8293788 4288085770
12.823644 4.1297183 -1.8284887 4288085770
12.801478 4.2626719 -1.833305 4288085770
12.882205 4.4198151 -1.8469204 4288085770
12.888028 4.5588202 -1.8519537 4288085770
12.875887 4.6957917 -1.8528471 4288085770
12.9127 4.8448539 -1.8571208 4288085770
13.058397 5.0201154 -1.8702397 4288085770
13.130189 5.1832414 -1.8737843 4288085770
13.173034 5.3363137 -1.8731041 4288085770
13.367706 5.5316653 -1.8846022 4288085770
13.471501 5.7068496 -1.8853943 4288085770
13.643215 5.9021573 -1.8917135 4288085770
13.929815 6.1336775 -1.9049239 4288085770
14.232397 6.3752265 -1.918258 4288085770
13.186836 0.076082706 -1.7925975 4288085770
11.831965 0.060604095 -1.7890426 4288085770
10.66506 0.048469067 -1.7899519 4288085770
9.6521444 0.03861475 -1.7920607 4288085770
8.7122679 0.031893253 -1.7887378 4288085770
7.8614016 0.027334213 -1.7841083 4288085770
7.1524916 0.024034977 -1.7855844 4288085770
13.577992 -0.092240334 -1.7826606 4288085770
6.5095739 0.021856308 -1.787575 4288085770
12.102087 -0.082940578 -1.7771593 4288085770
5.8827076 0.021705627 -1.7826899 4288085770
10.934122 -0.075077057 -1.7810577 4288085770
5.3328075 0.022696495 -1.7824042 4288085770
9.9071503 -0.066956997 -1.7860546 4288085770
4.8089352 0.02473402 -1.7783214 4288085770
8.9302473 -0.05774641 -1.7824409 4288085770
4.3460388 0.026883602 -1.7777135 4288085770
8.0643368 -0.047332764 -1.7796921 4288085770
3.9251308 0.029109001 -1.778433 4288085770
7.3094053 -0.037715435 -1.7808081 4288085770
3.5402164 0.032401085 -1.7804325 4288085770
6.6564522 -0.028912544 -1.7847188 4288085770
3.1932888 0.035763264 -1.7837282 4288085770
6.0185537 -0.018083096 -1.7817461 4288085770
2.8773594 0.040181637 -1.7872653 4288085770
5.4666271 -0.0080966949 -1.7824436 4288085770
2.5714397 0.044617653 -1.7898803 4288085770
4.927742 0.0019145012 -1.7782426 4288085770
2.2995014 0.049116611 -1.79476 4288085770
4.4578323 0.012050152 -1.7775789 4288085770
2.0056229 0.05557394 -1.7914683 4288085770
4.029911 0.022264004 -1.7782426 4288085770
1.7686825 0.061136723 -1.7966206 4288085770
3.64398 0.032554626 -1.7802334 4288085770
1.5207748 0.067678452 -1.7966872 4288085770
3.2870483 0.042897224 -1.78245 4288085770
1.2739029 0.075221539 -1.7927614 4288085770
2.9711018 0.052315712 -1.7869861 4288085770
1.0669823 0.081838608 -1.7951474 4288085770
2.6601772 0.062743187 -1.7885612 4288085770
0.87005997 0.088474274 -1.7976112 4288085770
2.3782444 0.073223114 -1.7913623 4288085770
0.67515182 0.096113205 -1.7980906 4288085770
2.0873413 0.083686352 -1.7900932 4288085770
0.50322342 0.10379457 -1.8017489 4288085770
1.834425 0.094219685 -1.7911202 4288085770
0.35925293 0.11052704 -1.8106254 4288085770
1.5825253 0.1057539 -1.7891548 4288085770
0.19334221 0.11921835 -1.8113306 4288085770
1.3516235 0.11632681 -1.7883532 4288085770
0.02945137 0.12691355 -1.8100514 4288085770
1.1446953 0.12694359 -1.7907385 4288085770
-0.12844467 0.13561964 -1.8088189 4288085770
0.9337883 0.13855267 -1.7900925 4288085770
-0.27534103 0.14534569 -1.8076719 4288085770
0.7698307 0.14824867 -1.7968125 4288085770
-0.403265 0.15310717 -1.8106729 4288085770
0.58292389 0.1599021 -1.7963537 4288085770
-0.52818298 0.16187286 -1.8126975 4288085770
0.42597961 0.1706109 -1.8011284 4288085770
-0.6890049 0.17257261 -1.8014416 4288085770
0.27704048 0.18133402 -1.8049655 4288085770
0.11614418 0.19203424 -1.8037091 4288085770
-0.028779984 0.20376492 -1.8055773 4288085770
-0.1766758 0.21548891 -1.8034221 4288085770
-0.31756401 0.22622538 -1.8013215 4288085770
-0.44548225 0.23798609 -1.8023223 4288085770
-0.56639862 0.24976015 -1.8033774 4288085770
-0.7002697 0.26150894 -1.7983314 4288085770
-0.72787285 2.3478258 -1.7935882 4288085770
-0.60781097 2.3800395 -1.7935152 4288085770
-0.48376846 2.4132614 -1.7954732 4288085770
-0.36467743 2.4424729 -1.7923932 4288085770
-0.2246418 2.4777236 -1.7954752 4288085770
-0.097543716 2.5069492 -1.7914575 4288085770
0.040529251 2.5381961 -1.7905248 4288085770
0.20353508 2.5784893 -1.7957848 4288085770
0.35560036 2.6117613 -1.7949607 4288085770
-0.62276077 2.28497 -1.7934037 4288085770
0.50768089 2.6430254 -1.793138 4288085770
-0.48871231 2.3122017 -1.7964418 4288085770
0.67674446 2.6793275 -1.7924458 4288085770
-0.36064148 2.3364298 -1.7974328 4288085770
0.86176682 2.7196605 -1.7958772 4288085770
-0.24053574 2.3556426 -1.7943627 4288085770
1.035841 2.7529719 -1.7942246 4288085770
-0.098474503 2.3808966 -1.7964625 4288085770
1.2338791 2.7933278 -1.7957574 4288085770
0.075494766 2.4152105 -1.8078095 4288085770
1.4239521 2.8276687 -1.7942291 4288085770
0.17370605 2.4223812 -1.7945708 4288085770
1.6379757 2.8690541 -1.7968861 4288085770
0.3337574 2.4476678 -1.7978108 4288085770
1.8710022 2.9124742 -1.7996905 4288085770
0.49283218 2.4719527 -1.798043 4288085770
2.0850773 2.9478583 -1.797349 4288085770
0.6449337 2.4912236 -1.7962222 4288085770
2.3221302 2.9882855 -1.7971852 4288085770
0.81101418 2.5135207 -1.7965093 4288085770
2.5821571 3.0327544 -1.7991998 4288085770
0.97211647 2.5318084 -1.7947586 4288085770
2.826231 3.0701938 -1.7970911 4288085770
1.1831131 2.5641899 -1.803394 4288085770
3.1032677 3.1146941 -1.7982379 4288085770
1.3681927 2.5855222 -1.8038293 4288085770
3.3943005 3.1592197 -1.7994936 4288085770
1.5163784 2.5937841 -1.7939796 4288085770
3.6963444 3.2037652 -1.799835 4288085770
1.715456 2.6151416 -1.7945238 4288085770
4.036335 3.256381 -1.8054705 4288085770
1.9265289 2.6365213 -1.7961615 4288085770
4.3733673 3.3039904 -1.8060837 4288085770
2.1286392 2.652884 -1.7937304 4288085770
4.7533569 3.3596797 -1.8110298 4288085770
2.3477325 2.6722775 -1.7934307 4288085770
5.1223984 3.4073472 -1.8108921 4288085770
2.5788116 2.6926937 -1.7942244 4288085770
5.5593529 3.4691408 -1.8192806 4288085770
2.8119087 2.7101133 -1.7940341 4288085770
5.9873667 3.5239167 -1.8216004 4288085770
3.0420284 2.7235267 -1.7908213 4288085770
6.437377 3.578733 -1.8240919 4288085770
3.2881374 2.7379699 -1.7897331 4288085770
6.9233742 3.6366153 -1.8278626 4288085770
3.537262 2.7504177 -1.7866684 4288085770
7.4114103 3.6905003 -1.82765 4288085770
3.8193417 2.7679272 -1.7888595 4288085770
7.9534006 3.7514846 -1.831856 4288085770
4.0844727 2.7774045 -1.7859201 4288085770
8.5244045 3.8125219 -1.8342879 4288085770
4.3885651 2.7929537 -1.7862829 4288085770
9.1334085 3.8736281 -1.8370155 4288085770
4.6986675 2.8055139 -1.786693 4288085770
9.7744093 3.9367929 -1.8399917 4288085770
5.0347404 2.8211219 -1.7903047 4288085770
10.450423 4.0000215 -1.8412404 4288085770
5.3638535 2.8307166 -1.7898635 4288085770
11.211387 4.0724063 -1.8471487 4288085770
5.71595 2.8403537 -1.7916009 4288085770
11.884503 4.1176271 -1.839378 4288085770
6.1200037 2.8560863 -1.7977419 4288085770
12.669561 4.176054 -1.8364762 4288085770
6.4851446 2.8587465 -1.7955822 4288085770
13.473652 4.2285142 -1.8307238 4288085770
6.8662863 2.8604355 -1.7935472 4288085770
7.2883921 2.8642006 -1.7958307 4288085770
7.6985416 2.8609428 -1.7940226 4288085770
8.163662 2.860786 -1.7956418 4288085770
8.6387835 2.8586476 -1.7973391 4288085770
9.118928 2.8495183 -1.7980769 4288085770
9.619091 2.8374248 -1.796971 4288085770
10.146253 2.8223808 -1.7970759 4288085770
10.69742 2.8043807 -1.7973682 4288085770
11.220652 2.7753282 -1.7914448 4288085770
11.803851 2.7463863 -1.7899885 4288085770
12.418049 2.7145009 -1.7897739 4288085770
13.005316 2.669565 -1.7833521 4288085770
13.640561 2.6247177 -1.7803038 4288085770
9.8922415 -5.2698674 -0.43054703 4293729569
9.9380922 -5.3186107 -1.2399377 4293729569
9.8891973 -5.3818688 -0.47754624 4293729569
9.7980251 -5.3818622 -1.2778604 4293729569
9.7469568 -5.4749541 -1.3234822 4293729569
9.769866 -5.5949054 -1.3776853 4293729569
10.803812 -6.1009955 -1.5228367 4293729569
10.300671 -6.0239158 -1.5359051 4293729569
9.7335291 -5.9129558 -1.5404685 4293729569
9.2443924 -5.8258529 -1.5506438 4293729569
8.7582569 -5.7317443 -1.558841 4293729569
8.2801247 -5.6336198 -1.5660996 4293729569
7.8109951 -5.5304809 -1.5714275 4293729569
7.357872 -5.4303117 -1.5768802 4293729569
6.902751 -5.3231473 -1.5803161 4293729569
6.4966383 -5.2288928 -1.586136 4293729569
6.0755243 -5.1216655 -1.5888364 4293729569
11.651519 -7.6895356 -1.4517421 4293729569
5.6854191 -5.0233827 -1.5927801 4293729569
10.842036 -7.4300151 -1.4643899 4293729569
5.3023243 -4.9230866 -1.5947777 4293729569
10.049579 -7.1674647 -1.4731694 4293729569
4.913229 -4.8138022 -1.5947272 4293729569
9.4261904 -6.9706035 -1.4892781 4293729569
4.5521355 -4.7104659 -1.5958952 4293729569
8.7658052 -6.7488122 -1.4990938 4293729569
4.1790638 -4.5971541 -1.5919681 4293729569
8.1564436 -6.5429263 -1.5093098 4293729569
3.8679771 -4.5077271 -1.5955284 4293729569
7.6021156 -6.3549399 -1.5199574 4293729569
3.5699005 -4.4222751 -1.599191 4293729569
7.0538063 -6.1629443 -1.5276513 4293729569
3.297821 -4.3437753 -1.605057 4293729569
6.5785179 -5.9978147 -1.5389187 4293729569
3.0387421 -4.2682528 -1.6110249 4293729569
6.1262426 -5.839644 -1.5503668 4293729569
2.8246536 -4.2116475 -1.623347 4293729569
2.5885773 -4.1400819 -1.6304946 4293729569
3.8908558 -4.8127675 -1.3797567 4293729569
2.3395214 -4.0585418 -1.6325392 4293729569
3.8556366 -4.8458266 -1.43049 4293729569
2.1144581 -3.9859567 -1.6377724 4293729569
3.838419 -4.8878522 -1.4833652 4293729569
1.884407 -3.9073815 -1.6399655 4293729569
3.8111801 -4.9228969 -1.5371611 4293729569
1.6773529 -3.8367639 -1.6443392 4293729569
3.6559658 -4.887177 -1.5709462 4293729569
1.5772438 -3.8219466 -1.669557 4293729569
3.3498058 -4.7657409 -1.5765383 4293729569
1.5081081 -3.823071 -1.7020193 4293729569
3.080637 -4.6612353 -1.587422 4293729569
1.4349709 -3.8192058 -1.7334496 4288085770
2.8514709 -4.574656 -1.6026207 4293729569
1.368824 -3.8183246 -1.7669346 4288085770
2.563343 -4.4521861 -1.604353 4293729569
1.2926865 -3.809463 -1.7973404 4288085770
2.3072147 -4.3436589 -1.6093371 4293729569
1.1356258 -3.7527518 -1.806106 4288085770
2.0850849 -4.2500682 -1.6175889 4293729569
0.93061066 -3.6661344 -1.801492 4288085770
1.8589706 -4.1524854 -1.6238087 4293729569
0.73260689 -3.5795016 -1.7959325 4288085770
1.6258774 -4.0469146 -1.6249727 4293729569
0.55759048 -3.5038276 -1.7945544 4288085770
1.4287758 -3.9582791 -1.6314201 4293729569
0.40655899 -3.4401078 -1.7983652 4288085770
1.2456799 -3.876617 -1.638978 4293729569
0.26452827 -3.3793721 -1.8022468 4288085770
1.1005764 -3.8128858 -1.6518352 4293729569
0.13549232 -3.3236117 -1.8082306 4288085770
1.0493946 -3.8029761 -1.6874353 4293729569
-0.0025215149 -3.2608685 -1.8101431 4288085770
1.0132217 -3.8000398 -1.7241533 4293729569
-0.15051651 -3.190145 -1.806976 4288085770
0.98802948 -3.8020835 -1.763958 4288085770
-0.26055145 -3.1403499 -1.8141091 4288085770
0.92586899 -3.7801957 -1.7944697 4288085770
-0.38455582 -3.0785818 -1.8151305 4288085770
0.75780869 -3.6935096 -1.7961434 4288085770
-0.50655365 -3.0188107 -1.8151679 4288085770
0.57378197 -3.5948501 -1.7906901 4288085770
-0.62654686 -2.9570355 -1.8142205 4288085770
0.408741 -3.5061564 -1.7893867 4288085770
0.29766846 -3.4473634 -1.7995098 4288085770
0.16262817 -3.3716159 -1.8014425 4288085770
0.043579102 -3.3048377 -1.8065019 4288085770
-0.095424652 -3.2240968 -1.8024025 4288085770
-0.19447327 -3.1662827 -1.8096193 4288085770
-0.29151726 -3.1064644 -1.8158511 4288085770
-0.40851974 -3.0346837 -1.8139248 4288085770
-0.51752472 -2.9668884 -1.8130618 4288085770
-0.6045475 -2.9100528 -1.8173721 4288085770
-0.71352577 -2.8392577 -1.8125085 4288085770
-0.70033073 -0.67468071 -1.814081 4288085770
-0.61026573 -0.66052246 -1.8177775 4288085770
-0.54513168 -0.64141226 -1.8112788 4288085770
-0.47800636 -0.62229776 -1.8057954 4288085770
-0.38092232 -0.60812807 -1.8075465 4288085770
-0.2908268 -0.59297037 -1.8072429 4288085770
-0.17775917 -0.57977104 -1.8111184 4288085770
-0.097623825 -0.56163311 -1.8047365 4288085770
0.009475708 -0.54644585 -1.8035649 4288085770
0.13154984 -0.53322935 -1.8065106 4288085770
0.25263786 -0.51901531 -1.8074481 4288085770
0.36576271 -0.50381851 -1.8033235 4288085770
-0.64055061 -0.36064625 -1.8134668 4288085770
0.48287773 -0.48761272 -1.8002295 4288085770
-0.56739998 -0.34252214 -1.8050305 4288085770
0.62197304 -0.47336626 -1.8003072 4288085770
-0.4612999 -0.32933521 -1.8048518 4288085770
0.76707649 -0.45910978 -1.7994313 4288085770
-0.35719681 -0.31515312 -1.8036572 4288085770
0.90619278 -0.44386482 -1.7965089 4288085770
-0.23113823 -0.30292988 -1.808634 4288085770
1.0612946 -0.43059015 -1.7957112 4288085770
-0.13698196 -0.28676701 -1.8003614 4288085770
1.2274036 -0.41629553 -1.7939987 4288085770
-0.004907608 -0.27453375 -1.8033849 4288085770
1.4144859 -0.40396166 -1.7964498 4288085770
0.1221962 -0.2603097 -1.8023692 4288085770
1.6115723 -0.39061022 -1.7979786 4288085770
0.25828743 -0.24706888 -1.8024237 4288085770
1.80966 -0.37725735 -1.7985153 4288085770
0.4023819 -0.23381424 -1.8025404 4288085770
2.0217724 -0.3638792 -1.7971606 4288085770
0.55347824 -0.22054577 -1.8027114 4288085770
2.2368889 -0.35049677 -1.7948297 4288085770
0.69960403 -0.20628881 -1.7988436 4288085770
2.468998 -0.33708191 -1.7936307 4288085770
0.87568474 -0.19397449 -1.8012092 4288085770
2.7250977 -0.32362461 -1.7936182 4288085770
1.054781 -0.18065643 -1.8015981 4288085770
2.96525 -0.30819654 -1.786481 4288085770
1.224905 -0.16635561 -1.7979168 4288085770
3.2443657 -0.29469824 -1.7846477 4288085770
1.4020386 -0.15204144 -1.7932899 4288085770
3.5464897 -0.28215694 -1.7819932 4288085770
1.6231174 -0.13964653 -1.7960055 4288085770
3.8706131 -0.26857662 -1.7795098 4288085770
1.8392277 -0.12626171 -1.794682 4288085770
4.2207336 -0.25494957 -1.7772282 4288085770
2.0883007 -0.11381531 -1.7986153 4288085770
4.6148319 -0.24324083 -1.7782893 4288085770
2.3424015 -0.10036135 -1.7985873 4288085770
5.0669079 -0.23142719 -1.7828013 4288085770
2.5695629 -0.085958481 -1.7903495 4288085770
5.537014 -0.21958113 -1.7834536 4288085770
2.8376942 -0.071479797 -1.7864302 4288085770
6.0491228 -0.20665979 -1.783432 4288085770
3.1627769 -0.058896065 -1.7889545 4288085770
6.5892487 -0.19368744 -1.7816283 4288085770
3.4569225 -0.044371605 -1.7832375 4288085770
7.2013636 -0.18058491 -1.7813843 4288085770
3.8040295 -0.03074789 -1.7819327 4288085770
7.8954601 -0.16833305 -1.7827784 4288085770
4.160162 -0.01611042 -1.7776978 4288085770
8.6485806 -0.15597439 -1.7826312 4288085770
4.5942478 -0.0023298264 -1.7800695 4288085770
9.5396738 -0.14436531 -1.7865571 4288085770
5.0613365 0.010510445 -1.782698 4288085770
10.496797 -0.13163757 -1.7869961 4288085770
5.567421 0.024421692 -1.7856294 4288085770
11.471998 -0.11587954 -1.7765749 4288085770
6.1245136 0.038425446 -1.7879575 4288085770
12.723131 -0.10261965 -1.7763002 4288085770
6.7106409 0.053480148 -1.785511 4288085770
7.3687506 0.068665981 -1.7856244 4288085770
8.1368256 0.084051609 -1.7905929 4288085770
9.0148897 0.099637032 -1.7974168 4288085770
9.9430037 0.11631203 -1.7976294 4288085770
10.971148 0.13416624 -1.7946197 4288085770
12.230217 0.15244198 -1.8014055 4288085770
13.687304 0.17207575 -1.8067311 4288085770
13.218678 0.36270952 -1.7951893 4288085770
11.863754 0.36729765 -1.7936076 4288085770
10.7068 0.37323904 -1.7965716 4288085770
9.6548853 0.38036489 -1.7943553 4288085770
8.7079868 0.38667727 -1.7909591 4288085770
7.9000616 0.394238 -1.7906475 4288085770
7.1721382 0.40193939 -1.790961 4288085770
13.538325 0.49222994 -1.7806545 4288085770
6.5152283 0.41076756 -1.7898285 4288085770
12.219337 0.50088453 -1.786352 4288085770
5.9153137 0.41869593 -1.7891413 4288085770
11.032378 0.50977278 -1.7890805 4288085770
5.3634167 0.42670965 -1.7868289 4288085770
10.007413 0.51894855 -1.7930738 4288085770
4.8575172 0.4358058 -1.7848754 4288085770
9.0574961 0.52725697 -1.791653 4288085770
4.4325809 0.44504642 -1.7875541 4288085770
8.2455635 0.5368104 -1.7923095 4288085770
4.0226631 0.45431328 -1.78835 4288085770
7.4806566 0.54544592 -1.7903334 4288085770
3.6417503 0.46363068 -1.7883725 4288085770
6.8007526 0.55523252 -1.7880207 4288085770
3.2908382 0.47300196 -1.7886293 4288085770
6.1948376 0.56515121 -1.7872858 4288085770
2.9569302 0.48240328 -1.7880186 4288085770
5.6319389 0.57414532 -1.7848871 4288085770
2.6699886 0.4928894 -1.7917746 4288085770
5.1540031 0.58429146 -1.7871515 4288085770
2.4140339 0.50343037 -1.7977726 4288085770
4.6931019 0.59446764 -1.7855488 4288085770
2.1571007 0.5139699 -1.8007629 4288085770
4.2761784 0.60472155 -1.7862898 4288085770
1.9131794 0.52453136 -1.8018546 4288085770
3.8992538 0.61604738 -1.7873427 4288085770
1.6962376 0.53514147 -1.8061571 4288085770
3.5493317 0.6264205 -1.7886066 4288085770
1.4703445 0.544734 -1.8043898 4288085770
3.2304039 0.63784933 -1.7901124 4288085770
1.2514477 0.55533934 -1.8026769 4288085770
2.9384727 0.64832592 -1.7928293 4288085770
1.0555344 0.56598568 -1.8031436 4288085770
2.6605396 0.65982771 -1.7956551 4288085770
0.86763 0.57664633 -1.8026725 4288085770
2.4076023 0.67137384 -1.7986761 4288085770
0.68174934 0.58630991 -1.7992177 4288085770
2.1726646 0.68395185 -1.8018377 4288085770
0.52282143 0.59702206 -1.801973 4288085770
1.9587097 0.69656754 -1.807163 4288085770
0.36391449 0.60873413 -1.8017282 4288085770
1.7377968 0.70716953 -1.8074343 4288085770
0.22298241 0.62047911 -1.804624 4288085770
1.5199089 0.7187767 -1.8047287 4288085770
0.088060379 0.63123417 -1.8065668 4288085770
1.3130207 0.72840309 -1.8021098 4288085770
-0.042854309 0.64199638 -1.8075409 4288085770
1.1201229 0.74005413 -1.8005995 4288085770
-0.16179466 0.65478086 -1.8116081 4288085770
0.93223381 0.75071383 -1.7981285 4288085770
-0.29368591 0.66554022 -1.8095745 4288085770
0.76631546 0.76341391 -1.7988286 4288085770
-0.41259575 0.67732334 -1.809642 4288085770
0.61240768 0.77512789 -1.7996199 4288085770
-0.52449799 0.68911123 -1.8097607 4288085770
0.45152473 0.78683519 -1.7963585 4288085770
-0.64238739 0.69989491 -1.8078355 4288085770
0.31959152 0.79959536 -1.7993231 4288085770
0.19365692 0.81236649 -1.8023348 4288085770
0.064743042 0.82513165 -1.802323 4288085770
-0.064149857 0.83689618 -1.8003118 4288085770
-0.18704224 0.84867144 -1.7983474 4288085770
-0.27102852 0.86451864 -1.8076862 4288085770
-0.38691521 0.87630582 -1.8047763 4288085770
-0.48882294 0.88911867 -1.8049756 4288085770
-0.58872795 0.9019351 -1.8041906 4288085770
-0.6836319 0.91476011 -1.8034446 4288085770
-0.62646103 3.1903043 -1.7991974 4288085770
-0.4935112 3.2575347 -1.8062168 4288085770
-0.38845253 3.3067126 -1.803023 4288085770
-0.25448418 3.3709438 -1.8080509 4288085770
-0.11351204 3.4381871 -1.8121328 4288085770
0.063358307 3.5224965 -1.8254906 4288085770
0.20236778 3.583735 -1.8255588 4288085770
0.36731911 3.6580212 -1.8308258 4288085770
0.53227997 3.7303066 -1.8350935 4288085770
-0.62542725 3.1602521 -1.8012027 4288085770
0.69827271 3.7995934 -1.8363699 4288085770
-0.50140762 3.2094648 -1.8031567 4288085770
0.86426926 3.8688796 -1.8366464 4288085770
-0.36541367 3.2636991 -1.8072031 4288085770
1.0502415 3.9442019 -1.8390771 4288085770
-0.24436188 3.3079062 -1.8061349 4288085770
1.2481937 4.0245452 -1.8426002 4288085770
-0.08540535 3.3691816 -1.8133588 4288085770
1.4511662 4.104897 -1.8441622 4288085770
0.069566727 3.4274504 -1.8195521 4288085770
1.6551456 4.1832504 -1.8447328 4288085770
0.22158623 3.4807122 -1.8207235 4288085770
1.8800983 4.2686415 -1.8474648 4288085770
0.39553833 3.5440145 -1.8280635 4288085770
2.1190338 4.3590565 -1.8513049 4288085770
0.56054497 3.6002996 -1.8303356 4288085770
2.3550072 4.445466 -1.8511227 4288085770
0.7345295 3.6586013 -1.8346772 4288085770
2.6069546 4.5359044 -1.8530642 4288085770
0.90056229 3.7118869 -1.8339578 4288085770
2.8848743 4.6363888 -1.8572059 4288085770
1.0805759 3.768198 -1.8353467 4288085770
3.1937561 4.7469287 -1.8635865 4288085770
1.2655983 3.8235178 -1.8357748 4288085770
3.4856968 4.8464365 -1.8648376 4288085770
1.4675827 3.8858685 -1.8393337 4288085770
3.818573 4.9610186 -1.8714045 4288085770
1.6586246 3.9391983 -1.8378091 4288085770
4.1694527 5.0806308 -1.8761102 4288085770
1.8795967 4.0045819 -1.8425153 4288085770
4.5273361 5.1992564 -1.8808709 4288085770
2.0936203 4.0629525 -1.8421689 4288085770
4.8792801 5.3088694 -1.8795873 4288085770
2.3116379 4.1213303 -1.8428534 4288085770
5.2921181 5.4425921 -1.886773 4288085770
2.5526237 4.1867495 -1.8457156 4288085770
5.7449265 5.589385 -1.8952669 4288085770
2.7826672 4.2431474 -1.8434945 4288085770
6.1887913 5.7251611 -1.8986938 4288085770
3.0506287 4.3136139 -1.8485657 4288085770
6.6945782 5.8830476 -1.9075983 4288085770
3.3236179 4.3810887 -1.850677 4288085770
7.2133799 6.0399566 -1.9146043 4288085770
3.6165752 4.4545994 -1.8559424 4288085770
7.7711649 6.2059345 -1.9219122 4288085770
3.8896103 4.5150728 -1.8540553 4288085770
8.4348135 6.4091005 -1.9390365 4288085770
4.1546707 4.568532 -1.8501078 4288085770
9.0216484 6.5731277 -1.9405712 4288085770
4.4786358 4.642097 -1.8546149 4288085770
9.6664391 6.7512574 -1.9445544 4288085770
4.8555164 4.733757 -1.8655305 4288085770
10.384153 6.9515171 -1.9541008 4288085770
5.2014961 4.8073602 -1.8682091 4288085770
11.063005 7.1257038 -1.9513501 4288085770
5.5524845 4.8779721 -1.8699276 4288085770
11.909646 7.3571911 -1.9638942 4288085770
5.9364376 4.9566426 -1.8749012 4288085770
12.715412 7.5616031 -1.9661257 4288085770
6.3164263 5.0273051 -1.8768456 4288085770
13.621102 7.7941923 -1.9721299 4288085770
6.7343674 5.108036 -1.8830837 4288085770
7.1463509 5.1817551 -1.8852768 4288085770
7.5713463 5.2524958 -1.8865722 4288085770
8.0093498 5.3232603 -1.8869687 4288085770
8.4912987 5.4031034 -1.8927062 4288085770
8.9822865 5.4769607 -1.894515 4288085770
9.4942579 5.552856 -1.8984871 4288085770
9.9922781 5.616725 -1.8983533 4288085770
10.516299 5.6816397 -1.8984219 4288085770
11.064309 5.7475977 -1.8996774 4288085770
11.650298 5.8166218 -1.902228 4288085770
12.281268 5.8907256 -1.9071283 4288085770
12.863333 5.9427423 -1.9046524 4288085770
13.530313 6.0099092 -1.909835 4288085770
14.212326 6.0711017 -1.9121361 4288085770
14.064834 -2.9277182 -1.7729619 4288085770
13.468974 -2.9587708 -1.7743207 4288085770
12.890108 -2.9857931 -1.7758113 4288085770
12.271262 -2.9968872 -1.7709867 4288085770
11.748368 -3.0178103 -1.7749124 4288085770
11.21149 -3.0287595 -1.774727 4288085770
10.743569 -3.0455856 -1.7810806 4288085770
10.261666 -3.0534372 -1.7833233 4288085770
9.7747669 -3.053298 -1.7835251 4288085770
9.315856 -3.0531096 -1.7849455 4288085770
8.8449545 -3.042943 -1.7832702 4288085770
8.3870411 -3.0317521 -1.7816962 4288085770
7.9581213 -3.0215116 -1.7823485 4288085770
13.770124 -4.4773698 -1.6279416 4293729569
7.546196 -3.0092406 -1.7831326 4288085770
13.048 -4.421639 -1.6432989 4293729569
7.120286 -2.9869952 -1.7798057 4288085770
12.400872 -4.373776 -1.6612422 4293729569
6.7483549 -2.971653 -1.7809012 4288085770
11.856743 -4.3447318 -1.6839925 4293729569
6.3854227 -2.955296 -1.7820665 4288085770
11.354607 -4.3206134 -1.7090716 4288085770
6.0314922 -2.9359236 -1.7823014 4288085770
10.889471 -4.2974296 -1.7344389 4288085770
5.6925621 -2.9165244 -1.7826536 4288085770
10.422342 -4.2692485 -1.7577899 4288085770
5.3726139 -2.8970919 -1.7851533 4288085770
9.920228 -4.2241321 -1.7748646 4288085770
5.0536842 -2.8736572 -1.7846605 4288085770
9.3861504 -4.1620727 -1.7836864 4288085770
4.7417431 -2.8482113 -1.7852215 4288085770
8.8040924 -4.0790992 -1.78513 4288085770
4.4577961 -2.8257151 -1.7870014 4288085770
8.2300558 -3.9921126 -1.7826355 4288085770
4.16786 -2.7992296 -1.7867341 4288085770
7.6680346 -3.8991055 -1.7772331 4288085770
3.8739357 -2.7667522 -1.7834342 4288085770
7.1460142 -3.8120284 -1.773144 4288085770
3.6259804 -2.7441931 -1.7864949 4288085770
6.6779861 -3.7358565 -1.772478 4288085770
3.4090023 -2.7305779 -1.7947989 4288085770
6.2439528 -3.6656232 -1.7740784 4288085770
3.1460686 -2.6970453 -1.7927406 4288085770
5.8529186 -3.6043124 -1.7780159 4288085770
2.9300995 -2.6764293 -1.798051 4288085770
5.4568958 -3.5350137 -1.7789128 4288085770
2.7031593 -2.6488338 -1.7982746 4288085770
5.0668888 -3.4627051 -1.7768558 4288085770
2.4802055 -2.6192303 -1.7995287 4288085770
4.7158718 -3.3993258 -1.7781048 4288085770
2.2822456 -2.5965829 -1.8039793 4288085770
4.3818607 -3.3379169 -1.7794868 4288085770
2.0772934 -2.5679483 -1.8053741 4288085770
4.0588474 -3.2754884 -1.7809545 4288085770
1.8853378 -2.5412908 -1.8078706 4288085770
3.7548447 -3.2160277 -1.7815707 4288085770
1.6813927 -2.5076547 -1.8072722 4288085770
3.4678402 -3.1595368 -1.7833202 4288085770
1.4984512 -2.4789815 -1.8078386 4288085770
3.2108135 -3.109992 -1.789305 4288085770
1.3135033 -2.4483118 -1.8083889 4288085770
2.9368267 -3.0514793 -1.7881554 4288085770
1.1305637 -2.4136386 -1.8069541 4288085770
2.6788387 -2.9949374 -1.7881311 4288085770
0.95962524 -2.3829451 -1.8066137 4288085770
2.4438343 -2.944355 -1.7912874 4288085770
0.80067253 -2.3542295 -1.8083671 4288085770
2.2058525 -2.8887782 -1.7904192 4288085770
0.6517067 -2.3274961 -1.812199 4288085770
2.0098419 -2.8481264 -1.7968814 4288085770
0.52273941 -2.3067269 -1.8181878 4288085770
1.8038483 -2.7994928 -1.7992641 4288085770
0.35581398 -2.2680268 -1.8138771 4288085770
1.5908718 -2.7468724 -1.7985917 4288085770
0.21286583 -2.2382827 -1.8147551 4288085770
1.4068737 -2.7021999 -1.8021468 4288085770
0.074926376 -2.2075315 -1.8146719 4288085770
1.2099056 -2.6505523 -1.8005992 4288085770
-0.042049408 -2.184741 -1.8207539 4288085770
1.0389214 -2.6068578 -1.8032559 4288085770
-0.17598343 -2.1519828 -1.8197016 4288085770
0.87493706 -2.5641508 -1.8059673 4288085770
-0.30292511 -2.1212115 -1.8197044 4288085770
0.70396805 -2.5174565 -1.8056235 4288085770
-0.44482613 -2.0824676 -1.8125887 4288085770
0.56397247 -2.4807067 -1.8115231 4288085770
-0.54080772 -2.0606408 -1.8198345 4288085770
0.41200256 -2.4369788 -1.8123281 4288085770
-0.64776421 -2.0338335 -1.8229939 4288085770
0.27402115 -2.3972259 -1.8152426 4288085770
0.12506104 -2.3514943 -1.8140707 4288085770
-0.0099048615 -2.3107362 -1.815009 4288085770
-0.14286613 -2.2689757 -1.8149623 4288085770
-0.26882362 -2.2282023 -1.8149707 4288085770
-0.38778877 -2.1894169 -1.816034 4288085770
-0.50475121 -2.1496277 -1.8171126 4288085770
-0.62169647 -2.1078396 -1.8151909 4288085770
-0.72366142 -2.0730233 -1.8173876 4288085770
-0.69047165 0.070373058 -1.7999083 4288085770
-0.57241058 0.081573486 -1.804818 4288085770
-0.46230316 0.094757557 -1.8036653 4288085770
-0.34221649 0.10596132 -1.8055904 4288085770
-0.24206352 0.11912727 -1.7983605 4288085770
-0.10798645 0.13035488 -1.8013939 4288085770
0.031099319 0.142591 -1.8034657 4288085770
0.17818642 0.15384054 -1.8055996 4288085770
0.31131744 0.16606522 -1.8016249 4288085770
-0.61477852 0.2104516 -1.8074454 4288085770
0.46542168 0.17832661 -1.8008126 4288085770
-0.49468231 0.22065449 -1.8083706 4288085770
0.61355591 0.1895771 -1.7969542 4288085770
-0.36359406 0.23087597 -1.8103808 4288085770
0.77966118 0.20185947 -1.7962347 4288085770
-0.25144958 0.24106312 -1.8052442 4288085770
0.93980026 0.21313095 -1.7914689 4288085770
-0.10637856 0.25130987 -1.8093625 4288085770
1.1408863 0.22447395 -1.7940203 4288085770
0.029743195 0.26054001 -1.8074116 4288085770
1.3339939 0.2358036 -1.7935097 4288085770
0.18881416 0.27081108 -1.8116384 4288085770
1.556078 0.2471838 -1.7962232 4288085770
0.33095741 0.28105116 -1.8067336 4288085770
1.7762012 0.25856018 -1.7939215 4288085770
0.47909164 0.29030132 -1.8028754 4288085770
2.0093117 0.27095795 -1.79272 4288085770
0.64620972 0.29958487 -1.8011642 4288085770
2.2684097 0.28240252 -1.7937195 4288085770
0.82232475 0.30788517 -1.8005224 4288085770
2.5485001 0.2938838 -1.7958815 4288085770
1.0134373 0.31721067 -1.7999965 4288085770
2.805666 0.30432272 -1.7878659 4288085770
1.2045612 0.3265357 -1.7974707 4288085770
3.1187744 0.31486082 -1.7882832 4288085770
1.4266548 0.33591604 -1.7991846 4288085770
3.4359131 0.32640457 -1.7837312 4288085770
1.6747265 0.34534216 -1.8040993 4288085770
3.803009 0.33803654 -1.7855656 4288085770
1.9028625 0.35373068 -1.8008595 4288085770
4.1911278 0.34970474 -1.7845625 4288085770
2.1380196 0.36212301 -1.7956709 4288085770
4.6292267 0.3614502 -1.786942 4288085770
2.4121304 0.37059259 -1.7957857 4288085770
5.0933342 0.37225008 -1.7875252 4288085770
2.6882725 0.37806511 -1.7919159 4288085770
5.6204243 0.38416004 -1.7905949 4288085770
2.9913902 0.38658428 -1.7902548 4288085770
6.1945143 0.39615154 -1.793028 4288085770
3.3265095 0.39415979 -1.7898409 4288085770
6.8376007 0.40826368 -1.796994 4288085770
3.7006111 0.40180349 -1.7917284 4288085770
7.4907494 0.41939068 -1.7930372 4288085770
4.093729 0.40848017 -1.7917626 4288085770
8.2708406 0.43174028 -1.7970618 4288085770
4.5138531 0.41520309 -1.7910054 4288085770
9.1429415 0.44424963 -1.7997972 4288085770
4.9919472 0.42202759 -1.7946962 4288085770
10.103057 0.45691109 -1.8012123 4288085770
5.4820843 0.42887163 -1.7924798 4288085770
11.159208 0.46873808 -1.7983696 4288085770
6.0611753 0.43487215 -1.7969511 4288085770
12.394347 0.48187733 -1.7979097 4288085770
6.6892729 0.43995714 -1.8008008 4288085770
13.745538 0.49421692 -1.7913457 4288085770
7.3474188 0.44409275 -1.7988825 4288085770
8.0995474 0.44839334 -1.7996904 4288085770
8.9586506 0.45187902 -1.8043247 4288085770
9.9487514 0.45459366 -1.8099712 4288085770
10.986914 0.45538998 -1.8079886 4288085770
12.164083 0.45542669 -1.8060799 4288085770
13.487293 0.45271683 -1.8002993 4288085770
9.8793278 -5.3782039 -0.48163888 4293729569
9.8769207 -5.2652097 -0.52459681 4293729569
13.460067 0.65656519 -1.7842475 4288085770
12.280025 0.68656874 -1.794391 4288085770
11.179051 0.71170664 -1.7961283 4288085770
10.184096 0.73602247 -1.7966611 4288085770
9.3041611 0.75853252 -1.7950573 4288085770
8.5222273 0.77920771 -1.7941889 4288085770
7.848258 0.80106497 -1.7981305 4288085770
7.1883469 0.81994581 -1.7951779 4288085770
13.510263 1.1265867 -1.7705557 4288085770
6.6304102 0.83899903 -1.7959906 4288085770
12.415233 1.1427345 -1.782341 4288085770
6.0934868 0.85708761 -1.7949609 4288085770
11.349291 1.1539316 -1.7833449 4288085770
5.595583 0.87424159 -1.792224 4288085770
10.42633 1.1673696 -1.7874212 4288085770
5.1646404 0.89350867 -1.7939899 4288085770
9.559412 1.1789021 -1.7859184 4288085770
4.7637157 0.91082621 -1.7939808 4288085770
8.8544254 1.1937079 -1.7936296 4288085770
4.3798008 0.92817283 -1.7930995 4288085770
8.1435366 1.2035034 -1.7892971 4288085770
4.0688343 0.94664192 -1.7987653 4288085770
7.5206299 1.2144473 -1.7876241 4288085770
3.7419186 0.96308422 -1.7983117 4288085770
6.9726944 1.2285178 -1.7895138 4288085770
3.4360104 0.97856212 -1.7970158 4288085770
6.448782 1.2406282 -1.7885838 4288085770
3.1700668 0.99710727 -1.8000196 4288085770
5.9848595 1.25384 -1.7891035 4288085770
2.8941746 1.011636 -1.796949 4288085770
5.5469532 1.2660956 -1.7878186 4288085770
2.6811981 1.0312705 -1.8033506 4288085770
5.1590118 1.280436 -1.7899085 4288085770
2.457262 1.0478864 -1.8056698 4288085770
4.8220596 1.2968614 -1.7943805 4288085770
2.2433434 1.0645196 -1.8060641 4288085770
4.4641724 1.3092523 -1.7906957 4288085770
2.0613823 1.0832062 -1.8116982 4288085770
4.1412621 1.3227017 -1.7902733 4288085770
1.8455029 1.0978358 -1.8070781 4288085770
3.8533249 1.3382099 -1.7931132 4288085770
1.6715679 1.114536 -1.8097726 4288085770
3.5624275 1.3507133 -1.790931 4288085770
1.4786854 1.1292048 -1.8053252 4288085770
3.2885361 1.3642454 -1.7878766 4288085770
1.313776 1.1449203 -1.8050873 4288085770
3.07757 1.3828831 -1.7942938 4288085770
1.1389046 1.1586194 -1.799775 4288085770
2.8436604 1.3974826 -1.7935389 4288085770
0.98798943 1.1753588 -1.7996424 4288085770
2.6417313 1.4141359 -1.795024 4288085770
0.85506248 1.1921282 -1.8016447 4288085770
2.422842 1.4267607 -1.792382 4288085770
0.71217155 1.206881 -1.7985722 4288085770
2.2479057 1.4444594 -1.7950695 4288085770
0.58625984 1.2236624 -1.7986273 4288085770
2.0410366 1.4571047 -1.789518 4288085770
0.46733475 1.2414556 -1.7997347 4288085770
1.862133 1.4717968 -1.7881759 4288085770
0.34144402 1.2562368 -1.79679 4288085770
1.7112026 1.4895363 -1.7900435 4288085770
0.24748611 1.2760718 -1.8020847 4288085770
1.5712624 1.5082936 -1.7929937 4288085770
0.12461853 1.2898586 -1.7961626 4288085770
1.4363213 1.5260599 -1.7959813 4288085770
0.027694702 1.3076887 -1.7974353 4288085770
1.3004055 1.5438242 -1.7959616 4288085770
-0.062238693 1.3255305 -1.7997602 4288085770
1.1575165 1.5585773 -1.7928898 4288085770
-0.15813828 1.3423626 -1.7980406 4288085770
1.0455742 1.5773818 -1.7960501 4288085770
-0.24205589 1.3602149 -1.7984107 4288085770
0.92067719 1.5941651 -1.794113 4288085770
-0.32199097 1.3790736 -1.8008108 4288085770
0.79778481 1.6109519 -1.7911913 4288085770
-0.39790916 1.3969393 -1.801241 4288085770
0.6938591 1.6287701 -1.7924117 4288085770
-0.48081017 1.4137933 -1.7996188 4288085770
0.58096504 1.6455739 -1.7895648 4288085770
-0.55572128 1.4326603 -1.7990569 4288085770
0.47507286 1.6623888 -1.7867708 4288085770
-0.63162231 1.4495263 -1.7974874 4288085770
