# .PCD v0.7 - Point Cloud Data file format
VERSION 0.7
FIELDS x y z rgb
SIZE 4 4 4 4
TYPE F F F U
COUNT 1 1 1 1
WIDTH 1106
HEIGHT 1
VIEWPOINT 0 0 0 1 0 0 0
POINTS 1106
DATA ascii
-1.3250618 -4.2507071 -1.9029247 4288085770
-0.32594299 -4.8263221 -1.7189251 4293729569
-1.4426231 -4.1641159 -1.9104141 4288085770
-0.49831009 -4.6994734 -1.7257131 4293729569
-1.5999413 -4.0493951 -1.9053998 4288085770
-0.63582611 -4.59477 -1.7369306 4293729569
-1.758213 -3.9316845 -1.8973627 4288085770
-0.80713654 -4.4649496 -1.7387147 4293729569
-1.890625 -3.8310657 -1.8956476 4288085770
-0.97144318 -4.3391719 -1.7385832 4293729569
-2.0210152 -3.7294674 -1.8919469 4288085770
-1.0372696 -4.2777519 -1.7616736 4293729569
-2.1344757 -3.6389384 -1.8904562 4288085770
-1.0085602 -4.2766805 -1.8059297 4293729569
-2.2558632 -3.5413918 -1.8848583 4288085770
-0.98084259 -4.2736092 -1.8491666 4288085770
-2.3533821 -3.4589281 -1.8855542 4288085770
-0.95011902 -4.269547 -1.893427 4288085770
-2.4498672 -3.3764839 -1.88326 4288085770
-1.0178528 -4.2001486 -1.9104614 4288085770
-2.5463371 -3.2920432 -1.8799564 4288085770
-1.1750641 -4.0714469 -1.9013824 4288085770
-2.6348457 -3.2126369 -1.8777509 4288085770
-1.3133583 -3.9538198 -1.8955319 4288085770
-2.7173691 -3.1372576 -1.8756202 4288085770
-1.4356995 -3.8462682 -1.8898777 4288085770
-2.8058357 -3.0558653 -1.8704059 4288085770
-1.5431252 -3.7487683 -1.8884101 4288085770
-2.8684387 -2.9915657 -1.8715131 4288085770
-1.6515236 -3.6492724 -1.8849241 4288085770
-2.9489212 -2.9152145 -1.8653971 4288085770
-1.7389984 -3.5618653 -1.8836899 4288085770
-3.013485 -2.8479204 -1.8634722 4288085770
-1.8294601 -3.4724488 -1.8814186 4288085770
-3.070076 -2.7846584 -1.8626405 4288085770
-1.9288445 -3.3780141 -1.8740406 4288085770
-1.9993782 -3.3006821 -1.874012 4288085770
-2.0718803 -3.2213497 -1.8719559 4288085770
-2.1274681 -3.1530828 -1.8731093 4288085770
-2.1899986 -3.0797977 -1.8711747 4288085770
-2.2545052 -3.0045133 -1.8672122 4288085770
-2.3090591 -2.9362702 -1.8643756 4288085770
-2.360611 -2.869041 -1.8615719 4288085770
-2.4051857 -2.8048396 -1.8598473 4288085770
-2.4477654 -2.7426529 -1.857151 4288085770
-2.4863586 -2.6814795 -1.8554965 4288085770
-2.527916 -2.619307 -1.8508098 4288085770
-2.5376511 -2.5742354 -1.8564999 4288085770
-2.58218 -2.5110636 -1.8487811 4288085770
-2.5879097 -2.4670157 -1.8535132 4288085770
-2.6254578 -2.407876 -1.8458785 4288085770
-2.6391182 -2.3598151 -1.845518 4288085770
-2.6328888 -2.3218188 -1.8513901 4288085770
-2.6495132 -2.2727628 -1.8469973 4288085770
-2.6581841 -2.2267256 -1.846693 4288085770
-2.6598816 -2.18472 -1.8464724 4288085770
-2.6615639 -2.1417203 -1.8452475 4288085770
-2.6702003 -2.0967011 -1.8409482 4288085770
-2.6698799 -2.0547156 -1.8387467 4288085770
-2.6595993 -2.0167613 -1.8396565 4288085770
-2.6503029 -1.9788127 -1.8385572 4288085770
-2.6340561 -1.9448824 -1.8405417 4288085770
-2.629715 -1.903924 -1.8363823 4288085770
-2.608448 -1.8700271 -1.8364134 4288085770
-2.5802231 -1.8391476 -1.8395233 4288085770
-2.5738754 -1.7992077 -1.8333875 4288085770
-2.5446281 -1.768343 -1.8345069 4288085770
-2.5153694 -1.7364826 -1.8346217 4288085770
-2.4781532 -1.7086501 -1.8368295 4288085770
-2.4498749 -1.6757946 -1.8349304 4288085770
-2.4006729 -1.6510139 -1.8382638 4288085770
-2.3574562 -1.6232138 -1.8395276 4288085770
-2.3022728 -1.5994554 -1.8439212 4288085770
-2.255043 -1.5726795 -1.8442266 4288085770
-2.2207489 -1.5408611 -1.8403883 4288085770
-2.1685143 -1.5141079 -1.8407402 4288085770
-2.1212463 -1.4853458 -1.8380365 4288085770
-2.0530663 -1.4636531 -1.8415601 4288085770
-1.9998131 -1.4359143 -1.8399168 4288085770
-3.0224571 -1.1390717 -1.8430481 4288085770
-1.9226379 -1.4152632 -1.8435285 4288085770
-2.970253 -1.1163142 -1.8444194 4288085770
-1.8584023 -1.3895707 -1.8429965 4288085770
-2.92799 -1.0915332 -1.8406887 4288085770
-1.7891731 -1.3659015 -1.8425201 4288085770
-2.8648071 -1.0718219 -1.843176 4288085770
-1.7139549 -1.3422551 -1.8430995 4288085770
-2.8095894 -1.0490873 -1.8425751 4288085770
-1.6277733 -1.3216512 -1.8457948 4288085770
-2.7712822 -1.0223072 -1.8347982 4288085770
-1.5574989 -1.2960055 -1.8413186 4288085770
-2.7230072 -0.9965589 -1.8301187 4288085770
-1.4762688 -1.272397 -1.8399535 4288085770
-2.6587944 -0.97586632 -1.8296106 4288085770
-1.3721046 -1.2548721 -1.8438298 4288085770
-2.5905991 -0.95518756 -1.8301396 4288085770
-1.2868614 -1.2302864 -1.8414973 4288085770
-2.543293 -0.92944884 -1.8224512 4288085770
-1.1926231 -1.2077429 -1.8392577 4288085770
-2.460125 -0.91183066 -1.8251332 4288085770
-1.08144 -1.18926 -1.841194 4288085770
-2.3888893 -0.89018011 -1.8226855 4288085770
-0.97919083 -1.1657586 -1.838024 4288085770
-2.2857704 -0.87463665 -1.8295621 4288085770
-0.84902954 -1.1483545 -1.8421408 4288085770
-2.202549 -0.85403728 -1.8282301 4288085770
-0.74277496 -1.1258764 -1.8380125 4288085770
-2.1163368 -0.83444715 -1.8279308 4288085770
-0.58266449 -1.1125979 -1.8454261 4288085770
-1.9972229 -0.819978 -1.8349602 4288085770
-0.48234177 -1.0861156 -1.8362236 4288085770
-1.9608078 -0.78923464 -1.8171468 4288085770
-0.33216476 -1.0688143 -1.8385259 4288085770
-1.8466454 -0.77276087 -1.8201208 4288085770
-0.20987701 -1.0444245 -1.8315365 4288085770
-1.7404404 -0.75426412 -1.8200114 4288085770
-0.077590942 -1.0220819 -1.824649 4288085770
-1.5983467 -0.74189687 -1.828263 4288085770
0.066665649 -1.0007854 -1.8198771 4288085770
-1.5170326 -0.71732593 -1.8188944 4288085770
0.24584579 -0.98462343 -1.8214529 4288085770
-1.3928337 -0.69891238 -1.8189517 4288085770
0.40511322 -0.96340156 -1.8158203 4288085770
-1.2696152 -0.68050408 -1.8169999 4288085770
0.60928726 -0.94735646 -1.8176275 4288085770
-1.1583443 -0.65905857 -1.810923 4288085770
0.80850983 -0.92930627 -1.8153791 4288085770
-1.0041885 -0.64277077 -1.8142674 4288085770
1.0267143 -0.91234016 -1.8143119 4288085770
-0.85798645 -0.62546468 -1.8135333 4288085770
1.2658958 -0.89746261 -1.8154477 4288085770
-0.70277786 -0.60720038 -1.8128777 4288085770
1.5121078 -0.88063169 -1.8136394 4288085770
-0.54455185 -0.58895946 -1.8102498 4288085770
1.7603531 -0.86281919 -1.809845 4288085770
-0.35937881 -0.57182097 -1.8128769 4288085770
2.0505257 -0.8481791 -1.8114532 4288085770
-0.1791687 -0.55467749 -1.8114574 4288085770
2.3327599 -0.83152509 -1.8079783 4288085770
0.011047363 -0.53658104 -1.8101259 4288085770
2.6519775 -0.81603861 -1.8058505 4288085770
0.20827103 -0.51752162 -1.8078547 4288085770
3.0051689 -0.80170083 -1.8060422 4288085770
0.41151047 -0.49849486 -1.8046389 4288085770
3.3743706 -0.78744268 -1.8053819 4288085770
0.64372253 -0.48059368 -1.8036964 4288085770
3.8065262 -0.77546382 -1.8083146 4288085770
0.88993073 -0.46275783 -1.8028835 4288085770
4.2297478 -0.7604661 -1.8061497 4288085770
1.1441536 -0.44496369 -1.8011446 4288085770
4.6889915 -0.7446456 -1.8023136 4288085770
1.4163857 -0.42625785 -1.7985677 4288085770
5.1932259 -0.73003435 -1.7988988 4288085770
1.7255745 -0.40870547 -1.8003379 4288085770
5.7204895 -0.7145443 -1.7926924 4288085770
2.0727501 -0.39232564 -1.8034647 4288085770
6.378643 -0.70462227 -1.7967219 4288085770
2.4020004 -0.37289453 -1.7994108 4288085770
7.0598831 -0.69084477 -1.792946 4288085770
2.7911987 -0.35471964 -1.800917 4288085770
7.8200951 -0.67842555 -1.7919061 4288085770
3.2103958 -0.33668399 -1.802701 4288085770
8.6903076 -0.66852307 -1.7908939 4288085770
3.6416321 -0.31772351 -1.8005913 4288085770
9.6964645 -0.66023517 -1.7951454 4288085770
4.1448326 -0.2990787 -1.8031483 4288085770
10.703773 -0.64601254 -1.7863784 4288085770
4.6441116 -0.27644825 -1.7986497 4288085770
11.832123 -0.63137221 -1.7747271 4288085770
5.1893845 -0.25503206 -1.7945814 4288085770
5.8216286 -0.2340064 -1.7943186 4288085770
6.5927811 -0.21559048 -1.8033513 4288085770
7.3720436 -0.1922586 -1.8024353 4288085770
8.1554108 -0.16598725 -1.7925422 4288085770
9.2006111 -0.14286542 -1.8000834 4288085770
10.29792 -0.11603212 -1.7980876 4288085770
11.485321 -0.084655523 -1.7889018 4288085770
12.35474 0.15305042 -1.7942134 4288085770
10.999584 0.14683056 -1.8075719 4288085770
9.7994843 0.14193559 -1.8176007 4288085770
8.6515045 0.14075375 -1.8181672 4288085770
7.6235695 0.14104819 -1.8160237 4288085770
6.6707001 0.14399052 -1.8086745 4288085770
5.8667603 0.1463623 -1.8089434 4288085770
5.131855 0.1504283 -1.8069481 4288085770
11.268997 0.052656412 -1.8001167 4288085770
4.4899139 0.15413308 -1.8089631 4288085770
9.9920006 0.067060709 -1.8071753 4288085770
3.9668922 0.15839839 -1.8192629 4288085770
8.8210793 0.081978083 -1.8083792 4288085770
3.4120102 0.16370845 -1.8172094 4288085770
7.8371162 0.095139503 -1.8136216 4288085770
2.8612061 0.17095089 -1.8081859 4288085770
6.866272 0.11017489 -1.8089924 4288085770
2.3623924 0.17798662 -1.8007275 4288085770
6.0054321 0.12475038 -1.8045582 4288085770
1.9365158 0.18475771 -1.7990614 4288085770
5.2805328 0.13779521 -1.805608 4288085770
1.5346527 0.19242287 -1.7966492 4288085770
4.6506081 0.15146327 -1.8096826 4288085770
1.1737785 0.19992661 -1.7956823 4288085770
4.0647125 0.16392827 -1.8112427 4288085770
0.83690262 0.20733118 -1.7949762 4288085770
3.5407791 0.17616034 -1.8164762 4288085770
0.51804733 0.21564722 -1.7924589 4288085770
3.0109673 0.18933678 -1.8106385 4288085770
0.25411606 0.22278762 -1.7975456 4288085770
2.505188 0.20339227 -1.802055 4288085770
-0.017765045 0.23092437 -1.7975386 4288085770
2.0394135 0.21628404 -1.7939132 4288085770
-0.25367737 0.23994207 -1.8019152 4288085770
1.6754913 0.2288425 -1.7988778 4288085770
-0.49455643 0.24795127 -1.8022453 4288085770
1.2856941 0.24142814 -1.7925615 4288085770
-0.71444702 0.25688124 -1.8037961 4288085770
0.95381546 0.2538259 -1.7938745 4288085770
-0.97119904 0.2668767 -1.7929392 4288085770
0.64595413 0.26611066 -1.7934484 4288085770
-1.1700783 0.27571297 -1.7937186 4288085770
0.35309982 0.27833319 -1.7931855 4288085770
-1.360939 0.28550887 -1.7935777 4288085770
0.10219193 0.29041195 -1.7973781 4288085770
-1.5457993 0.2942729 -1.7925092 4288085770
-0.15467072 0.30248642 -1.7975061 4288085770
-1.722641 0.3039968 -1.7905209 4288085770
-0.40948486 0.3145237 -1.7936563 4288085770
-1.87854 0.3136704 -1.7937599 4288085770
-0.62138367 0.32643485 -1.7972729 4288085770
-2.0503349 0.3243444 -1.7878191 4288085770
-0.84620285 0.33834863 -1.7937492 4288085770
-2.2051773 0.3339777 -1.7860699 4288085770
-1.0690002 0.35123944 -1.7882402 4288085770
-2.3559914 0.34357285 -1.7813643 4288085770
-1.2488785 0.36300468 -1.7902049 4288085770
-2.4669266 0.35408998 -1.7890847 4288085770
-1.4376984 0.37476993 -1.7870721 4288085770
-2.6047554 0.36363888 -1.7855203 4288085770
-1.6075554 0.38647914 -1.7871457 4288085770
-1.7544556 0.39812231 -1.7914683 4288085770
-1.9332352 0.40981817 -1.784445 4288085770
-2.0731049 0.42241073 -1.7858372 4288085770
-2.2189255 0.43499947 -1.7831646 4288085770
-2.3607368 0.44656444 -1.7795429 4288085770
-2.4716263 0.45905256 -1.7832499 4288085770
-2.5884972 0.47155094 -1.7848918 4288085770
-2.5647888 2.6777937 -1.7220933 4288085770
-2.4305496 2.7172587 -1.7252599 4288085770
-2.277317 2.7626672 -1.7315894 4288085770
-2.1660194 2.7891552 -1.7245996 4288085770
-2.0207481 2.8275545 -1.7248924 4288085770
-1.8724823 2.8659415 -1.7252176 4288085770
-1.7391777 2.8963473 -1.7194372 4288085770
-1.5619354 2.9426517 -1.7250193 4288085770
-2.5694923 2.5768516 -1.7307472 4288085770
-1.4146347 2.9750078 -1.7203763 4288085770
-2.434288 2.6073129 -1.7339878 4288085770
-1.236351 3.0172732 -1.7209973 4288085770
-2.311058 2.6307881 -1.7321484 4288085770
-1.0430832 3.063499 -1.7247524 4288085770
-2.1728439 2.6582232 -1.7334428 4288085770
-0.83980942 3.1106839 -1.7286084 4288085770
-2.0515938 2.6776855 -1.7286099 4288085770
-0.60454559 3.1677668 -1.7367395 4288085770
-1.902401 2.7060902 -1.7320157 4288085770
-0.40525055 3.2079334 -1.7356019 4288085770
-1.7571678 2.7304764 -1.730407 4288085770
-0.17696381 3.25701 -1.7387139 4288085770
-1.6079597 2.7548604 -1.7308413 4288085770
0.061336517 3.307039 -1.740927 4288085770
-1.4597244 2.7772272 -1.7282788 4288085770
0.35759354 3.3749099 -1.7546394 4288085770
-1.2945023 2.8035464 -1.7288718 4288085770
0.62590027 3.4288244 -1.7581486 4288085770
-1.1272888 2.8278503 -1.7285006 4288085770
0.94317245 3.4965963 -1.7700881 4288085770
-0.9221077 2.8630564 -1.7364618 4288085770
1.3054428 3.5752132 -1.7864361 4288085770
-0.75986862 2.8813529 -1.7320789 4288085770
1.6777306 3.6537828 -1.8018922 4288085770
-0.5516777 2.9125259 -1.7371006 4288085770
1.9560852 3.6965942 -1.7965871 4288085770
-0.37844086 2.9297779 -1.7328435 4288085770
2.2694244 3.7462916 -1.7956107 4288085770
-0.17023087 2.9569302 -1.7348936 4288085770
2.7107277 3.8345957 -1.8137417 4288085770
0.062965393 2.989002 -1.7401786 4288085770
3.1140594 3.9049838 -1.8215892 4288085770
0.29615402 3.017067 -1.7444913 4288085770
3.4904175 3.9624331 -1.8222368 4288085770
0.53735352 3.0450926 -1.7478907 4288085770
3.8298073 4.0029693 -1.8136047 4288085770
0.80353165 3.0780451 -1.7555248 4288085770
4.1362152 4.028584 -1.7967219 4288085770
1.0597305 3.1040032 -1.7581 4288085770
4.5156097 4.0729656 -1.7894936 4288085770
1.3269157 3.1289239 -1.761801 4288085770
4.9679947 4.132093 -1.7889478 4288085770
1.6400909 3.1646929 -1.7709213 4288085770
5.4803734 4.2030048 -1.7929658 4288085770
1.9912338 3.2073431 -1.7854024 4288085770
6.0767479 4.2906256 -1.8047709 4288085770
2.3213997 3.2380366 -1.7937412 4288085770
6.6811485 4.3721786 -1.811705 4288085770
2.6136017 3.2548215 -1.7927685 4288085770
7.4525337 4.490159 -1.8351818 4288085770
2.9317856 3.2745223 -1.795055 4288085770
8.3629227 4.6346393 -1.8689699 4288085770
3.2549744 3.292196 -1.7964095 4288085770
9.1963539 4.7493272 -1.8871377 4282675967
3.6411247 3.3206635 -1.8053668 4288085770
9.8118172 4.7987118 -1.8764153 4288085770
3.9313354 3.3204081 -1.7974914 4288085770
10.436279 4.8420458 -1.8638322 4288085770
4.1825562 3.3072693 -1.7832863 4288085770
11.017742 4.8685055 -1.8439041 4288085770
4.4707527 3.2990088 -1.7734455 4288085770
11.670219 4.9006863 -1.8257004 4288085770
4.8179436 3.3015447 -1.769164 4288085770
5.2230873 3.3098917 -1.7714673 4288085770
5.6742172 3.3230679 -1.7772325 4288085770
6.2013054 3.3459847 -1.7907475 4288085770
6.6514282 3.3471375 -1.7925858 4288085770
7.2764702 3.3756993 -1.8131164 4288085770
7.8665276 3.3893547 -1.8263745 4288085770
8.5065651 3.405829 -1.8431511 4288085770
9.0996132 3.4034376 -1.8515537 4288085770
9.7416344 3.4018624 -1.862478 4288085770
10.305679 3.3795407 -1.8637078 4288085770
10.796741 3.3384521 -1.8552825 4288085770
11.209816 3.2786243 -1.8381486 4288085770
11.584892 3.206923 -1.8166884 4288085770
12.001926 3.1350727 -1.7986813 4288085770
12.271595 -6.1106715 -1.8959981 4288085770
11.633892 -6.0440202 -1.8996617 4282675967
9.4000092 -5.5535054 -1.8001746 4288085770
8.6648178 -5.4176002 -1.7823054 4293729569
8.037426 -5.3080826 -1.772781 4293729569
7.437027 -5.2006745 -1.7635623 4293729569
6.8925438 -5.1054716 -1.758031 4293729569
7.3190117 -5.3259187 -1.0830978 4293729569
6.3909912 -5.0184207 -1.7560191 4293729569
7.2801437 -5.4143643 -1.1402925 4293729569
5.8326607 -4.902204 -1.7441922 4293729569
7.4039078 -5.5643973 -1.2096674 4293729569
5.4199791 -4.8344851 -1.7472723 4293729569
4.9953613 -4.7577314 -1.7481608 4293729569
4.5987282 -4.6840911 -1.7493724 4293729569
4.2659302 -4.6306601 -1.7584125 4293729569
10.765053 -7.3562379 -1.7923304 4293729569
3.9172211 -4.5671916 -1.7632114 4293729569
9.6896706 -7.0249639 -1.7694396 4293729569
3.594471 -4.5078158 -1.7703183 4293729569
5.8192139 -5.4872441 -1.4460474 4293729569
3.3465157 -4.476685 -1.7864276 4293729569
5.7085915 -5.5254245 -1.499119 4293729569
3.1334534 -4.4576607 -1.8079973 4293729569
5.6567955 -5.588798 -1.5589998 4293729569
2.9503098 -4.4477305 -1.8339527 4293729569
5.6448822 -5.6672997 -1.624415 4293729569
2.7791481 -4.4398408 -1.8610512 4288085770
5.6369324 -5.7467971 -1.6928802 4293729569
2.609993 -4.4299583 -1.8881574 4288085770
5.3349228 -5.6893449 -1.7232249 4293729569
2.4657631 -4.4301577 -1.9186026 4288085770
4.7976837 -5.5211396 -1.7222654 4293729569
2.1900368 -4.3659782 -1.9251828 4288085770
4.3462601 -5.3842449 -1.7274479 4293729569
1.8954506 -4.2877722 -1.9244621 4288085770
3.9238091 -5.2534671 -1.7329853 4293729569
1.6018982 -4.2065845 -1.9217317 4288085770
3.5193481 -5.126771 -1.7377446 4293729569
1.3153496 -4.123425 -1.9190633 4288085770
3.1398659 -5.0061731 -1.7428154 4293729569
1.045784 -4.0453343 -1.916613 4288085770
2.8122559 -4.904758 -1.7525786 4293729569
0.77825165 -3.9632649 -1.9121569 4288085770
2.4717331 -4.7933183 -1.7581328 4293729569
0.51275635 -3.8782187 -1.9057018 4288085770
2.1153297 -4.6688571 -1.7574253 4293729569
0.28113174 -3.8082671 -1.905717 4288085770
1.7818794 -4.5514817 -1.7580146 4293729569
0.05752182 -3.7373552 -1.904812 4288085770
1.4674225 -4.4391885 -1.7578437 4293729569
-0.16507339 -3.664454 -1.902904 4288085770
1.2755013 -4.385252 -1.7793987 4293729569
-0.37368393 -3.5956097 -1.9011748 4288085770
1.1632767 -4.3705459 -1.8150849 4293729569
-0.56734467 -3.5318046 -1.9026419 4288085770
1.1257553 -4.3930511 -1.8648348 4288085770
-0.77190399 -3.4589977 -1.897929 4288085770
1.1071625 -4.423604 -1.9188445 4288085770
-0.96947861 -3.3872113 -1.8942983 4288085770
0.89540482 -4.3496432 -1.9320467 4288085770
-1.1719894 -3.3104334 -1.8865798 4288085770
0.60107422 -4.2274876 -1.924024 4288085770
-1.328701 -3.2547708 -1.8895016 4288085770
0.31972885 -4.1093855 -1.9161695 4288085770
-1.4873772 -3.1961141 -1.8903815 4288085770
0.069293976 -4.0033875 -1.911732 4288085770
-1.6569633 -3.128448 -1.8860813 4288085770
-0.16020203 -3.9064589 -1.9095834 4288085770
-1.8145752 -3.0658236 -1.8829448 4288085770
-0.38368225 -3.8095617 -1.9064997 4288085770
-1.9612312 -3.0062289 -1.8819479 4288085770
-0.60511398 -3.7107015 -1.8994243 4288085770
-2.1098404 -2.9446483 -1.8779159 4288085770
-0.79270172 -3.628922 -1.9008325 4288085770
-2.2425041 -2.8881106 -1.8770906 4288085770
-0.9812355 -3.5431657 -1.8982029 4288085770
-2.369194 -2.83459 -1.877351 4288085770
-1.1697197 -3.455431 -1.8925596 4288085770
-2.5057793 -2.7730713 -1.871449 4288085770
-1.3402863 -3.3747411 -1.8911588 4288085770
-2.626442 -2.7185884 -1.8697675 4288085770
-1.5028534 -3.2970901 -1.8888652 4288085770
-1.6584358 -3.2214599 -1.8876609 4288085770
-1.8169632 -3.1428461 -1.8824041 4288085770
-1.955574 -3.0722842 -1.8814179 4288085770
-2.0881767 -3.0047541 -1.8795174 4288085770
-2.2287216 -2.930213 -1.8744826 4288085770
-2.3553085 -2.8617206 -1.8706403 4288085770
-2.4669685 -2.8012614 -1.8710145 4288085770
-2.5845451 -2.7348127 -1.8662834 4288085770
-2.6314926 -0.35722637 -1.8039782 4288085770
-2.5333405 -0.34462404 -1.804942 4288085770
-2.4521065 -0.32899451 -1.7997028 4288085770
-2.3549271 -0.31540179 -1.7986491 4288085770
-2.2437706 -0.30185151 -1.7997458 4288085770
-2.130619 -0.28930902 -1.8008709 4288085770
-2.0174294 -0.27578712 -1.7989895 4288085770
-1.8813019 -0.264323 -1.8023688 4288085770
-1.75811 -0.2508409 -1.8005949 4288085770
-1.624939 -0.23839259 -1.7999353 4288085770
-1.4987144 -0.22394323 -1.7951871 4288085770
-2.5372887 -0.1036706 -1.7992136 4288085770
-1.3246269 -0.21361065 -1.8019817 4288085770
-2.4291153 -0.091121674 -1.7982852 4288085770
-1.1744461 -0.20123672 -1.8005053 4288085770
-2.3199196 -0.078590631 -1.7953678 4288085770
-1.0222244 -0.18789172 -1.7960435 4288085770
-2.2007446 -0.066085577 -1.7945578 4288085770
-0.84107971 -0.17662168 -1.7979071 4288085770
-2.071579 -0.054620743 -1.7938623 4288085770
-0.6628952 -0.16436648 -1.7957317 4288085770
-1.935421 -0.043177128 -1.7942419 4288085770
-0.45774841 -0.15319276 -1.7978534 4288085770
-1.7822952 -0.031780958 -1.7978041 4288085770
-0.26054382 -0.14102077 -1.7948824 4288085770
-1.6410904 -0.02038455 -1.7942377 4288085770
-0.014446259 -0.13099051 -1.8004518 4288085770
-1.4929008 -0.0080094337 -1.7917399 4288085770
0.2317009 -0.11998034 -1.8030145 4288085770
-1.3028145 0.002259016 -1.7987068 4288085770
0.46790314 -0.1089716 -1.7994699 4288085770
-1.1406136 0.013571262 -1.7953663 4288085770
0.72109985 -0.097023964 -1.7971013 4288085770
-0.95246124 0.024806738 -1.7963052 4288085770
1.021244 -0.087237358 -1.7992518 4288085770
-0.75930023 0.035015106 -1.7963048 4288085770
1.3004723 -0.075414419 -1.7941631 4288085770
-0.51523209 0.044074535 -1.8048594 4288085770
1.6316261 -0.064758539 -1.7956399 4288085770
-0.29506683 0.055175066 -1.8051425 4288085770
1.9987793 -0.055246353 -1.7975111 4288085770
-0.10379791 0.067329884 -1.7961075 4288085770
2.4009056 -0.045861483 -1.8017583 4288085770
0.16731262 0.077253819 -1.8009458 4288085770
2.8500252 -0.037664652 -1.806518 4288085770
0.44145584 0.087144852 -1.8028164 4288085770
3.3161812 -0.027556181 -1.808447 4288085770
0.69070816 0.099074602 -1.7954051 4288085770
3.8273125 -0.019620895 -1.8118737 4288085770
0.99287415 0.10884023 -1.7955773 4288085770
4.3435516 -0.0087606907 -1.8073341 4288085770
1.3240356 0.11948943 -1.7960545 4288085770
4.9487114 -0.00022268295 -1.8087652 4288085770
1.66222 0.12909722 -1.7946136 4288085770
5.5959129 0.0091264248 -1.8076411 4288085770
2.0793228 0.13843656 -1.8010221 4288085770
6.3430786 0.017089367 -1.8095995 4288085770
2.4934921 0.1477468 -1.8013985 4288085770
7.1243248 0.025867701 -1.804917 4288085770
2.9995537 0.1567502 -1.8117639 4288085770
8.1424026 0.030786037 -1.8158032 4288085770
3.5376472 0.1646049 -1.8194805 4288085770
9.1486588 0.039649963 -1.8115337 4288085770
4.0528679 0.17447662 -1.8159367 4288085770
10.277943 0.046994448 -1.8045944 4288085770
4.6300735 0.18410707 -1.8140596 4288085770
11.574211 0.053676367 -1.8004509 4288085770
5.2393074 0.19358873 -1.8095268 4288085770
5.9584846 0.20165777 -1.8101836 4288085770
6.7626572 0.20938635 -1.8117543 4288085770
7.7128067 0.2175436 -1.8168885 4288085770
8.7639656 0.22428322 -1.8211156 4288085770
9.9241753 0.2315526 -1.8215083 4288085770
11.094543 0.23867941 -1.8070096 4288085770
12.351593 0.41356468 -1.7897807 4288085770
10.945587 0.43220758 -1.7986805 4288085770
9.8145218 0.45080209 -1.8145097 4288085770
8.6386528 0.46845531 -1.8118674 4288085770
7.6507568 0.48538089 -1.812232 4288085770
6.7159233 0.50105405 -1.8061701 4288085770
5.9080772 0.51623726 -1.8024641 4288085770
5.202198 0.53104174 -1.8028468 4288085770
11.443192 0.63218486 -1.789629 4288085770
4.5942879 0.54647672 -1.806269 4288085770
10.159241 0.64930975 -1.7938417 4288085770
4.0044365 0.56080222 -1.8038908 4288085770
9.1251984 0.66750443 -1.8077095 4288085770
3.4725647 0.5749141 -1.8041317 4288085770
8.0463409 0.68175745 -1.803125 4288085770
2.9867096 0.58883333 -1.8028641 4288085770
7.110508 0.69643259 -1.7970608 4288085770
2.5298576 0.60163295 -1.8009127 4288085770
6.2806435 0.70970714 -1.7941345 4288085770
2.0990486 0.61430466 -1.7952392 4288085770
5.4948463 0.72277069 -1.7856786 4288085770
1.6992226 0.6278621 -1.7908905 4288085770
4.8669472 0.73827636 -1.7878891 4288085770
1.351368 0.64023566 -1.790103 4288085770
4.2441101 0.75071657 -1.7831732 4288085770
1.0185242 0.65354443 -1.7884691 4288085770
3.6753044 0.76292658 -1.7760341 4288085770
0.73164368 0.66669309 -1.7903261 4288085770
3.2094154 0.77678668 -1.7779806 4288085770
0.44979477 0.67980254 -1.789237 4288085770
2.7645493 0.7905513 -1.7781516 4288085770
0.17495346 0.69187808 -1.7872294 4288085770
2.4046059 0.80602992 -1.7862163 4288085770
-0.059925079 0.7058233 -1.7896352 4288085770
2.0177498 0.81855536 -1.7850133 4288085770
-0.28278732 0.71870899 -1.7901759 4288085770
1.6738777 0.83192599 -1.7862625 4288085770
-0.49566269 0.73156214 -1.7918233 4288085770
1.3230705 0.84427834 -1.7804444 4288085770
-0.71947479 0.74341881 -1.7873607 4288085770
1.0311852 0.85845268 -1.7832423 4288085770
-0.92529678 0.756212 -1.7840834 4288085770
0.7383461 0.87059796 -1.7810429 4288085770
-1.1061516 0.76892686 -1.7840728 4288085770
0.48248291 0.8846271 -1.7822254 4288085770
-1.2789879 0.78161287 -1.7831472 4288085770
0.23861313 0.89760065 -1.7835411 4288085770
-1.4398537 0.79425621 -1.7843491 4288085770
0.0027694702 0.91052401 -1.7819426 4288085770
-1.5857315 0.80784762 -1.7867047 4288085770
-0.20410919 0.92435956 -1.784647 4288085770
-1.7256012 0.82141566 -1.7891243 4288085770
-0.43989182 0.93524396 -1.7770623 4288085770
-1.8823967 0.83299804 -1.7833762 4288085770
-0.63174057 0.94900167 -1.7769271 4288085770
-2.0262222 0.84554899 -1.7807603 4288085770
-0.82457733 0.96175039 -1.7747883 4288085770
-2.1490898 0.85904408 -1.7823616 4288085770
-1.0103912 0.97345877 -1.7707307 4288085770
-2.2769127 0.87153268 -1.7799166 4288085770
-1.1642723 0.98808777 -1.7739947 4288085770
-2.3967514 0.88399637 -1.7785568 4288085770
-1.3240967 1.0007011 -1.7712082 4288085770
-2.4946327 0.89840698 -1.7824186 4288085770
-1.4769363 1.0143001 -1.7704901 4288085770
-2.6024704 0.91182399 -1.7811807 4288085770
-1.6197701 1.0278537 -1.7688785 4288085770
-1.7376595 1.0433486 -1.7735205 4288085770
-1.8814545 1.0548799 -1.7679117 4288085770
-1.9973145 1.0693475 -1.7695819 4288085770
-2.1121597 1.0827982 -1.7692695 4288085770
-2.2379532 1.0952595 -1.7638466 4288085770
-2.3328247 1.1106514 -1.7667344 4288085770
-2.4346581 1.1250449 -1.7655545 4288085770
-2.5235138 1.140407 -1.7675066 4288085770
-2.6103706 1.1557612 -1.7694802 4288085770
-2.5810661 3.4751692 -1.7195773 4288085770
-2.4707336 3.534739 -1.720361 4288085770
-2.3284035 3.6122293 -1.7283691 4288085770
-2.2070274 3.6757431 -1.7272441 4288085770
-2.0626793 3.7502069 -1.7322927 4288085770
-1.9222984 3.8216605 -1.7333181 4288085770
-1.7619171 3.9020557 -1.7374983 4288085770
-1.6035385 3.9784527 -1.7406826 4288085770
-1.4361267 4.0588021 -1.741937 4288085770
-2.6163063 3.4493079 -1.7233462 4288085770
-1.27071 4.1371522 -1.7421831 4288085770
-2.5009766 3.4988394 -1.7212467 4288085770
-1.0712929 4.2304096 -1.7486939 4288085770
-2.3516884 3.5663033 -1.7293925 4288085770
-0.86986542 4.3236465 -1.7532258 4288085770
-2.2113647 3.6257637 -1.7314939 4288085770
-0.68940735 4.4019136 -1.7496309 4288085770
-2.0620461 3.6892023 -1.7356656 4288085770
-0.45795441 4.5060472 -1.7564108 4288085770
-1.8957291 3.7595878 -1.7419724 4288085770
-0.22949219 4.6051736 -1.7601908 4288085770
-1.7503777 3.8160095 -1.7411463 4288085770
0.028999329 4.7182026 -1.7671996 4288085770
-1.5780449 3.8843594 -1.7455295 4288085770
0.29748917 4.8331938 -1.7743018 4288085770
-1.4216919 3.9437394 -1.7448008 4288085770
0.61300278 4.9700403 -1.7877617 4288085770
-1.2413521 4.0110517 -1.748275 4288085770
0.90354538 5.0899267 -1.7920651 4288085770
-1.0389977 4.0892982 -1.7549125 4288085770
1.2201004 5.2187262 -1.7985868 4288085770
-0.8536377 4.153573 -1.7554592 4288085770
1.5386772 5.3454981 -1.8021425 4288085770
-0.63126755 4.236742 -1.7622766 4288085770
1.9282684 5.5040588 -1.8162469 4288085770
-0.40990448 4.3159094 -1.7681091 4288085770
2.2668877 5.6327353 -1.8170017 4288085770
-0.2405014 4.364182 -1.7585881 4288085770
2.6825333 5.7941704 -1.8273624 4288085770
0.0098648071 4.4522557 -1.7676702 4288085770
3.0421829 5.9237471 -1.8253335 4288085770
0.2862587 4.5492363 -1.7779707 4288085770
3.4568672 6.0751419 -1.8287473 4288085770
0.56064606 4.641211 -1.7862815 4288085770
3.844574 6.2075844 -1.8229959 4288085770
0.85504532 4.7401228 -1.7967596 4288085770
4.2662964 6.3509083 -1.8195348 4288085770
1.1014671 4.8101358 -1.793914 4288085770
4.7720718 6.5289531 -1.823741 4288085770
1.4068909 4.9049792 -1.8005341 4288085770
5.3098793 6.7158794 -1.8292286 4288085770
1.696312 4.9888592 -1.8030546 4288085770
5.8817139 6.9116745 -1.8350194 4288085770
2.0027542 5.0756674 -1.8047361 4288085770
6.5376358 7.1381645 -1.8445028 4288085770
2.3461952 5.1753635 -1.8117267 4288085770
7.3106194 7.411272 -1.8659267 4288085770
2.6976395 5.2740235 -1.8178083 4288085770
8.0376129 7.6514754 -1.8740731 4288085770
3.0570984 5.3716397 -1.821981 4288085770
8.7546349 7.877667 -1.8742027 4288085770
3.3705635 5.441371 -1.8158444 4288085770
9.5677261 8.1355209 -1.8801455 4288085770
3.7000122 5.5150528 -1.8118517 4288085770
4.0394897 5.5886836 -1.8059648 4288085770
4.4319611 5.6791487 -1.8065311 4288085770
4.8644524 5.7804708 -1.8094507 4288085770
5.3529549 5.8986087 -1.817855 4288085770
5.8204575 6.0017967 -1.8211321 4288085770
6.335968 6.1178188 -1.8278348 4288085770
6.962513 6.2684765 -1.84549 4288085770
7.5970612 6.4140835 -1.8602614 4288085770
8.2446213 6.5566287 -1.8731893 4288085770
8.8151398 6.660408 -1.8755494 4288085770
9.4116783 6.7660818 -1.8771718 4288085770
10.030212 6.8696637 -1.8780395 4288085770
10.615715 6.9513426 -1.8736972 4288085770
11.172211 7.0150952 -1.8631618 4288085770
11.958763 7.149087 -1.8746099 4288085770
11.981056 -2.3604627 -1.8296309 4288085770
11.360973 -2.3980379 -1.8303255 4288085770
10.735935 -2.4296074 -1.8289306 4288085770
10.292683 -2.4797926 -1.8425694 4288085770
9.6777306 -2.4964204 -1.8381867 4288085770
9.1097679 -2.5112171 -1.8362879 4288085770
8.6047363 -2.531229 -1.8390857 4288085770
8.0997734 -2.5422611 -1.8388274 4288085770
7.6287804 -2.5544105 -1.8409346 4288085770
7.1917648 -2.5676789 -1.8454071 4288085770
6.7787628 -2.5780387 -1.8501143 4288085770
6.3587875 -2.5823784 -1.8537105 4288085770
5.9398651 -2.5817418 -1.8542863 4288085770
5.5469208 -2.5811925 -1.8571368 4288085770
11.985775 -4.0633879 -1.8502862 4288085770
5.1360741 -2.5706053 -1.8547353 4288085770
11.159065 -3.994144 -1.8531331 4288085770
4.7791328 -2.567194 -1.8579475 4288085770
10.374382 -3.9230733 -1.8544112 4288085770
4.4052773 -2.5547442 -1.8569242 4288085770
9.5867958 -3.8410234 -1.8505899 4288085770
4.0683632 -2.5464096 -1.8603165 4288085770
8.9270515 -3.7814269 -1.8542575 4288085770
3.7394714 -2.536119 -1.861781 4288085770
8.3322372 -3.729053 -1.8626548 4288085770
3.3926697 -2.5157862 -1.8589936 4288085770
7.762455 -3.6757946 -1.8683106 4288085770
3.0828056 -2.501575 -1.8596342 4288085770
7.2236671 -3.6226554 -1.8742937 4288085770
2.7679825 -2.4813581 -1.8581848 4288085770
6.6939201 -3.5655646 -1.8783475 4288085770
2.4881134 -2.4662561 -1.860136 4288085770
6.1562576 -3.4994745 -1.8772615 4288085770
2.2092552 -2.4491649 -1.8610855 4288085770
5.6904755 -3.4476228 -1.8830227 4288085770
1.9005318 -2.4190025 -1.854638 4288085770
5.2058105 -3.3847423 -1.8815153 4288085770
1.6506538 -2.40201 -1.8578938 4288085770
4.7501221 -3.323967 -1.8813268 4288085770
1.4038086 -2.3830414 -1.8591691 4288085770
4.3194313 -3.2642879 -1.8814087 4288085770
1.1589813 -2.3610873 -1.8594469 4288085770
3.8997726 -3.2026639 -1.8795947 4288085770
0.90420914 -2.3331141 -1.8565822 4288085770
3.5240402 -3.1501889 -1.8813013 4288085770
0.68736649 -2.3132601 -1.8581682 4288085770
3.1264229 -3.0846686 -1.8766952 4288085770
0.4486084 -2.2843552 -1.8544668 4288085770
2.7657509 -3.0262775 -1.8745236 4288085770
0.26169968 -2.2685914 -1.8603941 4288085770
2.4280586 -2.9719677 -1.8736198 4288085770
0.043926239 -2.2397604 -1.8579142 4288085770
2.1123505 -2.9197421 -1.8729609 4288085770
-0.15488815 -2.2149835 -1.8586596 4288085770
1.8096313 -2.8685608 -1.8734454 4288085770
-0.34669495 -2.1902394 -1.8584791 4288085770
1.5009842 -2.8113818 -1.8698297 4288085770
-0.55739975 -2.1564603 -1.8520424 4288085770
1.2302399 -2.7643228 -1.8706774 4288085770
-0.74716949 -2.1267366 -1.8498521 4288085770
0.95554352 -2.7122612 -1.8694518 4288085770
-0.92097092 -2.1010613 -1.8498558 4288085770
0.71380234 -2.6673141 -1.8706182 4288085770
-1.0927467 -2.0734072 -1.8478681 4288085770
0.46808624 -2.6183634 -1.8697177 4288085770
-1.2525635 -2.04778 -1.8490195 4288085770
0.24333954 -2.5744815 -1.8710703 4288085770
-1.403389 -2.0231867 -1.8502722 4288085770
-0.0052833557 -2.518558 -1.8640952 4288085770
-1.5711098 -1.9905667 -1.8452961 4288085770
-0.2170105 -2.4737377 -1.8635792 4288085770
-1.7149124 -1.9650068 -1.8456167 4288085770
-0.43070984 -2.4259233 -1.8610233 4288085770
-1.8547211 -1.9394631 -1.8459797 4288085770
-0.63738251 -2.3781486 -1.8565418 4288085770
-1.9974823 -1.9099264 -1.8432863 4288085770
-0.81814194 -2.337441 -1.857378 4288085770
-2.1163521 -1.8894367 -1.8479018 4288085770
-0.99687958 -2.2957478 -1.8572294 4288085770
-2.2481308 -1.8609362 -1.846331 4288085770
-1.1775856 -2.2510657 -1.8540412 4288085770
-2.3759041 -1.8324504 -1.8448023 4288085770
-1.3532791 -2.2064037 -1.8509059 4288085770
-2.506649 -1.8019662 -1.8412297 4288085770
-1.5030632 -2.1698089 -1.8530945 4288085770
-2.6144867 -1.7785325 -1.843943 4288085770
-1.6587868 -2.1282167 -1.8511889 4288085770
-1.8244476 -2.0816116 -1.8451473 4288085770
-1.9721642 -2.0410557 -1.842333 4288085770
-2.1069221 -2.0035315 -1.842674 4288085770
-2.2406578 -1.9650235 -1.8410199 4288085770
-2.3654022 -1.9285502 -1.839473 4288085770
-2.4871521 -1.8910818 -1.8389517 4288085770
-2.5979347 -1.8576493 -1.8395712 4288085770
-2.5652122 0.31854057 -1.7746514 4288085770
-2.4291306 0.32905793 -1.7820026 4288085770
-2.3338814 0.34063125 -1.7729194 4288085770
-2.1917725 0.35110712 -1.7773331 4288085770
-2.049633 0.36257052 -1.7797409 4288085770
-1.9024925 0.37400889 -1.7812009 4288085770
-1.7603226 0.38344765 -1.779621 4288085770
-1.5971909 0.39383197 -1.7822542 4288085770
-2.5580902 0.42153859 -1.7820473 4288085770
-1.4240608 0.40517807 -1.7849855 4288085770
-2.4289703 0.43005157 -1.7843375 4288085770
-1.2459259 0.41549921 -1.7867757 4288085770
-2.2968216 0.43954086 -1.7846531 4288085770
-1.0547943 0.42577696 -1.7897015 4288085770
-2.1676483 0.44802237 -1.7819432 4288085770
-0.85563278 0.43700624 -1.7897047 4288085770
-2.0045509 0.45742559 -1.7875824 4288085770
-0.64349747 0.44719863 -1.7918496 4288085770
-1.8563995 0.46584797 -1.787071 4288085770
-0.41036987 0.45731759 -1.7952139 4288085770
-1.6972427 0.47424626 -1.7876742 4288085770
-0.18418884 0.46844935 -1.7944988 4288085770
-1.5191345 0.48257995 -1.7914764 4288085770
0.039016724 0.47755599 -1.7897654 4288085770
-1.3379898 0.49088299 -1.79231 4288085770
0.29219437 0.4875679 -1.7883391 4288085770
-1.137886 0.49813318 -1.7963482 4288085770
0.5553894 0.49752939 -1.7850174 4288085770
-0.94173813 0.50637364 -1.7963382 4288085770
0.86452866 0.50734758 -1.7871759 4288085770
-0.73858643 0.51358783 -1.7964078 4288085770
1.185688 0.51811409 -1.7884536 4288085770
-0.53540421 0.5197767 -1.7924836 4288085770
1.5388222 0.52676594 -1.7910781 4288085770
-0.32221603 0.52692795 -1.7886575 4288085770
1.9029999 0.53635097 -1.789811 4288085770
-0.070087433 0.53296232 -1.7902448 4288085770
2.3261147 0.54674971 -1.7951543 4288085770
0.19305038 0.53894901 -1.790947 4288085770
2.7952271 0.55597436 -1.8009839 4288085770
0.45823288 0.54490328 -1.78767 4288085770
3.2773819 0.56512487 -1.8029497 4288085770
0.77233124 0.55071568 -1.791905 4288085770
3.7546043 0.57324481 -1.7968694 4288085770
1.0884895 0.55548918 -1.791167 4288085770
4.3467407 0.58198476 -1.8009841 4288085770
1.4166603 0.56020498 -1.7885541 4288085770
4.9209785 0.58973074 -1.7949169 4288085770
1.8107452 0.56472039 -1.7946302 4288085770
5.6131477 0.59806716 -1.7960759 4288085770
2.2039032 0.56819606 -1.7937022 4288085770
6.3743248 0.60613596 -1.7969557 4288085770
2.6809692 0.57140362 -1.8016515 4288085770
7.2425003 0.61279297 -1.7979593 4288085770
3.1750641 0.57452774 -1.806778 4288085770
8.2656212 0.62089396 -1.8055694 4288085770
3.6462631 0.57467103 -1.800683 4288085770
9.3717957 0.62764347 -1.8080528 4288085770
4.223381 0.57546234 -1.8036888 4288085770
10.407181 0.63053131 -1.7888192 4288085770
4.8325081 0.57512021 -1.8050348 4288085770
11.761429 0.63428509 -1.7849051 4288085770
5.4717026 0.57262111 -1.7997065 4288085770
6.2647743 0.56960702 -1.8069859 4288085770
7.0589485 0.5645206 -1.8032885 4288085770
8.0310287 0.55880988 -1.8094494 4288085770
9.1400909 0.54958045 -1.8170593 4288085770
10.217342 0.53635442 -1.8053601 4288085770
11.49654 0.52037597 -1.7977825 4288085770
5.6909142 -5.7663312 -0.39843798 4293729569
5.6759109 -5.6669917 -0.44466379 4293729569
5.7158394 -5.5898633 -0.4905943 4293729569
5.8805199 -5.5661845 -0.54114425 4293729569
7.3360901 -5.537828 -0.85697329 4293729569
7.2793427 -5.4043961 -0.89155632 4293729569
7.3284264 -5.3151298 -0.14845464 4293729569
7.2934647 -5.2992258 -0.92804623 4293729569
11.601692 0.73441994 -1.7872154 4288085770
10.41983 0.7759124 -1.7919062 4288085770
9.5238419 0.81841493 -1.811507 4288085770
8.4181671 0.84849083 -1.7950444 4288085770
7.489418 0.87894535 -1.7863843 4288085770
6.6996231 0.90890741 -1.7831444 4288085770
5.9738312 0.93561947 -1.7785772 4288085770
5.3200493 0.96205795 -1.7737459 4288085770
12.060814 1.3005797 -1.7683717 4288085770
4.7811928 0.98911154 -1.7770833 4288085770
11.159691 1.3371668 -1.7989591 4288085770
4.2074432 1.010216 -1.7671009 4288085770
10.080807 1.3562392 -1.79884 4288085770
3.7436104 1.0339664 -1.7672235 4288085770
9.2428284 1.3834825 -1.8121279 4288085770
3.3647118 1.0604435 -1.775196 4288085770
8.1971207 1.3902984 -1.790422 4288085770
2.9019699 1.079123 -1.7643605 4288085770
7.3673058 1.4033843 -1.7828794 4288085770
2.572094 1.1033998 -1.7698463 4288085770
6.6264992 1.4181336 -1.775234 4288085770
2.2761955 1.1285622 -1.7776734 4288085770
5.9776649 1.4335591 -1.7715223 4288085770
1.9284134 1.1478387 -1.7720069 4288085770
5.383831 1.4497799 -1.7683667 4288085770
1.6565437 1.1698875 -1.7760978 4288085770
4.8829727 1.4666675 -1.7681549 4288085770
1.3697357 1.1889495 -1.7730545 4288085770
4.3751678 1.4815446 -1.7618846 4288085770
1.1138916 1.2099208 -1.7743157 4288085770
3.9592857 1.5011346 -1.7655232 4288085770
0.88304138 1.2318048 -1.7768263 4288085770
3.6663055 1.5293403 -1.7823622 4288085770
0.63324738 1.2497172 -1.7721673 4288085770
3.3334122 1.5516338 -1.7888303 4288085770
0.43239212 1.2704898 -1.7749904 4288085770
2.8657112 1.556277 -1.7690313 4288085770
0.22356796 1.2892679 -1.7737446 4288085770
2.4909515 1.5676235 -1.7581389 4288085770
0.022758484 1.3080103 -1.7715803 4288085770
2.25103 1.5925896 -1.7685388 4288085770
-0.14908218 1.3286629 -1.7727003 4288085770
1.9871674 1.6115963 -1.7707307 4288085770
-0.34786224 1.3443735 -1.7665752 4288085770
1.7113533 1.6286173 -1.7678128 4288085770
-0.51168823 1.3629843 -1.7657893 4288085770
1.4744987 1.6475174 -1.769281 4288085770
-0.67649841 1.3805867 -1.7629993 4288085770
1.2356834 1.6644011 -1.7667413 4288085770
-0.80435562 1.402088 -1.7665625 4288085770
1.0238342 1.6822021 -1.767471 4288085770
-0.95515823 1.4196322 -1.7629158 4288085770
0.81800461 1.7009751 -1.7672561 4288085770
-1.0899734 1.4381293 -1.7614263 4288085770
0.6151886 1.7187247 -1.7650782 4288085770
-1.2078133 1.4585812 -1.7630981 4288085770
0.454319 1.7403545 -1.7693044 4288085770
-1.336628 1.4760499 -1.7606761 4288085770
0.2505455 1.7540714 -1.7611412 4288085770
-1.4584312 1.4944923 -1.7583199 4288085770
0.074737549 1.7717147 -1.7582393 4288085770
-1.5582733 1.5158775 -1.7601696 4288085770
-0.088069916 1.7893095 -1.7554705 4288085770
-1.6690865 1.5332792 -1.7579317 4288085770
-0.24787903 1.8058872 -1.7517381 4288085770
-1.7698975 1.5526495 -1.7567838 4288085770
-0.39068985 1.8254137 -1.7501612 4288085770
-1.8557396 1.5739827 -1.7587765 4288085770
-0.52550507 1.8449107 -1.748666 4288085770
-1.9575386 1.5923448 -1.7556249 4288085770
-0.64832687 1.8643689 -1.7482934 4288085770
-2.043354 1.6126595 -1.7546241 4288085770
-0.78012085 1.8828425 -1.7448351 4288085770
-2.1172028 1.633954 -1.7577394 4288085770
-0.88895035 1.9042549 -1.7455934 4288085770
-2.1960144 1.6542428 -1.7568103 4288085770
-0.99776077 1.9246552 -1.7443578 4288085770
-2.277813 1.6735307 -1.7538568 4288085770
-1.1025658 1.9460404 -1.743157 4288085770
-2.3356552 1.6987716 -1.7581112 4288085770
-1.199379 1.967396 -1.7420381 4288085770
-2.4084702 1.7190381 -1.7572435 4288085770
-1.2881927 1.9897281 -1.7419947 4288085770
-2.4623108 1.7422582 -1.7605511 4288085770
-1.3769989 2.011054 -1.7409574 4288085770
-2.5301056 1.7624938 -1.7577347 4288085770
-1.4618073 2.033365 -1.7399549 4288085770
-2.6038895 1.7807399 -1.7528692 4288085770
-1.5445976 2.0556626 -1.7379731 4288085770
-1.6194077 2.0779364 -1.7370727 4288085770
-1.6852226 2.103189 -1.7382461 4288085770
-1.7589989 2.1264467 -1.7353501 4288085770
-1.819809 2.1516747 -1.7355747 4288085770
-1.8875923 2.1739106 -1.732746 4288085770
-1.9394035 2.2011111 -1.7340504 4288085770
-1.9792137 2.2322788 -1.7374526 4288085770
-2.0479813 2.2525003 -1.7316264 4288085770
-2.0827904 2.2836497 -1.7350796 4288085770
-2.1265793 2.3118083 -1.7344598 4288085770
-2.1723595 2.3379683 -1.7328317 4288085770
-2.2101364 2.3681047 -1.7322609 4288085770
-2.2349472 2.4012172 -1.7358043 4288085770
-2.2767143 2.4283562 -1.7332113 4288085770
-2.322464 2.4534919 -1.7275896 4288085770
-2.354229 2.4835999 -1.7260802 4288085770
-2.3809929 2.5146892 -1.7246158 4288085770
-2.398777 2.5497637 -1.7262188 4288085770
-2.428524 2.5798521 -1.72273 4288085770
-2.4432907 2.6149087 -1.7233639 4288085770
-2.4640427 2.6479697 -1.7209488 4288085770
-2.4787903 2.6830149 -1.7195828 4288085770
-2.5015259 2.7140708 -1.7151595 4288085770
-2.4903069 2.7600617 -1.7209916 4288085770
-2.5010414 2.7960856 -1.7186604 4288085770
-2.5237541 2.8261237 -1.7112434 4288085770
-2.507515 2.8740897 -1.7161144 4288085770
-2.5092506 2.9130864 -1.7148567 4288085770
-2.5109673 2.9530709 -1.7115933 4288085770
-2.5016861 2.9980326 -1.7114114 4288085770
-2.5163765 3.0300353 -1.7030642 4288085770
-2.4890976 3.0839481 -1.7060113 4288085770
-2.4668236 3.1348736 -1.7079256 4288085770
-2.4465218 3.1837883 -1.7068317 4288085770
-2.4072533 3.2426691 -1.7118708 4288085770
-2.3729515 3.2995503 -1.7138711 4288085770
-2.3506241 3.3504457 -1.7107856 4288085770
-2.3123055 3.4093056 -1.7118149 4288085770
-2.2609978 3.4751356 -1.7159337 4288085770
-2.2166595 3.5369673 -1.7160058 4288085770
-2.1623268 3.6047802 -1.7191433 4288085770
-2.0919876 3.6815457 -1.7243893 4288085770
-2.0366287 3.749337 -1.7245371 4288085770
-1.9642715 3.8270888 -1.7287977 4288085770
-1.889904 3.9068274 -1.7320664 4288085770
-1.8215065 3.9815645 -1.7313044 4288085770
-1.7350998 4.0672731 -1.7346572 4288085770
-1.6497002 4.1509652 -1.7370131 4288085770
-1.5632668 4.2366352 -1.7363673 4288085770
-1.4718361 4.3242931 -1.7367603 4288085770
-1.3603897 4.4238949 -1.7402842 4288085770
-1.2519226 4.5214896 -1.7407898 4288085770
-2.5584755 3.8023057 -1.7278824 4288085770
-1.1354332 4.6240549 -1.7413464 4288085770
-2.4521103 3.892956 -1.7364097 4288085770
-0.99394226 4.7415571 -1.7470667 4288085770
-2.3657227 3.9696326 -1.7368182 4288085770
-0.85641861 4.8570504 -1.7487587 4288085770
-2.2503471 4.06425 -1.7454126 4288085770
-0.71187973 4.9745116 -1.7495097 4288085770
-2.1389389 4.1568575 -1.7499787 4288085770
-0.5433197 5.1079082 -1.754408 4288085770
-2.0574989 4.2265105 -1.7433786 4288085770
-0.36273193 5.2482605 -1.7593862 4288085770
-1.9460564 4.3170943 -1.7439569 4288085770
-0.18112946 5.3875966 -1.7623805 4288085770
-1.8516083 4.3937054 -1.7384467 4288085770
0.022514343 5.5418568 -1.766508 4288085770
-1.71315 4.4992132 -1.7432088 4288085770
0.26318359 5.7180166 -1.7768787 4288085770
-1.5926857 4.5907516 -1.7418722 4288085770
0.54389572 5.9200578 -1.7924993 4288085770
-1.4311943 4.7091804 -1.7477896 4288085770
0.84365845 6.1340227 -1.8072405 4288085770
-1.2896919 4.8126469 -1.7475941 4288085770
1.1484451 6.3489575 -1.8200264 4288085770
-1.1101799 4.9400148 -1.75464 4288085770
1.4342766 6.5499082 -1.8237039 4288085770
-0.94963455 5.0524058 -1.7535833 4288085770
1.7691536 6.7817135 -1.8336922 4288085770
-0.75708008 5.1847134 -1.7587312 4288085770
2.1380997 7.0333986 -1.8449056 4288085770
-0.55249786 5.323977 -1.7639587 4288085770
2.4980812 7.2770758 -1.8490757 4288085770
-0.32989883 5.4721804 -1.7703146 4288085770
2.8591003 7.518724 -1.8492681 4288085770
-0.10426712 5.6203537 -1.7737011 4288085770
3.243187 7.7732759 -1.8476156 4288085770
0.15338898 5.7884393 -1.7822919 4288085770
3.6403046 8.0317678 -1.8440711 4288085770
0.4520874 5.9803963 -1.7951546 4288085770
4.0745087 8.3121214 -1.84077 4288085770
0.77482986 6.1872768 -1.8101705 4288085770
1.1236115 6.4060616 -1.8253781 4288085770
1.4624252 6.6158414 -1.8335384 4288085770
1.8222694 6.8355489 -1.8428514 4288085770
2.2131615 7.0711479 -1.8533829 4288085770
2.5910797 7.2937541 -1.8568605 4288085770
2.9810448 7.5192909 -1.8564422 4288085770
3.3529968 7.7278638 -1.8509431 4288085770
3.7760315 7.9652672 -1.8487871 4288085770
4.2741547 8.2454281 -1.8531331 4288085770
12.343925 -0.91447902 -1.7898717 4288085770
11.58263 -0.97455788 -1.8035536 4288085770
10.814423 -1.0246418 -1.812106 4288085770
10.12022 -1.0699916 -1.8223761 4288085770
9.3392029 -1.1021011 -1.8186921 4288085770
8.5852242 -1.126317 -1.8142335 4288085770
7.9681435 -1.1549928 -1.8181822 4288085770
7.3681145 -1.1777434 -1.8202671 4288085770
6.7990952 -1.1976147 -1.8216473 4288085770
6.296051 -1.2177098 -1.826694 4288085770
5.8289948 -1.2359254 -1.8340923 4288085770
12.287605 -2.0451236 -1.8189814 4288085770
5.3110847 -1.243021 -1.8299112 4288085770
11.230759 -2.0141802 -1.8191429 4288085770
4.8521309 -1.2513082 -1.830332 4288085770
10.397743 -2.0009995 -1.8316666 4288085770
4.4271698 -1.2587149 -1.8320901 4288085770
9.6566849 -1.9911432 -1.8471369 4288085770
4.020237 -1.2632003 -1.8320125 4288085770
8.8927803 -1.9682651 -1.852299 4288085770
3.6412888 -1.2667763 -1.8342115 4288085770
8.0800514 -1.9302731 -1.8458786 4288085770
3.2883339 -1.2714474 -1.8366792 4288085770
7.2923889 -1.8874092 -1.8336817 4288085770
2.9015045 -1.2650428 -1.8307393 4288085770
6.6845093 -1.864121 -1.8374139 4288085770
2.5945358 -1.2678714 -1.8356596 4288085770
6.0757027 -1.8348603 -1.8361009 4288085770
2.2656631 -1.2636611 -1.8333169 4288085770
5.5647888 -1.8149166 -1.8428307 4288085770
1.9617538 -1.260525 -1.8342324 4288085770
5.0200043 -1.7839026 -1.8401526 4288085770
1.6628761 -1.2544193 -1.8331811 4288085770
4.523201 -1.7550588 -1.8389711 4288085770
1.3839951 -1.2483873 -1.8323318 4288085770
4.0763397 -1.7313809 -1.8413243 4288085770
1.1171036 -1.2423935 -1.8326036 4288085770
3.6475182 -1.7037807 -1.8418355 4288085770
0.87518692 -1.237479 -1.8351336 4288085770
3.2377129 -1.6772623 -1.8405448 4288085770
0.63331985 -1.2295828 -1.8346461 4288085770
2.8449249 -1.6488132 -1.8384141 4288085770
0.39545441 -1.2197015 -1.8341872 4288085770
2.4821053 -1.6224613 -1.838598 4288085770
0.16958618 -1.2098649 -1.8338494 4288085770
2.1382942 -1.5971861 -1.8379799 4288085770
-0.028335571 -1.2031059 -1.8378119 4288085770
1.8184738 -1.570992 -1.8385981 4288085770
-0.2042923 -1.1994097 -1.8450142 4288085770
1.5176392 -1.5478683 -1.8394259 4288085770
-0.37125397 -1.1957469 -1.8523073 4288085770
1.2278214 -1.5227914 -1.8393532 4288085770
-0.53720856 -1.1900873 -1.8595988 4288085770
0.95101547 -1.4977674 -1.8384119 4288085770
-0.73900604 -1.1743689 -1.8544686 4288085770
0.68720627 -1.472791 -1.8376019 4288085770
-0.95771408 -1.1526248 -1.8431315 4288085770
0.45832825 -1.4529135 -1.8421745 4288085770
-1.1215858 -1.1410091 -1.8444083 4288085770
0.21454239 -1.4270229 -1.8395607 4288085770
-1.292408 -1.1263926 -1.8415971 4288085770
0.014644623 -1.4092457 -1.8454379 4288085770
-1.4492645 -1.1138091 -1.8419387 4288085770
-0.2041626 -1.3844349 -1.8450824 4288085770
-1.5991096 -1.1002572 -1.8413452 4288085770
-0.3731041 -1.3697536 -1.8542901 4288085770
-1.750946 -1.0857043 -1.8397259 4288085770
-0.56295776 -1.3490367 -1.8562512 4288085770
-1.9037514 -1.0691597 -1.8360847 4288085770
-0.75776291 -1.3243203 -1.8551382 4288085770
-2.0435791 -1.0536509 -1.8345805 4288085770
-0.96149445 -1.2956016 -1.8489112 4288085770
-2.1714401 -1.0401735 -1.8352091 4288085770
-1.1412849 -1.2709458 -1.8469498 4288085770
-2.3042412 -1.0237024 -1.8317698 4288085770
-1.3081017 -1.2483323 -1.8461316 4288085770
-2.4111633 -1.0132728 -1.837628 4288085770
-1.4738998 -1.2247286 -1.8443176 4288085770
-2.5419426 -0.99582124 -1.8322035 4288085770
-1.631691 -1.2001534 -1.8425784 4288085770
-1.7844887 -1.1765976 -1.8408958 4288085770
-1.9262886 -1.1540813 -1.83933 4288085770
-2.0611038 -1.1325858 -1.8388408 4288085770
-2.2118454 -1.1060669 -1.8321611 4288085770
-2.3276978 -1.0866225 -1.8348753 4288085770
-2.4475174 -1.0651813 -1.8345376 4288085770
-2.567318 -1.0427461 -1.8331941 4288085770
-2.5567322 0.88352251 -1.7770618 4288085770
-2.4375687 0.89607823 -1.7771679 4288085770
-2.3114281 0.90761471 -1.77835 4288085770
-2.1852455 0.92013311 -1.776526 4288085770
-2.0650482 0.93065524 -1.771654 4288085770
