# .PCD v0.7 - Point Cloud Data file format
VERSION 0.7
FIELDS x y z rgb
SIZE 4 4 4 4
TYPE F F F U
COUNT 1 1 1 1
WIDTH 1126
HEIGHT 1
VIEWPOINT 0 0 0 1 0 0 0
POINTS 1126
DATA ascii
11.93045 -0.80048132 -1.8291523 4288085770
8.5197144 -0.54362392 -1.8094771 4288085770
12.542572 -0.79100037 -1.8332536 4288085770
8.868866 -0.52892351 -1.812561 4288085770
13.173706 -0.77951717 -1.831363 4288085770
9.2330017 -0.51422596 -1.8126469 4288085770
13.921875 -0.77014685 -1.83548 4288085770
9.6221313 -0.49855423 -1.8137391 4288085770
14.701996 -0.75878954 -1.8346074 4288085770
10.035309 -0.48289442 -1.812834 4288085770
15.60614 -0.74954081 -1.8367434 4288085770
10.510406 -0.46729374 -1.8149364 4288085770
16.64624 -0.74140549 -1.8388934 4288085770
11.034546 -0.45173979 -1.8190446 4288085770
17.816376 -0.73237658 -1.8410616 4288085770
11.606689 -0.4362216 -1.8221586 4288085770
12.222809 -0.4197402 -1.8252809 4288085770
12.911957 -0.40331841 -1.8284123 4288085770
13.628082 -0.3839016 -1.8255556 4288085770
14.527222 -0.3676672 -1.8337121 4288085770
15.432373 -0.34740782 -1.831881 4288085770
16.546509 -0.32834101 -1.8370726 4288085770
17.908661 -0.30950499 -1.8522937 4288085770
18.806488 -0.033333302 -1.8618541 4288085770
17.243652 -0.02905035 -1.8448262 4288085770
15.845795 -0.022902489 -1.8248022 4288085770
14.797882 -0.018048763 -1.8237839 4288085770
13.827026 -0.012256622 -1.8187675 4288085770
12.983154 -0.0055689812 -1.8147542 4288085770
12.216278 0.0010547638 -1.8107419 4288085770
19.074371 0.001437664 -1.8518574 4288085770
11.520416 0.0086212158 -1.8057318 4288085770
17.5755 0.014661789 -1.8448358 4288085770
10.896576 0.016129494 -1.8027225 4288085770
16.166626 0.027816772 -1.8268156 4288085770
10.349701 0.023571968 -1.8007147 4288085770
15.000763 0.040769577 -1.8167999 4288085770
9.8568115 0.03196907 -1.8017087 4288085770
14.046875 0.052545071 -1.8157868 4288085770
9.3769531 0.040359497 -1.7977021 4288085770
13.187012 0.064245224 -1.8107758 4288085770
8.9561157 0.048698902 -1.7966974 4288085770
12.409149 0.075877666 -1.806766 4288085770
8.5602112 0.057019711 -1.7946928 4288085770
11.712311 0.087444305 -1.8027575 4288085770
8.2133484 0.065297127 -1.796689 4288085770
11.093414 0.099946022 -1.8007512 4288085770
7.8854675 0.074559689 -1.798686 4288085770
10.521576 0.11140966 -1.797745 4288085770
7.5596008 0.083822727 -1.7946835 4288085770
10.028687 0.12280846 -1.7977402 4288085770
7.2977295 0.09303093 -1.7996814 4288085770
9.5528259 0.1341939 -1.793736 4288085770
7.0118713 0.10226107 -1.7956793 4288085770
9.118988 0.14554548 -1.7907321 4288085770
6.7539978 0.11146736 -1.7946777 4288085770
8.743103 0.1578474 -1.7927299 4288085770
6.5191345 0.12165451 -1.794677 4288085770
8.3702698 0.16914797 -1.7897274 4288085770
6.2802734 0.13084793 -1.7906759 4288085770
8.043396 0.18040991 -1.7907252 4288085770
6.0774231 0.1410079 -1.7926755 4288085770
7.7275391 0.19266367 -1.7897243 4288085770
5.8665466 0.15117693 -1.7886753 4288085770
7.4526672 0.20388269 -1.7917233 4288085770
5.6956787 0.16130972 -1.7936757 4288085770
7.1817932 0.21510029 -1.7907224 4288085770
5.5108337 0.17145681 -1.7916756 4288085770
6.9099426 0.22631836 -1.7867217 4288085770
5.3339539 0.18159819 -1.788676 4288085770
6.6860657 0.23849583 -1.788722 4288085770
5.1940918 0.19270468 -1.7946773 4288085770
6.459198 0.24967718 -1.7877219 4288085770
5.0282288 0.20283699 -1.7916777 4288085770
6.2333679 0.26185846 -1.7847221 4288085770
4.879364 0.21295452 -1.7896786 4288085770
6.0404663 0.27301073 -1.784723 4288085770
4.7574768 0.22404718 -1.7946801 4288085770
5.8536072 0.28515768 -1.7857242 4288085770
4.6216431 0.23515415 -1.7936819 4288085770
5.6767273 0.29729748 -1.7857256 4288085770
5.5048828 0.30843353 -1.7837262 4288085770
5.3320007 0.32057238 -1.7797275 4288085770
5.1981201 0.3326745 -1.7847295 4288085770
5.0372925 0.34380341 -1.7787304 4288085770
4.9064331 0.35590458 -1.7797325 4288085770
4.7635803 0.36801863 -1.7757344 4288085770
4.6457214 0.38010979 -1.7767365 4288085770
4.5448303 0.39318562 -1.7817395 4288085770
4.5135498 2.7177916 -1.7416286 4288085770
4.6296997 2.759696 -1.738647 4288085770
4.7488708 2.8015976 -1.7356646 4288085770
4.8810425 2.8484888 -1.733685 4288085770
5.0302124 2.9023657 -1.7357085 4288085770
5.1653748 2.9462538 -1.7317274 4288085770
5.3285217 3.0021181 -1.7347519 4288085770
5.4877014 3.0539885 -1.7327745 4288085770
5.6478882 3.1048584 -1.7307963 4288085770
4.5635681 2.6427164 -1.7375813 4288085770
5.8380432 3.1667004 -1.7348235 4288085770
4.7057495 2.6845989 -1.7405992 4288085770
6.0222473 3.2235489 -1.7338486 4288085770
4.855896 2.7284718 -1.7456179 4288085770
6.2213745 3.285387 -1.7348757 4288085770
4.9740295 2.7563763 -1.7386298 4288085770
6.4355774 3.3502102 -1.7379043 4288085770
5.1271973 2.7972498 -1.7406471 4288085770
6.6447449 3.4100399 -1.7369308 4288085770
5.2573547 2.8271437 -1.7356596 4288085770
6.8789368 3.4798489 -1.7399611 4288085770
5.4284973 2.8720007 -1.7396789 4288085770
7.1140747 3.5456581 -1.7399905 4288085770
5.587677 2.9098711 -1.7386951 4288085770
7.3572998 3.6124601 -1.7400198 4288085770
5.7438049 2.9447432 -1.7357101 4288085770
7.62146 3.6852455 -1.7420523 4288085770
5.9509888 2.997571 -1.7447329 4288085770
7.8896484 3.7560282 -1.7410834 4288085770
6.1241455 3.03543 -1.7427495 4288085770
8.1748352 3.8297968 -1.7421162 4288085770
6.2983093 3.0692892 -1.7387636 4288085770
8.4700012 3.9045582 -1.7411492 4288085770
6.503479 3.1151209 -1.7417836 4288085770
8.8072205 3.9922857 -1.7451885 4288085770
6.6876221 3.1479712 -1.737797 4288085770
9.1274109 4.0690269 -1.7442222 4288085770
6.9017639 3.1907969 -1.7388155 4288085770
9.4926147 4.157732 -1.7462618 4288085770
7.1139221 3.2306252 -1.7368329 4288085770
9.8517761 4.2404432 -1.7452986 4288085770
7.3520813 3.2774305 -1.7398529 4288085770
10.258026 4.3371153 -1.7483418 4288085770
7.604248 3.3252239 -1.7438738 4288085770
10.677185 4.4327774 -1.7503846 4288085770
7.8493958 3.3680248 -1.7438924 4288085770
11.12439 4.5334187 -1.75143 4288085770
8.0945435 3.4068279 -1.7429087 4288085770
11.613647 4.6430244 -1.756479 4288085770
8.3507385 3.4466209 -1.7409258 4288085770
12.091827 4.7436419 -1.7555242 4288085770
8.625885 3.4903984 -1.7419448 4288085770
12.629059 4.8582096 -1.7595756 4288085770
8.9290466 3.5401516 -1.7459667 4288085770
13.153259 4.961791 -1.7566221 4288085770
9.2302246 3.5829077 -1.746985 4288085770
13.742462 5.07932 -1.7586746 4288085770
9.543396 3.627656 -1.7480044 4288085770
14.404694 5.2127886 -1.7627349 4288085770
9.8855286 3.6763802 -1.7510254 4288085770
15.03891 5.3292837 -1.7597873 4288085770
10.23468 3.7230968 -1.754046 4288085770
15.728119 5.4557343 -1.7588446 4288085770
10.606842 3.7727966 -1.7570732 4288085770
16.516357 5.6031036 -1.7619166 4288085770
10.982025 3.8174934 -1.7590923 4288085770
17.381653 5.7634096 -1.7679889 4288085770
11.374176 3.8631763 -1.7611122 4288085770
18.331879 5.9386501 -1.7760687 4288085770
11.791351 3.910841 -1.7651329 4288085770
19.308167 6.1108694 -1.7801468 4288085770
12.221497 3.9574938 -1.7681532 4288085770
12.641663 3.9931555 -1.7671685 4288085770
13.09082 4.0327959 -1.7681856 4288085770
13.553009 4.0684252 -1.7682004 4288085770
14.031128 4.1040411 -1.7692158 4288085770
14.568298 4.1466103 -1.7732344 4288085770
15.083466 4.176198 -1.7722468 4288085770
15.606567 4.200779 -1.770257 4288085770
16.23877 4.2452707 -1.7782762 4288085770
16.842896 4.274786 -1.7802887 4288085770
17.46405 4.302289 -1.7832997 4288085770
18.091187 4.3167887 -1.7823055 4288085770
18.772339 4.3382435 -1.7853141 4288085770
19.448456 4.3487034 -1.7853177 4288085770
18.926605 -4.9391422 -1.7789574 4293729569
18.156769 -4.8735342 -1.7699864 4293729569
17.484924 -4.8260078 -1.7670074 4293729569
16.859131 -4.7805176 -1.766027 4293729569
16.2323 -4.7250271 -1.7630515 4293729569
15.684448 -4.6835999 -1.7650695 4293729569
19.382568 -5.8172698 -1.2155459 4293729569
15.162567 -4.6431952 -1.7680874 4293729569
19.402618 -5.9573216 -1.2894797 4293729569
14.709747 -4.6148467 -1.7770991 4293729569
14.290894 -4.5895252 -1.7871096 4293729569
13.878021 -4.5622072 -1.7961211 4293729569
13.497192 -4.538918 -1.8091307 4293729569
13.166321 -4.5256691 -1.8261356 4288085770
12.821442 -4.502408 -1.8391454 4288085770
19.040863 -6.6262603 -1.7341638 4293729569
12.53656 -4.4951968 -1.8591475 4288085770
18.160126 -6.4535728 -1.7402422 4293729569
12.230743 -4.4759669 -1.875155 4288085770
17.30835 -6.2769079 -1.7413228 4293729569
11.937897 -4.4577494 -1.8921623 4288085770
16.416656 -6.0742064 -1.7344151 4293729569
11.611023 -4.4225011 -1.9031773 4288085770
15.678925 -5.9156303 -1.7364869 4293729569
11.219208 -4.3591957 -1.9012055 4288085770
14.970184 -5.7570772 -1.7375588 4293729569
10.820374 -4.2878838 -1.8962374 4288085770
14.194458 -5.565465 -1.7246463 4293729569
10.413574 -4.2075639 -1.8872728 4288085770
13.534698 -5.4069476 -1.7207179 4293729569
10.022766 -4.1292572 -1.8793077 4288085770
13.147858 -5.3456588 -1.744745 4293729569
9.671936 -4.0599837 -1.8743389 4288085770
12.555115 -5.1961946 -1.740813 4293729569
9.3311157 -3.9907174 -1.8693695 4288085770
12.006348 -5.0597658 -1.7378747 4293729569
9.0292969 -3.9314837 -1.8683958 4288085770
11.574554 -4.9594336 -1.7459197 4293729569
8.7354736 -3.8722563 -1.8674219 4288085770
11.108765 -4.8410711 -1.7449732 4293729569
8.4496155 -3.8100355 -1.8644493 4288085770
10.68396 -4.7337427 -1.7470217 4293729569
8.1958313 -3.758841 -1.8664718 4288085770
10.267181 -4.6224194 -1.7470715 4293729569
7.9169617 -3.6936245 -1.861501 4288085770
9.8774109 -4.5191169 -1.7481182 4293729569
7.6681519 -3.6354322 -1.8605263 4288085770
9.5365906 -4.4288559 -1.7521584 4293729569
7.4633179 -3.5942781 -1.8655441 4288085770
9.2797852 -4.3726654 -1.7691829 4293729569
7.2094727 -3.5290809 -1.8605731 4288085770
9.1278992 -4.3575654 -1.8011889 4293729569
6.9866638 -3.4739091 -1.8585973 4288085770
9.0040283 -4.3544879 -1.8381889 4288085770
6.7748413 -3.4197464 -1.857621 4288085770
8.8681641 -4.3424029 -1.8731933 4288085770
6.5709839 -3.3665915 -1.8576443 4288085770
8.682312 -4.3052721 -1.8972092 4288085770
6.3621521 -3.3094304 -1.8536694 4288085770
8.3665466 -4.2060256 -1.8922534 4288085770
6.182312 -3.2622941 -1.8546901 4288085770
8.0427246 -4.0977712 -1.8833022 4288085770
5.9934998 -3.2081487 -1.8527136 4288085770
7.7439575 -3.998538 -1.8763466 4288085770
5.8176575 -3.1570148 -1.8507364 4288085770
7.4391479 -3.8922977 -1.8653946 4288085770
5.6468506 -3.1068842 -1.8497579 4288085770
7.2033386 -3.8151171 -1.8654289 4288085770
5.4890137 -3.0597656 -1.8507786 4288085770
6.9455261 -3.7249165 -1.8584692 4288085770
5.335144 -3.0126493 -1.8497989 4288085770
6.7157288 -3.6437383 -1.8555052 4288085770
5.1963196 -2.9715464 -1.8528168 4288085770
6.5148926 -3.5755866 -1.8565354 4288085770
5.0394592 -2.9184258 -1.84884 4288085770
6.3171082 -3.5054357 -1.8565664 4288085770
4.9056702 -2.8763261 -1.849858 4288085770
6.1112976 -3.429276 -1.8526003 4288085770
4.7738037 -2.8322277 -1.8508773 4288085770
5.9174805 -3.3561277 -1.8486331 4288085770
4.6449585 -2.7871304 -1.8498967 4288085770
5.7596436 -3.29901 -1.852658 4288085770
4.5191345 -2.7420363 -1.8489163 4288085770
5.5608215 -3.2178545 -1.8436942 4288085770
5.4299927 -3.1707597 -1.8507144 4288085770
5.2841492 -3.1126504 -1.8527398 4288085770
5.142334 -3.0555441 -1.8527651 4288085770
4.9945068 -2.9934313 -1.8497925 4288085770
4.8646851 -2.938334 -1.8498166 4288085770
4.7408447 -2.8852417 -1.8508396 4288085770
4.6190186 -2.8311508 -1.8498633 4288085770
4.5041809 -2.7800648 -1.8508854 4288085770
4.5487671 -0.41352129 -1.7968235 4288085770
4.6429138 -0.39959717 -1.7918277 4288085770
4.7620544 -0.38769579 -1.7928312 4288085770
4.8821411 -0.37579441 -1.7938344 4288085770
5.0153198 -0.363904 -1.7958374 4288085770
5.1434631 -0.35100794 -1.7948411 4288085770
5.2756042 -0.33811426 -1.7928443 4288085770
5.4067078 -0.32521963 -1.7888482 4288085770
5.5708618 -0.31435347 -1.7918503 4288085770
4.5509949 -0.23056602 -1.800899 4288085770
5.7329712 -0.30248451 -1.791853 4288085770
4.6611023 -0.21965504 -1.7979019 4288085770
5.913147 -0.29063082 -1.7938554 4288085770
4.7872314 -0.20775795 -1.796905 4288085770
6.0932617 -0.27877522 -1.7938585 4288085770
4.9143982 -0.19685984 -1.7939076 4288085770
6.286377 -0.26693106 -1.7938609 4288085770
5.0525208 -0.18597221 -1.7939103 4288085770
6.4945374 -0.25609779 -1.7958629 4288085770
5.2166748 -0.17510748 -1.7989128 4288085770
6.706665 -0.24426746 -1.7938652 4288085770
5.350769 -0.16421366 -1.7929153 4288085770
6.9387817 -0.23245192 -1.7948673 4288085770
5.5089417 -0.15334034 -1.7919178 4288085770
7.1849365 -0.22164965 -1.7958689 4288085770
5.6960449 -0.14349318 -1.7959197 4288085770
7.4541016 -0.21086359 -1.7978699 4288085770
5.8562317 -0.13161993 -1.7909222 4288085770
7.7372131 -0.2000885 -1.7988713 4288085770
6.0693054 -0.12179327 -1.7959237 4288085770
8.0213318 -0.18831396 -1.7958732 4288085770
6.2784729 -0.11196089 -1.7969253 4288085770
8.3464966 -0.17657232 -1.7968745 4288085770
6.4846191 -0.10212469 -1.7949271 4288085770
8.6856079 -0.16584063 -1.7958751 4288085770
6.7147522 -0.091309071 -1.7949288 4288085770
9.0607605 -0.15513659 -1.7968752 4288085770
6.9778442 -0.082520485 -1.7999294 4288085770
9.4818726 -0.14447021 -1.7998755 4288085770
7.2290344 -0.071720123 -1.7979307 4288085770
9.9250183 -0.13381958 -1.8008754 4288085770
7.5031128 -0.062936783 -1.7969315 4288085770
10.392151 -0.12218714 -1.7998753 4288085770
7.7742615 -0.053150654 -1.7919326 4288085770
10.918304 -0.11160088 -1.8008742 4288085770
8.1183777 -0.04342556 -1.7979329 4288085770
11.52243 -0.10207701 -1.8048718 4288085770
8.4655151 -0.034700394 -1.7989328 4288085770
12.168549 -0.091584682 -1.8068697 4288085770
8.837677 -0.024994373 -1.7989326 4288085770
12.895691 -0.081156254 -1.8108671 4288085770
9.2427979 -0.016313553 -1.799932 4288085770
13.687836 -0.070776939 -1.8118637 4288085770
9.6749268 -0.0076546669 -1.7999313 4288085770
14.602966 -0.060494423 -1.8158591 4288085770
10.151062 0.00097036362 -1.80093 4288085770
15.62207 -0.050292015 -1.8188536 4288085770
10.672211 0.0095610619 -1.8009284 4288085770
16.913269 -0.040306091 -1.8338454 4288085770
11.285339 0.01807785 -1.8069258 4288085770
18.387329 -0.031463623 -1.8488352 4288085770
11.924469 0.025575161 -1.8099225 4288085770
12.628571 0.033022404 -1.8119187 4288085770
13.465698 0.040363312 -1.8199141 4288085770
14.298859 0.046713829 -1.8159087 4288085770
15.330994 0.051906109 -1.8219011 4288085770
16.619141 0.056892395 -1.839891 4288085770
18.144257 0.061693192 -1.8628795 4288085770
19.274017 -5.7561097 -0.15566814 4293729569
18.869873 0.32562971 -1.8517988 4288085770
17.468964 0.34565592 -1.8455944 4288085770
16.132141 0.3626399 -1.8273971 4288085770
15.027252 0.38045216 -1.8172362 4288085770
14.089417 0.39713812 -1.8110998 4288085770
13.259552 0.41374445 -1.8069806 4288085770
12.524689 0.42928076 -1.8038747 4288085770
11.85083 0.44477367 -1.7987778 4288085770
18.220062 0.68409204 -1.8209233 4288085770
11.245972 0.45921516 -1.7936912 4288085770
16.920166 0.69304562 -1.8127239 4288085770
10.708099 0.47460651 -1.7916155 4288085770
15.783325 0.7008791 -1.8055491 4288085770
10.211212 0.48896694 -1.7885454 4288085770
14.785461 0.70960951 -1.7983966 4288085770
9.7693787 0.5042882 -1.7884836 4288085770
13.9086 0.71825075 -1.7932627 4288085770
9.3365173 0.5176034 -1.7844226 4288085770
13.159698 0.72879601 -1.7911501 4288085770
8.9776306 0.53286171 -1.7853742 4288085770
12.487854 0.74028587 -1.7900496 4288085770
8.6137695 0.54612637 -1.7823234 4288085770
11.848969 0.74975109 -1.7849534 4288085770
8.2969055 0.56035328 -1.7832806 4288085770
11.285126 0.76116228 -1.7828691 4288085770
7.9870605 0.57457781 -1.7802386 4288085770
10.767242 0.77153826 -1.7797923 4288085770
7.7241821 0.58876514 -1.7832043 4288085770
10.314392 0.78386736 -1.7797263 4288085770
7.4623108 0.60295296 -1.7831693 4288085770
9.8825378 0.79417944 -1.7776625 4288085770
7.2184448 0.61712837 -1.7821376 4288085770
9.4886475 0.8064661 -1.7746055 4288085770
7.0046082 0.63227844 -1.7861109 4288085770
9.1257935 0.81772757 -1.7745531 4288085770
6.7917175 0.64643002 -1.7870839 4288085770
8.7919006 0.82996798 -1.7735054 4288085770
6.5718384 0.65858936 -1.7820542 4288085770
8.4880371 0.84318733 -1.7734628 4288085770
6.3729858 0.67173052 -1.7810287 4288085770
8.2011719 0.85639286 -1.773423 4288085770
6.1811218 0.68486834 -1.7780039 4288085770
7.9353027 0.86958361 -1.7753866 4288085770
6.005249 0.69899321 -1.7769821 4288085770
7.6924438 0.88375568 -1.7773538 4288085770
5.8563843 0.71509695 -1.7809658 4288085770
7.449585 0.89593029 -1.7753205 4288085770
5.7035217 0.72820377 -1.7809472 4288085770
7.2137451 0.90810013 -1.7722876 4288085770
5.5436707 0.7413187 -1.7769272 4288085770
6.9818726 0.9182682 -1.7662547 4288085770
5.4047852 0.75541592 -1.7769113 4288085770
6.7869873 0.93240643 -1.7662294 4288085770
5.2689514 0.7695117 -1.7758956 4288085770
6.6131287 0.94752884 -1.7682083 4288085770
5.1380615 0.78260326 -1.7738805 4288085770
6.4362793 0.96065378 -1.7681854 4288085770
5.0252075 0.79768181 -1.7758687 4288085770
6.2723999 0.97477055 -1.7671652 4288085770
4.9043579 0.81176567 -1.773855 4288085770
6.1115417 0.98888397 -1.7671452 4288085770
4.7914734 0.82584476 -1.7728431 4288085770
5.9726868 1.0039797 -1.7691295 4288085770
4.6876221 0.84091616 -1.7728329 4288085770
5.8228149 1.0180874 -1.7661109 4288085770
4.5887451 0.85498428 -1.7728229 4288085770
5.6829224 1.0311847 -1.7650938 4288085770
5.5570679 1.0472727 -1.7650802 4288085770
5.4342041 1.0613585 -1.7650659 4288085770
5.3093262 1.0754476 -1.7620516 4288085770
5.2185059 1.0935068 -1.7670448 4288085770
5.1126404 1.10958 -1.7660339 4288085770
5.0027466 1.1236577 -1.7630219 4288085770
4.9048767 1.1387253 -1.7630119 4288085770
4.809021 1.1537924 -1.7600026 4288085770
4.7201843 1.1698527 -1.7599947 4288085770
4.6393433 1.1869082 -1.7599885 4288085770
4.5674438 1.2049556 -1.7619846 4288085770
4.5251465 3.352706 -1.7229071 4288085770
4.6183472 3.4196348 -1.7219548 4288085770
4.7275391 3.4955492 -1.7240102 4288085770
4.8386841 3.5714636 -1.7240658 4288085770
4.9628906 3.6543665 -1.7271273 4288085770
5.065033 3.722291 -1.7211783 4288085770
5.1982422 3.8081875 -1.7222428 4288085770
5.3594666 3.9090633 -1.7293196 4288085770
5.509613 4.0029488 -1.7303917 4288085770
5.6668396 4.0988302 -1.7314663 4288085770
5.8210144 4.1907139 -1.7305386 4288085770
4.5686035 3.4866257 -1.7259822 4288085770
5.9872131 4.2885885 -1.7286162 4288085770
4.7077942 3.5665197 -1.7320459 4288085770
6.1704407 4.3944502 -1.729701 4288085770
4.8379517 3.6394176 -1.7321055 4288085770
6.350647 4.4973154 -1.726784 4288085770
4.9641113 3.7073221 -1.7301621 4288085770
6.5468445 4.6071672 -1.7258735 4288085770
5.0862732 3.7712307 -1.7242167 4288085770
6.7590332 4.7230082 -1.7259696 4288085770
5.2514648 3.8591032 -1.72929 4288085770
6.9772339 4.8418455 -1.7240682 4288085770
5.423645 3.9499712 -1.7343669 4288085770
7.2124939 4.9676685 -1.7231734 4288085770
5.5918579 4.0358438 -1.7364407 4288085770
7.4736938 5.106473 -1.7252901 4288085770
5.750061 4.1127253 -1.7335086 4288085770
7.7409363 5.2452765 -1.7244081 4288085770
5.9322205 4.2015867 -1.7345874 4288085770
8.0291748 5.3940592 -1.7245352 4288085770
6.1194153 4.2924471 -1.734668 4288085770
8.3334045 5.5478334 -1.7246687 4288085770
6.3016052 4.3763103 -1.7307451 4288085770
8.6456604 5.7026033 -1.7218044 4288085770
6.5187683 4.4781475 -1.7338374 4288085770
8.9949036 5.8763437 -1.7229564 4288085770
6.7119751 4.5630026 -1.7289181 4288085770
9.3791504 6.0660563 -1.7261236 4288085770
6.9501953 4.6718235 -1.7320182 4288085770
9.7664185 6.251771 -1.7252896 4288085770
7.1694031 4.7656612 -1.7281086 4288085770
10.189667 6.4544573 -1.7254713 4288085770
7.4225769 4.8764715 -1.729214 4288085770
10.666962 6.6821041 -1.729676 4288085770
7.6968079 4.995266 -1.7313273 4288085770
11.162262 6.9127369 -1.7308865 4288085770
7.95401 5.1000757 -1.727432 4288085770
11.68457 7.1533518 -1.7301075 4288085770
8.2632141 5.2308445 -1.7315588 4288085770
12.256897 7.4149303 -1.7313492 4288085770
8.582428 5.362606 -1.7336891 4288085770
12.877197 7.6954737 -1.7326105 4288085770
8.8956604 5.4863749 -1.7328153 4288085770
13.556549 8.0009708 -1.7358956 4288085770
9.2208862 5.6111326 -1.7299445 4288085770
9.5810852 5.7518644 -1.7310896 4288085770
9.9463501 5.889595 -1.7292342 4288085770
10.36557 6.049284 -1.7324009 4288085770
10.795837 6.2109642 -1.7345717 4288085770
11.267059 6.3856153 -1.7387574 4288085770
11.760315 6.5652494 -1.7419512 4288085770
12.268585 6.7458744 -1.7431498 4288085770
12.798859 6.9294825 -1.7443554 4288085770
13.351074 7.1150761 -1.7425678 4288085770
13.961365 7.3226252 -1.7468033 4288085770
14.575623 7.5221739 -1.7440374 4288085770
15.266968 7.7486639 -1.7473013 4288085770
15.996216 7.9861288 -1.7505801 4288085770
18.918396 -2.3964272 -1.8844428 4288085770
18.132507 -2.4128575 -1.8802104 4288085770
17.394623 -2.4273231 -1.8759909 4288085770
16.710724 -2.4398296 -1.8737891 4288085770
16.063873 -2.4493649 -1.8715906 4288085770
15.455963 -2.4569254 -1.8714063 4288085770
14.855103 -2.4584904 -1.8682265 4288085770
14.313232 -2.4600978 -1.8670638 4288085770
13.787354 -2.4597168 -1.8659065 4288085770
13.318481 -2.4623811 -1.8697658 4288085770
12.811646 -2.4500132 -1.8636177 4288085770
12.360748 -2.4436884 -1.8634849 4288085770
18.770905 -3.7013617 -1.8880162 4288085770
11.918915 -2.4323688 -1.8603559 4288085770
17.87204 -3.6337109 -1.8887687 4288085770
11.502014 -2.4210689 -1.8582349 4288085770
17.030243 -3.5661008 -1.8875377 4288085770
11.076141 -2.4027598 -1.8511133 4288085770
16.216431 -3.4955103 -1.8843162 4288085770
10.683289 -2.3864765 -1.8480008 4288085770
15.474579 -3.428973 -1.8821154 4288085770
10.339447 -2.3742301 -1.8489013 4288085770
14.782745 -3.3644731 -1.8789287 4288085770
10.004547 -2.36099 -1.8478053 4288085770
14.135925 -3.303004 -1.8767543 4288085770
9.6957092 -2.3497701 -1.8507161 4288085770
13.556091 -3.2495868 -1.8785973 4288085770
9.3708496 -2.3305364 -1.8476245 4288085770
12.989288 -3.1911774 -1.8774459 4288085770
9.0780029 -2.3153267 -1.8485415 4288085770
12.428467 -3.1287715 -1.8722973 4288085770
8.7741394 -2.2941086 -1.8454571 4288085770
11.901611 -3.0673897 -1.8661587 4288085770
8.48526 -2.2719014 -1.8413775 4288085770
11.391785 -3.00302 -1.8590262 4288085770
8.227417 -2.2547178 -1.8423057 4288085770
10.937958 -2.949693 -1.8559065 4288085770
7.9715576 -2.2355359 -1.8412349 4288085770
10.510132 -2.896384 -1.8527951 4288085770
7.7356873 -2.2173684 -1.8421695 4288085770
10.116302 -2.8471026 -1.8516922 4288085770
7.5118103 -2.200211 -1.8441079 4288085770
9.7654419 -2.8048511 -1.8536005 4288085770
7.282959 -2.1790476 -1.8430459 4288085770
9.403595 -2.7555912 -1.8505075 4288085770
7.0600891 -2.1558893 -1.8399861 4288085770
9.0837402 -2.7133629 -1.8514245 4288085770
6.8532715 -2.1347425 -1.8399305 4288085770
8.7809448 -2.6731474 -1.8533463 4288085770
6.661377 -2.1166074 -1.8408785 4288085770
8.4760437 -2.6289296 -1.8512688 4288085770
6.4595337 -2.0924633 -1.8378253 4288085770
8.1552124 -2.5756979 -1.843189 4288085770
6.2806702 -2.0723388 -1.8387778 4288085770
7.885376 -2.5345056 -1.8421209 4288085770
6.1047974 -2.0512147 -1.8397317 4288085770
7.6265564 -2.4943213 -1.8420553 4288085770
5.9219666 -2.0270855 -1.836684 4288085770
7.3937073 -2.4581571 -1.8439968 4288085770
5.762085 -2.0059736 -1.8376424 4288085770
7.1448669 -2.4149783 -1.8399355 4288085770
5.6082458 -1.9858668 -1.8386021 4288085770
6.928009 -2.3788252 -1.8408816 4288085770
5.4533691 -1.9637587 -1.8385623 4288085770
6.716156 -2.3416753 -1.8408291 4288085770
5.2955322 -1.9386466 -1.8355229 4288085770
6.5233154 -2.3085408 -1.842782 4288085770
5.1616516 -1.9195549 -1.8374884 4288085770
6.3314819 -2.2734058 -1.8437347 4288085770
5.0288086 -1.8994632 -1.8394544 4288085770
6.1286621 -2.2322614 -1.8386865 4288085770
4.9059448 -1.880378 -1.8424232 4288085770
5.9427795 -2.1951299 -1.8366423 4288085770
4.7781067 -1.8582902 -1.8423915 4288085770
5.7709351 -2.1610093 -1.836601 4288085770
4.6422119 -1.832195 -1.8383586 4288085770
5.625061 -2.1329088 -1.8405659 4288085770
4.5273743 -1.8121154 -1.8393302 4288085770
5.4592285 -2.0977917 -1.8375268 4288085770
5.2973633 -2.0606775 -1.8344896 4288085770
5.154541 -2.0285778 -1.8344562 4288085770
5.0266724 -2.0014906 -1.8384261 4288085770
4.8988342 -1.9724023 -1.8393967 4288085770
4.7609863 -1.9383056 -1.8363655 4288085770
4.630127 -1.9042144 -1.8333366 4288085770
4.5182495 -1.8771384 -1.8353114 4288085770
4.6001282 0.21535921 -1.7850897 4288085770
4.7302551 0.22826338 -1.7861392 4288085770
4.8454285 0.23917866 -1.7821825 4288085770
4.9655457 0.25109148 -1.7772281 4288085770
5.127655 0.26396894 -1.7832887 4288085770
5.2668152 0.27486753 -1.7803407 4288085770
5.427948 0.28774881 -1.7814014 4288085770
5.6000671 0.29962158 -1.7834649 4288085770
4.617157 0.29031801 -1.7851222 4288085770
5.7752075 0.31149292 -1.7835298 4288085770
4.7532654 0.30021667 -1.7861731 4288085770
5.9523315 0.32336473 -1.7815955 4288085770
4.8824158 0.30912256 -1.783221 4288085770
6.1474915 0.33522081 -1.7826674 4288085770
5.0395508 0.31800508 -1.7882786 4288085770
6.3666077 0.34806156 -1.785748 4288085770
5.2026367 0.3278842 -1.7903388 4288085770
6.6017456 0.35988951 -1.7888343 4288085770
5.3507996 0.33577585 -1.7873931 4288085770
6.8308716 0.37172318 -1.788918 4288085770
5.5259094 0.34564686 -1.7894576 4288085770
7.0760193 0.38454628 -1.7880082 4288085770
5.7000732 0.35352039 -1.7885211 4288085770
7.3361511 0.39635754 -1.7871034 4288085770
5.8921814 0.3623805 -1.7905912 4288085770
7.6152954 0.40815544 -1.7872052 4288085770
6.0802917 0.37024212 -1.78866 4288085770
7.9134216 0.41993999 -1.7873137 4288085770
6.2944641 0.37808561 -1.7897377 4288085770
8.2345581 0.43270922 -1.7864308 4288085770
6.5365906 0.38690948 -1.7948256 4288085770
8.5996704 0.44544506 -1.7905633 4288085770
6.7617188 0.39374685 -1.7939069 4288085770
8.9518127 0.45719337 -1.786691 4288085770
6.9908447 0.40058088 -1.78899 4288085770
9.3599548 0.46989965 -1.7888389 4288085770
7.2689514 0.4083786 -1.7920907 4288085770
9.8070679 0.48257875 -1.7900007 4288085770
7.5371094 0.41418648 -1.789187 4288085770
10.299194 0.49622536 -1.7931783 4288085770
7.8322144 0.41997433 -1.7892933 4288085770
10.837372 0.50884008 -1.7953722 4288085770
8.1623535 0.42673492 -1.7914116 4288085770
11.406525 0.52243328 -1.7965775 4288085770
8.5075073 0.43248701 -1.7915356 4288085770
12.07663 0.53695345 -1.8028188 4288085770
8.8876343 0.4372139 -1.7936718 4288085770
12.782776 0.55044985 -1.8050725 4288085770
9.2737427 0.44193745 -1.79181 4288085770
13.559906 0.56389427 -1.8063517 4288085770
9.7188721 0.44661713 -1.7949691 4288085770
14.476044 0.57924032 -1.8136804 4288085770
10.195007 0.45027637 -1.7971387 4288085770
15.499176 0.59551239 -1.8200474 4288085770
10.710144 0.45290709 -1.7993226 4288085770
16.69632 0.61265755 -1.8314764 4288085770
11.279266 0.45549917 -1.8025253 4288085770
18.013428 0.62972021 -1.8389482 4288085770
11.922363 0.45704031 -1.807754 4288085770
19.357574 0.64176941 -1.8294289 4288085770
12.601532 0.45655537 -1.808995 4288085770
13.357635 0.45601559 -1.8132637 4288085770
14.248779 0.45537901 -1.8225801 4288085770
15.182892 0.45071602 -1.8249109 4288085770
16.342987 0.44588757 -1.8383222 4288085770
17.703156 0.4399128 -1.8567972 4288085770
19.014221 0.42598295 -1.8532529 4288085770
8.0169983 -5.0673509 -0.0214113 4293729569
8.0301208 -5.0243773 -0.06342721 4293729569
8.0522766 -4.9854088 -0.10544407 4293729569
8.1054077 -4.9634628 -0.14746654 4293729569
16.974396 -7.9027596 -0.41348898 4293729569
16.863129 -7.876966 -1.3574586 4293729569
17.032562 -7.7968187 -0.46253729 4293729569
17.135223 -7.8661785 -1.4235492 4293729569
17.637573 -7.9272604 -0.52469528 4293729569
17.293396 -7.8023081 -1.4796174 4293729569
17.593781 -7.771246 -0.56772447 4293729569
17.61853 -7.8055563 -1.5477207 4293729569
17.897919 -7.762475 -0.61982441 4293729569
18.121063 -7.7126484 -0.66891026 4293729569
18.830078 -7.858161 -0.73309731 4293729569
18.429871 -7.7181845 -1.7350059 4293729569
19.074219 -7.8053479 -0.7811904 4293729569
18.064209 -7.4259348 -1.7359693 4293729569
19.413361 -7.7886014 -0.83130407 4293729569
17.669556 -7.1286631 -1.731925 4293729569
13.546173 -5.3954782 -0.6210835 4293729569
13.560974 -5.4157147 -1.373081 4293729569
13.538391 -5.2854834 -0.64311099 4293729569
13.628174 -5.3327732 -1.4011252 4293729569
16.905396 -6.4231467 -1.7408752 4293729569
16.703705 -6.2170115 -1.7428677 4293729569
16.519958 -6.0198879 -1.744863 4293729569
16.320221 -5.8197527 -1.7418542 4293729569
16.193481 -5.6466689 -1.7448614 4293729569
16.05069 -5.4695735 -1.7448647 4293729569
15.987946 -5.3215356 -1.7498853 4293729569
15.905151 -5.1684818 -1.7519009 4293729569
15.843414 -5.0214429 -1.7539215 4293729569
15.794617 -4.8804131 -1.7549448 4293729569
19.389252 -5.8007092 -1.1118464 4293729569
15.793854 -4.7544174 -1.7599792 4293729569
15.924042 -4.6665196 -1.7760372 4293729569
16.308167 -4.6458035 -1.8191612 4293729569
16.858246 -4.6652055 -1.8763266 4288085770
17.307373 -4.6495342 -1.9214692 4288085770
17.445557 -4.5486383 -1.9335356 4288085770
17.438782 -4.4116354 -1.9265654 4288085770
17.424011 -4.2716284 -1.9185941 4288085770
17.458252 -4.1456552 -1.9136341 4288085770
17.554443 -4.0317268 -1.9126904 4288085770
17.588654 -3.904752 -1.9037309 4288085770
17.700867 -3.7928338 -1.9017918 4288085770
17.82605 -3.6839244 -1.8988562 4288085770
18.027252 -3.5870688 -1.9009409 4288085770
18.172424 -3.4801724 -1.8970115 4288085770
18.34967 -3.3752978 -1.8930902 4288085770
18.556824 -3.2724454 -1.889179 4288085770
18.824036 -3.1776347 -1.8902833 4288085770
19.092255 -3.0798242 -1.8883896 4288085770
19.410431 -2.9870501 -1.8895099 4288085770
18.653503 0.75829601 -1.8241091 4288085770
17.551697 0.79804707 -1.8248787 4288085770
16.421814 0.82881975 -1.8086407 4288085770
15.510986 0.86044121 -1.8034501 4288085770
14.709106 0.89098787 -1.8002832 4288085770
13.971252 0.92048836 -1.7961299 4288085770
13.327423 0.94892645 -1.7949967 4288085770
12.728546 0.97633266 -1.791873 4288085770
12.177704 1.0017061 -1.7877595 4288085770
19.07016 1.5579844 -1.8033762 4288085770
11.662872 1.0250559 -1.7826529 4288085770
17.971252 1.5667329 -1.7981408 4288085770
11.186005 1.0483789 -1.777555 4288085770
16.962402 1.5744219 -1.7909245 4288085770
10.788116 1.0736465 -1.7784746 4288085770
16.112549 1.5869994 -1.7887437 4288085770
10.398285 1.09691 -1.7753954 4288085770
15.398712 1.6054826 -1.7915931 4288085770
10.036438 1.1191549 -1.7723219 4288085770
14.671814 1.6159782 -1.7864385 4288085770
9.7115479 1.1423721 -1.7722571 4288085770
14.011963 1.6264267 -1.7802985 4288085770
9.4017029 1.1645808 -1.7701952 4288085770
13.447113 1.6428084 -1.7801802 4288085770
9.132843 1.1887589 -1.7711425 4288085770
12.902222 1.6551785 -1.7750654 4288085770
8.8580017 1.2109427 -1.7700882 4288085770
12.421387 1.6715035 -1.7739654 4288085770
8.6261292 1.235096 -1.7720435 4288085770
11.979523 1.6868019 -1.7718732 4288085770
8.4012756 1.2582445 -1.7730002 4288085770
11.56665 1.7030807 -1.7687881 4288085770
8.1723938 1.2793975 -1.7699559 4288085770
11.177765 1.7173424 -1.7657077 4288085770
7.9735718 1.3025289 -1.7709181 4288085770
10.828949 1.736577 -1.7656369 4288085770
7.7647095 1.3236685 -1.768878 4288085770
10.490051 1.7528052 -1.7615678 4288085770
7.5798645 1.3457904 -1.7668431 4288085770
10.197205 1.7730007 -1.7625091 4288085770
7.4029846 1.3669062 -1.76581 4288085770
9.9033508 1.7901983 -1.7594497 4288085770
7.2401428 1.3900132 -1.76578 4288085770
9.6414795 1.8103724 -1.7593982 4288085770
7.0942688 1.4141073 -1.7677541 4288085770
9.4056091 1.8315287 -1.7603524 4288085770
6.918396 1.4322257 -1.7617207 4288085770
9.1667786 1.8516879 -1.758306 4288085770
6.7935486 1.457305 -1.7646997 4288085770
8.9559021 1.872828 -1.7582655 4288085770
6.6697083 1.4813852 -1.7656786 4288085770
8.7510376 1.8939643 -1.7572265 4288085770
6.5408325 1.503468 -1.7646563 4288085770
8.5682068 1.9180846 -1.7581928 4288085770
6.3969727 1.521564 -1.7586296 4288085770
8.3903198 1.9412007 -1.7581601 4288085770
6.2901306 1.5466318 -1.7596123 4288085770
8.2164612 1.9633145 -1.757128 4288085770
6.1822815 1.5707006 -1.7595947 4288085770
8.0506287 1.9854236 -1.7560976 4288085770
6.0814209 1.5947652 -1.7595789 4288085770
7.8997803 2.0095229 -1.7550709 4288085770
5.9915466 1.6208224 -1.760566 4288085770
7.7558899 2.0336175 -1.7540462 4288085770
5.8916931 1.6428852 -1.7585499 4288085770
7.6160278 2.0577083 -1.753022 4288085770
5.8078308 1.6689382 -1.7595382 4288085770
7.4931641 2.0847874 -1.7540021 4288085770
5.7199707 1.6929941 -1.7585254 4288085770
7.3733215 2.1108651 -1.7529829 4288085770
5.6281128 1.7150536 -1.7545109 4288085770
7.2644653 2.1389346 -1.7539666 4288085770
5.5472717 1.7401042 -1.7524996 4288085770
7.1396179 2.161016 -1.7499452 4288085770
5.4734192 1.7641501 -1.7514894 4288085770
7.0487366 2.1910734 -1.7509332 4288085770
5.4135132 1.7931857 -1.753484 4288085770
6.9618835 2.2231274 -1.7529228 4288085770
5.343689 1.8182297 -1.7514751 4288085770
6.8740845 2.2521825 -1.7529106 4288085770
5.2908325 1.8472595 -1.7534709 4288085770
6.782196 2.2792416 -1.7508979 4288085770
5.2309875 1.8742971 -1.7534645 4288085770
6.6963501 2.3082962 -1.7488863 4288085770
5.1721497 1.9013324 -1.7514589 4288085770
6.6255188 2.3403397 -1.7498794 4288085770
5.1082764 1.9263721 -1.7474513 4288085770
6.5706482 2.3773708 -1.7538769 4288085770
5.0644226 1.956398 -1.7484493 4288085770
6.5038147 2.4104128 -1.7528713 4288085770
5.0275879 1.9894176 -1.7514496 4288085770
6.4399414 2.4424515 -1.7518651 4288085770
4.9777222 2.0164466 -1.7484457 4288085770
6.3640747 2.4705009 -1.7468562 4288085770
4.9338379 2.0454726 -1.7474439 4288085770
6.3042603 2.5035372 -1.7448516 4288085770
4.8920288 2.0744977 -1.7454422 4288085770
6.2574158 2.5395651 -1.7448506 4288085770
4.8631897 2.1085119 -1.7474444 4288085770
6.2195435 2.579586 -1.7458529 4288085770
4.8303223 2.1405301 -1.7464454 4288085770
6.1676941 2.6136179 -1.7428503 4288085770
4.7964783 2.1725488 -1.7444463 4288085770
6.1298523 2.651638 -1.7428517 4288085770
4.7646179 2.2045665 -1.7434473 4288085770
6.0879822 2.6886635 -1.7398522 4288085770
4.7417603 2.2385769 -1.7434514 4288085770
6.0431519 2.723691 -1.7358518 4288085770
4.7109375 2.2705946 -1.7404528 4288085770
6.004303 2.7607126 -1.7328529 4288085770
4.7080688 2.3125901 -1.7454629 4288085770
5.9764709 2.8017273 -1.7308571 4288085770
4.6791992 2.3446064 -1.7404647 4288085770
5.9586182 2.846736 -1.7308648 4288085770
4.6533508 2.3766203 -1.7374675 4288085770
5.9357605 2.8887463 -1.7288709 4288085770
4.6435242 2.4166222 -1.7374754 4288085770
5.9129333 2.9307585 -1.7258768 4288085770
4.6257019 2.452631 -1.7344809 4288085770
5.9090576 2.9817562 -1.7268891 4288085770
4.6248169 2.4956264 -1.7364917 4288085770
5.9062805 3.0317535 -1.7269011 4288085770
4.6259766 2.5396194 -1.7375033 4288085770
5.898407 3.0797558 -1.7239118 4288085770
4.6171265 2.5786219 -1.7345111 4288085770
5.9065552 3.1347437 -1.7259278 4288085770
4.6252747 2.6256113 -1.7365251 4288085770
5.909729 3.1887388 -1.7239423 4288085770
4.6234436 2.6686077 -1.7345357 4288085770
5.9259338 3.2477236 -1.7249608 4288085770
4.6295776 2.7136002 -1.7345486 4288085770
5.9380798 3.3057098 -1.7239785 4288085770
4.6377258 2.7605906 -1.7335622 4288085770
5.9572144 3.3656921 -1.7239981 4288085770
4.6409302 2.8045845 -1.7305737 4288085770
5.9814148 3.4296703 -1.72402 4288085770
4.6580811 2.8555679 -1.7305906 4288085770
6.0335999 3.506629 -1.7300506 4288085770
4.66922 2.9025555 -1.729605 4288085770
6.0627441 3.5726051 -1.729074 4288085770
4.6864014 2.9535389 -1.7276218 4288085770
6.1029663 3.6435719 -1.7301004 4288085770
4.7235718 3.0155087 -1.7316456 4288085770
6.1411133 3.7155418 -1.7291272 4288085770
4.7367249 3.0634966 -1.7266607 4288085770
6.1862793 3.7905073 -1.7281563 4288085770
4.7749023 3.1264648 -1.7286849 4288085770
6.2294617 3.8634739 -1.7261841 4288085770
4.8120728 3.1874352 -1.7297084 4288085770
6.2886658 3.9474287 -1.7262185 4288085770
4.8342285 3.2404156 -1.7247267 4288085770
6.3588257 4.0353746 -1.7282562 4288085770
4.8793945 3.3053808 -1.7257528 4288085770
6.4230347 4.1213284 -1.7262919 4288085770
4.9365845 3.378336 -1.7287838 4288085770
6.4972229 4.2122736 -1.7263312 4288085770
4.9817505 3.4443026 -1.7268102 4288085770
6.5783997 4.3082132 -1.7253733 4288085770
5.0488892 3.5232496 -1.730845 4288085770
6.6555786 4.4021568 -1.7224138 4288085770
5.0921021 3.5872183 -1.7258699 4288085770
6.7457886 4.5040932 -1.7214592 4288085770
5.1682739 3.6711597 -1.7289081 4288085770
6.8489685 4.6140184 -1.7205095 4288085770
5.2264709 3.7441158 -1.7259388 4288085770
6.9631958 4.7289352 -1.7205629 4288085770
5.2996216 3.8260622 -1.7259753 4288085770
7.0924072 4.8558416 -1.7216232 4288085770
5.3928223 3.9209929 -1.7300196 4288085770
7.2196045 4.9797516 -1.7206821 4288085770
5.4920044 4.0189199 -1.7330656 4288085770
7.3478394 5.1056614 -1.7167416 4288085770
5.5822144 4.1098528 -1.7321076 4288085770
7.499054 5.2445536 -1.7168093 4288085770
5.6833801 4.2087793 -1.7331543 4288085770
7.6682739 5.3954334 -1.7168837 4288085770
5.7646179 4.2937231 -1.7261925 4288085770
7.832489 5.5433178 -1.7149568 4288085770
5.8867798 4.4056349 -1.7282472 4288085770
8.0367737 5.7171755 -1.7160442 4288085770
6.0109863 4.5175447 -1.7293017 4288085770
8.2269897 5.8810425 -1.7131264 4288085770
6.1311951 4.6264582 -1.7273545 4288085770
8.4652405 6.0778751 -1.7152274 4288085770
6.2753906 4.7503557 -1.7284167 4288085770
8.707489 6.2757053 -1.7143292 4288085770
6.3926086 4.8562746 -1.7214675 4288085770
8.9707947 6.487524 -1.7144389 4288085770
6.546814 4.986165 -1.7205329 4288085770
9.250061 6.7093277 -1.7135546 4288085770
6.7200317 5.1270409 -1.7216051 4288085770
9.5653381 6.9551105 -1.714684 4288085770
6.8882446 5.2639246 -1.7186749 4288085770
9.8766174 7.197896 -1.7108119 4288085770
7.0985107 5.4287758 -1.7227604 4288085770
10.224945 7.4636555 -1.7079525 4288085770
7.2846985 5.5756454 -1.7178366 4288085770
10.640289 7.7753706 -1.7101197 4288085770
7.51297 5.749486 -1.719928 4288085770
7.7372131 5.9213314 -1.7170179 4288085770
8.0104675 6.1231394 -1.7201264 4288085770
8.2767334 6.3189545 -1.7182307 4288085770
8.5780029 6.5367479 -1.7193482 4288085770
8.9023132 6.7695208 -1.7204742 4288085770
9.2485962 7.0132799 -1.7206075 4288085770
9.5908813 7.253047 -1.7147384 4288085770
10.001221 7.5357628 -1.7168941 4288085770
10.449524 7.842454 -1.7180641 4288085770
19.368927 -1.2130332 -1.8682461 4288085770
18.297028 -1.2413197 -1.8640702 4288085770
17.283112 -1.2616429 -1.8569059 4288085770
16.410248 -1.2820635 -1.8557632 4288085770
15.643341 -1.3025556 -1.8576369 4288085770
14.900452 -1.3160634 -1.8565168 4288085770
14.215607 -1.3276095 -1.8554058 4288085770
13.574738 -1.3351851 -1.8533034 4288085770
12.995819 -1.3438034 -1.8552105 4288085770
12.439972 -1.3474355 -1.8531225 4288085770
18.721527 -2.0356343 -1.8798554 4288085770
11.95108 -1.3531137 -1.8560441 4288085770
17.674713 -2.0049405 -1.8827028 4288085770
11.404205 -1.3467498 -1.8459611 4288085770
16.648834 -1.9662573 -1.877557 4288085770
10.922333 -1.3424311 -1.8398874 4288085770
15.718018 -1.9266384 -1.8704259 4288085770
10.487488 -1.3391428 -1.8368204 4288085770
14.913147 -1.8961055 -1.8693113 4288085770
10.080597 -1.3348746 -1.8337581 4288085770
14.167297 -1.8636115 -1.8672066 4288085770
9.7147522 -1.3316345 -1.8337016 4288085770
13.461456 -1.8311431 -1.8641076 4288085770
9.3518677 -1.326396 -1.8316469 4288085770
12.835602 -1.8027298 -1.8630195 4288085770
9.0029907 -1.3181672 -1.8285947 4288085770
12.235748 -1.771333 -1.859937 4288085770
8.7011108 -1.313971 -1.8305488 4288085770
11.673889 -1.7399609 -1.8548601 4288085770
8.399231 -1.3067741 -1.8295035 4288085770
11.139038 -1.7076056 -1.8477874 4288085770
8.1053772 -1.2965798 -1.8254607 4288085770
10.666199 -1.6792936 -1.844723 4288085770
7.8294983 -1.2874012 -1.8244207 4288085770
10.214325 -1.6509953 -1.8406622 4288085770
7.5696411 -1.2782307 -1.8223825 4288085770
9.7944946 -1.6227188 -1.837606 4288085770
7.3277893 -1.2690744 -1.8223476 4288085770
9.4156494 -1.5984697 -1.836555 4288085770
7.0819092 -1.2569137 -1.8193128 4288085770
9.0487671 -1.5712285 -1.8335066 4288085770
6.8860474 -1.2507887 -1.8232839 4288085770
8.7319031 -1.5500221 -1.835464 4288085770
6.6741638 -1.2406526 -1.8232539 4288085770
8.4080505 -1.5248113 -1.832422 4288085770
6.484314 -1.2325296 -1.8252261 4288085770
8.0961914 -1.4996052 -1.8283815 4288085770
6.2644653 -1.2163854 -1.8181968 4288085770
7.8103638 -1.4754186 -1.8263445 4288085770
6.0895996 -1.207274 -1.821172 4288085770
7.5404968 -1.4522438 -1.8253098 4288085770
5.9006958 -1.1931534 -1.8181472 4288085770
7.2816162 -1.4290748 -1.823277 4288085770
5.7298584 -1.1810431 -1.8171237 4288085770
7.060791 -1.4099336 -1.8262484 4288085770
5.5639648 -1.1689372 -1.8161013 4288085770
6.8229065 -1.3857784 -1.8222191 4288085770
5.4101257 -1.155838 -1.8150811 4288085770
6.6170349 -1.3666463 -1.824193 4288085770
5.2582703 -1.1437421 -1.8150611 4288085770
6.3971863 -1.3425031 -1.8201663 4288085770
5.1313782 -1.1346641 -1.8200438 4288085770
6.1983337 -1.3213754 -1.8191421 4288085770
4.9775391 -1.1185646 -1.8150246 4288085770
6.0064697 -1.2992506 -1.816119 4288085770
4.8406677 -1.1054769 -1.8140068 4288085770
5.8436279 -1.281148 -1.8200991 4288085770
4.718811 -1.0934014 -1.8159914 4288085770
5.665741 -1.2600336 -1.8170781 4288085770
4.6029358 -1.0813298 -1.8169765 4288085770
5.5028992 -1.2389274 -1.8160589 4288085770
4.4970703 -1.0712638 -1.8209629 4288085770
5.3520203 -1.2198329 -1.8160415 4288085770
5.1881714 -1.1967268 -1.811023 4288085770
5.0533142 -1.1786418 -1.8120074 4288085770
4.9214478 -1.1605582 -1.8129923 4288085770
4.792572 -1.1414785 -1.8129783 4288085770
4.6787109 -1.1244078 -1.8159654 4288085770
4.540863 -1.1023183 -1.8089507 4288085770
4.5654907 0.78916407 -1.7705188 4288085770
4.6876221 0.80408001 -1.7705433 4288085770
4.8037415 0.81700134 -1.767566 4288085770
4.9388733 0.83190823 -1.7675924 4288085770
5.0830078 0.84681129 -1.7696199 4288085770
5.2281799 0.86171293 -1.7696478 4288085770
5.3772888 0.87661123 -1.7686765 4288085770
4.5062866 0.78717375 -1.7745099 4288085770
5.5354309 0.89150429 -1.7687068 4288085770
4.629425 0.79708862 -1.7745328 4288085770
5.7015686 0.90539217 -1.768738 4288085770
4.7545471 0.80700397 -1.7745559 4288085770
5.8847046 0.92226887 -1.7707725 4288085770
4.8796997 0.81591892 -1.7715788 4288085770
6.0658569 0.93614674 -1.7698064 4288085770
5.0108337 0.82483101 -1.769603 4288085770
6.26297 0.95201445 -1.7708435 4288085770
5.1669617 0.83672333 -1.7736318 4288085770
6.4640808 0.96687984 -1.769881 4288085770
5.3121033 0.84462547 -1.7716579 4288085770
6.6932373 0.9837265 -1.7729235 4288085770
5.4812317 0.85551071 -1.774689 4288085770
6.9273987 1.0005698 -1.7739666 4288085770
5.6473389 0.86439943 -1.7747188 4288085770
7.1795044 1.0164018 -1.7760129 4288085770
5.8294678 0.87427568 -1.7767515 4288085770
7.4306335 1.0322347 -1.775059 4288085770
5.9966125 0.88116455 -1.7727811 4288085770
7.7037659 1.0480537 -1.7741086 4288085770
6.2087708 0.89202166 -1.7778189 4288085770
7.9979553 1.0648594 -1.775162 4288085770
6.4228516 0.90187693 -1.7818573 4288085770
8.2900696 1.0786662 -1.7722142 4288085770
6.6220398 0.90774441 -1.7788916 4288085770
8.6092224 1.0944562 -1.7712717 4288085770
6.8371277 0.9146018 -1.7769291 4288085770
8.9613342 1.1112247 -1.7703347 4288085770
7.0612488 0.92045259 -1.7749681 4288085770
9.3344421 1.1279788 -1.7704017 4288085770
7.3113708 0.9272871 -1.7760115 4288085770
9.7385864 1.1447124 -1.7704735 4288085770
7.5835266 0.93410587 -1.7770586 4288085770
10.170746 1.1614294 -1.7695498 4288085770
7.8526306 0.93892813 -1.7761045 4288085770
10.642883 1.1801186 -1.7706339 4288085770
8.1448059 0.94373512 -1.776154 4288085770
11.177002 1.1997671 -1.7747285 4288085770
8.4519043 0.94853258 -1.7762067 4288085770
11.727142 1.2184076 -1.7748251 4288085770
8.7840271 0.95131254 -1.7762625 4288085770
12.3703 1.2409854 -1.7799389 4288085770
9.1191711 0.95409346 -1.7733192 4288085770
13.036438 1.26055 -1.7810555 4288085770
9.5083008 0.95683622 -1.7763846 4288085770
13.77655 1.2810674 -1.7831845 4288085770
9.9284363 0.95955992 -1.7794557 4288085770
14.618744 1.3055177 -1.788332 4288085770
10.351562 0.95928192 -1.7785261 4288085770
15.521851 1.3269272 -1.7904892 4288085770
10.827667 0.95996952 -1.7806056 4288085770
16.51001 1.3482852 -1.7906599 4288085770
11.342804 0.95963144 -1.7836916 4288085770
17.71814 1.3774972 -1.7998703 4288085770
11.901917 0.9572649 -1.7857845 4288085770
19.027313 1.4046459 -1.8050966 4288085770
12.512054 0.95386648 -1.7908854 4288085770
13.168182 0.94843674 -1.7939937 4288085770
13.843292 0.93799782 -1.7911034 4288085770
14.686401 0.93144608 -1.8012433 4288085770
15.531525 0.91689587 -1.8013806 4288085770
16.440643 0.89830542 -1.7985277 4288085770
17.627777 0.88452959 -1.8147228 4288085770
18.738861 0.85680914 -1.8119016 4288085770
11.397552 -7.93291 -1.700532 4293729569
11.013885 -7.6216717 -1.7035465 4293729569
10.631195 -7.3124323 -1.7015603 4293729569
10.317474 -7.0492396 -1.7055752 4293729569
10.025757 -6.8010597 -1.7075899 4293729569
9.7850342 -6.5869122 -1.7146046 4293729569
9.5532837 -6.3807716 -1.7186196 4293729569
9.325531 -6.1766315 -1.7216339 4293729569
9.1057739 -5.978498 -1.7226484 4293729569
8.0314941 -5.1956277 -1.0396483 4293729569
8.0513611 -5.270793 -1.5706327 4293729569
8.0336609 -5.1396422 -1.0716677 4293729569
8.0185547 -5.1937833 -1.5956511 4293729569
8.04776 -5.0906639 -1.103688 4293729569
8.0407104 -5.1488094 -1.6296713 4293729569
8.1109314 -5.0687184 -1.1417108 4293729569
8.0958252 -5.12186 -1.6686945 4293729569
12.219482 -7.3844719 -1.7089219 4293729569
8.2609253 -5.1579843 -1.7287221 4293729569
11.914764 -7.1192827 -1.707938 4293729569
8.1661377 -5.0399308 -1.7367387 4293729569
11.649078 -6.8791189 -1.7089546 4293729569
8.0683594 -4.9208746 -1.7427549 4293729569
11.382324 -6.6419535 -1.7049704 4293729569
8.0095215 -4.8248444 -1.7547729 4293729569
11.183594 -6.4438324 -1.7089887 4293729569
7.8697205 -4.6817594 -1.7487872 4293729569
11.003815 -6.2587233 -1.7120078 4293729569
7.7159424 -4.5336623 -1.7377994 4293729569
10.847046 -6.0886302 -1.7170272 4293729569
7.6801453 -4.4506464 -1.7488182 4293729569
10.684265 -5.9165311 -1.7180455 4293729569
7.5873108 -4.3375921 -1.7468336 4293729569
10.556519 -5.7634554 -1.7220657 4293729569
7.6424866 -4.303638 -1.7748578 4293729569
10.431702 -5.6143804 -1.7240853 4293729569
7.7685852 -4.3037333 -1.8168881 4288085770
10.323944 -5.4743166 -1.7271061 4293729569
7.8957214 -4.3028283 -1.8579185 4288085770
10.196167 -5.3262401 -1.7261245 4293729569
7.9568481 -4.2668781 -1.8839445 4288085770
10.111359 -5.2011909 -1.7281456 4293729569
7.927002 -4.1828642 -1.8889651 4288085770
10.032562 -5.0791454 -1.7301669 4293729569
7.8632202 -4.0848265 -1.8859816 4288085770
9.9497986 -4.9570971 -1.7291873 4293729569
7.7704163 -3.9727683 -1.8739965 4288085770
9.9069519 -4.8550744 -1.734211 4293729569
7.712616 -3.8787351 -1.8690133 4288085770
9.8571167 -4.7490473 -1.7362339 4293729569
7.6677856 -3.7917092 -1.865031 4288085770
9.8113403 -4.6470213 -1.7362564 4293729569
7.6369629 -3.7106934 -1.8640499 4288085770
9.7855225 -4.55301 -1.7392809 4293729569
7.6221313 -3.6366887 -1.8650706 4288085770
9.7886658 -4.4730172 -1.7463078 4293729569
7.5913086 -3.5566719 -1.8610892 4288085770
9.8328857 -4.4100513 -1.7573388 4293729569
7.5594788 -3.4766536 -1.8561075 4288085770
9.9849854 -4.3901591 -1.7863817 4293729569
7.5396423 -3.4016445 -1.853127 4288085770
10.213135 -4.4003172 -1.826432 4288085770
7.5488281 -3.3396547 -1.8541491 4288085770
10.440216 -4.4064741 -1.8644843 4288085770
7.5579834 -3.2766643 -1.8551717 4288085770
10.59433 -4.3795815 -1.8895297 4288085770
7.5831604 -3.2216845 -1.859195 4288085770
10.604553 -4.2955904 -1.889559 4288085770
7.5773315 -3.152683 -1.8542161 4288085770
10.582733 -4.2005796 -1.882585 4288085770
7.5904846 -3.092695 -1.8532383 4288085770
10.570923 -4.1095724 -1.8756115 4288085770
7.5996399 -3.0307033 -1.8492603 4288085770
10.569092 -4.022573 -1.8696396 4288085770
7.619812 -2.9727192 -1.8472841 4288085770
10.619263 -3.9526081 -1.8706741 4288085770
