# .PCD v0.7 - Point Cloud Data file format
VERSION 0.7
FIELDS x y z rgb
SIZE 4 4 4 4
TYPE F F F U
COUNT 1 1 1 1
WIDTH 1123
HEIGHT 1
VIEWPOINT 0 0 0 1 0 0 0
POINTS 1123
DATA ascii
13.508947 -5.5715852 -0.15703338 4293729569
13.473776 -5.5766668 -0.88621342 4293729569
13.43117 -5.640276 -0.20070285 4293729569
12.368151 -5.2287173 -0.86158413 4293729569
13.391386 -5.7229939 -0.24630138 4293729569
12.312361 -5.2974486 -0.90216863 4293729569
13.432581 -5.8387761 -0.29476643 4293729569
12.306566 -5.3872032 -0.94767368 4293729569
11.454885 -5.1154566 -0.93147838 4293729569
11.374109 -5.1661696 -0.97106016 4293729569
11.921267 -5.4902215 -1.0627028 4293729569
11.476072 -5.3551168 -0.43466857 4293729569
11.387552 -5.3386784 -1.0669334 4293729569
11.398321 -5.4018002 -0.480216 4293729569
12.54767 -5.9499912 -1.2227676 4293729569
11.327578 -5.4504848 -0.52674693 4293729569
11.452009 -5.5351806 -1.1737376 4293729569
10.98329 -5.3966928 -1.1797884 4293729569
11.21908 -5.5578771 -0.62173474 4293729569
10.856543 -5.4153676 -1.2183714 4293729569
11.226324 -5.6376076 -0.67413211 4293729569
10.348791 -5.2887421 -0.67562091 4293729569
10.24507 -5.2695765 -1.2559264 4293729569
10.251062 -5.3114123 -0.72011399 4293729569
9.5703449 -5.0060658 -1.2280953 4293729569
10.205324 -5.3551188 -0.76752043 4293729569
9.6475925 -5.1098266 -1.2883523 4293729569
10.161589 -5.399817 -0.8169241 4293729569
11.112833 -5.921 -1.528083 4293729569
9.529974 -5.1431837 -0.81996548 4293729569
10.964109 -5.9186449 -1.5686353 4293729569
9.4112568 -5.1418567 -0.8604095 4293729569
10.562384 -5.78023 -1.573428 4293729569
9.3015347 -5.144527 -0.90284038 4293729569
8.8086128 -4.9255328 -1.3805634 4293729569
8.7838783 -4.9280071 -0.90566027 4293729569
9.1428814 -5.1603322 -1.481536 4293729569
8.7451363 -4.9597325 -0.9509747 4293729569
9.4911785 -5.4060988 -1.591513 4293729569
8.7224083 -5.0004535 -1.0002756 4293729569
9.1174335 -5.2617497 -1.5891671 4293729569
8.7956657 -5.0902166 -1.0594711 4293729569
8.7826843 -5.1334229 -1.5897578 4293729569
8.906929 -5.2009811 -1.1256332 4293729569
8.4499245 -5.0011148 -1.5873196 4293729569
9.5591564 -5.612915 -1.2603333 4293729569
8.1681747 -4.8938141 -1.59282 4293729569
9.5304546 -5.6486001 -1.315629 4293729569
7.928421 -4.804534 -1.6022563 4293729569
9.5507565 -5.7082973 -1.3778653 4293729569
7.710659 -4.7242703 -1.6126566 4293729569
9.7070522 -5.846024 -1.4599975 4293729569
7.5279064 -4.6610103 -1.629014 4293729569
9.7133617 -5.8957028 -1.5232337 4293729569
7.3541489 -4.5997586 -1.6453475 4293729569
9.4056759 -5.7633238 -1.5386996 4293729569
7.2764111 -4.5915031 -1.6805969 4293729569
9.2819881 -5.7329807 -1.5820061 4293729569
7.2056713 -4.5862546 -1.7158353 4293729569
8.9182854 -5.5596213 -1.5834681 4293729569
7.1379395 -4.579998 -1.7530568 4288085770
8.5795746 -5.3952866 -1.5848833 4293729569
7.09021 -4.5847411 -1.7942606 4288085770
8.2418594 -5.227963 -1.5842792 4293729569
6.9684582 -4.542511 -1.8164971 4288085770
7.8961296 -5.0516634 -1.5776582 4293729569
6.7766876 -4.4553008 -1.8217622 4288085770
7.6263962 -4.9183807 -1.5819759 4293729569
6.582901 -4.3641047 -1.8240138 4288085770
7.4416656 -4.8311138 -1.5992143 4293729569
6.3871155 -4.2689219 -1.823252 4288085770
7.2879372 -4.7608581 -1.6204247 4293729569
6.1913242 -4.1707492 -1.8204749 4288085770
7.1252003 -4.6826129 -1.6376272 4293729569
6.021534 -4.0865765 -1.8226728 4288085770
6.9584618 -4.5983753 -1.6528136 4293729569
5.8687496 -4.0094104 -1.8268435 4288085770
6.9007416 -4.5801301 -1.6899344 4293729569
5.7079487 -3.9252625 -1.826008 4288085770
6.8760262 -4.5778866 -1.7330145 4293729569
5.5421448 -3.8361249 -1.8221651 4288085770
6.8633175 -4.5836401 -1.7790911 4288085770
5.3993435 -3.7579894 -1.8222935 4288085770
6.8155975 -4.5644054 -1.8161691 4288085770
5.2545357 -3.6768675 -1.8194138 4288085770
6.6198273 -4.4512229 -1.8153139 4288085770
5.1317368 -3.608736 -1.8225192 4288085770
6.4760666 -4.3690352 -1.8254249 4288085770
5.0129318 -3.5416136 -1.8246149 4288085770
6.2872849 -4.2558746 -1.8215438 4288085770
4.8741093 -3.458518 -1.8177028 4288085770
6.117506 -4.1527181 -1.8206437 4288085770
4.7642994 -3.3934102 -1.8187754 4288085770
5.9597244 -4.0555687 -1.8207299 4288085770
4.6394768 -3.3163185 -1.8138423 4288085770
5.8029327 -3.9574299 -1.8188071 4288085770
4.544672 -3.2572148 -1.8168901 4288085770
5.6631413 -3.8673024 -1.8178626 4288085770
5.5273476 -3.7791796 -1.8169136 4288085770
5.400547 -3.6950655 -1.8159521 4288085770
5.2687397 -3.6059608 -1.8119832 4288085770
5.157938 -3.5288577 -1.8119985 4288085770
5.0501347 -3.4527612 -1.8110077 4288085770
4.9433212 -3.3756723 -1.8090082 4288085770
4.8385048 -3.298595 -1.8050016 4288085770
4.7476921 -3.2295163 -1.803984 4288085770
4.6578732 -3.1604435 -1.8019631 4288085770
4.5690498 -3.0903816 -1.7979336 4288085770
8.5418491 -4.9261508 -4.3976383 4282675967
4.5358868 -1.0990419 -1.7062201 4288085770
4.5940132 -1.079123 -1.7019182 4288085770
4.6821613 -1.0661938 -1.705543 4288085770
4.7342777 -1.0442886 -1.6972537 4288085770
4.798399 -1.0253804 -1.6919364 4288085770
4.8835354 -1.0084729 -1.6905534 4288085770
4.9706726 -0.99256259 -1.6901687 4288085770
5.0367832 -0.97267073 -1.6818403 4288085770
5.1309166 -0.95777196 -1.6804363 4288085770
5.2210407 -0.94088382 -1.676037 4288085770
5.3171673 -0.92399675 -1.6726167 4288085770
5.4082851 -0.90611941 -1.6662098 4288085770
5.5294247 -0.89323717 -1.6667202 4288085770
4.5206947 -0.72619277 -1.6825302 4288085770
5.6245327 -0.87437302 -1.658295 4288085770
4.6098232 -0.7122938 -1.68015 4288085770
5.7396584 -0.85950428 -1.6548182 4288085770
4.7019558 -0.697393 -1.6787546 4288085770
5.8627853 -0.84364337 -1.6513083 4288085770
4.7940826 -0.68250185 -1.6753592 4288085770
5.9969082 -0.82979304 -1.6477693 4288085770
4.8912067 -0.66761571 -1.6719466 4288085770
6.1190262 -0.81294519 -1.6412593 4288085770
4.9733181 -0.65073913 -1.6635785 4288085770
6.2641468 -0.79811054 -1.6366773 4288085770
5.0804424 -0.63586241 -1.660131 4288085770
6.4122677 -0.78327852 -1.6320848 4288085770
5.1905689 -0.62098855 -1.6566733 4288085770
6.5613823 -0.76745731 -1.6254851 4288085770
5.3187027 -0.60811776 -1.6561612 4288085770
6.738512 -0.75464362 -1.6228 4288085770
5.4458313 -0.59425586 -1.6536486 4288085770
6.9346428 -0.74283868 -1.6220529 4288085770
5.5649509 -0.58039552 -1.649165 4288085770
7.1177597 -0.72805029 -1.6153383 4288085770
5.6890621 -0.56455475 -1.6416546 4288085770
7.2968616 -0.71227247 -1.6056342 4288085770
5.8371944 -0.55170816 -1.6400734 4288085770
7.5099831 -0.69850367 -1.6008188 4288085770
5.974308 -0.53687483 -1.6335224 4288085770
7.7330952 -0.68475384 -1.5939689 4288085770
6.1464424 -0.52404684 -1.632857 4288085770
7.9782143 -0.67201573 -1.5890462 4288085770
6.3145618 -0.51023382 -1.6282017 4288085770
8.21632 -0.656295 -1.5791351 4288085770
6.4496479 -0.49343222 -1.6146497 4288085770
8.4824238 -0.64259154 -1.571134 4288085770
6.6507797 -0.48063213 -1.6138829 4288085770
8.7765331 -0.62991065 -1.5640399 4288085770
6.8509026 -0.46685022 -1.6091157 4288085770
9.0876369 -0.61526054 -1.553877 4288085770
7.0440083 -0.45208079 -1.6003696 4288085770
9.4357548 -0.6026271 -1.5475932 4288085770
7.2621212 -0.43732613 -1.5935354 4288085770
9.8108578 -0.59102935 -1.5392199 4288085770
7.4882412 -0.42357415 -1.5876782 4288085770
10.168947 -0.57544428 -1.5248889 4288085770
7.7373524 -0.40984935 -1.5807406 4288085770
10.610052 -0.56291527 -1.5152793 4288085770
7.984457 -0.39513677 -1.570806 4288085770
11.066149 -0.55041057 -1.503618 4288085770
8.2835789 -0.38244599 -1.5666977 4288085770
11.583246 -0.537965 -1.4917423 4288085770
8.5736828 -0.36777526 -1.5566128 4288085770
12.14234 -0.5255602 -1.4797195 4288085770
8.9047966 -0.35312986 -1.5493838 4288085770
12.77743 -0.51323873 -1.4654299 4288085770
9.2599125 -0.3395077 -1.5420758 4288085770
13.461515 -0.49997407 -1.4489642 4288085770
9.6410122 -0.32492495 -1.5316724 4288085770
14.22859 -0.48779505 -1.4312121 4288085770
10.0291 -0.30936337 -1.5182408 4288085770
15.130671 -0.47573715 -1.4149854 4288085770
10.477201 -0.29485041 -1.5066035 4288085770
16.156748 -0.46480948 -1.3963287 4288085770
10.968306 -0.27937895 -1.4948109 4288085770
17.235792 -0.45097548 -1.368474 4288085770
11.5254 -0.26396686 -1.4837867 4288085770
18.659864 -0.44142944 -1.3494234 4288085770
12.139502 -0.24861008 -1.4725636 4288085770
12.789591 -0.23231161 -1.4562112 4288085770
13.526674 -0.21609777 -1.4395541 4288085770
14.348753 -0.1979757 -1.4205908 4288085770
15.32984 -0.18099856 -1.4030747 4288085770
16.407907 -0.16213417 -1.3812114 4288085770
17.717989 -0.14347607 -1.3625351 4288085770
19.235064 -0.12203771 -1.3391211 4288085770
18.316221 0.0072728992 -1.3396746 4288085770
16.816381 0.0096669793 -1.3566787 4288085770
15.616564 0.013808727 -1.3788774 4288085770
14.576735 0.017799139 -1.3986486 4288085770
13.680918 0.022662401 -1.4190325 4288085770
12.889086 0.028422177 -1.4361351 4288085770
12.165247 0.034113884 -1.4510554 4288085770
18.592035 0.056986332 -1.328047 4288085770
11.530413 0.040725112 -1.4657352 4288085770
17.059202 0.067408144 -1.3450938 4288085770
10.955568 0.047275603 -1.4782546 4288085770
15.876402 0.077548444 -1.3722138 4288085770
10.415724 0.054787934 -1.4886767 4288085770
14.748564 0.087601066 -1.3871844 4288085770
9.9558887 0.062237442 -1.5018862 4288085770
13.837744 0.09847337 -1.4065776 4288085770
9.5070362 0.069664299 -1.5110652 4288085770
13.032915 0.10824049 -1.4226921 4288085770
9.1101894 0.078047216 -1.5211029 4288085770
12.325087 0.11892289 -1.439546 4288085770
8.7403431 0.086402416 -1.5300682 4288085770
11.687258 0.12953895 -1.4552134 4288085770
8.4014988 0.094732702 -1.5399511 4288085770
11.091417 0.14010429 -1.4667687 4288085770
8.0726414 0.10304141 -1.5458063 4288085770
10.572584 0.15060332 -1.47912 4288085770
7.7797947 0.11232686 -1.554563 4288085770
10.077738 0.16107118 -1.4884065 4288085770
7.5159473 0.12158608 -1.5632426 4288085770
9.6428928 0.17149085 -1.4995342 4288085770
7.2630959 0.1308322 -1.5708926 4288085770
9.2400455 0.18287235 -1.5075738 4288085770
7.0132389 0.14006925 -1.5765337 4288085770
8.8682022 0.19323194 -1.517534 4288085770
6.8133945 0.14927664 -1.5870436 4288085770
8.5353565 0.20355627 -1.5273912 4288085770
6.590538 0.15948609 -1.5916096 4288085770
8.2125092 0.21486533 -1.5352178 4288085770
6.3726749 0.16868472 -1.5941647 4288085770
7.9126549 0.2251474 -1.5409865 4288085770
6.1798134 0.17786694 -1.5986542 4288085770
7.6418076 0.23641247 -1.5496756 4288085770
5.9939537 0.18803975 -1.6021215 4288085770
7.400959 0.24765047 -1.5582858 4288085770
5.8180943 0.19820341 -1.605562 4288085770
7.171114 0.2588785 -1.5668663 4288085770
5.6602345 0.20735407 -1.6099585 4288085770
6.9232502 0.27010092 -1.5684928 4288085770
5.508379 0.21750215 -1.6153357 4288085770
6.7223988 0.28129938 -1.5759964 4288085770
5.3605137 0.22763732 -1.6177019 4288085770
6.5385513 0.29248577 -1.5844554 4288085770
5.2226543 0.23776668 -1.6210417 4288085770
6.3336849 0.30366632 -1.584968 4288085770
5.083786 0.24789381 -1.6233835 4288085770
6.1628304 0.31483462 -1.5913916 4288085770
4.9699364 0.25901058 -1.6296571 4288085770
5.981966 0.32599649 -1.5928407 4288085770
4.848074 0.26912534 -1.6329544 4288085770
5.8191032 0.33714834 -1.5962428 4288085770
4.7181988 0.27923188 -1.6312717 4288085770
5.6612415 0.34829247 -1.5986314 4288085770
4.6193485 0.29033804 -1.6385055 4288085770
5.5273933 0.36043024 -1.6059543 4288085770
4.5234966 0.30243549 -1.6437281 4288085770
5.3855286 0.37155694 -1.6073006 4288085770
5.2476654 0.38268289 -1.6096362 4288085770
5.1268101 0.39479965 -1.6139243 4288085770
5.0099468 0.40690982 -1.6172018 4288085770
4.8860817 0.41801712 -1.6174999 4288085770
4.7762184 0.43011773 -1.6197586 4288085770
4.6873703 0.44321471 -1.6269602 4288085770
4.5754967 0.45430496 -1.6252264 4288085770
4.5663128 2.6466672 -1.5196038 4288085770
4.6804676 2.6915574 -1.517234 4288085770
4.7856064 2.7304418 -1.509902 4288085770
4.9077606 2.775322 -1.5065149 4288085770
5.0399208 2.8241966 -1.5040945 4288085770
5.1700726 2.8700674 -1.4996876 4288085770
5.3092289 2.9179327 -1.496255 4288085770
5.449379 2.9657919 -1.4908211 4288085770
4.5171509 2.5457039 -1.5271417 4288085770
5.5955315 3.0136459 -1.4853742 4288085770
4.6222839 2.5745943 -1.5218384 4288085770
5.748682 3.0624936 -1.4799093 4288085770
4.7324238 2.6054797 -1.516519 4288085770
5.9118443 3.1153381 -1.4764112 4288085770
4.8475609 2.636364 -1.5121882 4288085770
6.0940132 3.1741686 -1.4738541 4288085770
4.9697018 2.6692417 -1.5078367 4288085770
6.2901878 3.2369924 -1.4732547 4288085770
5.1088581 2.7091155 -1.5074276 4288085770
6.4703426 3.2908137 -1.4667177 4288085770
5.2400036 2.7419882 -1.5040568 4288085770
6.6474895 3.3396325 -1.4582024 4288085770
5.3601246 2.7688544 -1.4947283 4288085770
6.8706646 3.4074299 -1.4565308 4288085770
5.4992657 2.8027179 -1.4903377 4288085770
7.0658131 3.4592333 -1.4479681 4288085770
5.6564217 2.8415756 -1.4898932 4288085770
7.2809696 3.517024 -1.4413443 4288085770
5.8065643 2.8764291 -1.4854764 4288085770
7.5331535 3.5887959 -1.4395994 4288085770
5.9577026 2.9082794 -1.4800661 4288085770
7.7723141 3.6515632 -1.4319096 4288085770
6.0978241 2.934128 -1.470698 4288085770
8.0194759 3.7143261 -1.4252031 4288085770
6.2799816 2.9749641 -1.4701942 4288085770
8.2696304 3.7750783 -1.4154963 4288085770
6.4791451 3.0207884 -1.4706389 4288085770
8.5457954 3.8428164 -1.4087127 4288085770
6.6382713 3.0476234 -1.4622273 4288085770
8.8259563 3.908545 -1.399927 4288085770
6.8284149 3.0844421 -1.4577188 4288085770
9.1361256 3.9832504 -1.3920501 4288085770
7.0055447 3.1132641 -1.4502623 4288085770
9.4633045 4.0599461 -1.3861308 4288085770
7.2046871 3.1480751 -1.4457406 4288085770
9.8174839 4.1426158 -1.379136 4288085770
7.4228382 3.1878719 -1.4421633 4288085770
10.165651 4.2192869 -1.3711725 4288085770
7.6419868 3.2256682 -1.4385902 4288085770
10.560835 4.3079209 -1.3640722 4288085770
7.8601227 3.2584596 -1.4330339 4288085770
10.96102 4.3925476 -1.3559731 4288085770
8.0712528 3.286252 -1.4255077 4288085770
11.3822 4.4821553 -1.3478153 4288085770
8.2983894 3.3180337 -1.4189357 4288085770
11.840387 4.5787334 -1.3405575 4288085770
8.5515308 3.3548 -1.4152915 4288085770
12.326582 4.6792846 -1.332226 4288085770
8.7906609 3.3835683 -1.4077026 4288085770
12.818766 4.7748256 -1.3218988 4288085770
9.0507984 3.4153233 -1.4020593 4288085770
13.339949 4.8733387 -1.3105004 4288085770
9.3219357 3.4490688 -1.3963871 4288085770
13.939161 4.9917955 -1.3038753 4288085770
9.6080799 3.4818039 -1.3916851 4288085770
14.489336 5.0852757 -1.2894304 4288085770
9.8892117 3.511538 -1.3850036 4288085770
15.16855 5.2126575 -1.2806075 4288085770
10.183344 3.5392613 -1.3782992 4288085770
15.803732 5.3190632 -1.2659426 4288085770
10.488474 3.5659745 -1.3715742 4288085770
16.494925 5.4324193 -1.2511364 4288085770
10.8016 3.5926783 -1.3638327 4288085770
17.351168 5.5876508 -1.2438519 4288085770
11.146746 3.6233621 -1.3590099 4288085770
18.168375 5.7198968 -1.2287201 4288085770
11.483873 3.6480501 -1.3532226 4288085770
19.052591 5.8600874 -1.2144209 4288085770
11.820993 3.6667309 -1.3444524 4288085770
12.186121 3.6883919 -1.3376135 4288085770
12.554239 3.706048 -1.3297794 4288085770
12.940367 3.7246912 -1.3229045 4288085770
13.325476 3.7363298 -1.3140514 4288085770
13.750593 3.7529418 -1.3080956 4288085770
14.175711 3.7645507 -1.3011566 4288085770
14.556803 3.7581861 -1.2893646 4288085770
15.010912 3.763767 -1.2813802 4288085770
15.511034 3.7743187 -1.2772824 4288085770
16.046164 3.7838397 -1.2731111 4288085770
16.62129 3.7953331 -1.2718481 4288085770
17.038363 3.7669346 -1.2590421 4288085770
17.497435 3.7395024 -1.2471417 4288085770
17.945498 3.704077 -1.234288 4288085770
18.379557 3.6616645 -1.2214851 4288085770
18.84561 3.6152239 -1.2086233 4288085770
19.272646 3.5558126 -1.1938827 4288085770
19.398344 -3.5737166 -1.4685335 4288085770
18.951456 -3.6232886 -1.4866235 4288085770
18.422575 -3.6518092 -1.4968328 4288085770
17.918695 -3.678349 -1.5079829 4288085770
17.471823 -3.7089267 -1.5240208 4288085770
16.973951 -3.7224765 -1.5331229 4288085770
16.494081 -3.7340369 -1.5441805 4288085770
15.97822 -3.7285833 -1.5482707 4288085770
15.515356 -3.7311621 -1.5582672 4288085770
15.069498 -3.7297578 -1.5672171 4288085770
14.645643 -3.7273698 -1.577117 4288085770
14.262785 -3.7290115 -1.5899395 4288085770
13.857931 -3.719645 -1.5977798 4288085770
13.444082 -3.7032738 -1.6046208 4288085770
19.239233 -5.3268838 -1.3584329 4293729569
13.035234 -3.6819091 -1.6104379 4288085770
18.498465 -5.2471933 -1.3798079 4293729569
12.705381 -3.6775975 -1.6231301 4288085770
17.845694 -5.1825714 -1.4050337 4293729569
12.335535 -3.6562643 -1.6298631 4288085770
17.156923 -5.0979342 -1.4232837 4293729569
11.997686 -3.6389551 -1.6385386 4288085770
16.514151 -5.0183396 -1.4404489 4293729569
11.638838 -3.6116357 -1.6432325 4288085770
15.937372 -4.9507933 -1.4615039 4293729569
11.334997 -3.5963521 -1.6538398 4288085770
15.418585 -4.8922949 -1.4834583 4293729569
11.002157 -3.5670557 -1.658473 4288085770
14.9848 -4.854857 -1.5112851 4293729569
10.690313 -3.5407739 -1.6650685 4288085770
14.646006 -4.8414826 -1.5469711 4293729569
10.375471 -3.507494 -1.6696531 4288085770
14.335211 -4.8311338 -1.582605 4293729569
10.077631 -3.4772272 -1.6752083 4288085770
14.015417 -4.8147783 -1.6172423 4288085770
9.7957897 -3.4479737 -1.6807321 4288085770
13.661619 -4.7814112 -1.6449084 4288085770
9.5229511 -3.4167285 -1.6862317 4288085770
13.22484 -4.7139969 -1.6616644 4288085770
9.2391033 -3.3784828 -1.6877369 4288085770
12.788046 -4.6405931 -1.6744049 4288085770
8.9632645 -3.3392417 -1.6902223 4288085770
12.334265 -4.5561824 -1.683153 4288085770
8.7134228 -3.3060186 -1.6946675 4288085770
11.869471 -4.4617753 -1.6868993 4288085770
8.4625835 -3.2677994 -1.6971021 4288085770
11.447676 -4.3773999 -1.6925795 4288085770
8.2347412 -3.2365935 -1.7025055 4288085770
11.038877 -4.2920394 -1.6972297 4288085770
8.0119038 -3.2023921 -1.7078907 4288085770
10.666079 -4.213707 -1.7028214 4288085770
7.8010616 -3.170203 -1.7122555 4288085770
10.27928 -4.1253715 -1.7044173 4288085770
7.589222 -3.1350133 -1.7166146 4288085770
9.9414768 -4.0520701 -1.7099473 4288085770
7.4103832 -3.1098413 -1.7259293 4288085770
9.589674 -3.9687653 -1.7114817 4288085770
7.2035408 -3.0706627 -1.727268 4288085770
9.2788639 -3.8964901 -1.7159573 4288085770
7.0257034 -3.0394979 -1.7335654 4288085770
8.9650574 -3.8192191 -1.7174264 4288085770
6.818861 -2.9953244 -1.7328913 4288085770
8.6772423 -3.7489676 -1.7198585 4288085770
6.6460209 -2.9621696 -1.7371731 4288085770
8.3944302 -3.6757236 -1.7212723 4288085770
6.4711761 -2.9260168 -1.7394514 4288085770
8.1466179 -3.6154981 -1.7276448 4288085770
6.3043365 -2.8898683 -1.7427131 4288085770
7.908802 -3.5552835 -1.7329962 4288085770
6.1244907 -2.8467205 -1.7409846 4288085770
7.6899853 -3.499084 -1.7393179 4288085770
5.9896526 -2.8195894 -1.7492013 4288085770
7.4671631 -3.4398875 -1.7426401 4288085770
5.8338089 -2.7824557 -1.750437 4288085770
7.2363434 -3.3736906 -1.7429621 4288085770
5.6759644 -2.7423251 -1.7496697 4288085770
7.0385208 -3.3185134 -1.747242 4288085770
5.5461235 -2.7112048 -1.754866 4288085770
6.8286972 -3.256335 -1.7475295 4288085770
5.4012737 -2.6720853 -1.754074 4288085770
6.6318703 -3.197166 -1.7487975 4288085770
5.2754345 -2.6399686 -1.7592593 4288085770
6.4440441 -3.1390066 -1.7490492 4288085770
5.123579 -2.5948539 -1.7534667 4288085770
6.2612133 -3.0818491 -1.7502923 4288085770
5.0117378 -2.565748 -1.7596302 4288085770
6.096384 -3.0307038 -1.753513 4288085770
4.8918915 -2.5306454 -1.7607957 4288085770
5.9375534 -2.9795651 -1.755721 4288085770
4.7680454 -2.4925439 -1.7599622 4288085770
5.7797241 -2.9264317 -1.7559223 4288085770
4.6602001 -2.460448 -1.7631102 4288085770
5.6368942 -2.8793032 -1.760107 4288085770
4.5513535 -2.4253554 -1.7642528 4288085770
5.4900589 -2.8281794 -1.76029 4288085770
5.3492241 -2.7780614 -1.7604634 4288085770
5.2153912 -2.7299471 -1.7616266 4288085770
5.087553 -2.6818402 -1.761778 4288085770
4.9597149 -2.6337354 -1.7609291 4288085770
4.8468781 -2.5906346 -1.7640613 4288085770
4.7300377 -2.5445402 -1.7631943 4288085770
4.6191998 -2.4994478 -1.7633177 4288085770
4.566803 -0.2790162 -1.6554866 4288085770
4.6599274 -0.26610851 -1.6513056 4288085770
4.7670536 -0.2552067 -1.6501043 4288085770
4.8541718 -0.24230343 -1.6409349 4288085770
4.9843082 -0.23241383 -1.6436958 4288085770
5.0844269 -0.21951991 -1.6355044 4288085770
5.2015495 -0.20763463 -1.6302855 4288085770
5.3366756 -0.1967591 -1.6280372 4288085770
5.4627972 -0.1858834 -1.6218054 4288085770
4.5799541 -0.12907165 -1.6492575 4288085770
5.6029224 -0.17401409 -1.6185476 4288085770
4.6940823 -0.11917609 -1.6480477 4288085770
5.7600498 -0.16415745 -1.6162643 4288085770
4.8132095 -0.10928488 -1.6468298 4288085770
5.9081726 -0.15230066 -1.6099937 4288085770
4.9183273 -0.09939301 -1.6396371 4288085770
6.0872993 -0.14246112 -1.6086732 4288085770
5.0554581 -0.089515269 -1.6393886 4288085770
6.268425 -0.13162696 -1.605348 4288085770
5.1705742 -0.079633832 -1.6311793 4288085770
6.4465446 -0.12079614 -1.5990291 4288085770
5.3136997 -0.069765151 -1.6289215 4288085770
6.6366653 -0.10997558 -1.5926896 4288085770
5.4538212 -0.060897589 -1.6246713 4288085770
6.8657951 -0.10017902 -1.5912848 4288085770
5.6109467 -0.051042855 -1.6213903 4288085770
7.0739098 -0.089377701 -1.5829158 4288085770
5.7560616 -0.042185247 -1.6141326 4288085770
7.3060284 -0.078593075 -1.5765054 4288085770
5.9401913 -0.033347905 -1.6138078 4288085770
7.5441437 -0.068819523 -1.5670879 4288085770
6.1513252 -0.025526404 -1.6174386 4288085770
7.8022633 -0.058057249 -1.5606346 4288085770
6.3104362 -0.016688287 -1.6061589 4288085770
8.0763741 -0.048316598 -1.5501567 4288085770
6.5085583 -0.0078707933 -1.601812 4288085770
8.3784924 -0.038594246 -1.5426311 4288085770
6.7006721 0.00094264746 -1.5924765 4288085770
8.6906052 -0.028886199 -1.5320895 4288085770
6.9107857 0.0087423921 -1.5841124 4288085770
9.0477219 -0.019213021 -1.5234714 4288085770
7.154911 0.016522408 -1.5806905 4288085770
9.4308376 -0.0095623732 -1.5148096 4288085770
7.4010258 0.024293184 -1.573266 4288085770
9.8409481 5.9604645e-05 -1.503103 4288085770
7.665144 0.032050252 -1.5668114 4288085770
10.295061 0.0096472502 -1.4933221 4288085770
7.9302502 0.037797093 -1.5553603 4288085770
10.788176 0.018197656 -1.4814777 4288085770
8.2343636 0.044516087 -1.5468409 4288085770
11.330278 0.027702093 -1.4675493 4288085770
8.5504742 0.051221013 -1.5363023 4288085770
11.935385 0.035154104 -1.4545183 4288085770
8.8995857 0.057899356 -1.5267082 4288085770
12.59149 0.043556631 -1.4384004 4288085770
9.3017063 0.063541532 -1.5220263 4288085770
13.329592 0.051886678 -1.4211447 4288085770
9.6908092 0.069178164 -1.5083687 4288085770
14.142691 0.060148418 -1.4017633 4288085770
10.136911 0.074769437 -1.4966137 4288085770
15.157785 0.068243563 -1.3860381 4288085770
10.639021 0.07931602 -1.4867679 4288085770
16.232878 0.07627207 -1.362216 4288085770
11.165121 0.082832932 -1.4718847 4288085770
17.577974 0.083077133 -1.3429388 4288085770
11.804235 0.086263537 -1.4628109 4288085770
19.113062 0.089705646 -1.3163432 4288085770
12.439329 0.088680863 -1.4447484 4288085770
13.170424 0.091019273 -1.4285251 4288085770
13.988516 0.091279268 -1.4101602 4288085770
14.947615 0.091421127 -1.3935592 4288085770
16.051702 0.089434743 -1.37472 4288085770
17.32279 0.086302638 -1.3546038 4288085770
18.837873 0.080954731 -1.3310835 4288085770
19.231447 -5.8480134 -0.44584632 4293729569
19.258745 -5.7139769 -0.49165443 4293729569
19.898367 0.18266991 -1.3201503 4288085770
18.373499 0.21241885 -1.3481075 4288085770
16.918634 0.23910502 -1.3630687 4288085770
15.804773 0.2656571 -1.3860276 4288085770
14.749903 0.28816083 -1.3999937 4288085770
13.859037 0.30958623 -1.4119607 4288085770
13.096167 0.329961 -1.4269288 4288085770
12.435305 0.35129255 -1.4428936 4288085770
19.019457 0.5529955 -1.2934703 4288085770
11.801435 0.36959726 -1.4528643 4288085770
17.686586 0.56965417 -1.3204474 4288085770
11.252569 0.38887113 -1.4658321 4288085770
16.508718 0.58523595 -1.3444253 4288085770
10.754702 0.40611702 -1.4768039 4288085770
15.418852 0.59875923 -1.3604063 4288085770
10.28483 0.42334557 -1.485775 4288085770
14.493979 0.61220598 -1.375387 4288085770
9.872961 0.44055045 -1.4957459 4288085770
13.69911 0.62659931 -1.3923647 4288085770
9.477087 0.45674121 -1.5027177 4288085770
13.020231 0.64194024 -1.4093393 4288085770
9.1172161 0.47392023 -1.5116879 4288085770
12.36936 0.65625918 -1.4223162 4288085770
8.792347 0.49008113 -1.51966 4288085770
11.803492 0.67154223 -1.4362907 4288085770
8.4824772 0.50623286 -1.5266318 4288085770
11.274626 0.68580157 -1.4472671 4288085770
8.1896095 0.52137226 -1.5316055 4288085770
10.802752 0.70003533 -1.4582433 4288085770
7.9167366 0.53650492 -1.5375793 4288085770
10.36088 0.71425319 -1.4682192 4288085770
7.6798668 0.55262607 -1.5455506 4288085770
9.9810085 0.72944564 -1.4791931 4288085770
7.4429989 0.56774026 -1.5505239 4288085770
9.5881405 0.74162966 -1.4841728 4288085770
7.2161274 0.58184522 -1.5534993 4288085770
9.2442684 0.7557987 -1.4921483 4288085770
7.0142593 0.59794813 -1.5604702 4288085770
8.9433994 0.77095312 -1.5021218 4288085770
6.8203869 0.61304289 -1.5654434 4288085770
8.6415291 0.78509629 -1.5070969 4288085770
6.6525192 0.62913293 -1.5734143 4288085770
8.3606567 0.79823238 -1.5130744 4288085770
6.4606476 0.64321506 -1.5733892 4288085770
8.0827885 0.81135774 -1.5150514 4288085770
6.2987804 0.65829533 -1.5783621 4288085770
7.841917 0.82447582 -1.5210289 4288085770
6.130909 0.67136902 -1.5793393 4288085770
7.6070442 0.83758426 -1.524006 4288085770
5.981039 0.68643689 -1.5813119 4288085770
7.3941746 0.85168505 -1.5279809 4288085770
5.8411617 0.70050502 -1.5852866 4288085770
7.1883011 0.86578047 -1.5309554 4288085770
5.6952915 0.71456873 -1.5862612 4288085770
7.0044289 0.88087279 -1.5369284 4288085770
5.5774231 0.72962677 -1.5902342 4288085770
6.8225574 0.89395738 -1.5399057 4288085770
5.4595528 0.74568719 -1.5952047 4288085770
6.6696892 0.91103804 -1.5468745 4288085770
5.3306828 0.75873852 -1.5941817 4288085770
6.5118179 0.9251141 -1.5508497 4288085770
5.2228127 0.77478981 -1.5971522 4288085770
6.3599491 0.94018519 -1.5538226 4288085770
5.1349449 0.79184359 -1.6051211 4288085770
6.2180786 0.95525396 -1.5577956 4288085770
5.0070705 0.80388534 -1.6000996 4288085770
6.0762081 0.9703182 -1.5597684 4288085770
5.9453392 0.98437738 -1.5617437 4288085770
5.8194695 0.99943435 -1.5637165 4288085770
5.6945992 1.0134864 -1.5636919 4288085770
5.5967274 1.03054 -1.5696611 4288085770
5.4888592 1.0465888 -1.5716321 4288085770
5.3799915 1.0606337 -1.5716074 4288085770
5.2841187 1.0766772 -1.5735785 4288085770
5.1952515 1.0937198 -1.5765477 4288085770
5.1013756 1.108758 -1.5765208 4288085770
5.0175076 1.1257983 -1.5794899 4288085770
5.0904789 3.5563576 -1.5013386 4288085770
5.198637 3.6312966 -1.4962158 4288085770
5.3417988 3.7262368 -1.4990571 4288085770
5.442955 3.7931662 -1.487951 4288085770
5.5961208 3.8921001 -1.489787 4288085770
5.71628 3.968024 -1.4796662 4288085770
5.867445 4.0629478 -1.4765115 4288085770
6.020607 4.1558681 -1.4713619 4288085770
6.1967773 4.262784 -1.4691879 4288085770
6.3719501 4.3666935 -1.4640206 4288085770
5.1026764 3.6193388 -1.5113729 4288085770
6.544117 4.466599 -1.455862 4288085770
5.2328358 3.6912706 -1.5072621 4288085770
6.7352886 4.5754981 -1.4486886 4288085770
5.3309803 3.7411954 -1.4931922 4288085770
6.935463 4.6873951 -1.4425113 4288085770
5.4991436 3.833123 -1.4950477 4288085770
7.1506386 4.806282 -1.4343231 4288085770
5.6453037 3.9100454 -1.4899311 4288085770
7.3958225 4.9421639 -1.4301059 4288085770
5.7974606 3.9869659 -1.484816 4288085770
7.6250019 5.0650406 -1.4199136 4288085770
5.9556198 4.0668836 -1.4796966 4288085770
7.8871861 5.2039089 -1.4126951 4288085770
6.1177788 4.1457949 -1.4725803 4288085770
8.1503696 5.3407712 -1.402482 4288085770
6.3019409 4.2357039 -1.4684459 4288085770
8.4605656 5.5036235 -1.3972248 4288085770
6.486105 4.3236079 -1.4623164 4288085770
8.7907639 5.6734643 -1.390958 4288085770
6.6862698 4.41851 -1.458176 4288085770
9.1469688 5.8562937 -1.3846704 4288085770
6.8814316 4.5064054 -1.4500496 4288085770
9.6031933 6.0930986 -1.3872917 4288085770
7.102602 4.6072955 -1.4449022 4288085770
10.084429 6.3398905 -1.3888985 4288085770
7.3297672 4.70818 -1.4377565 4288085770
10.564653 6.5806727 -1.3855195 4288085770
7.5779419 4.8190603 -1.4335953 4288085770
10.993868 6.7844548 -1.3712087 4288085770
7.8081074 4.914937 -1.4234618 4288085770
11.449087 6.9982247 -1.3558838 4288085770
8.0622787 5.0218096 -1.4163114 4288085770
11.945311 7.2279763 -1.3405355 4288085770
8.3364525 5.1366735 -1.4091493 4288085770
12.484549 7.4767075 -1.3241584 4288085770
8.6186275 5.2505298 -1.3999914 4288085770
13.085791 7.7534122 -1.3077377 4288085770
8.9328079 5.3783784 -1.3938121 4288085770
9.2629871 5.5102181 -1.3866286 4288085770
9.5741673 5.628056 -1.3744709 4288085770
9.9483585 5.7748814 -1.3692676 4288085770
10.362547 5.9386907 -1.3650385 4288085770
10.84276 6.1304817 -1.3657665 4288085770
11.328966 6.3192635 -1.3635037 4288085770
11.87118 6.5310273 -1.3642066 4288085770
12.362383 6.7077942 -1.3549718 4288085770
12.829573 6.8635616 -1.3407763 4288085770
13.296762 7.0143228 -1.3235911 4288085770
13.820967 7.1860666 -1.3093772 4288085770
14.380167 7.3657923 -1.2941555 4288085770
15.019384 7.575489 -1.2818909 4288085770
15.640596 7.7681861 -1.2656586 4288085770
16.236799 7.9388852 -1.2444669 4288085770
19.968241 -1.1776893 -1.3642719 4288085770
19.327326 -1.2623792 -1.3862813 4288085770
18.680407 -1.3380723 -1.4052719 4288085770
18.128496 -1.4127986 -1.4282827 4288085770
17.482592 -1.4724991 -1.4432424 4288085770
16.902681 -1.5292263 -1.4592121 4288085770
16.322786 -1.578959 -1.4721682 4288085770
15.781881 -1.6247067 -1.4861257 4288085770
15.347982 -1.6744878 -1.5071161 4288085770
14.911081 -1.7192717 -1.5260957 4288085770
14.427191 -1.7510476 -1.5380403 4288085770
13.928297 -1.775826 -1.5449678 4288085770
13.505407 -1.8036261 -1.5579187 4288085770
13.025526 -1.818418 -1.5618317 4288085770
19.880194 -2.8125434 -1.4473047 4288085770
12.614637 -1.8352325 -1.5697652 4288085770
18.99832 -2.7981341 -1.4680667 4288085770
12.22875 -1.8530538 -1.5797052 4288085770
18.221434 -2.7897644 -1.4918641 4288085770
11.844866 -1.8648818 -1.5866354 4288085770
17.423563 -2.7673998 -1.5076313 4288085770
11.452982 -1.8707113 -1.5905524 4288085770
16.6057 -2.7330375 -1.5173715 4288085770
11.106104 -1.8795533 -1.5984857 4288085770
15.869833 -2.7037077 -1.5281402 4288085770
10.804216 -1.8924081 -1.6104368 4288085770
15.166971 -2.6703959 -1.5369097 4288085770
10.503332 -1.9012663 -1.6203808 4288085770
14.551096 -2.6441164 -1.5487128 4288085770
10.206453 -1.9071286 -1.6293201 4288085770
13.950235 -2.6138492 -1.5575123 4288085770
9.9395733 -1.9139993 -1.6402683 4288085770
13.402372 -2.5866017 -1.5673298 4288085770
9.6576939 -1.9158697 -1.6482037 4288085770
12.882502 -2.5573688 -1.5761505 4288085770
9.3898182 -1.9177477 -1.6551423 4288085770
12.369638 -2.5251431 -1.5819674 4288085770
9.1359367 -1.9176283 -1.6640809 4288085770
11.91477 -2.4979384 -1.5908073 4288085770
8.8880577 -1.9165149 -1.6710187 4288085770
11.479906 -2.468745 -1.5976487 4288085770
8.6321831 -1.9094033 -1.6749439 4288085770
11.079039 -2.4425628 -1.6065036 4288085770
8.3693104 -1.8992956 -1.6748619 4288085770
10.710165 -2.4183929 -1.6163698 4288085770
8.1344376 -1.8911927 -1.6787901 4288085770
10.376299 -2.3982344 -1.6282519 4288085770
7.9085636 -1.8830941 -1.6827205 4288085770
10.037432 -2.3720806 -1.6361221 4288085770
7.6946869 -1.8739984 -1.6876521 4288085770
9.7045612 -2.3449326 -1.6419915 4288085770
7.4848137 -1.8629098 -1.6895812 4288085770
9.3696957 -2.3117909 -1.6438501 4288085770
7.2789421 -1.8518214 -1.692511 4288085770
9.0828323 -2.2876611 -1.6507363 4288085770
7.0900688 -1.8417385 -1.6964468 4288085770
8.799963 -2.261533 -1.6576202 4288085770
6.8981972 -1.828656 -1.6993767 4288085770
8.5360947 -2.2364149 -1.6635102 4288085770
6.728323 -1.8195798 -1.7043188 4288085770
8.2812271 -2.2103007 -1.669401 4288085770
6.5564518 -1.8065059 -1.7072537 4288085770
8.0263634 -2.1811898 -1.6732864 4288085770
6.3925781 -1.7944338 -1.711192 4288085770
7.7864971 -2.1540849 -1.6771792 4288085770
6.2277069 -1.7803631 -1.7141267 4288085770
7.5706387 -2.1299748 -1.68309 4288085770
6.0768433 -1.7682836 -1.7180752 4288085770
7.355772 -2.103879 -1.687991 4288085770
5.9149742 -1.7512169 -1.7190055 4288085770
7.176899 -2.0857887 -1.6989151 4288085770
5.7701035 -1.7371564 -1.7209454 4288085770
6.9650364 -2.0567012 -1.6998117 4288085770
5.6242332 -1.7200952 -1.7228798 4288085770
6.7841663 -2.0336168 -1.7067266 4288085770
5.4973602 -1.7080371 -1.7278274 4288085770
6.6023006 -2.0085366 -1.7106375 4288085770
5.3704891 -1.6939809 -1.7317719 4288085770
6.4084377 -1.9774601 -1.7095351 4288085770
5.2226219 -1.6729269 -1.7286988 4288085770
6.2255745 -1.9473865 -1.7094373 4288085770
5.1167469 -1.6628728 -1.7366554 4288085770
6.0797005 -1.9273152 -1.7173662 4288085770
5.9208355 -1.9012489 -1.7192816 4288085770
5.7789669 -1.878186 -1.7232065 4288085770
5.6211052 -1.8491235 -1.7231169 4288085770
5.4992352 -1.8300643 -1.730054 4288085770
5.3773651 -1.8090053 -1.7369875 4288085770
5.2265015 -1.777952 -1.7328962 4288085770
5.1056366 -1.7549 -1.7358267 4288085770
5.1110992 0.33242857 -1.6175065 4288085770
5.2512283 0.34336531 -1.6165586 4288085770
5.3853588 0.35329926 -1.6116097 4288085770
5.5384865 0.36422929 -1.6096677 4288085770
5.6856155 0.37415797 -1.6047248 4288085770
5.8507462 0.3850818 -1.6017886 4288085770
6.018877 0.3950018 -1.5968552 4288085770
5.0669117 0.36543459 -1.627499 4288085770
6.2000046 0.40491784 -1.5929278 4288085770
5.1890411 0.37237093 -1.6205496 4288085770
6.4011345 0.41482687 -1.5900091 4288085770
5.3301697 0.37930343 -1.6166084 4288085770
6.5862637 0.42473605 -1.5820841 4288085770
5.4852982 0.38623273 -1.6146735 4288085770
6.8083935 0.43463635 -1.579175 4288085770
5.6344223 0.39216062 -1.6097378 4288085770
7.022522 0.44353512 -1.5722642 4288085770
5.806551 0.39908439 -1.6088107 4288085770
7.2636528 0.45342523 -1.5673643 4288085770
5.9596786 0.40400559 -1.5998785 4288085770
7.484787 0.46131337 -1.5544587 4288085770
6.1488056 0.40992084 -1.5979607 4288085770
7.7529144 0.47019118 -1.5485725 4288085770
6.3519344 0.41683173 -1.5970479 4288085770
8.0150471 0.47906515 -1.5376843 4288085770
6.5300617 0.41974148 -1.5871301 4288085770
8.3191776 0.48692554 -1.5298159 4288085770
6.7511902 0.42564249 -1.5842272 4288085770
8.6523075 0.49677539 -1.5229579 4288085770
6.9663181 0.42954224 -1.5783246 4288085770
8.9924374 0.50461853 -1.5131063 4288085770
7.1864471 0.43143481 -1.5684272 4288085770
9.381567 0.51344532 -1.5062752 4288085770
7.431572 0.43532217 -1.5625386 4288085770
9.7707005 0.52026474 -1.4934474 4288085770
7.6607037 0.43620735 -1.5496472 4288085770
10.203833 0.52806836 -1.482638 4288085770
7.9578304 0.43907607 -1.5457832 4288085770
10.690966 0.53585124 -1.4728531 4288085770
8.2489567 0.43994203 -1.5379196 4288085770
11.1961 0.54262054 -1.4580781 4288085770
8.564085 0.44079691 -1.5290673 4288085770
11.791231 0.55035758 -1.4473423 4288085770
8.9162121 0.44064051 -1.5232327 4288085770
12.400362 0.55608171 -1.4306161 4288085770
9.2793407 0.43947574 -1.5144049 4288085770
13.125494 0.56276149 -1.4169408 4288085770
9.6604595 0.43730009 -1.5025864 4288085770
13.888624 0.56741995 -1.3982849 4288085770
10.114588 0.4351019 -1.496801 4288085770
14.820757 0.57401359 -1.3837034 4288085770
10.548716 0.42989942 -1.4810115 4288085770
15.804892 0.57857716 -1.362149 4288085770
11.06484 0.4246707 -1.4712592 4288085770
16.991026 0.58406007 -1.3426845 4288085770
11.626966 0.41842309 -1.4615293 4288085770
18.300161 0.58648384 -1.3162804 4288085770
12.23509 0.40915293 -1.4488244 4288085770
19.841299 0.58780956 -1.2879828 4288085770
12.897219 0.39885816 -1.4341458 4288085770
13.618341 0.38453546 -1.4164996 4288085770
14.480467 0.37016112 -1.4039176 4288085770
15.43659 0.3517442 -1.3883839 4288085770
16.510714 0.32927665 -1.3709099 4288085770
17.763834 0.3027342 -1.3525229 4288085770
19.241957 0.27009791 -1.3332465 4288085770
8.8237038 -5.1508565 -0.50749803 4293729569
8.8448238 -5.1018333 -0.5464716 4293729569
9.3770618 -5.2039366 -0.68991089 4293729569
10.778822 -5.8814049 -0.82440263 4293729569
10.158438 -5.4586577 -0.23263927 4293729569
10.183558 -5.395637 -0.27060497 4293729569
10.114256 -5.3811121 -0.84954977 4293729569
10.200689 -5.3286147 -0.30656242 4293729569
9.8724499 -5.1820016 -0.86422622 4293729569
10.277807 -5.2896171 -0.34358311 4293729569
9.6666393 -5.0049062 -0.87894499 4293729569
10.442568 -5.3161483 -0.97671962 4293729569
10.765623 -5.3952346 -1.0370016 4293729569
10.809095 -5.3097444 -0.4589597 4293729569
10.793749 -5.3272209 -1.069967 4293729569
11.44972 -5.5534186 -1.1625926 4293729569
11.328257 -5.3848939 -0.54137307 4293729569
12.210665 -5.8206501 -1.2663225 4293729569
12.629705 -5.9177685 -1.337685 4293729569
12.420305 -5.7002597 -0.65136707 4293729569
11.483137 -5.3023696 -1.2494191 4293729569
12.354467 -5.5742126 -0.67722398 4293729569
11.244345 -5.1062737 -1.2501031 4293729569
12.415594 -5.5032144 -0.70821112 4293729569
13.181002 -5.8608894 -1.4810194 4293729569
12.617701 -5.4932704 -0.74534291 4293729569
13.136164 -5.7378588 -1.5008937 4293729569
12.293921 -5.2581334 -0.75093925 4293729569
13.006342 -5.5798006 -1.5106829 4293729569
13.082903 -5.4854059 -0.81965864 4293729569
12.843534 -5.4097338 -1.5144408 4293729569
13.511965 -5.5545473 -0.86800873 4293729569
12.473772 -5.1586027 -1.4919938 4293729569
12.50392 -5.070601 -1.5129486 4293729569
12.549059 -4.988606 -1.5359188 4293729569
12.455236 -4.8515677 -1.5397513 4293729569
14.762335 -5.5949488 -1.0269102 4293729569
12.51438 -4.77458 -1.5597357 4293729569
14.823484 -5.5019603 -1.0478843 4293729569
12.772474 -4.7696557 -1.6029131 4293729569
19.669706 -7.1146975 -1.3934689 4293729569
13.091562 -4.7817521 -1.6531463 4288085770
19.418932 -6.8745975 -1.3931166 4293729569
13.264681 -4.7388043 -1.6832371 4288085770
19.279131 -6.6745391 -1.3978723 4293729569
13.234846 -4.6217937 -1.687131 4288085770
19.115339 -6.4724746 -1.3986104 4293729569
13.114038 -4.4767542 -1.6789415 4288085770
18.837568 -6.2333713 -1.3892419 4293729569
13.030218 -4.3457284 -1.6737885 4288085770
18.805754 -6.0763569 -1.3951069 4293729569
12.957399 -4.2197061 -1.6686475 4288085770
18.65196 -5.8843002 -1.3908613 4293729569
12.884577 -4.094686 -1.6615075 4288085770
18.667139 -5.7463064 -1.3957745 4293729569
12.855745 -3.9856801 -1.6594107 4288085770
18.634321 -5.5942969 -1.3956447 4293729569
12.804926 -3.869669 -1.6522936 4288085770
18.70949 -5.4733276 -1.4016136 4293729569
12.768099 -3.7576632 -1.6461898 4288085770
18.699675 -5.3263302 -1.3985045 4293729569
12.730272 -3.6476569 -1.639087 4288085770
18.764849 -5.2013602 -1.4004648 4293729569
12.729433 -3.5476661 -1.6340183 4288085770
18.904013 -5.0974178 -1.4054935 4293729569
12.751604 -3.4546814 -1.6309711 4288085770
19.23815 -5.0395484 -1.4216936 4293729569
12.738775 -3.3516874 -1.6218923 4288085770
19.702269 -5.0117269 -1.4450079 4293729569
12.753939 -3.2587028 -1.6158414 4288085770
12.802099 -3.1717303 -1.6118182 4288085770
12.821268 -3.0777493 -1.60377 4288085770
12.891428 -2.9967861 -1.5997678 4288085770
12.944593 -2.9108179 -1.5927503 4288085770
13.012751 -2.8278561 -1.5857463 4288085770
13.103914 -2.7479019 -1.5807612 4288085770
13.192076 -2.6679482 -1.5737745 4288085770
13.325232 -2.5950112 -1.5698252 4288085770
13.416395 -2.5140607 -1.5598409 4288085770
13.610544 -2.4501457 -1.5609426 4288085770
13.750704 -2.3752134 -1.5539989 4288085770
13.952852 -2.3073034 -1.5511043 4288085770
14.141008 -2.2343907 -1.5451972 4288085770
14.380163 -2.1684968 -1.5423323 4288085770
14.679308 -2.1086247 -1.5435154 4288085770
14.89147 -2.0327241 -1.5346259 4288085770
15.143633 -1.9598401 -1.5257674 4288085770
15.340799 -1.8769372 -1.5108637 4288085770
15.613958 -1.8020627 -1.5010209 4288085770
15.917124 -1.7262013 -1.4901998 4288085770
16.276281 -1.6533601 -1.4834224 4288085770
16.619455 -1.5734937 -1.4706422 4288085770
16.988623 -1.4946604 -1.4578745 4288085770
17.408789 -1.4128482 -1.4451427 4288085770
17.835962 -1.3280411 -1.4294156 4288085770
18.334127 -1.2412627 -1.4147398 4288085770
18.814299 -1.15048 -1.39605 4288085770
19.363474 -1.056726 -1.3764088 4288085770
19.933657 -0.95798355 -1.3537823 4288085770
18.98234 0.41067189 -1.3206528 4288085770
17.759462 0.46518305 -1.3393389 4288085770
16.636595 0.51465076 -1.3521321 4288085770
15.703722 0.56003964 -1.3661304 4288085770
14.841841 0.60139847 -1.3782045 4288085770
14.071974 0.63971788 -1.3863777 4288085770
13.428099 0.6779862 -1.3996867 4288085770
12.828222 0.71323556 -1.4100429 4288085770
12.305349 0.74745262 -1.4204823 4288085770
19.039759 1.1756186 -1.2697506 4288085770
11.826475 0.77965128 -1.4299688 4288085770
17.96287 1.2030694 -1.2925923 4288085770
11.374598 0.81083846 -1.438484 4288085770
16.946978 1.2244925 -1.3074993 4288085770
10.958723 0.84000993 -1.4450384 4288085770
16.0711 1.2468574 -1.3215578 4288085770
10.597849 0.87115967 -1.4556519 4288085770
15.278212 1.2691872 -1.3347057 4288085770
10.256975 0.9003002 -1.4632868 4288085770
14.536333 1.2884948 -1.3439082 4288085770
9.9171047 0.9264394 -1.4679229 4288085770
13.90645 1.3107564 -1.3552316 4288085770
9.621233 0.95356107 -1.4746065 4288085770
13.339571 1.3319916 -1.3656232 4288085770
9.350359 0.98067212 -1.4813172 4288085770
12.850691 1.3561947 -1.3780991 4288085770
9.072485 1.0057852 -1.4850198 4288085770
12.382811 1.3803886 -1.3875968 4288085770
8.8276119 1.0318851 -1.4907582 4288085770
11.967932 1.4035606 -1.3981526 4288085770
8.5767422 1.0549866 -1.4924899 4288085770
11.550058 1.4247327 -1.4047041 4288085770
8.3778687 1.0820677 -1.4992781 4288085770
11.192175 1.4478804 -1.4133209 4288085770
8.1839943 1.1081464 -1.5050714 4288085770
10.858301 1.4700174 -1.419964 4288085770
7.9691257 1.1292324 -1.5048423 4288085770
10.531427 1.4921516 -1.4256138 4288085770
7.8072529 1.1562984 -1.5126703 4288085770
10.222555 1.5122778 -1.4302835 4288085770
7.6133842 1.1773751 -1.5114635 4288085770
9.9386806 1.5333934 -1.4339801 4288085770
7.4555149 1.2024386 -1.5152957 4288085770
9.6938076 1.5574937 -1.4407189 4288085770
7.3146343 1.2274952 -1.5211459 4288085770
9.4419308 1.5785959 -1.4444492 4288085770
7.1677666 1.2515533 -1.5229901 4288085770
9.2240562 1.6026845 -1.4502171 4288085770
7.0318928 1.2756073 -1.5268462 4288085770
9.014185 1.6257694 -1.4539938 4288085770
6.8900242 1.2976629 -1.5266956 4288085770
8.807312 1.6468527 -1.4567736 4288085770
6.761158 1.320713 -1.5275593 4288085770
8.6304398 1.672924 -1.4615856 4288085770
6.6572838 1.3477545 -1.5334498 4288085770
8.4515667 1.6959958 -1.4643958 4288085770
6.5364151 1.3698013 -1.533322 4288085770
8.2786961 1.719065 -1.4672122 4288085770
6.4425449 1.3968379 -1.5382235 4288085770
8.1178265 1.7421291 -1.4690417 4288085770
6.3396759 1.4198775 -1.5391154 4288085770
7.9909554 1.7711797 -1.4749081 4288085770
6.2358055 1.4429173 -1.5400062 4288085770
7.854084 1.7962341 -1.4787636 4288085770
6.1359386 1.4659555 -1.539901 4288085770
7.711216 1.8192902 -1.4786125 4288085770
6.0430698 1.4899907 -1.5398036 4288085770
7.5913448 1.8463376 -1.4824866 4288085770
5.9661999 1.5160198 -1.5427235 4288085770
7.4774761 1.8743823 -1.4853668 4288085770
5.8893299 1.5420489 -1.5446436 4288085770
7.3336105 1.8934379 -1.4812148 4288085770
5.7924671 1.5620847 -1.5405419 4288085770
7.2247429 1.9194801 -1.4831007 4288085770
5.738596 1.5921049 -1.546487 4288085770
7.126873 1.9465177 -1.4849988 4288085770
5.661726 1.6161333 -1.5454067 4288085770
7.0200043 1.9705589 -1.4838866 4288085770
5.5878601 1.6391602 -1.5433302 4288085770
6.9391365 2.0005896 -1.4868032 4288085770
5.5289917 1.6661816 -1.5452698 4288085770
6.8502712 2.0276232 -1.4867108 4288085770
5.4681263 1.6922033 -1.5452074 4288085770
6.7664051 2.055655 -1.486624 4288085770
5.4252567 1.7222188 -1.5491647 4288085770
6.682539 2.0816863 -1.4855374 4288085770
5.354393 1.7442436 -1.5440915 4288085770
6.610672 2.1117129 -1.4864638 4288085770
5.3025265 1.7712617 -1.544039 4288085770
6.5288086 2.1387432 -1.4843792 4288085770
5.2546597 1.8002784 -1.5449905 4288085770
6.4679413 2.1697652 -1.4853176 4288085770
5.2077942 1.8282945 -1.5449435 4288085770
6.4040813 2.1997883 -1.4842528 4288085770
5.186924 1.864301 -1.5509247 4288085770
6.3522148 2.2338068 -1.485201 4288085770
5.1290627 1.8863204 -1.5448662 4288085770
6.2853508 2.2618308 -1.482133 4288085770
5.0951977 1.9173312 -1.5458336 4288085770
6.2374897 2.2948472 -1.4820859 4288085770
5.0603333 1.9483423 -1.5457997 4288085770
6.1876259 2.3268647 -1.4810368 4288085770
5.0174694 1.9753561 -1.5427573 4288085770
6.1637611 2.367872 -1.4850157 4288085770
6.1278973 2.4048839 -1.484982 4288085770
6.0740395 2.433902 -1.4799287 4288085770
6.0521698 2.4749081 -1.4819096 4288085770
6.0143108 2.5089202 -1.4788741 4288085770
5.9864502 2.5469284 -1.4778494 4288085770
5.9685898 2.5889325 -1.4778357 4288085770
5.9557304 2.6329348 -1.4778277 4288085770
5.9398708 2.6759379 -1.4768163 4288085770
5.9220123 2.717942 -1.474803 4288085770
5.9281559 2.7699366 -1.4768159 4288085770
5.916296 2.8129382 -1.4748096 4288085770
5.9234409 2.8649323 -1.4748243 4288085770
5.9305859 2.9179263 -1.4748389 4288085770
5.9307289 2.9659224 -1.4728465 4288085770
5.9578743 3.028909 -1.4758834 4288085770
5.9620228 3.0799036 -1.4718953 4288085770
5.9771709 3.1358938 -1.4699198 4288085770
6.0063171 3.1978791 -1.47096 4288085770
6.0724602 3.2808502 -1.4780405 4288085770
6.0866108 3.3368406 -1.4730645 4288085770
6.1367626 3.4118171 -1.4751287 4288085770
6.178915 3.4827964 -1.4741843 4288085770
6.2130699 3.5497792 -1.4702312 4288085770
6.250227 3.6187601 -1.4662818 4288085770
6.3103828 3.6997321 -1.4653583 4288085770
6.3685417 3.7807047 -1.462433 4288085770
5.0172806 3.1152625 -1.5019258 4288085770
6.4386997 3.866673 -1.4615216 4288085770
5.0784302 3.1892345 -1.5050026 4288085770
6.5108624 3.9566402 -1.4596125 4288085770
5.1185837 3.2512143 -1.5010566 4288085770
6.5650253 4.0356145 -1.4516842 4288085770
5.1747341 3.3221881 -1.5011286 4288085770
6.647192 4.1305766 -1.4487873 4288085770
5.2668858 3.4151487 -1.5092411 4288085770
6.7453575 4.2345338 -1.4479092 4288085770
5.2840443 3.4631364 -1.4952704 4288085770
6.8415279 4.3394909 -1.4440291 4288085770
5.3751965 3.5550966 -1.5003828 4288085770
6.9466991 4.4484448 -1.4411597 4288085770
5.4433575 3.6330652 -1.49747 4288085770
7.0688725 4.5683913 -1.43831 4288085770
5.5305176 3.723026 -1.4985793 4288085770
7.1970539 4.6933355 -1.4354682 4288085770
5.599678 3.8019941 -1.4926685 4288085770
7.3262329 4.8182783 -1.4306279 4288085770
5.6568413 3.8719666 -1.4827448 4288085770
7.4674149 4.9512177 -1.4258018 4288085770
5.7830048 3.9859121 -1.4878993 4288085770
7.6146011 5.0881538 -1.4199834 4288085770
5.8831692 4.0828681 -1.4850253 4288085770
7.7777901 5.2340837 -1.4141841 4288085770
5.9523373 4.1598358 -1.4741169 4288085770
7.9469833 5.3860102 -1.4063922 4288085770
6.0925083 4.2827754 -1.4772892 4288085770
8.1421833 5.5539274 -1.400631 4288085770
6.2116795 4.3917227 -1.4724387 4288085770
8.3613815 5.736834 -1.3978981 4288085770
6.3378525 4.5046673 -1.4685968 4288085770
8.6545963 5.9687123 -1.4022508 4288085770
6.4650288 4.6166124 -1.4627569 4288085770
8.9958172 6.2335711 -1.4086598 4288085770
6.5932064 4.7295556 -1.4549191 4288085770
9.3350468 6.4984298 -1.410068 4288085770
6.7473888 4.8594894 -1.4491118 4288085770
9.6412754 6.7413015 -1.4044403 4288085770
6.9085732 4.9934196 -1.4433131 4288085770
9.9175091 6.9621849 -1.38878 4288085770
7.0787621 5.1313462 -1.4365261 4288085770
10.199743 7.1870646 -1.3701282 4288085770
7.2559509 5.2742705 -1.427748 4288085770
10.537996 7.4499221 -1.3545424 4288085770
7.4691467 5.4411798 -1.4230125 4288085770
10.975264 7.7787414 -1.3460728 4288085770
7.6983452 5.6170835 -1.4192963 4288085770
7.9775543 5.8269668 -1.4196396 4288085770
8.2967701 6.0628343 -1.4220309 4288085770
8.6549911 6.3246861 -1.4284695 4288085770
8.9862156 6.565547 -1.4238786 4288085770
9.3244457 6.8084059 -1.4162978 4288085770
