# .PCD v0.7 - Point Cloud Data file format
VERSION 0.7
FIELDS x y z rgb
SIZE 4 4 4 4
TYPE F F F U
COUNT 1 1 1 1
WIDTH 1120
HEIGHT 1
VIEWPOINT 0 0 0 1 0 0 0
POINTS 1120
DATA ascii
8.7345276 1.1591156 -1.7422643 4288085770
12.351913 1.5072463 -1.6997364 4288085770
9.0706177 1.1586704 -1.7365692 4288085770
13.031036 1.5293083 -1.6964235 4288085770
9.4927673 1.1640518 -1.7414694 4288085770
13.766159 1.5502992 -1.6918235 4288085770
9.8838654 1.1625259 -1.7364919 4288085770
14.591309 1.5741556 -1.6887836 4288085770
10.293945 1.1589797 -1.7304089 4288085770
15.551483 1.6028011 -1.6900873 4288085770
10.73703 1.1553779 -1.7261596 4288085770
16.537598 1.6254523 -1.6832311 4288085770
11.244125 1.1516783 -1.723587 4288085770
17.556671 1.6420982 -1.668179 4288085770
11.753204 1.1449912 -1.7179906 4288085770
18.66774 1.6576281 -1.6506588 4288085770
12.312302 1.13623 -1.7131314 4288085770
12.947403 1.1283457 -1.7118943 4288085770
13.620483 1.1154187 -1.7084413 4288085770
14.373596 1.1023772 -1.705584 4288085770
15.331757 1.0939732 -1.7177174 4288085770
16.264862 1.0756648 -1.7179284 4288085770
17.119858 1.0435498 -1.7014649 4288085770
18.086868 1.0082667 -1.6874223 4288085770
10.048691 -7.6649113 -1.552433 4293729569
9.6412506 -7.3563862 -1.5579741 4293729569
9.3317413 -7.1150341 -1.5717008 4293729569
9.0362244 -6.8816948 -1.5843179 4293729569
8.7356873 -6.6433258 -1.5919838 4293729569
8.4461212 -6.4129515 -1.5955551 4293729569
8.210556 -6.2176828 -1.6056874 4293729569
7.977951 -6.0244031 -1.6127944 4293729569
7.7663422 -5.8451519 -1.6197283 4293729569
7.5657043 -5.6719141 -1.6265781 4293729569
10.798752 -7.679863 -1.5417936 4293729569
7.4160919 -5.5337782 -1.6400037 4293729569
10.418289 -7.3733702 -1.546186 4293729569
7.3054352 -5.419713 -1.657119 4293729569
10.123779 -7.1240244 -1.5568736 4293729569
7.1637726 -5.2845678 -1.6664894 4293729569
9.8522644 -6.8897085 -1.5673733 4293729569
7.0070953 -5.1393785 -1.6709831 4293729569
9.5986938 -6.6684065 -1.5757201 4293729569
6.8383942 -4.9861498 -1.6705744 4293729569
9.3921356 -6.4771948 -1.5896873 4293729569
6.73172 -4.8730512 -1.6796629 4293729569
9.1915436 -6.2909727 -1.5995998 4293729569
6.6230164 -4.7589397 -1.6867664 4293729569
8.976944 -6.0957069 -1.6046245 4293729569
6.501297 -4.6357927 -1.6899779 4293729569
8.7723083 -5.9074507 -1.6085656 4293729569
6.4055939 -4.5296926 -1.6959772 4293729569
8.593689 -5.7372379 -1.6142895 4293729569
6.2958679 -4.4135523 -1.6970942 4293729569
8.4270325 -5.5740309 -1.6179197 4293729569
6.2121277 -4.315464 -1.7019949 4293729569
8.2523651 -5.4077997 -1.6186035 4293729569
6.1433868 -4.2254047 -1.708782 4293729569
8.143692 -5.2816973 -1.6277659 4293729569
6.0646362 -4.1293192 -1.7126477 4293729569
8.0520172 -5.1646233 -1.6377997 4293729569
6.0219116 -4.0553036 -1.7212279 4293729569
7.9453278 -5.0405092 -1.6439419 4293729569
6.1002197 -4.0505977 -1.7598739 4293729569
7.8586121 -4.9274321 -1.6519308 4293729569
6.2015381 -4.0579405 -1.8023479 4288085770
7.7769165 -4.8183508 -1.6578758 4293729569
6.2818604 -4.0502262 -1.8389986 4288085770
7.706192 -4.7152891 -1.664737 4293729569
6.2581024 -3.9832463 -1.8494508 4288085770
7.6634674 -4.6282835 -1.6753814 4293729569
6.1863251 -3.8891349 -1.846271 4288085770
7.5997467 -4.530221 -1.6801829 4293729569
6.1175385 -3.7960281 -1.8430715 4288085770
7.5500031 -4.4381876 -1.6868861 4293729569
6.0687714 -3.7149615 -1.8427148 4288085770
7.5012665 -4.3471446 -1.6915789 4293729569
6.0460052 -3.647953 -1.8471608 4288085770
7.4615173 -4.2621193 -1.6971982 4293729569
6.0041962 -3.5708957 -1.8467495 4288085770
7.4287872 -4.1801019 -1.7027676 4293729569
5.9694061 -3.4978476 -1.8462839 4288085770
7.4440155 -4.1231861 -1.7159791 4293729569
5.9185944 -3.4167545 -1.8409364 4288085770
7.5903168 -4.1295671 -1.7542374 4293729569
5.8968048 -3.3497281 -1.8413768 4288085770
7.7496338 -4.1399746 -1.7944126 4288085770
5.8679962 -3.2806828 -1.8398619 4288085770
7.8929291 -4.1393418 -1.8307207 4288085770
5.8692169 -3.2257059 -1.8441308 4288085770
7.9381714 -4.0894694 -1.8447502 4288085770
5.8314056 -3.1526248 -1.8376794 4288085770
7.9154053 -4.0094414 -1.8452606 4288085770
5.8355865 -3.0996468 -1.8409235 4288085770
7.9006195 -3.9334233 -1.8457122 4288085770
5.8347778 -3.0436525 -1.8422067 4288085770
7.8808289 -3.8543892 -1.8442028 4288085770
5.8199768 -2.981616 -1.838588 4288085770
7.8780365 -3.7833867 -1.8445704 4288085770
5.8221588 -2.926621 -1.8388512 4288085770
7.883255 -3.7143998 -1.8458886 4288085770
5.8343353 -2.8766437 -1.8400412 4288085770
7.8844452 -3.6453929 -1.8442268 4288085770
5.8435211 -2.8246579 -1.840255 4288085770
7.8896484 -3.5783961 -1.8435354 4288085770
5.8697357 -2.7807128 -1.8443465 4288085770
7.8948364 -3.5103898 -1.8408489 4288085770
5.872879 -2.7266998 -1.8406 4288085770
7.9090118 -3.4473996 -1.8390934 4288085770
5.9020844 -2.6817493 -1.8426809 4288085770
7.9322052 -3.3864212 -1.8372841 4288085770
5.929245 -2.6377912 -1.8437674 4288085770
7.9604034 -3.3274543 -1.8364398 4288085770
5.9684143 -2.5978584 -1.8467755 4288085770
8.0065765 -3.2755251 -1.8384736 4288085770
5.9945831 -2.5518897 -1.8458765 4288085770
8.0327454 -3.2155409 -1.8346441 4288085770
6.017746 -2.5049069 -1.8429971 4288085770
8.0799255 -3.1625981 -1.8336778 4288085770
6.0559387 -2.4619584 -1.843024 4288085770
8.1521301 -3.1177075 -1.8365488 4288085770
6.115097 -2.4270566 -1.846909 4288085770
8.2103119 -3.068779 -1.8355088 4288085770
6.1522522 -2.3840964 -1.8449416 4288085770
8.2604675 -3.0148256 -1.8315322 4288085770
6.1964417 -2.3431509 -1.8439295 4288085770
8.353653 -2.9759667 -1.8352714 4288085770
6.2666168 -2.3102627 -1.8477507 4288085770
8.415802 -2.9250288 -1.8312213 4288085770
6.327774 -2.2733486 -1.8486359 4288085770
8.4919739 -2.8791234 -1.8300779 4288085770
6.3959503 -2.2394478 -1.850472 4288085770
8.5751495 -2.8342175 -1.8268955 4288085770
6.4611053 -2.202539 -1.8513374 4288085770
8.6693268 -2.7913353 -1.8256493 4288085770
6.5322723 -2.1666324 -1.8511684 4288085770
8.7714844 -2.7504637 -1.8243542 4288085770
6.6274567 -2.1377811 -1.8558476 4288085770
8.8486176 -2.7005305 -1.8172257 4288085770
6.7056274 -2.1018836 -1.8556442 4288085770
8.9297485 -2.6505976 -1.8090773 4288085770
6.7877655 -2.0679915 -1.8554118 4288085770
9.0329132 -2.6077075 -1.803787 4288085770
6.871933 -2.033097 -1.8541739 4288085770
9.1730652 -2.5728939 -1.8042762 4288085770
6.9360504 -1.9921477 -1.847064 4288085770
9.3342285 -2.5421121 -1.8056428 4288085770
7.0362244 -1.9602833 -1.8477333 4288085770
9.5324249 -2.5174022 -1.811799 4288085770
7.1373749 -1.9274105 -1.8464029 4288085770
9.686554 -2.4815919 -1.8092253 4288085770
7.2365112 -1.8935301 -1.8440874 4288085770
9.8396912 -2.4437704 -1.8046658 4288085770
7.3346558 -1.8586388 -1.8397813 4288085770
10.006836 -2.4079671 -1.8000281 4288085770
7.4307861 -1.820735 -1.8334994 4288085770
10.205994 -2.3762243 -1.7992141 4288085770
7.5579529 -1.7909002 -1.8330274 4288085770
10.390137 -2.3404329 -1.7924929 4288085770
7.6941071 -1.7610769 -1.8325107 4288085770
10.623276 -2.311738 -1.7924981 4288085770
7.8182373 -1.7272235 -1.8290727 4288085770
10.856415 -2.2810285 -1.7895131 4288085770
7.9503784 -1.6933707 -1.8235955 4288085770
11.073563 -2.2462792 -1.7826262 4288085770
8.0995178 -1.6625589 -1.8220203 4288085770
11.316696 -2.2135682 -1.776602 4288085770
8.2356415 -1.6277015 -1.8145287 4288085770
11.687866 -2.2010984 -1.7858539 4288085770
8.3807831 -1.5928652 -1.8089926 4288085770
12.016006 -2.1765246 -1.7853749 4288085770
8.5519104 -1.5610669 -1.8043151 4288085770
12.410172 -2.1610646 -1.7905288 4288085770
8.759079 -1.5343436 -1.8054366 4288085770
12.7323 -2.1284442 -1.782119 4288085770
8.9842377 -1.508648 -1.8074651 4288085770
13.11142 -2.1019161 -1.7774005 4288085770
9.2233734 -1.4819657 -1.8084304 4288085770
13.56958 -2.0835228 -1.7792568 4288085770
9.4995575 -1.4593544 -1.8141952 4288085770
14.054718 -2.0641544 -1.7789865 4288085770
9.7777252 -1.4337312 -1.8169649 4282675967
14.558853 -2.0417953 -1.7756374 4288085770
10.086899 -1.409157 -1.8215783 4282675967
15.095978 -2.0194736 -1.7711277 4288085770
10.370041 -1.3795111 -1.8183436 4282675967
15.636093 -1.9921361 -1.7626281 4288085770
10.653183 -1.3458551 -1.8131282 4282675967
16.186203 -1.9587822 -1.7481089 4288085770
10.950287 -1.3122076 -1.805845 4282675967
16.828293 -1.9335699 -1.7381015 4288085770
11.261414 -1.2775725 -1.797498 4288085770
17.61142 -1.9155617 -1.7323701 4288085770
11.578537 -1.2389311 -1.7861414 4288085770
18.531555 -1.9027572 -1.7319446 4282675967
11.95166 -1.2043846 -1.7794914 4288085770
12.381805 -1.1729252 -1.7755487 4288085770
12.858948 -1.1405308 -1.7723808 4288085770
13.382111 -1.1082042 -1.770988 4288085770
13.998291 -1.0790204 -1.7741265 4288085770
14.52037 -1.0346198 -1.7577982 4288085770
15.170517 -0.99743569 -1.7518103 4288085770
15.897659 -0.95734906 -1.745461 4288085770
16.639786 -0.91224766 -1.7320626 4288085770
17.530914 -0.86936939 -1.7249272 4288085770
18.448044 -0.81948543 -1.7096989 4288085770
18.475983 1.759589 -1.6502566 4288085770
17.858185 1.8303087 -1.6544981 4288085770
17.333405 1.9019053 -1.6613061 4288085770
16.793594 1.9655511 -1.6611469 4288085770
16.330795 2.0320833 -1.6656384 4288085770
15.889984 2.0936038 -1.6670032 4288085770
15.464157 2.1541064 -1.668292 4288085770
15.068344 2.2155778 -1.6684439 4288085770
14.749557 2.2799361 -1.6732471 4288085770
14.409729 2.338342 -1.6731212 4288085770
14.101913 2.3977106 -1.6728485 4288085770
13.85112 2.4619877 -1.6773305 4288085770
13.619324 2.5252445 -1.6817183 4288085770
13.378494 2.5865295 -1.6821394 4288085770
13.179718 2.651746 -1.6863809 4288085770
12.975906 2.7139833 -1.6876318 4288085770
12.781082 2.7772138 -1.687845 4288085770
12.593262 2.8374403 -1.687011 4288085770
12.458466 2.9075773 -1.6919742 4288085770
12.313675 2.9727442 -1.6929607 4288085770
12.167847 3.0389221 -1.6919565 4288085770
12.030029 3.1040862 -1.69191 4288085770
11.926239 3.1752007 -1.6937313 4288085770
11.817444 3.2453301 -1.6935713 4288085770
11.733643 3.3194211 -1.695312 4288085770
11.622818 3.3845665 -1.6921382 4288085770
18.943939 5.3161793 -1.6347897 4288085770
11.546005 3.4586585 -1.6918459 4288085770
18.780167 5.4203806 -1.634047 4288085770
11.482208 3.536731 -1.6925111 4288085770
18.748474 5.5573854 -1.6418378 4288085770
11.42041 3.6128104 -1.6911573 4288085770
18.612701 5.6675615 -1.6389909 4288085770
11.381622 3.6968491 -1.6927326 4288085770
18.53894 5.7926474 -1.6399229 4288085770
11.342834 3.7789009 -1.6912985 4288085770
18.50621 5.927681 -1.6417084 4288085770
11.339066 3.8708899 -1.6947465 4288085770
18.489487 6.0687008 -1.6424465 4288085770
11.334274 3.9638884 -1.6962037 4288085770
18.522812 6.2266483 -1.6460288 4288085770
11.34552 4.0628643 -1.6986134 4288085770
18.618164 6.4055147 -1.6514173 4288085770
11.361771 4.1638336 -1.7010088 4288085770
18.590408 6.5455742 -1.6462018 4288085770
11.364975 4.2598372 -1.6994419 4288085770
18.644714 6.7145185 -1.6447358 4288085770
11.435257 4.3797264 -1.705672 4288085770
18.687988 6.8794918 -1.6403029 4288085770
11.504547 4.5016203 -1.7109156 4288085770
18.811325 7.0733528 -1.6396294 4288085770
11.524765 4.6066084 -1.7083104 4288085770
18.943665 7.2742071 -1.6379454 4288085770
11.592026 4.7275238 -1.7095587 4288085770
11.658279 4.8504457 -1.7098215 4288085770
11.723526 4.9733763 -1.7080884 4288085770
11.775757 5.0933409 -1.7024024 4288085770
11.897049 5.2411842 -1.7055225 4288085770
11.950256 5.363163 -1.696841 4288085770
12.059525 5.5080433 -1.6950035 4288085770
12.229858 5.6828299 -1.6980188 4288085770
12.362137 5.8416939 -1.6941383 4288085770
12.548477 6.0264711 -1.6951244 4288085770
12.760818 6.2252178 -1.696054 4288085770
13.010223 6.4449091 -1.6999073 4288085770
13.270584 6.6715956 -1.7017417 4288085770
13.514938 6.8963261 -1.6986415 4288085770
13.752304 7.1190767 -1.692565 4288085770
14.085724 7.3926888 -1.6922748 4288085770
14.455185 7.6882505 -1.693918 4288085770
14.812622 7.9818554 -1.6896079 4288085770
18.945282 -0.42280746 -1.689141 4288085770
17.725433 -0.4445349 -1.7085397 4288085770
16.56456 -0.46028733 -1.718698 4288085770
15.519714 -0.4721626 -1.7273505 4288085770
14.569824 -0.4811337 -1.733588 4288085770
13.770966 -0.48928797 -1.7431498 4288085770
12.951065 -0.49136651 -1.7408319 4288085770
12.227158 -0.49356818 -1.7420809 4288085770
18.465805 -0.75130451 -1.6979716 4288085770
11.650314 -0.49697113 -1.7516644 4288085770
17.191971 -0.73494077 -1.7097731 4288085770
11.085419 -0.49736488 -1.7562065 4288085770
16.130173 -0.7228359 -1.726603 4288085770
10.594589 -0.49886203 -1.7654102 4288085770
15.068298 -0.70366943 -1.7294612 4288085770
10.135727 -0.4983902 -1.7734792 4288085770
14.203476 -0.69076276 -1.7414083 4288085770
9.6948547 -0.49592471 -1.7784758 4288085770
13.360611 -0.67284012 -1.7442775 4288085770
9.2559662 -0.49143505 -1.7774713 4288085770
12.585724 -0.65598369 -1.7448359 4288085770
8.8780975 -0.48904347 -1.7831838 4288085770
11.918884 -0.64127195 -1.7509 4288085770
8.4912109 -0.48260629 -1.7809539 4288085770
11.306015 -0.6266104 -1.7547207 4288085770
8.1613464 -0.47826266 -1.7854588 4288085770
10.804199 -0.61410582 -1.7660339 4288085770
7.8424683 -0.4729228 -1.7879181 4288085770
10.305359 -0.60058248 -1.7723374 4288085770
7.5706177 -0.46865618 -1.7951617 4288085770
9.8594971 -0.58812165 -1.7793982 4288085770
7.3297729 -0.46443701 -1.8052661 4288085770
9.4016266 -0.57261229 -1.7785254 4288085770
7.0679016 -0.45816386 -1.8084733 4288085770
9.0087738 -0.55920088 -1.7833517 4288085770
6.8110352 -0.45088279 -1.8086619 4288085770
8.5878754 -0.54270983 -1.7773159 4288085770
6.5831604 -0.44364679 -1.8117204 4288085770
8.2840424 -0.53142238 -1.7877336 4288085770
6.3592834 -0.43540668 -1.8127646 4288085770
7.9801788 -0.51911247 -1.7931552 4288085770
6.1454163 -0.42817736 -1.8137596 4288085770
7.6652985 -0.50476885 -1.7936342 4288085770
5.9365387 -0.41894472 -1.8127406 4288085770
7.4064789 -0.49251711 -1.8008535 4288085770
5.7516632 -0.41075599 -1.8156092 4288085770
7.1466064 -0.4802469 -1.8040764 4288085770
5.5657654 -0.40155303 -1.8154867 4288085770
6.8917236 -0.46597326 -1.8052855 4288085770
5.3948975 -0.39337087 -1.8162923 4288085770
6.6538849 -0.45272243 -1.8074136 4288085770
5.2320251 -0.384202 -1.8180661 4288085770
6.4340057 -0.44049168 -1.8094568 4288085770
5.0821686 -0.37505186 -1.8207817 4288085770
6.2161255 -0.42625415 -1.8094995 4288085770
4.9363098 -0.365906 -1.8234789 4288085770
6.0202637 -0.41305375 -1.8124387 4288085770
4.7894287 -0.35674143 -1.8221805 4288085770
5.80336 -0.39879096 -1.8064764 4288085770
4.6405334 -0.34557045 -1.8198998 4288085770
5.6355133 -0.38663018 -1.8112855 4288085770
4.5226746 -0.3364687 -1.8254712 4288085770
5.4606476 -0.37244415 -1.8121345 4288085770
4.3968201 -0.32734048 -1.8270779 4288085770
5.310791 -0.36030746 -1.8178627 4288085770
4.2779388 -0.31721997 -1.8286583 4288085770
5.1539154 -0.34713697 -1.817626 4288085770
5.0060425 -0.33398449 -1.8193495 4288085770
4.8681946 -0.32084811 -1.8220277 4288085770
4.7263031 -0.30768502 -1.8197234 4288085770
4.5874329 -0.29352498 -1.8174102 4288085770
4.4645538 -0.28139591 -1.8180163 4288085770
4.3426819 -0.26726341 -1.8176267 4288085770
4.1095886 1.6557426 -1.7886877 4288085770
4.2227325 1.6816173 -1.7893152 4288085770
4.3398743 1.7064879 -1.7899215 4288085770
4.4499969 1.7283833 -1.7865446 4288085770
4.5571136 1.7482903 -1.781173 4288085770
4.6792297 1.7711689 -1.7787495 4288085770
4.7873383 1.7890885 -1.7703645 4288085770
4.921463 1.8129508 -1.7688942 4288085770
4.1384125 1.6126614 -1.7944052 4288085770
5.0575867 1.8368189 -1.7654152 4288085770
4.246521 1.6295547 -1.7920163 4288085770
5.1866913 1.8567045 -1.7599492 4288085770
4.3746796 1.6504011 -1.795558 4288085770
5.3207855 1.8765881 -1.7534618 4288085770
4.4837952 1.6642983 -1.7921515 4288085770
5.4879456 1.9044034 -1.7548668 4288085770
4.5878906 1.6752181 -1.7847543 4288085770
5.6370544 1.9262679 -1.7493238 4288085770
4.7160034 1.6930819 -1.7842836 4288085770
5.8031769 1.9501064 -1.7457163 4288085770
4.8341064 1.7049782 -1.7788308 4288085770
5.9793091 1.9759295 -1.7430747 4288085770
4.9582214 1.7178643 -1.7743564 4288085770
6.164444 2.0017393 -1.7413945 4288085770
5.0893402 1.7317383 -1.7708559 4288085770
6.3605804 2.0295384 -1.7396765 4288085770
5.2264557 1.7456067 -1.7673304 4288085770
6.5687256 2.0573204 -1.7389064 4288085770
5.3735809 1.7604606 -1.764766 4288085770
6.8108826 2.0920451 -1.7430205 4288085770
5.5196838 1.773319 -1.7611978 4288085770
7.0450287 2.1217968 -1.7431479 4288085770
5.6717987 1.7861722 -1.7576039 4288085770
7.2931824 2.1535289 -1.7442241 4288085770
5.8509369 1.8039758 -1.7589154 4288085770
7.5513306 2.1842601 -1.7432535 4288085770
6.0040283 1.8128407 -1.7523003 4288085770
7.7624054 2.2010877 -1.7314246 4288085770
6.1751404 1.8246748 -1.748621 4288085770
7.9824982 2.2179105 -1.7185581 4288085770
6.3612518 1.8384845 -1.746886 4288085770
8.2175598 2.2367098 -1.7076359 4288085770
6.5904236 1.8602154 -1.7530012 4288085770
8.4836578 2.2584679 -1.6985934 4288085770
6.7995453 1.8749926 -1.7531722 4288085770
8.7828064 2.2851751 -1.6934311 4288085770
7.0206909 1.8897579 -1.7532921 4288085770
9.0929108 2.3108757 -1.687218 4288085770
7.2398071 1.9015338 -1.7514081 4288085770
9.4640503 2.3464873 -1.6867859 4288085770
7.4438782 1.9073522 -1.7435625 4288085770
9.8932343 2.3910129 -1.6921439 4288085770
7.6779938 1.9171174 -1.7406061 4288085770
10.274368 2.4206359 -1.6866443 4288085770
7.8890686 1.9199331 -1.7317188 4288085770
10.718521 2.4581649 -1.6879096 4288085770
8.1231537 1.9247158 -1.7247417 4288085770
11.208679 2.5006411 -1.6899991 4288085770
8.3542328 1.9255106 -1.7157605 4288085770
11.742874 2.5460694 -1.6929138 4288085770
8.6073303 1.9282753 -1.7086937 4288085770
12.272018 2.5845239 -1.6908207 4288085770
8.8643951 1.9280431 -1.6995978 4288085770
12.838181 2.6249416 -1.6885784 4288085770
9.1595154 1.9327519 -1.6953604 4288085770
13.452332 2.6663048 -1.6871352 4288085770
9.4906158 1.93941 -1.6939778 4288085770
14.096466 2.7056525 -1.6825559 4288085770
9.8988037 1.9559457 -1.7023082 4288085770
14.825623 2.7518947 -1.6816435 4288085770
10.230881 1.9546249 -1.695888 4288085770
15.503723 2.7822416 -1.6688819 4288085770
10.618988 1.9582212 -1.6952496 4288085770
16.399902 2.8382919 -1.6722987 4288085770
11.018112 1.9588149 -1.6925521 4288085770
17.337097 2.892318 -1.6715329 4288085770
11.449219 1.9593718 -1.6907177 4288085770
18.217194 2.9244602 -1.657918 4288085770
11.898331 1.9579065 -1.6897988 4288085770
12.375427 1.954417 -1.6877518 4288085770
12.846512 1.9439509 -1.6817009 4288085770
13.393616 1.9373863 -1.6803429 4288085770
13.965714 1.9277914 -1.6798661 4288085770
14.580826 1.9161575 -1.6781971 4288085770
15.226913 1.9004881 -1.6773801 4288085770
15.908005 1.8797963 -1.6733918 4288085770
16.6241 1.8560603 -1.6712432 4288085770
17.364151 1.8233225 -1.6639538 4288085770
18.08017 1.7806308 -1.6517255 4288085770
18.892197 1.7378213 -1.6440885 4288085770
11.89061 -5.2222033 -0.28599858 4293729569
11.839798 -5.2952957 -0.31891608 4293729569
11.870972 -5.4024858 -0.35534334 4293729569
10.446945 -5.041337 -0.42391396 4293729569
9.8262634 -5.5204115 -0.81562066 4293729569
9.7365265 -5.5444994 -0.8569088 4293729569
9.8437653 -5.6728587 -0.91492748 4293729569
9.6870422 -5.6578636 -0.95266247 4293729569
9.6323242 -5.6970081 -0.99873948 4293729569
9.5721588 -5.8616147 -1.1533351 4293729569
12.53717 -7.6232681 -1.5384548 4293729569
11.971542 -7.3757229 -1.5448918 4293729569
11.521912 -7.1873407 -1.5615911 4293729569
11.030273 -6.9678745 -1.5685973 4293729569
10.551605 -6.7484131 -1.5735476 4293729569
10.108963 -6.5449905 -1.5792778 4293729569
9.7212677 -6.3666363 -1.5876713 4293729569
9.3985901 -6.2233763 -1.6026428 4293729569
9.0428925 -6.0530443 -1.6088662 4293729569
8.7032013 -5.8887291 -1.6149964 4293729569
8.3795013 -5.7294264 -1.620038 4293729569
11.855118 -7.8645706 -1.5334687 4293729569
8.0677643 -5.5741262 -1.6230116 4293729569
11.298553 -7.5640516 -1.5430858 4293729569
7.8040466 -5.4439034 -1.6326778 4293729569
10.773972 -7.2765493 -1.5495121 4293729569
7.5573273 -5.3196974 -1.6422465 4293729569
10.317383 -7.0261364 -1.5604968 4293729569
7.3736115 -5.2335963 -1.6613908 4293729569
9.8907623 -6.7887459 -1.5692997 4293729569
7.1698608 -5.1304455 -1.6736901 4293729569
9.5161285 -6.5794172 -1.5807652 4293729569
6.927124 -5.0002141 -1.6762662 4293729569
9.1724854 -6.3861294 -1.5940332 4293729569
6.7083893 -4.8810186 -1.6816952 4293729569
8.8568268 -6.2078691 -1.6071196 4293729569
6.4976196 -4.7648282 -1.6860774 4293729569
8.5051575 -6.0005264 -1.6094785 4293729569
6.2928467 -4.648634 -1.6884339 4293729569
8.1924744 -5.8162394 -1.615576 4293729569
6.1210938 -4.5514941 -1.6955717 4293729569
7.9027863 -5.6419706 -1.6205349 4293729569
5.9583282 -4.4583678 -1.7036545 4293729569
7.66008 -5.4957695 -1.6301782 4293729569
5.7805481 -4.3521967 -1.704855 4293729569
7.4563751 -5.3726282 -1.6445608 4293729569
5.6077728 -4.247026 -1.7050295 4293729569
7.2966766 -5.274559 -1.6656539 4293729569
5.4579926 -4.1558952 -1.7090483 4293729569
7.0789642 -5.136374 -1.6731567 4293729569
5.3302155 -4.0768032 -1.7169242 4293729569
6.8531952 -4.9911566 -1.6747229 4293729569
5.2094269 -4.0007186 -1.7247586 4293729569
6.6464844 -4.8559661 -1.6781669 4293729569
5.2037201 -3.9988818 -1.7637999 4293729569
6.4567261 -4.7297921 -1.6815014 4293729569
5.2050018 -4.0000558 -1.8037996 4288085770
6.2739716 -4.6066246 -1.6847935 4293729569
5.1822815 -3.9841807 -1.837971 4288085770
6.1232147 -4.5025101 -1.6928716 4293729569
5.0744781 -3.9091001 -1.8437462 4288085770
5.9934692 -4.4104204 -1.7018113 4293729569
4.9486542 -3.8209677 -1.8416507 4288085770
5.8367004 -4.2992744 -1.7039433 4293729569
4.8288574 -3.7348456 -1.8405213 4288085770
5.6929321 -4.1941414 -1.7059951 4293729569
4.727066 -3.6587582 -1.8432748 4288085770
5.5781403 -4.108058 -1.712846 4293729569
4.6192474 -3.5776477 -1.8420742 4288085770
5.4673767 -4.0209789 -1.7196841 4293729569
4.5154266 -3.4985371 -1.839848 4288085770
5.4786377 -4.013154 -1.7576811 4293729569
4.4176178 -3.4214368 -1.838588 4288085770
5.5099335 -4.0153661 -1.7995524 4288085770
4.3278046 -3.3493485 -1.8382735 4288085770
5.5342255 -4.0115623 -1.8394787 4288085770
4.2639923 -3.2923112 -1.8437874 4288085770
5.4274292 -3.9234657 -1.8413036 4288085770
4.2061768 -3.2382877 -1.8512635 4288085770
5.3196259 -3.8333557 -1.8401411 4288085770
4.1113434 -3.1601605 -1.8429945 4288085770
5.2168121 -3.7452545 -1.8399491 4288085770
5.1290283 -3.6661766 -1.8416562 4288085770
5.0432129 -3.5870965 -1.842355 4288085770
4.9694061 -3.5160363 -1.84497 4288085770
4.8926086 -3.4409609 -1.844614 4288085770
4.7957611 -3.3548365 -1.8373873 4288085770
4.7199402 -3.2807491 -1.8340223 4288085770
4.6641388 -3.2167065 -1.8365321 4288085770
4.603302 -3.1506424 -1.8350711 4288085770
4.5354614 -3.080559 -1.8306556 4288085770
4.4786224 -3.0154948 -1.8281734 4288085770
4.4598236 -2.9725139 -1.8364408 4288085770
4.4139862 -2.9134686 -1.8358877 4288085770
4.3731689 -2.8564281 -1.8353047 4288085770
4.3473206 -2.8084195 -1.8386221 4288085770
4.3164978 -2.7563889 -1.8379765 4288085770
4.2826538 -2.7033513 -1.8363481 4288085770
4.2538147 -2.6523228 -1.83569 4288085770
4.2289734 -2.6032939 -1.8340068 4288085770
4.2121277 -2.5592854 -1.8352695 4288085770
4.1912842 -2.51226 -1.8335612 4288085770
4.1784363 -2.4692514 -1.8338032 4288085770
4.1675873 -2.4262445 -1.8340368 4288085770
4.1647644 -2.3882539 -1.8362157 4288085770
4.154892 -2.3452394 -1.8344452 4288085770
4.147049 -2.3042269 -1.8326581 4288085770
4.1522064 -2.2682438 -1.8347957 4288085770
4.152359 -2.230248 -1.8349626 4288085770
4.161499 -2.1962643 -1.8360758 4288085770
4.1636658 -2.1582615 -1.8342342 4288085770
4.1717834 -2.1232731 -1.8343554 4288085770
4.1929626 -2.0933094 -1.8374023 4288085770
4.2001038 -2.0573113 -1.8355312 4288085770
4.2202454 -2.0273387 -1.8365822 4288085770
4.2423859 -1.996372 -1.8386292 4288085770
4.2705383 -1.9684108 -1.8406389 4288085770
4.294693 -1.9384421 -1.8416731 4288085770
4.3278351 -1.9114858 -1.8436582 4288085770
4.3539734 -1.8815145 -1.8436849 4288085770
4.3831329 -1.852542 -1.8426948 4288085770
4.4222565 -1.8265915 -1.8446512 4288085770
4.4604034 -1.8006357 -1.8456118 4288085770
4.4925537 -1.7716616 -1.8436096 4288085770
4.5336761 -1.7457047 -1.8435578 4288085770
4.5788116 -1.7207557 -1.8444855 4288085770
4.6279755 -1.6958103 -1.845397 4288085770
4.6751099 -1.6708591 -1.8453166 4288085770
4.719223 -1.6448965 -1.8432531 4288085770
4.7783813 -1.6219606 -1.8441153 4288085770
4.8315125 -1.5980107 -1.8430066 4288085770
4.8916321 -1.5740719 -1.8428695 4288085770
4.9487762 -1.5501212 -1.8407447 4288085770
5.0198975 -1.5282012 -1.8425543 4288085770
5.0860443 -1.5052595 -1.8403885 4288085770
5.1561737 -1.4833255 -1.8392026 4288085770
5.2192841 -1.4583726 -1.835058 4288085770
5.2854156 -1.433418 -1.8299012 4288085770
5.3695526 -1.4135017 -1.8296499 4288085770
4.3398895 -1.1695689 -1.846869 4288085770
5.4636841 -1.3946031 -1.8313544 4288085770
4.40802 -1.1506375 -1.8466778 4288085770
5.5568085 -1.3746912 -1.8300672 4288085770
4.4761658 -1.1306977 -1.8444905 4288085770
5.6529388 -1.354786 -1.8297675 4288085770
4.5512695 -1.111773 -1.8442714 4288085770
5.7620697 -1.3369019 -1.8314071 4288085770
4.6214142 -1.091835 -1.8420765 4288085770
5.8792267 -1.3200253 -1.8330097 4288085770
4.6915131 -1.0708884 -1.8378861 4288085770
5.9943542 -1.301138 -1.8326294 4288085770
4.7756653 -1.0519719 -1.8376303 4288085770
6.1154785 -1.2832565 -1.8322208 4288085770
4.8637695 -1.0340555 -1.8363545 4288085770
6.2496185 -1.2673961 -1.833751 4288085770
4.9519043 -1.0161387 -1.8350787 4288085770
6.3927612 -1.2515479 -1.8362448 4288085770
5.0650482 -1.0012708 -1.8396888 4288085770
6.5288696 -1.2326723 -1.8337803 4288085770
5.1451721 -0.97932076 -1.8324625 4288085770
6.6750183 -1.2158144 -1.833267 4288085770
5.2462769 -0.96141195 -1.8301346 4288085770
6.8281403 -1.1979591 -1.8317297 4288085770
5.346405 -0.94149804 -1.8268192 4288085770
6.9812622 -1.180099 -1.8291924 4288085770
5.4645386 -0.92461371 -1.8264184 4288085770
7.1513672 -1.1622598 -1.8275869 4288085770
5.5916748 -0.90874207 -1.826977 4288085770
7.3074799 -1.1423857 -1.8210468 4288085770
5.717804 -0.89186537 -1.8265438 4288085770
7.4976196 -1.1255654 -1.8193564 4288085770
5.8509216 -0.87399089 -1.8250873 4288085770
7.6927338 -1.108745 -1.8166459 4288085770
5.9980469 -0.85813797 -1.8255656 4288085770
7.885849 -1.0899104 -1.8109529 4288085770
6.1471863 -0.84228289 -1.825036 4288085770
8.0829468 -1.0710708 -1.8032439 4288085770
6.3013 -0.82442832 -1.8234949 4288085770
8.3180542 -1.0552883 -1.8003685 4288085770
6.4754333 -0.80960488 -1.8248606 4288085770
8.5541687 -1.0374938 -1.794498 4288085770
6.6665955 -0.79580593 -1.8281531 4288085770
8.8343201 -1.0237666 -1.7944326 4288085770
6.847702 -0.77897656 -1.8264995 4288085770
9.1164093 -1.008024 -1.7903686 4288085770
7.0238037 -0.76012564 -1.8208749 4288085770
9.4605713 -0.99737394 -1.7940333 4288085770
7.2219391 -0.74230802 -1.8181574 4288085770
9.8497009 -0.98777437 -1.7995121 4288085770
7.4320526 -0.72550154 -1.8153877 4288085770
10.222824 -0.97413039 -1.7980735 4288085770
7.6331635 -0.70566559 -1.8076673 4288085770
10.588928 -0.95845854 -1.7916722 4288085770
7.8382568 -0.68682921 -1.7989271 4288085770
10.971039 -0.94179296 -1.7832115 4288085770
8.0833588 -0.66904736 -1.7940211 4288085770
11.391113 -0.92415929 -1.773602 4288085770
8.3534851 -0.65129721 -1.7910147 4288085770
11.837219 -0.90754592 -1.7628839 4288085770
8.6396027 -0.63455796 -1.7869399 4288085770
12.364319 -0.89403415 -1.7578275 4288085770
8.9677277 -0.61887944 -1.7876921 4288085770
12.955429 -0.8815825 -1.7525094 4288085770
9.3088684 -0.60120022 -1.7854009 4288085770
13.658569 -0.87227011 -1.7547276 4288085770
9.6889954 -0.58557022 -1.785944 4288085770
14.393692 -0.86096227 -1.7508261 4288085770
10.063095 -0.5669055 -1.779525 4288085770
15.105759 -0.84358227 -1.7350447 4288085770
10.461212 -0.54725862 -1.7720144 4288085770
16.062881 -0.83650053 -1.7342343 4288085770
10.908325 -0.52866662 -1.7663023 4288085770
17.009964 -0.82134986 -1.7194996 4288085770
11.370422 -0.5080713 -1.7565396 4288085770
18.150055 -0.81040692 -1.7099724 4288085770
11.922546 -0.48958635 -1.7524064 4288085770
12.50563 -0.47011769 -1.7451537 4288085770
13.2108 -0.45179725 -1.7454059 4288085770
13.981918 -0.43253446 -1.7443981 4288085770
14.80603 -0.41029632 -1.737191 4288085770
15.75415 -0.38818729 -1.7324865 4288085770
16.774246 -0.36412847 -1.7235026 4288085770
17.972382 -0.33924162 -1.7148082 4288085770
19.218781 -0.068805695 -1.6900151 4288085770
17.710892 -0.069490433 -1.6959713 4288085770
16.547073 -0.069525719 -1.7135711 4288085770
15.411209 -0.06754446 -1.7200675 4288085770
14.375305 -0.06362772 -1.7201755 4288085770
13.539459 -0.06092453 -1.7294886 4288085770
12.680557 -0.055147886 -1.7249041 4288085770
19.482452 -0.088995934 -1.6769557 4288085770
11.972687 -0.049537659 -1.7287221 4288085770
18.01062 -0.07674551 -1.6908145 4288085770
11.382843 -0.044053555 -1.7380743 4288085770
16.753799 -0.064683199 -1.7038238 4288085770
10.830978 -0.038591146 -1.7442756 4288085770
15.631958 -0.051730871 -1.714303 4288085770
10.324127 -0.031168461 -1.7503064 4288085770
14.57605 -0.038798571 -1.7145212 4288085770
9.857254 -0.024784803 -1.7571754 4288085770
13.717209 -0.027076721 -1.7239573 4288085770
9.4163971 -0.017408609 -1.7599454 4288085770
12.865326 -0.015315294 -1.721365 4288085770
9.0205383 -0.010079622 -1.7645378 4288085770
12.155457 -0.0027046204 -1.7252159 4288085770
8.6376495 -0.0017468929 -1.7650816 4288085770
11.546616 0.0087988377 -1.733664 4288085770
8.3047791 0.006519556 -1.7714283 4288085770
10.977753 0.020282507 -1.7379537 4288085770
7.9699249 0.014810324 -1.7717822 4288085770
10.472885 0.031702518 -1.7439907 4288085770
7.6770477 0.023049355 -1.7759707 4288085770
10.013046 0.043075323 -1.7518499 4288085770
7.4131927 0.032255173 -1.7820485 4288085770
9.5761871 0.05544734 -1.7546215 4288085770
7.1433105 0.04148531 -1.7831492 4288085770
9.1523132 0.065815687 -1.7553339 4288085770
6.8964386 0.050691366 -1.7851591 4288085770
8.7954559 0.077102423 -1.761786 4288085770
6.6705933 0.059875488 -1.7880864 4288085770
8.443573 0.088399887 -1.7642181 4288085770
6.4417114 0.068069696 -1.7890213 4288085770
8.1257172 0.10066414 -1.7675192 4288085770
6.2388306 0.077233553 -1.7918575 4288085770
7.8148499 0.11192942 -1.7687891 4288085770
6.0579834 0.087366581 -1.7976103 4288085770
7.5299835 0.12416863 -1.7709601 4288085770
5.8611145 0.097536802 -1.797426 4288085770
7.2671051 0.13538837 -1.7730398 4288085770
5.6952362 0.10766435 -1.8011196 4288085770
7.0272522 0.14758062 -1.7770329 4288085770
5.521347 0.11681032 -1.8018405 4288085770
6.7973633 0.15876746 -1.779983 4288085770
5.3634949 0.12793827 -1.8035064 4288085770
6.5724945 0.17096186 -1.7799165 4288085770
5.2066193 0.13806939 -1.8041639 4288085770
6.3726349 0.18311477 -1.7847514 4288085770
5.0537262 0.14820457 -1.8028057 4288085770
6.1727753 0.19428682 -1.7845824 4288085770
4.9328918 0.15928149 -1.8093252 4288085770
6.0039215 0.20640969 -1.7902951 4288085770
4.8070068 0.16937757 -1.8118606 4288085770
5.8370514 0.21853757 -1.7939997 4288085770
4.677124 0.18048906 -1.8114152 4288085770
5.6601715 0.23069763 -1.7917435 4288085770
4.557251 0.19058371 -1.8129268 4288085770
5.504303 0.24281955 -1.7944045 4288085770
5.3554382 0.25494361 -1.7950377 4288085770
5.2175598 0.26704645 -1.7986276 4288085770
5.0776978 0.27916622 -1.7982254 4288085770
4.9548187 0.29225588 -1.8017597 4288085770
4.8449707 0.30433035 -1.8062389 4288085770
4.7150879 0.31644917 -1.803797 4288085770
4.6042023 0.32853603 -1.8052802 4288085770
4.6498108 2.6002166 -1.7488079 4288085770
4.7699432 2.641115 -1.7474964 4288085770
4.8930969 2.6810181 -1.7441697 4288085770
5.0342407 2.7278883 -1.7457991 4288085770
5.1764069 2.7737682 -1.7444212 4288085770
5.3195648 2.8176515 -1.7430303 4288085770
5.475708 2.8665164 -1.7426097 4288085770
5.6298676 2.91239 -1.7401857 4288085770
4.6045837 2.4962151 -1.7505953 4288085770
5.7889862 2.9572637 -1.7367389 4288085770
4.7377472 2.5330913 -1.7522187 4288085770
5.9831543 3.0160816 -1.7402089 4288085770
4.8698883 2.566972 -1.752835 4288085770
6.1613312 3.0659325 -1.7387071 4288085770
4.9909973 2.5938809 -1.7484677 4288085770
6.3644867 3.1237504 -1.7401383 4288085770
5.1271362 2.626766 -1.7470648 4288085770
6.5656433 3.1785786 -1.7395666 4288085770
5.2823029 2.6656201 -1.7496109 4288085770
6.81987 3.2523239 -1.7488606 4288085770
5.4134064 2.6915286 -1.7432017 4288085770
7.0400085 3.3101399 -1.7472267 4288085770
5.5665588 2.7253993 -1.7417367 4288085770
7.2591705 3.3629606 -1.7445781 4288085770
5.712677 2.7532885 -1.7372768 4288085770
7.4712982 3.4118049 -1.7369418 4288085770
5.8818207 2.7901385 -1.737762 4288085770
7.7024231 3.464627 -1.7312474 4288085770
6.1010284 2.8439066 -1.7491167 4288085770
7.9455719 3.5194356 -1.7265139 4288085770
6.2721558 2.8747709 -1.7455716 4288085770
8.1766968 3.5662725 -1.7167969 4288085770
6.4402771 2.9036415 -1.7410309 4288085770
8.4498444 3.6260517 -1.7129667 4288085770
6.6554413 2.9484384 -1.745368 4288085770
8.7219696 3.6808484 -1.7051215 4288085770
6.8826294 2.9932263 -1.7496588 4288085770
9.0141144 3.741616 -1.7002218 4288085770
7.1138 3.0380108 -1.7539346 4288085770
9.3492889 3.8133337 -1.6991971 4288085770
7.2958984 3.0608814 -1.7463179 4288085770
9.6964569 3.8860457 -1.6971297 4288085770
7.513031 3.0947015 -1.7446067 4288085770
10.08165 3.9667137 -1.6979456 4288085770
7.7141266 3.1195557 -1.7369242 4288085770
10.502838 4.0553417 -1.7016525 4288085770
7.9152374 3.1414149 -1.728231 4288085770
10.944046 4.1459608 -1.7032897 4288085770
8.1303406 3.1652582 -1.7204912 4288085770
11.366211 4.2236185 -1.6989522 4288085770
8.3574524 3.1900876 -1.7137084 4288085770
11.870422 4.3231783 -1.7023804 4288085770
8.6135864 3.2208788 -1.7108364 4288085770
12.377625 4.4177504 -1.7017789 4288085770
8.8627014 3.2466872 -1.704973 4288085770
12.86377 4.499362 -1.6952102 4288085770
9.1318207 3.2764671 -1.7020478 4288085770
13.390945 4.5879345 -1.6905096 4288085770
9.4359589 3.3122075 -1.7020094 4288085770
14.042191 4.7063665 -1.6954422 4288085770
9.7310944 3.3409712 -1.6979802 4288085770
14.732407 4.8287687 -1.6992397 4288085770
10.049225 3.3727071 -1.6958737 4288085770
15.462662 4.9551392 -1.702898 4288085770
10.392395 3.4084127 -1.6966856 4288085770
16.091812 5.0426502 -1.6918018 4288085770
10.742523 3.4411156 -1.6964595 4288085770
16.672913 5.1062384 -1.6708014 4288085770
11.097641 3.469826 -1.6931996 4288085770
17.374054 5.1966944 -1.6584396 4288085770
11.477798 3.5015042 -1.6928546 4288085770
18.175217 5.30406 -1.6477554 4288085770
11.892944 3.5371473 -1.6943898 4288085770
19.109451 5.4392786 -1.6466627 4288085770
12.294067 3.5628154 -1.691942 4288085770
12.696198 3.583492 -1.6874726 4288085770
13.144318 3.6101148 -1.6868477 4288085770
13.586441 3.6307547 -1.6832242 4288085770
14.065582 3.6533535 -1.6824658 4288085770
14.571701 3.6759288 -1.6816037 4288085770
14.988785 3.6716201 -1.6699846 4288085770
15.576935 3.6991107 -1.6738255 4288085770
16.093033 3.7017019 -1.666852 4288085770
16.611115 3.6982954 -1.6588485 4288085770
17.228256 3.7077739 -1.6595123 4288085770
17.800339 3.702316 -1.6532943 4288085770
18.43544 3.6977928 -1.6508377 4288085770
19.092545 3.6902535 -1.6472855 4288085770
19.330307 -5.1587391 -1.5450649 4293729569
18.776474 -5.1493349 -1.5582268 4293729569
18.190643 -5.1218939 -1.5685766 4293729569
17.601822 -5.0894475 -1.5779562 4293729569
17.021988 -5.0489974 -1.5843303 4293729569
16.425156 -4.9945269 -1.5888207 4293729569
17.767014 -5.4638886 -0.84695601 4293729569
15.82132 -4.9300356 -1.5893745 4293729569
17.724274 -5.5760775 -0.90671539 4293729569
15.292496 -4.8806276 -1.5955853 4293729569
14.848694 -4.8523178 -1.6093934 4293729569
14.351883 -4.7969322 -1.6145029 4293729569
13.869034 -4.7405577 -1.6195626 4293729569
13.423218 -4.6912251 -1.6274548 4293729569
12.944412 -4.6228395 -1.6285422 4293729569
12.487564 -4.5554724 -1.6295416 4293729569
19.306244 -6.9956131 -1.5065179 4293729569
12.102768 -4.5071931 -1.6381953 4293729569
18.294571 -6.7638073 -1.5122447 4293729569
11.706924 -4.4498892 -1.6429243 4293729569
17.502869 -6.5972185 -1.5278912 4293729569
11.347122 -4.3996272 -1.6504893 4293729569
16.690155 -6.4135914 -1.5376792 4293729569
11.001297 -4.3483753 -1.6580043 4293729569
15.970459 -6.2530546 -1.5510266 4293729569
10.66748 -4.2971301 -1.6644731 4293729569
15.281754 -6.0915313 -1.5612588 4293729569
10.386673 -4.2619534 -1.6776805 4293729569
14.631012 -5.9390392 -1.5713124 4293729569
10.141876 -4.2368197 -1.6947129 4293729569
14.047272 -5.8026085 -1.58305 4293729569
9.9420929 -4.2267485 -1.7185183 4293729569
13.417542 -5.6391068 -1.5860622 4293729569
9.7622986 -4.2196937 -1.7422357 4293729569
10.441513 -4.5096846 -1.3175747 4293729569
9.5865173 -4.2126479 -1.7679379 4288085770
10.487793 -4.5959578 -1.3800874 4293729569
9.4147339 -4.2056069 -1.7936249 4288085770
10.365067 -4.6120176 -1.4225028 4293729569
9.2229462 -4.1865315 -1.8144319 4288085770
10.345352 -4.6682158 -1.4793782 4293729569
8.9971466 -4.1484032 -1.8284385 4288085770
10.321625 -4.7214031 -1.5342796 4293729569
8.7273102 -4.0891991 -1.8316905 4288085770
10.443939 -4.836792 -1.6113963 4293729569
8.460495 -4.0269966 -1.8349414 4288085770
10.195206 -4.7896891 -1.6375241 4293729569
8.2156677 -3.9718204 -1.8400824 4288085770
9.8504333 -4.6964512 -1.6481872 4293729569
7.9728394 -3.9136384 -1.8432269 4288085770
9.5376587 -4.6112423 -1.6596985 4293729569
7.7480316 -3.8584745 -1.8472912 4288085770
9.217865 -4.5180135 -1.6672654 4293729569
7.475174 -3.7792318 -1.8406267 4288085770
8.9070892 -4.4267883 -1.6737905 4293729569
7.2563477 -3.7210655 -1.8426788 4288085770
8.6473083 -4.3536258 -1.6860549 4293729569
7.0355072 -3.6578901 -1.8427563 4288085770
8.3595123 -4.2634115 -1.6904879 4293729569
6.8506775 -3.6107659 -1.8486378 4288085770
8.0867004 -4.1772137 -1.6958489 4293729569
6.6448364 -3.5506063 -1.849647 4288085770
7.93396 -4.1451883 -1.7215536 4293729569
6.4289856 -3.4814134 -1.8437274 4288085770
7.8422089 -4.1402526 -1.7579262 4293729569
6.2281494 -3.4172437 -1.8407314 4288085770
7.7444458 -4.1313076 -1.7933369 4288085770
6.0392914 -3.3560872 -1.8386793 4288085770
7.6427155 -4.1173487 -1.8257806 4288085770
5.8694611 -3.3019571 -1.8395281 4288085770
7.437912 -4.0502272 -1.8368118 4288085770
5.6966248 -3.2438133 -1.8374031 4288085770
7.1690826 -3.9469848 -1.8292186 4288085770
5.5337524 -3.1886854 -1.837229 4288085770
6.9342804 -3.8587956 -1.8284407 4288085770
5.3739319 -3.1325521 -1.8350465 4288085770
6.7394562 -3.7876601 -1.8334477 4288085770
5.2160645 -3.0754168 -1.8318603 4288085770
6.5586548 -3.7205358 -1.8383861 4288085770
5.0742188 -3.0243058 -1.8315911 4288085770
6.37883 -3.6524124 -1.8433247 4288085770
4.9373779 -2.9741983 -1.8312986 4288085770
6.1829987 -3.5732508 -1.8413641 4288085770
4.8185425 -2.9311237 -1.8359118 4288085770
6.0001678 -3.4981036 -1.8403392 4288085770
4.6886902 -2.8800187 -1.8345964 4288085770
5.8133545 -3.418942 -1.8363442 4288085770
4.5718384 -2.8349311 -1.8352091 4288085770
5.6445007 -3.3467979 -1.8332543 4288085770
5.4856567 -3.2786732 -1.8331118 4288085770
5.3358307 -3.2125559 -1.8329277 4288085770
5.1869965 -3.1454322 -1.8307428 4288085770
5.0471497 -3.0813153 -1.8285127 4288085770
4.9062958 -3.0141943 -1.8252976 4288085770
4.8014679 -2.9661386 -1.8318756 4288085770
4.6916351 -2.9130604 -1.8334904 4288085770
4.5798035 -2.8579774 -1.8341203 4288085770
4.6355896 -0.53641176 -1.8216734 4288085770
4.7337036 -0.52248931 -1.8203599 4288085770
4.8388214 -0.50957227 -1.8190165 4288085770
4.9369354 -0.49464214 -1.815707 4288085770
5.0570679 -0.4827441 -1.8163042 4288085770
5.1601562 -0.46780729 -1.8099763 4288085770
5.2882843 -0.45491159 -1.8095474 4288085770
5.4174042 -0.44201267 -1.808115 4288085770
5.5545197 -0.42912042 -1.8066528 4288085770
4.5677185 -0.32939768 -1.8207037 4288085770
5.6996613 -0.41623735 -1.8061612 4288085770
4.6748352 -0.31747842 -1.8183496 4288085770
5.8547821 -0.4043622 -1.8056285 4288085770
4.7879333 -0.30556369 -1.8159738 4288085770
6.0209198 -0.39249921 -1.8060548 4288085770
4.9130554 -0.2936728 -1.8175523 4288085770
6.1850281 -0.3796196 -1.8024926 4288085770
5.031189 -0.28175449 -1.8131578 4288085770
6.3641205 -0.3667593 -1.8008745 4288085770
5.1703186 -0.26987076 -1.8136845 4288085770
6.5612488 -0.35491979 -1.8011858 4288085770
5.300415 -0.25796556 -1.8102455 4288085770
6.7603607 -0.34307468 -1.7994897 4288085770
5.4585419 -0.24710345 -1.8126981 4288085770
6.9714813 -0.33123505 -1.7967491 4288085770
5.6096649 -0.23521781 -1.8101809 4288085770
7.1996155 -0.31941545 -1.7959454 4288085770
5.7657776 -0.22433233 -1.8066413 4288085770
7.4377441 -0.30659652 -1.7931082 4288085770
5.9469147 -0.21248388 -1.808012 4288085770
7.6568298 -0.2937336 -1.7823424 4288085770
6.1240234 -0.20162177 -1.8063951 4288085770
7.9329376 -0.28195477 -1.7823603 4288085770
6.3131409 -0.1907649 -1.8037326 4288085770
8.2130432 -0.2701602 -1.7773638 4288085770
6.5062714 -0.17891145 -1.8010597 4288085770
8.5161743 -0.25838733 -1.7732816 4288085770
6.7153778 -0.16907358 -1.7993202 4288085770
8.8582916 -0.24765491 -1.7720509 4288085770
6.9495087 -0.15826178 -1.7994909 4288085770
9.224411 -0.23593736 -1.7697349 4288085770
7.1796112 -0.1474328 -1.7956769 4288085770
9.5975189 -0.225214 -1.7643893 4288085770
7.4227295 -0.13661003 -1.7908151 4288085770
10.006622 -0.21352148 -1.7599139 4288085770
7.6567993 -0.1247623 -1.7809906 4288085770
10.468735 -0.20287347 -1.7562377 4288085770
7.9349213 -0.11396933 -1.7769988 4288085770
10.920822 -0.19119239 -1.7456033 4288085770
8.2430267 -0.10420704 -1.7748919 4288085770
11.452927 -0.17959428 -1.7406712 4288085770
8.5811462 -0.094474792 -1.7746737 4288085770
12.013031 -0.16900253 -1.7316318 4288085770
8.945282 -0.084755182 -1.7723589 4288085770
12.696152 -0.15853453 -1.7301352 4288085770
9.3123932 -0.075026989 -1.7670336 4288085770
13.493286 -0.14916754 -1.7322111 4288085770
9.7244873 -0.065336704 -1.7625411 4288085770
14.301376 -0.13876915 -1.7232509 4288085770
10.170578 -0.055668354 -1.7569222 4288085770
15.269485 -0.12851453 -1.7196956 4288085770
10.645691 -0.046022177 -1.7511964 4288085770
16.33461 -0.11933064 -1.714777 4288085770
11.151794 -0.03639245 -1.743356 4288085770
17.487686 -0.10918474 -1.7015367 4288085770
11.729904 -0.027828455 -1.7382445 4288085770
18.856766 -0.099222183 -1.6924939 4288085770
12.362991 -0.019303322 -1.7319291 4288085770
13.135132 -0.010908842 -1.7320974 4288085770
14.009247 -0.002600193 -1.7338877 4288085770
14.934357 0.0046958923 -1.7284856 4288085770
16.006454 0.011876106 -1.7235384 4288085770
17.169556 0.019001484 -1.7142541 4288085770
18.56868 0.025932312 -1.7080946 4288085770
19.036407 0.2475028 -1.6942081 4288085770
17.542542 0.26551032 -1.6961203 4288085770
16.45871 0.28418231 -1.7147064 4288085770
15.395859 0.30187726 -1.722219 4288085770
14.363953 0.31659126 -1.7176182 4288085770
13.54509 0.33312225 -1.724334 4288085770
12.727203 0.34669209 -1.7190344 4288085770
12.102341 0.36208272 -1.7281163 4288085770
18.25943 0.55005288 -1.6829062 4288085770
11.524506 0.37744498 -1.7360454 4288085770
17.10759 0.56377602 -1.6996868 4288085770
11.011642 0.3927598 -1.7447639 4288085770
16.164795 0.58033276 -1.7238009 4288085770
10.546783 0.40804267 -1.7533255 4288085770
14.992844 0.58517218 -1.7096105 4288085770
10.074921 0.42235374 -1.7549057 4288085770
14.102982 0.59576321 -1.7125287 4288085770
9.6050415 0.43468356 -1.7504716 4288085770
13.300095 0.60630202 -1.7131646 4288085770
9.2251434 0.44792938 -1.7527499 4288085770
12.573212 0.6157937 -1.7125504 4288085770
8.8813019 0.46213746 -1.7589147 4288085770
11.993362 0.62915301 -1.7214751 4288085770
8.5394135 0.47536421 -1.759069 4288085770
11.456482 0.64148998 -1.7282567 4288085770
8.2425537 0.48954797 -1.7630808 4288085770
10.985641 0.65477681 -1.7368279 4288085770
7.9616852 0.50372005 -1.7670405 4288085770
10.519775 0.66807318 -1.7413816 4288085770
7.7098389 0.51786661 -1.7729063 4288085770
10.108917 0.68132567 -1.7477582 4288085770
7.4459534 0.53004456 -1.7718031 4288085770
9.6620331 0.6906395 -1.7432353 4288085770
7.2030792 0.54319835 -1.7736359 4288085770
9.2761383 0.70190239 -1.7415228 4288085770
6.9691772 0.55635047 -1.7734382 4288085770
8.9732819 0.71606731 -1.7515519 4288085770
6.7773285 0.57146001 -1.7781119 4288085770
8.6244049 0.72730875 -1.7487183 4288085770
6.5534363 0.58261776 -1.7748744 4288085770
8.3365326 0.74048924 -1.7516947 4288085770
6.3865814 0.59770751 -1.7804675 4288085770
8.0916748 0.75562429 -1.7595391 4288085770
6.2026978 0.6108284 -1.7801077 4288085770
7.8328094 0.76779222 -1.7604182 4288085770
6.0468445 0.62491369 -1.7846611 4288085770
7.6079407 0.78292012 -1.7661977 4288085770
5.8949738 0.63999987 -1.7882044 4288085770
7.3650513 0.79408336 -1.7650211 4288085770
5.7510986 0.65408063 -1.7917187 4288085770
7.1461945 0.80722451 -1.7657731 4288085770
5.6022186 0.66717792 -1.7912452 4288085770
6.9452972 0.82035303 -1.7664676 4288085770
5.4663544 0.68125987 -1.7927327 4288085770
6.7514343 0.83347726 -1.767139 4288085770
5.361496 0.6982944 -1.8021312 4288085770
6.5685577 0.84759068 -1.7687783 4288085770
5.2176056 0.71040177 -1.7976372 4288085770
6.4046783 0.86169124 -1.7703559 4288085770
5.1047516 0.72446513 -1.8000505 4288085770
6.2277985 0.87381458 -1.7679682 4288085770
4.9888611 0.73853707 -1.8004732 4288085770
6.0949402 0.88987684 -1.7744532 4288085770
4.8899994 0.75458407 -1.804848 4288085770
5.960083 0.90594864 -1.7789438 4288085770
4.7961426 0.76962781 -1.8092031 4288085770
5.8312073 0.92101908 -1.7824121 4288085770
4.6932373 0.78369427 -1.8085837 4288085770
5.6903229 0.93411446 -1.7809112 4288085770
4.6013947 0.79874325 -1.8109319 4288085770
5.5684509 0.9491868 -1.7823565 4288085770
5.4475708 0.96426177 -1.7827976 4288085770
5.3287048 0.97734261 -1.7812257 4288085770
5.2428436 0.99637079 -1.7885685 4288085770
5.1459808 1.0124199 -1.7919362 4288085770
5.0431061 1.0274866 -1.7913191 4288085770
4.9522247 1.0435383 -1.7926672 4288085770
4.8593597 1.0595949 -1.7930212 4288085770
4.77948 1.0766361 -1.795337 4288085770
4.6956024 1.0926862 -1.7956619 4288085770
4.6237488 1.1097217 -1.7979519 4288085770
4.5448608 1.1257722 -1.7972608 4288085770
4.6388702 3.2955 -1.7624402 4288085770
4.6989746 3.3374989 -1.7493961 4288085770
4.7801056 3.3904684 -1.7413232 4288085770
4.8972626 3.4643834 -1.7422085 4288085770
5.0134277 3.5363033 -1.7420907 4288085770
5.1355896 3.6102188 -1.7419608 4288085770
5.258728 3.6831439 -1.7388248 4288085770
5.3888855 3.7600615 -1.7366807 4288085770
5.5170288 3.8319867 -1.7325263 4288085770
5.6712189 3.9198787 -1.7333448 4288085770
4.631012 3.3614376 -1.7687142 4288085770
5.8213654 4.0017862 -1.7301559 4288085770
4.6960754 3.3914435 -1.7526157 4288085770
5.9645081 4.0787125 -1.7229726 4288085770
4.8082275 3.4483788 -1.7484612 4288085770
6.1517029 4.1795759 -1.725733 4288085770
4.9403839 3.5152848 -1.7492783 4288085770
6.3508911 4.2854319 -1.7284734 4288085770
5.08255 3.5871818 -1.7510812 4288085770
6.5500641 4.388299 -1.7282038 4288085770
5.2106934 3.6491072 -1.7468944 4288085770
6.752243 4.4911709 -1.7259257 4288085770
5.3578491 3.7190073 -1.746676 4288085770
7.0324707 4.6369419 -1.738549 4288085770
5.4929962 3.7799284 -1.742465 4288085770
7.2796783 4.7597675 -1.7411988 4288085770
5.6411438 3.8468411 -1.7382338 4288085770
7.5278778 4.8816032 -1.7408426 4288085770
5.8102875 3.9237273 -1.7379715 4288085770
7.8361053 5.0333738 -1.7484012 4288085770
5.9704437 3.9926322 -1.733711 4288085770
8.0842743 5.1482315 -1.7410233 4288085770
6.1405945 4.065527 -1.730433 4288085770
8.3414307 5.2630844 -1.7336183 4288085770
6.3367615 4.1493931 -1.7311118 4288085770
8.604599 5.3789434 -1.7231984 4288085770
6.5259094 4.2282734 -1.728796 4288085770
8.8947754 5.5067759 -1.7157359 4288085770
6.7731323 4.3360834 -1.7363977 4288085770
9.2529755 5.6675406 -1.7151735 4288085770
6.9812775 4.4189539 -1.7330377 4288085770
9.6111908 5.8243122 -1.7125986 4288085770
7.236496 4.524766 -1.7386091 4288085770
10.046432 6.0190115 -1.716913 4288085770
7.4956665 4.6285868 -1.7401624 4288085770
