# .PCD v0.7 - Point Cloud Data file format
VERSION 0.7
FIELDS x y z rgb
SIZE 4 4 4 4
TYPE F F F U
COUNT 1 1 1 1
WIDTH 1128
HEIGHT 1
VIEWPOINT 0 0 0 1 0 0 0
POINTS 1128
DATA ascii
10.674942 0.33625245 -1.7235392 4288085770
7.7141533 0.25087047 -1.7393782 4288085770
10.178024 0.34634233 -1.7250055 4288085770
7.4512405 0.26138878 -1.7446226 4288085770
9.7251129 0.35651302 -1.7264297 4288085770
7.1823235 0.27089381 -1.744873 4288085770
9.2951965 0.36672401 -1.7248323 4288085770
6.9544144 0.28147626 -1.7510841 4288085770
8.9182739 0.37703323 -1.7271845 4288085770
6.7234993 0.2920506 -1.751298 4288085770
8.5723648 0.38739944 -1.7305076 4288085770
6.5005836 0.30263925 -1.7515043 4288085770
8.2714462 0.3988483 -1.7347873 4288085770
6.3016701 0.31327271 -1.7536879 4288085770
7.9605331 0.4092772 -1.735077 4288085770
6.0977516 0.32289529 -1.7518766 4288085770
7.6946144 0.420789 -1.7383235 4288085770
5.9208374 0.33456874 -1.7540387 4288085770
7.4317017 0.43230605 -1.7405672 4288085770
5.7419205 0.34423733 -1.7532035 4288085770
7.1927834 0.44386697 -1.742788 4288085770
5.5810089 0.3559401 -1.7553506 4288085770
6.9438705 0.45340657 -1.7400192 4288085770
5.4100914 0.36562181 -1.7515078 4288085770
6.7219505 0.46499777 -1.740224 4288085770
5.2681732 0.37735963 -1.7546369 4288085770
6.5140343 0.47661448 -1.7414154 4288085770
5.1192551 0.38808298 -1.7537727 4288085770
6.3071175 0.48723102 -1.7386065 4288085770
4.9853363 0.39983392 -1.753894 4288085770
6.1301994 0.49890471 -1.7407684 4288085770
4.8664246 0.41061378 -1.7570015 4288085770
5.9842834 0.51263738 -1.7479002 4288085770
4.7505074 0.42239857 -1.7591058 4288085770
5.806366 0.52330685 -1.7450635 4288085770
4.6365929 0.43418646 -1.7602081 4288085770
5.6454468 0.5340085 -1.7442111 4288085770
5.5015297 0.54674196 -1.7453413 4288085770
5.3686142 0.55949616 -1.7484614 4288085770
5.2156906 0.56920981 -1.7426015 4288085770
5.0987663 0.58298683 -1.7456998 4288085770
4.9848518 0.59577537 -1.7488017 4288085770
4.8679314 0.60855722 -1.7489065 4288085770
4.7620125 0.62135994 -1.7510008 4288085770
4.6690941 0.63518691 -1.7550825 4288085770
4.6442299 3.0065804 -1.7262048 4288085770
4.7572365 3.0597763 -1.7240812 4288085770
4.8672447 3.1099651 -1.7179615 4288085770
5.0002403 3.1711979 -1.7188163 4288085770
5.1302376 3.2284245 -1.7166755 4288085770
5.2752266 3.2926786 -1.7165184 4288085770
5.4292145 3.3589492 -1.7173522 4288085770
5.6031876 3.4352572 -1.7221634 4288085770
5.7601776 3.4985311 -1.718996 4288085770
4.6531982 2.9595451 -1.72724 4288085770
5.9261589 3.5668221 -1.7178185 4288085770
4.7762222 3.0047596 -1.7261109 4288085770
6.109127 3.6411443 -1.7176229 4288085770
4.8952446 3.0469651 -1.7219869 4288085770
6.3011017 3.7164822 -1.7184187 4288085770
5.0202713 3.0901821 -1.718857 4288085770
6.4940643 3.7908211 -1.7162144 4288085770
5.1612854 3.1394284 -1.7177101 4288085770
6.7090263 3.8732004 -1.7169867 4288085770
5.3192825 3.1957071 -1.7205445 4288085770
6.9339714 3.9575982 -1.7177488 4288085770
5.4732933 3.2479768 -1.7203846 4288085770
7.1729164 4.0470209 -1.7194963 4288085770
5.6343079 3.3002591 -1.7202184 4288085770
7.3998718 4.1264191 -1.7152594 4288085770
5.8053055 3.3565598 -1.7210416 4288085770
7.6568184 4.2178731 -1.7149903 4288085770
5.9633255 3.4038353 -1.7168804 4288085770
7.9187546 4.3093348 -1.7127166 4288085770
6.1303368 3.4531269 -1.7137105 4288085770
8.2036819 4.4068389 -1.7124199 4288085770
6.328331 3.5144758 -1.7155071 4288085770
8.5096054 4.5113802 -1.7141011 4288085770
6.5223389 3.5718172 -1.7163094 4288085770
8.8435059 4.6259737 -1.7167528 4288085770
6.725338 3.6301742 -1.7161031 4288085770
9.1964035 4.7445993 -1.7203858 4288085770
6.9423332 3.6925569 -1.7168825 4288085770
9.5742798 4.8702707 -1.7229934 4288085770
7.1653252 3.7539496 -1.7176571 4288085770
9.938179 4.9849148 -1.7216184 4288085770
7.3813248 3.8103287 -1.7144401 4288085770
10.340065 5.1106277 -1.7222047 4288085770
7.6073303 3.8667259 -1.7122142 4288085770
10.759933 5.2403708 -1.7207731 4288085770
7.8423309 3.924139 -1.7099799 4288085770
11.257767 5.3982582 -1.7282591 4288085770
8.1113091 3.9936147 -1.7117097 4288085770
11.816566 5.5762548 -1.7386817 4288085770
8.3822937 4.0600929 -1.7114391 4288085770
12.323402 5.7251549 -1.739164 4288085770
8.6522827 4.1225686 -1.711171 4288085770
12.896202 5.8961744 -1.743577 4288085770
8.9642563 4.1991215 -1.7138593 4288085770
13.465019 6.0561829 -1.741999 4288085770
9.2752304 4.2696719 -1.7155511 4288085770
14.121803 6.2443514 -1.7453296 4288085770
9.6172028 4.349278 -1.7192113 4288085770
14.798561 6.4345551 -1.7466419 4288085770
9.9531784 4.4218717 -1.7198799 4288085770
15.537308 6.6388693 -1.7498921 4288085770
10.284164 4.4874554 -1.7175561 4288085770
16.288055 6.8392029 -1.7491337 4288085770
10.620163 4.5500479 -1.7142291 4288085770
17.094788 7.0486364 -1.7473211 4288085770
10.993134 4.6227074 -1.7138644 4288085770
17.971481 7.2751951 -1.7464384 4288085770
11.392097 4.7004137 -1.7154746 4288085770
18.798233 7.4706597 -1.7356142 4288085770
11.864044 4.7972527 -1.7230105 4288085770
12.28801 4.873003 -1.7235991 4288085770
12.723984 4.9457741 -1.7221781 4288085770
13.16996 5.0155621 -1.7197492 4288085770
13.648933 5.0904102 -1.7202889 4288085770
14.238861 5.1974592 -1.7287148 4288085770
14.706856 5.2552853 -1.7232716 4288085770
15.276802 5.3392963 -1.7257253 4288085770
15.966721 5.4535246 -1.7370582 4288085770
16.690636 5.5688133 -1.7493603 4288085770
17.432549 5.6821337 -1.7606473 4288085770
18.167488 5.779439 -1.7669473 4288085770
18.813484 5.8405819 -1.7633427 4288085770
19.481476 5.9017634 -1.7597184 4288085770
12.498222 3.6019998 -1.0439826 4293729569
12.622406 3.5432038 -1.0168971 4293729569
12.342751 3.3776765 -0.96221983 4293729569
12.321007 3.2816172 -0.92728114 4293729569
12.323242 3.1906018 -0.89531857 4293729569
12.340469 3.104614 -0.86634016 4293729569
12.393692 3.025692 -0.84032643 4293729569
12.438911 2.9437559 -0.81432056 4293729569
12.532127 2.8699069 -0.79326838 4293729569
12.651344 2.8021045 -0.77319014 4293729569
12.764549 2.7302918 -0.75411892 4293729569
12.87677 2.6564777 -0.73604918 4293729569
12.943001 2.5735812 -0.71702462 4293729569
13.018234 2.4917011 -0.69899136 4293729569
13.098473 2.4098303 -0.68195355 4293729569
13.242699 2.3350751 -0.66885489 4293729569
13.305954 2.2471747 -0.65383458 4293729569
13.425186 2.1673753 -0.64176035 4293729569
13.474442 2.0754504 -0.62775403 4293729569
13.695663 2.0058351 -0.62258345 4293729569
13.602951 1.8926561 -0.6047135 4293729569
13.791183 1.8149816 -0.5995757 4293729569
15.573166 1.9191666 -0.65792733 4293729569
19.551407 -3.5987406 -1.7703912 4288085770
18.891533 -3.6099167 -1.7729876 4288085770
18.3647 -3.6378536 -1.78447 4288085770
17.905869 -3.6706681 -1.8018929 4288085770
17.283958 -3.6647768 -1.8014488 4288085770
16.768082 -3.6726947 -1.8099141 4288085770
16.198158 -3.6617107 -1.8104213 4288085770
15.518173 -3.6189256 -1.7970166 4288085770
14.969238 -3.5979052 -1.7955014 4288085770
14.482315 -3.5837727 -1.7979329 4288085770
14.035408 -3.5725694 -1.8033292 4288085770
13.577469 -3.5513859 -1.8047322 4288085770
13.176559 -3.5391002 -1.811087 4288085770
12.718597 -3.5059175 -1.8084856 4288085770
12.250618 -3.4647546 -1.8018905 4288085770
19.083069 -5.3596697 -1.8353962 4288085770
11.819656 -3.4275246 -1.7982637 4288085770
18.515137 -5.3226719 -1.8668917 4288085770
11.453705 -3.4021778 -1.8005822 4288085770
17.763069 -5.2240062 -1.8755318 4288085770
11.097763 -3.3738136 -1.801891 4288085770
16.70079 -5.0269022 -1.846417 4288085770
10.737808 -3.3404565 -1.8002015 4288085770
16.097771 -4.9519701 -1.8609313 4288085770
10.398857 -3.309062 -1.8014938 4288085770
15.340637 -4.8233171 -1.8545657 4288085770
10.073906 -3.2766423 -1.8017733 4288085770
14.556465 -4.6737161 -1.8362175 4288085770
9.7619476 -3.2432008 -1.8010408 4288085770
13.927368 -4.5658364 -1.8327442 4288085770
9.4479828 -3.2067628 -1.8003089 4288085770
13.401329 -4.4837704 -1.8391871 4288085770
9.1560211 -3.173285 -1.8005582 4288085770
12.882286 -4.3956933 -1.8416216 4288085770
8.8690643 -3.1357985 -1.7998018 4288085770
12.267143 -4.2687926 -1.8261294 4288085770
8.6041107 -3.103272 -1.8010273 4288085770
11.725037 -4.1587605 -1.8155774 4288085770
8.3561554 -3.0717149 -1.8032378 4288085770
11.282997 -4.0755477 -1.8159446 4288085770
8.1172104 -3.0411425 -1.8064407 4288085770
10.852943 -3.9913139 -1.8143007 4288085770
7.8952637 -3.0125399 -1.809629 4288085770
10.446907 -3.9110374 -1.8136367 4288085770
7.639286 -2.9689999 -1.8048428 4288085770
10.055878 -3.8307352 -1.8109593 4288085770
7.4263344 -2.9373808 -1.808022 4288085770
9.7138443 -3.7623453 -1.8132417 4288085770
7.232399 -2.910727 -1.8131858 4288085770
9.3598175 -3.685977 -1.8115325 4288085770
7.0294418 -2.8770909 -1.8143553 4288085770
9.0367966 -3.6165538 -1.8107976 4288085770
6.8314857 -2.8434463 -1.8155204 4288085770
8.7407913 -3.553082 -1.8130405 4288085770
6.6515388 -2.8137689 -1.8186706 4288085770
8.4507751 -3.4875994 -1.8132775 4288085770
6.4715843 -2.7810922 -1.8208201 4288085770
8.1857834 -3.4290733 -1.8154944 4288085770
6.3046417 -2.7503915 -1.8239583 4288085770
7.9287758 -3.3695321 -1.8167037 4288085770
6.140686 -2.7206855 -1.8260942 4288085770
7.6727715 -3.3079896 -1.8169116 4288085770
5.9537125 -2.6790223 -1.8222469 4288085770
7.4297676 -3.2484241 -1.8171085 4288085770
5.7807465 -2.6403346 -1.8193882 4288085770
7.2067719 -3.1938233 -1.8192892 4288085770
5.6347961 -2.6105967 -1.822508 4288085770
7.0027924 -3.1451879 -1.8234547 4288085770
5.4978561 -2.5828424 -1.8276204 4288085770
6.7988052 -3.0925527 -1.8246188 4288085770
5.3558998 -2.5500979 -1.8287356 4288085770
6.596817 -3.0389147 -1.8257811 4288085770
5.2009315 -2.5113783 -1.8248607 4288085770
6.4188423 -2.9922333 -1.829924 4288085770
5.068985 -2.4796162 -1.8269674 4288085770
6.2128334 -2.9326043 -1.825088 4288085770
4.9350243 -2.4448586 -1.826075 4288085770
6.0438538 -2.8859067 -1.8272229 4288085770
4.7910538 -2.4051189 -1.82119 4288085770
5.8718681 -2.8352165 -1.8273596 4288085770
4.6761055 -2.3753262 -1.8242823 4288085770
5.7068825 -2.7855124 -1.8264899 4288085770
5.5479012 -2.7367992 -1.8256153 4288085770
5.4009209 -2.6910634 -1.826731 4288085770
5.2569466 -2.6453228 -1.8268441 4288085770
5.115963 -2.5985775 -1.8249543 4288085770
4.9920044 -2.5588007 -1.8280514 4288085770
4.8640251 -2.5150313 -1.8281507 4288085770
4.7200317 -2.4622931 -1.8212616 4288085770
4.5980492 -2.4185138 -1.819356 4288085770
4.6937065 -0.16694069 -1.7696097 4288085770
4.7977867 -0.15376592 -1.7655153 4288085770
4.9208679 -0.14155746 -1.7654046 4288085770
5.0269432 -0.12937975 -1.7573086 4288085770
5.1620293 -0.11715007 -1.7581874 4288085770
5.2931061 -0.10492849 -1.7540697 4288085770
5.4511948 -0.093658209 -1.7569286 4288085770
5.6062775 -0.081394196 -1.7557898 4288085770
4.6352577 -0.038085222 -1.7676327 4288085770
5.7753563 -0.069105148 -1.7566388 4288085770
4.7623482 -0.026869297 -1.7685188 4288085770
5.9434395 -0.05781889 -1.7544891 4288085770
4.8684235 -0.016692162 -1.7604237 4288085770
6.1195221 -0.046518803 -1.7523323 4288085770
5.0135117 -0.0064444542 -1.7622942 4288085770
6.3055992 -0.034200907 -1.7501665 4288085770
5.1635971 0.0038113594 -1.7641605 4288085770
6.5136871 -0.022844553 -1.7499818 4288085770
5.3066826 0.01405406 -1.762033 4288085770
6.7487755 -0.011440516 -1.7537735 4288085770
5.4667664 0.023326874 -1.760891 4288085770
6.9668541 0.00093197823 -1.7485799 4288085770
5.6228523 0.033592224 -1.7577521 4288085770
7.2109337 0.012350559 -1.7473636 4288085770
5.799942 0.042894125 -1.7575951 4288085770
7.4700203 0.023794889 -1.7461343 4288085770
5.9880295 0.052215815 -1.7574283 4288085770
7.7441025 0.036265135 -1.7438917 4288085770
6.178112 0.061540127 -1.75526 4288085770
8.0381813 0.047770262 -1.7416317 4288085770
6.3972015 0.070915937 -1.7580664 4288085770
8.3572617 0.058318615 -1.7393503 4288085770
6.5962868 0.080254793 -1.7518903 4288085770
8.6993484 0.069906712 -1.7370487 4288085770
6.8293762 0.088654757 -1.7526847 4288085770
9.0514297 0.081511974 -1.7317382 4288085770
7.0884628 0.09809947 -1.753456 4288085770
9.4445114 0.093188286 -1.7283919 4288085770
7.3335495 0.10651851 -1.74824 4288085770
9.9045868 0.1059823 -1.7309867 4288085770
7.6096344 0.11499214 -1.7459968 4288085770
10.40567 0.11784768 -1.7325457 4288085770
7.9077263 0.12350392 -1.7447345 4288085770
10.956757 0.1297996 -1.7340612 4288085770
8.2208099 0.13204193 -1.7424592 4288085770
11.613853 0.14293742 -1.7434837 4288085770
8.5578995 0.13962054 -1.7391629 4288085770
12.310944 0.15514302 -1.7478715 4288085770
8.9359894 0.14826441 -1.7378196 4288085770
13.159042 0.1696074 -1.7611145 4288085770
9.3270798 0.15493846 -1.734475 4288085770
13.889107 0.18186784 -1.7484715 4288085770
9.7841721 0.16272783 -1.7360724 4288085770
14.653183 0.19318604 -1.729799 4288085770
10.263268 0.16955471 -1.7336506 4288085770
15.714264 0.20702505 -1.7318655 4288085770
10.821358 0.17652011 -1.7371597 4288085770
17.142365 0.22350574 -1.7536098 4288085770
11.434456 0.18358088 -1.7406203 4288085770
18.173416 0.2342844 -1.7207035 4288085770
12.16256 0.19084311 -1.7519802 4288085770
12.931664 0.19617558 -1.7573045 4288085770
13.743752 0.20158076 -1.7565911 4288085770
14.47084 0.20383382 -1.7359531 4288085770
15.507942 0.20763063 -1.7380427 4288085770
16.924057 0.21209002 -1.7617999 4288085770
17.980148 0.20991254 -1.7328743 4288085770
19.490242 0.20952892 -1.7295502 4288085770
18.825539 0.44650173 -1.7157298 4288085770
17.572601 0.47336292 -1.7248572 4288085770
16.458672 0.49746084 -1.7298597 4288085770
15.306732 0.51649547 -1.717896 4288085770
14.409805 0.53696346 -1.7187034 4288085770
13.70787 0.56076264 -1.7313358 4288085770
12.990944 0.57953668 -1.7329816 4288085770
12.316017 0.59738302 -1.7295893 4288085770
18.956474 0.93567431 -1.7046506 4288085770
11.685081 0.61330438 -1.7251575 4288085770
17.804581 0.94870794 -1.7176869 4288085770
11.143166 0.63137686 -1.7246461 4288085770
16.824661 0.96403384 -1.7335688 4288085770
10.646233 0.6465261 -1.7230941 4288085770
15.614754 0.95997155 -1.7126559 4288085770
10.175301 0.66271961 -1.7205188 4288085770
14.654839 0.96433365 -1.704519 4288085770
9.7343826 0.67696452 -1.7149163 4288085770
13.90892 0.9760592 -1.7091906 4288085770
9.4244614 0.69743085 -1.7261969 4288085770
13.285011 0.99099135 -1.718753 4288085770
9.0385361 0.71076965 -1.7205452 4288085770
12.645096 0.9998976 -1.7173294 4288085770
8.7536163 0.72927928 -1.7268031 4288085770
12.050179 1.0088804 -1.7158651 4288085770
8.4736938 0.74679732 -1.7320564 4288085770
11.499268 1.0179384 -1.7123612 4288085770
8.1807632 0.7622937 -1.7303214 4288085770
11.024353 1.0301254 -1.7127897 4288085770
7.919838 0.77884483 -1.7315577 4288085770
10.556435 1.0393245 -1.7092117 4288085770
7.6489143 0.79137933 -1.7258025 4288085770
10.139519 1.0496103 -1.7075878 4288085770
7.4559975 0.81104505 -1.7349782 4288085770
9.781601 1.0629961 -1.7099112 4288085770
7.2470703 0.82768416 -1.737168 4288085770
9.430687 1.075394 -1.7092283 4288085770
7.0211487 0.84129524 -1.7323728 4288085770
9.1197662 1.0888596 -1.7115096 4288085770
6.8272285 0.85696006 -1.7335489 4288085770
8.8198471 1.1023448 -1.710781 4288085770
6.6493034 0.87265205 -1.7337109 4288085770
8.5529251 1.1158853 -1.7130228 4288085770
6.4723854 0.88734615 -1.7328717 4288085770
8.3140068 1.1324731 -1.7172399 4288085770
6.3204575 0.90508223 -1.7360104 4288085770
8.0730896 1.1460583 -1.7174584 4288085770
6.1635361 0.91981053 -1.7351536 4288085770
7.8491707 1.1606722 -1.7186617 4288085770
6.0246124 0.93756878 -1.7382807 4288085770
7.6502457 1.1773285 -1.7218429 4288085770
5.8766899 0.9513123 -1.7354156 4288085770
7.4593239 1.1929983 -1.7240168 4288085770
5.7507668 0.96909273 -1.7375312 4288085770
7.2574043 1.2066503 -1.7222003 4288085770
5.6248398 0.98487329 -1.7386464 4288085770
7.0844803 1.2233509 -1.7243583 4288085770
5.4929123 0.99964476 -1.7347671 4288085770
6.9035568 1.2370384 -1.7225231 4288085770
5.3879929 1.0174608 -1.7378639 4288085770
6.7596359 1.2547882 -1.726655 4288085770
5.2710686 1.0322571 -1.7359711 4288085770
6.5927048 1.2684995 -1.7228073 4288085770
5.1831436 1.0521021 -1.7410529 4288085770
6.4557838 1.2862616 -1.7249329 4288085770
5.0842247 1.0679288 -1.7411442 4288085770
6.3188629 1.3020236 -1.7250587 4288085770
4.9762993 1.0827405 -1.7372435 4288085770
6.1939354 1.3198061 -1.7261738 4288085770
4.8913689 1.1015906 -1.7393225 4288085770
6.0600128 1.3345734 -1.7232966 4288085770
4.8224449 1.1224679 -1.7453874 4288085770
5.9470901 1.3523763 -1.724401 4288085770
4.7475166 1.141335 -1.7484577 4288085770
5.8291626 1.3691707 -1.7235097 4288085770
4.66259 1.158186 -1.7465365 4288085770
5.732235 1.3890007 -1.7255998 4288085770
4.6016693 1.1790766 -1.7515943 4288085770
5.6163101 1.4037989 -1.7217067 4288085770
5.525383 1.4226391 -1.7237915 4288085770
5.448452 1.4445029 -1.7268641 4288085770
5.3695259 1.4653633 -1.7299384 4288085770
5.2875977 1.4842191 -1.7300153 4288085770
5.2076721 1.5040781 -1.7300905 4288085770
5.1037331 1.5168977 -1.7211863 4288085770
5.0438042 1.5397903 -1.7242441 4288085770
4.9788704 1.5606747 -1.7253059 4288085770
4.9039459 1.5785426 -1.7223765 4288085770
4.8720055 1.6084822 -1.7314098 4288085770
4.8000755 1.6273553 -1.7274779 4288085770
4.7711372 1.6563001 -1.7355087 4288085770
4.7242012 1.681215 -1.737555 4288085770
4.6782646 1.7051315 -1.7386005 4288085770
4.6363258 1.7310553 -1.7396426 4288085770
4.601387 1.7579901 -1.7436787 4288085770
4.6258278 3.1708407 -1.7239213 4288085770
4.6778336 3.2299237 -1.7218863 4288085770
4.730835 3.2900085 -1.7188504 4288085770
4.7998199 3.3591199 -1.7198018 4288085770
4.869812 3.4282331 -1.7187521 4288085770
4.9647751 3.5123875 -1.7246827 4288085770
5.0277634 3.5764899 -1.7186388 4288085770
5.1217308 3.658643 -1.7205702 4288085770
5.1997147 3.7297704 -1.7165142 4288085770
5.3116684 3.8219538 -1.7204314 4288085770
5.4226189 3.9131358 -1.7213492 4288085770
5.5275726 3.9993081 -1.7192719 4288085770
5.6415253 4.0904961 -1.7181873 4288085770
5.7604675 4.1836915 -1.716099 4288085770
4.6346092 3.5517669 -1.750006 4288085770
5.8894005 4.2828908 -1.7139982 4288085770
4.6926231 3.5998611 -1.7369657 4288085770
6.0403175 4.3941398 -1.7158854 4288085770
4.776619 3.6639986 -1.7319045 4288085770
6.2072182 4.5154152 -1.7197601 4288085770
4.8955688 3.7501936 -1.7348155 4288085770
6.3771172 4.6366968 -1.7216321 4288085770
4.9935532 3.820354 -1.7297432 4288085770
6.5480156 4.7569795 -1.7205036 4288085770
5.1205063 3.9095626 -1.7316481 4288085770
6.7329025 4.8862863 -1.7203642 4288085770
5.2264824 3.9827371 -1.7255695 4288085770
6.9038048 5.0025697 -1.7142355 4288085770
5.3664322 4.0769677 -1.727464 4288085770
7.1246605 5.1519365 -1.7160679 4288085770
5.5053787 4.1691966 -1.7263592 4288085770
7.3415222 5.2952967 -1.7149031 4288085770
5.6433296 4.2584248 -1.723255 4288085770
7.5903549 5.4587107 -1.7177132 4288085770
5.7932739 4.353672 -1.7211413 4288085770
7.8861389 5.6492033 -1.7244862 4288085770
5.9651985 4.4609561 -1.7230102 4288085770
8.118988 5.7965913 -1.7153089 4288085770
6.1511078 4.5762639 -1.7248684 4288085770
8.434761 5.9951181 -1.7200662 4288085770
6.344017 4.693583 -1.7267206 4288085770
8.8104858 6.2297435 -1.7307765 4288085770
6.5339317 4.8058987 -1.7255749 4288085770
9.1512375 6.438313 -1.7305142 4288085770
6.735836 4.9242334 -1.7234198 4288085770
9.5389404 6.6739602 -1.7342148 4288085770
6.9467354 5.0455837 -1.7212574 4288085770
9.910675 6.8945823 -1.7289276 4288085770
7.1786156 5.1769695 -1.7200782 4288085770
10.262428 7.0981717 -1.716656 4288085770
7.4124985 5.3073587 -1.7178974 4288085770
10.773033 7.4000254 -1.7242597 4288085770
7.7023315 5.4708405 -1.7226725 4288085770
11.270653 7.6878581 -1.7238731 4288085770
8.0041618 5.636343 -1.7274379 4288085770
11.797241 7.98874 -1.7214638 4288085770
8.2530365 5.7657585 -1.7192442 4288085770
8.6038208 5.9553423 -1.7259707 4288085770
8.9666138 6.1499472 -1.7316878 4288085770
9.3403854 6.3445706 -1.7353956 4288085770
9.7611313 6.5642719 -1.7420661 4288085770
10.145912 6.7549152 -1.7377641 4288085770
10.562675 6.9596119 -1.7354367 4288085770
11.012398 7.1803637 -1.7340832 4288085770
11.516106 7.4262061 -1.7356863 4288085770
12.077744 7.6991448 -1.7402437 4288085770
12.62941 7.9580679 -1.7378076 4288085770
19.273819 -1.6325393 -1.7331824 4288085770
18.432983 -1.6729507 -1.7369131 4288085770
17.815186 -1.7249951 -1.7564439 4288085770
17.238388 -1.7719703 -1.7759396 4288085770
16.483528 -1.7942357 -1.7735989 4288085770
15.708641 -1.8055344 -1.7662786 4288085770
15.039764 -1.817656 -1.7628647 4288085770
14.471901 -1.8366127 -1.7683597 4288085770
13.946037 -1.8524976 -1.7738183 4288085770
13.494179 -1.8722615 -1.7852106 4288085770
13.036308 -1.8850336 -1.7926102 4288085770
19.587929 -2.841104 -1.7475717 4288085770
12.452385 -1.8740101 -1.7791272 4288085770
18.552956 -2.7968378 -1.7504951 4288085770
11.981483 -1.8738017 -1.7775415 4288085770
17.702026 -2.7682676 -1.7642518 4288085770
11.482559 -1.8636379 -1.7689832 4288085770
16.926094 -2.7415719 -1.7769417 4288085770
11.060654 -1.8603468 -1.7673551 4288085770
15.993088 -2.6811323 -1.7677797 4288085770
10.671761 -1.8570013 -1.7676979 4288085770
15.220116 -2.6364269 -1.767472 4288085770
10.291847 -1.8506403 -1.7660338 4288085770
14.525154 -2.5965929 -1.7710943 4288085770
9.947937 -1.8462195 -1.7673371 4288085770
13.918205 -2.5636125 -1.7766371 4288085770
9.6230392 -1.8407683 -1.7696239 4288085770
13.380272 -2.5365186 -1.7851175 4288085770
9.3011246 -1.8323107 -1.767909 4288085770
12.844322 -2.5044198 -1.7905976 4288085770
9.0152206 -1.8267941 -1.7721616 4288085770
12.253342 -2.4564085 -1.7841306 4288085770
8.7353134 -1.8192673 -1.7744094 4288085770
11.693352 -2.4063458 -1.7756367 4288085770
8.4724045 -1.8117118 -1.7766422 4288085770
11.19838 -2.3641748 -1.7710835 4288085770
8.2194977 -1.8031402 -1.7788666 4288085770
10.779427 -2.3328805 -1.7754602 4288085770
7.9585762 -1.7905803 -1.7780991 4288085770
10.363472 -2.2965794 -1.7748358 4288085770
7.7356758 -1.7839589 -1.7832963 4288085770
9.9565125 -2.2582622 -1.771204 4288085770
7.5207634 -1.7743239 -1.7864875 4288085770
9.6065674 -2.2278519 -1.7735198 4288085770
7.3108559 -1.7646804 -1.789674 4288085770
9.259613 -2.1954355 -1.7738335 4288085770
7.091938 -1.7510509 -1.7898698 4288085770
8.9386673 -2.1649766 -1.7761236 4288085770
6.8840141 -1.736403 -1.7900562 4288085770
8.6457291 -2.1374712 -1.7793885 4288085770
6.701107 -1.7267141 -1.7942193 4288085770
8.3527832 -2.1059651 -1.7796544 4288085770
6.5111847 -1.7120361 -1.7943897 4288085770
8.0798302 -2.076426 -1.7809023 4288085770
6.3172569 -1.6943645 -1.7925647 4288085770
7.8308945 -2.0498466 -1.784128 4288085770
6.1623421 -1.684629 -1.797703 4288085770
7.5779419 -2.0212736 -1.7843579 4288085770
5.9954224 -1.6699128 -1.7998533 4288085770
7.3540077 -1.9956532 -1.7885616 4288085770
5.8375053 -1.6561818 -1.8009955 4288085770
7.1350708 -1.9690247 -1.790761 4288085770
5.6785812 -1.639452 -1.8011394 4288085770
6.9201279 -1.9423881 -1.7929569 4288085770
5.5206528 -1.6217194 -1.800283 4288085770
6.7161903 -1.9157338 -1.7941433 4288085770
5.3817368 -1.6079578 -1.8024082 4288085770
6.5392609 -1.8940353 -1.7993045 4288085770
5.2458115 -1.5921893 -1.8035316 4288085770
6.3313065 -1.8623853 -1.7954959 4288085770
5.1118889 -1.5764179 -1.8046534 4288085770
6.143364 -1.833704 -1.7946688 4288085770
4.9779663 -1.5596466 -1.8047754 4288085770
5.9794312 -1.8099833 -1.7978193 4288085770
4.8500404 -1.5418644 -1.8038925 4288085770
5.8084869 -1.7822723 -1.7969769 4288085770
4.7321205 -1.5270662 -1.8059999 4288085770
5.6585541 -1.7595286 -1.8001146 4288085770
5.5066147 -1.7337871 -1.8012552 4288085770
5.3556747 -1.7080431 -1.8003949 4288085770
5.2317505 -1.6882572 -1.806509 4288085770
5.0818024 -1.6585102 -1.8026491 4288085770
4.9518661 -1.6347313 -1.8027697 4288085770
4.8179207 -1.6079593 -1.800895 4288085770
4.7029877 -1.5851564 -1.8030022 4288085770
4.6019478 0.40602851 -1.7529407 4288085770
4.7280312 0.41922998 -1.753842 4288085770
4.8401146 0.43141079 -1.7497547 4288085770
4.9681969 0.44361639 -1.748654 4288085770
5.1002769 0.45582914 -1.7465498 4288085770
5.2413597 0.4680562 -1.7454385 4288085770
5.3884392 0.4812932 -1.7433225 4288085770
5.5525246 0.49455714 -1.7441921 4288085770
4.6486473 0.4540627 -1.7559378 4288085770
5.7136002 0.50681758 -1.7420642 4288085770
4.7617302 0.46324539 -1.7508485 4288085770
5.8896866 0.5191021 -1.7409235 4288085770
4.9118233 0.47348475 -1.7557287 4288085770
6.0807686 0.53240967 -1.7427709 4288085770
5.0359116 0.4816854 -1.75063 4288085770
6.2578506 0.5436976 -1.7376294 4288085770
5.1769981 0.48991275 -1.748517 4288085770
6.4799347 0.55805564 -1.7404512 4288085770
5.3300896 0.4991591 -1.7483945 4288085770
6.7010155 0.57141399 -1.7392739 4288085770
5.4881744 0.50741386 -1.7472675 4288085770
6.9350967 0.58479309 -1.7390856 4288085770
5.6662674 0.51670027 -1.7491241 4288085770
7.1731758 0.59717965 -1.7368935 4288085770
5.8263512 0.52395988 -1.743995 4288085770
7.4322586 0.60960054 -1.734684 4288085770
6.0304489 0.53328729 -1.74883 4288085770
7.6903419 0.62202096 -1.7304757 4288085770
6.2085342 0.54057646 -1.7446861 4288085770
7.9864197 0.63550234 -1.7292359 4288085770
6.4196243 0.54791808 -1.7435145 4288085770
8.3075027 0.64902413 -1.7289753 4288085770
6.6387177 0.55527186 -1.7443364 4288085770
8.635582 0.66155863 -1.7257085 4288085770
6.8848114 0.5636692 -1.7471362 4288085770
8.9996643 0.67515182 -1.7234124 4288085770
7.0988998 0.5690186 -1.7399615 4288085770
9.3897476 0.6887877 -1.7210945 4288085770
7.3519936 0.57442975 -1.7367544 4288085770
9.7718277 0.69941318 -1.7127821 4288085770
7.6200867 0.57986546 -1.7345347 4288085770
10.261902 0.7162106 -1.7163824 4288085770
7.9021835 0.58532405 -1.7323035 4288085770
10.790977 0.73207211 -1.7189496 4288085770
8.2092743 0.59082365 -1.7300515 4288085770
11.334068 0.74595916 -1.7155044 4288085770
8.5273666 0.59434164 -1.7267895 4288085770
11.972137 0.76299858 -1.7199816 4288085770
8.8904648 0.59893155 -1.7274904 4288085770
12.681221 0.78115535 -1.7223998 4288085770
9.2405624 0.60050392 -1.720201 4288085770
13.420296 0.79636323 -1.7207922 4288085770
9.6746597 0.60520923 -1.7228429 4288085770
14.15937 0.80857563 -1.7091835 4288085770
10.115761 0.60692787 -1.7214779 4288085770
15.100441 0.82711363 -1.709409 4288085770
10.631866 0.61076677 -1.7260512 4288085770
16.323524 0.85310662 -1.7264025 4288085770
11.151962 0.61061502 -1.7246195 4288085770
17.507599 0.87204373 -1.7254261 4288085770
11.732071 0.61156094 -1.7251384 4288085770
18.734673 0.88505781 -1.7104114 4288085770
12.42617 0.61269045 -1.7315624 4288085770
13.186287 0.61192799 -1.7389306 4288085770
13.867401 0.60404503 -1.726362 4288085770
14.627518 0.59329093 -1.7157259 4288085770
15.606636 0.58688927 -1.7189096 4288085770
16.843758 0.58090448 -1.7348783 4288085770
17.918884 0.56166863 -1.7199765 4288085770
19.230011 0.54081607 -1.7118777 4288085770
15.314301 -7.7848883 -1.8897356 4293729569
15.056015 -7.541316 -1.8970948 4293729569
14.885818 -7.3406105 -1.9133577 4288085770
14.733604 -7.1508713 -1.9276 4288085770
14.601448 -6.9751034 -1.9428176 4288085770
14.417221 -6.7724113 -1.9480935 4288085770
14.089882 -6.5109377 -1.9325196 4288085770
13.851631 -6.292325 -1.9258485 4288085770
13.642395 -6.0896664 -1.9201444 4288085770
13.432175 -5.8910074 -1.9124389 4288085770
13.248978 -5.7063046 -1.9047036 4288085770
13.064766 -5.522604 -1.8959684 4288085770
12.895584 -5.3478789 -1.8872159 4288085770
12.751419 -5.1861119 -1.8794357 4288085770
12.57724 -5.0163913 -1.8666841 4288085770
12.410049 -4.8496585 -1.8519254 4288085770
12.290909 -4.7038512 -1.8421158 4288085770
12.192795 -4.5690112 -1.8352827 4288085770
12.138695 -4.4501023 -1.8314053 4288085770
12.090607 -4.3341842 -1.8275214 4288085770
11.998497 -4.2063317 -1.8166795 4288085770
12.011452 -4.1123176 -1.8177344 4288085770
11.98838 -4.0063586 -1.8138251 4288085770
11.967308 -3.9023952 -1.8089132 4288085770
11.975258 -3.8083863 -1.8059723 4288085770
11.986206 -3.715373 -1.8030287 4288085770
12.01918 -3.6303248 -1.8010629 4288085770
12.077141 -3.5492382 -1.8020756 4288085770
12.11911 -3.4641738 -1.7981035 4288085770
12.163071 -3.3801064 -1.7941294 4288085770
12.248055 -3.3069754 -1.7951163 4288085770
12.341042 -3.2348318 -1.7950969 4288085770
12.45504 -3.1666546 -1.796059 4288085770
12.556023 -3.0934958 -1.7940345 4288085770
12.673012 -3.0233126 -1.7929962 4288085770
12.814003 -2.9570913 -1.7939368 4288085770
13.008018 -2.9007888 -1.7998302 4288085770
13.161011 -2.8325462 -1.7977638 4288085770
13.296997 -2.7603307 -1.7937133 4288085770
13.436981 -2.6881056 -1.78666 4288085770
13.603966 -2.6178389 -1.781585 4288085770
13.840973 -2.5584641 -1.7834494 4288085770
13.988953 -2.4832244 -1.7733929 4288085770
14.249954 -2.4228101 -1.7742404 4288085770
14.501945 -2.358408 -1.7710978 4288085770
14.771942 -2.2949767 -1.7689413 4288085770
15.111961 -2.2384362 -1.7717272 4288085770
15.489983 -2.1828356 -1.7754837 4288085770
15.859985 -2.1212449 -1.7752513 4288085770
16.424034 -2.0793533 -1.7918582 4288085770
16.943054 -2.0245285 -1.7995089 4288085770
17.292015 -1.9459634 -1.7873055 4288085770
17.608971 -1.8604455 -1.7681319 4288085770
18.003937 -1.7788038 -1.7528968 4288085770
18.511917 -1.7039857 -1.745572 4288085770
19.096893 -1.6300454 -1.739189 4288085770
19.443123 0.86317289 -1.7026509 4288085770
18.399147 0.91348982 -1.7103616 4288085770
17.542183 0.96509922 -1.7259563 4288085770
16.731209 1.0107872 -1.7355157 4288085770
15.737259 1.039209 -1.7171712 4288085770
14.903305 1.0688791 -1.7067277 4288085770
14.243347 1.1038176 -1.7071805 4288085770
13.671394 1.1398954 -1.7095791 4288085770
13.190437 1.1771132 -1.7179222 4288085770
12.701492 1.209325 -1.7192646 4288085770
12.214546 1.2385442 -1.7156026 4288085770
19.04348 1.9325113 -1.6890635 4288085770
11.738609 1.2637843 -1.7089294 4288085770
18.09256 1.9459835 -1.6896762 4288085770
11.343666 1.2911483 -1.7082078 4288085770
17.381622 1.9738299 -1.7011538 4288085770
11.002724 1.3225952 -1.7114565 4288085770
14.99189 1.8051468 -1.5434732 4293729569
10.655777 1.3500371 -1.7097048 4288085770
14.9589 1.8920314 -1.6055887 4293729569
10.347832 1.3785394 -1.7099296 4288085770
14.929893 1.979924 -1.6657028 4288085770
10.062889 1.4070768 -1.7121402 4288085770
14.494957 2.0152097 -1.680015 4288085770
9.7829514 1.4336261 -1.7103455 4288085770
13.968025 2.0323632 -1.6783653 4288085770
9.5200043 1.4602015 -1.70954 4288085770
12.569244 1.9192212 -1.5701227 4293729569
9.2800674 1.4878138 -1.7087213 4288085770
12.208313 1.9456329 -1.5763789 4293729569
9.0851212 1.5184926 -1.7138778 4288085770
12.231308 2.0286183 -1.6264551 4293729569
8.8471909 1.5411118 -1.7090526 4288085770
12.24231 2.1095862 -1.6745371 4288085770
8.6602325 1.5708059 -1.7112029 4288085770
11.987358 2.147162 -1.6867388 4288085770
8.467308 1.5964947 -1.7093527 4288085770
11.667427 2.1706452 -1.6869664 4288085770
8.3023567 1.6262233 -1.7124892 4288085770
11.380478 2.1971793 -1.6891767 4288085770
8.1514168 1.6559752 -1.7146173 4288085770
11.07756 2.2166934 -1.6853892 4288085770
7.9804764 1.6807001 -1.7117525 4288085770
10.820625 2.2422767 -1.6865796 4288085770
7.8295364 1.7074549 -1.7108772 4288085770
10.570679 2.267873 -1.6857653 4288085770
7.6855965 1.734221 -1.7099975 4288085770
10.328743 2.2914829 -1.683944 4288085770
7.5686455 1.7670268 -1.713107 4288085770
10.118797 2.3201416 -1.6851079 4288085770
7.4337006 1.7938081 -1.7112218 4288085770
9.9248505 2.3498266 -1.6852632 4288085770
7.3387527 1.8276469 -1.7163192 4288085770
9.7339096 2.3775165 -1.6854146 4288085770
7.2158127 1.8544476 -1.7144266 4288085770
9.5469666 2.4052145 -1.6835632 4288085770
7.1218643 1.887291 -1.7165222 4288085770
9.3780212 2.4349406 -1.6827029 4288085770
7.0319138 1.9201398 -1.7196155 4288085770
9.2140732 2.4636748 -1.6818385 4288085770
6.9029808 1.9419365 -1.7117212 4288085770
9.0631256 2.4944296 -1.6809682 4288085770
6.8410225 1.9798272 -1.7178024 4288085770
8.9271774 2.5262077 -1.6810896 4288085770
6.729084 2.0046496 -1.7119008 4288085770
8.8122253 2.5640182 -1.6822042 4288085770
6.6551361 2.0375259 -1.7129842 4288085770
8.6932755 2.5978224 -1.6833173 4288085770
6.6041794 2.0764341 -1.7190597 4288085770
8.5833206 2.6336422 -1.683427 4288085770
6.497242 2.0992675 -1.710153 4288085770
8.4843597 2.6714797 -1.6835319 4288085770
6.4332886 2.1341596 -1.7112323 4288085770
8.3834 2.7093136 -1.6836379 4288085770
6.3683357 2.1670523 -1.7103103 4288085770
8.2844467 2.7441528 -1.6817398 4288085770
6.3053856 2.1999481 -1.7093871 4288085770
8.2244759 2.7910488 -1.6858302 4288085770
6.2494316 2.2348554 -1.7084614 4288085770
8.1285248 2.8248937 -1.6829292 4288085770
6.2084732 2.2727838 -1.7105299 4288085770
8.0725479 2.8717971 -1.686017 4288085770
6.1645126 2.311708 -1.7116013 4288085770
8.0015831 2.9146802 -1.6851101 4288085770
6.1215591 2.3486342 -1.7126701 4288085770
7.9556122 2.9626002 -1.6871934 4288085770
6.074604 2.3845568 -1.7107403 4288085770
7.9026375 3.0095105 -1.6882796 4288085770
6.0216446 2.4184713 -1.706812 4288085770
7.8596611 3.0594366 -1.6893631 4288085770
5.9856873 2.4574108 -1.7058787 4288085770
7.8296852 3.1123817 -1.6924419 4288085770
5.940731 2.4923382 -1.7019469 4288085770
7.786705 3.1613095 -1.6915244 4288085770
5.9157639 2.5352941 -1.7020111 4288085770
7.7577209 3.2152579 -1.6926038 4288085770
5.8838043 2.5742407 -1.7000755 4288085770
7.7337341 3.2702146 -1.6936812 4288085770
5.8558426 2.6151938 -1.6981398 4288085770
7.702755 3.3231628 -1.6917609 4288085770
5.8458672 2.6621728 -1.6991991 4288085770
7.6907616 3.3821387 -1.6928355 4288085770
5.8348961 2.7091498 -1.7002594 4288085770
7.6817703 3.4441192 -1.6939113 4288085770
5.8189278 2.7541223 -1.6983207 4288085770
7.6807709 3.5081124 -1.6949848 4288085770
5.8039551 2.8000963 -1.6963825 4288085770
7.6717758 3.5690954 -1.6940597 4288085770
5.803978 2.8510911 -1.6974405 4288085770
7.6787682 3.6361015 -1.6951317 4288085770
5.8099937 2.9050946 -1.6994981 4288085770
7.6867561 3.7051101 -1.695205 4288085770
5.8299942 2.9661188 -1.7035544 4288085770
7.703743 3.7781329 -1.6962769 4288085770
5.8280182 3.0171137 -1.7016139 4288085770
7.7197266 3.8501554 -1.6953489 4288085770
5.8570137 3.0831511 -1.7066705 4288085770
7.7467041 3.928195 -1.6954207 4288085770
5.8710213 3.1411695 -1.7067279 4288085770
7.7706871 4.0042305 -1.6944925 4288085770
5.8940277 3.2042015 -1.7077852 4288085770
7.817646 4.0922995 -1.6965632 4288085770
5.9170303 3.2662344 -1.7078418 4288085770
7.8406258 4.1683369 -1.6926359 4288085770
5.9390297 3.3292665 -1.7069001 4288085770
7.9085732 4.2674389 -1.695706 4288085770
5.9840164 3.4043298 -1.7119573 4288085770
7.9685211 4.3625302 -1.6967769 4288085770
6.0230064 3.4753871 -1.7130141 4288085770
8.0554504 4.472662 -1.7008474 4288085770
6.0639915 3.5484488 -1.7130721 4288085770
8.1103973 4.5677495 -1.6979218 4288085770
6.0839882 3.6114821 -1.708132 4288085770
8.1933289 4.6778774 -1.6989955 4288085770
6.1289711 3.6875515 -1.7071911 4288085770
8.2832413 4.7930183 -1.6990703 4288085770
6.1989326 3.7766557 -1.711249 4288085770
8.3861542 4.9141788 -1.7001442 4288085770
6.2608986 3.8627501 -1.7123089 4288085770
8.4830627 5.0343323 -1.6982208 4288085770
6.3058739 3.9388232 -1.7073685 4288085770
8.6079483 5.1695271 -1.7002969 4288085770
6.3818283 4.0319386 -1.7094278 4288085770
8.7698059 5.326777 -1.7063748 4288085770
6.4677658 4.1320715 -1.7114884 4288085770
8.9136658 5.4760046 -1.7064546 4288085770
6.562706 4.2382159 -1.7155508 4288085770
9.04953 5.6202207 -1.7045351 4288085770
6.6496429 4.3393526 -1.7146127 4288085770
9.2253647 5.7904978 -1.7056195 4288085770
6.7675552 4.4595327 -1.7196767 4288085770
9.4371567 5.98283 -1.7107064 4288085770
6.8614883 4.5656819 -1.7177405 4288085770
9.670929 6.1901951 -1.7167966 4288085770
6.9694061 4.6808519 -1.7168058 4288085770
9.9266815 6.4115953 -1.7238892 4288085770
7.0943069 4.8060489 -1.7168721 4288085770
10.129478 6.6029229 -1.7189823 4288085770
7.2052193 4.9232273 -1.7129384 4288085770
10.357239 6.8102903 -1.7140781 4288085770
7.3411064 5.0574427 -1.7120084 4288085770
10.648949 7.0597529 -1.7161814 4288085770
7.4899788 5.198679 -1.7110785 4288085770
10.903679 7.2861657 -1.7092825 4288085770
7.6488495 5.3469315 -1.7101507 4288085770
11.269302 7.5857458 -1.7133968 4288085770
7.8656578 5.533267 -1.7182297 4288085770
11.614944 7.8732991 -1.711511 4288085770
8.0424995 5.6935501 -1.716305 4288085770
8.2323265 5.8618536 -1.7133818 4288085770
8.5010834 6.0842743 -1.7214702 4288085770
8.7738266 6.3077025 -1.727558 4288085770
9.0345764 6.5241175 -1.727646 4288085770
9.319313 6.7565718 -1.727738 4288085770
9.5940475 6.9830146 -1.7228303 4288085770
9.9097366 7.2355213 -1.7199271 4288085770
10.239418 7.4970522 -1.7150264 4288085770
10.596069 7.7766271 -1.7101301 4288085770
18.41095 -0.85237074 -1.7244908 4288085770
17.48111 -0.89089274 -1.7408947 4288085770
16.484261 -0.91450095 -1.738346 4288085770
15.576393 -0.93596816 -1.7377566 4288085770
14.763527 -0.95328307 -1.7381266 4288085770
14.018646 -0.96748805 -1.7374675 4288085770
13.506798 -0.99134207 -1.7586875 4288085770
12.866905 -1.0003781 -1.7589836 4288085770
19.252769 -1.5060439 -1.7214221 4288085770
12.211014 -1.0024288 -1.7492944 4288085770
18.049843 -1.4849939 -1.7270179 4288085770
11.630119 -1.0043626 -1.7435699 4288085770
17.194954 -1.4844084 -1.7544266 4288085770
11.106216 -1.0062072 -1.7398181 4288085770
16.126015 -1.4561305 -1.7499658 4288085770
10.665329 -1.009927 -1.7430249 4288085770
15.174065 -1.4296646 -1.7454475 4288085770
10.231438 -1.0116305 -1.7432303 4288085770
14.35614 -1.4089899 -1.7478591 4288085770
9.8385391 -1.0122712 -1.7454176 4288085770
13.690224 -1.3960812 -1.7591906 4288085770
9.44664 -1.0099039 -1.7426075 4288085770
13.13932 -1.3889942 -1.7764611 4288085770
9.1157379 -1.0104482 -1.7477653 4288085770
12.388359 -1.3551919 -1.7618546 4288085770
8.795845 -1.0089707 -1.7499199 4288085770
11.744408 -1.3272216 -1.7511914 4288085770
8.488945 -1.0064726 -1.7520695 4288085770
11.203484 -1.3070974 -1.7504705 4288085770
8.1910362 -1.0019579 -1.7522168 4288085770
10.69355 -1.2849209 -1.7477373 4288085770
7.9231377 -0.99839759 -1.7553488 4288085770
10.231621 -1.2656691 -1.7469782 4288085770
7.6892395 -0.99778795 -1.7624614 4288085770
9.8086853 -1.2463555 -1.7472006 4288085770
7.4403343 -0.99219608 -1.7645867 4288085770
9.4307632 -1.2299728 -1.7503983 4288085770
7.2044334 -0.98658204 -1.7657057 4288085770
9.0798492 -1.2135479 -1.7545836 4288085770
6.9935265 -0.98193288 -1.7708118 4288085770
8.7489166 -1.1970885 -1.7567593 4288085770
6.7826195 -0.97527981 -1.77292 4288085770
8.4279938 -1.1796112 -1.7569313 4288085770
6.5987167 -0.97058678 -1.7780133 4288085770
8.1340752 -1.1630919 -1.7590895 4288085770
6.3908043 -0.96092343 -1.7751234 4288085770
7.8751564 -1.1495194 -1.764228 4288085770
6.2238998 -0.95620441 -1.7812086 4288085770
7.6222343 -1.1339359 -1.7673658 4288085770
6.0499916 -0.94749141 -1.7833016 4288085770
7.3573074 -1.1153657 -1.7655122 4288085770
5.8410721 -0.93382263 -1.7744162 4288085770
7.139389 -1.1017282 -1.7716316 4288085770
5.6771545 -0.92409134 -1.7745054 4288085770
6.9194679 -1.0860903 -1.7737536 4288085770
5.5302467 -0.91633606 -1.7775844 4288085770
6.7195473 -1.0724218 -1.7778642 4288085770
5.373333 -0.90559244 -1.7766714 4288085770
6.4826126 -1.0507998 -1.7710007 4288085770
5.2384186 -0.89681888 -1.7797459 4288085770
6.294693 -1.0351105 -1.7731079 4288085770
5.1045113 -0.8880415 -1.7818198 4288085770
6.1057701 -1.01842 -1.7732164 4288085770
4.9665871 -0.87726712 -1.7808976 4288085770
5.9368401 -1.0036986 -1.7753133 4288085770
4.844677 -0.86747241 -1.7839671 4288085770
5.7669182 -0.98697734 -1.7754129 4288085770
4.7437706 -0.86064768 -1.7910235 4288085770
5.6009979 -0.97024846 -1.7745109 4288085770
4.634861 -0.85083294 -1.7950869 4288085770
5.4420738 -0.95350814 -1.7736052 4288085770
5.3061523 -0.93973684 -1.7776858 4288085770
5.1662331 -0.92396712 -1.7777704 4288085770
5.0423088 -0.91017485 -1.780845 4288085770
4.8913765 -0.89041591 -1.7749392 4288085770
4.7854614 -0.877599 -1.7810045 4288085770
4.6735458 -0.86378622 -1.7830738 4288085770
4.6171875 0.99359477 -1.747913 4288085770
4.7262688 1.0077695 -1.7448951 4288085770
4.8443451 1.0229572 -1.7428752 4288085770
4.9554291 1.0361391 -1.7368553 4288085770
5.0855026 1.0523449 -1.7358323 4288085770
5.2025833 1.0645379 -1.7288092 4288085770
5.3516617 1.0817704 -1.730781 4288085770
5.50774 1.1000156 -1.7317518 4288085770
4.6739922 0.97964191 -1.7518973 4288085770
5.6498146 1.1132473 -1.7257212 4288085770
4.7860756 0.98882306 -1.7478718 4288085770
5.8298912 1.1325268 -1.7296849 4288085770
4.9051628 0.99901366 -1.7448452 4288085770
5.9999695 1.1487985 -1.7276481 4288085770
5.02425 1.0072072 -1.7398158 4288085770
6.1870422 1.1670945 -1.7276082 4288085770
5.1403389 1.0143986 -1.7327863 4288085770
6.3711166 1.1823902 -1.7245654 4288085770
5.2934227 1.0266362 -1.7357502 4288085770
6.5731926 1.1997105 -1.7245191 4288085770
5.4405098 1.0358694 -1.7347125 4288085770
6.7852669 1.2170483 -1.7234691 4288085770
5.6035995 1.0471255 -1.7356718 4288085770
7.0163383 1.2364154 -1.7234153 4288085770
5.7526894 1.0543659 -1.7316309 4288085770
7.2634125 1.2558056 -1.7253557 4288085770
5.9197731 1.0636312 -1.7305862 4288085770
7.5114861 1.273201 -1.7242934 4288085770
6.1098633 1.074928 -1.733536 4288085770
7.765564 1.2896104 -1.7202275 4288085770
6.2889519 1.0832154 -1.7304858 4288085770
8.0396385 1.3070492 -1.7181561 4288085770
6.500042 1.094546 -1.7334285 4288085770
8.3267136 1.3245088 -1.7160803 4288085770
6.6961327 1.1008593 -1.7313697 4288085770
8.6467896 1.3440204 -1.7149955 4288085770
6.90522 1.1091919 -1.7303091 4288085770
8.9618683 1.3595278 -1.7109071 4288085770
7.1183167 1.114534 -1.7272432 4288085770
9.3129425 1.3780903 -1.7088102 4288085770
7.3364105 1.1198852 -1.7231756 4288085770
9.7120132 1.3997251 -1.7107005 4288085770
7.5815048 1.1252761 -1.7220986 4288085770
10.151077 1.424421 -1.7145807 4288085770
7.835598 1.1306827 -1.7200184 4288085770
10.591141 1.4441267 -1.712454 4288085770
8.1086922 1.1361169 -1.7199315 4288085770
11.063217 1.4638824 -1.7113161 4288085770
8.4017944 1.1415846 -1.7188377 4288085770
11.591293 1.4867271 -1.7111626 4288085770
8.6818848 1.1420369 -1.7137419 4288085770
12.217346 1.5167184 -1.718984 4288085770
9.0189819 1.1465729 -1.7146312 4288085770
12.849411 1.5417273 -1.7207969 4288085770
9.3430939 1.147095 -1.71052 4288085770
13.446487 1.5566965 -1.710609 4288085770
9.7391815 1.1517227 -1.7133888 4288085770
14.118561 1.574785 -1.7013988 4288085770
10.133286 1.1533515 -1.7132543 4288085770
14.906624 1.5990491 -1.700156 4288085770
10.545395 1.1520106 -1.7121094 4288085770
15.911674 1.637643 -1.7128555 4288085770
11.004501 1.1517428 -1.7129498 4288085770
17.173698 1.6896324 -1.7384819 4288085770
11.510605 1.1515474 -1.7157732 4288085770
17.99279 1.6909845 -1.7091981 4288085770
12.034706 1.1473851 -1.7155854 4288085770
19.169853 1.7158809 -1.7028193 4288085770
12.638824 1.1453432 -1.721372 4288085770
13.260941 1.1373376 -1.7221445 4288085770
13.84407 1.1212835 -1.71192 4288085770
14.573189 1.1094496 -1.7126495 4288085770
15.399323 1.096766 -1.7173437 4288085770
16.612434 1.100662 -1.7529235 4288085770
17.479584 1.0710648 -1.7425809 4288085770
18.254745 1.0283403 -1.7172531 4288085770
19.393906 0.9941709 -1.7138081 4288085770
10.537788 -7.6735096 -0.89037377 4293729569
10.551628 -7.6635761 -0.28938174 4293729569
10.54995 -7.6995983 -0.9583258 4293729569
10.544762 -7.6686916 -0.35537165 4293729569
10.522064 -7.6947479 -1.0233375 4293729569
10.510193 -7.6978722 -1.0903322 4293729569
10.537361 -7.7259378 -1.1582761 4293729569
10.504105 -7.6530676 -0.55139512 4293729569
10.532494 -7.728056 -1.2262698 4293729569
10.487206 -7.6381989 -0.61641872 4293729569
10.486565 -7.6972284 -1.2883271 4293729569
10.500336 -7.6422815 -0.68140382 4293729569
10.757782 -7.7527962 -1.9151092 4293729569
10.372414 -7.455409 -1.9086776 4288085770
9.9730225 -7.1490335 -1.8972651 4288085770
9.6296921 -6.8795776 -1.8907787 4288085770
9.3183975 -6.631073 -1.8852508 4288085770
9.0581665 -6.4174919 -1.8836536 4288085770
8.8309555 -6.2258635 -1.8860127 4288085770
8.5787277 -6.016263 -1.8804077 4288085770
8.3685455 -5.8356009 -1.8787456 4288085770
8.1303215 -5.6359739 -1.869122 4288085770
11.693832 -7.789361 -1.9136583 4293729569
7.9351501 -5.464282 -1.8644421 4288085770
11.403534 -7.5388403 -1.9191277 4293729569
7.7469864 -5.2985811 -1.8597511 4288085770
11.125252 -7.2972956 -1.9225799 4288085770
7.6058731 -5.1628156 -1.8619994 4288085770
10.873001 -7.0737104 -1.9269967 4288085770
7.4647598 -5.0270472 -1.8622478 4288085770
10.615738 -6.8461237 -1.9254221 4288085770
7.3416672 -4.9022508 -1.8634741 4288085770
10.293411 -6.5816202 -1.9099257 4288085770
7.2355881 -4.7884321 -1.867678 4288085770
9.8930054 -6.2712145 -1.8775263 4288085770
7.1265068 -4.6726146 -1.8688864 4288085770
9.5987244 -6.0276585 -1.8579901 4288085770
7.0074158 -4.5508027 -1.8641076 4288085770
9.3845139 -5.8349962 -1.8513499 4288085770
6.9073448 -4.440968 -1.8643045 4288085770
9.1993332 -5.6602907 -1.846673 4288085770
6.8102722 -4.3331256 -1.8624974 4288085770
9.0311737 -5.4965591 -1.8429741 4288085770
6.6961861 -4.2143025 -1.8557134 4288085770
8.8820343 -5.3447995 -1.8412509 4288085770
6.6071243 -4.1124439 -1.8518951 4288085770
8.7589264 -5.209002 -1.8414947 4288085770
6.5571022 -4.0325375 -1.8570303 4288085770
8.658844 -5.0881724 -1.8447083 4288085770
6.4680405 -3.930675 -1.8502125 4288085770
8.555748 -4.9643426 -1.8449278 4288085770
6.4100113 -3.8457732 -1.8503585 4288085770
8.4676743 -4.8494911 -1.8461289 4288085770
6.3569832 -3.7648635 -1.8504969 4288085770
8.3875961 -4.7406282 -1.8483182 4288085770
6.2969551 -3.6809607 -1.8476427 4288085770
8.3125305 -4.6357541 -1.8484999 4288085770
6.2659492 -3.612021 -1.8507556 4288085770
8.2374649 -4.5298781 -1.8476835 4288085770
6.2009125 -3.5261188 -1.8439062 4288085770
8.1543922 -4.4210086 -1.8428748 4288085770
6.1608963 -3.4521866 -1.8430305 4288085770
8.0803299 -4.3171282 -1.8400553 4288085770
6.1328964 -3.3852372 -1.8431399 4288085770
8.0022659 -4.2122488 -1.8342391 4288085770
6.094883 -3.3132992 -1.8402606 4288085770
7.9472198 -4.1183381 -1.8313987 4288085770
6.0668755 -3.2463465 -1.8383704 4288085770
7.9101906 -4.0344033 -1.8315369 4288085770
6.0658989 -3.1933613 -1.8434497 4288085770
7.8631516 -3.9464798 -1.8286847 4288085770
6.0218849 -3.1184249 -1.8355774 4288085770
7.8321266 -3.8665318 -1.8268151 4288085770
6.011898 -3.0614467 -1.8356663 4288085770
7.8131142 -3.7935686 -1.8269308 4288085770
5.97789 -2.993494 -1.8277801 4288085770
7.7770805 -3.7116241 -1.8220663 4288085770
5.9638977 -2.9345188 -1.8258737 4288085770
7.7640762 -3.6396489 -1.821179 4288085770
5.9849319 -2.8905005 -1.8319324 4288085770
7.7500648 -3.569674 -1.819289 4288085770
5.9639397 -2.8285294 -1.8250331 4288085770
7.7410583 -3.5006895 -1.8163958 4288085770
5.9779663 -2.7835155 -1.8270959 4288085770
7.74506 -3.4376869 -1.8154892 4288085770
5.9809875 -2.731514 -1.8251735 4288085770
7.7540665 -3.3766794 -1.8155779 4288085770
5.9729996 -2.6755223 -1.819261 4288085770
7.7490616 -3.3096848 -1.8106809 4288085770
5.9850311 -2.6275072 -1.8183295 4288085770
7.7770844 -3.2566495 -1.8127511 4288085770
6.0010567 -2.5814862 -1.8173935 4288085770
7.7860909 -3.1956348 -1.8088403 4288085770
6.0340996 -2.5424438 -1.8204412 4288085770
7.8181038 -3.14259 -1.8089095 4288085770
6.0211067 -2.4844546 -1.8105339 4288085770
7.8341141 -3.0835624 -1.8039936 4288085770
6.0481453 -2.4424157 -1.8095884 4288085770
7.8751411 -3.0345035 -1.8040538 4288085770
6.0881882 -2.4043608 -1.8116325 4288085770
7.9031563 -2.9794593 -1.8011277 4288085770
6.1142273 -2.3613219 -1.809689 4288085770
7.9531822 -2.9323845 -1.800182 4288085770
6.1552696 -2.3232641 -1.8107332 4288085770
7.9972076 -2.883317 -1.7982415 4288085770
6.1762962 -2.2782269 -1.8047945 4288085770
8.0452385 -2.8342419 -1.7952998 4288085770
6.2033348 -2.2351813 -1.7998512 4288085770
8.109272 -2.7911444 -1.7943435 4288085770
6.2823944 -2.2090745 -1.8078638 4288085770
8.1673012 -2.7450533 -1.791394 4288085770
6.3074303 -2.165029 -1.800923 4288085770
8.237339 -2.7029467 -1.7904341 4288085770
6.3874931 -2.1379185 -1.8079369 4288085770
