# .PCD v0.7 - Point Cloud Data file format
VERSION 0.7
FIELDS x y z rgb
SIZE 4 4 4 4
TYPE F F F U
COUNT 1 1 1 1
WIDTH 1121
HEIGHT 1
VIEWPOINT 0 0 0 1 0 0 0
POINTS 1121
DATA ascii
5.392704 -4.5479474 -1.861062 4288085770
6.8843651 -5.3588514 -1.6986576 4293729569
5.424181 -4.5254211 -1.8964119 4288085770
6.7705574 -5.2357349 -1.7090154 4293729569
5.3964844 -4.4631472 -1.9157823 4288085770
6.6577168 -5.1136618 -1.7163783 4293729569
5.3106136 -4.3661237 -1.9192362 4288085770
6.553894 -4.9975715 -1.7247368 4293729569
5.2267303 -4.2681141 -1.9216554 4288085770
6.440012 -4.8745565 -1.7280962 4293729569
5.0565681 -4.1185098 -1.8981978 4288085770
6.3311348 -4.7555408 -1.7314632 4293729569
4.9646225 -4.017591 -1.8946559 4288085770
6.1971607 -4.6216636 -1.7258679 4293729569
4.8706493 -3.9147155 -1.8881061 4288085770
6.1934834 -4.5643544 -1.7470653 4293729569
4.7927074 -3.8217924 -1.8845385 4288085770
6.2840042 -4.5587554 -1.7860593 4293729569
4.735817 -3.7417901 -1.8859458 4288085770
6.4126091 -4.573029 -1.8329558 4288085770
4.681921 -3.6628006 -1.886337 4288085770
6.5081425 -4.5664144 -1.8728838 4288085770
4.6029282 -3.5699503 -1.8777808 4288085770
6.520443 -4.5111303 -1.891947 4288085770
4.5419903 -3.4880221 -1.8742006 4288085770
6.475605 -4.4250526 -1.8981417 4288085770
4.5091076 -3.4210126 -1.8755527 4288085770
6.3675938 -4.3062267 -1.8885012 4288085770
4.4360943 -3.3331895 -1.8650086 4288085770
6.3046722 -4.2112713 -1.8867499 4288085770
4.4021931 -3.2662094 -1.8643713 4288085770
6.2267075 -4.1093769 -1.8810505 4288085770
4.3773098 -3.2041976 -1.8657147 4288085770
6.1777954 -4.0224032 -1.8802731 4288085770
4.3193035 -3.12537 -1.8551491 4288085770
6.1138897 -3.9285085 -1.8745444 4288085770
4.3044853 -3.0683429 -1.8574609 4288085770
6.0699596 -3.8455613 -1.871775 4288085770
4.2765541 -3.0054052 -1.8538215 4288085770
6.0400524 -3.7685812 -1.8709497 4288085770
4.2656765 -2.9493887 -1.8551097 4288085770
6.005125 -3.6896312 -1.8681468 4288085770
4.2397232 -2.8874793 -1.8494648 4288085770
5.9882317 -3.619633 -1.8682908 4288085770
4.237854 -2.837446 -1.8517483 4288085770
5.9482594 -3.5397432 -1.8615249 4288085770
4.2189121 -2.7795196 -1.8470902 4288085770
5.9273338 -3.4687898 -1.8586957 4288085770
4.2160034 -2.7285452 -1.8453702 4288085770
5.9043865 -3.3968654 -1.8538728 4288085770
4.2140923 -2.6775706 -1.84364 4288085770
5.8864384 -3.3279402 -1.8490425 4288085770
4.2222157 -2.6315491 -1.8448801 4288085770
5.9025688 -3.2729039 -1.851068 4288085770
4.2162743 -2.5786197 -1.8401619 4288085770
5.903656 -3.2129297 -1.8491744 4288085770
4.2153454 -2.5286739 -1.8364364 4288085770
5.9187546 -3.1579368 -1.8482102 4288085770
4.2294598 -2.4856656 -1.836659 4288085770
5.910799 -3.0940232 -1.8423508 4288085770
4.2485619 -2.4436705 -1.8358451 4288085770
5.926878 -3.0400603 -1.8393914 4288085770
4.272686 -2.404645 -1.8370236 4288085770
5.9419575 -2.984097 -1.836413 4288085770
4.2877693 -2.3596807 -1.8342071 4288085770
5.9670448 -2.9331162 -1.8344053 4288085770
4.3128719 -2.3196843 -1.8333609 4288085770
6.0071583 -2.8871028 -1.8343165 4288085770
4.3359642 -2.2797024 -1.8315353 4288085770
6.0262165 -2.8341672 -1.8293413 4288085770
4.3580475 -2.2377365 -1.828691 4288085770
6.0612926 -2.7851987 -1.8262602 4288085770
4.3951626 -2.2017221 -1.8287801 4288085770
6.0943527 -2.7362607 -1.8211999 4288085770
4.4392891 -2.1676912 -1.8298266 4288085770
6.1394444 -2.6922746 -1.8190893 4288085770
4.4633408 -2.1257687 -1.823962 4288085770
6.1835136 -2.6453187 -1.8149455 4288085770
4.5295181 -2.0996592 -1.8298992 4288085770
6.245615 -2.605314 -1.8137189 4288085770
4.5595818 -2.0597203 -1.8250021 4288085770
6.2836437 -2.5574179 -1.8056221 4288085770
4.6076775 -2.0257175 -1.8240081 4288085770
6.3617592 -2.52038 -1.8062756 4288085770
4.6657944 -1.9936986 -1.8239403 4288085770
6.4268303 -2.4794183 -1.8020039 4288085770
4.7008476 -1.9547727 -1.8180065 4288085770
6.5129414 -2.4443936 -1.8016039 4288085770
4.7719822 -1.9257212 -1.8198489 4288085770
6.5890236 -2.4054151 -1.7982485 4288085770
4.8220558 -1.8907626 -1.8158194 4288085770
6.675106 -2.3694339 -1.7948344 4288085770
4.895174 -1.8617399 -1.8156415 4288085770
6.7661858 -2.3324521 -1.7913542 4288085770
4.9552574 -1.827764 -1.8125241 4288085770
6.8712769 -2.2984519 -1.7887739 4288085770
5.0363712 -1.7997394 -1.8122783 4288085770
6.9773674 -2.2654512 -1.786198 4288085770
5.1194973 -1.7716994 -1.813012 4288085770
7.0864487 -2.2304652 -1.7825621 4288085770
5.1955795 -1.7397203 -1.8097595 4288085770
7.2025299 -2.1974773 -1.7788837 4288085770
5.3127594 -1.7185993 -1.815246 4288085770
7.3496532 -2.1714232 -1.7789888 4288085770
5.409874 -1.6905708 -1.8148358 4288085770
7.4817333 -2.1394317 -1.7751607 4288085770
5.4949474 -1.660604 -1.8105199 4288085770
7.6348343 -2.1104057 -1.7731603 4288085770
5.5649757 -1.6256995 -1.8022854 4288085770
7.7959366 -2.0823781 -1.7710925 4288085770
5.6871147 -1.600636 -1.8036621 4288085770
7.9670353 -2.0553474 -1.7689366 4288085770
5.7951946 -1.5726492 -1.8001392 4288085770
8.1571484 -2.0302989 -1.7676146 4288085770
5.902277 -1.5436625 -1.7966119 4288085770
8.3492451 -2.0042641 -1.7652576 4288085770
6.0243683 -1.5156581 -1.793945 4288085770
8.5663643 -1.9801946 -1.7646728 4288085770
6.160471 -1.4896357 -1.7921633 4288085770
8.8295364 -1.9630406 -1.7687173 4288085770
6.3096046 -1.4655666 -1.7932768 4288085770
9.0476036 -1.9350443 -1.7630635 4288085770
6.436655 -1.4356194 -1.7865294 4288085770
9.3147335 -1.9149489 -1.7630231 4288085770
6.5817375 -1.4076247 -1.782626 4288085770
9.6268921 -1.8977985 -1.7655642 4288085770
6.734808 -1.3796425 -1.7776402 4288085770
9.928009 -1.8777101 -1.7641743 4288085770
6.9099102 -1.3546116 -1.7754722 4288085770
10.205061 -1.8497157 -1.7569145 4288085770
7.0849915 -1.32761 -1.7712748 4288085770
10.533152 -1.8266654 -1.7522032 4288085770
7.2500401 -1.2976549 -1.7641364 4288085770
10.861197 -1.8016591 -1.7444631 4288085770
7.4471169 -1.2706482 -1.7597128 4288085770
11.19924 -1.7746658 -1.7355905 4288085770
7.6461849 -1.2436562 -1.7542686 4288085770
11.567266 -1.7486804 -1.7254245 4288085770
7.8802853 -1.2186122 -1.7514938 4288085770
11.99135 -1.7276087 -1.7197555 4288085770
8.1193733 -1.1915817 -1.7476382 4288085770
12.461416 -1.7065415 -1.7126139 4288085770
8.3884659 -1.1665304 -1.7445036 4288085770
12.978487 -1.6884494 -1.7060331 4288085770
8.6555424 -1.1405082 -1.7393746 4288085770
13.534559 -1.6683486 -1.6990221 4288085770
8.9205742 -1.1095459 -1.7301934 4288085770
14.154642 -1.6512187 -1.6923968 4288085770
9.2206478 -1.0825169 -1.7247103 4288085770
14.841722 -1.6340744 -1.685083 4288085770
9.548708 -1.0544963 -1.717925 4288085770
15.573782 -1.6169348 -1.6763061 4288085770
9.90378 -1.0254557 -1.7118471 4288085770
16.427866 -1.6027386 -1.6683192 4288085770
10.293856 -0.99739236 -1.7064236 4288085770
17.205786 -1.5747805 -1.6459092 4288085770
10.685884 -0.96640223 -1.6959362 4288085770
18.230814 -1.5586059 -1.6321354 4288085770
11.12393 -0.93537277 -1.6869754 4288085770
11.600981 -0.90531999 -1.678628 4288085770
12.111013 -0.87228948 -1.6678975 4288085770
12.694056 -0.84021384 -1.6584307 4288085770
13.326101 -0.80612701 -1.6484303 4288085770
14.067198 -0.77392918 -1.6433378 4288085770
14.850222 -0.73682457 -1.6307408 4288085770
15.755293 -0.69962019 -1.6218883 4288085770
16.748312 -0.6574555 -1.608058 4288085770
17.974413 -0.61710781 -1.6008598 4288085770
18.368528 2.0416732 -1.5042257 4288085770
17.738604 2.1134536 -1.5047425 4288085770
17.204714 2.1883128 -1.5082116 4288085770
16.707804 2.2591507 -1.5093538 4288085770
16.216883 2.3269756 -1.509478 4288085770
15.77796 2.3938119 -1.5090736 4288085770
15.445101 2.470772 -1.5144138 4288085770
15.104227 2.5427017 -1.5179119 4288085770
14.793333 2.6146233 -1.5200969 4288085770
14.496435 2.6855333 -1.5211504 4288085770
14.252569 2.7615128 -1.5255764 4288085770
14.058725 2.8435316 -1.5313911 4288085770
13.829828 2.9164703 -1.5327052 4288085770
13.648958 2.9964626 -1.5364144 4288085770
13.48509 3.0754585 -1.5399605 4288085770
13.312189 3.1524088 -1.5406308 4288085770
13.179319 3.2354114 -1.5437944 4288085770
13.060442 3.3204162 -1.5467826 4288085770
12.952559 3.4054091 -1.5486556 4288085770
12.844679 3.490402 -1.5505291 4288085770
12.743773 3.5753667 -1.5503296 4288085770
12.638845 3.6573019 -1.5482163 4288085770
12.575945 3.7492888 -1.5485166 4288085770
12.496027 3.8372431 -1.5470539 4288085770
12.478151 3.9382827 -1.5497512 4288085770
12.461264 4.0433073 -1.5513793 4288085770
12.431353 4.1432862 -1.5502173 4288085770
12.450468 4.2563324 -1.5523512 4288085770
12.493605 4.3774118 -1.5561165 4288085770
12.50168 4.4883971 -1.5543956 4288085770
12.573812 4.6214824 -1.557681 4288085770
12.593878 4.7404542 -1.5547171 4288085770
12.679987 4.877512 -1.5557977 4288085770
12.759073 5.0165539 -1.5559227 4288085770
12.833139 5.1535506 -1.5531292 4288085770
12.975256 5.3156471 -1.5552562 4288085770
13.086325 5.4706645 -1.5528109 4288085770
13.238413 5.6417327 -1.5527011 4288085770
13.486582 5.8509498 -1.5600271 4288085770
13.832796 6.1022844 -1.5727094 4288085770
14.129957 6.3395233 -1.580111 4288085770
14.435099 6.583734 -1.585326 4288085770
14.6341 6.7887058 -1.5772251 4288085770
14.895136 7.0247469 -1.5720193 4288085770
15.14012 7.2547264 -1.5630695 4288085770
15.487169 7.5328388 -1.5603456 4288085770
15.863203 7.8289418 -1.5560535 4288085770
18.098673 -0.28871316 -1.5732243 4288085770
16.656862 -0.30505055 -1.5867286 4288085770
15.407038 -0.31834781 -1.5981557 4288085770
14.318228 -0.3285675 -1.6108333 4288085770
13.358397 -0.33578944 -1.6201012 4288085770
12.533594 -0.34192437 -1.6319239 4288085770
11.789801 -0.34602767 -1.6438593 4288085770
11.091974 -0.34916526 -1.6522937 4288085770
17.287661 -0.55496663 -1.5806211 4288085770
10.466127 -0.3503024 -1.6589366 4288085770
15.935843 -0.53927416 -1.5937102 4288085770
9.8962994 -0.35039866 -1.6669713 4288085770
14.776033 -0.52451128 -1.6067789 4288085770
9.3644409 -0.34853089 -1.6715751 4288085770
13.773245 -0.51067156 -1.6211985 4288085770
8.8785858 -0.34663868 -1.6766917 4288085770
12.829382 -0.49492151 -1.6279655 4288085770
8.4517708 -0.3446756 -1.6851823 4288085770
12.043573 -0.48205024 -1.6391007 4288085770
8.0479336 -0.34173697 -1.6914153 4288085770
11.298731 -0.46821398 -1.6467879 4288085770
7.6640739 -0.33782345 -1.6954223 4288085770
10.67893 -0.45627815 -1.6581784 4288085770
7.3533058 -0.33476257 -1.7076687 4288085770
10.077093 -0.44239718 -1.6653502 4288085770
7.022459 -0.32980865 -1.7130996 4288085770
9.5282364 -0.42951936 -1.6709756 4288085770
6.7105865 -0.32489467 -1.7153296 4288085770
9.0283794 -0.4166314 -1.6760817 4288085770
6.4477921 -0.31985319 -1.7250386 4288085770
8.5905704 -0.40465683 -1.6855443 4288085770
6.1819458 -0.31388557 -1.7297664 4288085770
8.164711 -0.3917532 -1.6898662 4288085770
5.9531631 -0.30882233 -1.7401154 4288085770
7.7828693 -0.37981075 -1.6957362 4288085770
5.6962528 -0.30094087 -1.7387199 4288085770
7.4430466 -0.36783034 -1.7031605 4288085770
5.4784241 -0.29493392 -1.7449389 4288085770
7.1152134 -0.35586184 -1.7094582 4288085770
5.2505226 -0.28603178 -1.7442213 4288085770
6.8153763 -0.34388763 -1.7154591 4288085770
5.0556908 -0.27901995 -1.7501822 4288085770
6.5265312 -0.33192539 -1.7203437 4288085770
4.8618202 -0.27106673 -1.7521185 4288085770
6.2566719 -0.31997389 -1.7240273 4288085770
4.6809578 -0.26309603 -1.754917 4288085770
6.0348969 -0.3098951 -1.7352296 4288085770
4.5191364 -0.25606269 -1.7615278 4288085770
5.7970562 -0.29790765 -1.7405738 4288085770
4.3382225 -0.24616534 -1.7592983 4288085770
5.5591736 -0.28497875 -1.7419043 4288085770
4.1934013 -0.23812842 -1.7657145 4288085770
5.3242588 -0.27109325 -1.740189 4288085770
4.0284843 -0.2292276 -1.7633303 4288085770
5.1244183 -0.25909775 -1.7451305 4288085770
3.8896389 -0.2202189 -1.767669 4288085770
4.9325447 -0.24714434 -1.7469881 4288085770
3.7618008 -0.21119291 -1.7728912 4288085770
4.758707 -0.23512834 -1.7526542 4288085770
3.6359577 -0.2021814 -1.777092 4288085770
4.5768127 -0.22320229 -1.7524061 4288085770
4.4129467 -0.21022856 -1.754952 4288085770
4.2661133 -0.19920701 -1.7603464 4288085770
4.1152363 -0.18624514 -1.761755 4288085770
3.9753819 -0.17425144 -1.765061 4288085770
3.8425179 -0.16227108 -1.767293 4288085770
3.7156487 -0.15028936 -1.7694615 4288085770
3.593792 -0.13729209 -1.7725621 4288085770
3.6068478 1.9142823 -1.7010096 4288085770
3.7359562 1.9423158 -1.7002159 4288085770
3.8670483 1.9693203 -1.6974156 4288085770
4.0001392 1.9963253 -1.6945935 4288085770
4.1492615 2.026377 -1.6945558 4288085770
4.295351 2.0543845 -1.6915796 4288085770
4.4494534 2.0834081 -1.6895028 4288085770
4.5975132 2.1083727 -1.6835493 4288085770
3.6177692 1.8312554 -1.702081 4288085770
4.7495708 2.133338 -1.6775526 4288085770
3.7609406 1.855365 -1.7061942 4288085770
4.9116383 2.1593196 -1.672434 4288085770
3.8830128 1.8713396 -1.7016504 4288085770
5.0877171 2.1883183 -1.6681213 4288085770
4.0171089 1.8903453 -1.6989338 4288085770
5.2717972 2.217319 -1.6637228 4288085770
4.1632328 1.9103975 -1.6990736 4288085770
5.4638824 2.2473357 -1.6602236 4288085770
4.2952995 1.9243598 -1.6934514 4288085770
5.6639595 2.2763395 -1.6556532 4288085770
4.4454021 1.9433837 -1.6915628 4288085770
5.8730354 2.306345 -1.6509717 4288085770
4.603508 1.9614093 -1.6896029 4288085770
6.07407 2.3302913 -1.6424638 4288085770
4.7485619 1.9743595 -1.6828557 4288085770
6.3141632 2.3653316 -1.6393763 4288085770
4.9146519 1.9913723 -1.6798247 4288085770
6.5542355 2.3953435 -1.634362 4288085770
5.0847473 2.0083859 -1.6767504 4288085770
6.7742481 2.4182646 -1.6236647 4288085770
5.2778778 2.0284622 -1.6773852 4288085770
7.0212879 2.4472342 -1.6155897 4288085770
5.4730034 2.0485244 -1.6769983 4288085770
7.2963524 2.4782386 -1.609185 4288085770
5.6440334 2.0584512 -1.6680157 4288085770
7.5643711 2.5051837 -1.598914 4288085770
5.8240871 2.068409 -1.6609364 4288085770
7.8894787 2.5442705 -1.5968554 4288085770
6.0281792 2.0824296 -1.6575406 4288085770
8.2265663 2.5813305 -1.5926971 4288085770
6.2312412 2.0944068 -1.6511848 4288085770
8.5866508 2.6213951 -1.5882484 4288085770
6.4292812 2.102354 -1.642941 4288085770
8.9487152 2.6564317 -1.5818509 4288085770
6.6433334 2.1113188 -1.6355108 4288085770
9.3497982 2.697504 -1.5769471 4288085770
6.8834209 2.124347 -1.6317427 4288085770
9.7688808 2.7375808 -1.5718646 4288085770
7.119482 2.1333311 -1.6250758 4288085770
10.225969 2.7816796 -1.5673156 4288085770
7.3815823 2.1453784 -1.6220859 4288085770
10.689024 2.8217363 -1.5597607 4288085770
7.6506615 2.1553981 -1.6170498 4288085770
11.208109 2.8678474 -1.5545167 4288085770
7.9257298 2.1634049 -1.6109785 4288085770
11.778212 2.9179974 -1.5506668 4288085770
8.1947708 2.1663671 -1.6020446 4288085770
12.41334 2.975204 -1.5490166 4288085770
8.5308933 2.1794734 -1.6012448 4288085770
13.07744 3.0303879 -1.5450845 4288085770
8.8409519 2.1834731 -1.5938559 4288085770
13.769514 3.0835333 -1.5378808 4288085770
9.1670189 2.1874905 -1.5872943 4288085770
14.501581 3.1356876 -1.5302618 4288085770
9.5281067 2.1935441 -1.5823278 4288085770
15.355692 3.2009382 -1.526143 4288085770
9.8961945 2.1965997 -1.5773298 4288085770
16.277807 3.2692165 -1.5222498 4288085770
10.320318 2.2037244 -1.5756713 4288085770
17.377981 3.3556321 -1.523183 4288085770
10.745413 2.2068059 -1.5710607 4288085770
18.444059 3.4228969 -1.514758 4288085770
11.183508 2.2058904 -1.5663682 4288085770
11.647593 2.2039661 -1.560411 4288085770
12.164717 2.2031109 -1.5578696 4288085770
12.664785 2.1941795 -1.5506275 4288085770
13.214888 2.1863022 -1.5458329 4288085770
13.76095 2.1713667 -1.5371836 4288085770
14.343008 2.1534388 -1.5281911 4288085770
14.996111 2.1355836 -1.5224349 4288085770
15.710222 2.1157558 -1.5170528 4288085770
16.487356 2.0949848 -1.5140077 4288085770
17.324484 2.070226 -1.510376 4288085770
18.183603 2.0354438 -1.504653 4288085770
14.573336 -5.5475931 -0.3671279 4293729569
14.410818 -5.6121874 -0.39981496 4293729569
14.368361 -5.7156653 -0.43777689 4293729569
14.456945 -5.8670678 -0.47802666 4293729569
12.448202 -5.3394241 -0.4999536 4293729569
12.354719 -5.4089437 -0.53597105 4293729569
11.74655 -5.3703094 -0.59495127 4293729569
11.33489 -5.3000989 -0.61935794 4293729569
11.203016 -5.3365264 0.023800224 4293729569
11.173376 -5.3266664 -0.65348268 4293729569
11.16659 -5.4139624 -0.01671949 4293729569
11.165979 -5.4170523 -0.69687891 4293729569
11.245199 -5.5393257 -0.05969882 4293729569
10.388037 -5.1742692 -0.69971418 4293729569
10.362623 -5.2496734 -0.74208629 4293729569
10.300188 -5.308116 -0.78261006 4293729569
11.773066 -6.0596166 -0.92370772 4293729569
9.7359753 -5.2195063 -0.83839273 4293729569
11.871599 -6.2949347 -1.0390775 4293729569
10.469984 -5.7261133 -0.98887587 4293729569
10.516451 -5.9155202 -1.0991383 4293729569
9.9275398 -5.708652 -1.103464 4293729569
9.8221283 -5.7340636 -1.1469704 4293729569
9.8378925 -5.8192253 -1.2050439 4293729569
9.8386307 -5.895421 -1.2611481 4293729569
8.3243084 -5.1605425 -0.59865117 4293729569
8.8731022 -5.4684086 -1.2143193 4293729569
8.2629166 -5.1899152 -0.64374202 4293729569
8.2869968 -5.225791 -1.2010938 4293729569
8.2155476 -5.225256 -0.69076908 4293729569
8.2105808 -5.2481966 -1.2442448 4293729569
8.1901913 -5.2705755 -0.73870432 4293729569
8.179224 -5.2925186 -1.2922302 4293729569
8.1558552 -5.3088698 -0.78863442 4293729569
8.1358776 -5.3278294 -1.3412139 4293729569
8.1585445 -5.367125 -0.84045649 4293729569
8.118578 -5.3780742 -1.3941349 4293729569
8.1442413 -5.4133697 -0.89328694 4293729569
8.1082916 -5.4303036 -1.4480095 4293729569
8.1549778 -5.4735646 -0.94905114 4293729569
8.0920086 -5.4765201 -1.5028613 4293729569
8.1747208 -5.5377431 -1.0057762 4293729569
8.0727158 -5.520752 -1.5567163 4293729569
8.0574589 -5.5659394 -1.6135423 4293729569
7.9389896 -5.5494161 -1.6525795 4293729569
7.6662235 -5.4402976 -1.6669277 4293729569
11.611738 -7.7354531 -1.6448035 4293729569
7.4395123 -5.3541093 -1.6851144 4293729569
10.998796 -7.4345994 -1.6480238 4293729569
7.2017612 -5.2579694 -1.7002748 4293729569
10.371763 -7.1188664 -1.6431787 4293729569
6.9138622 -5.1270318 -1.7024672 4293729569
9.815773 -6.8380713 -1.6410773 4293729569
6.698101 -5.0369 -1.7164785 4293729569
9.2977924 -6.5732517 -1.6397998 4293729569
6.4933414 -4.9487667 -1.7304003 4293729569
8.8228092 -6.3274369 -1.6373354 4293729569
6.2675037 -4.8457403 -1.7373316 4293729569
8.4108868 -6.1145334 -1.6396714 4293729569
6.0877552 -4.7655854 -1.7521005 4293729569
7.975872 -5.8827519 -1.633981 4293729569
5.9139977 -4.6874442 -1.7658342 4293729569
7.727169 -5.7605429 -1.6538811 4293729569
5.7522621 -4.6142707 -1.7815108 4293729569
7.4674072 -5.6274109 -1.6687409 4293729569
5.6396179 -4.5679684 -1.805051 4293729569
7.2256565 -5.5022588 -1.6845232 4293729569
5.541008 -4.5296183 -1.8315558 4293729569
6.9748478 -5.3681822 -1.6952726 4293729569
5.523632 -4.5389557 -1.8778821 4288085770
6.7560787 -5.2510548 -1.7089238 4293729569
5.4540787 -4.5145249 -1.9092773 4288085770
6.5643463 -5.1478758 -1.7254872 4293729569
5.3093109 -4.4393926 -1.9217426 4288085770
6.3395214 -5.0218225 -1.7340735 4293729569
5.0782452 -4.3066621 -1.9082961 4288085770
6.1447201 -4.9107327 -1.7445542 4293729569
4.8631916 -4.1819124 -1.8957937 4288085770
5.9829788 -4.8185611 -1.7599549 4293729569
4.708313 -4.0929289 -1.8981653 4288085770
5.8101788 -4.716466 -1.7703295 4293729569
4.5403519 -3.9940512 -1.8935331 4288085770
5.6784744 -4.6382442 -1.7886099 4293729569
4.4024696 -3.9120638 -1.8958234 4288085770
5.5527554 -4.5620341 -1.8058549 4293729569
4.2344551 -3.8082588 -1.8861196 4288085770
5.5032368 -4.532557 -1.8399609 4293729569
4.0955315 -3.7223299 -1.8843637 4288085770
5.507843 -4.533905 -1.8849331 4288085770
3.9645863 -3.638428 -1.8805506 4288085770
5.4292068 -4.4815817 -1.9090192 4288085770
3.8527069 -3.5664341 -1.8827065 4288085770
5.2633095 -4.3726168 -1.9102187 4288085770
3.7227402 -3.480562 -1.8768544 4288085770
5.1084003 -4.2676635 -1.9103581 4288085770
3.6108074 -3.4046412 -1.8739532 4288085770
4.900301 -4.1299729 -1.8935926 4288085770
4.7423191 -4.0211091 -1.8877077 4288085770
4.6104145 -3.9261501 -1.8877449 4288085770
4.4724522 -3.8282659 -1.8828042 4288085770
4.3445129 -3.7343504 -1.8798136 4288085770
4.2225533 -3.6434619 -1.8748022 4288085770
4.1186504 -3.5624969 -1.8747413 4288085770
4.0177364 -3.4835441 -1.8736775 4288085770
3.9177895 -3.402637 -1.8695741 4288085770
3.8288784 -3.3286817 -1.8684536 4288085770
3.7359314 -3.2517722 -1.8643333 4288085770
3.6509991 -3.1778448 -1.8611699 4288085770
3.5770893 -3.111886 -1.8600042 4288085770
3.6091232 -1.3265736 -1.8154752 4288085770
3.6662216 -1.3045843 -1.8135325 4288085770
3.7323303 -1.2845783 -1.8125211 4288085770
3.7924156 -1.2636027 -1.8095604 4288085770
3.8584976 -1.2426255 -1.8065349 4288085770
3.9376183 -1.2246022 -1.8064111 4288085770
3.9956608 -1.2016857 -1.7994435 4288085770
4.0727577 -1.1816921 -1.7973126 4288085770
4.1658878 -1.1656511 -1.7980658 4288085770
4.245966 -1.1456859 -1.7939025 4288085770
4.3320389 -1.12572 -1.7896743 4288085770
4.4381676 -1.1096764 -1.7902861 4288085770
4.5382652 -1.0916781 -1.7879344 4288085770
4.643364 -1.073679 -1.7855283 4288085770
3.5634651 -0.86684376 -1.7992288 4288085770
4.7544575 -1.0566781 -1.7830716 4288085770
3.6315098 -0.84692436 -1.7921964 4288085770
4.8745651 -1.0396612 -1.781517 4288085770
3.7145863 -0.82995874 -1.7880442 4288085770
4.9976711 -1.0236437 -1.7799441 4288085770
3.8157253 -0.81490141 -1.7897251 4288085770
5.1177368 -1.0056851 -1.7743753 4288085770
3.9188461 -0.79987305 -1.7893841 4288085770
5.25383 -0.98967963 -1.7716614 4288085770
4.0129337 -0.78289038 -1.7861121 4288085770
5.4390335 -0.97951823 -1.778501 4288085770
4.1220417 -0.76687568 -1.7846916 4288085770
5.5510311 -0.95764893 -1.7669615 4288085770
4.2301388 -0.75087553 -1.7822819 4288085770
5.7301788 -0.94456178 -1.7688231 4288085770
4.3532543 -0.73584324 -1.7817236 4288085770
5.893261 -0.92856544 -1.7648158 4288085770
4.4593105 -0.71890169 -1.7753214 4288085770
6.0543118 -0.9116134 -1.7578157 4288085770
4.5813961 -0.70191354 -1.7717451 4288085770
6.242403 -0.89559764 -1.7545363 4288085770
4.7245235 -0.68786258 -1.7719836 4288085770
6.4224396 -0.87865645 -1.7463298 4288085770
4.8686295 -0.67284089 -1.7701969 4288085770
6.6154881 -0.86169797 -1.7389817 4288085770
5.0016918 -0.65587968 -1.7645011 4288085770
6.8405895 -0.84766012 -1.7363291 4288085770
5.1597958 -0.64085537 -1.762562 4288085770
7.0746593 -0.83266455 -1.7305641 4288085770
5.3399334 -0.62678272 -1.7633982 4288085770
7.325737 -0.81765085 -1.7256144 4288085770
5.4919701 -0.60984665 -1.7554957 4288085770
7.5898037 -0.80264908 -1.7195234 4288085770
5.6780758 -0.59481674 -1.7532521 4288085770
7.8658676 -0.78764516 -1.7133018 4288085770
5.8641472 -0.57883042 -1.7479942 4288085770
8.1769562 -0.7746051 -1.7087284 4288085770
6.0522041 -0.56185859 -1.7417001 4288085770
8.5130405 -0.76156002 -1.7038833 4288085770
6.2702961 -0.54683679 -1.7381084 4288085770
8.8761101 -0.74752444 -1.6977302 4288085770
6.4883652 -0.53084451 -1.7325023 4288085770
9.25317 -0.73450023 -1.6904392 4288085770
6.7254314 -0.5158481 -1.7267045 4288085770
9.670248 -0.7214393 -1.6847134 4288085770
6.9604664 -0.49889606 -1.7178992 4288085770
10.140324 -0.70936793 -1.6784256 4288085770
7.2455616 -0.48384672 -1.7145787 4288085770
10.638391 -0.69630581 -1.6708188 4288085770
7.5406494 -0.46780998 -1.7101347 4288085770
11.183447 -0.68423444 -1.6627154 4288085770
7.8507118 -0.45179945 -1.703528 4288085770
11.798517 -0.6721347 -1.6548507 4288085770
8.1737633 -0.43580109 -1.6957797 4288085770
12.452555 -0.65907091 -1.6435475 4288085770
8.5598679 -0.42071742 -1.6923604 4288085770
13.171572 -0.64700907 -1.6305521 4288085770
8.9449158 -0.40470695 -1.6839378 4288085770
14.073698 -0.63875097 -1.6266239 4288085770
9.3799801 -0.38765758 -1.6769565 4288085770
14.980692 -0.6256668 -1.6105695 4288085770
9.8840847 -0.37253618 -1.6732533 4288085770
16.118803 -0.61837703 -1.6030892 4288085770
10.408155 -0.35545504 -1.6663036 4288085770
17.376852 -0.60912186 -1.5902752 4288085770
10.961195 -0.33741176 -1.6560242 4288085770
11.629301 -0.321244 -1.6515223 4288085770
12.288309 -0.30220938 -1.6380751 4288085770
13.102396 -0.28402793 -1.6309558 4288085770
13.978437 -0.2648927 -1.6191478 4288085770
14.973467 -0.24373418 -1.606016 4288085770
16.181574 -0.22342247 -1.5985816 4288085770
17.500586 -0.20020062 -1.5818969 4288085770
16.962866 0.03936404 -1.5741889 4288085770
15.595034 0.042048275 -1.5863734 4288085770
14.431215 0.044801414 -1.5982864 4288085770
13.431398 0.049601018 -1.6093445 4288085770
12.531569 0.054419935 -1.6192894 4288085770
11.755758 0.059292138 -1.6298535 4288085770
11.045904 0.06613344 -1.6366546 4288085770
17.23752 0.080269396 -1.5624621 4288085770
10.425097 0.072050393 -1.6464785 4288085770
15.789629 0.090850234 -1.5694281 4288085770
9.8372498 0.078930199 -1.6529216 4288085770
14.628843 0.10164651 -1.5841957 4288085770
9.3194122 0.085838199 -1.6595848 4288085770
13.639059 0.11150518 -1.5990729 4288085770
8.8646126 0.093816161 -1.6695312 4288085770
12.747252 0.12235391 -1.610845 4288085770
8.4187584 0.10172361 -1.6743789 4288085770
11.915373 0.13312757 -1.61595 4288085770
8.0189228 0.10866901 -1.6807286 4288085770
11.224592 0.14405924 -1.6284831 4288085770
7.6691189 0.11666778 -1.6895063 4288085770
10.575747 0.15392664 -1.635564 4288085770
7.3322983 0.12565443 -1.6971252 4288085770
10.016932 0.16485509 -1.6446275 4288085770
7.0114346 0.13458607 -1.7005668 4288085770
9.5011005 0.17677739 -1.6521978 4288085770
6.7095814 0.14353597 -1.7047968 4288085770
9.0272694 0.186708 -1.6593294 4288085770
6.4387474 0.15252095 -1.7106811 4288085770
8.578413 0.19761449 -1.6641687 4288085770
6.1849136 0.16150931 -1.7163762 4288085770
8.1825752 0.2095601 -1.6704026 4288085770
5.9621105 0.17154703 -1.7247108 4288085770
7.8237591 0.22054213 -1.6782387 4288085770
5.7162094 0.18044987 -1.7243184 4288085770
7.510973 0.23157674 -1.6885617 4288085770
5.5264263 0.19052315 -1.7342852 4288085770
7.1871204 0.24252218 -1.6930088 4288085770
5.3215675 0.20049182 -1.7374209 4288085770
6.8842545 0.25445703 -1.6962075 4288085770
5.1066513 0.21038613 -1.7356691 4288085770
6.6044102 0.26542544 -1.7011645 4288085770
4.9077473 0.2192983 -1.7347534 4288085770
6.3585854 0.27642962 -1.7077421 4288085770
4.7519302 0.22933462 -1.7413425 4288085770
6.1217384 0.2884064 -1.7122054 4288085770
4.5951023 0.2403563 -1.7469287 4288085770
5.8918915 0.30038458 -1.7165909 4288085770
4.4472599 0.25136495 -1.7514148 4288085770
5.6920757 0.3114121 -1.7236561 4288085770
4.2953854 0.26132956 -1.7529608 4288085770
5.470171 0.32331944 -1.7229538 4288085770
4.1565437 0.27234015 -1.7573467 4288085770
5.2733002 0.33427513 -1.7249868 4288085770
4.0236702 0.28332311 -1.7596667 4288085770
5.0874062 0.34621882 -1.7258832 4288085770
3.8938065 0.29330671 -1.7619675 4288085770
4.9275894 0.35825408 -1.7324886 4288085770
3.7608986 0.30423141 -1.7602879 4288085770
4.7667389 0.37024567 -1.7361058 4288085770
3.6460438 0.3152321 -1.7634071 4288085770
4.5938187 0.3811481 -1.7338725 4288085770
4.4639988 0.39418924 -1.7401291 4288085770
4.3321667 0.40721542 -1.7454084 4288085770
4.1972923 0.41918319 -1.7467364 4288085770
4.0403271 0.4290309 -1.7403405 4288085770
3.9435387 0.44312185 -1.7492144 4288085770
3.8276711 0.45610765 -1.751316 4288085770
3.7348595 0.46917042 -1.7581604 4288085770
3.6199608 0.48111311 -1.7572663 4288085770
3.5522003 2.7045288 -1.6635097 4288085770
3.6672878 2.7495277 -1.6605636 4288085770
3.7984142 2.8005874 -1.6613504 4288085770
3.9234943 2.8475885 -1.658263 4288085770
4.0706196 2.9026511 -1.658812 4288085770
4.2097111 2.9536686 -1.6565092 4288085770
4.3688469 3.0107479 -1.6578941 4288085770
4.5129166 3.0597379 -1.6535641 4288085770
4.6850376 3.1198049 -1.6537592 4288085770
3.6212845 2.6585824 -1.6683755 4288085770
4.8571358 3.1778429 -1.6519839 4288085770
3.7383633 2.6925685 -1.6645659 4288085770
5.0522766 3.2449427 -1.653819 4288085770
3.8654633 2.7295852 -1.6626002 4288085770
5.2173214 3.2949078 -1.6472383 4288085770
4.0085907 2.7726481 -1.6633672 4288085770
5.4204407 3.3599803 -1.6470124 4288085770
4.1496983 2.8116822 -1.6622146 4288085770
5.620512 3.4209945 -1.6428785 4288085770
4.294796 2.8517022 -1.6600029 4288085770
5.8326073 3.4860399 -1.6405516 4288085770
4.4479008 2.8927386 -1.6586865 4288085770
6.0567017 3.5520873 -1.638075 4288085770
4.6029987 2.9327607 -1.6563622 4288085770
6.2857723 3.6191072 -1.6335279 4288085770
4.7901764 2.9849036 -1.6615032 4288085770
6.5088215 3.6790974 -1.6271498 4288085770
4.9332085 3.0148377 -1.653459 4288085770
6.7649097 3.7511506 -1.6242261 4288085770
5.1293736 3.0669684 -1.6574986 4288085770
7.0219746 3.8201756 -1.6193351 4288085770
5.2693634 3.0908444 -1.6455754 4288085770
7.303051 3.896219 -1.6150724 4288085770
5.4624767 3.1359026 -1.6447505 4288085770
7.5811024 3.9672332 -1.6089158 4288085770
5.630518 3.1688557 -1.6373811 4288085770
7.8981857 4.0502977 -1.6051468 4288085770
5.8386307 3.2139168 -1.6363873 4288085770
8.218256 4.1303487 -1.600387 4288085770
6.0527439 3.259979 -1.6353114 4288085770
8.5633335 4.2164187 -1.5962592 4288085770
6.2668228 3.3029981 -1.6312791 4288085770
8.9384174 4.3105073 -1.5926778 4288085770
6.4668732 3.3379719 -1.6245203 4288085770
9.3154926 4.4005833 -1.5881318 4288085770
6.7099953 3.3850541 -1.6241032 4288085770
9.7626114 4.5107427 -1.5875083 4288085770
6.9430637 3.4260628 -1.6188858 4288085770
10.204687 4.6138439 -1.5830424 4288085770
7.1911488 3.4691029 -1.6154704 4288085770
10.673773 4.7229652 -1.5791858 4288085770
7.4382172 3.5091147 -1.6101096 4288085770
11.156843 4.8290749 -1.5742148 4288085770
7.7113152 3.5541744 -1.6073836 4288085770
11.674906 4.9421759 -1.5677488 4288085770
7.9914017 3.5982208 -1.6035931 4288085770
12.230967 5.0622978 -1.5617536 4288085770
8.2744884 3.6402686 -1.5997977 4288085770
12.83106 5.1904721 -1.558147 4288085770
8.587595 3.6883502 -1.5975773 4288085770
13.442102 5.3155904 -1.55046 4288085770
8.8816395 3.7263572 -1.5907164 4288085770
14.182226 5.4748616 -1.5498292 4288085770
9.194706 3.7653818 -1.5846263 4288085770
14.976351 5.6411424 -1.5484886 4288085770
9.5167675 3.8034084 -1.5784494 4288085770
15.761419 5.7963495 -1.5424085 4288085770
9.8898907 3.8545308 -1.5775093 4288085770
16.670549 5.9816804 -1.5414978 4288085770
10.259977 3.8986096 -1.5737046 4288085770
17.89287 6.2513685 -1.5568476 4288085770
10.638063 3.940676 -1.5688386 4288085770
11.023134 3.97873 -1.5629513 4288085770
11.451227 4.0238352 -1.5594784 4288085770
11.880312 4.0649114 -1.554052 4288085770
12.346407 4.1090245 -1.5501654 4288085770
12.822515 4.151154 -1.5471942 4288085770
13.332621 4.1942897 -1.5438257 4288085770
13.89274 4.243464 -1.5418073 4288085770
14.468885 4.2906704 -1.5416367 4288085770
15.093039 4.3409009 -1.5418819 4288085770
15.635088 4.361959 -1.5324705 4288085770
16.233168 4.3890848 -1.5263413 4288085770
16.959333 4.4383645 -1.5274512 4288085770
17.751551 4.4927292 -1.5327443 4288085770
18.330542 4.4897246 -1.518262 4288085770
18.318712 -4.8847723 -1.709344 4288085770
17.675898 -4.8558645 -1.719171 4288085770
17.045069 -4.8209682 -1.7277768 4288085770
16.464262 -4.7900348 -1.7378759 4288085770
15.92547 -4.7610631 -1.7495303 4288085770
15.384657 -4.7261209 -1.7591212 4288085770
14.850817 -4.6842074 -1.7665328 4288085770
14.348001 -4.6442575 -1.7756233 4288085770
13.824137 -4.5923729 -1.780779 4288085770
13.315226 -4.5355282 -1.7826945 4288085770
12.843367 -4.4836173 -1.7882634 4288085770
15.762655 -5.4692712 -1.3314819 4293729569
12.369474 -4.4257517 -1.7907693 4288085770
17.76161 -6.2253523 -1.5578786 4293729569
11.937613 -4.3738327 -1.7958877 4288085770
16.790674 -6.0266294 -1.561957 4293729569
11.512743 -4.3199277 -1.7998986 4288085770
14.646349 -5.4188623 -1.4573505 4293729569
11.082834 -4.2560678 -1.8008223 4288085770
13.797331 -5.2282157 -1.4531704 4293729569
10.655901 -4.1902366 -1.7996839 4288085770
13.567995 -5.2435985 -1.5019826 4293729569
10.268 -4.1313539 -1.8012062 4288085770
13.757189 -5.4042315 -1.5931767 4293729569
9.8910999 -4.0704689 -1.8025758 4288085770
13.258497 -5.3170991 -1.6145434 4293729569
9.5281982 -4.010582 -1.803802 4288085770
12.255083 -5.0379696 -1.5778244 4293729569
9.1933308 -3.9556434 -1.8077841 4288085770
12.213942 -5.1050625 -1.6422628 4293729569
8.8894749 -3.9066856 -1.8125026 4288085770
11.669054 -4.9791894 -1.6465898 4293729569
8.5825958 -3.8527567 -1.8151836 4288085770
11.146151 -4.8553252 -1.6496978 4293729569
8.3107758 -3.8087475 -1.8226131 4288085770
10.687323 -4.750361 -1.658357 4293729569
8.0208931 -3.7538159 -1.8250884 4288085770
10.354639 -4.689178 -1.6792269 4293729569
7.7480221 -3.700866 -1.8284003 4288085770
10.154177 -4.675703 -1.7172965 4293729569
7.4871483 -3.6499131 -1.8316059 4288085770
9.9747295 -4.6681933 -1.7572157 4293729569
7.2232418 -3.5930054 -1.8317595 4288085770
9.8122997 -4.6636667 -1.797986 4288085770
6.9803715 -3.5430486 -1.8347766 4288085770
9.549654 -4.6144252 -1.8212389 4288085770
6.7525101 -3.4940755 -1.8386385 4288085770
9.2068443 -4.5284052 -1.8308636 4288085770
6.5226135 -3.4411457 -1.8394662 4288085770
8.8489513 -4.4304919 -1.8334858 4288085770
6.3067398 -3.3921838 -1.8421934 4288085770
8.5130806 -4.3385439 -1.8379463 4288085770
6.103878 -3.3452048 -1.8458025 4288085770
8.187191 -4.246623 -1.8402944 4288085770
5.8849602 -3.2893019 -1.8444633 4288085770
7.8722973 -4.1547003 -1.8425184 4288085770
5.701107 -3.2443047 -1.848887 4288085770
7.5804157 -4.0687575 -1.8455694 4288085770
5.5051994 -3.1933827 -1.8483604 4288085770
7.3075466 -3.9887955 -1.8494923 4288085770
5.3393612 -3.1523664 -1.8536384 4288085770
7.0386543 -3.9058626 -1.8513273 4288085770
5.1343918 -3.0915201 -1.8480703 4288085770
6.7867851 -3.8278973 -1.8550425 4288085770
4.9544716 -3.0386088 -1.8463347 4288085770
6.5418816 -3.7499731 -1.8556792 4288085770
4.7805481 -2.9866972 -1.844546 4288085770
6.3129997 -3.677017 -1.858207 4288085770
4.6316853 -2.9437075 -1.8476039 4288085770
6.0830822 -3.5991042 -1.8576748 4288085770
4.4697533 -2.8928072 -1.8446943 4288085770
5.8822155 -3.5331271 -1.8609877 4288085770
4.3228626 -2.8478453 -1.8457015 4288085770
5.6723099 -3.4601948 -1.861302 4288085770
4.1739292 -2.798943 -1.8426741 4288085770
5.4563351 -3.3813524 -1.8555982 4288085770
4.0360298 -2.753994 -1.84258 4288085770
5.2634315 -3.3124168 -1.8557785 4288085770
3.9071426 -2.7110291 -1.8434129 4288085770
5.069479 -3.2395403 -1.8519131 4288085770
3.7742329 -2.6650939 -1.842248 4288085770
4.8925533 -3.1726303 -1.8499418 4288085770
3.6453114 -2.6181722 -1.8400238 4288085770
4.7196369 -3.1057057 -1.8489254 4288085770
4.5527 -3.0398083 -1.845856 4288085770
4.4047966 -2.9818628 -1.8456872 4288085770
4.2669048 -2.9269004 -1.8464484 4288085770
4.1229782 -2.8669832 -1.844206 4288085770
3.9840393 -2.8070798 -1.8409072 4288085770
3.8641605 -2.7560992 -1.842523 4288085770
3.7382355 -2.7001781 -1.840135 4288085770
3.6233311 -2.6492255 -1.8396949 4288085770
3.5580158 -0.3764087 -1.7722429 4288085770
3.6511021 -0.36242521 -1.7689784 4288085770
3.7512112 -0.35041136 -1.7676629 4288085770
3.8532848 -0.33644056 -1.7632959 4288085770
3.9543495 -0.32348448 -1.757955 4288085770
4.0714569 -0.31046736 -1.756431 4288085770
4.2035866 -0.29941809 -1.756765 4288085770
4.3286724 -0.28642827 -1.7531501 4288085770
4.45574 -0.27345246 -1.7485127 4288085770
4.5988445 -0.26143003 -1.746707 4288085770
3.6461086 -0.1824128 -1.7714051 4288085770
4.7539616 -0.24939066 -1.7457643 4288085770
3.7642288 -0.17138076 -1.7708986 4288085770
4.9140663 -0.23736507 -1.7437645 4288085770
3.8682709 -0.1594528 -1.7635378 4288085770
5.0721378 -0.2253831 -1.7387879 4288085770
3.9913654 -0.14844882 -1.7609744 4288085770
5.2442207 -0.21338385 -1.7346516 4288085770
4.1164513 -0.13645887 -1.7573737 4288085770
5.4413471 -0.20232171 -1.7342443 4288085770
4.2605686 -0.12642157 -1.756585 4288085770
5.647459 -0.19027245 -1.7327201 4288085770
4.4006538 -0.11542875 -1.7528276 4288085770
5.8685856 -0.1792056 -1.7320391 4288085770
4.5557728 -0.10438937 -1.7518989 4288085770
6.0636196 -0.16625988 -1.7236264 4288085770
4.69981 -0.093453467 -1.7440964 4288085770
6.2786522 -0.15430993 -1.715 4288085770
4.8709259 -0.082410991 -1.742985 4288085770
6.5187187 -0.14231181 -1.7090883 4288085770
5.0700855 -0.072305143 -1.7455686 4288085770
6.7938175 -0.13126332 -1.7057918 4288085770
5.2581902 -0.062273502 -1.7432779 4288085770
7.0788994 -0.11922735 -1.7013668 4288085770
5.4352131 -0.051345706 -1.734099 4288085770
7.3879871 -0.10818654 -1.6966826 4288085770
5.6473179 -0.041309357 -1.7315346 4288085770
7.700037 -0.097188413 -1.6889644 4288085770
5.8643951 -0.031300962 -1.7269135 4288085770
8.0360832 -0.085185766 -1.680958 4288085770
6.0884514 -0.020320475 -1.720198 4288085770
8.4111404 -0.074160814 -1.6735214 4288085770
6.3325291 -0.010306776 -1.7152689 4288085770
8.829216 -0.06309855 -1.6675942 4288085770
6.5926056 -0.0012900233 -1.7101715 4288085770
9.267271 -0.051061153 -1.6594244 4288085770
6.8736687 0.008716464 -1.7038203 4288085770
9.7673435 -0.039982736 -1.6525621 4288085770
7.1777554 0.01875627 -1.6992065 4288085770
10.296392 -0.028927326 -1.6433691 4288085770
7.5098362 0.027801752 -1.6942878 4288085770
10.892454 -0.018829763 -1.6354263 4288085770
7.8168316 0.036726654 -1.6816548 4288085770
11.558527 -0.0077040195 -1.6276708 4288085770
8.2219582 0.045844436 -1.6799029 4288085770
12.269541 0.0033584237 -1.6144024 4288085770
8.6210136 0.054874361 -1.6722199 4288085770
13.126623 0.014550745 -1.6064684 4288085770
9.044035 0.063865483 -1.6612635 4288085770
14.070692 0.025745988 -1.5965424 4288085770
9.5521297 0.071974814 -1.6563512 4288085770
15.091669 0.036855042 -1.5787389 4288085770
10.071178 0.080028296 -1.6473138 4288085770
16.326723 0.047107756 -1.5655088 4288085770
10.67927 0.088157415 -1.6412606 4288085770
17.824827 0.058513463 -1.5562643 4288085770
11.306288 0.096203238 -1.6289912 4288085770
12.026342 0.10332566 -1.6196752 4288085770
12.881437 0.10953248 -1.612833 4288085770
13.784468 0.1156621 -1.5994438 4288085770
14.823507 0.12184748 -1.5865028 4288085770
16.088606 0.12717861 -1.5779976 4288085770
17.484655 0.13147798 -1.5640124 4288085770
17.524828 0.3685962 -1.5502527 4288085770
16.113951 0.38724726 -1.5593462 4288085770
14.901068 0.40493241 -1.5661571 4288085770
13.904268 0.4237836 -1.5794464 4288085770
13.032469 0.44065645 -1.5913146 4288085770
12.259645 0.45753184 -1.6010349 4288085770
11.545809 0.47340304 -1.6090852 4288085770
18.445215 0.71741796 -1.5165114 4288085770
10.920973 0.48930374 -1.617103 4288085770
16.968378 0.72308862 -1.5285603 4288085770
10.34514 0.50521308 -1.6245526 4288085770
15.647463 0.72871387 -1.5338005 4288085770
9.8213005 0.52013123 -1.6314137 4288085770
14.558615 0.73646468 -1.5423191 4288085770
9.3504486 0.53404427 -1.6366743 4288085770
13.679842 0.74738044 -1.5573561 4288085770
8.9246254 0.55000782 -1.6443834 4288085770
12.870035 0.75826478 -1.5685934 4288085770
8.5207653 0.56393236 -1.6488672 4288085770
12.171251 0.77021122 -1.5815281 4288085770
8.1689491 0.57892317 -1.6567323 4288085770
11.512415 0.78109246 -1.5890139 4288085770
7.8280983 0.59387255 -1.6614705 4288085770
10.908583 0.79199785 -1.5968617 4288085770
7.5222702 0.60885686 -1.6678025 4288085770
10.37676 0.80392945 -1.6048595 4288085770
7.2404499 0.62385941 -1.6748557 4288085770
9.8779068 0.81483811 -1.6104894 4288085770
6.9796276 0.63886577 -1.6816655 4288085770
9.4390888 0.82680011 -1.6184081 4288085770
6.7097511 0.6517989 -1.6836092 4288085770
9.0342636 0.83976775 -1.6259179 4288085770
6.4658928 0.66676491 -1.6872226 4288085770
8.6433945 0.85168046 -1.6292806 4288085770
6.2681141 0.68283939 -1.6972864 4288085770
8.3025703 0.86465907 -1.6360481 4288085770
6.032198 0.69573528 -1.6958367 4288085770
7.9987736 0.87868679 -1.6453712 4288085770
5.8213043 0.708664 -1.6960964 4288085770
7.6909103 0.89162791 -1.6487564 4288085770
5.6404781 0.72368395 -1.7019783 4288085770
7.4130688 0.90460289 -1.6537932 4288085770
5.4676285 0.73867655 -1.7057679 4288085770
7.1381912 0.91653532 -1.6558101 4288085770
5.340889 0.75682026 -1.7189784 4288085770
6.8883362 0.92950082 -1.6595223 4288085770
5.1308804 0.76660609 -1.709272 4288085770
6.6645012 0.94449902 -1.6649035 4288085770
4.9850407 0.78161758 -1.7137482 4288085770
6.4506397 0.95847034 -1.6681837 4288085770
4.8532066 0.79764599 -1.7190474 4288085770
6.2437782 0.97144324 -1.6713972 4288085770
4.7063179 0.81160009 -1.7195505 4288085770
6.0439053 0.9854027 -1.6735152 4288085770
4.5734558 0.82658505 -1.7218763 4288085770
5.8560333 0.99836427 -1.6755084 4288085770
4.4405556 0.83952737 -1.7212315 4288085770
5.6901836 1.0133581 -1.679217 4288085770
4.3247013 0.85452962 -1.72436 4288085770
5.5353432 1.0293682 -1.6837834 4288085770
4.2048149 0.86948824 -1.7245355 4288085770
5.390501 1.0453798 -1.6882339 4288085770
4.0879135 0.88243318 -1.7237049 4288085770
5.2386246 1.0593474 -1.6897951 4288085770
4.0000916 0.90048301 -1.7294648 4288085770
5.1067848 1.0753613 -1.6940948 4288085770
3.9032364 0.9154886 -1.732373 4288085770
4.9769211 1.0903468 -1.6963862 4288085770
3.8093681 0.93148011 -1.7342321 4288085770
4.8430328 1.105303 -1.6967243 4288085770
3.7305336 0.94851738 -1.7389022 4288085770
4.7221546 1.1202757 -1.6979114 4288085770
3.6376438 0.96348053 -1.7387644 4288085770
4.6062775 1.1352495 -1.6990404 4288085770
4.489378 1.1491945 -1.6981961 4288085770
4.3784885 1.1641545 -1.6982675 4288085770
4.3026867 1.1842349 -1.7058592 4288085770
4.1867409 1.1961226 -1.7010326 4288085770
4.1179256 1.21719 -1.7075291 4288085770
4.012989 1.230094 -1.7035606 4288085770
3.9421539 1.2491323 -1.7081091 4288085770
3.8672867 1.267127 -1.7097193 4288085770
3.7894039 1.284107 -1.7103789 4288085770
3.7195339 1.3021023 -1.711931 4288085770
3.6496525 1.3200836 -1.7124834 4288085770
3.5907936 1.3390951 -1.7148935 4288085770
3.6017456 3.2751632 -1.6569253 4288085770
3.6928596 3.3441942 -1.6568748 4288085770
3.7990055 3.4222701 -1.6595199 4288085770
3.9091492 3.5023463 -1.6620898 4288085770
4.0473671 3.598526 -1.6711034 4288085770
4.1604633 3.6775455 -1.6696533 4288085770
4.2815704 3.7605798 -1.6690527 4288085770
4.3856049 3.8325126 -1.6618088 4288085770
4.5467834 3.9376521 -1.6674258 4288085770
4.6848755 4.0276742 -1.665527 4288085770
4.8470078 4.1297569 -1.667176 4288085770
3.5930614 3.4252203 -1.6638709 4288085770
4.9790211 4.2126784 -1.6584485 4288085770
3.7152061 3.500299 -1.6663728 4288085770
5.1641731 4.3277922 -1.6616429 4288085770
3.8614025 3.5884519 -1.6734078 4288085770
5.3693428 4.4519358 -1.6664752 4288085770
3.9975452 3.6695321 -1.6756608 4288085770
5.5734787 4.5740376 -1.6683482 4288085770
4.13867 3.7505991 -1.6768554 4288085770
5.7605209 4.6830235 -1.6626068 4288085770
4.2607231 3.8185639 -1.6714588 4288085770
5.9625893 4.8000383 -1.6585755 4288085770
4.4198627 3.9076469 -1.6733291 4288085770
6.1465816 4.9009528 -1.6479844 4288085770
4.5639362 3.9856424 -1.6695324 4288085770
6.3636112 5.0219269 -1.6407217 4288085770
4.7260399 4.0716834 -1.668411 4288085770
6.5966511 5.1499181 -1.634172 4288085770
4.8810978 4.1516666 -1.6634579 4288085770
6.8256569 5.2718654 -1.6247554 4288085770
5.0652199 4.2487388 -1.663922 4288085770
7.0876923 5.4108596 -1.6177101 4288085770
5.2653637 4.350841 -1.666128 4288085770
7.3757401 5.5628853 -1.6121753 4288085770
5.4865246 4.4649749 -1.669917 4288085770
7.7168598 5.7430172 -1.6126208 4288085770
5.6865978 4.5619917 -1.6661954 4288085770
8.0919914 5.9411817 -1.6144118 4288085770
5.8946705 4.6610103 -1.662352 4288085770
8.514164 6.1614075 -1.6193395 4288085770
6.0906906 4.7509556 -1.6537778 4288085770
8.989357 6.4096832 -1.6262478 4288085770
6.3297806 4.8620067 -1.6514009 4288085770
9.4915333 6.6669474 -1.6317126 4288085770
6.5658379 4.9680142 -1.6461307 4288085770
9.9686127 6.9040809 -1.6287566 4288085770
6.7868309 5.0629344 -1.6351939 4288085770
10.403566 7.1100383 -1.6147358 4288085770
7.034853 5.168901 -1.6267843 4288085770
10.895552 7.3430605 -1.6036636 4288085770
7.2928581 5.276855 -1.6172298 4288085770
11.449556 7.606132 -1.5944383 4288085770
7.584919 5.4008842 -1.612049 4288085770
12.075605 7.9032831 -1.588886 4288085770
7.9210377 5.5460043 -1.6120533 4288085770
8.2701321 5.694097 -1.6098638 4288085770
8.6432323 5.8502073 -1.6082792 4288085770
9.1254826 6.0625448 -1.6196201 4288085770
9.6227093 6.2748556 -1.628786 4288085770
10.08683 6.4630203 -1.6286819 4288085770
10.577936 6.6581745 -1.6271628 4288085770
11.057985 6.8402553 -1.6209587 4288085770
11.497942 6.994205 -1.6066231 4288085770
12.013952 7.1812487 -1.5969279 4288085770
12.538942 7.3642597 -1.5851849 4288085770
13.199041 7.6084642 -1.5829917 4288085770
13.862097 7.8456125 -1.576864 4288085770
14.505079 8.0616598 -1.5642711 4288085770
18.063379 -2.1676595 -1.6394578 4288085770
17.209448 -2.1849403 -1.6396806 4288085770
16.477613 -2.2050731 -1.6475184 4288085770
15.922922 -2.2409906 -1.6665126 4288085770
15.188986 -2.2452395 -1.6661478 4288085770
14.583162 -2.2583244 -1.6744132 4288085770
14.003313 -2.2654345 -1.6802895 4288085770
13.419424 -2.2655888 -1.6831136 4288085770
12.866533 -2.2637382 -1.6855471 4288085770
12.433764 -2.2747099 -1.6977609 4288085770
12.002989 -2.2806966 -1.7088802 4288085770
11.529093 -2.2738345 -1.7103193 4288085770
18.192411 -3.5212843 -1.6771768 4288085770
11.105242 -2.2689064 -1.7152014 4288085770
17.194506 -3.4425399 -1.6817172 4288085770
10.691385 -2.2619774 -1.7199383 4288085770
16.242556 -3.3628304 -1.6827061 4288085770
10.318552 -2.2570131 -1.7262241 4288085770
15.477751 -3.3069181 -1.6938483 4288085770
9.9547176 -2.2490475 -1.732362 4288085770
14.682844 -3.2381268 -1.6971582 4288085770
9.5908489 -2.2381251 -1.7354579 4288085770
13.975981 -3.1782632 -1.7035666 4288085770
9.2439728 -2.2252004 -1.7383267 4288085770
13.354162 -3.1263282 -1.7130942 4288085770
8.9451714 -2.2191818 -1.7467328 4288085770
12.746309 -3.0724342 -1.7194307 4288085770
8.6353092 -2.2062364 -1.7501689 4288085770
12.213484 -3.025485 -1.7279892 4288085770
8.3404541 -2.1922753 -1.7544154 4288085770
11.679609 -2.9735932 -1.7324893 4288085770
8.0686264 -2.1812813 -1.7604352 4288085770
11.166723 -2.9207127 -1.7357298 4288085770
7.7787247 -2.1623766 -1.760553 4288085770
10.682837 -2.8678274 -1.7386315 4288085770
7.5288925 -2.1493795 -1.7662872 4288085770
10.22595 -2.8169374 -1.7412461 4288085770
7.2870483 -2.1353953 -1.770914 4288085770
9.7980556 -2.7680435 -1.7435502 4288085770
7.0521965 -2.12041 -1.775445 4288085770
9.4011822 -2.7221148 -1.7475346 4288085770
6.8333702 -2.1063936 -1.7818028 4288085770
9.0272999 -2.6771972 -1.7502642 4288085770
6.6024895 -2.0864513 -1.7832161 4288085770
8.7044792 -2.6411991 -1.7575245 4288085770
6.4147015 -2.0763867 -1.7922678 4288085770
8.3736191 -2.600246 -1.761808 4288085770
6.1827698 -2.0515022 -1.7896227 4288085770
8.0507355 -2.5573204 -1.7639699 4288085770
5.9859085 -2.0335257 -1.7926669 4288085770
7.7608986 -2.5203319 -1.7698307 4288085770
5.8020706 -2.0165186 -1.7975733 4288085770
7.482048 -2.4823556 -1.7745489 4288085770
5.6111965 -1.9965551 -1.7995192 4288085770
7.2061634 -2.4424224 -1.7762043 4288085770
5.4573936 -1.9835005 -1.8071308 4288085770
6.9683361 -2.4104106 -1.7825279 4288085770
5.250412 -1.9536688 -1.8001233 4288085770
6.7134609 -2.3714595 -1.7849519 4288085770
5.0965843 -1.9376426 -1.8056929 4288085770
6.4946308 -2.3394451 -1.7910538 4288085770
4.935709 -1.9166753 -1.8072739 4288085770
6.299839 -2.3123837 -1.7999455 4288085770
4.7848568 -1.8976772 -1.8107662 4288085770
6.0759506 -2.2754412 -1.8010356 4288085770
4.6269569 -1.8737381 -1.8102698 4288085770
5.8871193 -2.2454221 -1.8068153 4288085770
4.4830914 -1.8537533 -1.8126665 4288085770
5.6872425 -2.2104621 -1.8086534 4288085770
4.3341789 -1.8298264 -1.8110652 4288085770
5.4893532 -2.1745157 -1.8094538 4288085770
4.2043209 -1.8108253 -1.8143122 4288085770
5.3094826 -2.1415379 -1.8120865 4288085770
4.0684319 -1.787868 -1.814573 4288085770
5.1004963 -2.0967085 -1.8048893 4288085770
3.948576 -1.7688656 -1.817703 4288085770
4.9456539 -2.0686975 -1.8093003 4288085770
3.8146477 -1.7429512 -1.8148981 4288085770
4.7787495 -2.0337608 -1.8087529 4288085770
3.702795 -1.7239468 -1.8179346 4288085770
4.622858 -2.0008075 -1.8091052 4288085770
