# .PCD v0.7 - Point Cloud Data file format
VERSION 0.7
FIELDS x y z rgb
SIZE 4 4 4 4
TYPE F F F U
COUNT 1 1 1 1
WIDTH 1121
HEIGHT 1
VIEWPOINT 0 0 0 1 0 0 0
POINTS 1121
DATA ascii
5.8277969 -2.3707407 -1.7744758 4288085770
3.4984703 -1.7726369 -1.8134181 4288085770
5.9640808 -2.3343766 -1.7701709 4288085770
3.609787 -1.7443566 -1.8151174 4288085770
6.1293983 -2.3033612 -1.7703032 4288085770
3.6960526 -1.7096756 -1.8103684 4288085770
6.3067513 -2.2743971 -1.7702323 4288085770
3.8003883 -1.6781931 -1.8082976 4288085770
6.5200577 -2.252795 -1.7734183 4288085770
3.9316902 -1.6530597 -1.8106349 4288085770
6.747364 -2.2302704 -1.7764648 4288085770
4.0389595 -1.6195331 -1.8065867 4288085770
6.965641 -2.2045472 -1.7757438 4288085770
4.2002945 -1.5977166 -1.8124259 4288085770
7.211937 -2.182091 -1.7775512 4288085770
4.3676071 -1.5748582 -1.8162286 4288085770
7.4942398 -2.1639466 -1.7817477 4288085770
4.4918518 -1.5423875 -1.8109285 4288085770
7.7575073 -2.1394725 -1.780419 4288085770
4.649147 -1.5143256 -1.8110523 4288085770
8.0067635 -2.1087737 -1.7755002 4288085770
4.8394547 -1.4925942 -1.8145268 4288085770
8.3360329 -2.091814 -1.7770661 4288085770
5.0037155 -1.4634578 -1.8116033 4288085770
8.6672974 -2.0707929 -1.7767614 4288085770
5.1729622 -1.4343116 -1.8076178 4288085770
9.0605774 -2.0593383 -1.7813245 4288085770
5.3832474 -1.4106176 -1.8089157 4288085770
9.4808464 -2.0459974 -1.7846198 4288085770
5.574501 -1.3805943 -1.8046895 4288085770
9.8940926 -2.0274315 -1.7832021 4288085770
5.8027725 -1.3549263 -1.8038394 4288085770
10.384361 -2.0175161 -1.7865006 4288085770
6.048069 -1.3304276 -1.8047349 4288085770
10.846592 -1.9971485 -1.7825418 4288085770
6.3003426 -1.304893 -1.8035822 4288085770
11.381821 -1.9843345 -1.7813902 4288085770
6.5515823 -1.2762034 -1.7985597 4288085770
11.914024 -1.9632823 -1.7745867 4288085770
6.8338509 -1.2487993 -1.7961047 4288085770
12.494205 -1.9454947 -1.767063 4288085770
7.1341171 -1.2224946 -1.7933846 4288085770
13.203434 -1.9367611 -1.7665948 4288085770
7.4413681 -1.1931555 -1.7886919 4288085770
13.911617 -1.9217613 -1.7593755 4288085770
7.8356857 -1.1716366 -1.7916247 4288085770
14.81485 -1.9212928 -1.7611841 4288085770
8.1659012 -1.1402755 -1.7827221 4288085770
15.758045 -1.9188969 -1.758569 4288085770
8.5461426 -1.1103055 -1.7761468 4288085770
8.9694023 -1.0826874 -1.7719498 4288085770
9.5057526 -1.0610726 -1.7761252 4288085770
10.04705 -1.0342627 -1.7744333 4288085770
10.660378 -1.0110023 -1.7757152 4288085770
11.26865 -0.98045468 -1.7703317 4288085770
11.974964 -0.95260239 -1.7676326 4288085770
12.726265 -0.92192721 -1.7624823 4288085770
13.52153 -0.88734841 -1.7529328 4288085770
14.492863 -0.85501361 -1.7481152 4288085770
15.648273 -0.82500482 -1.7489293 4288085770
16.017624 2.1800289 -1.7363731 4288085770
15.371094 2.249814 -1.7384686 4288085770
14.795567 2.3191748 -1.7407227 4288085770
14.32214 2.3937538 -1.7479863 4288085770
13.807564 2.4578199 -1.7483313 4288085770
13.334995 2.5216565 -1.7481781 4288085770
12.965515 2.5907063 -1.7530249 4288085770
12.587002 2.6578796 -1.7559024 4288085770
12.290565 2.730418 -1.7630273 4288085770
11.988075 2.7981019 -1.7670408 4288085770
11.730637 2.8704634 -1.7727044 4288085770
11.482185 2.9417763 -1.7782232 4288085770
11.270771 3.0168476 -1.7844508 4288085770
11.070332 3.0908961 -1.7895111 4288085770
10.901947 3.1676583 -1.7973015 4288085770
10.732517 3.2435355 -1.8020674 4288085770
10.538002 3.3117013 -1.8028353 4288085770
10.42065 3.39518 -1.8102778 4288085770
10.26318 3.4691029 -1.8118267 4288085770
10.160801 3.5515735 -1.817055 4288085770
10.068447 3.6369503 -1.8232735 4288085770
9.938961 3.7107568 -1.8234905 4288085770
9.8726196 3.8010252 -1.8285849 4288085770
9.7992439 3.8874073 -1.8316157 4288085770
9.7559319 3.9815114 -1.8375829 4288085770
9.7316628 4.0794725 -1.8444729 4288085770
9.7073746 4.1785059 -1.8493997 4288085770
9.6720314 4.2737103 -1.8513101 4288085770
9.689846 4.3843975 -1.8591795 4288085770
9.6825562 4.4874086 -1.8620517 4288085770
9.6822815 4.593379 -1.8649509 4288085770
9.7110901 4.7091122 -1.8698732 4288085770
9.7017555 4.8143148 -1.8678423 4288085770
9.7305298 4.9301577 -1.8697653 4288085770
9.7693253 5.049942 -1.8717164 4288085770
9.8492584 5.1873827 -1.8768419 4288085770
9.9131126 5.3200598 -1.8779743 4288085770
10.054218 5.4800072 -1.8872225 4288085770
10.228443 5.6556907 -1.898667 4288085770
10.465893 5.8587942 -1.9163924 4288085770
10.720379 6.0697994 -1.9342098 4288085770
10.989933 6.2937508 -1.9513276 4288085770
11.211292 6.5013051 -1.9593915 4288085770
11.424629 6.7069397 -1.966476 4288085770
11.663021 6.9265018 -1.9717804 4288085770
11.861271 7.1335082 -1.9710809 4288085770
12.123737 7.3700023 -1.9747254 4288085770
12.451424 7.6390104 -1.9818127 4288085770
12.698826 7.8778391 -1.9787086 4288085770
15.635468 -0.36700082 -1.7385637 4288085770
14.261539 -0.37237036 -1.7461475 4288085770
13.018578 -0.37326932 -1.7474753 4288085770
11.966686 -0.37447858 -1.7547442 4288085770
11.059822 -0.37553859 -1.7624615 4288085770
10.148869 -0.37019038 -1.7594357 4288085770
9.3259201 -0.36535048 -1.7564452 4288085770
8.6430511 -0.3605473 -1.7599543 4288085770
14.877758 -0.63442159 -1.7287127 4288085770
8.0011559 -0.35589302 -1.7610164 4288085770
13.560009 -0.60608292 -1.7358525 4288085770
7.4192772 -0.34959817 -1.7624919 4288085770
12.428272 -0.58188283 -1.7448529 4288085770
6.90242 -0.34372318 -1.7652559 4288085770
11.436543 -0.55950415 -1.754288 4288085770
6.4105492 -0.33691204 -1.765781 4288085770
10.55378 -0.53763974 -1.7605336 4288085770
5.9787064 -0.33052969 -1.7686495 4288085770
9.6669235 -0.51136672 -1.7559648 4288085770
5.5838737 -0.32441688 -1.7731117 4288085770
8.9021111 -0.48895907 -1.7559553 4288085770
5.17799 -0.3149991 -1.7708011 4288085770
8.2543373 -0.46939123 -1.7605968 4288085770
4.8351631 -0.3081665 -1.7747288 4288085770
7.643528 -0.44991541 -1.7618343 4288085770
4.5033112 -0.2992878 -1.7756076 4288085770
7.0807076 -0.43066192 -1.7615473 4288085770
4.190464 -0.29051137 -1.7762781 4288085770
6.5709152 -0.41179919 -1.76368 4288085770
3.9166603 -0.28312039 -1.7814848 4288085770
6.1191292 -0.3943181 -1.7671441 4288085770
3.6548347 -0.27572322 -1.7845609 4288085770
5.6933174 -0.37790501 -1.7682889 4288085770
3.4080162 -0.26640809 -1.7875434 4288085770
5.2975197 -0.36068881 -1.7701408 4288085770
3.1671829 -0.2580893 -1.7894243 4288085770
4.9337158 -0.34464419 -1.7716079 4288085770
2.9253159 -0.24762428 -1.7873875 4288085770
4.6029129 -0.3298111 -1.7736791 4288085770
2.7094765 -0.23740542 -1.7880647 4288085770
4.2780914 -0.31294119 -1.7737538 4288085770
2.5106544 -0.22834802 -1.7905209 4288085770
4.0063248 -0.29956543 -1.7791445 4288085770
2.3118095 -0.21818495 -1.7900127 4288085770
3.7385483 -0.28517675 -1.7835258 4288085770
2.1289825 -0.20817876 -1.7913291 4288085770
3.479744 -0.26973104 -1.7848454 4288085770
1.9681931 -0.1994319 -1.7963681 4288085770
3.2219086 -0.2541846 -1.7831538 4288085770
1.7833042 -0.18716848 -1.7907785 4288085770
3.0001183 -0.2400074 -1.7860333 4288085770
1.6264763 -0.17730188 -1.7918099 4288085770
2.7672615 -0.22452462 -1.7820692 4288085770
1.4706345 -0.16637063 -1.7908659 4288085770
2.5714798 -0.21052229 -1.785664 4288085770
1.3328133 -0.15664136 -1.7926892 4288085770
2.3776665 -0.19642484 -1.7862376 4288085770
1.1959896 -0.14588296 -1.7935367 4288085770
2.2028694 -0.18349922 -1.788568 4288085770
2.0190392 -0.16838539 -1.7870674 4288085770
1.8542233 -0.15444362 -1.7873242 4288085770
1.6994133 -0.14159 -1.7884359 4288085770
1.5476017 -0.12671888 -1.7885852 4288085770
1.3897324 -0.11263788 -1.7837658 4288085770
1.2679615 -0.10010278 -1.788516 4288085770
1.1511803 -0.087559223 -1.7922125 4288085770
1.2463169 1.9340895 -1.7866468 4288085770
1.376585 1.959347 -1.7872173 4288085770
1.5178623 1.986545 -1.7877449 4288085770
1.6591187 2.0117791 -1.7872043 4288085770
1.8063793 2.037981 -1.7866375 4288085770
1.9505959 2.0613053 -1.7830003 4288085770
2.1158905 2.0903406 -1.7843531 4288085770
2.2791252 2.1155286 -1.7815909 4288085770
1.283823 1.8516399 -1.7914518 4288085770
2.461422 2.1444745 -1.7827711 4288085770
1.4250927 1.8717383 -1.7947371 4288085770
2.6446991 2.1734848 -1.7819436 4288085770
1.5663204 1.8899424 -1.7949555 4288085770
2.843998 2.2033405 -1.782986 4288085770
1.698494 1.9043012 -1.7921302 4288085770
3.0482903 2.2332048 -1.7829791 4288085770
1.837677 1.9196222 -1.7892689 4288085770
3.2445183 2.2582536 -1.7788845 4288085770
1.9858665 1.9348609 -1.7873152 4288085770
3.4868774 2.2937746 -1.7826962 4288085770
2.1511154 1.9538686 -1.7893246 4288085770
3.7352142 2.3273001 -1.7853791 4288085770
2.3102989 1.9680502 -1.7872256 4288085770
3.9754982 2.3580089 -1.7840439 4288085770
2.4825172 1.9850918 -1.7870975 4288085770
4.2518539 2.3943846 -1.7865473 4288085770
2.6958618 2.009634 -1.7948227 4288085770
4.526165 2.4278779 -1.7859706 4288085770
2.8549652 2.0189929 -1.7875569 4288085770
4.7883759 2.4536128 -1.780244 4288085770
3.0692482 2.0386374 -1.7921031 4288085770
5.0676155 2.4822216 -1.7754487 4288085770
3.2473793 2.048826 -1.7866786 4288085770
5.3899307 2.5174603 -1.7744555 4288085770
3.4495506 2.0617819 -1.7841119 4288085770
5.7182274 2.5507035 -1.7723347 4288085770
3.6737633 2.0775502 -1.7834246 4288085770
6.0825615 2.5876851 -1.7719852 4288085770
3.9049759 2.092248 -1.7836318 4288085770
6.4729156 2.6264935 -1.7724411 4288085770
4.1502037 2.1078362 -1.7847317 4288085770
6.8592033 2.6614647 -1.7688043 4288085770
4.3873711 2.1196086 -1.7817789 4288085770
7.3136215 2.7058277 -1.7718182 4288085770
4.6475716 2.1321547 -1.7816259 4288085770
7.7950401 2.7510481 -1.7745939 4288085770
4.9057159 2.1418524 -1.7773933 4288085770
8.3124466 2.7971129 -1.7760413 4288085770
5.1848869 2.1513352 -1.7759467 4288085770
8.8999634 2.8526287 -1.7821211 4288085770
5.4730415 2.16084 -1.7724118 4288085770
9.5304718 2.9079185 -1.7877667 4288085770
5.7771912 2.1682277 -1.7696458 4288085770
10.198982 2.9640074 -1.7930639 4288085770
6.108387 2.1783667 -1.769709 4288085770
10.882435 3.0161591 -1.7940767 4288085770
6.4154625 2.1798809 -1.7627118 4288085770
11.595852 3.0662231 -1.7927206 4288085770
6.7946854 2.1916964 -1.7643588 4288085770
12.344208 3.1132436 -1.786912 4288085770
7.1688309 2.1966817 -1.7618196 4288085770
13.21571 3.1723304 -1.7883018 4288085770
7.6050644 2.2071285 -1.7648565 4288085770
14.192268 3.2387891 -1.7909052 4288085770
8.0452538 2.2136266 -1.7657186 4288085770
15.308945 3.3162947 -1.7985033 4288085770
8.5234642 2.2198548 -1.7681965 4288085770
8.9935837 2.2193034 -1.76552 4288085770
9.5428085 2.2250543 -1.7702799 4288085770
10.096954 2.2239563 -1.7697558 4288085770
10.670063 2.218796 -1.7679055 4288085770
11.250107 2.2067075 -1.7627481 4288085770
11.827061 2.1867785 -1.7533517 4288085770
12.49411 2.1721635 -1.7492505 4288085770
13.233162 2.155067 -1.747354 4288085770
14.07729 2.1402082 -1.7504991 4288085770
14.920315 2.1155345 -1.7483184 4288085770
15.788277 2.0838029 -1.7436504 4288085770
11.985264 -5.4362402 -0.022463575 4293729569
11.889206 -5.5227203 -0.05053018 4293729569
11.939899 -5.6631103 -0.080328308 4293729569
7.5478363 -5.1782379 -0.48660702 4293729569
7.5439186 -5.2616448 -0.52687162 4293729569
7.4871292 -5.3197212 -0.56651258 4293729569
7.3734856 -5.3484454 -0.60570502 4293729569
7.3336868 -5.411675 -0.64700723 4293729569
7.3567848 -5.5054889 -0.69466239 4293729569
7.4431534 -5.7912898 -0.84532428 4293729569
7.3954582 -5.845685 -0.89301121 4293729569
6.3223763 -5.3007808 -0.28859702 4293729569
6.2460327 -5.3058934 -0.86154276 4293729569
6.1929398 -5.2995782 -0.33296192 4293729569
6.156456 -5.3268504 -0.9037658 4293729569
6.126358 -5.3287888 -0.37868381 4293729569
6.0938301 -5.362042 -0.94824451 4293729569
6.0827408 -5.369216 -0.42680338 4293729569
6.0751381 -5.4176226 -0.99660736 4293729569
6.0560837 -5.4177265 -0.47448385 4293729569
6.052475 -5.471251 -1.0470766 4293729569
5.6663399 -5.2606349 -0.50866276 4293729569
5.0816727 -4.9830961 -1.004088 4293729569
5.6556778 -5.3132944 -0.55804765 4293729569
5.0260849 -5.0092945 -1.047801 4293729569
5.1153374 -5.0589571 -0.58197933 4293729569
5.0653305 -5.0884037 -1.1018044 4293729569
5.1346054 -5.122767 -0.63069379 4293729569
5.237339 -5.243844 -1.1719401 4293729569
5.1628838 -5.1907229 -0.68218285 4293729569
5.2386894 -5.2986636 -1.2241371 4293729569
5.0834427 -5.1928458 -0.72794813 4293729569
5.2620239 -5.3667955 -1.2816731 4293729569
5.2793808 -5.428864 -1.3384733 4293729569
5.0802116 -5.2863979 -0.83094656 4293729569
5.5892258 -5.6690655 -1.4364218 4293729569
4.9359398 -5.2439337 -0.87084943 4293729569
6.0079193 -5.9776134 -1.5550128 4293729569
5.6210365 -5.7894592 -1.5581884 4293729569
4.1415596 -4.8383236 -0.90139681 4293729569
4.0970688 -4.84759 -0.94557697 4293729569
4.0196342 -4.8764071 -1.4226569 4293729569
4.0805321 -4.8701296 -0.99303889 4293729569
4.344532 -5.1189203 -1.5273902 4293729569
5.2874451 -5.6607265 -1.1817086 4293729569
4.5107384 -5.261775 -1.6110288 4293729569
5.3118973 -5.7109404 -1.2418507 4293729569
4.2556114 -5.1336174 -1.6208867 4293729569
4.3234215 -5.1168437 -1.1755517 4293729569
3.9964828 -5.00034 -1.6279529 4293729569
4.1931763 -5.0613217 -1.2117548 4293729569
3.7723083 -4.8844061 -1.6390941 4293729569
3.8992538 -4.8979826 -1.2231776 4293729569
3.5271454 -4.752099 -1.6429865 4293729569
4.0584564 -5.0234699 -1.2974712 4293729569
3.3029366 -4.629931 -1.6473312 4293729569
4.735733 -5.4827747 -1.4525019 4293729569
3.079731 -4.505734 -1.6507324 4293729569
5.1156197 -5.7499981 -1.5688961 4293729569
2.9573784 -4.4437447 -1.6720616 4293729569
4.8456764 -5.5938816 -1.5828449 4293729569
2.9438896 -4.4532018 -1.7169333 4293729569
4.5967026 -5.4469376 -1.5982792 4293729569
2.9194183 -4.4535031 -1.7592196 4293729569
4.3596764 -5.3059845 -1.6113915 4293729569
2.8849792 -4.4436569 -1.7989447 4288085770
4.1066742 -5.1507525 -1.6191362 4293729569
2.7885895 -4.3908644 -1.82171 4288085770
3.8965759 -5.0219336 -1.6315722 4293729569
2.6093025 -4.2808905 -1.824198 4288085770
3.6665001 -4.8757482 -1.6367832 4293729569
2.416996 -4.1595826 -1.8191891 4288085770
3.4324112 -4.7264423 -1.6391344 4293729569
2.235672 -4.0433636 -1.8149003 4288085770
3.2382393 -4.6005011 -1.6453103 4293729569
2.0733223 -3.9373398 -1.8130838 4288085770
3.0590477 -4.4817033 -1.6530994 4293729569
1.9209538 -3.8363996 -1.8119978 4288085770
3.0096703 -4.4465199 -1.6858231 4293729569
1.7875385 -3.7466202 -1.812351 4288085770
3.0122375 -4.4440317 -1.7299471 4293729569
1.6481419 -3.6507449 -1.8109657 4288085770
3.0277863 -4.4476743 -1.7757403 4288085770
1.5187073 -3.5609188 -1.8092781 4288085770
2.9984016 -4.4197273 -1.8120286 4288085770
1.4062634 -3.4803128 -1.8111162 4288085770
2.8731079 -4.3273644 -1.823402 4288085770
1.288805 -3.394547 -1.8091735 4288085770
2.6958466 -4.1991401 -1.8184762 4288085770
1.1823349 -3.3149033 -1.808918 4288085770
2.5155716 -4.0688338 -1.8116465 4288085770
2.3582497 -3.9517412 -1.8071488 4288085770
2.2338982 -3.8550811 -1.8096467 4288085770
2.1035271 -3.7532568 -1.808373 4288085770
1.9851341 -3.6585255 -1.8077434 4288085770
1.8667259 -3.561727 -1.8051811 4288085770
1.7582912 -3.4720111 -1.803283 4288085770
1.6648407 -3.3904705 -1.8039653 4288085770
1.5753841 -3.3099499 -1.804574 4288085770
1.4899006 -3.2324152 -1.8040416 4288085770
1.40341 -3.1528082 -1.8015867 4288085770
1.3299026 -3.0813661 -1.8017322 4288085770
1.2563801 -3.0088573 -1.7999117 4288085770
1.1998444 -2.9475999 -1.8025506 4288085770
1.1694412 -1.4818385 -1.8372011 4288085770
1.2237015 -1.4602029 -1.8394405 4288085770
1.2669315 -1.4353771 -1.8378876 4288085770
1.3271923 -1.4137728 -1.8400699 4288085770
1.3934555 -1.3942657 -1.8441265 4288085770
1.4406853 -1.3694267 -1.8415369 4288085770
1.4928989 -1.3455796 -1.8378667 4288085770
1.5641556 -1.3260648 -1.8408765 4288085770
1.6133614 -1.3001359 -1.8353037 4288085770
1.6855927 -1.2795255 -1.8353399 4288085770
1.7688351 -1.2610383 -1.8372027 4288085770
1.8450623 -1.2414484 -1.8371674 4288085770
1.9373055 -1.2240405 -1.839911 4288085770
1.9934845 -1.1980469 -1.8312738 4288085770
2.1017303 -1.1827881 -1.8357972 4288085770
2.1618996 -1.1567814 -1.8261229 4288085770
2.27314 -1.1404719 -1.8286531 4288085770
2.3613319 -1.1198092 -1.8245413 4288085770
1.1765804 -0.86899114 -1.8200378 4288085770
2.447506 -1.0970366 -1.8175169 4288085770
1.2728233 -0.85466981 -1.824639 4288085770
2.5457039 -1.0764263 -1.8133109 4288085770
1.3279705 -0.8326354 -1.8148743 4288085770
2.6609077 -1.0590029 -1.8118407 4288085770
1.4171963 -0.81514478 -1.8156455 4288085770
2.7801018 -1.0415664 -1.8093334 4288085770
1.5003834 -0.79748869 -1.8124768 4288085770
2.8872757 -1.0209351 -1.803044 4288085770
1.595583 -0.78096175 -1.8111593 4288085770
3.0395088 -1.0068698 -1.8061202 4288085770
1.7007942 -0.76555276 -1.8117127 4288085770
3.1746979 -0.98948264 -1.8024632 4288085770
1.8060074 -0.750144 -1.8122663 4288085770
3.3549271 -0.9786272 -1.8071734 4288085770
1.9112053 -0.73263502 -1.8098894 4288085770
3.5071182 -0.9623611 -1.8043221 4288085770
2.0123711 -0.71500492 -1.8045527 4288085770
3.6723022 -0.94616222 -1.8013486 4288085770
2.142601 -0.70079207 -1.8068358 4288085770
3.8514977 -0.93106842 -1.7992089 4288085770
2.2908363 -0.68877149 -1.8118799 4288085770
4.0226707 -0.91283417 -1.7942481 4288085770
2.3909798 -0.66900277 -1.8026235 4288085770
4.2148438 -0.89774084 -1.789988 4288085770
2.5401917 -0.65485406 -1.8037291 4288085770
4.4300346 -0.88386655 -1.7884755 4288085770
2.6803818 -0.63852572 -1.8009899 4288085770
4.6602211 -0.8700695 -1.7868221 4288085770
2.8165398 -0.62104297 -1.7943249 4288085770
4.8964043 -0.85626984 -1.7841136 4288085770
2.9767303 -0.60588431 -1.7933618 4288085770
5.1475792 -0.84254789 -1.7812628 4288085770
3.1559372 -0.59185696 -1.7931865 4288085770
5.4217491 -0.82994437 -1.7781633 4288085770
3.3461533 -0.57795417 -1.7949069 4288085770
5.7189369 -0.81649351 -1.7758807 4288085770
3.5263176 -0.56276453 -1.7897602 4288085770
6.0591469 -0.80743122 -1.7780559 4288085770
3.718502 -0.54670477 -1.7865336 4288085770
6.3953171 -0.7951479 -1.7743748 4288085770
3.9467163 -0.53399718 -1.7878636 4288085770
6.7514877 -0.78296828 -1.7705064 4288085770
4.1668854 -0.51904821 -1.7833412 4288085770
7.156662 -0.77310753 -1.7681087 4288085770
4.3970642 -0.50318444 -1.7797583 4288085770
7.604847 -0.7645359 -1.7672721 4288085770
4.6822853 -0.49080515 -1.7815528 4288085770
8.0970268 -0.75519228 -1.7660559 4288085770
4.9494781 -0.47516632 -1.7786223 4288085770
8.6081886 -0.74584603 -1.7616647 4288085770
5.2396469 -0.46061242 -1.7744429 4288085770
9.1823692 -0.73792505 -1.7596462 4288085770
5.5878754 -0.44859195 -1.7766467 4288085770
9.8835793 -0.73592687 -1.7642605 4288085770
5.9360733 -0.43443811 -1.7749214 4288085770
10.598751 -0.72873473 -1.7609187 4288085770
6.3202744 -0.42150354 -1.7738245 4288085770
11.392925 -0.72401738 -1.7587675 4288085770
6.7164688 -0.40656459 -1.7706844 4288085770
12.244053 -0.71742773 -1.7511533 4288085770
7.1516495 -0.39179373 -1.7661793 4288085770
13.194191 -0.7113831 -1.74361 4288085770
7.668869 -0.37968004 -1.7678313 4288085770
14.31332 -0.70827794 -1.7364089 4288085770
8.2090759 -0.36658502 -1.7663059 4288085770
15.614471 -0.70824671 -1.7314328 4288085770
8.8283195 -0.35403228 -1.7680368 4288085770
9.463501 -0.33932841 -1.7626915 4288085770
10.26078 -0.32789624 -1.7687502 4288085770
11.139057 -0.3158493 -1.773085 4288085770
12.044258 -0.30060828 -1.7672765 4288085770
13.016434 -0.28361392 -1.7579114 4288085770
14.288723 -0.27067065 -1.7606555 4288085770
15.619923 -0.25366557 -1.7519919 4288085770
14.72686 0.034362912 -1.7479686 4288085770
13.385014 0.043174028 -1.7542185 4288085770
12.272209 0.051660895 -1.7645888 4288085770
11.216331 0.06114459 -1.7655162 4288085770
10.278469 0.072041273 -1.7655212 4288085770
9.4195786 0.081577301 -1.7638357 4288085770
8.6556969 0.092640758 -1.7614198 4288085770
14.994717 0.05921483 -1.740857 4288085770
7.9918404 0.10208356 -1.7621385 4288085770
13.578892 0.078509331 -1.7440106 4288085770
7.3649445 0.11349714 -1.7576121 4288085770
12.467155 0.095921993 -1.7566326 4288085770
6.8651466 0.12290716 -1.7639934 4288085770
11.470379 0.11185765 -1.7652668 4288085770
6.3682861 0.13252032 -1.7633506 4288085770
10.506523 0.12894058 -1.7636589 4288085770
5.9354668 0.14265954 -1.767204 4288085770
9.5756187 0.14607716 -1.7547762 4288085770
5.5136261 0.15283728 -1.7679656 4288085770
8.8257866 0.16094244 -1.7563541 4288085770
5.1387901 0.16275072 -1.7693357 4288085770
8.1699486 0.17434192 -1.7571195 4288085770
4.8029861 0.17337668 -1.7734108 4288085770
7.571125 0.18842673 -1.7584407 4288085770
4.4731445 0.18306649 -1.7744051 4288085770
7.0152931 0.20332897 -1.758435 4288085770
4.1933441 0.19235277 -1.7799816 4288085770
6.5214691 0.21686172 -1.7598819 4288085770
3.8954926 0.20294535 -1.7787402 4288085770
6.0756531 0.23012495 -1.7619292 4288085770
3.6627121 0.21293581 -1.7859555 4288085770
5.6718445 0.24314892 -1.7646267 4288085770
3.4118881 0.22320187 -1.7873212 4288085770
5.3050385 0.2559582 -1.7680161 4288085770
3.1520119 0.23469853 -1.782794 4288085770
4.9502182 0.26876986 -1.7693056 4288085770
2.9802628 0.24426186 -1.7935002 4288085770
4.6354141 0.28232062 -1.7722933 4288085770
2.7543945 0.25452828 -1.7906572 4288085770
4.3386002 0.2947824 -1.7750988 4288085770
2.5375214 0.26581156 -1.7857713 4288085770
4.0698013 0.30707443 -1.7786721 4288085770
2.358696 0.27671981 -1.786568 4288085770
3.8119926 0.31934261 -1.7811538 4288085770
2.1989098 0.28737819 -1.7922046 4288085770
3.5671616 0.33160853 -1.781528 4288085770
2.0230522 0.29736519 -1.7899451 4288085770
3.3323479 0.34379363 -1.782818 4288085770
1.8782482 0.30801129 -1.7934573 4288085770
3.1165314 0.35688412 -1.7839811 4288085770
1.7224045 0.31886756 -1.7920616 4288085770
2.8886681 0.36819017 -1.7801824 4288085770
1.5815849 0.32955575 -1.7935401 4288085770
2.7068634 0.38104975 -1.7830623 4288085770
1.4457703 0.34121871 -1.7950077 4288085770
2.524044 0.39297694 -1.7839195 4288085770
1.3229485 0.35181797 -1.7963365 4288085770
2.3422127 0.40596068 -1.7827992 4288085770
1.2011318 0.36341155 -1.7976874 4288085770
2.1854057 0.41769683 -1.7854394 4288085770
2.0386124 0.43035167 -1.7890271 4288085770
1.8877869 0.4431504 -1.7886487 4288085770
1.7419472 0.454956 -1.7871979 4288085770
1.6091366 0.46760345 -1.788669 4288085770
1.4903336 0.4801504 -1.7910237 4288085770
1.3454418 0.49110687 -1.7845334 4288085770
1.2396584 0.50452667 -1.7888099 4288085770
1.2230473 2.7394457 -1.7829082 4288085770
1.3524132 2.7857542 -1.7843145 4288085770
1.4867821 2.8330379 -1.785712 4288085770
1.6241531 2.8803067 -1.7870859 4288085770
1.7745552 2.9314494 -1.7904782 4288085770
1.9319592 2.9835873 -1.7928466 4288085770
2.0793037 3.0298696 -1.7921129 4288085770
2.2467155 3.0829582 -1.7944332 4288085770
1.1935387 2.6463261 -1.7892708 4288085770
2.4191132 3.137053 -1.7957457 4288085770
1.3067741 2.6748743 -1.785259 4288085770
2.5965118 3.1901236 -1.7969884 4288085770
1.4410992 2.7121329 -1.7873528 4288085770
2.827095 3.2646189 -1.8084781 4288085770
1.569376 2.7445145 -1.7863437 4288085770
3.0205002 3.3206406 -1.8086873 4288085770
1.7217293 2.7846224 -1.7903867 4288085770
3.210865 3.3727705 -1.8058003 4288085770
1.8670368 2.820889 -1.7903653 4288085770
3.4463654 3.440428 -1.8110421 4288085770
2.0153351 2.8561409 -1.7902904 4288085770
3.6718063 3.5022595 -1.8121827 4288085770
2.1716499 2.8933225 -1.7912132 4288085770
3.9192963 3.5699201 -1.8153322 4288085770
2.3429871 2.9333849 -1.7941153 4288085770
4.1747665 3.637588 -1.8174291 4288085770
2.4862022 2.9608481 -1.7878449 4288085770
4.4422531 3.7071793 -1.8194892 4288085770
2.7036819 3.0154171 -1.7988361 4288085770
4.7046852 3.77192 -1.8174397 4288085770
2.8669357 3.0466895 -1.7955301 4288085770
5.0182724 3.8531282 -1.8245027 4288085770
3.0662956 3.0895963 -1.7983036 4288085770
5.3358116 3.9314404 -1.8274463 4288085770
3.2656212 3.1285665 -1.7989576 4288085770
5.6573181 4.0078249 -1.8273005 4288085770
3.4579086 3.1636338 -1.7975469 4288085770
6.0259399 4.0967607 -1.8341786 4288085770
3.684288 3.2083774 -1.8011715 4288085770
6.3985291 4.1837997 -1.8369681 4288085770
3.9015999 3.2472901 -1.8006874 4288085770
6.8332634 4.2892818 -1.8478456 4288085770
4.1329384 3.2880723 -1.8021544 4288085770
7.2498779 4.382103 -1.8504753 4288085770
4.3823013 3.3317347 -1.8045721 4288085770
7.6945229 4.4797535 -1.8540388 4288085770
4.6326408 3.3724241 -1.8058925 4288085770
8.145134 4.5734377 -1.855437 4288085770
4.8869553 3.4111557 -1.805123 4288085770
8.6628609 4.6846638 -1.8608567 4288085770
5.1703415 3.4576199 -1.8083687 4288085770
9.2858315 4.8259954 -1.8783916 4288085770
5.4587021 3.5010915 -1.8104861 4288085770
9.8034363 4.9244719 -1.8754258 4288085770
5.7480316 3.5416207 -1.8105073 4288085770
10.375107 5.0325875 -1.8753418 4288085770
6.0654106 3.5869193 -1.8134611 4288085770
11.015888 5.1572351 -1.8792348 4288085770
6.3997993 3.6331038 -1.8173134 4288085770
11.62952 5.2632685 -1.8747694 4288085770
6.7211113 3.6715083 -1.8160292 4288085770
12.384434 5.4062285 -1.8823521 4288085770
7.0945244 3.7204704 -1.8206711 4288085770
13.285572 5.5832438 -1.8968561 4288085770
7.4408226 3.7567532 -1.8191346 4288085770
14.283829 5.7776542 -1.9151506 4288085770
7.8251762 3.7987564 -1.8204839 4288085770
15.297016 5.9651175 -1.9291226 4288085770
8.2285271 3.841666 -1.8217177 4288085770
8.7491455 3.9135332 -1.837943 4288085770
9.2175751 3.9629703 -1.8438838 4288085770
9.6508675 3.9967985 -1.8426193 4288085770
10.115177 4.032444 -1.8421762 4288085770
10.599476 4.0669918 -1.8415498 4288085770
11.062683 4.0898008 -1.835729 4288085770
11.563934 4.1163306 -1.8327351 4288085770
12.122234 4.1484575 -1.8334807 4288085770
12.689507 4.1755729 -1.8330094 4288085770
13.332859 4.2121906 -1.8362515 4288085770
13.962132 4.2379732 -1.8362752 4288085770
14.605362 4.2567215 -1.8349831 4288085770
15.328659 4.2829542 -1.8373147 4288085770
16.020859 4.295435 -1.8364693 4288085770
15.99897 -5.1259723 -1.5773768 4293729569
15.360317 -5.0889907 -1.5872835 4293729569
14.664742 -5.0265026 -1.5903643 4293729569
14.050133 -4.9785838 -1.5984102 4293729569
13.49052 -4.9360218 -1.6088881 4293729569
12.996868 -4.9058952 -1.622506 4293729569
12.531219 -4.8789644 -1.63782 4293729569
12.094574 -4.8522058 -1.6539122 4293729569
11.705906 -4.8368244 -1.6743109 4293729569
11.330254 -4.8185086 -1.6946993 4293729569
10.973595 -4.8033137 -1.7158523 4288085770
10.624947 -4.7841301 -1.736063 4288085770
10.234352 -4.7455707 -1.7511547 4288085770
16.079521 -6.8274536 -1.4870542 4293729569
9.8048096 -4.6855922 -1.7591649 4288085770
12.125225 -5.5375104 -1.2795371 4293729569
9.3912582 -4.6277204 -1.7679921 4288085770
11.871635 -5.549674 -1.3281324 4293729569
8.9457474 -4.5514631 -1.769595 4288085770
11.779884 -5.6180797 -1.3898692 4293729569
8.5152359 -4.4742775 -1.7711109 4288085770
11.788029 -5.7202563 -1.4598695 4293729569
8.0867348 -4.3899879 -1.7688198 4288085770
11.619392 -5.7550907 -1.5161682 4293729569
7.6752319 -4.3088393 -1.7683077 4288085770
11.082203 -5.6439686 -1.538498 4293729569
7.3146896 -4.2420821 -1.7719927 4288085770
10.557999 -5.5308199 -1.5577871 4293729569
6.9561577 -4.1702766 -1.7738093 4288085770
10.014839 -5.4004087 -1.5717221 4293729569
6.6216164 -4.1026173 -1.7763243 4288085770
9.4686775 -5.262836 -1.5808854 4293729569
6.281086 -4.027842 -1.7760909 4288085770
8.9425049 -5.1243029 -1.5879253 4293729569
5.9745369 -3.9633489 -1.7793019 4288085770
8.4193306 -4.9806671 -1.5910885 4293729569
5.6769791 -3.8968692 -1.781503 4288085770
7.9541016 -4.8554549 -1.5982774 4293729569
5.3844337 -3.8293858 -1.7826943 4288085770
7.5338211 -4.7435465 -1.6077391 4293729569
5.1048775 -3.7619648 -1.7837868 4288085770
7.1964493 -4.6602678 -1.6237431 4293729569
4.8513031 -3.7037568 -1.7874141 4288085770
6.9889488 -4.631166 -1.6561929 4293729569
4.581749 -3.634356 -1.787487 4288085770
6.8304024 -4.621531 -1.6957083 4293729569
4.3641472 -3.5854392 -1.7945728 4288085770
6.6938438 -4.6180601 -1.7368798 4288085770
4.1185837 -3.5191545 -1.7943738 4288085770
6.52631 -4.598237 -1.7717594 4288085770
3.8969917 -3.4620728 -1.7967253 4288085770
6.2439079 -4.5222235 -1.7871357 4288085770
3.6783943 -3.401947 -1.7971406 4288085770
5.8885803 -4.407423 -1.789184 4288085770
3.4638138 -3.3408718 -1.7985555 4288085770
5.5522232 -4.2976556 -1.7889431 4288085770
3.2652168 -3.2849011 -1.8007008 4288085770
5.1978912 -4.1746569 -1.7842203 4288085770
3.0476303 -3.2166357 -1.7963446 4288085770
4.9224777 -4.0863857 -1.789894 4288085770
2.8780136 -3.1689224 -1.8020319 4288085770
4.6380692 -3.987926 -1.7909306 4288085770
2.6834106 -3.1057968 -1.7983525 4288085770
4.3796349 -3.8996482 -1.7934743 4288085770
2.5028 -3.0478268 -1.797418 4288085770
4.1241951 -3.8093562 -1.795053 4288085770
2.3371811 -2.9939876 -1.798251 4288085770
3.8947334 -3.7282767 -1.7991682 4288085770
2.1595612 -2.9329443 -1.7943809 4288085770
3.6572609 -3.6410117 -1.7985207 4288085770
2.0119324 -2.8842497 -1.7969284 4288085770
3.4527702 -3.56708 -1.8032386 4288085770
1.8653088 -2.8335314 -1.7985268 4288085770
3.2312851 -3.4818635 -1.8014094 4288085770
1.716671 -2.780715 -1.797199 4288085770
3.0147972 -3.3956409 -1.7985709 4288085770
1.572031 -2.7268896 -1.7948705 4288085770
2.8232689 -3.3206253 -1.7982181 4288085770
1.4463921 -2.6813312 -1.7981603 4288085770
2.6327591 -3.2436156 -1.7979156 4288085770
1.3147411 -2.6315966 -1.7966139 4288085770
2.466217 -3.1768069 -1.800136 4288085770
1.1880913 -2.5819161 -1.796029 4288085770
2.2856789 -3.0997567 -1.7967571 4288085770
2.1221199 -3.0298452 -1.7950414 4288085770
1.97155 -2.966084 -1.7960504 4288085770
1.8299713 -2.904366 -1.7969322 4288085770
1.6893826 -2.8415933 -1.7958357 4288085770
1.5488052 -2.7757931 -1.7938269 4288085770
1.4172001 -2.7150345 -1.7916024 4288085770
1.2995968 -2.6594596 -1.7931238 4288085770
1.1869888 -2.6038802 -1.7936076 4288085770
1.167696 -0.31695151 -1.7879931 4288085770
1.2708836 -0.30449164 -1.7886678 4288085770
1.3610363 -0.29079342 -1.7834662 4288085770
1.4722233 -0.27837205 -1.7840866 4288085770
1.5763779 -0.26577103 -1.7797588 4288085770
1.6955547 -0.25435841 -1.7792962 4288085770
1.8317528 -0.2441448 -1.7826849 4288085770
1.9599247 -0.23174739 -1.7811909 4288085770
2.0990944 -0.22040284 -1.779592 4288085770
2.249279 -0.20919871 -1.7809162 4288085770
1.2288074 -0.11725962 -1.7895628 4288085770
2.4134674 -0.19909155 -1.7831147 4288085770
1.3329639 -0.10568702 -1.786206 4288085770
2.554615 -0.18664026 -1.7775359 4288085770
1.4611416 -0.096375465 -1.7876226 4288085770
2.7257805 -0.17647934 -1.7766892 4288085770
1.5853176 -0.084987164 -1.787127 4288085770
2.9279861 -0.16661406 -1.7806264 4288085770
1.7305012 -0.075787306 -1.789427 4288085770
3.1081352 -0.15540957 -1.7767503 4288085770
1.8736801 -0.065519691 -1.7897718 4288085770
3.3203278 -0.14553452 -1.7786218 4288085770
2.0098228 -0.055101395 -1.7861669 4288085770
3.5354881 -0.13458657 -1.7775031 4288085770
2.1689987 -0.044911265 -1.7864031 4288085770
3.766655 -0.12471604 -1.7762476 4288085770
2.3321648 -0.034711361 -1.7856128 4288085770
4.0138283 -0.11392343 -1.774912 4288085770
2.502327 -0.025544882 -1.7847465 4288085770
4.2739944 -0.10419321 -1.7734592 4288085770
2.6744843 -0.015330195 -1.7818975 4288085770
4.5341454 -0.09337616 -1.7690389 4288085770
2.8776665 -0.0064108372 -1.7838042 4288085770
4.8323021 -0.08380115 -1.7663277 4288085770
3.0848351 0.0025473833 -1.7836854 4288085770
5.1474609 -0.074308276 -1.7635019 4288085770
3.320034 0.011253834 -1.7873732 4288085770
5.5046349 -0.065106034 -1.7633866 4288085770
3.5301666 0.021371722 -1.7812688 4288085770
5.8878098 -0.056029677 -1.7630949 4288085770
3.7693176 0.030233264 -1.7789352 4288085770
6.279953 -0.046880364 -1.7587459 4288085770
4.0304794 0.038959265 -1.7774514 4288085770
6.7191124 -0.036988378 -1.7551044 4288085770
4.303627 0.047685385 -1.7738874 4288085770
7.1962662 -0.028279781 -1.7511756 4288085770
4.5987778 0.056275725 -1.7711738 4288085770
7.7684669 -0.021292567 -1.7555637 4288085770
4.9179382 0.063692451 -1.7702675 4288085770
8.3666382 -0.014285445 -1.7547793 4288085770
5.2520905 0.072094083 -1.7672901 4288085770
9.0197983 -0.0064872503 -1.7516516 4288085770
5.6312485 0.079220414 -1.7659762 4288085770
9.7609634 -0.00020182133 -1.7508938 4288085770
6.0494194 0.087099314 -1.7664247 4288085770
10.641167 0.0062651634 -1.7542127 4288085770
6.4725571 0.094099641 -1.761816 4288085770
11.609367 0.011306643 -1.7569067 4288085770
6.9547081 0.10072744 -1.7598044 4288085770
12.598473 0.017652392 -1.7454996 4288085770
7.4868698 0.10708404 -1.7584534 4288085770
13.760616 0.022986412 -1.7389115 4288085770
8.102047 0.11192298 -1.7605066 4288085770
15.127747 0.027327895 -1.7309279 4288085770
8.7361946 0.11681545 -1.7574369 4288085770
9.4703522 0.12216532 -1.7557157 4288085770
10.323544 0.12576556 -1.7591544 4288085770
11.310741 0.12765968 -1.7636539 4288085770
12.337879 0.12959218 -1.7598912 4288085770
13.410938 0.13162136 -1.7448273 4288085770
14.800098 0.13062811 -1.7445784 4288085770
15.614235 0.36209249 -1.7323132 4288085770
14.225491 0.3887102 -1.7408295 4288085770
13.027729 0.41241306 -1.7483313 4288085770
11.990982 0.43526477 -1.7580215 4288085770
11.061195 0.45573682 -1.7621208 4288085770
10.133354 0.47546548 -1.7561781 4288085770
9.3815422 0.49313802 -1.7573274 4288085770
8.7117462 0.5113641 -1.7600901 4288085770
15.021709 0.7022298 -1.7276462 4288085770
8.0869331 0.52845442 -1.7595993 4288085770
13.737911 0.71737456 -1.7343104 4288085770
7.5271187 0.54520661 -1.7597812 4288085770
12.655117 0.73247588 -1.7429944 4288085770
7.0083008 0.56076258 -1.7597295 4288085770
11.663292 0.7462737 -1.7461954 4288085770
6.5394745 0.57610542 -1.7584269 4288085770
10.756466 0.75969088 -1.747969 4288085770
6.1386948 0.59293604 -1.7638348 4288085770
9.9606285 0.77260232 -1.7481875 4288085770
5.7608986 0.60870975 -1.7671002 4288085770
9.2317886 0.78519273 -1.7480693 4288085770
5.3860703 0.62360185 -1.7653233 4288085770
8.6049652 0.79824078 -1.7494676 4288085770
5.0672646 0.63809323 -1.7682655 4288085770
8.0391502 0.81196964 -1.7515866 4288085770
4.7704697 0.65345222 -1.7721227 4288085770
7.5023079 0.82363951 -1.7505065 4288085770
4.4906654 0.66775662 -1.7748679 4288085770
7.0234718 0.83597815 -1.7511626 4288085770
4.2508812 0.68378913 -1.7804657 4288085770
6.5856438 0.84914637 -1.7506399 4288085770
4.0000725 0.69798106 -1.7820646 4288085770
6.2088432 0.86286288 -1.7558382 4288085770
3.7662544 0.71211785 -1.7825781 4288085770
5.8610497 0.87744027 -1.7609174 4288085770
3.5454483 0.72716576 -1.7840515 4288085770
5.5342445 0.890944 -1.7648644 4288085770
3.3296204 0.7402432 -1.7834473 4288085770
5.202404 0.90363044 -1.7628098 4288085770
3.1077728 0.75245547 -1.7788458 4288085770
4.9196053 0.91792279 -1.7665627 4288085770
2.9459915 0.76808769 -1.7850498 4288085770
4.6417885 0.93127072 -1.767264 4288085770
2.7791939 0.78282368 -1.7882519 4288085770
4.3809624 0.94353765 -1.7678534 4288085770
2.6043663 0.79673064 -1.7864672 4288085770
4.1601715 0.95850605 -1.7723229 4288085770
2.4355316 0.80963546 -1.7836257 4288085770
3.9153328 0.97077549 -1.7698312 4288085770
2.2877159 0.82333368 -1.7847053 4288085770
3.7005081 0.98382139 -1.7702163 4288085770
2.1519165 0.83794755 -1.786751 4288085770
3.5157127 0.99864376 -1.773505 4288085770
2.0211067 0.8525638 -1.7877715 4288085770
3.3199043 1.0116303 -1.771796 4288085770
1.883297 0.8652721 -1.7857721 4288085770
3.1641235 1.0272332 -1.7779596 4288085770
1.7725105 0.88071227 -1.7897137 4288085770
3.002327 1.0419708 -1.7801269 4288085770
1.6486778 0.89337403 -1.7876409 4288085770
2.8435097 1.0557473 -1.7802526 4288085770
1.5488853 0.90878779 -1.7905277 4288085770
2.7007141 1.0703676 -1.783325 4288085770
1.4380646 0.92236054 -1.7894161 4288085770
2.5478859 1.084168 -1.7814205 4288085770
1.3472729 0.9377048 -1.7932575 4288085770
2.415081 1.0987666 -1.7834426 4288085770
1.2474537 0.95219851 -1.7931167 4288085770
2.2872658 1.1133945 -1.7834401 4288085770
2.1684685 1.1289258 -1.7854187 4288085770
2.0396309 1.1416378 -1.7823682 4288085770
1.924818 1.156203 -1.7823005 4288085770
1.8170109 1.1717342 -1.7822243 4288085770
1.7182083 1.187196 -1.7831035 4288085770
1.6203957 1.2016797 -1.7829511 4288085770
1.5285892 1.2171342 -1.7827953 4288085770
1.446804 1.2344609 -1.7856421 4288085770
1.362999 1.2498509 -1.786446 4288085770
1.2811966 1.2662572 -1.7862663 4288085770
1.2023888 1.2816495 -1.7860454 4288085770
1.2164516 3.3744526 -1.802636 4288085770
1.3299694 3.4507475 -1.8091028 4288085770
1.4354458 3.5221865 -1.811478 4288085770
1.5449238 3.5946062 -1.8138608 4288085770
1.6704578 3.6758938 -1.8184021 4288085770
1.8030014 3.7591472 -1.8229626 4288085770
1.9526081 3.8522382 -1.830703 4288085770
2.0841255 3.9325757 -1.8321913 4288085770
2.2296791 4.0198174 -1.8347962 4288085770
2.4013138 4.1208267 -1.8416424 4288085770
1.1920433 3.4541707 -1.8167583 4288085770
2.5428162 4.2022457 -1.838112 4288085770
1.2964268 3.5117493 -1.8137754 4288085770
2.7053795 4.294457 -1.8387684 4288085770
1.456049 3.6016116 -1.8283889 4288085770
2.8819885 4.3925724 -1.8405154 4288085770
1.5825005 3.6689775 -1.8295624 4288085770
3.0937042 4.5103846 -1.8476179 4288085770
1.7280235 3.7471449 -1.8349323 4288085770
3.3023987 4.6242642 -1.8526311 4288085770
1.8534317 3.8096216 -1.8319823 4288085770
3.5261154 4.7440953 -1.8567311 4288085770
1.9999199 3.8838897 -1.8332452 4288085770
3.7538376 4.8639078 -1.8608125 4288085770
2.1735077 3.9728413 -1.8417703 4288085770
4.0116425 4.9995193 -1.86717 4288085770
2.3089027 4.0353479 -1.8357754 4288085770
4.2704163 5.1322041 -1.870446 4288085770
2.4764137 4.1155138 -1.8370976 4288085770
4.5432053 5.2688222 -1.8737618 4288085770
2.657959 4.2015839 -1.8395104 4288085770
4.8541183 5.4251728 -1.8804196 4288085770
2.8334656 4.2817626 -1.8387965 4288085770
5.1690102 5.5805569 -1.8850342 4288085770
3.0340424 4.372715 -1.8422513 4288085770
5.5240211 5.7556124 -1.8949813 4288085770
3.2456474 4.4685869 -1.8467848 4288085770
5.9341774 5.9573178 -1.908374 4288085770
3.4813156 4.5752878 -1.8534926 4288085770
6.3382797 6.1511321 -1.9185882 4288085770
3.7239761 4.6819811 -1.8591685 4288085770
6.7834702 6.3627448 -1.9290806 4288085770
3.9545708 4.7788653 -1.8596429 4288085770
7.3359871 6.6285148 -1.9525024 4288085770
4.2172585 4.8904614 -1.865357 4288085770
7.8703842 6.8785839 -1.9675953 4288085770
4.4949646 5.0069842 -1.8711323 4288085770
8.3946915 7.1168871 -1.9754266 4288085770
4.7866859 5.1264648 -1.8759216 4288085770
8.8858337 7.330616 -1.972766 4288085770
5.0884209 5.2478971 -1.8807174 4288085770
9.4571877 7.5807672 -1.9776945 4288085770
5.3840904 5.3614645 -1.8813354 4288085770
10.114746 7.8703914 -1.9872634 4288085770
5.7278976 5.4966388 -1.8883011 4288085770
6.0776825 5.6308889 -1.8912156 4288085770
6.5267601 5.8112602 -1.909888 4288085770
6.905571 5.9503441 -1.9138 4288085770
7.3334885 6.1081095 -1.9209789 4288085770
7.825573 6.2933779 -1.9355876 4288085770
8.3627357 6.4933991 -1.9513792 4288085770
8.9429779 6.7081318 -1.9703621 4288085770
9.4940758 6.9002452 -1.979887 4288085770
9.9979668 7.0608792 -1.9778044 4288085770
10.546947 7.2361884 -1.9799039 4288085770
11.174091 7.4410114 -1.986423 4288085770
11.853302 7.6585546 -1.9940422 4288085770
12.464272 7.8366961 -1.9909428 4288085770
13.111267 8.0207157 -1.985837 4288085770
15.325024 -2.3198752 -1.7440794 4288085770
14.557056 -2.3330758 -1.7420189 4288085770
13.859112 -2.3446891 -1.7427024 4288085770
13.234161 -2.3607519 -1.7469636 4288085770
12.647236 -2.3730223 -1.7521596 4288085770
12.095318 -2.384486 -1.758227 4288085770
11.569416 -2.3930759 -1.7642561 4288085770
11.051529 -2.3966544 -1.7683768 4288085770
10.536659 -2.393173 -1.7696614 4288085770
10.062794 -2.3919637 -1.773715 4288085770
9.581955 -2.3815968 -1.7730277 4288085770
9.0741386 -2.359952 -1.7667365 4288085770
15.602837 -3.6915379 -1.7354783 4288085770
8.6433105 -2.348875 -1.7678541 4288085770
14.633358 -3.6048059 -1.7367963 4288085770
8.2274895 -2.334846 -1.7679818 4288085770
13.809818 -3.5369444 -1.74402 4288085770
7.8306808 -2.3199077 -1.7680513 4288085770
13.042274 -3.4693251 -1.7499993 4288085770
7.4618683 -2.3041298 -1.7690235 4288085770
12.286743 -3.3956637 -1.7520769 4288085770
7.1060562 -2.2883878 -1.7689377 4288085770
11.647152 -3.3387299 -1.7602413 4288085770
6.754261 -2.2686417 -1.7679359 4288085770
10.995598 -3.2715893 -1.7627116 4288085770
6.4364624 -2.2531583 -1.7706835 4288085770
10.417999 -3.2149005 -1.7686056 4288085770
6.1096802 -2.2315321 -1.7696218 4288085770
9.8464203 -3.1521664 -1.771624 4288085770
5.8168831 -2.2141433 -1.7713103 4288085770
9.2588692 -3.0791821 -1.7679648 4288085770
5.5340919 -2.1958027 -1.7729799 4288085770
8.7292786 -3.0145488 -1.7668496 4288085770
5.2773018 -2.1806619 -1.7774593 4288085770
8.2416801 -2.9541392 -1.7664496 4288085770
5.0075226 -2.1583345 -1.7771728 4288085770
7.7900734 -2.8959274 -1.7668414 4288085770
4.7527428 -2.1371033 -1.7777948 4288085770
7.3844414 -2.8460345 -1.7708293 4288085770
4.5199623 -2.1180277 -1.7802699 4288085770
6.9678307 -2.7879648 -1.770067 4288085770
4.3041801 -2.1010835 -1.7846198 4288085770
6.5871887 -2.7360907 -1.7699957 4288085770
4.0784035 -2.0800166 -1.7861139 4288085770
6.2345505 -2.6864009 -1.7717513 4288085770
3.8706322 -2.060061 -1.788504 4288085770
5.8709259 -2.6295328 -1.7687312 4288085770
3.6868477 -2.0443203 -1.7946877 4288085770
5.5772514 -2.5902231 -1.7739758 4288085770
3.4720879 -2.0172064 -1.7922853 4288085770
5.2666016 -2.540683 -1.7735471 4288085770
3.2983055 -2.0004883 -1.7974502 4288085770
4.9819412 -2.4963419 -1.7758777 4288085770
3.1025467 -1.9744909 -1.7959391 4288085770
4.7302589 -2.4602571 -1.7818621 4288085770
2.9167824 -1.9485404 -1.7943839 4288085770
4.4765816 -2.4180379 -1.7830073 4288085770
2.7380142 -1.9236495 -1.7937721 4288085770
4.2229118 -2.3737948 -1.7832019 4288085770
2.6022377 -1.9102135 -1.8026941 4288085770
4.0002251 -2.3378227 -1.7880585 4288085770
2.4494667 -1.8895462 -1.8058671 4288085770
3.7615509 -2.2926004 -1.7862126 4288085770
2.2896996 -1.8647461 -1.8051718 4288085770
3.5538483 -2.2566502 -1.7890037 4288085770
2.1419334 -1.8420527 -1.8063732 4288085770
3.333168 -2.2125132 -1.7870531 4288085770
2.0011711 -1.8193932 -1.8075441 4288085770
3.1424675 -2.1766443 -1.7897694 4288085770
1.8893948 -1.8060968 -1.81736 4288085770
2.9667702 -2.1428967 -1.7943695 4288085770
1.7536259 -1.7824364 -1.8175339 4288085770
2.7750702 -2.1028981 -1.7921908 4288085770
1.6218643 -1.7577946 -1.817715 4288085770
2.5943718 -2.0640016 -1.7919383 4288085770
1.5070953 -1.7393594 -1.8226701 4288085770
2.4336548 -2.0302501 -1.7934725 4288085770
1.3853302 -1.7157907 -1.823782 4288085770
2.2719498 -1.9944692 -1.7940611 4288085770
1.2655678 -1.6912067 -1.8239101 4288085770
2.1182365 -1.9597259 -1.7945894 4288085770
1.1578026 -1.6697552 -1.82691 4288085770
1.9745235 -1.9260557 -1.7960489 4288085770
1.8557968 -1.9006536 -1.8031969 4288085770
1.7220707 -1.8690307 -1.8045615 4288085770
1.5913525 -1.835397 -1.8049637 4288085770
1.4836178 -1.8110478 -1.8120377 4288085770
1.3668938 -1.7805305 -1.8143026 4288085770
1.2491646 -1.7489583 -1.8145968 4288085770
1.2355499 0.31276274 -1.7859868 4288085770
1.3687496 0.32396722 -1.7917466 4288085770
1.4769096 0.33556402 -1.7866113 4288085770
1.5980778 0.3470242 -1.7844229 4288085770
1.7322521 0.35737312 -1.7841569 4288085770
1.8854465 0.36853182 -1.7878381 4288085770
2.0246124 0.37993073 -1.7845784 4288085770
2.177784 0.39121324 -1.7832623 4288085770
1.2558689 0.39146852 -1.7928762 4288085770
2.3399582 0.40142822 -1.7828853 4288085770
1.3780308 0.40089983 -1.7916344 4288085770
2.5181389 0.41254181 -1.7834687 4288085770
1.5131989 0.4092198 -1.792315 4288085770
2.7003136 0.42368591 -1.7820373 4288085770
1.6463604 0.4175989 -1.7910048 4288085770
2.9004936 0.43466949 -1.7835332 4288085770
1.7855129 0.42597419 -1.7886711 4288085770
3.1056709 0.44567889 -1.7830101 4288085770
1.9346752 0.43425214 -1.7882971 4288085770
3.3278503 0.45658231 -1.7834189 4288085770
2.0898323 0.44152641 -1.7868751 4288085770
3.5710373 0.46733588 -1.7857437 4288085770
2.2600021 0.44965434 -1.7884172 4288085770
3.8021927 0.47729552 -1.7820946 4288085770
2.4401665 0.45775956 -1.78892 4288085770
4.0453568 0.4882223 -1.7774233 4288085770
2.621315 0.46490955 -1.7873952 4288085770
4.3185234 0.49793178 -1.7756064 4288085770
2.8515129 0.47257787 -1.795696 4288085770
4.6197014 0.50845766 -1.7757027 4288085770
3.0306435 0.47886139 -1.7891576 4288085770
4.9318733 0.51900524 -1.7727566 4288085770
3.2307777 0.48501986 -1.7835352 4288085770
5.2670403 0.52941811 -1.7707193 4288085770
3.4759521 0.49174064 -1.7867551 4288085770
5.6272049 0.53973633 -1.7675831 4288085770
3.7000961 0.49776042 -1.7810327 4288085770
6.0203896 0.54884821 -1.7652839 4288085770
3.9642601 0.50346434 -1.7811518 4288085770
6.4425621 0.55984449 -1.7629232 4288085770
4.2374001 0.50817496 -1.7792116 4288085770
6.9087296 0.56963068 -1.760363 4288085770
4.5385513 0.51370203 -1.7791846 4288085770
7.4439163 0.57998818 -1.761552 4288085770
4.8346786 0.51737714 -1.7741302 4288085770
8.0351067 0.5900535 -1.7635181 4288085770
5.1928368 0.5215826 -1.7758516 4288085770
8.6562843 0.60007417 -1.7613672 4288085770
5.5319481 0.52407736 -1.769603 4288085770
9.3234367 0.60997367 -1.7550356 4288085770
5.930088 0.52716619 -1.7681431 4288085770
10.154652 0.62076795 -1.761097 4288085770
6.3502235 0.52915013 -1.7665719 4288085770
11.040848 0.63142276 -1.7619427 4288085770
6.8143616 0.53089923 -1.765826 4288085770
11.973999 0.64002633 -1.7555565 4288085770
7.3334961 0.53133637 -1.766837 4288085770
12.992138 0.64732248 -1.7448107 4288085770
7.8926277 0.53060734 -1.7666657 4288085770
14.239307 0.65535098 -1.7402024 4288085770
8.5127602 0.52956218 -1.7672528 4288085770
15.660469 0.66357225 -1.7339294 4288085770
9.1498528 0.52660882 -1.7607269 4288085770
9.936985 0.5226922 -1.7636026 4288085770
10.808109 0.5173499 -1.7671213 4288085770
11.767223 0.50963694 -1.7682441 4288085770
12.760265 0.49703407 -1.7581147 4288085770
13.928329 0.48342228 -1.7542908 4288085770
15.255352 0.46415073 -1.7457166 4288085770
6.104332 -5.5134392 0.07770063 4293729569
6.0959435 -5.4495573 0.029092923 4293729569
6.1144791 -5.4007759 -0.01805453 4293729569
6.1429901 -5.3560405 -0.06506779 4293729569
6.1804848 -5.3153224 -0.1109525 4293729569
6.2628708 -5.2958126 -0.15616655 4293729569
7.4730606 -5.3386402 -0.52514136 4293729569
7.4777031 -5.2605805 -0.56403601 4293729569
15.855007 -7.8577204 -1.4625868 4293729569
15.497566 -7.5672655 -1.477864 4293729569
15.117149 -7.2695847 -1.4883913 4293729569
11.824211 -5.8490486 -1.2750701 4293729569
11.925884 -5.7366099 -0.48218083 4293729569
11.834999 -5.7327628 -1.3038585 4293729569
11.895737 -5.6050858 -0.50947821 4293729569
11.800842 -5.5991235 -1.327219 4293729569
11.931473 -5.4989195 -0.53793442 4293729569
11.935436 -5.5286069 -1.3624731 4293729569
13.77467 -6.0648718 -1.5362067 4293729569
13.574783 -5.8620038 -1.5428077 4293729569
13.494724 -5.7009115 -1.5569848 4293729569
13.338737 -5.5182247 -1.5619435 4293729569
13.259636 -5.3610401 -1.5720171 4293729569
13.194515 -5.2099223 -1.5818973 4293729569
13.099422 -5.0495434 -1.5871022 4293729569
13.164143 -4.9392495 -1.6045468 4293729569
13.549511 -4.9231777 -1.6486132 4293729569
14.076748 -4.944109 -1.7052987 4288085770
14.444168 -4.9128361 -1.744792 4288085770
14.504913 -4.7913589 -1.7555155 4288085770
14.456757 -4.640059 -1.7543314 4288085770
14.416569 -4.493772 -1.7519979 4288085770
14.463303 -4.368062 -1.7558669 4288085770
14.441093 -4.2258363 -1.7523704 4288085770
14.507797 -4.1061726 -1.7540221 4288085770
14.536537 -3.9742117 -1.7510989 4288085770
14.586258 -3.8473501 -1.7479792 4288085770
14.641956 -3.7245159 -1.7447416 4288085770
14.742615 -3.6089182 -1.7421705 4288085770
14.901245 -3.5047145 -1.7441261 4288085770
15.061886 -3.3974733 -1.7441459 4288085770
15.249508 -3.2933607 -1.7439955 4288085770
15.336174 -3.1715088 -1.7336199 4288085770
15.598763 -3.0768232 -1.7359811 4288085770
15.892342 -2.9853101 -1.739158 4288085770
16.116962 -2.8772573 -1.7339685 4288085770
15.351223 0.74040103 -1.731559 4288085770
14.152538 0.78322363 -1.7332126 4288085770
13.182873 0.82473952 -1.7431362 4288085770
12.3102 0.86481154 -1.7517276 4288085770
