# .PCD v0.7 - Point Cloud Data file format
VERSION 0.7
FIELDS x y z rgb
SIZE 4 4 4 4
TYPE F F F U
COUNT 1 1 1 1
WIDTH 1110
HEIGHT 1
VIEWPOINT 0 0 0 1 0 0 0
POINTS 1110
DATA ascii
-0.97378922 0.65084267 -1.8019114 4288085770
-2.0147781 0.63746524 -1.8017997 4288085770
-0.80662918 0.66152835 -1.7968109 4288085770
-1.8606682 0.6472559 -1.8056301 4288085770
-0.57054901 0.6742425 -1.8061053 4288085770
-1.6686211 0.65808368 -1.8196787 4288085770
-0.32846451 0.68693805 -1.8144356 4288085770
-1.5144958 0.66583633 -1.8195283 4288085770
-0.098339081 0.69858575 -1.815704 4288085770
-1.339386 0.67458582 -1.8224944 4288085770
0.11183167 0.70918798 -1.808862 4288085770
-1.1692505 0.68230486 -1.8214401 4288085770
0.36896133 0.72079468 -1.8102925 4288085770
-1.0150833 0.68899131 -1.8142996 4288085770
0.62611008 0.73136401 -1.8077327 4288085770
-0.85791016 0.69566417 -1.8061771 4288085770
0.8892746 0.74190497 -1.8032089 4288085770
-0.66477203 0.70234871 -1.8052706 4288085770
1.1734276 0.75242424 -1.7998114 4288085770
-0.41270447 0.71204829 -1.8156893 4288085770
1.4915771 0.76290154 -1.7976182 4288085770
-0.17359543 0.71970129 -1.8190494 4288085770
1.8367157 0.77434802 -1.7965773 4288085770
0.052547455 0.72531748 -1.8163505 4288085770
2.1948776 0.783746 -1.7926338 4288085770
0.26972198 0.72989058 -1.8076074 4288085770
2.6010094 0.79510999 -1.7929595 4288085770
0.53684616 0.73547339 -1.8081547 4288085770
3.0451508 0.80640745 -1.7925135 4288085770
0.79400253 0.74001431 -1.8026516 4288085770
3.5262909 0.81764889 -1.7922899 4288085770
1.089138 0.74553633 -1.8013674 4288085770
4.0354347 0.82884812 -1.7922343 4288085770
1.4052734 0.74902678 -1.800228 4288085770
4.6515388 0.84093356 -1.7978117 4288085770
1.7593918 0.75347877 -1.8013072 4288085770
5.2646961 0.85094857 -1.7953904 4288085770
2.1145287 0.75689149 -1.7984022 4288085770
5.9838161 0.86285067 -1.7985868 4288085770
2.4906654 0.75827265 -1.7956421 4288085770
6.791935 0.87462831 -1.8033177 4288085770
2.9297867 0.76159692 -1.7972413 4288085770
7.7500248 0.88922763 -1.8139207 4288085770
3.4128876 0.76286411 -1.8001238 4288085770
8.8471069 0.90362668 -1.8263588 4288085770
3.9290161 0.76405406 -1.8002045 4288085770
10.037214 0.91683865 -1.8343652 4288085770
4.4971313 0.7631743 -1.8016163 4288085770
11.289383 0.92585397 -1.8317826 4288085770
5.1002522 0.76122379 -1.801248 4288085770
5.7463875 0.75818968 -1.7991474 4288085770
6.5364723 0.75400496 -1.8049209 4288085770
7.4695187 0.75067067 -1.8185433 4288085770
8.5075607 0.744169 -1.8318244 4288085770
9.742569 0.73641849 -1.8512982 4288085770
10.896708 0.72157335 -1.8473527 4288085770
12.217838 0.70146775 -1.8434575 4288085770
1.1861496 -4.5959964 -0.27237588 4293729569
1.1611366 -4.528604 -0.31059727 4293729569
1.1870728 -4.488276 -0.35037559 4293729569
1.2110176 -4.4459672 -0.38812369 4293729569
1.2879105 -4.4317164 -0.42844969 4293729569
2.9925194 -4.613626 -0.29829818 4293729569
2.9361916 -4.596271 -0.86683172 4293729569
2.9525909 -4.5162778 -0.32915264 4293729569
2.9452286 -4.5240045 -0.89721233 4293729569
2.9666367 -4.4450192 -0.35957265 4293729569
2.9842453 -4.4627738 -0.92887515 4293729569
3.0386314 -4.3978457 -0.39056361 4293729569
3.0402489 -4.4095683 -0.96071434 4293729569
9.3508434 -7.1330495 -1.5518215 4293729569
9.0732327 -6.8834805 -1.5658375 4293729569
8.7516956 -6.6209121 -1.5724694 4293729569
8.4801102 -6.3834081 -1.5806335 4293729569
8.2814484 -6.1799741 -1.5935514 4293729569
4.9904881 -4.7235684 -1.2933038 4293729569
5.0245247 -4.6315436 -0.65361321 4293729569
5.0055885 -4.633368 -1.3175546 4293729569
5.02565 -4.5363393 -0.67573386 4293729569
5.0097275 -4.5381894 -1.3376935 4293729569
5.0367718 -4.4441619 -0.69694263 4293729569
5.0188484 -4.4460092 -1.3588902 4293729569
5.0329151 -4.3489804 -0.71603376 4293729569
5.0249977 -4.35286 -1.37606 4293729569
5.0370598 -4.253818 -0.73417312 4293729569
5.0301533 -4.2567096 -1.3931962 4293729569
5.1980782 -4.2158351 -0.75978309 4293729569
5.2560558 -4.242703 -1.432418 4293729569
5.4830017 -4.2189898 -0.79151702 4293729569
5.5578823 -4.249743 -1.4792902 4293729569
6.9454575 -4.6273942 -1.6451093 4293729569
6.9396648 -4.5152659 -1.6580319 4293729569
6.8290062 -4.3681111 -1.6560009 4293729569
6.833231 -4.2580333 -1.6650027 4293729569
4.5147667 -3.4204979 -0.78829688 4293729569
6.810482 -4.140945 -1.6707779 4293729569
4.497982 -3.3244166 -0.79430312 4293729569
3.9829102 -3.1644349 -1.3537672 4293729569
4.3493156 -3.1892128 -0.79115629 4293729569
3.9971199 -3.0804095 -1.3590709 4293729569
4.3465424 -3.0981708 -0.79529333 4293729569
4.1341972 -3.031456 -1.3774365 4293729569
4.3737526 -3.0171733 -0.79970324 4293729569
4.2093506 -2.9644747 -1.3882642 4293729569
4.4099541 -2.938189 -0.80418575 4293729569
4.6111603 -2.9856853 -1.4338676 4293729569
4.4931335 -2.8712659 -0.81006163 4293729569
4.6713524 -2.9107285 -1.4395314 4293729569
4.7112236 -2.8384886 -0.82306266 4293729569
4.6786079 -2.8197479 -1.4387294 4293729569
4.8603745 -2.7846551 -0.8304553 4293729569
4.6629028 -2.7247796 -1.4327527 4293729569
8.2175045 -3.5086627 -1.8323289 4288085770
8.3037529 -3.4097738 -1.8349271 4288085770
8.4209805 -3.3189225 -1.8387856 4288085770
8.4642925 -3.2100439 -1.8330342 4288085770
8.587532 -3.1192193 -1.834929 4288085770
8.726778 -3.0274282 -1.835911 4288085770
8.9239788 -2.9466777 -1.842343 4288085770
9.1471748 -2.8699665 -1.8489681 4288085770
9.3493958 -2.7852511 -1.8523936 4288085770
9.5616283 -2.70157 -1.8538888 4288085770
9.7718773 -2.6128945 -1.8543259 4288085770
10.014116 -2.5302677 -1.8550107 4288085770
10.291349 -2.4486723 -1.8579113 4288085770
10.618555 -2.3701348 -1.8631462 4288085770
10.932793 -2.2866154 -1.8642572 4288085770
11.335979 -2.2111731 -1.8719766 4288085770
11.718216 -2.1277556 -1.8734967 4288085770
12.130445 -2.0453734 -1.8762062 4288085770
11.939365 0.98744464 -1.8317126 4288085770
10.83651 1.0331631 -1.8336502 4288085770
9.8166809 1.0737131 -1.8311346 4288085770
8.8248882 1.1071405 -1.8198516 4288085770
7.9280987 1.1394167 -1.8081517 4288085770
7.1412964 1.1685474 -1.7991439 4288085770
6.4674759 1.1975279 -1.7928189 4288085770
5.8546486 1.2264259 -1.7878625 4288085770
5.3287907 1.2552397 -1.788432 4288085770
12.456577 1.7865522 -1.821658 4288085770
4.8529358 1.2839699 -1.7883039 4288085770
11.338709 1.8002396 -1.8177924 4288085770
4.3900948 1.3096538 -1.7852812 4288085770
10.366846 1.8167095 -1.8147824 4288085770
3.9932327 1.3372753 -1.7866393 4288085770
9.4619961 1.8300524 -1.8092047 4288085770
3.6153755 1.3638597 -1.7871214 4288085770
8.6231613 1.8412611 -1.8000441 4288085770
3.276516 1.3893852 -1.7878485 4288085770
7.9043045 1.857336 -1.7965639 4288085770
2.9306755 1.4128859 -1.7845511 4288085770
7.223465 1.8693178 -1.7893494 4288085770
2.6378098 1.4383523 -1.786556 4288085770
6.6535988 1.8881884 -1.7887427 4288085770
2.352951 1.4637887 -1.7866093 4288085770
6.1427269 1.9079802 -1.7894838 4288085770
2.1030846 1.4891911 -1.7888743 4288085770
5.6268883 1.9227161 -1.7832398 4288085770
1.8642159 1.5135679 -1.7902147 4288085770
5.1980152 1.9423854 -1.7844766 4288085770
1.6273651 1.5369239 -1.7895763 4288085770
4.7821579 1.9599996 -1.7818103 4288085770
1.4244881 1.5632653 -1.7931162 4288085770
4.4052963 1.9795732 -1.7813616 4288085770
1.2256241 1.5885828 -1.7946897 4288085770
4.048439 1.9991083 -1.7800338 4288085770
1.0157814 1.6098804 -1.7922325 4288085770
3.7305717 2.0206029 -1.7809238 4288085770
0.82793427 1.6331542 -1.7908903 4288085770
3.4277153 2.0410576 -1.7799138 4288085770
0.67705154 1.6604266 -1.795736 4288085770
3.1688385 2.0654824 -1.7831334 4288085770
0.51718521 1.6846857 -1.7975541 4288085770
2.9049797 2.0868785 -1.7823502 4288085770
0.36033249 1.7079227 -1.7973995 4288085770
2.6671066 2.1102629 -1.7847058 4288085770
0.22246933 1.7341487 -1.7993327 4288085770
2.4212608 2.1296144 -1.7820494 4288085770
0.07062149 1.7553601 -1.7972263 4288085770
2.2104034 2.1529312 -1.7815686 4288085770
-0.061229706 1.7795594 -1.797214 4288085770
2.0035439 2.1762516 -1.7821119 4288085770
-0.18408966 1.8047545 -1.7982471 4288085770
1.800705 2.1975389 -1.7796977 4288085770
-0.31293869 1.8279312 -1.7962618 4288085770
1.6348343 2.2248158 -1.7824529 4288085770
-0.44377136 1.8480933 -1.7922918 4288085770
1.4619827 2.2480674 -1.7812021 4288085770
-0.55062485 1.8722553 -1.7924306 4288085770
1.3121147 2.2743206 -1.7840631 4288085770
-0.63250351 1.9024248 -1.7976667 4288085770
1.1672668 2.3005393 -1.7839547 4288085770
-0.75033188 1.9225585 -1.792775 4288085770
1.0144196 2.3247607 -1.7828157 4288085770
-0.83718872 1.9496996 -1.794008 4288085770
0.88156509 2.3509617 -1.7827801 4288085770
-0.91605377 1.9768379 -1.7962893 4288085770
0.74671936 2.3761563 -1.7817409 4288085770
-1.010891 2.0009553 -1.7935009 4288085770
0.62986755 2.4033332 -1.781793 4288085770
-1.0827522 2.0280828 -1.7958248 4288085770
0.53001022 2.4345117 -1.7849119 4288085770
-1.1765785 2.0501807 -1.7910604 4288085770
0.42216492 2.4626665 -1.7840093 4288085770
-1.2474289 2.0772891 -1.7913903 4288085770
0.31431961 2.4898205 -1.7831159 4288085770
-1.3142815 2.1043916 -1.7917446 4288085770
0.23446274 2.5229692 -1.7863377 4288085770
-1.3751297 2.1334848 -1.7921169 4288085770
0.11964035 2.5460892 -1.7804382 4288085770
-1.4259949 2.16359 -1.7955408 4288085770
0.037788391 2.5772226 -1.7816659 4288085770
-1.4958229 2.1886611 -1.791895 4288085770
-0.053039551 2.6063337 -1.7788577 4288085770
-1.5426788 2.2197514 -1.7943343 4288085770
-0.1358757 2.6354418 -1.7770976 4288085770
-1.5935287 2.2498295 -1.7947582 4288085770
-0.20970917 2.6655366 -1.7753831 4288085770
-1.6433716 2.2788978 -1.7941974 4288085770
-0.26955414 2.7006373 -1.7767085 4288085770
-1.6922112 2.3079643 -1.7936428 4288085770
-0.3014183 2.7437499 -1.7841312 4288085770
-1.7280655 2.3420379 -1.796122 4288085770
-0.39222336 2.7688165 -1.7763591 4288085770
-1.7729034 2.3710897 -1.7945915 4288085770
-0.44007492 2.8068988 -1.77773 4288085770
-1.8047562 2.4051485 -1.7960949 4288085770
-0.49888992 2.8389535 -1.7740886 4288085770
-1.84758 2.4351878 -1.7935678 4288085770
-0.54273224 2.8780301 -1.7754751 4288085770
-1.87743 2.4692442 -1.7950833 4288085770
-0.56957626 2.9210992 -1.7789285 4288085770
-1.9102554 2.5032775 -1.7935809 4288085770
-0.62538147 2.9541309 -1.7732967 4288085770
-1.9420929 2.5353184 -1.7931024 4288085770
-0.65921402 2.9951835 -1.7737259 4288085770
-1.9679184 2.5703416 -1.7916336 4288085770
-0.67705536 3.0412393 -1.777207 4288085770
-1.9927559 2.605372 -1.7911707 4288085770
-0.71286774 3.0802679 -1.7746425 4288085770
-2.0245743 2.6373861 -1.7876925 4288085770
-0.73469162 3.1243024 -1.7751176 4288085770
-2.042408 2.6744061 -1.7872543 4288085770
-0.74951172 3.1713271 -1.7756084 4288085770
-2.0492477 2.7154365 -1.7898465 4288085770
-0.76333618 3.2183495 -1.7761053 4288085770
-2.06707 2.7524385 -1.7874085 4288085770
-0.74818039 3.2773824 -1.78267 4288085770
-2.075901 2.7924538 -1.7879978 4288085770
-0.74499893 3.3313975 -1.7852069 4288085770
-2.0867195 2.8314543 -1.7865843 4288085770
-0.76780319 3.3743978 -1.7816857 4288085770
-2.0945396 2.8724501 -1.785171 4288085770
-0.75062561 3.4354098 -1.7862449 4288085770
-2.0943642 2.9164522 -1.7857792 4288085770
-0.73644257 3.4944081 -1.7888039 4288085770
-2.1051788 2.9554348 -1.7823658 4288085770
-0.71426773 3.5584128 -1.7933667 4288085770
-2.1000023 3.0024295 -1.7829776 4288085770
-0.72904205 3.6043651 -1.7858673 4288085770
-2.0938263 3.0484223 -1.7836045 4288085770
-0.69685745 3.6723545 -1.7904551 4288085770
-2.0856361 3.0963941 -1.7822257 4288085770
-0.66466522 3.7413349 -1.7940342 4288085770
-2.0714493 3.1473749 -1.7828565 4288085770
-0.62147141 3.8163164 -1.799626 4288085770
-2.0452766 3.2043643 -1.7865059 4288085770
-0.59725189 3.8822639 -1.7981838 4288085770
-2.0350723 3.2533243 -1.7841307 4288085770
-0.5650444 3.9502175 -1.7987722 4288085770
-2.0098877 3.3092976 -1.7857834 4288085770
-0.51582718 4.0291634 -1.8013651 4288085770
-1.9697113 3.3732841 -1.7914553 4288085770
-0.46661377 4.1081085 -1.8039583 4288085770
-1.9425163 3.4312363 -1.7911026 4288085770
-0.40739441 4.1910391 -1.8065763 4288085770
-1.9083176 3.492187 -1.7917655 4288085770
-0.34916306 4.2749624 -1.8081794 4288085770
-1.8711166 3.5541329 -1.7924377 4288085770
-0.27094269 4.3698907 -1.8138053 4288085770
-1.7969475 3.6381218 -1.8041366 4288085770
-0.19870377 4.4627934 -1.815413 4288085770
-1.7357559 3.7150769 -1.8098199 4288085770
-0.1304512 4.5526829 -1.8150237 4288085770
-1.7125206 3.7709813 -1.8034618 4288085770
-0.021213531 4.667583 -1.8226588 4288085770
-1.6313286 3.8589327 -1.812168 4288085770
0.082035065 4.7784653 -1.8272936 4288085770
-1.5721092 3.9348454 -1.8128489 4288085770
0.16130829 4.8763208 -1.8248999 4288085770
-1.5068893 4.0137672 -1.8155391 4288085770
0.30156326 5.0091915 -1.8345624 4288085770
-1.4476585 4.0896626 -1.8142204 4288085770
0.43883133 5.1410403 -1.841216 4288085770
-1.3654366 4.1785679 -1.8179245 4288085770
0.57910919 5.2758751 -1.8468611 4288085770
-1.2841988 4.2684565 -1.8196139 4288085770
0.73240662 5.4196906 -1.852505 4288085770
-1.1979599 4.3593373 -1.8213251 4288085770
0.90171051 5.5734911 -1.8591565 4288085770
-1.1117096 4.4522009 -1.8210185 4288085770
1.0720253 5.728281 -1.8648055 4288085770
-0.99147034 4.5640841 -1.8287477 4288085770
1.2633476 5.8960476 -1.8714656 4288085770
-0.88821793 4.6669397 -1.8304551 4288085770
1.472683 6.0767965 -1.879119 4288085770
-0.74696732 4.7928009 -1.8391868 4288085770
1.709034 6.2745218 -1.8887844 4288085770
-0.67266846 4.8745923 -1.8289071 4288085770
1.9813995 6.4962292 -1.9024535 4288085770
-0.50041199 5.0214424 -1.8416393 4288085770
2.3187752 6.7599192 -1.9251411 4288085770
-0.3501358 5.1522532 -1.8463819 4288085770
2.6371689 7.0125747 -1.9408128 4288085770
-0.19883728 5.2830458 -1.8491309 4288085770
2.9586067 7.2681723 -1.9504768 4288085770
-0.017543793 5.4348373 -1.8568741 4288085770
3.2460709 7.5027399 -1.9511234 4288085770
0.16776657 5.5885959 -1.8616241 4288085770
3.5765495 7.763279 -1.9557983 4288085770
0.38806915 5.7653646 -1.8733801 4288085770
4.0130501 8.0957651 -1.972472 4288085770
0.59740448 5.9330864 -1.8781512 4288085770
0.81775665 6.1077833 -1.8819269 4288085770
1.113102 6.3334923 -1.899701 4288085770
1.4144745 6.5621557 -1.9134856 4288085770
1.766861 6.8247967 -1.9332758 4288085770
2.154274 7.1104021 -1.9550734 4288085770
2.4527206 7.3319454 -1.9549046 4288085770
2.8041878 7.5884619 -1.9607447 4288085770
3.1486664 7.837945 -1.9616058 4288085770
3.6251755 8.1773911 -1.9804633 4288085770
11.696165 -0.72328472 -1.829576 4288085770
10.708218 -0.75879288 -1.82787 4288085770
9.8472366 -0.79244471 -1.8319213 4288085770
9.0243053 -0.81820583 -1.830134 4288085770
8.2533779 -0.83904409 -1.8286197 4288085770
7.5144939 -0.85397482 -1.8222477 4288085770
6.8535748 -0.86997604 -1.8213607 4288085770
6.3036137 -0.88708782 -1.8271604 4288085770
5.7696686 -0.90024137 -1.831022 4288085770
12.473688 -1.5742779 -1.8598995 4288085770
5.2697353 -0.91145372 -1.8340739 4288085770
11.391781 -1.5525784 -1.8651105 4288085770
4.7748337 -0.91770983 -1.8331119 4288085770
10.414865 -1.5330358 -1.8709807 4288085770
4.2849579 -0.91899967 -1.829136 4288085770
9.3460922 -1.493516 -1.8581116 4288085770
3.8220978 -0.91834784 -1.8233074 4288085770
8.4222965 -1.4591928 -1.848173 4288085770
3.3872299 -0.91772795 -1.8186498 4288085770
7.5694981 -1.4249744 -1.8386679 4288085770
3.0113335 -0.9181509 -1.8193612 4288085770
6.8416538 -1.3978877 -1.8359884 4288085770
2.6514397 -0.91760683 -1.8191614 4288085770
6.1967812 -1.374897 -1.8368515 4288085770
2.3265228 -0.91808701 -1.8221843 4288085770
5.6049137 -1.352993 -1.8370475 4288085770
2.0056343 -0.91560078 -1.8222052 4288085770
5.1039925 -1.3361621 -1.8448434 4288085770
1.7277145 -0.91514206 -1.826506 4288085770
4.5861359 -1.313385 -1.8434826 4288085770
1.4428177 -0.91170025 -1.8277378 4288085770
4.1192589 -1.2926569 -1.8454509 4288085770
1.1639404 -0.90528488 -1.8269798 4288085770
3.627449 -1.2639718 -1.8381959 4288085770
0.90705109 -0.90089273 -1.8273735 4288085770
3.1926117 -1.2393451 -1.8343246 4288085770
0.68013 -0.89750147 -1.8329594 4288085770
2.8177185 -1.2207441 -1.8378726 4288085770
0.40630341 -0.88516474 -1.8241788 4288085770
2.4458656 -1.1991925 -1.8364127 4288085770
0.15346527 -0.87283182 -1.8185263 4288085770
2.1349564 -1.1836677 -1.8423786 4288085770
-0.050434113 -0.86650085 -1.8212261 4288085770
1.832058 -1.1661649 -1.8473755 4288085770
-0.24033356 -0.86119032 -1.8240203 4288085770
1.4992371 -1.1407146 -1.8411187 4288085770
-0.44919205 -0.84990549 -1.8206455 4288085770
1.223362 -1.1222773 -1.8432719 4288085770
-0.61610031 -0.84361124 -1.8255713 4288085770
0.93951035 -1.1008644 -1.8413497 4288085770
-0.80397034 -0.83333921 -1.8243335 4288085770
0.6786499 -1.0804758 -1.8405769 4288085770
-0.98483276 -0.82208633 -1.8221296 4288085770
0.38087082 -1.0511217 -1.8294985 4288085770
-1.1407356 -0.81381798 -1.826105 4288085770
0.13503265 -1.0287824 -1.8257998 4288085770
-1.3026047 -0.80258465 -1.8250172 4288085770
-0.082839966 -1.0104408 -1.8273076 4288085770
-1.4445 -0.7943449 -1.828078 4288085770
-0.29270172 -0.99112749 -1.8268552 4288085770
-1.6043549 -0.78113222 -1.8249848 4288085770
-0.48258972 -0.97381783 -1.8295429 4288085770
-1.7312546 -0.77190638 -1.8291284 4288085770
-0.66945648 -0.95553017 -1.83024 4288085770
-1.8521576 -0.76368904 -1.8333175 4288085770
-0.84133148 -0.93825579 -1.8320378 4288085770
-1.992012 -0.75050592 -1.8303467 4288085770
-1.0261803 -0.91799736 -1.8297296 4288085770
-2.1059151 -0.74129915 -1.8345697 4288085770
-1.2249718 -0.89279032 -1.8192918 4288085770
-2.2008514 -0.73407602 -1.8439264 4288085770
-1.3528938 -0.87952709 -1.8273937 4288085770
-2.3217201 -0.72190332 -1.8430804 4288085770
-1.497776 -0.86329174 -1.8293654 4288085770
-2.4296074 -0.7107234 -1.8453225 4288085770
-1.6426468 -0.84506655 -1.830319 4288085770
-1.7835007 -0.82686472 -1.8292975 4288085770
-1.9183693 -0.80866241 -1.8293127 4288085770
-2.0412369 -0.79146957 -1.83041 4288085770
-2.1551247 -0.77527189 -1.8335713 4288085770
-2.2550278 -0.76207733 -1.8388444 4288085770
-2.376873 -0.74291182 -1.8369302 4288085770
-2.4757614 -0.72673702 -1.8401831 4288085770
-2.4866295 1.0995486 -1.8181932 4288085770
-2.3525429 1.1174161 -1.8268653 4288085770
-2.2444 1.1302254 -1.8244215 4288085770
-2.1332436 1.1440217 -1.8209876 4288085770
-2.0230827 1.1558104 -1.8165653 4288085770
-1.9438553 1.1625402 -1.7999957 4288085770
-1.8077278 1.1773343 -1.8007075 4288085770
-1.6685867 1.1911159 -1.8004469 4288085770
-2.4278107 1.1164846 -1.8254206 4288085770
-1.4924965 1.2089124 -1.8083794 4288085770
-2.2947159 1.1293273 -1.8311309 4288085770
-1.3383598 1.2236714 -1.8082031 4288085770
-2.1865616 1.1371193 -1.8267312 4288085770
-1.174221 1.2384157 -1.8080885 4288085770
-2.0873795 1.1438808 -1.8172849 4288085770
-0.99709702 1.2531586 -1.8100544 4288085770
-1.9812088 1.1496496 -1.8098907 4288085770
-0.83293915 1.2658684 -1.8059578 4288085770
-1.8790245 1.1543982 -1.7994806 4288085770
-0.64679718 1.2805805 -1.8059796 4288085770
-1.7249222 1.1651926 -1.803339 4288085770
-0.45065689 1.2942693 -1.8050724 4288085770
-1.5628204 1.1769836 -1.808238 4288085770
-0.2325325 1.309952 -1.8072834 4288085770
-1.413681 1.184742 -1.8070922 4288085770
-0.014389038 1.3246086 -1.8065038 4288085770
-1.2485619 1.1934938 -1.8080366 4288085770
0.20077133 1.3372431 -1.8027232 4288085770
-1.0684509 1.2032409 -1.8110648 4288085770
0.44490051 1.3518703 -1.8031048 4288085770
-0.89632034 1.2109745 -1.8110616 4288085770
0.70503998 1.3664737 -1.8035852 4288085770
-0.71819305 1.21769 -1.8101044 4288085770
0.95120621 1.3780456 -1.7980057 4288085770
-0.53405762 1.2243879 -1.8081844 4288085770
1.2333603 1.3915908 -1.7956315 4288085770
-0.30895615 1.2340868 -1.8134916 4288085770
1.5295067 1.4051244 -1.7943441 4288085770
-0.095832825 1.2407596 -1.813751 4288085770
1.8356705 1.4166079 -1.7891364 4288085770
0.13927841 1.2474174 -1.8161466 4288085770
2.1918068 1.4330704 -1.7901944 4288085770
0.32446289 1.247036 -1.8052951 4288085770
2.5499649 1.4454954 -1.7873001 4288085770
0.56559753 1.2516418 -1.8027459 4288085770
2.9750938 1.4628656 -1.7897767 4288085770
0.81573486 1.2542346 -1.8002701 4288085770
3.394249 1.4762008 -1.7872516 4288085770
1.0778732 1.2578094 -1.7978601 4288085770
3.8643875 1.4924958 -1.7890158 4288085770
1.364006 1.2603579 -1.7966073 4288085770
4.3815269 1.5087135 -1.7900715 4288085770
1.6481476 1.2608831 -1.7923599 4288085770
4.9146748 1.5228903 -1.7892441 4288085770
1.9692688 1.2613804 -1.7913415 4288085770
5.5288086 1.5399737 -1.7918919 4288085770
2.3183861 1.2628536 -1.7924879 4288085770
6.2149296 1.5589693 -1.7969683 4288085770
2.674511 1.2612827 -1.789704 4288085770
6.9590569 1.5768623 -1.8004128 4288085770
3.0796204 1.2616825 -1.792206 4288085770
7.7871761 1.595649 -1.8063689 4288085770
3.4977417 1.2580287 -1.7908241 4288085770
8.7622814 1.6192465 -1.8161922 4288085770
3.9528542 1.2543383 -1.791671 4288085770
9.8163948 1.6407104 -1.8245224 4288085770
4.4569626 1.2505841 -1.7938218 4288085770
10.954535 1.6590073 -1.8283999 4288085770
4.9590855 1.2427902 -1.7909956 4288085770
12.274662 1.6810539 -1.8353698 4288085770
5.5651722 1.2359045 -1.7958045 4288085770
6.2102642 1.2269437 -1.7988728 4288085770
6.9323349 1.2168963 -1.8054268 4288085770
7.7254066 1.2037361 -1.8114473 4288085770
8.6254616 1.1874361 -1.8201568 4288085770
9.6254959 1.1690073 -1.8315035 4288085770
10.692551 1.1444366 -1.8383183 4288085770
11.788643 1.110754 -1.8373924 4288085770
4.0354004 -7.508245 -1.5143226 4293729569
3.6558838 -7.2085757 -1.5243729 4293729569
3.3063316 -6.9289489 -1.534783 4293729569
3.0087204 -6.6823888 -1.546802 4293729569
2.6901779 -6.4238591 -1.551587 4293729569
2.3906136 -6.1773572 -1.5565941 4293729569
2.1459694 -5.9689078 -1.5652719 4293729569
1.9013557 -5.7594934 -1.5699413 4293729569
1.6717224 -5.5611091 -1.5737993 4293729569
1.4830284 -5.3887486 -1.5821372 4293729569
5.2073822 -7.6291728 -1.5026605 4293729569
1.3282928 -5.2394204 -1.5928855 4293729569
4.8768196 -7.3465495 -1.5161638 4293729569
1.1605988 -5.0821252 -1.5974839 4293729569
4.5682411 -7.0809827 -1.5269516 4293729569
1.0557823 -4.9648261 -1.6138197 4293729569
4.2596893 -6.8154416 -1.5347395 4293729569
0.88911438 -4.8085675 -1.6144335 4293729569
3.9871025 -6.5759606 -1.5419763 4293729569
0.69550705 -4.6363196 -1.6087413 4293729569
3.7464752 -6.3565173 -1.5505852 4293729569
0.5528183 -4.4960952 -1.6096429 4293729569
3.5348206 -6.156117 -1.5595387 4293729569
0.43209076 -4.3698859 -1.6128024 4293729569
1.1239624 -4.6660199 -1.2556485 4293729569
0.34231186 -4.2626853 -1.6203189 4293729569
1.1140099 -4.5997891 -1.2810171 4293729569
0.25753021 -4.1574922 -1.627884 4293729569
1.1300278 -4.5495772 -1.3086859 4293729569
0.16477966 -4.0503306 -1.6303822 4293729569
1.1450424 -4.4973655 -1.3363311 4293729569
0.093986511 -3.9551673 -1.6371211 4293729569
1.2269554 -4.4801812 -1.3726962 4293729569
0.019218445 -3.8570228 -1.6408094 4293729569
2.5367126 -5.1382489 -1.5995473 4293729569
-0.031597137 -3.7728791 -1.6487677 4293729569
2.4040184 -4.993031 -1.601469 4293729569
-0.089389801 -3.6867504 -1.6536658 4293729569
2.293293 -4.859817 -1.6066314 4293729569
-0.0084686279 -3.6745915 -1.6870676 4293729569
2.2075272 -4.7416234 -1.6140792 4293729569
0.10837936 -3.6794147 -1.7288406 4293729569
2.1237793 -4.6244493 -1.6195483 4293729569
0.2322197 -3.6862478 -1.7706746 4288085770
2.057003 -4.5162921 -1.6262012 4293729569
0.34309769 -3.6840897 -1.8093503 4288085770
1.9662781 -4.3971429 -1.6276095 4293729569
0.34720993 -3.623982 -1.8228594 4288085770
1.9134979 -4.2970138 -1.6334188 4293729569
0.29345703 -3.5359116 -1.8217658 4288085770
1.8357735 -4.1869006 -1.6329864 4293729569
0.25567627 -3.4558473 -1.8228412 4288085770
1.7939911 -4.0947957 -1.6379334 4293729569
0.21191406 -3.3737912 -1.821862 4288085770
1.753212 -4.0027022 -1.6418869 4293729569
0.19411087 -3.3027382 -1.8251396 4288085770
1.7324066 -3.9206271 -1.6470517 4293729569
0.15734863 -3.223701 -1.8232304 4288085770
1.7106171 -3.8385601 -1.6512103 4293729569
0.13156891 -3.1516705 -1.8224498 4288085770
1.7317543 -3.7755036 -1.661801 4293729569
0.10879135 -3.0796452 -1.8216883 4288085770
1.8836708 -3.7714562 -1.6947173 4293729569
0.096996307 -3.0136266 -1.8220469 4288085770
2.075531 -3.7804241 -1.7329957 4293729569
0.090206146 -2.9486156 -1.8224459 4288085770
2.2843742 -3.7943988 -1.7734232 4288085770
0.084403992 -2.8856053 -1.8228681 4288085770
2.4612808 -3.7913799 -1.8075051 4288085770
0.071628571 -2.8176122 -1.8202039 4288085770
2.5583344 -3.7523742 -1.8257779 4288085770
0.092796326 -2.7646151 -1.823881 4288085770
2.5186348 -3.6573753 -1.8187137 4288085770
0.097999573 -2.7066302 -1.8234155 4288085770
2.4999008 -3.5713902 -1.813858 4288085770
0.10419846 -2.647646 -1.8229476 4288085770
2.5081253 -3.4964099 -1.8132658 4288085770
0.13835526 -2.6006684 -1.826758 4288085770
2.5123634 -3.4204412 -1.8106402 4288085770
0.15355682 -2.5457063 -1.8253812 4288085770
2.5505638 -3.3574958 -1.811339 4288085770
0.18472672 -2.4967327 -1.8281558 4288085770
2.58078 -3.2905469 -1.8109536 4288085770
0.23188019 -2.4517746 -1.832065 4288085770
2.6249809 -3.2276101 -1.8116902 4288085770
0.25508118 -2.3998322 -1.8297644 4288085770
2.6691895 -3.1656909 -1.8104358 4288085770
0.30124283 -2.3538809 -1.8326589 4288085770
2.7313766 -3.1097798 -1.8113455 4288085770
0.33942795 -2.3069434 -1.832495 4288085770
2.7875862 -3.0498781 -1.8101835 4288085770
0.39957809 -2.2660122 -1.8355206 4288085770
2.8547859 -2.9939833 -1.8101249 4288085770
0.43578339 -2.2160978 -1.8323188 4288085770
2.9359665 -2.9421 -1.8111883 4288085770
0.48895645 -2.1721735 -1.8332751 4288085770
3.0281448 -2.8922334 -1.8123381 4288085770
0.56210709 -2.1332612 -1.8363994 4288085770
3.1283226 -2.8433781 -1.8135465 4288085770
0.60631943 -2.0843673 -1.8322569 4288085770
3.2394867 -2.7975302 -1.81585 4288085770
0.67149353 -2.042469 -1.8323058 4288085770
3.3736343 -2.7576981 -1.820349 4288085770
0.76662064 -2.0085707 -1.8376111 4288085770
3.4898186 -2.7108831 -1.8196753 4288085770
0.82181931 -1.9626927 -1.8335634 4288085770
3.6130028 -2.6650791 -1.8190546 4288085770
0.89302063 -1.9198289 -1.830642 4288085770
3.7671623 -2.6252933 -1.8216796 4288085770
0.98019028 -1.8799634 -1.8308463 4288085770
3.9113426 -2.5805187 -1.8211994 4288085770
1.0993156 -1.8481011 -1.8363198 4288085770
4.0994759 -2.5457664 -1.8260807 4288085770
1.2064743 -1.8132548 -1.8376927 4288085770
4.2496758 -2.5010176 -1.8236384 4288085770
1.3246193 -1.7784171 -1.8401347 4288085770
4.4458313 -2.4653025 -1.825562 4288085770
1.4307861 -1.7405791 -1.840476 4288085770
4.6449966 -2.4276004 -1.8264873 4288085770
1.5329819 -1.7007685 -1.8367753 4288085770
4.854166 -2.3899202 -1.8264757 4288085770
1.6531639 -1.6629682 -1.8352048 4288085770
5.103302 -2.3592649 -1.8307749 4288085770
1.771347 -1.6241732 -1.8326133 4288085770
5.3234978 -2.3186278 -1.8278072 4288085770
1.9175034 -1.5903845 -1.8342402 4288085770
5.5556908 -2.2790079 -1.8249235 4288085770
2.0546913 -1.553617 -1.8317854 4288085770
5.8388443 -2.2474279 -1.8264284 4288085770
2.2268372 -1.5208583 -1.8345845 4288085770
6.1439991 -2.2158804 -1.8280716 4288085770
2.3999863 -1.4881091 -1.8363897 4288085770
6.4591599 -2.1833553 -1.8287692 4288085770
2.5801544 -1.4533873 -1.8362222 4288085770
6.7913342 -2.1498728 -1.8275656 4288085770
2.77631 -1.4196792 -1.8371639 4288085770
7.192461 -2.1244478 -1.8318632 4288085770
2.9834633 -1.3869805 -1.8391831 4288085770
7.5986176 -2.0960565 -1.8331672 4288085770
3.2026215 -1.3533068 -1.8402694 4288085770
8.0507507 -2.0707145 -1.8367857 4288085770
3.4537582 -1.3226542 -1.8445824 4288085770
8.6038342 -2.0554681 -1.847124 4288085770
3.6999207 -1.2890291 -1.8448387 4288085770
9.1519547 -2.0342579 -1.8523803 4288085770
3.9690704 -1.2564206 -1.8472482 4288085770
9.783041 -2.0181346 -1.8622005 4288085770
4.2302513 -1.2198339 -1.8455735 4288085770
10.408186 -1.993063 -1.864907 4288085770
4.5404015 -1.1872854 -1.848241 4288085770
11.103319 -1.972085 -1.8690878 4288085770
4.8515701 -1.151763 -1.8478894 4288085770
11.849459 -1.9501977 -1.871581 4288085770
5.1617699 -1.1122656 -1.8444977 4288085770
5.5029564 -1.0748048 -1.8423179 4288085770
5.8641605 -1.0343904 -1.8382387 4288085770
6.2653503 -0.99501705 -1.8364193 4288085770
6.6945457 -0.95369339 -1.8337594 4288085770
7.1707458 -0.91243839 -1.8313949 4288085770
7.7289066 -0.87426138 -1.8345712 4288085770
8.3720245 -0.83717251 -1.8422899 4288085770
9.0012207 -0.79213238 -1.8418539 4288085770
9.7074165 -0.74520493 -1.8418847 4288085770
10.469627 -0.69537687 -1.8402427 4288085770
11.313848 -0.64267778 -1.838091 4288085770
12.271055 -0.58812571 -1.8386328 4288085770
12.342934 1.6417327 -1.8369894 4288085770
11.496161 1.7019241 -1.8293486 4288085770
10.806355 1.7669494 -1.8296185 4288085770
10.073584 1.8209603 -1.8207206 4288085770
9.474781 1.8768213 -1.8176194 4288085770
8.9109898 1.930644 -1.814746 4288085770
8.3702049 1.9803879 -1.8080462 4288085770
7.861412 2.0270863 -1.8015661 4288085770
7.4295998 2.0767078 -1.7995282 4288085770
7.0257969 2.1252723 -1.7956691 4288085770
6.659977 2.1748075 -1.7950319 4288085770
6.3231602 2.2232926 -1.7935796 4288085770
5.9903526 2.268755 -1.790177 4288085770
5.6865368 2.3141844 -1.7879508 4288085770
5.4257126 2.3615689 -1.7879685 4288085770
5.1838913 2.4109261 -1.7880849 4288085770
4.936079 2.4552667 -1.7852073 4288085770
12.503633 3.7537737 -1.8700827 4288085770
4.7122574 2.5015893 -1.7844584 4288085770
11.997818 3.7995017 -1.8676305 4288085770
4.530426 2.5528774 -1.7869223 4288085770
11.567987 3.8541541 -1.8695633 4288085770
4.3346138 2.5991516 -1.7853436 4288085770
11.129175 3.9017773 -1.8665012 4288085770
4.136795 2.6444204 -1.7827615 4288085770
10.771353 3.9603262 -1.8688378 4288085770
3.9639854 2.6916614 -1.7813144 4288085770
10.34156 4.0008941 -1.8608899 4288085770
3.8241615 2.7438807 -1.783025 4288085770
10.028748 4.0593615 -1.8615 4288085770
3.6793404 2.7940898 -1.7827226 4288085770
9.7169437 4.1158104 -1.8601332 4288085770
3.5435219 2.8432863 -1.7824831 4288085770
9.4361477 4.1742063 -1.8579379 4288085770
3.4336929 2.8984706 -1.7853509 4288085770
9.2333317 4.2485485 -1.863081 4288085770
3.3168793 2.9506392 -1.7852015 4288085770
8.9465408 4.2999282 -1.8579086 4288085770
3.2170601 3.0047927 -1.7861389 4288085770
8.7247524 4.3642387 -1.856021 4288085770
3.1122513 3.0569358 -1.7850628 4288085770
8.4929676 4.4225473 -1.8521239 4288085770
3.0394249 3.1170752 -1.789113 4288085770
8.3501701 4.5017867 -1.8555894 4288085770
2.9656105 3.1761911 -1.7901658 4288085770
8.2503624 4.5909896 -1.8622309 4288085770
2.8828049 3.2303026 -1.7892067 4288085770
8.1595688 4.6811705 -1.8679194 4288085770
2.8499756 3.2984011 -1.7954324 4288085770
8.0627823 4.7693434 -1.8715885 4288085770
2.7811775 3.3574924 -1.7945161 4288085770
7.9730053 4.8594975 -1.8742833 4288085770
2.7403641 3.4235773 -1.7977107 4288085770
7.8922367 4.9506302 -1.8760244 4288085770
2.7205467 3.4956486 -1.8029816 4288085770
7.8504601 5.0547404 -1.8818924 4288085770
2.6847458 3.5627093 -1.8041984 4288085770
7.8146896 5.1568336 -1.8868141 4288085770
2.658947 3.6327636 -1.8064504 4288085770
7.7539463 5.252912 -1.885635 4288085770
2.6521416 3.7078078 -1.8107755 4288085770
7.7291946 5.3609724 -1.8885731 4288085770
2.6443405 3.7838447 -1.8140862 4288085770
7.7464466 5.4839969 -1.8946396 4288085770
2.6295509 3.8578665 -1.8143716 4288085770
7.7347183 5.5950131 -1.8946316 4288085770
2.6377602 3.9398887 -1.8187289 4288085770
7.7369938 5.7130175 -1.8956497 4288085770
2.6349831 4.0178928 -1.8190535 4288085770
7.7862644 5.8459873 -1.9008266 4288085770
2.6462021 4.1018939 -1.8214127 4288085770
7.9125404 6.0099049 -1.913209 4288085770
2.6844063 4.193881 -1.8268679 4288085770
7.9948311 6.1598353 -1.9194428 4288085770
2.7246361 4.2898569 -1.831302 4288085770
8.200119 6.3586888 -1.9380096 4288085770
2.7408752 4.3778253 -1.8306578 4288085770
8.3454285 6.5375528 -1.9473813 4288085770
2.7881126 4.4787822 -1.8340923 4288085770
8.5347576 6.7373791 -1.9598432 4288085770
2.8553429 4.5867271 -1.8395894 4288085770
8.7111034 6.932189 -1.9682688 4288085770
2.8816147 4.6796556 -1.8359644 4288085770
8.8484707 7.1159968 -1.9695508 4288085770
3.004837 4.8135867 -1.8495817 4288085770
9.0608406 7.3317637 -1.9790186 4288085770
3.0811005 4.9284935 -1.8520747 4288085770
9.2482357 7.5405159 -1.9823936 4288085770
3.1573715 5.0443907 -1.8535595 4288085770
9.5396442 7.7961926 -1.9950038 4288085770
3.2756462 5.1812701 -1.8601221 4288085770
9.8710823 8.07582 -2.0086544 4288085770
3.4029198 5.3241448 -1.8676887 4288085770
3.5202026 5.4619999 -1.8712373 4288085770
3.6934967 5.6288323 -1.881881 4288085770
3.8308144 5.7816501 -1.8844247 4288085770
4.0121307 5.9564543 -1.8930501 4288085770
4.2154655 6.1462259 -1.9016826 4288085770
4.5227928 6.3909736 -1.9254825 4288085770
4.9131279 6.6816764 -1.9583981 4288085770
5.2605 6.9553571 -1.9811968 4288085770
5.5059166 7.1800251 -1.9847907 4288085770
5.6973476 7.3756952 -1.9793022 4288085770
5.871809 7.5643315 -1.9667698 4288085770
6.191288 7.8379087 -1.9724009 4288085770
6.6627846 8.1964073 -1.9952377 4288085770
11.872972 -0.20893764 -1.8291965 4288085770
10.589071 -0.23109007 -1.8225555 4288085770
9.5041256 -0.25147772 -1.8231128 4288085770
8.5222206 -0.26605558 -1.8192493 4288085770
7.5493889 -0.27373028 -1.8053826 4288085770
6.7854576 -0.28458786 -1.8068166 4288085770
6.0725613 -0.29255247 -1.8045372 4288085770
5.3896866 -0.29658508 -1.7994076 4288085770
11.614248 -0.62666082 -1.823108 4288085770
4.7997818 -0.30071831 -1.7988458 4288085770
10.445312 -0.61387014 -1.8298758 4288085770
4.2409019 -0.30292034 -1.7954565 4288085770
9.2974586 -0.59421062 -1.8247141 4288085770
3.7390099 -0.30418825 -1.7944072 4288085770
8.298605 -0.57676554 -1.8204788 4288085770
3.2881126 -0.30452871 -1.7936609 4288085770
7.3877602 -0.55746317 -1.8147645 4288085770
2.8801956 -0.30489874 -1.7971767 4288085770
6.577898 -0.5402894 -1.8116835 4288085770
2.5062866 -0.30532455 -1.7999004 4288085770
5.8680363 -0.52425814 -1.8092219 4288085770
2.1493721 -0.30377626 -1.8027112 4288085770
5.1921864 -0.5072937 -1.8049592 4288085770
1.8184662 -0.30226469 -1.8056809 4288085770
4.5723343 -0.49040937 -1.8010387 4288085770
1.5225334 -0.30077791 -1.8118638 4288085770
4.0414505 -0.47661877 -1.8016864 4288085770
1.2256317 -0.2973237 -1.8140246 4288085770
3.5196075 -0.45989227 -1.7963647 4288085770
0.95172501 -0.29389381 -1.8173254 4288085770
3.0747223 -0.44522524 -1.7975293 4288085770
0.6718483 -0.28849745 -1.8155732 4288085770
2.6768265 -0.43360996 -1.8010061 4288085770
0.42096329 -0.28212643 -1.8159897 4288085770
2.3219185 -0.42204714 -1.8057455 4288085770
0.17109299 -0.27577305 -1.8144124 4288085770
1.9510422 -0.4075036 -1.8053621 4288085770
-0.040828705 -0.27142382 -1.8190837 4288085770
1.6361389 -0.39499903 -1.8103374 4288085770
-0.26569366 -0.26311541 -1.8166423 4288085770
1.3412361 -0.38353062 -1.8144431 4288085770
-0.46258545 -0.25681257 -1.8183885 4288085770
1.0593414 -0.37108994 -1.81762 4288085770
-0.68642807 -0.24753857 -1.8119453 4288085770
0.76948166 -0.35668755 -1.8147318 4288085770
-0.8872757 -0.23728895 -1.8066341 4288085770
0.49663162 -0.34130955 -1.8119389 4288085770
-1.0641632 -0.23002386 -1.8074942 4288085770
0.2377739 -0.32695198 -1.80924 4288085770
-1.2210541 -0.2227788 -1.8094763 4288085770
0.016880035 -0.31459856 -1.8127893 4288085770
-1.3779449 -0.21453381 -1.8114501 4288085770
-0.20099258 -0.30128336 -1.8123488 4288085770
-1.5487823 -0.20433617 -1.8053222 4288085770
-0.3938942 -0.28997087 -1.8160776 4288085770
-1.6776924 -0.19710636 -1.8104752 4288085770
-0.59376144 -0.27568054 -1.8157389 4288085770
-1.8135796 -0.18889999 -1.8115773 4288085770
-0.80758667 -0.26042938 -1.8083067 4288085770
-1.9474602 -0.17970562 -1.8116834 4288085770
-0.9884491 -0.24617577 -1.807084 4288085770
-1.1563263 -0.23292351 -1.8079489 4288085770
-1.3181992 -0.21968842 -1.8078507 4288085770
-1.4690704 -0.20646906 -1.8078196 4288085770
-1.6289215 -0.19226217 -1.8047253 4288085770
-1.7657928 -0.17906284 -1.8047798 4288085770
-1.9066544 -0.16587496 -1.8028097 4288085770
-2.0195541 -0.15367699 -1.8070189 4288085770
-2.0198975 1.8087654 -1.812642 4288085770
-1.9117355 1.8245625 -1.808171 4288085770
-1.8065491 1.8403392 -1.8006818 4288085770
-1.6614151 1.8641405 -1.8033705 4288085770
-1.5392494 1.8809173 -1.798977 4288085770
-1.4030991 1.8996909 -1.7966523 4288085770
-1.2749214 1.9154422 -1.7903039 4288085770
-1.1037903 1.9412148 -1.7941352 4288085770
-1.9891434 1.7506824 -1.8133105 4288085770
-0.9316597 1.9649773 -1.7969892 4288085770
-1.8739891 1.7614694 -1.8089237 4288085770
-0.77249527 1.9837093 -1.7938055 4288085770
-1.7718163 1.7682421 -1.8004906 4288085770
-0.59634399 2.0054331 -1.7927008 4288085770
-1.6466675 1.7800314 -1.7981567 4288085770
-0.40220642 2.0301554 -1.7946813 4288085770
-1.5025406 1.7948263 -1.799914 4288085770
-0.20705414 2.0528769 -1.7956804 4288085770
-1.3763695 1.8035979 -1.7946069 4288085770
0.0010910034 2.0765707 -1.7967548 4288085770
-1.2282372 1.8163702 -1.7944056 4288085770
0.23822021 2.1042478 -1.8009738 4288085770
-1.0561256 1.8331494 -1.7993175 4288085770
0.44338989 2.122905 -1.7970716 4288085770
-0.89099884 1.8459055 -1.80022 4288085770
0.67454147 2.1455493 -1.7962955 4288085770
-0.73085403 1.8556445 -1.7981167 4288085770
0.92070007 2.169172 -1.7956027 4288085770
-0.54973984 1.8693943 -1.801109 4288085770
1.1738548 2.1917849 -1.7949612 4288085770
-0.37360001 1.8791099 -1.7991036 4288085770
1.4400177 2.2133622 -1.7924075 4288085770
-0.18547058 1.8908331 -1.8001552 4288085770
1.725174 2.2369287 -1.7919534 4288085770
0.028644562 1.9045355 -1.8033491 4288085770
2.0193329 2.2594662 -1.7895628 4288085770
0.23476791 1.9142246 -1.8035274 4288085770
2.3444824 2.2849832 -1.790337 4288085770
0.43292236 1.920892 -1.7996817 4288085770
2.6836433 2.3094635 -1.7892054 4288085770
0.65904236 1.9305606 -1.8009822 4288085770
3.0457993 2.334919 -1.7892059 4288085770
0.88418579 1.9371974 -1.7983018 4288085770
3.4059677 2.356353 -1.7862276 4288085770
1.1063309 1.9408307 -1.7946279 4288085770
3.8311157 2.3857341 -1.7885805 4288085770
1.3634567 1.9484463 -1.7951347 4288085770
4.2522812 2.4100881 -1.7869506 4288085770
1.6275826 1.9540436 -1.7947012 4288085770
4.7264328 2.4383907 -1.7886117 4288085770
1.8937225 1.9576213 -1.7922963 4288085770
5.237587 2.4676399 -1.790491 4288085770
2.1758461 1.9601848 -1.7909976 4288085770
5.7477531 2.4928658 -1.7893972 4288085770
2.490963 1.9657249 -1.7928758 4288085770
6.3209152 2.521009 -1.7896643 4288085770
2.7880974 1.9642503 -1.7897022 4288085770
6.9530678 2.5520837 -1.7922672 4288085770
3.1462097 1.9687371 -1.7928516 4288085770
7.621233 2.5820901 -1.793099 4288085770
3.4933243 1.9682066 -1.7919755 4288085770
8.4273567 2.6239715 -1.8036754 4288085770
3.8634529 1.9656434 -1.7912565 4288085770
9.2964821 2.6667626 -1.814629 4288085770
4.2585602 1.9640522 -1.7916821 4288085770
10.261614 2.7114067 -1.8251535 4288085770
4.6806679 1.9594226 -1.7922976 4288085770
11.281746 2.7539558 -1.834031 4288085770
5.0997906 1.950772 -1.7899283 4288085770
12.264938 2.7794504 -1.8298236 4288085770
5.5938873 1.9460549 -1.7929842 4288085770
6.1349659 1.9412949 -1.7993277 4288085770
6.6470757 1.9255109 -1.7975851 4288085770
7.2211704 1.9116621 -1.7992049 4288085770
7.8672371 1.8977425 -1.8052652 4288085770
8.5672989 1.8807456 -1.8116806 4288085770
9.294363 1.8597014 -1.8172942 4288085770
10.085421 1.8335574 -1.8223407 4288085770
10.914478 1.8013501 -1.8266693 4288085770
11.79953 1.7630539 -1.8303901 4288085770
12.758579 1.7196431 -1.8336048 4288085770
3.0715141 -4.3966031 -0.12567663 4293729569
2.9963913 -4.4392676 -0.15356711 4293729569
2.9642334 -4.5009856 -0.18287671 4293729569
2.9620514 -4.5757384 -0.21347658 4293729569
1.2614326 -4.4325461 -0.54289508 4293729569
1.1801949 -4.4380651 -0.099419251 4293729569
1.1913071 -4.4501615 -0.57761019 4293729569
1.1440315 -4.4727225 -0.13548195 4293729569
1.1631241 -4.4908137 -0.61577094 4293729569
1.1378326 -4.5223966 -0.17485118 4293729569
1.1379356 -4.5314603 -0.65494996 4293729569
1.1616058 -4.5881057 -0.21553524 4293729569
1.1457024 -4.5901303 -0.69747853 4293729569
5.4981651 -7.6510959 -1.512224 4293729569
4.9296551 -7.359201 -1.51735 4293729569
4.4360657 -7.1083865 -1.5262712 4293729569
3.9654694 -6.864615 -1.5343913 4293729569
3.556797 -6.6548972 -1.5471694 4293729569
3.1701241 -6.4532275 -1.5581484 4293729569
2.7605324 -6.2295928 -1.5608065 4293729569
2.3958893 -6.0309958 -1.5669452 4293729569
2.0422478 -5.8354335 -1.5711762 4293729569
1.682663 -5.6299081 -1.5692888 4293729569
1.3979492 -5.4704175 -1.5772374 4293729569
4.7273979 -7.6410861 -1.5023862 4293729569
1.136219 -5.32196 -1.5854169 4293729569
4.2727966 -7.3672719 -1.5183585 4293729569
0.89347076 -5.1825204 -1.5947869 4293729569
3.7922783 -7.0724864 -1.5260001 4293729569
0.62281418 -5.0201163 -1.5947974 4293729569
3.3587112 -6.8037601 -1.5351428 4293729569
0.36912537 -4.8677192 -1.596994 4293729569
2.9810867 -6.5680966 -1.5468987 4293729569
0.17334747 -4.7503562 -1.6058322 4293729569
2.5785332 -6.3114629 -1.5503303 4293729569
-0.063327789 -4.6030078 -1.6051744 4293729569
2.231926 -6.0888934 -1.5563833 4293729569
-0.24310684 -4.4906754 -1.6131518 4293729569
1.9102898 -5.8803506 -1.5637041 4293729569
-0.41687775 -4.3803687 -1.6191827 4293729569
1.5707283 -5.6558576 -1.5617845 4293729569
-0.59661865 -4.2640777 -1.6221279 4293729569
1.322998 -5.4903874 -1.573911 4293729569
-0.76237488 -4.1547971 -1.6262162 4293729569
1.0862846 -5.3309579 -1.5831542 4293729569
-0.90517426 -4.0585275 -1.6335518 4293729569
0.86355209 -5.1775479 -1.5925323 4293729569
-1.0559349 -3.9562764 -1.6367896 4293729569
0.61789703 -5.0071712 -1.5936311 4293729569
-1.1777496 -3.8710346 -1.6443439 4293729569
0.41017914 -4.8608079 -1.6001588 4293729569
-1.3175087 -3.7718177 -1.6456738 4293729569
0.20846939 -4.7164769 -1.6037402 4293729569
-1.4273262 -3.6915927 -1.6533426 4293729569
0.0037994385 -4.5681767 -1.6032706 4293729569
-1.5411263 -3.6063881 -1.6579465 4293729569
-0.17592621 -4.4348769 -1.6070769 4293729569
-1.5452042 -3.5961099 -1.6918365 4293729569
-0.30374527 -4.3355947 -1.6184797 4293729569
-1.5363235 -3.5918174 -1.7298551 4293729569
-0.47145081 -4.2083468 -1.6184089 4293729569
-1.5024796 -3.6025276 -1.7721492 4288085770
-0.61320496 -4.0961003 -1.6226202 4293729569
-1.4915886 -3.5972466 -1.8091718 4288085770
-0.73699188 -3.9948659 -1.6290315 4293729569
-1.555481 -3.5390468 -1.8223027 4288085770
-0.84778976 -3.9026484 -1.6355965 4293729569
-1.6652222 -3.4479051 -1.8198825 4288085770
-0.95259094 -3.8124394 -1.6422147 4293729569
-1.7679749 -3.3617725 -1.8175461 4288085770
-1.0523911 -3.724247 -1.6478796 4293729569
-1.8527641 -3.285634 -1.8194017 4288085770
-1.149189 -3.6380587 -1.6535798 4293729569
-1.9425354 -3.205513 -1.8181943 4288085770
-1.1472168 -3.6128306 -1.682384 4293729569
-2.0163231 -3.1353974 -1.8191665 4288085770
-1.1013565 -3.6155748 -1.7226863 4293729569
-1.0475006 -3.6203232 -1.7640541 4288085770
-0.98667526 -3.628056 -1.808489 4288085770
-1.0125999 -3.5808787 -1.8259426 4288085770
-1.1203117 -3.4807649 -1.8204615 4288085770
-1.2120476 -3.3906655 -1.8161603 4288085770
-1.2828369 -3.3135462 -1.8180939 4288085770
-1.3456268 -3.240447 -1.8191092 4288085770
-1.4134026 -3.1653576 -1.8180777 4288085770
-1.4701958 -3.0942674 -1.8191462 4288085770
-1.5339584 -3.0201993 -1.8161476 4288085770
-1.5847588 -2.9541254 -1.8162941 4288085770
-1.6285553 -2.8910618 -1.8165081 4288085770
-1.6753464 -2.8260021 -1.8156872 4288085770
-1.7201271 -2.7619615 -1.812887 4288085770
-1.7399635 -2.7108994 -1.817346 4288085770
-1.7707748 -2.6548538 -1.8176969 4288085770
-1.8015785 -2.5978169 -1.8170398 4288085770
-1.8174133 -2.5497766 -1.8195481 4288085770
-1.8262596 -2.5047388 -1.8231236 4288085770
-1.8540421 -2.4497299 -1.8195015 4288085770
-1.8608818 -2.4047027 -1.8220894 4288085770
-1.8647308 -2.36168 -1.8247124 4288085770
-1.8725548 -2.3166671 -1.8252944 4288085770
-1.8813591 -2.2696586 -1.8248533 4288085770
-1.8811951 -2.2276573 -1.8255092 4288085770
-1.8830147 -2.1846623 -1.8251448 4288085770
-1.8718758 -2.1476607 -1.8279088 4288085770
-1.8686943 -2.1056724 -1.8275833 4288085770
-1.8565407 -2.0686889 -1.8283536 4288085770
-1.8513603 -2.0277123 -1.8270487 4288085770
-1.8262253 -1.9957223 -1.8309394 4288085770
-1.815052 -1.9577537 -1.8296958 4288085770
-1.7928925 -1.9227853 -1.830544 4288085770
-1.7707367 -1.8888159 -1.8314003 4288085770
-1.7445793 -1.8558521 -1.8322893 4288085770
-1.7234116 -1.8208985 -1.8311318 4288085770
-1.6892624 -1.7909465 -1.8320942 4288085770
-1.6650848 -1.7560048 -1.829955 4288085770
-1.6269379 -1.7270589 -1.8309505 4288085770
-1.5897865 -1.6961107 -1.8319235 4288085770
-1.5526199 -1.6651797 -1.8308967 4288085770
-1.5074692 -1.6372523 -1.8309435 4288085770
-1.4683037 -1.6073322 -1.8289372 4288085770
-1.4161682 -1.5813975 -1.8310429 4288085770
-1.3550377 -1.557477 -1.8332204 4288085770
-1.3108597 -1.5265727 -1.8302367 4288085770
-1.2576981 -1.4996643 -1.8293408 4288085770
-1.195549 -1.4737606 -1.8295082 4288085770
-1.1393776 -1.4458737 -1.8266226 4288085770
-1.0842094 -1.4179845 -1.8237311 4288085770
-1.0020828 -1.3970938 -1.8260617 4288085770
-2.0517693 -1.1103325 -1.8482997 4288085770
-0.91196442 -1.3761978 -1.8304416 4288085770
-1.9916229 -1.0874267 -1.8484795 4288085770
-0.83879852 -1.3503356 -1.8276768 4288085770
-1.9404564 -1.0625319 -1.8455881 4288085770
-0.74766541 -1.3294573 -1.8300627 4288085770
-1.8793068 -1.0406356 -1.8447822 4288085770
-0.6505394 -1.308589 -1.8324857 4288085770
-1.8181458 -1.016746 -1.8429602 4288085770
-0.56637192 -1.283742 -1.8297966 4288085770
-1.7509995 -0.99485874 -1.8421915 4288085770
-0.45923615 -1.263896 -1.8312891 4288085770
-1.6918106 -0.96999979 -1.8363491 4288085770
-0.36307907 -1.2410579 -1.8296897 4288085770
-1.6156731 -0.94911718 -1.8366436 4288085770
-0.24995041 -1.2212205 -1.8312191 4288085770
-1.5415154 -0.92725563 -1.8339177 4288085770
-0.11484146 -1.2043896 -1.8359076 4288085770
-1.450386 -0.90837765 -1.8363205 4288085770
-0.00068283081 -1.1825781 -1.8344271 4288085770
-1.3592529 -0.88950777 -1.8377231 4288085770
0.11846924 -1.1617823 -1.8319854 4288085770
-1.2860718 -0.86566925 -1.8319752 4288085770
0.25161743 -1.1409903 -1.8316294 4288085770
-1.2068977 -0.84283161 -1.8272721 4288085770
0.39475632 -1.1222038 -1.8323511 4288085770
-1.0927811 -0.82597923 -1.8308322 4288085770
0.54889297 -1.1044335 -1.8331484 4288085770
-1.0145798 -0.80116415 -1.8231068 4288085770
0.7359848 -1.0906625 -1.8401804 4288085770
-0.89546204 -0.7833271 -1.8256897 4288085770
0.89813232 -1.0709205 -1.8390107 4288085770
-0.79029846 -0.76251078 -1.8231624 4288085770
1.0702858 -1.0521932 -1.8379105 4288085770
-0.6531868 -0.7466917 -1.8268716 4288085770
1.2534256 -1.0334735 -1.8378779 4288085770
-0.53802109 -0.72589731 -1.8234057 4288085770
1.4326019 -1.0127811 -1.8338045 4288085770
-0.4108696 -0.70610523 -1.8220217 4288085770
1.6427422 -0.9951005 -1.8339455 4288085770
-0.25974655 -0.68931389 -1.824809 4288085770
1.8538971 -0.97644567 -1.8310847 4288085770
-0.14254761 -0.66556406 -1.8163314 4288085770
2.0620766 -0.95580292 -1.8261894 4288085770
0.017589569 -0.64780235 -1.8171659 4288085770
2.3012352 -0.9371891 -1.8235006 4288085770
0.19770813 -0.6310544 -1.8201311 4288085770
2.5563889 -0.9185977 -1.8209097 4288085770
0.36485672 -0.61231899 -1.8190006 4288085770
2.8395271 -0.90302277 -1.8215152 4288085770
0.57096481 -0.59659147 -1.8241334 4288085770
3.1536636 -0.88749361 -1.8223106 4288085770
0.76809692 -0.5788846 -1.825195 4288085770
3.4828033 -0.87199354 -1.8221982 4288085770
0.9532814 -0.55820847 -1.8201591 4288085770
3.8399353 -0.8575263 -1.8232657 4288085770
1.1724167 -0.53954077 -1.8203475 4288085770
4.2250786 -0.84310865 -1.8235049 4288085770
1.3736 -0.51789665 -1.8144016 4288085770
4.6531906 -0.82972813 -1.827016 4288085770
1.6227417 -0.50027275 -1.8147824 4288085770
5.1332989 -0.81941414 -1.8318706 4288085770
1.8778954 -0.48067427 -1.8131839 4288085770
5.602459 -0.80314207 -1.8296092 4288085770
2.1400642 -0.4601016 -1.8096204 4288085770
6.0896511 -0.78493738 -1.8224423 4288085770
2.4292259 -0.44056034 -1.8072306 4288085770
6.6198311 -0.76677847 -1.8175391 4288085770
