# .PCD v0.7 - Point Cloud Data file format
VERSION 0.7
FIELDS x y z rgb
SIZE 4 4 4 4
TYPE F F F U
COUNT 1 1 1 1
WIDTH 1122
HEIGHT 1
VIEWPOINT 0 0 0 1 0 0 0
POINTS 1122
DATA ascii
3.2978668 3.5719686 -1.70801 4288085770
1.499939 2.9184666 -1.7289455 4288085770
3.2758942 3.6269355 -1.7071011 4288085770
1.4869843 2.9644446 -1.7279794 4288085770
3.2539062 3.6818981 -1.7041919 4288085770
1.4660187 3.0064068 -1.7240813 4288085770
3.2619476 3.7489104 -1.706032 4288085770
1.4840851 3.0654387 -1.7298548 4288085770
3.2659607 3.8149161 -1.7069046 4288085770
1.4751129 3.1144204 -1.7278531 4288085770
3.2529755 3.8738904 -1.7029192 4288085770
1.4731445 3.1644144 -1.7267954 4288085770
3.2689819 3.944911 -1.7026913 4288085770
1.4641724 3.2113938 -1.7227962 4288085770
3.2739868 4.0099134 -1.700557 4288085770
1.488205 3.2734303 -1.7265184 4288085770
3.2789612 4.075913 -1.6964219 4288085770
1.4922333 3.3264289 -1.7234094 4288085770
3.2969513 4.1489329 -1.694175 4288085770
1.505249 3.3834429 -1.7222245 4288085770
3.3399658 4.2319942 -1.6957185 4288085770
1.5282898 3.446475 -1.7229531 4288085770
3.3729553 4.3130355 -1.6933434 4288085770
1.5433044 3.5054889 -1.7197492 4288085770
3.4259491 4.40311 -1.6937993 4288085770
1.5562897 3.562499 -1.7155645 4288085770
3.503952 4.5082254 -1.6980383 4288085770
1.6023102 3.637567 -1.7190964 4288085770
3.5218964 4.5812368 -1.689791 4288085770
1.6303253 3.702601 -1.7167828 4288085770
3.5938721 4.6833367 -1.6900814 4288085770
1.665329 3.7716451 -1.7144086 4288085770
3.6958466 4.801486 -1.6941149 4288085770
1.7143402 3.848712 -1.7149141 4288085770
3.797821 4.9206328 -1.6971471 4288085770
1.7493286 3.9187531 -1.7105386 4288085770
3.8997803 5.0407772 -1.6981776 4288085770
1.8033142 3.9978247 -1.7090023 4288085770
3.9987183 5.1599154 -1.697233 4288085770
1.8653107 4.0829115 -1.7093947 4288085770
4.1166382 5.2900796 -1.6971242 4288085770
1.9082794 4.1569595 -1.7029531 4288085770
4.2165527 5.4112124 -1.6921709 4288085770
2.0022736 4.2600985 -1.7080705 4288085770
4.3094635 5.5283322 -1.6852758 4288085770
2.0642395 4.3451767 -1.7034628 4288085770
4.4253387 5.6594849 -1.6781814 4288085770
2.130188 4.432261 -1.6988213 4288085770
4.5402069 5.7906356 -1.6710942 4288085770
2.2471771 4.5504322 -1.7037375 4288085770
4.6950684 5.945848 -1.666661 4288085770
2.3121033 4.6375089 -1.6951039 4288085770
4.8659363 6.1120849 -1.6640875 4288085770
2.4360657 4.7606874 -1.6979582 4288085770
5.0817871 6.3073931 -1.6651218 4288085770
2.556015 4.8818555 -1.6978467 4288085770
5.3236237 6.5197372 -1.6669285 4288085770
2.6919556 5.0130491 -1.6995962 4288085770
5.5614319 6.7290716 -1.6657708 4288085770
2.8368988 5.1502552 -1.7012665 4288085770
5.8012238 6.9424057 -1.6615922 4288085770
2.9928284 5.2944775 -1.7028415 4288085770
6.065979 7.1717749 -1.6581953 4288085770
3.1597443 5.4467139 -1.7033188 4288085770
6.3557281 7.4191799 -1.6535776 4288085770
3.308609 5.5869155 -1.6979539 4288085770
6.6734314 7.6846218 -1.6477158 4288085770
3.4824829 5.7441573 -1.6953704 4288085770
7.0570984 7.9951668 -1.6472752 4288085770
3.672348 5.9104209 -1.6926486 4288085770
3.8731995 6.0847006 -1.6898296 4288085770
4.1100311 6.2830381 -1.690695 4288085770
4.3188629 6.4613218 -1.6828082 4288085770
4.5796509 6.6746883 -1.6804655 4288085770
4.879425 6.914113 -1.6797817 4288085770
5.1741943 7.150526 -1.676141 4288085770
5.4939117 7.4029732 -1.6712825 4288085770
5.8386078 7.6714544 -1.6652067 4288085770
6.2312775 7.9730072 -1.6617091 4288085770
14.892242 -0.71733993 -1.677563 4288085770
13.851486 -0.7538445 -1.6936076 4288085770
12.886703 -0.78424573 -1.7050588 4288085770
11.996902 -0.80753952 -1.7149231 4288085770
11.189102 -0.82971263 -1.7251565 4288085770
10.526367 -0.85365897 -1.7432811 4288085770
9.8375549 -0.86766088 -1.7515886 4288085770
9.1286469 -0.87370867 -1.7500355 4288085770
8.5227814 -0.88259476 -1.7546976 4288085770
14.947449 -1.4281948 -1.7054145 4288085770
7.9819489 -0.89038122 -1.7618587 4288085770
13.666489 -1.3950788 -1.7081788 4288085770
7.50914 -0.89806217 -1.7724998 4288085770
12.669662 -1.3755263 -1.7217886 4288085770
7.0953522 -0.90864992 -1.7866924 4288085770
11.761826 -1.3568428 -1.735718 4288085770
6.6645355 -0.91227341 -1.7950037 4288085770
10.906952 -1.3350904 -1.7442362 4288085770
6.2736969 -0.9168365 -1.8040102 4288085770
10.230179 -1.3230566 -1.764406 4288085770
5.7737122 -0.90559602 -1.7918246 4288085770
9.4572144 -1.2951982 -1.7642848 4288085770
5.3647614 -0.90020627 -1.7889521 4288085770
8.7512817 -1.2692407 -1.764653 4288085770
5.0018768 -0.89574242 -1.7897279 4288085770
8.1564026 -1.2481096 -1.7711785 4288085770
4.6730042 -0.89322406 -1.7932465 4288085770
7.6385498 -1.2318591 -1.7811224 4288085770
4.3831482 -0.89164406 -1.7994678 4288085770
7.2077637 -1.2214683 -1.7984097 4288085770
4.096283 -0.88706118 -1.804661 4288085770
6.7338867 -1.2031605 -1.8040125 4288085770
3.8384552 -0.88443285 -1.8116353 4288085770
6.3140259 -1.1857691 -1.8122032 4288085770
3.6066132 -0.88276333 -1.8204119 4288085770
5.8190308 -1.1565161 -1.8039477 4288085770
3.3877869 -0.881073 -1.8300884 4288085770
5.3700256 -1.1291926 -1.7973435 4288085770
3.1489105 -0.87442225 -1.8339102 4288085770
4.9730682 -1.1057849 -1.795347 4288085770
2.9120331 -0.86577338 -1.8347127 4288085770
4.6271667 -1.0862942 -1.7979662 4288085770
2.6730957 -0.85413277 -1.832525 4288085770
4.3283081 -1.0707264 -1.8052318 4288085770
2.4631958 -0.84644341 -1.8341224 4288085770
4.0614471 -1.0571086 -1.814256 4288085770
2.2512817 -0.83476198 -1.8327286 4288085770
3.7845917 -1.039512 -1.8193495 4288085770
2.050354 -0.82406431 -1.8312514 4288085770
3.5507355 -1.0268441 -1.8291223 4288085770
1.8774719 -0.81631756 -1.8345649 4288085770
3.3098755 -1.0111933 -1.8349435 4288085770
1.686554 -0.80360723 -1.8320076 4288085770
3.059967 -0.99256462 -1.8358281 4288085770
1.5286865 -0.79483664 -1.8362043 4288085770
2.8240509 -0.97291541 -1.8366044 4288085770
1.3617706 -0.78408659 -1.8364666 4288085770
2.5901031 -0.9532665 -1.8353646 4288085770
1.2289276 -0.7762745 -1.8434727 4288085770
2.3711853 -0.93359411 -1.8350098 4288085770
1.0850372 -0.76548749 -1.8455589 4288085770
2.1572723 -0.91391611 -1.8336165 4288085770
0.92410278 -0.75173497 -1.8417695 4288085770
1.9573212 -0.89421761 -1.8321164 4288085770
0.79222107 -0.7409302 -1.8437636 4288085770
1.763382 -0.87451231 -1.8295696 4288085770
0.67433167 -0.73210001 -1.8486536 4288085770
1.5974731 -0.85775733 -1.8318136 4288085770
0.52738953 -0.71633077 -1.8427532 4288085770
1.4385986 -0.84099227 -1.8340042 4288085770
0.41448975 -0.70649672 -1.8456032 4288085770
1.2897034 -0.82521081 -1.8371198 4288085770
1.1518097 -0.81041187 -1.8411524 4288085770
1.0018921 -0.7926386 -1.8402717 4288085770
0.85997009 -0.77485234 -1.8403299 4288085770
0.72805786 -0.75705117 -1.8403113 4288085770
0.59613037 -0.73925203 -1.8392928 4288085770
0.47923279 -0.72342747 -1.8411615 4288085770
0.37290955 1.1710542 -1.8101399 4288085770
0.47294617 1.1851932 -1.8033626 4288085770
0.58299255 1.1993505 -1.7985098 4288085770
0.68803406 1.212495 -1.7906959 4288085770
0.83815002 1.2327312 -1.7955306 4288085770
0.96321106 1.2469119 -1.7905648 4288085770
1.106308 1.263127 -1.7894599 4288085770
0.30766296 1.1559438 -1.8136766 4288085770
1.2523804 1.2803453 -1.7873304 4288085770
0.42878723 1.1681288 -1.8147442 4288085770
1.3924103 1.2945455 -1.7802522 4288085770
0.52983093 1.1762654 -1.8059704 4288085770
1.5554962 1.3107914 -1.7789967 4288085770
0.63485718 1.1834103 -1.7981684 4288085770
1.7306061 1.3290571 -1.7786472 4288085770
0.76496887 1.1946059 -1.7971704 4288085770
1.90065 1.3443085 -1.7743418 4288085770
0.90505981 1.2068189 -1.7970955 4288085770
2.0767212 1.3605694 -1.7699888 4288085770
1.0481415 1.2180337 -1.7960002 4288085770
2.2517548 1.3738233 -1.7626498 4288085770
1.1882324 1.2272419 -1.7929308 4288085770
2.4588318 1.3911349 -1.760062 4288085770
1.3373108 1.2364613 -1.7887943 4288085770
2.6669006 1.4074444 -1.7554686 4288085770
1.487381 1.2456819 -1.7846501 4288085770
2.9290161 1.4308547 -1.7604563 4288085770
1.6594849 1.2559439 -1.7843382 4288085770
3.1761017 1.4492298 -1.7585657 4288085770
1.8295593 1.2651976 -1.7810438 4288085770
3.4221497 1.4655975 -1.7536871 4288085770
1.9986267 1.2734481 -1.7767594 4288085770
3.6782074 1.4829813 -1.7487319 4288085770
2.2107544 1.2857782 -1.7801435 4288085770
3.9472504 1.4983813 -1.7416823 4288085770
2.3768005 1.2890135 -1.769891 4288085770
4.1972504 1.5097433 -1.7297838 4288085770
2.5768585 1.296312 -1.7653749 4288085770
4.4742889 1.5221483 -1.7186801 4288085770
2.7959747 1.3046442 -1.7637146 4288085770
4.8073578 1.5406541 -1.7151444 4288085770
3.0380707 1.3140169 -1.7648795 4288085770
5.1313629 1.5551332 -1.7046845 4288085770
3.2821655 1.3213879 -1.7630327 4288085770
5.4964294 1.5716828 -1.697912 4288085770
3.5222321 1.3267459 -1.757221 4288085770
5.953537 1.5973922 -1.701431 4288085770
3.7783203 1.3311306 -1.7522905 4288085770
6.3725586 1.614019 -1.6912534 4288085770
4.0544128 1.3365473 -1.7482073 4288085770
6.8396149 1.6327292 -1.6857116 4288085770
4.3124542 1.3369254 -1.73827 4288085770
7.3626709 1.654528 -1.6817429 4288085770
4.6015015 1.337356 -1.7300999 4288085770
7.9367523 1.6774074 -1.6783893 4288085770
4.9225769 1.3398398 -1.7246854 4288085770
8.5387878 1.6983227 -1.6708295 4288085770
5.258667 1.3403455 -1.7181618 4288085770
9.217865 1.7223612 -1.6656859 4288085770
5.6808014 1.3470031 -1.7219808 4288085770
9.9528961 1.7454845 -1.6591237 4288085770
6.0718994 1.3465952 -1.7160461 4288085770
10.777969 1.7717499 -1.6538794 4288085770
6.4819489 1.3442153 -1.7089732 4288085770
11.738052 1.8032311 -1.652612 4288085770
6.9250488 1.341889 -1.7036521 4288085770
12.724075 1.8287383 -1.6431615 4288085770
7.4321442 1.3396651 -1.6998508 4288085770
13.743073 1.8482825 -1.6254745 4288085770
7.9412231 1.3344392 -1.6930406 4288085770
14.854019 1.866964 -1.6050999 4288085770
8.5003357 1.3272918 -1.6868584 4288085770
9.1354523 1.3212692 -1.6841037 4288085770
9.8085632 1.3103009 -1.6790736 4288085770
10.561676 1.2994581 -1.674443 4288085770
11.519897 1.293959 -1.6842625 4288085770
12.453064 1.2784008 -1.6822903 4288085770
13.308105 1.2486917 -1.6639316 4288085770
14.275162 1.2161609 -1.6477377 4288085770
6.2624054 -7.4813724 -1.5919235 4293729569
5.8540649 -7.1740174 -1.5963633 4293729569
5.543869 -6.9334893 -1.6092057 4293729569
5.2476959 -6.7009411 -1.6209586 4293729569
4.9464722 -6.4634104 -1.6277385 4293729569
4.65625 -6.2338715 -1.6304514 4293729569
4.4201202 -6.0392323 -1.6398318 4293729569
4.1869659 -5.8465939 -1.6461928 4293729569
3.9748535 -5.6679235 -1.6524246 4293729569
3.7737274 -5.495235 -1.6585863 4293729569
7.0124664 -7.4941874 -1.5795307 4293729569
3.6237183 -5.3574514 -1.6714375 4293729569
6.6311188 -7.1887937 -1.5827692 4293729569
3.5127716 -5.2435975 -1.6880467 4293729569
6.335907 -6.940248 -1.5924807 4293729569
3.3707275 -5.1088095 -1.6968434 4293729569
6.0637207 -6.7066665 -1.6020503 4293729569
3.2136383 -4.9640551 -1.700732 4293729569
5.8095398 -6.4860601 -1.6095116 4293729569
3.0445099 -4.8113303 -1.6996934 4293729569
5.602417 -6.2953668 -1.6226826 4293729569
2.9374847 -4.6984868 -1.7082727 4293729569
5.4013062 -6.1096725 -1.6318181 4293729569
2.828476 -4.5846496 -1.7148645 4293729569
5.186142 -5.9150105 -1.636039 4293729569
2.7064056 -4.4618425 -1.7175357 4293729569
4.9809723 -5.7273345 -1.6391995 4293729569
2.6103973 -4.3559866 -1.7230461 4293729569
4.8018646 -5.5576134 -1.6442015 4293729569
2.5003357 -4.2401643 -1.7236407 4293729569
4.6347198 -5.394877 -1.6471283 4293729569
2.4163208 -4.142292 -1.7280781 4293729569
4.4595795 -5.2291598 -1.6471078 4293729569
2.3473358 -4.0523915 -1.7344196 4293729569
4.3505402 -5.1033182 -1.6556771 4293729569
2.2683105 -3.9565139 -1.7378232 4293729569
4.2585449 -4.9864488 -1.6651371 4293729569
2.2253723 -3.8825674 -1.7460029 4293729569
4.1514893 -4.8626108 -1.6706946 4293729569
2.3037567 -3.877367 -1.7844217 4293729569
4.0644836 -4.7497368 -1.6781251 4293729569
2.4052124 -3.8841205 -1.8266943 4288085770
3.9824677 -4.6408587 -1.6835268 4293729569
2.4855957 -3.8759189 -1.8630927 4288085770
3.9114532 -4.537961 -1.6898577 4293729569
2.4616547 -3.808939 -1.8731458 4288085770
3.8684998 -4.4510112 -1.7000129 4293729569
2.3896027 -3.7150636 -1.8695004 4288085770
3.8045044 -4.353106 -1.7043016 4293729569
2.3205261 -3.6221838 -1.8658345 4288085770
3.7545166 -4.2611756 -1.7104986 4293729569
2.2715302 -3.5412652 -1.8650444 4288085770
3.7055054 -4.1702471 -1.7146895 4293729569
2.2485657 -3.4742956 -1.8690889 4288085770
3.6655273 -4.0853019 -1.719826 4293729569
2.206543 -3.3973665 -1.8682539 4288085770
3.6325531 -4.0033455 -1.7249157 4293729569
2.1715393 -3.3244257 -1.8673751 4288085770
3.6476593 -3.9462962 -1.7377002 4293729569
2.1204681 -3.2435212 -1.8615992 4288085770
3.7940826 -3.9519844 -1.7756393 4293729569
2.0984802 -3.1765575 -1.8616354 4288085770
3.9535065 -3.9616475 -1.8154905 4288085770
2.0694733 -3.1076095 -1.85972 4288085770
4.0969086 -3.9603443 -1.8514383 4288085770
2.0705261 -3.0526013 -1.86361 4288085770
4.1420288 -3.910244 -1.8650148 4288085770
2.0324707 -2.9796777 -1.8567526 4288085770
4.1190186 -3.8302817 -1.8650348 4288085770
2.0365143 -2.9266667 -1.8596241 4288085770
4.1040039 -3.7543058 -1.8650029 4288085770
2.0355377 -2.8706677 -1.8605268 4288085770
4.0839691 -3.675343 -1.8630025 4288085770
2.0205536 -2.8087013 -1.8565209 4288085770
4.0809937 -3.6043482 -1.8628914 4288085770
2.0225677 -2.7536993 -1.8564022 4288085770
4.0859985 -3.5353384 -1.8637254 4288085770
2.0345917 -2.7036796 -1.8572204 4288085770
4.0869904 -3.4663415 -1.8615892 4288085770
2.0436249 -2.6516666 -1.8570564 4288085770
4.0919952 -3.3993359 -1.8604267 4288085770
2.0697174 -2.6076179 -1.8607829 4288085770
4.0969696 -3.3313346 -1.8572624 4288085770
2.0726929 -2.5536225 -1.8566592 4288085770
4.1109619 -3.2683165 -1.8550417 4288085770
2.1017761 -2.5085728 -1.858361 4288085770
4.1339722 -3.2072837 -1.8527582 4288085770
2.1287994 -2.4645286 -1.8590796 4288085770
4.161972 -3.1482415 -1.8514411 4288085770
2.1678925 -2.4244611 -1.8617175 4288085770
4.2080078 -3.0961635 -1.8530052 4288085770
2.1939087 -2.3784225 -1.8604395 4288085770
4.2339935 -3.0361302 -1.8487012 4288085770
2.2169189 -2.3313928 -1.8571818 4288085770
4.2810211 -2.9830565 -1.8472564 4288085770
2.2549744 -2.2883327 -1.8568208 4288085770
4.3530884 -2.9379349 -1.849642 4288085770
2.3140564 -2.2532308 -1.8603208 4288085770
4.4111176 -2.8888435 -1.8481238 4288085770
2.3510742 -2.210176 -1.8579676 4288085770
4.4611053 -2.8347712 -1.8436544 4288085770
2.3951416 -2.1691084 -1.8565667 4288085770
4.554184 -2.7956133 -1.8468969 4288085770
2.46521 -2.1359885 -1.8599894 4288085770
4.6161804 -2.7445216 -1.842345 4288085770
2.5262604 -2.0988894 -1.8604705 4288085770
4.692215 -2.698401 -1.8406999 4288085770
2.5943298 -2.0647762 -1.8619063 4288085770
4.775238 -2.6532731 -1.8370044 4288085770
2.6593933 -2.0276704 -1.8623583 4288085770
4.8692627 -2.6101234 -1.8352325 4288085770
2.7304535 -1.9915565 -1.8617675 4288085770
4.9712982 -2.5689607 -1.8334053 4288085770
2.8255615 -1.9623938 -1.8660142 4288085770
5.0482941 -2.5188506 -1.8257449 4288085770
2.9036255 -1.9262683 -1.8653719 4288085770
5.1292572 -2.4687357 -1.8170545 4288085770
2.985672 -1.8921368 -1.8647048 4288085770
5.2322693 -2.4255793 -1.8112161 4288085770
3.0697327 -1.8570037 -1.8630202 4288085770
5.3723145 -2.3903508 -1.8111203 4288085770
3.1337128 -1.8159153 -1.8554718 4288085770
5.5334015 -2.3590858 -1.811878 4288085770
3.2337799 -1.7837523 -1.8556755 4288085770
5.7315216 -2.3337507 -1.8173749 4288085770
3.3348236 -1.7505918 -1.8538702 4288085770
5.8855438 -2.2975054 -1.8141749 4288085770
3.4338684 -1.7164363 -1.8510778 4288085770
6.0385742 -2.2592649 -1.8089778 4288085770
3.5318909 -1.6812863 -1.8462908 4288085770
6.2055969 -2.2230022 -1.8036821 4288085770
3.6279144 -1.6431435 -1.8395121 4288085770
6.4046478 -2.1906796 -1.8021586 4288085770
3.7549591 -1.6129384 -1.8385212 4288085770
6.5886536 -2.1543925 -1.7947376 4288085770
3.891037 -1.5827184 -1.8374641 4288085770
6.8217316 -2.1250119 -1.7939699 4288085770
4.0150604 -1.5485238 -1.8334877 4288085770
7.0547638 -2.0936372 -1.7901981 4288085770
4.1470795 -1.5143204 -1.8274524 4288085770
7.2717896 -2.0582967 -1.7825367 4288085770
4.2961426 -1.483081 -1.8252976 4288085770
7.514801 -2.0249116 -1.7756875 4288085770
4.4321289 -1.4478749 -1.8172309 4288085770
7.8859558 -2.0112858 -1.7839358 4288085770
4.5771484 -1.41265 -1.8110979 4288085770
8.2140198 -1.9857495 -1.7824767 4288085770
4.7481842 -1.3803806 -1.8057797 4288085770
8.6081543 -1.9690939 -1.7865498 4288085770
4.9552612 -1.3530403 -1.806206 4288085770
8.9301605 -1.9355835 -1.7771204 4288085770
5.1803436 -1.3266685 -1.807502 4288085770
9.3091888 -1.907972 -1.7712824 4288085770
5.4194183 -1.299276 -1.8076932 4288085770
9.7672882 -1.8882172 -1.7718794 4288085770
5.6955414 -1.2758127 -1.8126199 4288085770
10.252365 -1.8674225 -1.7702768 4288085770
5.9736328 -1.2493521 -1.8145263 4288085770
10.756439 -1.8436022 -1.7655275 4288085770
6.2827454 -1.2238365 -1.8182065 4288085770
11.293488 -1.8197304 -1.7595365 4288085770
6.5657806 -1.1933798 -1.814069 4288085770
11.833496 -1.7908611 -1.7495143 4288085770
6.8488007 -1.1589266 -1.8079231 4288085770
12.383453 -1.7559878 -1.7334063 4288085770
7.145813 -1.1244547 -1.7996752 4288085770
13.025452 -1.7289535 -1.7216384 4288085770
7.4568024 -1.0889616 -1.7903221 4288085770
13.808502 -1.7086788 -1.7138464 4288085770
7.7737732 -1.0494651 -1.7779167 4288085770
14.728592 -1.6931678 -1.7110574 4288085770
8.1467743 -1.0138662 -1.770108 4288085770
8.576828 -0.98116815 -1.7648857 4288085770
9.0538635 -0.94739103 -1.7603161 4288085770
9.5769196 -0.91353434 -1.7574084 4288085770
10.193008 -0.88251513 -1.7588227 4288085770
10.714935 -0.83669031 -1.7408998 4288085770
11.364929 -0.79763335 -1.7330496 4288085770
12.091934 -0.75544995 -1.7246268 4288085770
12.833908 -0.70825577 -1.7090847 4288085770
13.724884 -0.66280365 -1.6994517 4288085770
14.6418 -0.61032438 -1.6816137 4288085770
14.661972 1.9683548 -1.604475 4288085770
14.043991 2.0372825 -1.6097615 4288085770
13.518997 2.1073775 -1.6173782 4288085770
12.979004 2.1694307 -1.6181197 4288085770
12.516037 2.2346292 -1.623301 4288085770
12.075027 2.2948589 -1.6253362 4288085770
11.649048 2.3541145 -1.627265 4288085770
11.253052 2.4144201 -1.6279757 4288085770
10.934082 2.4778709 -1.6331275 4288085770
10.594086 2.5352736 -1.6334429 4288085770
10.286087 2.5937314 -1.6335261 4288085770
10.035126 2.6572995 -1.6381891 4288085770
9.8031464 2.719902 -1.6427181 4288085770
9.562149 2.7804785 -1.643316 4288085770
9.3631897 2.8451371 -1.6476033 4288085770
9.1591949 2.9067807 -1.6489332 4288085770
8.9641724 2.9694371 -1.6491964 4288085770
8.7761841 3.0291033 -1.6484149 4288085770
8.6412048 3.098875 -1.6532323 4288085770
8.4962158 3.1636214 -1.6541317 4288085770
8.3502045 3.2293611 -1.6530359 4288085770
8.2121887 3.294117 -1.6528847 4288085770
8.1081848 3.3649359 -1.6544764 4288085770
7.9991608 3.434742 -1.6541064 4288085770
7.9151764 3.5085964 -1.6555479 4288085770
7.8041382 3.5733924 -1.6522033 4288085770
15.119339 5.5261197 -1.5635405 4288085770
7.7271118 3.6472545 -1.6515944 4288085770
14.955276 5.6298289 -1.5624907 4288085770
7.6630707 3.7251406 -1.6518838 4288085770
14.923187 5.7667904 -1.569423 4288085770
7.601059 3.8010268 -1.6501629 4288085770
14.787079 5.8765445 -1.5661592 4288085770
7.562027 3.8849602 -1.6512597 4288085770
14.712952 6.0014162 -1.5664184 4288085770
7.5229797 3.9668851 -1.6493604 4288085770
14.67984 6.1363611 -1.5673621 4288085770
7.5189514 4.0588841 -1.652189 4288085770
14.662704 6.2773323 -1.5671775 4288085770
7.5139008 4.151876 -1.6530225 4288085770
14.695557 6.4353981 -1.5695975 4288085770
7.5248566 4.2508988 -1.6547277 4288085770
14.790375 6.6145763 -1.5735273 4288085770
7.540802 4.3519297 -1.6563928 4288085770
14.762207 6.7545156 -1.5674233 4288085770
7.5437317 4.4479294 -1.6541617 4288085770
14.81601 6.9236069 -1.5646684 4288085770
7.6136627 4.5680647 -1.6593983 4288085770
14.858795 7.0886717 -1.5590007 4288085770
7.6826019 4.6901951 -1.6636369 4288085770
14.981552 7.2828865 -1.5566969 4288085770
7.7025146 4.7952223 -1.6602643 4288085770
15.113281 7.4841137 -1.5533128 4288085770
7.7694244 4.9163418 -1.6605198 4288085770
7.8352966 5.0394564 -1.6597784 4288085770
7.9001923 5.1625633 -1.6570437 4288085770
7.9520416 5.28264 -1.650409 4288085770
8.0729065 5.4308581 -1.6522181 4288085770
8.1257477 5.5529294 -1.6425712 4288085770
8.2345734 5.6981158 -1.6394732 4288085770
8.4043884 5.8734188 -1.6408722 4288085770
8.5361786 6.0326409 -1.6355784 4288085770
8.7219849 6.2179694 -1.634841 4288085770
8.9337311 6.4173422 -1.6338866 4288085770
9.1824799 6.6377888 -1.6356208 4288085770
9.4421844 6.8652496 -1.6352615 4288085770
9.6858673 7.0906706 -1.6300209 4288085770
9.9225464 7.3140726 -1.621835 4288085770
10.255157 7.5886574 -1.6188495 4288085770
10.623749 7.8853102 -1.617558 4288085770
10.980316 8.1799297 -1.610357 4288085770
15.137817 -0.2123338 -1.6571152 4288085770
13.918106 -0.2375201 -1.6796796 4288085770
12.757309 -0.25662136 -1.6928174 4288085770
11.712509 -0.27151394 -1.7041361 4288085770
10.76268 -0.28323936 -1.7127845 4288085770
9.9638672 -0.29368079 -1.7243783 4288085770
9.1439667 -0.2981894 -1.7241027 4288085770
8.4200897 -0.30251431 -1.7271578 4288085770
14.659332 -0.54217327 -1.6693771 4288085770
7.843277 -0.30755019 -1.7381914 4288085770
13.385498 -0.52948058 -1.6842182 4288085770
7.2784119 -0.30957663 -1.7441337 4288085770
12.3237 -0.52038753 -1.7035916 4288085770
6.7875824 -0.31245601 -1.7545621 4288085770
11.261795 -0.5043292 -1.708946 4288085770
6.3287659 -0.31328034 -1.7637622 4288085770
10.396973 -0.49388766 -1.722944 4288085770
5.8878937 -0.31207895 -1.7698328 4288085770
9.5540619 -0.47842848 -1.7277758 4288085770
5.4489899 -0.30888867 -1.7698834 4288085770
8.7791443 -0.46385038 -1.7301362 4288085770
5.0711365 -0.30757093 -1.7765148 4288085770
8.1122589 -0.45106149 -1.7377489 4288085770
4.6842194 -0.30228853 -1.7751977 4288085770
7.4993896 -0.4381789 -1.7429855 4288085770
4.3543701 -0.29888558 -1.7804887 4288085770
6.9975433 -0.42707503 -1.7554548 4288085770
4.0354767 -0.29446781 -1.7837007 4288085770
6.4986725 -0.41497803 -1.7628996 4288085770
3.7636414 -0.29095256 -1.7915876 4288085770
6.0528107 -0.40378225 -1.7709782 4288085770
3.5228119 -0.28737354 -1.8022583 4288085770
5.5949097 -0.38962758 -1.7711318 4288085770
3.2609253 -0.28184974 -1.8060706 4288085770
5.2020111 -0.37734032 -1.7768385 4288085770
3.0040283 -0.27532423 -1.8068449 4288085770
4.7810516 -0.36213064 -1.7717316 4288085770
2.7761688 -0.26873851 -1.8104174 4288085770
4.4772186 -0.35166693 -1.7828233 4288085770
2.5522614 -0.26115072 -1.8119595 4288085770
4.1733246 -0.34021509 -1.7889125 4288085770
2.3383636 -0.25454462 -1.8134339 4288085770
3.8584137 -0.32679582 -1.7900727 4288085770
2.1294556 -0.24593437 -1.8128688 4288085770
3.5995636 -0.31525743 -1.797848 4288085770
1.9445801 -0.23827064 -1.8161385 4288085770
3.3396759 -0.30373061 -1.8016303 4288085770
1.758667 -0.22961628 -1.8164127 4288085770
3.0847778 -0.29019952 -1.8033721 4288085770
1.5877533 -0.22193205 -1.8175852 4288085770
2.8468781 -0.2776351 -1.8059981 4288085770
1.4248657 -0.21323073 -1.8196995 4288085770
2.6269836 -0.26603806 -1.8085015 4288085770
1.2749786 -0.20450377 -1.8227232 4288085770
2.4090576 -0.25244248 -1.8089859 4288085770
1.1291046 -0.19576895 -1.8257186 4288085770
2.2131653 -0.23979878 -1.8123195 4288085770
0.98219299 -0.18704629 -1.8247211 4288085770
1.9962158 -0.22621608 -1.8067963 4288085770
0.83325195 -0.17632961 -1.8227322 4288085770
1.8283386 -0.214517 -1.8119371 4288085770
0.71540833 -0.16753709 -1.8285329 4288085770
1.6534424 -0.20084071 -1.813122 4288085770
0.58950806 -0.15876865 -1.8303888 4288085770
1.5035553 -0.18910635 -1.8191383 4288085770
0.47061157 -0.14898789 -1.8321941 4288085770
1.3466492 -0.17639995 -1.8191998 4288085770
1.1987457 -0.16367149 -1.8211987 4288085770
1.0608673 -0.15092301 -1.8241279 4288085770
0.91893005 -0.13819373 -1.8220851 4288085770
0.78001404 -0.12445879 -1.8200185 4288085770
0.65708923 -0.11268818 -1.8208458 4288085770
0.53517151 -0.098917484 -1.8206608 4288085770
0.29631042 1.8231508 -1.779155 4288085770
0.40937805 1.8493623 -1.7793257 4288085770
0.52644348 1.8745812 -1.7794721 4288085770
0.63650513 1.8967773 -1.7756736 4288085770
0.74353027 1.9169627 -1.7699006 4288085770
0.86558533 1.940183 -1.7670186 4288085770
0.97361755 1.9583634 -1.7582443 4288085770
1.107666 1.9826101 -1.7562788 4288085770
0.32528687 1.7801951 -1.7850955 4288085770
1.2437134 2.0068545 -1.7523 4288085770
0.43333435 1.7973896 -1.7823236 4288085770
1.3727417 2.027082 -1.7463787 4288085770
0.56144714 1.8186373 -1.7854054 4288085770
1.5067749 2.0473161 -1.739424 4288085770
0.67051697 1.8328317 -1.7816346 4288085770
1.6738586 2.0756326 -1.7402256 4288085770
0.77455139 1.8440071 -1.773905 4288085770
1.822876 2.0978975 -1.734164 4288085770
0.90260315 1.8622447 -1.7729957 4288085770
1.9889221 2.1221995 -1.7299826 4288085770
1.0206604 1.8744513 -1.7671692 4288085770
2.1649475 2.1485229 -1.7267292 4288085770
1.1447144 1.8876716 -1.7622998 4288085770
2.3500061 2.1748657 -1.7244146 4288085770
1.2758026 1.9019078 -1.7583802 4288085770
2.5460663 2.2032299 -1.7220209 4288085770
1.4128571 1.9161552 -1.7544205 4288085770
2.7541351 2.2316184 -1.720546 4288085770
1.5599365 1.9314245 -1.7513912 4288085770
2.9961853 2.2670836 -1.7238238 4288085770
1.7059784 1.9446887 -1.7473733 4288085770
3.2302551 2.2975254 -1.7231686 4288085770
1.8580475 1.9579648 -1.7433155 4288085770
3.4783173 2.3299947 -1.7234137 4288085770
2.0371399 1.9763047 -1.7440622 4288085770
3.7363586 2.3614783 -1.7215946 4288085770
2.1901855 1.9855748 -1.7370079 4288085770
3.9473572 2.3788462 -1.7091286 4288085770
2.3612518 1.9978868 -1.7328246 4288085770
4.1673584 2.3962288 -1.6956027 4288085770
2.5473328 2.0122323 -1.7305348 4288085770
4.4023438 2.4156451 -1.6839712 4288085770
2.7764435 2.0346794 -1.735934 4288085770
4.6683655 2.4381242 -1.6741216 4288085770
2.9855194 2.0500736 -1.7354867 4288085770
4.967392 2.4656758 -1.6680372 4288085770
3.206604 2.0654902 -1.7349589 4288085770
5.27742 2.4922466 -1.6608808 4288085770
3.4256897 2.0778985 -1.7324522 4288085770
5.648468 2.5289478 -1.6592872 4288085770
3.6297302 2.0842633 -1.7240622 4288085770
6.0775146 2.5747719 -1.6632788 4288085770
3.8638153 2.094698 -1.7204597 4288085770
6.4585419 2.6054797 -1.6566341 4288085770
4.0748596 2.098074 -1.7110312 4288085770
6.9025879 2.6443238 -1.656544 4288085770
4.3088989 2.1034989 -1.7034423 4288085770
7.3926239 2.6882567 -1.6571305 4288085770
4.5399628 2.1049128 -1.6938846 4288085770
7.9266815 2.7352762 -1.6584132 4288085770
4.7930298 2.1083741 -1.6861727 4288085770
8.4557037 2.7752748 -1.6547482 4288085770
5.0500641 2.1088367 -1.6764429 4288085770
9.0217285 2.8173428 -1.6508286 4288085770
5.3451538 2.1143851 -1.6714432 4288085770
9.6357574 2.8605037 -1.6475837 4288085770
5.676239 2.1220083 -1.6691959 4288085770
10.27977 2.9017153 -1.6411421 4288085770
6.0843811 2.1398034 -1.6764033 4288085770
11.008759 2.9500976 -1.6381094 4288085770
6.4164429 2.1394172 -1.6691706 4288085770
11.686737 2.9823532 -1.6234632 4288085770
6.8045654 2.1441512 -1.6675475 4288085770
12.582779 3.0410647 -1.6242795 4288085770
7.2036438 2.1459017 -1.6638587 4288085770
13.519791 3.0978436 -1.6208258 4288085770
7.6347504 2.147716 -1.6609538 4288085770
14.39975 3.1324835 -1.6048143 4288085770
8.0838623 2.1475663 -1.6589339 4288085770
8.5609589 2.1454682 -1.6557305 4288085770
9.032074 2.1363482 -1.648586 4288085770
9.5791779 2.1313848 -1.6459196 4288085770
10.151306 2.1234722 -1.6440928 4288085770
10.766449 2.1136394 -1.6409814 4288085770
11.412567 2.0998669 -1.6386731 4288085770
12.093719 2.0811539 -1.6331415 4288085770
12.809845 2.0595136 -1.6293833 4288085770
13.549988 2.0289059 -1.6204872 4288085770
14.266098 1.9882408 -1.6067796 4288085770
15.078247 1.9477702 -1.5974262 4288085770
8.0939789 -5.0419731 -0.30426764 4293729569
8.0434723 -5.1149879 -0.33780932 4293729569
8.0750275 -5.2218347 -0.37489152 4293729569
6.650116 -4.8644195 -0.44451475 4293729569
6.0318298 -5.342628 -0.84102178 4293729569
5.9422607 -5.3666973 -0.8826952 4293729569
6.0500183 -5.4943399 -0.94132471 4293729569
5.8933563 -5.4795489 -0.97934389 4293729569
5.8388519 -5.5185385 -1.0258226 4293729569
5.779541 -5.6822596 -1.1816883 4293729569
8.7507019 -7.432497 -1.5715041 4293729569
8.1843719 -7.1865811 -1.5776486 4293729569
7.7342224 -6.999413 -1.5941722 4293729569
7.2419586 -6.781353 -1.600894 4293729569
6.7626495 -6.563273 -1.6055284 4293729569
6.3194122 -6.3611212 -1.6109631 4293729569
5.9312286 -6.1838565 -1.6190963 4293729569
5.6081696 -6.0414472 -1.6338866 4293729569
5.2519836 -5.8721256 -1.6398251 4293729569
4.9118042 -5.7087736 -1.645673 4293729569
4.5876465 -5.5503936 -1.6504261 4293729569
8.0693665 -7.6758356 -1.5698552 4293729569
4.2754669 -5.3959956 -1.6531098 4293729569
7.5119476 -7.3768973 -1.5787947 4293729569
4.0113983 -5.2664866 -1.6625378 4293729569
6.9865265 -7.0909042 -1.5845537 4293729569
3.764328 -5.1429453 -1.6718676 4293729569
6.5292206 -6.8417683 -1.5949557 4293729569
3.5804138 -5.0572567 -1.6908772 4293729569
6.1019287 -6.6055799 -1.6031914 4293729569
3.3763885 -4.9546242 -1.7029755 4293729569
5.7266998 -6.3972826 -1.6141527 4293729569
3.1332703 -4.8250937 -1.7052619 4293729569
5.3825378 -6.2049212 -1.6269493 4293729569
2.9141846 -4.7065091 -1.710417 4293729569
5.0663757 -6.0275059 -1.6395977 4293729569
2.7030945 -4.5909123 -1.7145264 4293729569
4.7140961 -5.821188 -1.6414092 4293729569
2.4980011 -4.4753079 -1.7165949 4293729569
4.4008942 -5.637785 -1.6470206 4293729569
2.3259583 -4.3786278 -1.7234938 4293729569
4.110672 -5.4643407 -1.6515048 4293729569
2.1629486 -4.2859282 -1.7313426 4293729569
3.8675842 -5.3187928 -1.6607492 4293729569
1.9848633 -4.180275 -1.7322571 4293729569
3.6635437 -5.196156 -1.6747935 4293729569
1.8117676 -4.0756149 -1.7321398 4293729569
3.5036011 -5.0984154 -1.6956108 4293729569
1.6617279 -3.9849 -1.7359064 4293729569
3.2855072 -4.9608245 -1.7027075 4293729569
1.5337372 -3.9061327 -1.7435577 4293729569
3.0593262 -4.8162646 -1.7038395 4293729569
1.4127502 -3.8303523 -1.7511704 4293729569
2.8522034 -4.681663 -1.7068708 4293729569
1.407135 -3.8282652 -1.7902124 4293729569
2.6620789 -4.5560288 -1.7098124 4293729569
1.408493 -3.8291616 -1.8302162 4288085770
2.4789734 -4.4333801 -1.7127144 4293729569
1.3858185 -3.8131204 -1.8643343 4288085770
2.3279419 -4.3296576 -1.720454 4293729569
1.2778168 -3.7383199 -1.8698628 4288085770
2.197937 -4.2378912 -1.7290847 4293729569
1.1517334 -3.6505747 -1.8674762 4288085770
2.0408325 -4.1271954 -1.7308447 4293729569
1.0316772 -3.5648153 -1.8660548 4288085770
1.8967743 -4.0224748 -1.7325337 4293729569
0.92967224 -3.4890108 -1.8685396 4288085770
1.7817383 -3.9366846 -1.7390802 4293729569
0.82159424 -3.4082284 -1.8670514 4288085770
1.6707306 -3.8498878 -1.7455966 4293729569
0.7175293 -3.3294411 -1.8645413 4288085770
1.6820679 -3.8417697 -1.7835114 4293729569
0.61950684 -3.2526395 -1.8629963 4288085770
1.7134857 -3.8436031 -1.8253191 4288085770
0.52946472 -3.18082 -1.8624113 4288085770
1.737854 -3.8394547 -1.8651583 4288085770
0.46549988 -3.1239343 -1.8676927 4288085770
1.6308136 -3.7516627 -1.8666451 4288085770
0.40756226 -3.0700316 -1.874943 4288085770
1.5227356 -3.66188 -1.8651335 4288085770
0.31246948 -2.9922423 -1.8663747 4288085770
1.4196472 -3.5740857 -1.8645937 4288085770
1.3316345 -3.4952564 -1.8659775 4288085770
1.2455902 -3.4164267 -1.866348 4288085770
1.1715851 -3.3455677 -1.8686597 4288085770
1.0945587 -3.2707233 -1.8679807 4288085770
0.99743652 -3.1849356 -1.8604047 4288085770
0.92140198 -3.1110966 -1.8567212 4288085770
0.86540222 -3.0472031 -1.8589313 4288085770
0.80438232 -2.9813299 -1.8571694 4288085770
0.73631287 -2.9114785 -1.852443 4288085770
0.67927551 -2.8466005 -1.8496568 4288085770
0.66036987 -2.8036194 -1.8576763 4288085770
0.61436462 -2.7447147 -1.8568327 4288085770
0.573349 -2.6878002 -1.8559611 4288085770
0.5473938 -2.6398458 -1.8590143 4288085770
0.5164032 -2.5879121 -1.8580892 4288085770
0.48240662 -2.5349865 -1.8561819 4288085770
0.45339966 -2.4840491 -1.8552468 4288085770
0.42842102 -2.435106 -1.8532898 4288085770
0.41145325 -2.39114 -1.8542931 4288085770
0.39047241 -2.3441887 -1.8523152 4288085770
0.37748718 -2.3012176 -1.8522947 4288085770
0.36653137 -2.2582421 -1.8522613 4288085770
0.36358643 -2.2202461 -1.8541877 4288085770
0.35357666 -2.177274 -1.8521478 4288085770
0.34561157 -2.1362979 -1.8500993 4288085770
0.35067749 -2.100286 -1.8519781 4288085770
0.35072327 -2.0622895 -1.8518851 4288085770
0.35975647 -2.0282724 -1.8527434 4288085770
0.36178589 -1.9902768 -1.8506367 4288085770
0.36982727 -1.9552646 -1.8504989 4288085770
0.39091492 -1.9252186 -1.8532879 4288085770
0.39793396 -1.8892133 -1.8511536 4288085770
0.41799927 -1.859175 -1.8519499 4288085770
0.44006348 -1.82813 -1.8537304 4288085770
0.46812439 -1.8000729 -1.855479 4288085770
0.4921875 -1.7700268 -1.8562491 4288085770
0.52526855 -1.74296 -1.8579676 4288085770
0.55131531 -1.7129124 -1.8577249 4288085770
0.5803833 -1.6838616 -1.8564641 4288085770
0.61943054 -1.6577833 -1.8581464 4288085770
0.65751648 -1.6317092 -1.858835 4288085770
0.68955994 -1.6026551 -1.8565552 4288085770
0.73060608 -1.576578 -1.8562248 4288085770
0.77568054 -1.5514904 -1.8568704 4288085770
0.82475281 -1.5263948 -1.8574893 4288085770
0.87182617 -1.5013058 -1.8571217 4288085770
0.91586304 -1.4752282 -1.8547719 4288085770
0.97494507 -1.4521128 -1.8553307 4288085770
1.0279999 -1.4280148 -1.8539269 4288085770
1.0880585 -1.4039004 -1.8534777 4288085770
1.1451111 -1.3797967 -1.8510478 4288085770
1.2162018 -1.3576555 -1.8525317 4288085770
1.2822571 -1.3345344 -1.8500454 4288085770
1.3523254 -1.3124028 -1.8485358 4288085770
1.4153442 -1.2872928 -1.844065 4288085770
1.4813995 -1.2621795 -1.8385742 4288085770
1.5654602 -1.2420177 -1.8379786 4288085770
0.53512573 -1.001006 -1.856077 4288085770
1.6595459 -1.222831 -1.8393209 4288085770
0.60321045 -0.98187613 -1.8555877 4288085770
1.752594 -1.2026541 -1.8376672 4288085770
0.67127991 -0.96175092 -1.8530962 4288085770
1.8486786 -1.1824684 -1.8369935 4288085770
0.74633789 -0.94260705 -1.8525612 4288085770
1.9577637 -1.1642523 -1.8382409 4288085770
0.81640625 -0.92247802 -1.8500569 4288085770
2.0748749 -1.1470201 -1.8394382 4288085770
0.88644409 -0.90135443 -1.8455503 4288085770
2.1899414 -1.1277971 -1.8386443 4288085770
0.97052002 -0.88219243 -1.8449566 4288085770
2.3110046 -1.1095622 -1.8378136 4288085770
1.0585785 -0.86402565 -1.8433406 4288085770
2.4450989 -1.0932965 -1.8389037 4288085770
1.1466522 -0.84585851 -1.8417242 4288085770
2.5881958 -1.0770102 -1.840935 4288085770
1.2597809 -0.83062637 -1.8459527 4288085770
2.7242432 -1.0577512 -1.8380044 4288085770
1.339798 -0.8084904 -1.8383782 4288085770
2.8703461 -1.0404669 -1.8370144 4288085770
1.4408417 -0.79030031 -1.8356779 4288085770
3.0233917 -1.0221716 -1.8349764 4288085770
1.5408936 -0.77011472 -1.831979 4288085770
3.1764679 -1.0038785 -1.831938 4288085770
1.6589966 -0.75288576 -1.8311698 4288085770
3.3465271 -0.98554975 -1.8297899 4288085770
1.7860718 -0.73663628 -1.8313057 4288085770
3.5025635 -0.96526152 -1.8227279 4288085770
1.9121552 -0.71939147 -1.8304451 4288085770
3.6926422 -0.94789296 -1.8204525 4288085770
2.0452271 -0.70113552 -1.8285372 4288085770
3.8877106 -0.93051714 -1.8171442 4288085770
2.1923218 -0.68484652 -1.8285429 4288085770
4.0807343 -0.91115308 -1.8108447 4288085770
2.3413849 -0.66855633 -1.8275363 4288085770
4.277771 -0.89178646 -1.8025196 4288085770
2.4954529 -0.6502589 -1.8254917 4288085770
4.5128174 -0.87533188 -1.7989547 4288085770
2.6695404 -0.63491368 -1.8263257 4288085770
4.7488556 -0.85688275 -1.7923787 4288085770
2.860672 -0.62052977 -1.8290508 4288085770
5.0289459 -0.84233129 -1.7915266 4288085770
3.0417175 -0.60317862 -1.826834 4288085770
5.3110046 -0.82578623 -1.7866566 4288085770
3.2177429 -0.58384824 -1.8206451 4288085770
5.6551361 -0.81409764 -1.789397 4288085770
3.415802 -0.56546628 -1.8173158 4288085770
6.0442505 -0.80331516 -1.7938478 4288085770
3.625885 -0.54806066 -1.8139112 4288085770
6.4173279 -0.78858227 -1.7913926 4288085770
3.8269043 -0.52768552 -1.805558 4288085770
6.783371 -0.77187657 -1.7839787 4288085770
4.0319214 -0.50830543 -1.7961819 4288085770
7.16539 -0.75414425 -1.7744591 4288085770
4.2769623 -0.48983586 -1.7905481 4288085770
7.5854034 -0.73533982 -1.7636902 4288085770
4.5470123 -0.47131145 -1.786752 4288085770
8.0314331 -0.71748638 -1.751755 4288085770
4.8330688 -0.453758 -1.7818549 4288085770
8.5584717 -0.70245719 -1.745302 4288085770
5.1611633 -0.43710852 -1.781688 4288085770
9.1495209 -0.68830168 -1.7384365 4288085770
5.5022278 -0.41844094 -1.7784321 4288085770
9.8526459 -0.67690372 -1.7388513 4288085770
5.8823242 -0.4016881 -1.7779281 4288085770
10.587708 -0.66345823 -1.7330544 4288085770
6.2563629 -0.38196611 -1.7704566 4288085770
11.299683 -0.6440897 -1.7153928 4288085770
6.6543884 -0.3611989 -1.7618263 4288085770
12.256775 -0.63419509 -1.7121661 4288085770
7.1014252 -0.34132946 -1.7548816 4288085770
13.203781 -0.61635685 -1.6949852 4288085770
7.5634308 -0.3194412 -1.7438347 4288085770
14.343811 -0.60212171 -1.6825626 4288085770
8.1154633 -0.29935884 -1.7382095 4288085770
8.6985016 -0.27822328 -1.7293813 4288085770
9.403595 -0.2578249 -1.7277639 4288085770
10.174652 -0.23629868 -1.7247169 4288085770
10.998688 -0.21168363 -1.7153189 4288085770
11.946716 -0.18681514 -1.7081177 4288085770
12.966736 -0.15981472 -1.6964457 4288085770
14.164749 -0.13145971 -1.6846173 4288085770
15.410263 0.14246976 -1.6548927 4288085770
13.90242 0.13738525 -1.6645839 4288085770
12.738647 0.13404286 -1.6850626 4288085770
11.602798 0.13272369 -1.6943557 4288085770
10.566895 0.13359022 -1.6969993 4288085770
9.7310791 0.13389599 -1.7083619 4288085770
8.8721313 0.13711166 -1.7058628 4288085770
15.673981 0.12296689 -1.6413195 4288085770
8.1642761 0.14066327 -1.7113941 4288085770
14.202148 0.13097751 -1.6587355 4288085770
7.5744324 0.14447415 -1.7221677 4288085770
12.945328 0.13942766 -1.6747715 4288085770
7.0225677 0.1483537 -1.729697 4288085770
11.823471 0.14914739 -1.687937 4288085770
6.5157166 0.15432465 -1.7369306 4288085770
10.767548 0.15897131 -1.6906793 4288085770
6.0488586 0.1593802 -1.744911 4288085770
9.9087067 0.16822839 -1.7021596 4288085770
5.6079712 0.16547704 -1.7487214 4288085770
9.056778 0.17746305 -1.7015951 4288085770
5.2120972 0.17167151 -1.7542422 4288085770
8.3468933 0.18800938 -1.7071154 4288085770
4.8291931 0.17888057 -1.7556765 4288085770
7.7380371 0.19777739 -1.7169912 4288085770
4.4963379 0.1862098 -1.7627904 4288085770
7.1691589 0.20761454 -1.7226093 4288085770
4.161438 0.19351661 -1.7639158 4288085770
6.6642761 0.21758878 -1.7298172 4288085770
3.868576 0.20092142 -1.7687728 4288085770
6.204422 0.22766125 -1.7387359 4288085770
3.6046906 0.20939171 -1.77544 4288085770
5.7675323 0.23876524 -1.7425039 4288085770
3.3347931 0.21783447 -1.7771451 4288085770
5.3436279 0.24788964 -1.7441943 4288085770
3.0879059 0.22632706 -1.7797034 4288085770
4.9867554 0.25816941 -1.7514517 4288085770
2.8620148 0.23486567 -1.7831261 4288085770
4.6348724 0.26844716 -1.7546771 4288085770
2.6331177 0.24239171 -1.7845714 4288085770
4.3169708 0.27979743 -1.7586806 4288085770
2.4302216 0.25097716 -1.7878468 4288085770
4.0060883 0.29015577 -1.7606423 4288085770
2.2493744 0.26061714 -1.7939775 4288085770
3.7211914 0.30157053 -1.7634346 4288085770
2.0524597 0.27020597 -1.7942107 4288085770
3.4582672 0.3120302 -1.7660882 4288085770
1.8865662 0.27987027 -1.7982452 4288085770
3.218399 0.32354295 -1.770591 4288085770
1.712677 0.28850877 -1.7993338 4288085770
2.9884949 0.33407295 -1.7740333 4288085770
1.5547791 0.29918301 -1.8013141 4288085770
2.7635956 0.34560406 -1.7744401 4288085770
1.3978577 0.30885613 -1.8022907 4288085770
2.5637054 0.35720122 -1.7796862 4288085770
1.2449646 0.31853139 -1.8012416 4288085770
2.3638153 0.36778343 -1.7799346 4288085770
1.1240845 0.32929671 -1.8079836 4288085770
2.194931 0.37944758 -1.7859824 4288085770
0.99819946 0.33903944 -1.8107617 4288085770
2.0280457 0.39110911 -1.7900169 4288085770
0.86828613 0.3497647 -1.8105614 4288085770
1.85112 0.40273249 -1.7881153 4288085770
0.74838257 0.35951698 -1.8123009 4288085770
1.6952209 0.41441357 -1.7910788 4288085770
1.5463257 0.426103 -1.7919977 4288085770
1.4084167 0.43782389 -1.7958457 4288085770
1.2685089 0.44952881 -1.795707 4288085770
1.1456146 0.46228063 -1.7994554 4288085770
1.0357513 0.47406185 -1.8041241 4288085770
0.9058075 0.48578084 -1.8019207 4288085770
0.79490662 0.49755132 -1.8035953 4288085770
0.83364868 2.7689171 -1.7314842 4288085770
0.95365906 2.8101592 -1.7295954 4288085770
1.0766754 2.8504009 -1.7256916 4288085770
1.2176971 2.8976965 -1.7266514 4288085770
1.3597107 2.9439845 -1.7246082 4288085770
1.5027161 2.9882784 -1.7225635 4288085770
1.6587372 3.0375991 -1.7214224 4288085770
1.8127289 3.0839095 -1.7183034 4288085770
0.78874207 2.6647968 -1.7340944 4288085770
1.9717255 3.1292262 -1.7141559 4288085770
0.92178345 2.702075 -1.7351358 4288085770
2.1657257 3.1886377 -1.7167432 4288085770
1.0538177 2.7363486 -1.7351935 4288085770
2.3437347 3.2390018 -1.7144601 4288085770
1.1748505 2.7635837 -1.7303431 4288085770
2.5467377 3.2974262 -1.7149937 4288085770
1.3108826 2.7968593 -1.7283785 4288085770
2.7477264 3.3528409 -1.7135499 4288085770
1.4659424 2.8361869 -1.7302749 4288085770
3.0017548 3.4273973 -1.7217104 4288085770
1.5969391 2.8624363 -1.7233646 4288085770
3.2217102 3.4858484 -1.719137 4288085770
1.75 2.8967476 -1.7212889 4288085770
3.4407043 3.5392947 -1.715585 4288085770
1.8960266 2.925035 -1.7162774 4288085770
3.6526794 3.5887103 -1.7070901 4288085770
2.0650635 2.9623866 -1.7160919 4288085770
3.8836365 3.6421728 -1.7004631 4288085770
2.2841187 3.0168762 -1.7265365 4288085770
4.1266022 3.6976633 -1.6947534 4288085770
2.4551544 3.0482187 -1.7223575 4288085770
4.3575745 3.7451129 -1.6841447 4288085770
2.6231689 3.0775528 -1.7172034 4288085770
4.6305084 3.8056693 -1.6792305 4288085770
2.8382263 3.1230121 -1.7207019 4288085770
4.9024811 3.8612113 -1.6703374 4288085770
3.0652771 3.1684971 -1.7241242 4288085770
5.1944122 3.9228048 -1.6643002 4288085770
3.2963257 3.2139907 -1.7275217 4288085770
5.5293884 3.9955006 -1.6619556 4288085770
3.4783478 3.2373443 -1.7192986 4288085770
5.8763123 4.0692182 -1.6585324 4288085770
3.6953735 3.271791 -1.716819 4288085770
6.2612762 4.1510239 -1.6578438 4288085770
3.8963928 3.2971845 -1.7084696 4288085770
6.6822052 4.2409153 -1.6599028 4288085770
4.0973816 3.3195753 -1.6991298 4288085770
7.1231537 4.3328419 -1.6598294 4288085770
4.3123932 3.3439989 -1.6906946 4288085770
7.5450745 4.4117112 -1.6539166 4288085770
4.5394135 3.3694501 -1.6831806 4288085770
8.048996 4.5127764 -1.6554167 4288085770
4.7954407 3.4009748 -1.6794646 4288085770
8.5559082 4.6088362 -1.6529138 4288085770
5.0444794 3.4274759 -1.6728084 4288085770
9.0417938 4.6918321 -1.6445849 4288085770
5.3135071 3.4580278 -1.6690137 4288085770
9.5686951 4.7819223 -1.637975 4288085770
5.6175537 3.4946623 -1.667979 4288085770
10.219589 4.9023018 -1.6404865 4288085770
5.9125671 3.5242667 -1.6630232 4288085770
10.909454 5.0267606 -1.6417396 4288085770
6.2305908 3.5569248 -1.6599128 4288085770
11.639328 5.155303 -1.6427276 4288085770
6.5736542 3.5936446 -1.659631 4288085770
12.268188 5.2445884 -1.6294765 4288085770
6.9237061 3.6273766 -1.6583154 4288085770
12.849045 5.3097425 -1.6066048 4288085770
7.278717 3.6571097 -1.653981 4288085770
13.549896 5.4021759 -1.5918901 4288085770
7.6587677 3.6899042 -1.6524789 4288085770
14.350693 5.5118241 -1.5784903 4288085770
8.073822 3.726779 -1.6527436 4288085770
15.284515 5.6497831 -1.574162 4288085770
8.4748688 3.7536116 -1.6491277 4288085770
8.8769073 3.7754407 -1.643522 4288085770
9.3249512 3.8033786 -1.641607 4288085770
9.7669983 3.825295 -1.6367486 4288085770
10.246063 3.849299 -1.6346505 4288085770
10.752121 3.8733582 -1.6323817 4288085770
11.169174 3.8701982 -1.6197605 4288085770
11.757248 3.899446 -1.6219585 4288085770
12.273315 3.9035096 -1.6136906 4288085770
12.791397 3.9015746 -1.6044288 4288085770
13.408493 3.9128752 -1.6035008 4288085770
13.980591 3.909059 -1.5959051 4288085770
14.615692 3.9063888 -1.591908 4288085770
15.272797 3.9007611 -1.586782 4288085770
15.536514 -4.9479866 -1.5444622 4293729569
14.982697 -4.9401236 -1.5589294 4293729569
14.396805 -4.9143376 -1.5705407 4293729569
13.807907 -4.8835621 -1.5811551 4293729569
13.227982 -4.8447766 -1.5886869 4293729569
12.631012 -4.7920341 -1.5942817 4293729569
13.972427 -5.2625084 -0.85232449 4293729569
12.026993 -4.72932 -1.5958884 4293729569
13.930161 -5.3744111 -0.91295481 4293729569
11.498047 -4.6814275 -1.6030698 4293729569
11.054184 -4.6543312 -1.6177819 4293729569
10.55722 -4.6003752 -1.6237419 4293729569
10.074234 -4.5453897 -1.6296108 4293729569
9.6282959 -4.4973168 -1.6382682 4293729569
9.1492767 -4.4303365 -1.6400731 4293729569
8.6922607 -4.3643093 -1.641742 4293729569
15.517792 -6.7851439 -1.5185313 4293729569
8.307312 -4.3171053 -1.6510174 4293729569
14.505463 -6.5562849 -1.5251765 4293729569
7.9113312 -4.2609367 -1.6563337 4293729569
13.713303 -6.3919253 -1.5416422 4293729569
7.5513916 -4.2116838 -1.6644452 4293729569
12.900085 -6.2106295 -1.5521855 4293729569
7.2054443 -4.1614003 -1.6724651 4293729569
12.179947 -6.052125 -1.5662158 4293729569
6.8714905 -4.111095 -1.6794097 4293729569
11.490784 -5.8925648 -1.5770478 4293729569
6.5906219 -4.0766559 -1.6930707 4293729569
10.83963 -5.7419238 -1.5876684 4293729569
6.3457794 -4.0521274 -1.7105367 4293729569
10.255524 -5.6071358 -1.5999177 4293729569
6.1460266 -4.0424819 -1.7347667 4293729569
9.6253052 -5.4454727 -1.6033697 4293729569
5.9662781 -4.0357943 -1.7588799 4293729569
6.6452942 -4.326683 -1.334532 4293729569
5.7905426 -4.0290909 -1.7849686 4288085770
6.6920013 -4.4123893 -1.3975184 4293729569
5.6188049 -4.0223799 -1.8110316 4288085770
6.5694122 -4.4285207 -1.440346 4293729569
5.4270172 -4.003727 -1.8321822 4288085770
6.5500183 -4.484386 -1.4976528 4293729569
5.2011261 -3.9661689 -1.8464868 4288085770
6.5265961 -4.5372658 -1.5529749 4293729569
4.9311371 -3.9077387 -1.8500011 4288085770
6.6494293 -4.651763 -1.6305759 4293729569
4.6641388 -3.846302 -1.8534868 4288085770
6.4006195 -4.6052155 -1.656996 4293729569
4.4191589 -3.7918129 -1.8588564 4288085770
6.0555878 -4.5129223 -1.6678751 4293729569
4.1761627 -3.7343259 -1.8622043 4288085770
5.7425842 -4.4285583 -1.6795771 4293729569
3.9511871 -3.6797981 -1.8664472 4288085770
5.4225616 -4.3362222 -1.6872981 4293729569
3.6781006 -3.6014066 -1.8599164 4288085770
5.1115265 -4.2458701 -1.6939681 4293729569
3.4590912 -3.5438724 -1.8621123 4288085770
4.8515472 -4.1733904 -1.7063749 4293729569
3.2380829 -3.4813485 -1.8623044 4288085770
4.5635071 -4.0839963 -1.7109029 4293729569
3.0531311 -3.4347296 -1.8683207 4288085770
4.290451 -3.9985671 -1.7163498 4293729569
2.8471222 -3.3751709 -1.8694279 4288085770
4.1376648 -3.9668164 -1.7422125 4293729569
2.6310425 -3.3066561 -1.8635695 4288085770
4.0460052 -3.9619021 -1.7787778 4293729569
2.4300079 -3.2431002 -1.8606317 4288085770
3.9483185 -3.9530029 -1.814368 4288085770
2.2409821 -3.1825156 -1.858629 4288085770
3.8466187 -3.9391222 -1.8469675 4288085770
2.0709839 -3.1288812 -1.8595278 4288085770
3.6416473 -3.8725305 -1.8580458 4288085770
1.8979645 -3.0712626 -1.8574331 4288085770
3.3724976 -3.7701344 -1.8504126 4288085770
1.7349548 -3.0166168 -1.8572848 4288085770
3.1374054 -3.6826444 -1.8496125 4288085770
1.5749512 -2.9609709 -1.8551147 4288085770
2.9423981 -3.6120503 -1.854615 4288085770
1.4169159 -2.9043238 -1.8519285 4288085770
2.7614136 -3.5454268 -1.8595421 4288085770
1.2749176 -2.8536339 -1.8516605 4288085770
2.5814056 -3.4778008 -1.8644598 4288085770
1.1379089 -2.8039329 -1.8513644 4288085770
2.3853302 -3.3992314 -1.8624427 4288085770
1.0189667 -2.7611778 -1.8559768 4288085770
2.2022858 -3.3246317 -1.8613565 4288085770
0.88897705 -2.7104654 -1.8546336 4288085770
2.0151978 -3.2460499 -1.8572824 4288085770
0.77198792 -2.665719 -1.8552268 4288085770
