# .PCD v0.7 - Point Cloud Data file format
VERSION 0.7
FIELDS x y z rgb
SIZE 4 4 4 4
TYPE F F F U
COUNT 1 1 1 1
WIDTH 1122
HEIGHT 1
VIEWPOINT 0 0 0 1 0 0 0
POINTS 1122
DATA ascii
17.985298 0.6121437 -1.6406273 4288085770
19.379444 0.59051406 -1.6402181 4288085770
8.6638527 -5.4788618 -0.90927875 4293729569
8.6916542 -5.4060364 -0.41903311 4293729569
8.634985 -5.4058094 -0.94517529 4293729569
8.6777992 -5.3389659 -0.455908 4293729569
8.6381397 -5.3497229 -0.98203593 4293729569
8.6909599 -5.2868676 -0.49375421 4293729569
8.6753216 -5.3125958 -1.0218606 4293729569
8.7121201 -5.2387667 -0.52959085 4293729569
8.6934814 -5.263495 -1.0587021 4293729569
8.7532902 -5.1986432 -0.56639868 4293729569
8.7476654 -5.2323527 -1.0985006 4293729569
8.8084698 -5.1675072 -0.60319477 4293729569
8.8548927 -5.2291465 -1.1432394 4293729569
8.9276867 -5.1682992 -0.64391434 4293729569
10.255196 -5.9483104 -1.3466246 4293729569
10.335392 -5.9161301 -1.3913589 4293729569
10.249863 -5.74966 -0.80015755 4293729569
11.01609 -6.2101846 -1.5134425 4293729569
10.185944 -5.63866 -0.82804644 4293729569
10.363665 -5.7779455 -1.4609652 4293729569
11.127422 -6.1038923 -1.5949275 4293729569
10.838291 -5.867198 -1.5860521 4293729569
10.752331 -5.7382436 -1.6039503 4293729569
10.988953 -5.7294626 -1.0133581 4293729569
10.701387 -5.6282535 -1.6228105 4293729569
11.549442 -5.9217429 -1.0904846 4293729569
10.532347 -5.4594202 -1.623811 4293729569
10.168592 -5.1563139 -0.99294519 4293729569
10.381315 -5.3005672 -1.6257923 4293729569
10.243742 -5.1121759 -1.0226623 4293729569
10.244297 -5.1517024 -1.6267644 4293729569
10.168783 -4.9942183 -1.0375603 4293729569
10.119284 -5.0088243 -1.6287218 4293729569
11.044468 -5.3211308 -1.1412585 4293729569
10.032297 -4.8859005 -1.6346364 4293729569
12.407478 -5.8584504 -1.2962992 4293729569
9.9793339 -4.7789359 -1.6435081 4293729569
11.014614 -5.1310844 -1.1778781 4293729569
9.9684067 -4.6939201 -1.6573323 4293729569
11.034702 -5.051023 -1.1976404 4293729569
10.083574 -4.6637359 -1.6899874 4293729569
11.773266 -5.2840948 -1.290441 4293729569
10.290808 -4.670433 -1.7355115 4293729569
10.502045 -4.6761255 -1.7810236 4293729569
12.203678 -5.2735152 -1.3643943 4293729569
10.692259 -4.6708479 -1.8225597 4288085770
10.604246 -4.5459514 -1.8174719 4288085770
14.122025 -5.8531308 -1.5932173 4293729569
10.544256 -4.4350185 -1.8163508 4288085770
13.732815 -5.5855842 -1.5635059 4293729569
10.453238 -4.3121319 -1.8082749 4288085770
12.850292 -5.1326499 -1.4765251 4293729569
10.389235 -4.2002134 -1.8031607 4288085770
13.966034 -5.4552717 -1.6056426 4293729569
10.368267 -4.1072378 -1.8039892 4288085770
13.959049 -5.3412709 -1.6113881 4293729569
10.342293 -4.0122719 -1.8028253 4288085770
13.915047 -5.2133217 -1.6111887 4293729569
10.322315 -3.9193032 -1.8006517 4288085770
13.834019 -5.073421 -1.6050485 4293729569
10.297335 -3.8263433 -1.79649 4288085770
13.967113 -5.010263 -1.6205826 4293729569
10.28236 -3.7373722 -1.7933141 4288085770
13.982132 -4.9052515 -1.6222974 4293729569
10.283394 -3.6523831 -1.7911094 4288085770
14.096214 -4.8311219 -1.6338502 4293729569
10.286427 -3.5693924 -1.788905 4288085770
14.388386 -4.8157802 -1.6621203 4293729569
10.319481 -3.4963658 -1.7896529 4288085770
14.73558 -4.813374 -1.6952902 4293729569
10.327513 -3.4153752 -1.7854412 4288085770
15.141804 -4.8249021 -1.7323531 4288085770
10.358555 -3.3413577 -1.7831916 4288085770
15.492985 -4.8144999 -1.7624947 4288085770
10.373587 -3.2633629 -1.7779704 4288085770
15.707081 -4.7582717 -1.7748529 4288085770
10.432644 -3.1973138 -1.7776732 4288085770
15.884148 -4.6880946 -1.7812656 4288085770
10.479689 -3.1282811 -1.7753974 4288085770
15.957157 -4.5880461 -1.7758547 4288085770
10.54575 -3.0642252 -1.7750884 4288085770
16.069183 -4.4969544 -1.7723724 4288085770
10.596792 -2.9951937 -1.7708032 4288085770
16.189205 -4.4078588 -1.7678758 4288085770
10.677849 -2.9341264 -1.7694657 4288085770
16.329231 -4.3207436 -1.7633363 4288085770
10.747894 -2.8680766 -1.7651421 4288085770
16.440235 -4.225668 -1.7538469 4288085770
10.82494 -2.804018 -1.7618071 4288085770
16.672295 -4.1604505 -1.7551411 4288085770
10.953018 -2.7518983 -1.7633792 4288085770
16.904346 -4.0912414 -1.7534257 4288085770
11.045067 -2.6888285 -1.7590107 4288085770
17.150391 -4.0210176 -1.7516748 4288085770
11.164124 -2.6317275 -1.7565925 4288085770
17.393433 -3.9488046 -1.7469263 4288085770
11.319202 -2.5815799 -1.7591051 4288085770
17.707493 -3.8895147 -1.7460399 4288085770
11.431248 -2.5194955 -1.7526916 4288085770
18.099583 -3.8421366 -1.7509968 4288085770
11.585312 -2.4653592 -1.7511975 4288085770
18.398613 -3.7688811 -1.7421128 4288085770
11.77039 -2.4161856 -1.7526413 4288085770
18.807682 -3.7174962 -1.7430198 4288085770
11.939449 -2.3610375 -1.750109 4288085770
19.130703 -3.6432254 -1.7310767 4288085770
12.145523 -2.3108466 -1.7505006 4288085770
12.365597 -2.2616429 -1.7508615 4288085770
12.575661 -2.2084584 -1.7472365 4288085770
12.82774 -2.1602223 -1.7485238 4288085770
13.039783 -2.1030455 -1.7408849 4288085770
13.325863 -2.0537772 -1.7420889 4288085770
13.635937 -2.0054886 -1.7422388 4288085770
13.944 -1.9522097 -1.7393811 4288085770
14.336086 -1.9068334 -1.7433431 4288085770
14.69215 -1.8545086 -1.740374 4288085770
15.132233 -1.8060899 -1.7432148 4288085770
15.566303 -1.7546871 -1.7420632 4288085770
15.982349 -1.6933157 -1.7349303 4288085770
16.451397 -1.6338921 -1.7286762 4288085770
16.940437 -1.5704546 -1.7203655 4288085770
17.394455 -1.5000677 -1.7051214 4288085770
18.034512 -1.4404752 -1.7014617 4288085770
18.677547 -1.3728929 -1.692776 4288085770
19.468605 -1.3081534 -1.6907457 4288085770
19.48888 0.93316829 -1.6626282 4288085770
18.335957 0.98230076 -1.6574639 4288085770
17.361046 1.0285764 -1.6561555 4288085770
16.501133 1.0739424 -1.6567506 4288085770
15.71822 1.1143548 -1.6542951 4288085770
15.062309 1.1568795 -1.6577235 4288085770
14.4524 1.1964316 -1.6591214 4288085770
13.911495 1.2360439 -1.6634597 4288085770
13.388588 1.2716562 -1.663795 4288085770
12.945683 1.3093364 -1.6670549 4288085770
12.50478 1.3440118 -1.6683222 4288085770
19.660252 2.1110346 -1.6177734 4288085770
12.10688 1.3777187 -1.6695558 4288085770
18.742359 2.1283669 -1.6205046 4288085770
11.751972 1.41346 -1.6717457 4288085770
17.910465 2.1467557 -1.6211579 4288085770
11.395073 1.4441903 -1.6709529 4288085770
17.201569 2.1732531 -1.6276799 4288085770
11.071167 1.4769511 -1.6721253 4288085770
16.42868 2.1816587 -1.6203138 4288085770
10.779263 1.5097352 -1.6732699 4288085770
15.847786 2.207243 -1.6247289 4288085770
10.508362 1.5425382 -1.6753967 4288085770
15.291889 2.2308354 -1.6261284 4288085770
10.265461 1.5763645 -1.6784958 4288085770
14.758991 2.2504385 -1.6255211 4288085770
10.016558 1.6071768 -1.6786094 4288085770
14.328098 2.282135 -1.6307874 4288085770
9.7916546 1.6400101 -1.6796961 4288085770
13.915199 2.3108416 -1.6350479 4288085770
9.5687523 1.6708415 -1.679787 4288085770
13.505302 2.3355336 -1.6343184 4288085770
9.3658524 1.7016871 -1.6798608 4288085770
13.145401 2.3632722 -1.6365364 4288085770
9.1959496 1.7365701 -1.6838934 4288085770
12.796501 2.390012 -1.6367478 4288085770
9.0150471 1.7674322 -1.683948 4288085770
12.485603 2.4197865 -1.6389167 4288085770
8.8411427 1.7982993 -1.6839967 4288085770
12.191704 2.4495697 -1.6400712 4288085770
8.6802406 1.8301759 -1.6840308 4288085770
11.908802 2.4773576 -1.6402227 4288085770
8.541338 1.8640749 -1.6860398 4288085770
11.6619 2.5111778 -1.6423239 4288085770
8.3974361 1.8959639 -1.6860594 4288085770
11.435997 2.5450139 -1.644407 4288085770
8.2695312 1.9298675 -1.6870584 4288085770
11.211098 2.5768437 -1.6444956 4288085770
8.1476307 1.9637756 -1.6880524 4288085770
11.000191 2.6086841 -1.6445723 4288085770
7.9997253 1.9906423 -1.6820908 4288085770
10.804291 2.6435349 -1.6446261 4288085770
7.8998203 2.0265729 -1.6850595 4288085770
10.624384 2.6784008 -1.6456665 4288085770
7.8019199 2.061502 -1.6870296 4288085770
10.458481 2.7162802 -1.6476849 4288085770
7.7050133 2.0974247 -1.6869954 4288085770
10.320572 2.7591829 -1.6506635 4288085770
7.5971088 2.1293335 -1.6849834 4288085770
10.171665 2.798068 -1.650664 4288085770
7.535202 2.1723015 -1.6908969 4288085770
10.029758 2.835958 -1.6506617 4288085770
7.4332981 2.203208 -1.6868825 4288085770
9.9318466 2.8858967 -1.6555833 4288085770
7.3633938 2.242157 -1.6888156 4288085770
9.7969398 2.9237852 -1.6535747 4288085770
7.2804871 2.2770839 -1.6867721 4288085770
9.7010288 2.9707184 -1.6565043 4288085770
7.22258 2.3180416 -1.6886883 4288085770
9.6021175 3.0156426 -1.6574425 4288085770
7.1536713 2.3549817 -1.6876265 4288085770
9.5152054 3.0635793 -1.6593608 4288085770
7.0947647 2.3939321 -1.6875496 4288085770
9.4362926 3.1135182 -1.6602658 4288085770
7.0488548 2.4378986 -1.6894456 4288085770
9.3773766 3.1684811 -1.6641378 4288085770
6.9729462 2.4698174 -1.6834055 4288085770
9.3274593 3.2254508 -1.6679957 4288085770
6.9230385 2.5117743 -1.6833112 4288085770
9.2595425 3.2773941 -1.6678847 4288085770
6.8791275 2.5537357 -1.6832118 4288085770
9.2046261 3.3323531 -1.669753 4288085770
6.8392143 2.5976968 -1.6821024 4288085770
9.1597061 3.3903165 -1.670603 4288085770
6.8243046 2.6486952 -1.6869495 4288085770
9.1187859 3.4492826 -1.6714464 4288085770
6.7963905 2.6966681 -1.6868169 4288085770
9.0818634 3.5092511 -1.6722832 4288085770
6.7704773 2.7446454 -1.6876826 4288085770
9.0749359 3.581255 -1.6770557 4288085770
6.7605629 2.7976375 -1.6895187 4288085770
9.0330143 3.6392105 -1.6749029 4288085770
6.7356491 2.8456092 -1.6883833 4288085770
9.0290871 3.711206 -1.6766729 4288085770
6.7467308 2.9076297 -1.6941727 4288085770
9.0101604 3.7781847 -1.6764715 4288085770
6.7248135 2.9566002 -1.6920316 4288085770
9.0092278 3.8511791 -1.6772356 4288085770
6.7278938 3.0156016 -1.693837 4288085770
9.0092964 3.9251742 -1.6779956 4288085770
6.7209759 3.0705857 -1.6926638 4288085770
9.0163631 4.0031705 -1.6777365 4288085770
6.7290554 3.1305909 -1.6944619 4288085770
9.0374298 4.086184 -1.6794497 4288085770
6.7451324 3.1956048 -1.697237 4288085770
9.0694885 4.1742086 -1.6821373 4288085770
6.7572079 3.259609 -1.6980186 4288085770
9.098547 4.2622209 -1.6818275 4288085770
6.7812805 3.3286254 -1.699774 4288085770
9.1595974 4.3642726 -1.6864455 4288085770
6.7953548 3.392628 -1.699554 4288085770
9.1976547 4.4572878 -1.685112 4288085770
6.8264275 3.464649 -1.7012936 4288085770
9.2697029 4.5653467 -1.6897014 4288085770
6.852499 3.5346599 -1.701044 4288085770
9.3277493 4.6693792 -1.6893152 4288085770
6.902565 3.6177013 -1.7047323 4288085770
9.3997917 4.7804251 -1.6898948 4288085770
6.9206333 3.6856928 -1.7004957 4288085770
9.5048275 4.9075069 -1.6943951 4288085770
6.9736977 3.769733 -1.703178 4288085770
9.5618706 5.0125256 -1.6900066 4288085770
7.0247612 3.8537645 -1.7038623 4288085770
9.6649036 5.1415958 -1.6915019 4288085770
7.0838184 3.942802 -1.7045233 4288085770
9.7739315 5.2746677 -1.6919793 4288085770
7.143877 4.0318398 -1.7051839 4288085770
9.9069519 5.4217625 -1.6943914 4288085770
7.2179279 4.1308908 -1.7068 4288085770
10.053965 5.5788674 -1.6967593 4288085770
7.3159771 4.241972 -1.7123574 4288085770
10.194977 5.7329583 -1.696142 4288085770
7.4230194 4.3600631 -1.7188845 4288085770
10.459951 5.9551911 -1.712201 4288085770
7.5150604 4.4691234 -1.7194536 4288085770
10.785912 6.2144942 -1.7360897 4288085770
7.6081066 4.580184 -1.7200152 4288085770
11.064877 6.4517245 -1.7480887 4288085770
7.7051487 4.6932406 -1.7185673 4288085770
11.317841 6.6769156 -1.7541482 4288085770
7.8021832 4.808291 -1.7151127 4288085770
11.517822 6.8750305 -1.7483395 4288085770
7.9172153 4.9343605 -1.7136074 4288085770
11.737789 7.087162 -1.743469 4288085770
8.0442429 5.0674419 -1.7130697 4288085770
11.977749 7.3113036 -1.7375429 4288085770
8.1752663 5.2035222 -1.711519 4288085770
12.288685 7.5785213 -1.7394187 4288085770
8.318285 5.3476076 -1.7089324 4288085770
12.647598 7.8797731 -1.7411443 4288085770
8.5072918 5.5207477 -1.7132137 4288085770
8.7012882 5.6978855 -1.7154779 4288085770
8.9542694 5.9120941 -1.7265735 4288085770
9.271225 6.1693735 -1.7454764 4288085770
9.5401897 6.3975725 -1.7505134 4288085770
9.8811302 6.6728587 -1.7663388 4288085770
10.142094 6.8980246 -1.7633926 4288085770
10.417044 7.1331983 -1.7594028 4288085770
10.715984 7.3853879 -1.7553383 4288085770
11.072906 7.6766272 -1.7540994 4288085770
11.433819 7.9698591 -1.7498515 4288085770
19.457764 -0.69636029 -1.6892073 4288085770
18.207912 -0.72918624 -1.6911144 4288085770
17.126045 -0.75789517 -1.6949009 4288085770
16.150185 -0.78054053 -1.696599 4288085770
15.318317 -0.80307096 -1.7042054 4288085770
14.536457 -0.82057852 -1.7087624 4288085770
13.792583 -0.83407038 -1.7102807 4288085770
13.148716 -0.84648329 -1.7157322 4288085770
12.548843 -0.85687393 -1.7191486 4288085770
18.89719 -1.3067729 -1.7047689 4288085770
11.995972 -0.86423331 -1.7225246 4288085770
17.673298 -1.286576 -1.7074701 4288085770
11.481091 -0.87056452 -1.7268727 4288085770
16.652412 -1.2722151 -1.7190641 4288085770
11.026218 -0.87684947 -1.7331829 4288085770
15.683521 -1.2518466 -1.7226037 4288085770
10.580343 -0.87914187 -1.7354732 4288085770
14.813629 -1.233413 -1.7260877 4288085770
10.155464 -0.88041991 -1.7377462 4288085770
13.991734 -1.2129581 -1.7265337 4288085770
9.7565842 -0.88068789 -1.7379992 4288085770
13.290848 -1.1964104 -1.7309176 4288085770
9.4207096 -0.88288766 -1.7462196 4288085770
12.642956 -1.1788275 -1.7352642 4288085770
9.0798283 -0.8821072 -1.7494323 4288085770
12.050064 -1.1612153 -1.737576 4288085770
8.7519474 -0.87932485 -1.7506298 4288085770
11.578186 -1.1524835 -1.7518437 4288085770
8.4490662 -0.87652272 -1.7528112 4288085770
11.070293 -1.1348155 -1.7541015 4288085770
8.1621819 -0.87271327 -1.753979 4288085770
10.599403 -1.1181264 -1.7553396 4288085770
7.9093056 -0.86986464 -1.760129 4288085770
10.164513 -1.101414 -1.7565548 4288085770
7.6614227 -0.86602336 -1.763272 4288085770
9.772625 -1.0856628 -1.7607465 4288085770
7.4105358 -0.86019677 -1.7624098 4288085770
9.3897324 -1.0689192 -1.7609286 4288085770
7.2046604 -0.856314 -1.7695265 4288085770
9.0168381 -1.0501759 -1.7590971 4288085770
6.9987774 -0.85243815 -1.7746428 4288085770
8.6939487 -1.0353863 -1.7612486 4288085770
6.7938976 -0.845568 -1.777748 4288085770
8.3740578 -1.0186048 -1.7603905 4288085770
6.5820084 -0.83671898 -1.7758504 4288085770
8.0851688 -1.0027926 -1.7625167 4288085770
6.3981247 -0.82983822 -1.7779421 4288085770
7.8182793 -0.9879629 -1.7656326 4288085770
6.2062359 -0.8209731 -1.7770317 4288085770
7.5583897 -0.97213501 -1.7667404 4288085770
6.0373516 -0.81408256 -1.7791137 4288085770
7.3305035 -0.95927292 -1.7718387 4288085770
5.8544636 -0.80321795 -1.7761902 4288085770
7.1006126 -0.94342548 -1.7729275 4288085770
5.7205811 -0.79828411 -1.7842575 4288085770
6.8907223 -0.92955798 -1.7760106 4288085770
5.5666943 -0.78838664 -1.7853196 4288085770
6.7038364 -0.91766232 -1.7830865 4288085770
5.4158058 -0.77849454 -1.7843795 4288085770
6.4799404 -0.89883453 -1.7771604 4288085770
5.2669182 -0.76760393 -1.7824346 4288085770
6.2840481 -0.88197118 -1.776224 4288085770
5.1250286 -0.75670582 -1.7814852 4288085770
6.1101608 -0.86808378 -1.7782843 4288085770
5.0061474 -0.74877566 -1.7855321 4288085770
5.929266 -0.85121411 -1.7763385 4288085770
5.760376 -0.83533317 -1.7753884 4288085770
5.6274891 -0.82340544 -1.7814302 4288085770
5.477602 -0.80850548 -1.7824718 4288085770
5.3397121 -0.79459745 -1.7835093 4288085770
5.2018204 -0.77869302 -1.7835399 4288085770
5.0509243 -0.76081711 -1.7775711 4288085770
5.1039906 1.1682101 -1.7404499 4288085770
5.2100983 1.1802399 -1.7323639 4288085770
5.3492069 1.1983168 -1.7322427 4288085770
5.4933186 1.2153966 -1.7321227 4288085770
5.6274261 1.2304499 -1.7260145 4288085770
5.7915325 1.2495484 -1.7278792 4288085770
5.9596405 1.2686459 -1.7287424 4288085770
5.0367966 1.1161357 -1.7436792 4288085770
6.1167488 1.2837193 -1.7246246 4288085770
5.1629105 1.1271977 -1.7415884 4288085770
6.2858582 1.2998002 -1.7204983 4288085770
5.2940235 1.1372628 -1.7394985 4288085770
6.4709663 1.3179007 -1.7193582 4288085770
5.4311371 1.1473346 -1.7384065 4288085770
6.6510754 1.3329844 -1.714231 4288085770
5.5702496 1.1574008 -1.7353137 4288085770
6.8611832 1.352103 -1.714077 4288085770
5.7113628 1.1654685 -1.7322272 4288085770
7.0712929 1.3692148 -1.7119303 4288085770
5.8764763 1.1765637 -1.73312 4288085770
7.2924023 1.3863294 -1.7087791 4288085770
6.032589 1.1856399 -1.7300239 4288085770
7.5455093 1.4074804 -1.7106003 4288085770
6.1917057 1.1927145 -1.7259333 4288085770
7.7866173 1.4246033 -1.706441 4288085770
6.3938198 1.2058451 -1.7308038 4288085770
8.0427265 1.4417387 -1.7032756 4288085770
6.5549316 1.2109106 -1.7237201 4288085770
8.2928333 1.4558532 -1.6951233 4288085770
6.7730465 1.2230504 -1.7285876 4288085770
8.5879421 1.4750184 -1.6939348 4288085770
6.9591618 1.2281374 -1.7234935 4288085770
8.890049 1.4921774 -1.6897506 4288085770
7.1542778 1.2332294 -1.7183957 4288085770
9.221159 1.5113569 -1.6865473 4288085770
7.3523903 1.2363167 -1.7113038 4288085770
9.5662632 1.5295445 -1.6833417 4288085770
7.5845051 1.2424407 -1.7091872 4288085770
9.9453716 1.5487523 -1.6801187 4288085770
7.826622 1.2475708 -1.7070699 4288085770
10.33448 1.5669589 -1.6748955 4288085770
8.0717373 1.2516956 -1.7029552 4288085770
10.749588 1.5841808 -1.669665 4288085770
8.3368549 1.2558389 -1.7008324 4288085770
11.193695 1.6024196 -1.6644193 4288085770
8.6119728 1.2579849 -1.6977124 4288085770
11.7178 1.6267264 -1.6651193 4288085770
8.8990898 1.2601342 -1.6935879 4288085770
12.258907 1.6480293 -1.661823 4288085770
9.203207 1.2602937 -1.6894631 4288085770
12.834011 1.6693487 -1.6575131 4288085770
9.5363255 1.2614769 -1.6873232 4288085770
13.465118 1.6907043 -1.6541803 4288085770
9.8934441 1.2626777 -1.6861736 4288085770
14.139225 1.7120752 -1.64783 4288085770
10.259563 1.2608732 -1.6820308 4288085770
14.870331 1.7314794 -1.6414633 4288085770
10.646685 1.2580845 -1.6788831 4288085770
15.681431 1.7539339 -1.6360534 4288085770
11.069805 1.2543204 -1.6767242 4288085770
16.636539 1.783494 -1.6365598 4288085770
11.524929 1.2495749 -1.6745559 4288085770
17.708637 1.8141227 -1.6370149 4288085770
12.031052 1.2448697 -1.6753665 4288085770
18.911743 1.8468285 -1.637409 4288085770
12.530174 1.2351396 -1.6701981 4288085770
13.088295 1.2244546 -1.6680089 4288085770
13.693424 1.2107935 -1.6648113 4288085770
14.31255 1.1941301 -1.6586189 4288085770
15.01368 1.174525 -1.6554036 4288085770
15.754818 1.1509364 -1.6501862 4288085770
16.642948 1.128458 -1.6519051 4288085770
17.614086 1.1030315 -1.6546011 4288085770
18.614223 1.0676013 -1.6513209 4288085770
19.814373 1.0313122 -1.6549625 4288085770
8.6489296 -5.3895831 -0.034029596 4293729569
10.908787 -7.8381872 -1.6117729 4293729569
10.439724 -7.5154505 -1.6128258 4293729569
10.037689 -7.2366643 -1.6170068 4293729569
9.646656 -6.9628778 -1.6202012 4293729569
9.2846317 -6.7060843 -1.6204438 4293729569
8.953619 -6.4672699 -1.6217377 4293729569
8.6356106 -6.2364511 -1.6220545 4293729569
8.3556156 -6.0306044 -1.624444 4293729569
8.1616554 -5.8816652 -1.6400007 4293729569
7.9466839 -5.7167687 -1.6465092 4293729569
11.134888 -7.7951441 -1.6076106 4293729569
7.7717304 -5.5778294 -1.6590936 4293729569
10.713829 -7.4783735 -1.6106671 4293729569
7.623785 -5.4558678 -1.6737273 4293729569
10.323782 -7.1825924 -1.6117851 4293729569
7.4258175 -5.298975 -1.6762574 4293729569
9.9947624 -6.9257636 -1.6170164 4293729569
7.2788715 -5.1750264 -1.6868834 4293729569
9.6437283 -6.6549692 -1.6152066 4293729569
7.1659393 -5.0730429 -1.7025744 4293729569
9.3257084 -6.4051609 -1.6124579 4293729569
7.0079823 -4.9391274 -1.7051697 4293729569
9.060709 -6.1903028 -1.6158117 4293729569
6.8890457 -4.8311667 -1.7148416 4293729569
8.7396851 -5.9395185 -1.6060597 4293729569
6.7250862 -4.692275 -1.7114215 4293729569
8.6137428 -5.8165245 -1.6266838 4293729569
6.6281567 -4.5962987 -1.7221274 4293729569
8.4627876 -5.6765723 -1.6392576 4293729569
6.6392727 -4.5721774 -1.7580454 4293729569
8.2448063 -5.4927044 -1.6377015 4293729569
6.6934032 -4.5740051 -1.8020389 4293729569
8.1308651 -5.3767242 -1.6523454 4293729569
6.7605419 -4.581809 -1.8510493 4288085770
8.0209236 -5.2617455 -1.6659917 4293729569
6.7636471 -4.5467124 -1.8809326 4288085770
7.9019775 -5.1407876 -1.6746197 4293729569
6.6587086 -4.4407711 -1.8826066 4288085770
7.7840328 -5.0198336 -1.6822476 4293729569
6.5477657 -4.3308468 -1.8802688 4288085770
7.6490784 -4.8889055 -1.6848464 4293729569
6.4478264 -4.226912 -1.8789481 4288085770
7.534132 -4.7709627 -1.6884831 4293729569
6.3328819 -4.1140099 -1.8706011 4288085770
7.435194 -4.6620045 -1.6941458 4293729569
6.2409477 -4.0160742 -1.8682982 4288085770
7.410284 -4.5979576 -1.7139397 4293729569
6.1610146 -3.9251292 -1.8670155 4288085770
7.4864101 -4.5927873 -1.7539045 4293729569
6.0810814 -3.8321908 -1.8637258 4288085770
7.5795422 -4.5945969 -1.7968882 4293729569
6.0051498 -3.7442462 -1.861452 4288085770
7.6856785 -4.6013904 -1.8428856 4288085770
5.9452229 -3.6642869 -1.8612006 4288085770
7.6497574 -4.5263729 -1.8556455 4288085770
5.8843002 -3.5853331 -1.8589529 4288085770
7.6048336 -4.4443755 -1.8643844 4288085770
5.81637 -3.5013945 -1.8536901 4288085770
7.520895 -4.341435 -1.8620631 4288085770
5.7724514 -3.4314263 -1.8534679 4288085770
7.4369564 -4.2384987 -1.8587416 4288085770
5.7185287 -3.3564723 -1.8502316 4288085770
7.3700237 -4.1455431 -1.8584492 4288085770
5.6656036 -3.2815256 -1.844995 4288085770
7.3060913 -4.0545888 -1.8571626 4288085770
5.6286869 -3.2165563 -1.8437877 4288085770
7.2541656 -3.9696238 -1.8568931 4288085770
5.5947685 -3.1515849 -1.8425797 4288085770
7.2022381 -3.8856671 -1.8546268 4288085770
5.5638542 -3.089612 -1.8413808 4288085770
7.1483059 -3.8007143 -1.8513576 4288085770
5.5359383 -3.0276413 -1.8391811 4288085770
7.1173878 -3.7277348 -1.8521229 4288085770
5.5210285 -2.9736531 -1.840005 4288085770
7.0624561 -3.6427896 -1.8468539 4288085770
5.4921131 -2.912689 -1.835809 4288085770
7.0465412 -3.5777986 -1.8486419 4288085770
5.4701996 -2.8557146 -1.8336246 4288085770
6.9996147 -3.4978521 -1.8423877 4288085770
5.4552898 -2.800736 -1.8314451 4288085770
6.9806957 -3.4318721 -1.8411733 4288085770
5.4503822 -2.7527423 -1.8322865 4288085770
6.9507771 -3.3609097 -1.8369448 4288085770
5.4404716 -2.7007616 -1.8301158 4288085770
6.9418621 -3.2989254 -1.8357413 4288085770
5.4275589 -2.6467886 -1.8259392 4288085770
6.936945 -3.2399347 -1.8355466 4288085770
5.4316521 -2.6027896 -1.8267918 4288085770
6.9120255 -3.171979 -1.8283269 4288085770
5.410738 -2.5458353 -1.8186072 4288085770
6.9161129 -3.1159835 -1.8281401 4288085770
5.4398422 -2.5118053 -1.824487 4288085770
6.9172001 -3.0599968 -1.8259543 4288085770
5.4289284 -2.4598382 -1.8183166 4288085770
6.9262905 -3.0060022 -1.8247731 4288085770
5.4500275 -2.4218266 -1.8201853 4288085770
6.9253769 -2.9490232 -1.8205844 4288085770
5.4671268 -2.381824 -1.8200482 4288085770
6.9454689 -2.9010224 -1.8194207 4288085770
5.4852219 -2.3418207 -1.8199109 4288085770
6.9775639 -2.8560052 -1.8212641 4288085770
5.5083218 -2.3048112 -1.8207824 4288085770
6.9936543 -2.8060138 -1.8180947 4288085770
5.5224171 -2.2628207 -1.8176396 4288085770
7.0107441 -2.7550249 -1.8139218 4288085770
5.5545177 -2.227803 -1.8195158 4288085770
7.0498409 -2.7130108 -1.8137738 4288085770
5.570612 -2.1868179 -1.8143759 4288085770
7.0899353 -2.6709957 -1.8136256 4288085770
5.598711 -2.1498122 -1.8132464 4288085770
7.1390343 -2.6319726 -1.8144852 4288085770
5.6308136 -2.1138017 -1.8131194 4288085770
7.1781292 -2.5879683 -1.8113307 4288085770
5.6809158 -2.0847709 -1.8160115 4288085770
7.2132225 -2.5419698 -1.8071705 4288085770
5.7180138 -2.0497606 -1.8148869 4288085770
7.2663193 -2.5029509 -1.8060293 4288085770
5.7531109 -2.0147583 -1.8117626 4288085770
7.3144131 -2.462945 -1.8018862 4288085770
5.803215 -1.984731 -1.8136517 4288085770
7.3795128 -2.4259162 -1.8017492 4288085770
5.8513145 -1.9527149 -1.8125346 4288085770
7.4556122 -2.3928783 -1.8026229 4288085770
5.9154205 -1.9246767 -1.8154269 4288085770
7.5147095 -2.3538671 -1.798481 4288085770
5.9825268 -1.8976364 -1.8183223 4288085770
7.5868092 -2.3178451 -1.7953459 4288085770
6.0076218 -1.8576634 -1.8081843 4288085770
7.6659107 -2.283812 -1.794216 4288085770
6.1247368 -1.8435557 -1.8231112 4288085770
7.7650127 -2.2527618 -1.7950914 4288085770
6.1678352 -1.8075593 -1.8169824 4288085770
7.8451099 -2.2167387 -1.7909549 4288085770
6.2169342 -1.7735593 -1.8108588 4288085770
7.9452133 -2.1856949 -1.7898304 4288085770
6.3100433 -1.7504988 -1.8157618 4288085770
8.055315 -2.156642 -1.7897105 4288085770
6.3781433 -1.7204785 -1.8126477 4288085770
8.1644192 -2.1255963 -1.7875843 4288085770
6.4502468 -1.6904562 -1.8095325 4288085770
8.291523 -2.0985348 -1.7874675 4288085770
6.5363503 -1.6634161 -1.8094243 4288085770
8.4346275 -2.0724571 -1.7893504 4288085770
6.6194534 -1.6343849 -1.8073102 4288085770
8.5517292 -2.0404141 -1.7852194 4288085770
6.7295628 -1.6113217 -1.8102099 4288085770
8.7038345 -2.014339 -1.7851007 4288085770
6.8296642 -1.5852742 -1.8101021 4288085770
8.8839436 -1.9932318 -1.7899923 4288085770
6.918766 -1.5562458 -1.8059871 4288085770
9.043045 -1.9671588 -1.7878723 4288085770
7.0368729 -1.5321853 -1.8068821 4288085770
9.2401524 -1.9460459 -1.7917606 4288085770
7.1309738 -1.5011616 -1.8007594 4288085770
9.4262581 -1.920959 -1.7896383 4288085770
7.2550793 -1.4761012 -1.8006501 4288085770
9.622364 -1.89586 -1.7895139 4288085770
7.3831844 -1.4510417 -1.7995402 4288085770
9.8684769 -1.8787172 -1.7944053 4288085770
7.5272923 -1.4269674 -1.8004299 4288085770
10.118586 -1.8595788 -1.7972893 4288085770
7.6733971 -1.4028919 -1.8013197 4288085770
10.354691 -1.8354619 -1.7961602 4288085770
7.7844982 -1.3718727 -1.7911942 4288085770
10.604799 -1.8123405 -1.7940317 4288085770
7.9105988 -1.3418384 -1.7830689 4288085770
10.860901 -1.7862196 -1.7908921 4288085770
8.0867062 -1.3177464 -1.7839524 4288085770
11.139008 -1.7620902 -1.7867546 4288085770
8.2498112 -1.2916753 -1.7808324 4288085770
11.428112 -1.7369547 -1.782612 4288085770
8.4369164 -1.2675848 -1.7797141 4288085770
11.697212 -1.7068543 -1.7714573 4288085770
8.6340218 -1.2424886 -1.7785904 4288085770
12.04332 -1.6836851 -1.7683094 4288085770
8.8411274 -1.2173908 -1.7764648 4288085770
12.407429 -1.6605127 -1.7631578 4288085770
9.0672359 -1.1932757 -1.7763387 4288085770
12.800529 -1.6383216 -1.759004 4288085770
9.2973385 -1.1681654 -1.7742087 4288085770
13.222637 -1.6161184 -1.753844 4288085770
9.5324478 -1.1420593 -1.7700746 4288085770
13.678749 -1.5938942 -1.7496777 4288085770
9.768549 -1.1129627 -1.7629308 4288085770
14.197857 -1.5746319 -1.7465079 4288085770
10.031652 -1.0868416 -1.7587913 4288085770
14.792965 -1.5593157 -1.7473354 4288085770
10.319757 -1.0597072 -1.7546436 4288085770
15.395073 -1.5390162 -1.7421458 4288085770
10.628862 -1.0335615 -1.7504947 4288085770
16.052181 -1.5186908 -1.7359451 4288085770
10.952961 -1.0044146 -1.7443333 4288085770
16.81929 -1.5012958 -1.7327313 4288085770
11.294067 -0.97426182 -1.7371653 4288085770
17.54039 -1.4739699 -1.7164956 4288085770
11.694168 -0.94806081 -1.7349986 4288085770
18.493504 -1.4594722 -1.7142541 4288085770
12.093269 -0.91688019 -1.7268158 4288085770
19.571617 -1.4459071 -1.7119907 4288085770
12.545372 -0.8876583 -1.7226291 4288085770
13.048477 -0.85741228 -1.7174287 4288085770
13.598583 -0.82713431 -1.7142192 4288085770
14.187679 -0.79384571 -1.7079923 4288085770
14.874783 -0.76149458 -1.7047489 4288085770
15.60088 -0.725133 -1.6984848 4288085770
16.470982 -0.69067746 -1.6971985 4288085770
17.411076 -0.65119463 -1.6928816 4288085770
18.481167 -0.60964566 -1.6875327 4288085770
19.819267 -0.5669232 -1.6911266 4288085770
19.462505 1.9716568 -1.6323699 4288085770
18.823593 2.040297 -1.623191 4288085770
18.400669 2.1250951 -1.6289474 4288085770
17.962746 2.2028663 -1.6287268 4288085770
17.567829 2.2806623 -1.6295035 4288085770
17.186913 2.3544624 -1.6292922 4288085770
16.777 2.4192252 -1.6221116 4288085770
16.512074 2.5021 -1.626864 4288085770
16.238159 2.5789607 -1.6286361 4288085770
15.965244 2.6508121 -1.6274245 4288085770
15.792316 2.7387402 -1.6341553 4288085770
15.560402 2.8146124 -1.632928 4288085770
15.413479 2.9025536 -1.6396574 4288085770
15.240574 2.9834602 -1.6404102 4288085770
15.089657 3.0653827 -1.642152 4288085770
14.971737 3.1543283 -1.6458694 4288085770
14.867809 3.2462809 -1.6495763 4288085770
14.765888 3.3372283 -1.6512866 4288085770
14.656963 3.4221654 -1.6510168 4288085770
14.607037 3.5211484 -1.6556985 4288085770
14.519112 3.6110966 -1.6554114 4288085770
14.490181 3.714087 -1.6590793 4288085770
14.416256 3.8060355 -1.6567852 4288085770
14.420322 3.9170456 -1.6614257 4288085770
14.402393 4.0240321 -1.66208 4288085770
14.388458 4.1320171 -1.6617315 4288085770
14.421516 4.2530413 -1.6663382 4288085770
14.472572 4.381072 -1.6699215 4288085770
14.536629 4.5121088 -1.6734946 4288085770
14.588688 4.6401362 -1.676078 4288085770
14.676739 4.7811823 -1.6786177 4288085770
14.716793 4.9091845 -1.6752019 4288085770
14.811844 5.0562272 -1.6757221 4288085770
14.953884 5.2203054 -1.680185 4288085770
15.120918 5.3954005 -1.685611 4288085770
15.299946 5.5764976 -1.6900172 4288085770
15.476974 5.7615876 -1.6924108 4288085770
15.698997 5.9657068 -1.6967409 4288085770
16.024994 6.2109022 -1.7089332 4288085770
16.387989 6.4771228 -1.7230558 4288085770
16.67799 6.7202721 -1.7262572 4288085770
16.963985 6.9644127 -1.7274555 4288085770
17.245983 7.2105379 -1.7246478 4288085770
17.585968 7.4856982 -1.7237436 4288085770
17.942947 7.770864 -1.7218065 4288085770
19.640663 -0.29792303 -1.680583 4288085770
18.122795 -0.31466502 -1.6766908 4288085770
16.926926 -0.33021599 -1.6847827 4288085770
15.794044 -0.34175867 -1.6858596 4288085770
14.842175 -0.35020548 -1.6899198 4288085770
13.9813 -0.35760593 -1.6949733 4288085770
13.237419 -0.36295372 -1.6990159 4288085770
12.535545 -0.36528784 -1.7010474 4288085770
18.68869 -0.5464676 -1.6723658 4288085770
11.922665 -0.36756998 -1.7060754 4288085770
17.380802 -0.53507346 -1.6793782 4288085770
11.360783 -0.3688277 -1.7110983 4288085770
16.199917 -0.52162832 -1.6833791 4288085770
10.848904 -0.36906487 -1.715116 4288085770
15.138031 -0.50813621 -1.6843753 4288085770
10.352028 -0.36730736 -1.7151269 4288085770
14.294147 -0.49850863 -1.6953752 4288085770
9.9041481 -0.36452347 -1.7161329 4288085770
13.475269 -0.48490065 -1.6963617 4288085770
9.5122681 -0.36270344 -1.7201395 4288085770
12.757378 -0.47323865 -1.6993504 4288085770
9.1533871 -0.35986453 -1.7251419 4288085770
12.102493 -0.46154648 -1.7023367 4288085770
8.7985039 -0.35603285 -1.727141 4288085770
11.519608 -0.44981664 -1.70632 4288085770
8.4716206 -0.35118496 -1.7301358 4288085770
11.014725 -0.44003731 -1.7143064 4288085770
8.1817398 -0.34731293 -1.7351323 4288085770
10.488836 -0.42729646 -1.7132845 4288085770
7.9408607 -0.34439903 -1.7461298 4288085770
10.047953 -0.41549921 -1.717262 4288085770
7.664978 -0.3375361 -1.7461164 4288085770
9.6190701 -0.40370888 -1.7172393 4288085770
7.4090977 -0.33165753 -1.7481053 4288085770
9.2461853 -0.39287633 -1.7222173 4288085770
7.1712132 -0.32577038 -1.7500935 4288085770
8.8962994 -0.38103896 -1.7251912 4288085770
6.9343319 -0.31788898 -1.7500753 4288085770
8.5804157 -0.37117612 -1.7311702 4288085770
6.7344513 -0.31197733 -1.7540621 4288085770
8.2505322 -0.35834503 -1.7291404 4288085770
6.5345669 -0.30407196 -1.7560425 4288085770
8.0096493 -0.34842771 -1.741116 4288085770
6.3596859 -0.29814214 -1.7620283 4288085770
7.7457638 -0.33754635 -1.7450897 4288085770
6.1738033 -0.29023641 -1.7620081 4288085770
7.4948807 -0.32666504 -1.7470629 4288085770
6.004921 -0.28231633 -1.7639874 4288085770
7.239996 -0.31379515 -1.7460302 4288085770
5.8400383 -0.27339739 -1.7649633 4288085770
7.0161114 -0.30290103 -1.7480023 4288085770
5.6711521 -0.26448983 -1.7629396 4288085770
6.8032265 -0.29100478 -1.748971 4288085770
5.5182705 -0.25656837 -1.7629182 4288085770
6.6153412 -0.28008425 -1.7539417 4288085770
5.3813839 -0.24762958 -1.7658932 4288085770
6.4144535 -0.26818842 -1.7529099 4288085770
5.2595005 -0.23967773 -1.7708707 4288085770
6.2405682 -0.25626725 -1.755877 4288085770
5.1296177 -0.23074222 -1.7718452 4288085770
6.076685 -0.24534166 -1.7588468 4288085770
5.0077343 -0.22179973 -1.7738196 4288085770
5.9088001 -0.23342711 -1.7588136 4288085770
5.756916 -0.22149873 -1.7607797 4288085770
5.6130314 -0.21056658 -1.7627487 4288085770
5.4741459 -0.19863218 -1.7647145 4288085770
5.3212624 -0.18572617 -1.7596778 4288085770
5.2053776 -0.17477447 -1.7636458 4288085770
5.0854912 -0.16283095 -1.7656107 4288085770
5.1049156 1.8832784 -1.7209297 4288085770
5.2280254 1.9103208 -1.7188361 4288085770
5.3601341 1.9393733 -1.7187353 4288085770
5.5002422 1.9684324 -1.7196342 4288085770
5.6323528 1.9944789 -1.7175429 4288085770
5.7814598 2.0235362 -1.7164413 4288085770
5.9085712 2.0445647 -1.7093655 4288085770
5.0137501 1.7832172 -1.7282312 4288085770
6.0746803 2.0766327 -1.7092532 4288085770
5.1238632 1.7992477 -1.7241722 4288085770
6.2257881 2.1016812 -1.7051635 4288085770
5.2349777 1.8132787 -1.7201192 4288085770
6.3748989 2.1257226 -1.6990771 4288085770
5.3700905 1.8343356 -1.721043 4288085770
6.5510063 2.1547916 -1.6979734 4288085770
5.5052013 1.8543894 -1.7209699 4288085770
6.7281132 2.1828547 -1.6948726 4288085770
5.6393147 1.8714366 -1.718906 4288085770
6.9132233 2.2119184 -1.690768 4288085770
5.7764301 1.887485 -1.716845 4288085770
7.1043301 2.2399874 -1.6876662 4288085770
5.9175434 1.9045353 -1.7147806 4288085770
7.2944412 2.2650471 -1.6815737 4288085770
6.075655 1.9235992 -1.7147087 4288085770
7.5365448 2.3041575 -1.6844343 4288085770
6.2007732 1.9316208 -1.7056733 4288085770
7.7586517 2.3342404 -1.681324 4288085770
6.4078808 1.9627373 -1.7155608 4288085770
7.9637623 2.3562973 -1.6722395 4288085770
6.5359993 1.9677508 -1.7035342 4288085770
8.2008705 2.3853838 -1.668131 4288085770
6.7291126 1.9888394 -1.7064536 4288085770
8.4639759 2.419488 -1.6660056 4288085770
6.8852272 1.9988837 -1.7004095 4288085770
8.7190857 2.4485791 -1.6608957 4288085770
7.0723438 2.0149574 -1.6993445 4288085770
9.0021915 2.4816887 -1.6577716 4288085770
7.2584553 2.0280242 -1.6962891 4288085770
9.3272934 2.5218327 -1.6596227 4288085770
7.4455719 2.0390854 -1.6912395 4288085770
9.6374016 2.5549512 -1.6554966 4288085770
7.6366901 2.0491481 -1.6861928 4288085770
9.9895039 2.5941005 -1.6553489 4288085770
7.8578033 2.0642366 -1.6851283 4288085770
10.347609 2.6312435 -1.6522068 4288085770
8.0729179 2.0753162 -1.6820766 4288085770
10.717712 2.6673882 -1.6480668 4288085770
8.3090343 2.088408 -1.6800171 4288085770
11.151814 2.713583 -1.6508913 4288085770
8.5361519 2.0974898 -1.6759704 4288085770
11.577919 2.7537587 -1.6487348 4288085770
8.783268 2.1065834 -1.6729224 4288085770
12.039024 2.7959497 -1.6465695 4288085770
9.0333862 2.114675 -1.6688771 4288085770
12.554131 2.8451755 -1.6483769 4288085770
9.3075104 2.1237788 -1.6658247 4288085770
13.080231 2.8903942 -1.6461954 4288085770
9.5906219 2.1318908 -1.6637756 4288085770
13.665321 2.9406519 -1.647994 4288085770
9.8777428 2.1369979 -1.6597347 4288085770
14.258423 2.9858963 -1.6448069 4288085770
10.207859 2.1481392 -1.6606724 4288085770
14.947525 3.0431991 -1.6465753 4288085770
10.536978 2.1542711 -1.658625 4288085770
15.640625 3.0924909 -1.6443677 4288085770
10.8601 2.1543906 -1.6535965 4288085770
16.39772 3.1458137 -1.6431427 4288085770
11.225216 2.1595411 -1.652549 4288085770
17.33181 3.2222481 -1.6528329 4288085770
11.606339 2.1616983 -1.6515095 4288085770
18.3209 3.2976973 -1.6595217 4288085770
11.985462 2.1598487 -1.6484821 4288085770
19.272999 3.3540964 -1.6552709 4288085770
12.418583 2.1620317 -1.6484379 4288085770
12.882702 2.1622314 -1.6493973 4288085770
13.328827 2.1554105 -1.6463791 4288085770
13.799953 2.1466007 -1.6433649 4288085770
14.293083 2.1338005 -1.6403608 4288085770
14.81321 2.1180086 -1.6363634 4288085770
15.358337 2.1002278 -1.63237 4288085770
15.96447 2.0824862 -1.6323712 4288085770
16.608601 2.0617607 -1.6323783 4288085770
17.332726 2.0430825 -1.6363723 4288085770
18.046864 2.011384 -1.6354065 4288085770
18.834999 1.9787242 -1.6364372 4288085770
19.621143 1.9370542 -1.6344949 4288085770
16.323711 -5.4742947 -0.54673141 4293729569
16.302883 -5.5882096 -0.58106643 4293729569
16.182041 -5.667172 -0.61330587 4293729569
16.130203 -5.7670937 -0.64960176 4293729569
16.045368 -5.857029 -0.68587065 4293729569
14.919361 -5.5615335 -0.68008274 4293729569
14.856518 -5.6494536 -0.71834379 4293729569
14.644653 -5.6774549 -0.75043935 4293729569
13.887695 -5.4897738 -0.75394082 4293729569
16.199444 -6.6321507 -0.97412419 4293729569
14.032227 -5.8573103 -0.89600289 4293729569
12.531116 -5.3280959 -0.84855455 4293729569
12.06419 -5.2202668 -0.86026901 4293729569
12.262386 -5.3940153 -0.91876239 4293729569
11.272358 -5.0465212 -0.89181077 4293729569
11.754471 -5.3219895 -0.33858192 4293729569
10.940445 -4.9776163 -0.9096294 4293729569
11.70462 -5.3808851 -0.38275516 4293729569
11.000618 -5.0844502 -0.95893574 4293729569
11.671772 -5.4477711 -0.42795062 4293729569
10.898754 -5.1153932 -0.9950307 4293729569
10.683023 -5.1652761 -1.069186 4293729569
10.169071 -4.9925075 -1.0667127 4293729569
10.35113 -5.1229558 -0.56107861 4293729569
10.261246 -5.107307 -1.1230395 4293729569
10.28927 -5.1618567 -0.6051935 4293729569
10.807522 -5.4497585 -1.2320013 4293729569
10.248415 -5.2087431 -0.65133005 4293729569
11.052731 -5.6454186 -1.3135537 4293729569
10.240566 -5.2716064 -0.7005111 4293729569
10.779827 -5.5804725 -1.3363789 4293729569
10.182707 -5.3075032 -0.74561656 4293729569
10.331879 -5.4206696 -1.3359385 4293729569
10.928028 -5.7578793 -0.85187918 4293729569
11.502308 -6.0975728 -1.5408349 4293729569
10.842159 -5.7797785 -0.89994508 4293729569
10.329185 -5.5513616 -1.4443135 4293729569
11.174541 -6.0694923 -1.6187671 4293729569
11.013508 -6.0023303 -1.0305758 4293729569
10.861626 -5.9695783 -1.6364923 4293729569
10.308495 -5.6836534 -1.0236877 4293729569
10.407665 -5.787796 -1.6299875 4293729569
10.475685 -5.8343711 -1.0971124 4293729569
9.990715 -5.6189942 -1.624518 4293729569
10.291792 -5.7903361 -1.1369915 4293729569
9.5867634 -5.4521909 -1.6180538 4293729569
10.351955 -5.8801236 -1.2022451 4293729569
9.1488018 -5.2604251 -1.6035187 4293729569
10.327099 -5.9209709 -1.2593613 4293729569
8.9048862 -5.1724958 -1.616274 4293729569
10.291241 -5.9528246 -1.3154515 4293729569
8.7619972 -5.1394739 -1.6461828 4293729569
10.30839 -6.0136395 -1.3776227 4293729569
8.550087 -5.0635257 -1.6609708 4293729569
8.9121819 -5.2556009 -1.2534993 4293729569
8.2691555 -4.943646 -1.6626352 4293729569
8.8062954 -5.2355294 -1.2944427 4293729569
8.08325 -4.8746805 -1.6794418 4293729569
8.754425 -5.2444181 -1.3414671 4293729569
7.8643322 -4.7837534 -1.6881864 4293729569
8.7115574 -5.2562962 -1.3904994 4293729569
7.6524162 -4.6938262 -1.6959335 4293729569
8.6796875 -5.2731647 -1.4415452 4293729569
7.466507 -4.6168747 -1.7077167 4293729569
8.6488209 -5.2880349 -1.491585 4293729569
7.3736191 -4.5928288 -1.7386479 4293729569
8.6369572 -5.3128891 -1.5446525 4293729569
7.3107395 -4.5847573 -1.7736238 4293729569
8.6110878 -5.3277483 -1.5976915 4293729569
7.2698669 -4.587656 -1.8156297 4288085770
8.5472088 -5.3176513 -1.6416605 4293729569
7.2019806 -4.5725904 -1.8495854 4288085770
8.3162785 -5.2017169 -1.6543326 4293729569
7.1070919 -4.5385561 -1.8764871 4288085770
8.090353 -5.0857854 -1.665004 4293729569
6.9281731 -4.4506269 -1.8802378 4288085770
7.9034367 -4.9918237 -1.6807368 4293729569
6.7372532 -4.3517146 -1.8799571 4288085770
7.6735039 -4.8679094 -1.6863854 4293729569
6.550333 -4.2528086 -1.8766762 4288085770
7.4685802 -4.7569814 -1.6930701 4293729569
6.3694115 -4.154901 -1.8733978 4288085770
7.2716541 -4.6470532 -1.6987573 4293729569
6.2044926 -4.0639796 -1.8721387 4288085770
7.1587524 -4.5890398 -1.7215899 4293729569
6.0405769 -3.9730613 -1.8698797 4288085770
7.1368771 -4.584928 -1.7645729 4293729569
5.8866596 -3.8851416 -1.8666286 4288085770
7.1210022 -4.5828104 -1.8085611 4293729569
5.7317429 -3.7942264 -1.8623691 4288085770
7.1101265 -4.5816903 -1.8525517 4288085770
5.6048317 -3.7202828 -1.8631569 4288085770
7.0112267 -4.5226707 -1.8753799 4288085770
5.4659176 -3.6363604 -1.8589166 4288085770
6.8553066 -4.4267282 -1.8801049 4288085770
5.3390045 -3.5574286 -1.8556901 4288085770
6.6683788 -4.3088312 -1.8737683 4288085770
5.2220936 -3.4844873 -1.8544804 4288085770
6.500452 -4.2019148 -1.8714625 4288085770
5.1051846 -3.4105527 -1.8512678 4288085770
6.3375282 -4.0960016 -1.8671592 4288085770
6.1926098 -4.0000725 -1.8658839 4288085770
6.0546894 -3.9061434 -1.863614 4288085770
5.9277763 -3.8182056 -1.8623606 4288085770
5.7918549 -3.7242849 -1.8570907 4288085770
5.6729412 -3.6393497 -1.8538458 4288085770
5.5560246 -3.5534174 -1.8495978 4288085770
5.4571152 -3.4784629 -1.8503804 4288085770
5.3572044 -3.4015172 -1.8481574 4288085770
5.2582912 -3.3245778 -1.8439347 4288085770
5.1623802 -3.2496364 -1.8397174 4288085770
5.0874748 -3.1846745 -1.8395275 4288085770
5.0085678 -3.1187172 -1.8383353 4288085770
5.0292053 -1.2681985 -1.7985706 4288085770
5.095314 -1.250176 -1.7995027 4288085770
5.153429 -1.2291687 -1.7964269 4288085770
5.2195415 -1.2101552 -1.7943558 4288085770
5.2906551 -1.1911368 -1.7932839 4288085770
5.3657684 -1.1731172 -1.7922143 4288085770
5.4538841 -1.157083 -1.7941487 4288085770
5.5299969 -1.1380689 -1.7910759 4288085770
5.6161118 -1.1200452 -1.7900046 4288085770
5.7032223 -1.1010234 -1.7879303 4288085770
5.7983379 -1.0839958 -1.7868603 4288085770
5.896452 -1.0669699 -1.78479 4288085770
5.9935646 -1.0489471 -1.7817168 4288085770
6.1066799 -1.0329094 -1.7816468 4288085770
5.0526676 -0.8453092 -1.7892543 4288085770
6.2217941 -1.0168738 -1.7805767 4288085770
5.1357822 -0.82829195 -1.7861868 4288085770
6.3319092 -0.99984926 -1.7765042 4288085770
5.2278957 -0.81226248 -1.7861205 4288085770
6.4720249 -0.9857921 -1.7794358 4288085770
5.3000069 -0.79426438 -1.7780517 4288085770
6.5841351 -0.96677536 -1.7723572 4288085770
5.4061222 -0.77922648 -1.7789863 4288085770
6.7272491 -0.95172888 -1.7712852 4288085770
5.5192375 -0.76518029 -1.7819226 4288085770
6.8733654 -0.93668121 -1.7702127 4288085770
5.630352 -0.75114626 -1.7808591 4288085770
7.0564804 -0.9246015 -1.7751429 4288085770
5.7404671 -0.73511535 -1.7787898 4288085770
7.2065964 -0.9075641 -1.7700638 4288085770
5.8495808 -0.71809119 -1.7747178 4288085770
7.374712 -0.89251369 -1.7669874 4288085770
5.9666958 -0.70306081 -1.7716502 4288085770
7.5328236 -0.87447912 -1.7599037 4288085770
6.1068115 -0.68800968 -1.7725787 4288085770
7.7339382 -0.86041003 -1.7588251 4288085770
6.236927 -0.67297441 -1.769509 4288085770
7.9190521 -0.84436184 -1.7527425 4288085770
6.3890419 -0.65892154 -1.7694384 4288085770
8.1411667 -0.83028466 -1.7516601 4288085770
6.5261574 -0.64288896 -1.7643645 4288085770
8.3532829 -0.81522304 -1.7465762 4288085770
6.6892719 -0.62783521 -1.7632892 4288085770
8.6103992 -0.80113202 -1.7454876 4288085770
6.8623886 -0.613774 -1.7632149 4288085770
8.8465137 -0.78506702 -1.7383965 4288085770
7.0615044 -0.60069126 -1.7671393 4288085770
9.1316299 -0.77196807 -1.7363061 4288085770
7.2306194 -0.58465236 -1.7600597 4288085770
9.4487457 -0.75984782 -1.7372133 4288085770
7.4217319 -0.56859618 -1.7559764 4288085770
9.747858 -0.74375838 -1.7301114 4288085770
7.6148472 -0.55254501 -1.7498927 4288085770
10.112974 -0.73262221 -1.7300131 4288085770
7.8409615 -0.53846639 -1.7488092 4288085770
10.483089 -0.718499 -1.724905 4288085770
8.0560741 -0.52140981 -1.7417186 4288085770
10.892204 -0.70535177 -1.7227932 4288085770
8.3041897 -0.50732833 -1.7386312 4288085770
11.343319 -0.69318837 -1.720677 4288085770
8.5643044 -0.4922455 -1.7345389 4288085770
11.814434 -0.68002862 -1.7145543 4288085770
8.8654213 -0.47813457 -1.7344424 4288085770
12.339554 -0.66783911 -1.7114252 4288085770
9.1625328 -0.46204013 -1.7293406 4288085770
12.903667 -0.65364331 -1.7052834 4288085770
9.4896507 -0.44693106 -1.7252364 4288085770
13.567783 -0.64239675 -1.7031335 4288085770
9.8697643 -0.43178976 -1.7251232 4288085770
14.289898 -0.63013345 -1.6989703 4288085770
10.264879 -0.41664839 -1.7230072 4288085770
15.090012 -0.6188429 -1.6937965 4288085770
10.669994 -0.40051478 -1.7168863 4288085770
16.004135 -0.60750455 -1.6896031 4288085770
11.141109 -0.38434386 -1.7147541 4288085770
17.079247 -0.59808928 -1.6903878 4288085770
11.648224 -0.36915904 -1.7126184 4288085770
18.227364 -0.58567506 -1.6811508 4288085770
12.204338 -0.35196108 -1.7084682 4288085770
19.67448 -0.57811171 -1.6828769 4288085770
12.809452 -0.33574682 -1.7033123 4288085770
13.499565 -0.31849396 -1.7001387 4288085770
14.258675 -0.30021405 -1.6969501 4288085770
15.119785 -0.28189749 -1.6927433 4288085770
16.043903 -0.26156551 -1.6855195 4288085770
17.240017 -0.24309552 -1.6892543 4288085770
18.487125 -0.22063822 -1.6819676 4288085770
18.37088 -0.0016541481 -1.6629112 4288085770
17.010006 0.00088709593 -1.6652446 4288085770
15.856121 0.0045025349 -1.6695235 4288085770
14.866245 0.0091756582 -1.6747587 4288085770
13.992363 0.013887942 -1.6799645 4288085770
13.231483 0.019643128 -1.6871399 4288085770
12.517601 0.025401831 -1.689303 4288085770
18.673649 0.053381205 -1.6587149 4288085770
11.878719 0.032188296 -1.6924449 4288085770
17.290764 0.062918484 -1.6620347 4288085770
11.32584 0.038008451 -1.6975678 4288085770
16.068886 0.072495401 -1.6593144 4288085770
10.789963 0.04582721 -1.699681 4288085770
15.062996 0.08316651 -1.6655377 4288085770
10.318081 0.053669751 -1.7027785 4288085770
14.168118 0.09287262 -1.6707355 4288085770
9.8891983 0.060529292 -1.7068675 4288085770
13.383232 0.10361534 -1.6759034 4288085770
9.496315 0.069400758 -1.7109429 4288085770
12.682354 0.11438406 -1.6800504 4288085770
9.1264362 0.077277601 -1.7140144 4288085770
12.037472 0.12416899 -1.6831857 4288085770
8.7965565 0.086172879 -1.7190738 4288085770
11.47459 0.13498637 -1.688298 4288085770
8.4826736 0.095068693 -1.722129 4288085770
10.954708 0.14481568 -1.6924021 4288085770
8.2037907 0.10398334 -1.7281755 4288085770
10.485828 0.15565971 -1.695491 4288085770
7.9469109 0.11290544 -1.7342166 4288085770
10.053946 0.16651851 -1.6995707 4288085770
7.6860275 0.12281653 -1.7362561 4288085770
9.6680641 0.1773977 -1.7056388 4288085770
7.4351463 0.13172621 -1.7362956 4288085770
9.3041821 0.18827683 -1.7087015 4288085770
7.2152634 0.14165601 -1.7403249 4288085770
8.9662991 0.19916481 -1.7117575 4288085770
6.9993839 0.15058225 -1.7423555 4288085770
8.649416 0.21005732 -1.7138085 4288085770
6.7835007 0.16050121 -1.7413837 4288085770
8.3665352 0.22096857 -1.7188511 4288085770
6.6206207 0.17045993 -1.7493988 4288085770
8.1266537 0.2329087 -1.7298803 4288085770
6.4207363 0.1803818 -1.7474229 4288085770
7.8617706 0.24381381 -1.7299184 4288085770
6.2558517 0.19032767 -1.7504383 4288085770
7.6108894 0.25472623 -1.7309527 4288085770
6.0819702 0.20125833 -1.7484536 4288085770
7.3750057 0.26564121 -1.7309835 4288085770
5.9270878 0.21120512 -1.7504666 4288085770
7.1821232 0.27758482 -1.7370011 4288085770
5.7792053 0.2211518 -1.7514778 4288085770
6.9622383 0.28850028 -1.7350277 4288085770
5.6443176 0.23210785 -1.7544835 4288085770
6.7633533 0.29942781 -1.7350492 4288085770
5.5064373 0.24205559 -1.7544923 4288085770
6.5924702 0.31137174 -1.7380614 4288085770
5.3925552 0.2540234 -1.7594903 4288085770
6.433588 0.32332203 -1.7420707 4288085770
5.2676716 0.26397538 -1.7594957 4288085770
6.2697067 0.33526355 -1.7430809 4288085770
5.1557884 0.27493882 -1.7624958 4288085770
6.1018219 0.34619629 -1.7410946 4288085770
5.0659084 0.28792194 -1.7704853 4288085770
5.9639397 0.3581515 -1.7440987 4288085770
5.8220558 0.37009782 -1.7441037 4288085770
5.6931725 0.38205338 -1.7461054 4288085770
5.5652905 0.39400697 -1.747107 4288085770
5.4394054 0.40595627 -1.7461079 4288085770
5.3215218 0.4179107 -1.746107 4288085770
5.2346401 0.43189478 -1.7540936 4288085770
5.136755 0.44486308 -1.7570854 4288085770
5.0448742 0.45783347 -1.7600756 4288085770
5.0306854 2.6629546 -1.6941401 4288085770
5.1517925 2.7129879 -1.6960075 4288085770
5.2678967 2.7590106 -1.6938848 4288085770
5.4000015 2.8120499 -1.6967435 4288085770
5.5311069 2.8630793 -1.6956075 4288085770
