# .PCD v0.7 - Point Cloud Data file format
VERSION 0.7
FIELDS x y z rgb
SIZE 4 4 4 4
TYPE F F F U
COUNT 1 1 1 1
WIDTH 1115
HEIGHT 1
VIEWPOINT 0 0 0 1 0 0 0
POINTS 1115
DATA ascii
0.52331543 1.2219186 -1.7443551 4288085770
-0.33673096 1.1165838 -1.7539753 4288085770
0.67941284 1.236794 -1.7432677 4288085770
-0.21560669 1.1274862 -1.7529112 4288085770
0.85351562 1.2536798 -1.7461683 4288085770
-0.086456299 1.1383934 -1.7538465 4288085770
1.0226746 1.2695408 -1.7440747 4288085770
0.027648926 1.1452727 -1.747805 4288085770
1.204834 1.285399 -1.7429808 4288085770
0.17578125 1.157177 -1.7507342 4288085770
1.3899841 1.3002496 -1.7408928 4288085770
0.32894897 1.1690779 -1.7536634 4288085770
1.6051331 1.3181062 -1.7437867 4288085770
0.47906494 1.1789637 -1.7536038 4288085770
1.8222351 1.3349423 -1.7436863 4288085770
0.61917114 1.1858306 -1.7485615 4288085770
2.0513916 1.3527789 -1.7445804 4288085770
0.787323 1.1957092 -1.7495016 4288085770
2.2734985 1.3665962 -1.7414967 4288085770
0.96347046 1.2055821 -1.7504412 4288085770
2.522644 1.3834047 -1.7403957 4288085770
1.120575 1.2114301 -1.7444042 4288085770
2.8077698 1.4032149 -1.7442769 4288085770
1.3277283 1.2233028 -1.7493318 4288085770
3.092926 1.4200053 -1.7441746 4288085770
1.5088501 1.2291446 -1.7452937 4288085770
3.3850708 1.435771 -1.7410783 4288085770
3.6921997 1.4426923 -1.7412351 4288085770
1.9690857 1.2402763 -1.7574455 4288085770
4.0213318 1.4583855 -1.7388772 4288085770
2.1902466 1.247067 -1.7552153 4288085770
4.3764954 1.4750552 -1.7364918 4288085770
2.4183655 1.2518477 -1.7519842 4288085770
4.7746277 1.4946942 -1.7370571 4288085770
2.6634827 1.2566171 -1.7497369 4288085770
5.1837463 1.5123177 -1.7356173 4288085770
2.9286499 1.2623739 -1.7494675 4288085770
5.6399231 1.5309043 -1.7361301 4288085770
3.2067566 1.2671151 -1.7481886 4288085770
6.1320496 1.5514584 -1.7366031 4288085770
3.4908752 1.2708488 -1.7459072 4288085770
6.6672058 1.5719805 -1.739035 4288085770
3.7989807 1.2735624 -1.7446054 4288085770
7.2593384 1.5944505 -1.7414073 4288085770
4.1391602 1.2782569 -1.7462674 4288085770
7.8764954 1.6138873 -1.7397639 4288085770
4.4812622 1.2789354 -1.7429389 4288085770
8.5846558 1.6382551 -1.7430199 4288085770
4.8733826 1.2825823 -1.7445544 4288085770
9.3748169 1.6635532 -1.7471949 4288085770
5.2815247 1.2822099 -1.7441653 4288085770
10.20694 1.6868019 -1.7473358 4288085770
5.7026672 1.2808228 -1.742767 4288085770
11.195099 1.7149291 -1.7543136 4288085770
6.1567383 1.2784023 -1.7403401 4288085770
12.254272 1.741982 -1.7572268 4288085770
6.6628723 1.2759438 -1.7408634 4288085770
13.538422 1.7778568 -1.7689008 4288085770
7.2229919 1.2724433 -1.743338 4288085770
14.895599 1.807641 -1.7715214 4288085770
7.8531189 1.2688856 -1.7477459 4288085770
8.478241 1.2593169 -1.7471753 4288085770
9.175354 1.2486849 -1.7465388 4288085770
9.9954834 1.2399654 -1.7547797 4288085770
10.880615 1.2271805 -1.7599696 4288085770
11.825684 1.2093325 -1.7621163 4288085770
12.912842 1.1883678 -1.7681361 4288085770
14.033936 1.1583538 -1.7671479 4288085770
5.3529053 -7.3963237 -0.77703798 4293729569
5.3760681 -7.4171677 -0.84407437 4293729569
5.3746338 -7.4086461 -1.0400559 4293729569
5.3868103 -7.4084845 -1.105045 4293729569
5.4200439 -7.4193363 -1.1720444 4293729569
5.4362183 -7.4161735 -1.2390217 4293729569
1.9112549 -4.9239516 -0.88750565 4293729569
1.6105652 -4.6986704 -0.89317191 4293729569
5.6360779 -7.4246478 -0.77185774 4293729569
1.4958191 -4.6035028 -0.91801941 4293729569
5.663269 -7.4115052 -0.83479726 4293729569
1.3550415 -4.4873266 -0.93783391 4293729569
1.4501953 -4.5332785 -0.98887098 4293729569
1.4839478 -4.488369 -0.6027149 4293729569
1.4883728 -4.538198 -1.0328494 4293729569
1.5361023 -4.4983096 -0.64369392 4293729569
1.456543 -4.4930854 -1.0657564 4293729569
5.9100037 -7.4210339 -1.0965966 4293729569
1.5446777 -4.5270333 -1.1157671 4293729569
5.9911804 -7.4289351 -1.1615433 4293729569
1.5448914 -4.4999375 -1.1526934 4293729569
6.0493469 -7.417819 -1.2254597 4293729569
1.6160583 -4.517879 -1.1996764 4293729569
6.141571 -7.4257269 -1.291396 4293729569
1.6392212 -4.5017982 -1.2386113 4293729569
6.2177429 -7.4186239 -1.3563062 4293729569
1.6633911 -4.4857197 -1.2775453 4293729569
6.3119202 -7.4215369 -1.4212276 4293729569
1.6925659 -4.4696465 -1.3154746 4293729569
6.4081116 -7.4214487 -1.4871382 4293729569
1.7107544 -4.444571 -1.3513898 4293729569
6.5032959 -7.4183688 -1.5500418 4293729569
1.7359314 -4.4224977 -1.3883063 4293729569
6.60849 -7.4182916 -1.6149443 4293729569
3.3214722 -5.4040132 -1.7265099 4293729569
3.0043335 -5.0792418 -1.173916 4293729569
3.0687866 -5.1918235 -1.7141663 4293729569
2.9795227 -5.0121427 -1.2037565 4293729569
2.9120483 -5.0416827 -1.7159029 4293729569
3.001709 -4.9740705 -1.2396322 4293729569
2.833313 -4.9415731 -1.7317032 4293729569
3.019928 -4.9319987 -1.2735006 4293729569
2.7354736 -4.828464 -1.741486 4293729569
3.0570984 -4.8999395 -1.309379 4293729569
2.5248108 -4.6463194 -1.7261847 4293729569
5.7822266 -6.4741793 -1.7601401 4293729569
2.4350281 -4.5392256 -1.7329763 4293729569
5.5015564 -6.2329507 -1.7527434 4293729569
2.2922668 -4.400116 -1.7277297 4293729569
5.2299805 -5.9987388 -1.7423605 4293729569
2.2015686 -4.2920294 -1.7315215 4293729569
4.9732971 -5.7755404 -1.7319859 4293729569
2.1137695 -4.1869507 -1.7333132 4293729569
4.732605 -5.5653567 -1.7216324 4293729569
2.0539856 -4.0988812 -1.7411255 4293729569
4.5468445 -5.388206 -1.7173179 4293729569
2.1161804 -4.0798521 -1.7740122 4293729569
4.3811646 -5.223073 -1.7130178 4293729569
2.2223206 -4.0838346 -1.8179213 4288085770
4.2483826 -5.0789561 -1.7137445 4293729569
2.3404846 -4.092824 -1.8628329 4288085770
4.0966797 -4.9238386 -1.7084585 4293729569
2.3197021 -4.0217781 -1.8746551 4288085770
4.0028992 -4.8017521 -1.7112097 4293729569
2.2578735 -3.9287262 -1.875456 4288085770
3.913147 -4.683672 -1.7129675 4293729569
2.1911011 -3.8336768 -1.8732556 4288085770
3.8453979 -4.5756054 -1.7167321 4293729569
2.0803528 -3.715621 -1.8590339 4288085770
3.7685852 -4.4655371 -1.7185 4293729569
2.0125427 -3.6205819 -1.8528351 4288085770
3.7157898 -4.3674841 -1.722278 4293729569
1.9717407 -3.5415492 -1.8536547 4288085770
3.6679993 -4.2734365 -1.7260629 4293729569
1.9139099 -3.4535193 -1.8474659 4288085770
3.6322327 -4.1844015 -1.7288502 4293729569
1.874115 -3.3744946 -1.8452846 4288085770
3.7103882 -4.15241 -1.7536863 4293729569
1.859314 -3.3084781 -1.8481151 4288085770
3.8765564 -4.1584573 -1.7935439 4293729569
1.8265076 -3.2344627 -1.8449413 4288085770
4.0527039 -4.1665106 -1.8343974 4288085770
1.7966614 -3.1604478 -1.8427645 4288085770
4.1748962 -4.1465473 -1.8632251 4288085770
1.7648926 -3.0874388 -1.837592 4288085770
4.1810913 -4.0735407 -1.8700167 4288085770
1.7700806 -3.0304384 -1.8414291 4288085770
4.1423035 -3.9805226 -1.8657957 4288085770
1.7672729 -2.9714386 -1.8422683 4288085770
4.0505066 -3.8654861 -1.8505644 4288085770
1.7574463 -2.9084423 -1.8401026 4288085770
4.0057068 -3.7714741 -1.8423465 4288085770
1.7716064 -2.8564541 -1.8419451 4288085770
4.0028992 -3.6954775 -1.8421386 4288085770
1.7687683 -2.7964644 -1.8397814 4288085770
3.999115 -3.6204879 -1.8389341 4288085770
1.7879639 -2.7454822 -1.8416215 4288085770
3.9953003 -3.5444963 -1.8367273 4288085770
1.8091431 -2.6945019 -1.84346 4288085770
4.0075073 -3.474519 -1.8345212 4288085770
1.8253174 -2.642525 -1.8423003 4288085770
4.021698 -3.406544 -1.8323194 4288085770
1.8444519 -2.5915482 -1.8421408 4288085770
4.0418396 -3.3405735 -1.8301171 4288085770
1.8646545 -2.540575 -1.8409799 4288085770
4.0800476 -3.2806141 -1.8299142 4288085770
1.8948059 -2.493609 -1.8408214 4288085770
4.1112061 -3.2186546 -1.8277131 4288085770
1.9249878 -2.4466438 -1.8396622 4288085770
4.1654053 -3.1637061 -1.8285087 4288085770
1.9641724 -2.4006832 -1.8404974 4288085770
4.2315674 -3.1117663 -1.8303016 4288085770
2.0023193 -2.3557267 -1.8393365 4288085770
4.2947388 -3.05883 -1.8300947 4288085770
2.0374451 -2.3087704 -1.8371726 4288085770
4.3719177 -3.0109034 -1.8308884 4288085770
2.0956421 -2.2688236 -1.8390063 4288085770
4.4460754 -2.9609773 -1.8306791 4288085770
2.1318359 -2.2218723 -1.8348416 4288085770
4.5232544 -2.9100559 -1.8294643 4288085770
2.1989746 -2.1839316 -1.8376726 4288085770
4.6063843 -2.8601413 -1.8282467 4288085770
2.268158 -2.145997 -1.8385011 4288085770
4.7005615 -2.8132341 -1.827027 4288085770
2.3373108 -2.1080647 -1.8393306 4288085770
4.804718 -2.7683356 -1.8268033 4288085770
2.4014587 -2.0681307 -1.8381585 4288085770
4.9068909 -2.7234366 -1.8255812 4288085770
2.4675903 -2.0272019 -1.835982 4288085770
5.0050659 -2.6745448 -1.8203517 4288085770
2.5447998 -1.9892809 -1.834803 4288085770
5.1512451 -2.6376758 -1.8231102 4288085770
2.6159363 -1.9493592 -1.8316246 4288085770
5.2843933 -2.5968053 -1.8218697 4288085770
2.6990662 -1.9114435 -1.8304404 4288085770
5.4395447 -2.5599487 -1.8226196 4288085770
2.7902527 -1.875535 -1.8292536 4288085770
5.5847168 -2.5200918 -1.8203706 4288085770
2.8944092 -1.8416348 -1.8290602 4288085770
5.7518921 -2.48125 -1.8201035 4288085770
2.9805603 -1.8017299 -1.8248676 4288085770
5.9290466 -2.4454184 -1.8188351 4288085770
3.1067505 -1.771842 -1.8276643 4288085770
6.1202087 -2.4105992 -1.8185564 4288085770
3.2278442 -1.7379589 -1.8274552 4288085770
6.3423767 -2.3798013 -1.8202592 4288085770
3.3490295 -1.7040763 -1.8262454 4288085770
6.5615234 -2.3470056 -1.819959 4288085770
3.4772034 -1.6702023 -1.8250295 4288085770
6.7616577 -2.3082073 -1.8146607 4288085770
3.5723572 -1.6283212 -1.8148226 4288085770
7.0228271 -2.2784474 -1.8153287 4288085770
3.7285156 -1.5974631 -1.8165878 4288085770
7.2949524 -2.2476978 -1.8159844 4288085770
3.8596497 -1.5606055 -1.8103608 4288085770
7.6401367 -2.2299945 -1.8236057 4288085770
4.0388184 -1.5317659 -1.81311 4288085770
7.9372864 -2.1992764 -1.8212372 4288085770
4.1869812 -1.4949198 -1.8078667 4288085770
8.2884216 -2.174593 -1.8238338 4288085770
4.3651123 -1.4630933 -1.8056086 4288085770
8.6555786 -2.1489284 -1.8244125 4288085770
4.5632629 -1.4322791 -1.805334 4288085770
9.0677185 -2.1272986 -1.8279592 4288085770
4.7664185 -1.4014697 -1.8050548 4288085770
9.5078735 -2.1046984 -1.8294767 4288085770
4.995575 -1.3706837 -1.8047513 4288085770
10.01001 -2.0881412 -1.8359517 4288085770
5.2297363 -1.3399034 -1.8034424 4288085770
10.600159 -2.0776556 -1.8453597 4288085770
5.4968567 -1.3101463 -1.8051053 4288085770
11.135284 -2.0531478 -1.8447815 4288085770
5.77005 -1.2803979 -1.8057624 4288085770
11.743469 -2.0336969 -1.8471473 4288085770
6.0671692 -1.2496715 -1.8063937 4288085770
12.413605 -2.0153067 -1.8484572 4288085770
6.3893738 -1.218966 -1.8070015 4288085770
13.108734 -1.9929464 -1.8467325 4288085770
6.7194824 -1.187273 -1.8065988 4288085770
13.963898 -1.9817092 -1.8528854 4288085770
7.0996399 -1.1576166 -1.8091544 4288085770
14.877045 -1.968529 -1.8579777 4288085770
7.5088501 -1.1269846 -1.8116788 4288085770
7.9049683 -1.0913582 -1.8082024 4288085770
8.3731079 -1.0587845 -1.8096658 4288085770
8.8832703 -1.0262465 -1.8120891 4288085770
9.4184265 -0.99073458 -1.8124801 4288085770
10.045593 -0.95829678 -1.8167921 4288085770
10.672729 -0.91887856 -1.8140849 4288085770
11.424927 -0.88255072 -1.8192667 4288085770
12.166077 -0.83824062 -1.814437 4288085770
13.06723 -0.79705524 -1.8174635 4288085770
14.04538 -0.75094366 -1.8184029 4288085770
14.318207 1.926167 -1.7712899 4288085770
13.602386 1.9878016 -1.7668544 4288085770
12.909576 2.0444069 -1.7594091 4288085770
12.359741 2.1069055 -1.7608014 4288085770
11.741913 2.156435 -1.7502989 4288085770
11.283112 2.214848 -1.7506088 4288085770
10.849243 2.2732358 -1.7498935 4288085770
10.419403 2.3266149 -1.7471877 4288085770
10.013611 2.3779683 -1.7434629 4288085770
9.6167603 2.4263062 -1.7367376 4288085770
9.3019409 2.4825902 -1.7379063 4288085770
8.9781189 2.5338702 -1.7340976 4288085770
8.6702881 2.5841346 -1.7302758 4288085770
8.3674316 2.6313891 -1.7244569 4288085770
6.9815063 2.4105506 -0.94247854 4293729569
6.5251465 2.3995156 -1.5209807 4293729569
6.3425598 2.3820624 -0.91821182 4293729569
6.1532593 2.4157891 -1.4983176 4293729569
5.9376831 2.3883977 -0.90760958 4293729569
5.7833557 2.427053 -1.4736661 4293729569
5.5768127 2.3986964 -0.89895165 4293729569
5.3074341 2.4113679 -1.431197 4293729569
5.1999207 2.4010034 -0.88733184 4293729569
4.9645386 2.4186044 -1.4055289 4293729569
4.9180603 2.4182372 -0.88057387 4293729569
4.7006531 2.4377923 -1.3877472 4293729569
4.6671753 2.4374442 -0.87477863 4293729569
4.3807678 2.4410043 -1.3600661 4293729569
4.412323 2.4536529 -0.86799562 4293729569
4.0298767 2.4322286 -1.3264502 4293729569
4.187439 2.4728341 -0.86117375 4293729569
3.8439941 2.4583592 -1.3145694 4293729569
4.0006104 2.4979854 -0.85629642 4293729569
3.6491089 2.4784923 -1.2997142 4293729569
3.7887268 2.5151525 -0.84846699 4293729569
3.3131714 2.4626946 -1.2631019 4293729569
3.6568909 2.5492606 -0.8465091 4293729569
3.1893616 2.4957805 -1.2551383 4293729569
3.5490723 2.5893512 -0.84551013 4293729569
3.0925293 2.5348506 -1.2501308 4293729569
3.4482422 2.6274352 -0.84450924 4293729569
3.0136719 2.577908 -1.2470943 4293729569
3.378418 2.6754937 -0.84444964 4293729569
2.948822 2.6249576 -1.245032 4293729569
3.3265381 2.7275405 -0.84636056 4293729569
2.9060364 2.6759896 -1.2449366 4293729569
3.2897644 2.7815709 -0.84725058 4293729569
2.8681641 2.7280211 -1.2458335 4293729569
3.2529602 2.8366027 -0.84813774 4293729569
2.8333435 2.7820439 -1.2447218 4293729569
3.2141113 2.8906322 -0.84802997 4293729569
2.8025208 2.8350635 -1.2436084 4293729569
3.1832581 2.9466538 -0.84790885 4293729569
2.7756958 2.8910832 -1.2434827 4293729569
3.1644592 3.0056663 -0.84776676 4293729569
2.7518616 2.9470935 -1.2413543 4293729569
3.1336365 3.0606818 -0.84564793 4293729569
2.7320557 3.0041032 -1.240219 4293729569
3.1268311 3.1236806 -0.84448302 4293729569
3.1080017 3.1836839 -0.84133852 4293729569
2.7164307 3.1261001 -1.2379018 4293729569
3.1061707 3.2496743 -0.83916032 4293729569
3.0983276 3.3116679 -0.83599865 4293729569
3.0975037 3.3766513 -0.83182228 4293729569
2.7359924 3.3250556 -1.2333385 4293729569
3.1287231 3.4546123 -0.82957733 4293729569
2.7191467 3.3820443 -1.2262002 4293729569
3.1539307 3.5295749 -0.82634699 4293729569
2.7303162 3.4510198 -1.2230006 4293729569
3.1851196 3.6085305 -0.82209909 4293729569
2.7474976 3.5219893 -1.2187892 4293729569
3.2293091 3.6924758 -0.81882441 4293729569
2.7596741 3.5909581 -1.2135886 4293729569
3.2895508 3.7844071 -0.81551182 4293729569
2.7548828 3.6529326 -1.2044245 4293729569
3.3687134 3.8843217 -0.81215775 4293729569
2.7440796 3.7129102 -1.1942717 4293729569
3.4309692 3.9782443 -0.80683768 4293729569
2.7722473 3.7888627 -1.1880356 4293729569
3.453125 4.056191 -0.79660213 4293729569
2.7984314 3.8638148 -1.1808041 4293729569
2.8476257 3.950747 -1.1745163 4293729569
2.9148254 4.0446715 -1.1711911 4293729569
3.0250854 4.1595654 -1.1707641 4293729569
7.0215149 6.0973268 -1.6943744 4288085770
7.1998291 6.2771573 -1.6937007 4288085770
7.387085 6.464973 -1.6909963 4288085770
7.6344299 6.6827502 -1.6931485 4288085770
7.8647766 6.8965316 -1.6913286 4288085770
8.1611023 7.1462617 -1.6943432 4288085770
8.4034119 7.3720193 -1.6874784 4288085770
8.7017822 7.6287303 -1.6834718 4288085770
9.0741882 7.9273915 -1.685275 4288085770
14.179871 -0.3109498 -1.7996017 4288085770
12.878967 -0.3267684 -1.7980937 4288085770
11.72406 -0.3397212 -1.7964152 4288085770
10.675171 -0.3477788 -1.7916061 4288085770
9.754303 -0.35395002 -1.787649 4288085770
8.9114075 -0.35819483 -1.7835995 4288085770
8.1775513 -0.3625288 -1.783429 4288085770
7.5016479 -0.36491632 -1.7831887 4288085770
13.79248 -0.66363192 -1.8029224 4288085770
6.8727722 -0.36435652 -1.7788883 4288085770
12.516632 -0.64247274 -1.8012911 4288085770
6.3239136 -0.36386061 -1.7784985 4288085770
11.335754 -0.62040901 -1.7965516 4288085770
5.8040466 -0.36239338 -1.777074 4288085770
10.303925 -0.59947634 -1.7936486 4288085770
5.3141479 -0.35895634 -1.7746109 4288085770
9.3730469 -0.57864475 -1.7876331 4288085770
4.8972778 -0.3565731 -1.7770692 4288085770
8.5651855 -0.56091309 -1.7864884 4288085770
4.4794312 -0.35220194 -1.7745231 4288085770
7.839325 -0.54325914 -1.784252 4288085770
4.1215515 -0.3498683 -1.7789155 4288085770
7.1714478 -0.52565622 -1.7829515 4288085770
3.7756653 -0.3455534 -1.7802895 4288085770
6.5505981 -0.5081048 -1.7785982 4288085770
3.4517822 -0.34026146 -1.7806362 4288085770
6.0027466 -0.49161148 -1.777166 4288085770
3.1609192 -0.33499146 -1.7839459 4288085770
5.5088806 -0.47616339 -1.7776765 4288085770
2.8861084 -0.32973242 -1.7882375 4288085770
5.0469971 -0.46074915 -1.7761511 4288085770
2.6112366 -0.32348824 -1.7875272 4288085770
4.6391296 -0.44637775 -1.7775682 4288085770
2.3333435 -0.31425476 -1.7818125 4288085770
4.248291 -0.4310236 -1.7779635 4288085770
2.1104736 -0.30904388 -1.7860464 4288085770
3.8944397 -0.41770029 -1.7793232 4288085770
1.8766174 -0.3008399 -1.7842852 4288085770
3.5605774 -0.40339899 -1.7796577 4288085770
1.659729 -0.29264927 -1.7835051 4288085770
3.2527161 -0.38911819 -1.7809631 4288085770
1.467865 -0.28546667 -1.7876991 4288085770
2.9688416 -0.37585831 -1.7832445 4288085770
1.2700195 -0.27729321 -1.7868978 4288085770
2.710022 -0.36361456 -1.7875005 4288085770
1.078125 -0.26812744 -1.7850875 4288085770
2.4221191 -0.34737444 -1.780779 4288085770
0.90228271 -0.25897169 -1.7852587 4288085770
2.1802673 -0.33415556 -1.7820135 4288085770
0.74041748 -0.25082445 -1.7864171 4288085770
1.9523926 -0.32094765 -1.7832326 4288085770
0.57754517 -0.24068356 -1.7855715 4288085770
1.726532 -0.30575085 -1.7814444 4288085770
0.42068481 -0.23154688 -1.7847215 4288085770
1.5276794 -0.29257202 -1.782631 4288085770
0.27578735 -0.22242022 -1.7848588 4288085770
1.323822 -0.27939415 -1.7808231 4288085770
0.14193726 -0.21329927 -1.7859834 4288085770
1.1399536 -0.26523018 -1.7809902 4288085770
0.027099609 -0.20518255 -1.7920891 4288085770
0.97409058 -0.25307846 -1.7831432 4288085770
0.81323242 -0.23993063 -1.7852875 4288085770
0.63735962 -0.22479057 -1.7794431 4288085770
0.5085144 -0.21365786 -1.7865568 4288085770
0.34661865 -0.19952869 -1.7817 4288085770
0.21078491 -0.186409 -1.7818164 4288085770
0.077911377 -0.17329502 -1.7809297 4288085770
-0.041900635 -0.16018105 -1.7830328 4288085770
0.040222168 1.8329492 -1.7383486 4288085770
0.16638184 1.8568258 -1.738135 4288085770
0.2795105 1.8736987 -1.7319554 4288085770
0.42364502 1.8995619 -1.7327148 4288085770
0.57684326 1.9254217 -1.7354637 4288085770
0.71994019 1.9472742 -1.7322353 4288085770
0.88314819 1.9731226 -1.7339724 4288085770
1.0442505 1.9979634 -1.732715 4288085770
0.064117432 1.7618847 -1.7384979 4288085770
1.2154541 2.0227981 -1.7324451 4288085770
0.1942749 1.77776 -1.7393006 4288085770
1.3865662 2.0456276 -1.7301809 4288085770
0.3263855 1.7936296 -1.7381014 4288085770
1.5837097 2.0744481 -1.73287 4288085770
0.46554565 1.8094969 -1.7388932 4288085770
1.7718811 2.0992637 -1.7315804 4288085770
0.6206665 1.8273549 -1.7416617 4288085770
2.0220337 2.1360512 -1.7411855 4288085770
0.76580811 1.8412113 -1.7404519 4288085770
2.2111816 2.1568537 -1.7349051 4288085770
0.90994263 1.8530636 -1.737249 4288085770
2.4302979 2.1816373 -1.7325789 4288085770
1.0761108 1.868906 -1.7380091 4288085770
2.6664734 2.2094111 -1.7322243 4288085770
1.2382507 1.881743 -1.7357823 4288085770
2.9126282 2.2361741 -1.7308608 4288085770
1.4143677 1.8965759 -1.7365333 4288085770
3.1707764 2.2629256 -1.729483 4288085770
1.5945129 1.9104028 -1.7362825 4288085770
3.4389038 2.2906632 -1.727091 4288085770
1.798645 1.9272137 -1.7389952 4288085770
3.730072 2.319387 -1.726669 4288085770
2.0278015 1.9480138 -1.7456678 4288085770
4.0452271 2.3510928 -1.7282103 4288085770
2.1989136 1.9538298 -1.7384487 4288085770
4.365387 2.3797841 -1.7267541 4288085770
2.4070435 1.9646249 -1.7361726 4288085770
4.7175293 2.4124532 -1.7272493 4288085770
2.6252136 1.9754124 -1.7348849 4288085770
5.1056824 2.4490952 -1.7306913 4288085770
2.8643494 1.9881873 -1.735567 4288085770
5.4858704 2.479733 -1.7291585 4288085770
3.10849 1.9999557 -1.7362455 4288085770
5.894989 2.512342 -1.7275864 4288085770
3.3586121 2.0097141 -1.7349225 4288085770
6.1810913 2.5160069 -1.7042369 4288085770
3.6217346 2.0184603 -1.7335869 4288085770
6.0950928 2.4448743 -1.6275259 4293729569
3.8908997 2.0261984 -1.7312466 4288085770
6.0820618 2.3887019 -1.5616893 4293729569
4.1950073 2.0369163 -1.7338573 4288085770
6.4071655 2.3923335 -1.5402933 4293729569
4.5091248 2.04562 -1.7344612 4288085770
4.8272705 2.0523152 -1.733066 4288085770
9.0419617 2.7283759 -1.7252795 4288085770
5.1934204 2.0629802 -1.7376033 4288085770
9.7341614 2.7707305 -1.7273461 4288085770
5.5325317 2.0636492 -1.7341992 4288085770
10.500305 2.8180203 -1.7303122 4288085770
5.9107056 2.0672913 -1.7337404 4288085770
11.311462 2.8632636 -1.7322303 4288085770
6.3237915 2.071907 -1.7362384 4288085770
12.189667 2.9094453 -1.7330664 4288085770
6.7679749 2.0774951 -1.7386965 4288085770
13.201843 2.9645114 -1.7387205 4288085770
7.2340698 2.0790615 -1.7411398 4288085770
14.22702 3.0115466 -1.7373804 4288085770
7.709198 2.0776172 -1.7425803 4288085770
8.2253113 2.0751348 -1.7439746 4288085770
8.7394409 2.0676465 -1.7423848 4288085770
9.3235474 2.0621052 -1.7457072 4288085770
9.9546814 2.0535183 -1.7479819 4288085770
10.601807 2.0399098 -1.7482508 4288085770
11.336945 2.0282359 -1.7544106 4288085770
12.095062 2.0085297 -1.7565645 4288085770
12.939148 1.9887528 -1.762617 4288085770
13.85025 1.9649138 -1.7686006 4288085770
14.776367 1.9320507 -1.7705907 4288085770
7.0391235 -4.951663 -0.1392386 4293729569
6.9882507 -5.0225358 -0.17049158 4293729569
6.9693298 -5.1064353 -0.20374215 4293729569
4.4417114 -4.7806978 0.0051323175 4293729569
4.4353943 -4.7872367 -0.53089547 4293729569
4.4078064 -4.8305693 -0.033043981 4293729569
4.39151 -4.832098 -0.56906986 4293729569
4.3759155 -4.8804383 -0.072217822 4293729569
4.3586426 -4.8819675 -0.60824513 4293729569
4.3960571 -4.9563498 -0.11440027 4293729569
4.3457336 -4.9408474 -0.6504209 4293729569
8.4498596 -7.7597523 -1.3881978 4293729569
8.1911011 -7.6913843 -1.4363211 4293729569
8.1423035 -7.6972594 -0.73239243 4293729569
7.945343 -7.6260366 -1.4814371 4293729569
7.9685669 -7.6679306 -0.79552042 4293729569
7.6965942 -7.5536871 -1.5265375 4293729569
7.75177 -7.6075802 -0.85161555 4293729569
7.5108032 -7.5133786 -1.5776502 4293729569
3.1091919 -4.8678885 -0.60169756 4293729569
3.0898132 -4.8915462 -1.0887874 4293729569
3.063385 -4.8807316 -0.6457876 4293729569
3.0369873 -4.9023876 -1.13088 4293729569
3.0265198 -4.8985829 -0.68988073 4293729569
3.0131531 -4.9312463 -1.1769875 4293729569
3.0026855 -4.922441 -0.73597407 4293729569
2.9892883 -4.9571047 -1.2230867 4293729569
2.987854 -4.9493046 -0.7830652 4293729569
2.9754639 -4.9879608 -1.2731875 4293729569
2.9720154 -4.9751654 -0.83115494 4293729569
2.9845886 -5.0328307 -1.3262991 4293729569
2.9751282 -5.0100398 -0.88024676 4293729569
2.9907532 -5.072701 -1.3784007 4293729569
2.9743042 -5.0409069 -0.93133199 4293729569
3.0198975 -5.1265759 -1.4365128 4293729569
2.9944458 -5.0837874 -0.98442495 4293729569
4.543457 -6.1421485 -1.7564615 4293729569
6.6169128 -7.4368734 -1.4765114 4293729569
4.09375 -5.8877802 -1.7383062 4293729569
6.5291748 -7.4166274 -1.5385612 4293729569
3.7140808 -5.6734552 -1.7281755 4293729569
6.464386 -7.4093962 -1.6036197 4293729569
1.7470093 -4.412487 -1.4040881 4293729569
6.4075623 -7.4031715 -1.6686713 4293729569
1.7082214 -4.4083514 -1.4421235 4293729569
6.4077454 -7.4309735 -1.7437476 4293729569
2.6959839 -5.0816026 -1.6947793 4293729569
6.0881042 -7.2466125 -1.7676274 4293729569
2.4412537 -4.9323735 -1.6926769 4293729569
5.6154785 -6.9581833 -1.7634062 4293729569
2.2684937 -4.8351808 -1.7056187 4293729569
5.1758728 -6.6857829 -1.7601894 4293729569
2.087738 -4.7299881 -1.7155482 4293729569
4.7772217 -6.4364204 -1.7569858 4293729569
1.8809509 -4.6047969 -1.7164544 4293729569
4.3965759 -6.1960788 -1.752786 4293729569
1.56427 -4.4025793 -1.6882812 4293729569
1.750824 -4.4537468 -1.3261963 4293729569
1.4884644 -4.3594403 -1.7152544 4293729569
1.7210083 -4.4376183 -1.3651882 4293729569
1.3496704 -4.2722902 -1.7241827 4293729569
1.7171936 -4.4365029 -1.4081899 4293729569
1.2138977 -4.1851406 -1.7341076 4293729569
1.9282837 -4.5764713 -1.4953197 4293729569
1.0670776 -4.0880003 -1.7370185 4293729569
0.9992981 -4.042882 -1.7589763 4293729569
2.121582 -4.6983156 -1.6234218 4293729569
0.99746704 -4.0407734 -1.7999731 4293729569
1.7059021 -4.4160576 -1.5761489 4293729569
1.0016479 -4.0396709 -1.8409654 4288085770
1.6371155 -4.3629274 -1.6020862 4293729569
0.97384644 -4.015564 -1.8729333 4288085770
1.7862549 -4.4518695 -1.6771511 4293729569
0.87005615 -3.9384518 -1.8798467 4288085770
1.7854309 -4.4387627 -1.7181162 4293729569
0.7442627 -3.8453388 -1.8797432 4288085770
1.6296692 -4.3226156 -1.7199858 4293729569
0.61846924 -3.7512312 -1.877637 4288085770
1.4909363 -4.2164793 -1.7238621 4293729569
0.43771362 -3.6181285 -1.8544899 4288085770
1.3701172 -4.1203523 -1.7307445 4293729569
0.32788086 -3.5310328 -1.8533837 4288085770
1.293335 -4.0522442 -1.7456504 4293729569
0.23110962 -3.4529481 -1.8532864 4288085770
1.3235168 -4.0511642 -1.7876116 4293729569
0.13528442 -3.3728683 -1.8511823 4288085770
1.3616943 -4.0530858 -1.8315715 4288085770
0.035491943 -3.2907906 -1.8470777 4288085770
1.3728943 -4.0370035 -1.8675143 4288085770
1.2811279 -3.9519033 -1.8743917 4288085770
1.1632996 -3.8518066 -1.8712596 4288085770
1.0395203 -3.7457137 -1.864118 4288085770
0.90075684 -3.631624 -1.8509723 4288085770
0.80395508 -3.5415463 -1.8478421 4288085770
0.71313477 -3.4554744 -1.844716 4288085770
0.63034058 -3.3734071 -1.8425909 4288085770
0.55953979 -3.2983458 -1.8424705 4288085770
0.48571777 -3.2222905 -1.8393513 4288085770
0.42892456 -3.1552372 -1.8412358 4288085770
0.35812378 -3.0791888 -1.8361126 4288085770
0.31832886 -3.0211453 -1.8400015 4288085770
0.27450562 -2.9611073 -1.8408898 4288085770
0.22668457 -2.8980701 -1.839775 4288085770
0.17889404 -2.8350368 -1.8376597 4288085770
0.14505005 -2.7790103 -1.8375469 4288085770
0.10922241 -2.7219851 -1.8364338 4288085770
0.076385498 -2.6669633 -1.8353227 4288085770
0.044555664 -2.6119432 -1.8332103 4288085770
0.021759033 -2.5619264 -1.8331004 4288085770
0.00091552734 -2.5129135 -1.8329917 4288085770
-0.014923096 -2.4659047 -1.832882 4288085770
-0.028747559 -2.4188964 -1.8327698 4288085770
-0.038574219 -2.3748925 -1.8326608 4288085770
-0.037078857 -2.0079629 -1.825653 4288085770
-0.019989014 -1.9749813 -1.826542 4288085770
0.0021972656 -1.9430063 -1.8274277 4288085770
0.014343262 -1.9060318 -1.8243116 4288085770
0.034515381 -1.8730569 -1.8241967 4288085770
0.056640625 -1.8400857 -1.8230797 4288085770
0.083862305 -1.8081172 -1.8229591 4288085770
0.11001587 -1.7771502 -1.8218423 4288085770
0.15414429 -1.7511902 -1.8247184 4288085770
0.20031738 -1.7262292 -1.8285943 4288085770
0.22344971 -1.6922703 -1.8234729 4288085770
0.25259399 -1.6603141 -1.8193504 4288085770
0.30075073 -1.6343608 -1.821221 4288085770
0.34091187 -1.6064105 -1.8190957 4288085770
0.41104126 -1.5864635 -1.8259565 4288085770
0.45620728 -1.5585213 -1.8228256 4288085770
0.50537109 -1.5315776 -1.8216923 4288085770
0.56350708 -1.5066404 -1.8205537 4288085770
0.61965942 -1.4807024 -1.819415 4288085770
0.67178345 -1.4537692 -1.8152782 4288085770
0.743927 -1.4318409 -1.816131 4288085770
0.81008911 -1.4069123 -1.8149825 4288085770
0.85626221 -1.3759861 -1.8058418 4288085770
0.93435669 -1.3540697 -1.8046879 4288085770
1.0195007 -1.3331547 -1.8055276 4288085770
1.1026611 -1.3112431 -1.8043672 4288085770
-0.010009766 -1.0411644 -1.8119627 4288085770
1.1978149 -1.2913356 -1.8051976 4288085770
0.042144775 -1.0172367 -1.8058339 4288085770
1.2879639 -1.2684326 -1.8030263 4288085770
0.12530518 -1.0003133 -1.8086873 4288085770
1.3850708 -1.2475348 -1.8018516 4288085770
0.18844604 -0.97738981 -1.8045481 4288085770
1.5072632 -1.2306457 -1.805658 4288085770
0.26156616 -0.95647097 -1.8024021 4288085770
1.6123657 -1.2097611 -1.8024741 4288085770
0.34671021 -0.9375596 -1.8022479 4288085770
1.7265015 -1.189878 -1.8012818 4288085770
0.44683838 -0.92164516 -1.8070835 4288085770
1.8557129 -1.1720009 -1.8030766 4288085770
0.5289917 -0.90173864 -1.8039292 4288085770
1.981842 -1.1531305 -1.8018731 4288085770
0.61813354 -0.88183498 -1.8017672 4288085770
2.131958 -1.1362715 -1.8046457 4288085770
0.715271 -0.86293602 -1.800598 4288085770
2.3031006 -1.1224265 -1.8094012 4288085770
0.81039429 -0.8430419 -1.7974285 4288085770
2.4352417 -1.101573 -1.8041848 4288085770
0.94155884 -0.82915258 -1.8042322 4288085770
2.5953979 -1.0837317 -1.8039426 4288085770
1.0927124 -0.81727505 -1.8140174 4288085770
2.7585449 -1.0658998 -1.8016969 4288085770
1.1938477 -0.79539537 -1.807835 4288085770
2.923645 -1.0460753 -1.7974435 4288085770
1.3210144 -0.77852201 -1.8076352 4288085770
3.1168213 -1.0292621 -1.7981642 4288085770
1.4381409 -0.75865078 -1.8034393 4288085770
3.3339539 -1.0154705 -1.7998649 4288085770
1.5582886 -0.7377882 -1.797237 4288085770
3.526123 -0.99567366 -1.7945784 4288085770
1.7144165 -0.72093678 -1.7990023 4288085770
3.7522278 -0.97889805 -1.79326 4288085770
1.8485718 -0.70108175 -1.7947859 4288085770
3.9963684 -0.96413898 -1.792925 4288085770
2.0127258 -0.68424463 -1.7945415 4288085770
4.2655029 -0.94939661 -1.7945601 4288085770
2.2108154 -0.67042446 -1.800265 4288085770
4.5296631 -0.93266344 -1.7911955 4288085770
2.3789673 -0.65159988 -1.7970101 4288085770
4.8167725 -0.91694927 -1.7888063 4288085770
2.5501404 -0.63178301 -1.7917489 4288085770
5.1419373 -0.90226507 -1.7893742 4288085770
2.7522583 -0.61498451 -1.790459 4288085770
5.4940491 -0.88960457 -1.7899147 4288085770
2.9603882 -0.59719515 -1.788159 4288085770
5.8572083 -0.8749609 -1.788437 4288085770
3.1805725 -0.57941437 -1.7868444 4288085770
6.2683716 -0.86235476 -1.7899066 4288085770
3.4257202 -0.56265497 -1.7865027 4288085770
6.7204895 -0.85178375 -1.7933327 4288085770
3.6798401 -0.54490757 -1.7851473 4288085770
7.1856384 -0.83824062 -1.7907346 4288085770
3.9519958 -0.52717733 -1.7837704 4288085770
7.7207642 -0.82675171 -1.7930583 4288085770
4.2541199 -0.51046944 -1.7843603 4288085770
8.3108826 -0.81731224 -1.796321 4288085770
4.5682678 -0.49277639 -1.7839323 4288085770
8.9280396 -0.80491209 -1.7945431 4288085770
4.8994141 -0.47510767 -1.7804846 4288085770
9.6211853 -0.79457378 -1.7966794 4288085770
5.2625122 -0.45746279 -1.7799982 4288085770
10.445312 -0.78835058 -1.8026692 4288085770
5.6676941 -0.43985415 -1.780461 4288085770
11.307465 -0.77817822 -1.8036021 4288085770
6.0878601 -0.42026806 -1.7779001 4288085770
12.299591 -0.76913071 -1.8043817 4288085770
6.5969849 -0.40374565 -1.7832409 4288085770
13.449738 -0.76421738 -1.8109823 4288085770
7.1071472 -0.38424301 -1.7815698 4288085770
14.630859 -0.75237083 -1.8035241 4288085770
7.7012634 -0.36580944 -1.7838031 4288085770
8.3374023 -0.34641647 -1.785983 4288085770
9.0255432 -0.32508087 -1.7850949 4288085770
9.8266907 -0.30484486 -1.7880737 4288085770
10.716888 -0.28368855 -1.7919427 4288085770
11.769012 -0.26267958 -1.7996172 4288085770
12.873169 -0.23674393 -1.798215 4288085770
14.164307 -0.2099762 -1.8005856 4288085770
6.8312378 2.4946408 -0.76566577 4293729569
6.4053345 2.501965 -0.73616302 4293729569
6.0174255 2.5102572 -0.70861137 4293729569
5.7115479 2.5304799 -0.68492723 4293729569
5.3916626 2.543716 -0.66027904 4293729569
5.0467224 2.5459666 -0.6326921 4293729569
4.8178711 2.5691247 -0.61190569 4293729569
4.5959778 2.5922761 -0.59111106 4293729569
4.3551025 2.6064391 -0.56836414 4293729569
4.2012329 2.6385303 -0.54946172 4293729569
4.175415 2.7015166 -0.53731728 4293729569
4.1745911 2.7704806 -0.52612591 4293729569
4.2197571 2.8534055 -0.5168401 4293729569
4.177948 2.9113955 -0.50072885 4293729569
4.1931458 2.9873385 -0.48749864 4293729569
4.2303162 3.0662608 -0.47423351 4293729569
4.2805176 3.1521678 -0.4599328 4293729569
4.2706909 3.2191243 -0.44275796 4293729569
4.3308411 3.3080134 -0.42643714 4293729569
4.3970337 3.4008994 -0.41009748 4293729569
4.4612427 3.4927821 -0.39176309 4293729569
4.4884338 3.5726905 -0.37050724 4293729569
4.5596313 3.66956 -0.35015035 4293729569
4.6608276 3.7764001 -0.32972932 4293729569
4.7840576 3.8932166 -0.30825377 4293729569
13.991028 0.068141937 -1.7923599 4288085770
12.630188 0.067471504 -1.7930368 4288085770
11.379303 0.068673611 -1.7865738 4288085770
10.2724 0.07073307 -1.7799309 4288085770
9.3285217 0.074644566 -1.7770816 4288085770
8.4776611 0.078462601 -1.7731184 4288085770
7.7427673 0.083173752 -1.7720102 4288085770
14.264801 0.022801876 -1.7841393 4288085770
7.0678711 0.088819981 -1.7688252 4288085770
12.87793 0.03616333 -1.7868098 4288085770
6.4480286 0.094412804 -1.7655724 4288085770
11.590088 0.051400661 -1.7793533 4288085770
5.9241638 0.10092497 -1.7671992 4288085770
10.480194 0.065466404 -1.7736813 4288085770
5.4193115 0.10741043 -1.7658025 4288085770
9.544342 0.078379154 -1.7737976 4288085770
4.9654236 0.11385059 -1.7663435 4288085770
8.6724854 0.092214584 -1.7688333 4288085770
4.5495605 0.12125111 -1.7658347 4288085770
7.9296265 0.1049428 -1.7707123 4288085770
4.1686707 0.12862539 -1.768283 4288085770
7.2297363 0.11761189 -1.7665387 4288085770
3.8218384 0.13696671 -1.7706865 4288085770
6.6098938 0.13020802 -1.7642673 4288085770
3.4989319 0.14428377 -1.7730638 4288085770
6.04599 0.14274836 -1.7619268 4288085770
3.2080994 0.15257645 -1.7773985 4288085770
5.5641479 0.1542244 -1.765488 4288085770
2.9102173 0.16085815 -1.7757419 4288085770
5.0982971 0.16667318 -1.7640272 4288085770
2.6093445 0.17012882 -1.7690865 4288085770
4.6774292 0.1780777 -1.7635134 4288085770
2.3684998 0.17836857 -1.7723597 4288085770
4.3055725 0.19044399 -1.765937 4288085770
2.1236572 0.18760109 -1.7716354 4288085770
3.9476929 0.20179081 -1.7663459 4288085770
1.9057617 0.19681311 -1.7728778 4288085770
3.6158447 0.2131114 -1.766723 4288085770
1.6868896 0.20601702 -1.7711216 4288085770
3.3149719 0.22540426 -1.7680594 4288085770
1.5010376 0.21520233 -1.7743248 4288085770
3.0291138 0.23668385 -1.7693795 4288085770
1.3081665 0.22438335 -1.7735363 4288085770
2.7542419 0.24894571 -1.768684 4288085770
1.1343079 0.23355484 -1.775725 4288085770
2.4873657 0.25919437 -1.7659839 4288085770
0.96743774 0.24371672 -1.7769018 4288085770
2.2635193 0.27141762 -1.7692257 4288085770
0.78857422 0.25387621 -1.7730936 4288085770
2.0316772 0.28363752 -1.7684768 4288085770
0.64471436 0.26301813 -1.7752451 4288085770
1.816803 0.29484081 -1.7677101 4288085770
0.49984741 0.27315712 -1.776395 4288085770
1.6199646 0.30703211 -1.7689184 4288085770
0.36297607 0.28328896 -1.7775353 4288085770
1.4240723 0.31921339 -1.7671257 4288085770
0.23510742 0.29341507 -1.7796644 4288085770
1.2502441 0.33038139 -1.7683083 4288085770
0.1022644 0.30353785 -1.7787997 4288085770
1.0883789 0.34253883 -1.7694739 4288085770
-0.020629883 0.31465054 -1.7779199 4288085770
0.93447876 0.35469007 -1.7716295 4288085770
0.77160645 0.36683702 -1.7687961 4288085770
0.63677979 0.37896967 -1.7709283 4288085770
0.49090576 0.39009905 -1.7680768 4288085770
0.36004639 0.4022193 -1.7672042 4288085770
0.2461853 0.41433668 -1.7713104 4288085770
0.1333313 0.42644548 -1.7724153 4288085770
0.014465332 0.4385519 -1.7705277 4288085770
-0.022216797 2.6078496 -1.7204834 4288085770
0.10290527 2.6497264 -1.7222115 4288085770
0.22109985 2.6865973 -1.7199615 4288085770
0.34823608 2.7264619 -1.7186929 4288085770
0.48242188 2.7673211 -1.7184123 4288085770
0.62658691 2.811172 -1.7181109 4288085770
0.77975464 2.8570218 -1.7207929 4288085770
0.9269104 2.8988671 -1.7194937 4288085770
1.0621033 2.9337068 -1.7122284 4288085770
0.078826904 2.5557199 -1.7264999 4288085770
1.229248 2.9795384 -1.7128931 4288085770
0.18692017 2.5785918 -1.7213019 4288085770
1.3944397 3.0233626 -1.7105659 4288085770
0.32907104 2.6144567 -1.7250251 4288085770
1.5785828 3.0721755 -1.7112011 4288085770
0.44921875 2.6403203 -1.7208039 4288085770
1.7617798 3.1179843 -1.7098459 4288085770
0.58239746 2.6691794 -1.7195576 4288085770
1.9579163 3.1677833 -1.7094637 4288085770
0.73855591 2.705029 -1.7232639 4288085770
2.1911621 3.2295623 -1.7150019 4288085770
0.88470459 2.7348742 -1.721999 4288085770
2.3912659 3.2753472 -1.7116257 4288085770
1.0388489 2.7677178 -1.722716 4288085770
2.6214905 3.3301158 -1.7121872 4288085770
1.1980286 2.798553 -1.7224323 4288085770
2.8526611 3.382875 -1.7107531 4288085770
1.3611755 2.8303857 -1.7221407 4288085770
3.0988159 3.4376235 -1.7102948 4288085770
1.5283508 2.8602099 -1.7208499 4288085770
2.8727112 3.3125739 -1.6139225 4293729569
1.7064819 2.8920274 -1.7205397 4288085770
2.3434448 3.0766778 -1.4642342 4293729569
1.8956604 2.925838 -1.7222105 4288085770
2.3874817 3.054523 -1.4262406 4293729569
2.0617981 2.9486499 -1.7159404 4288085770
2.3575439 3.0054078 -1.3764132 4293729569
2.2829895 2.9894395 -1.7215518 4288085770
2.3525085 2.9642816 -1.3315336 4293729569
2.4490967 3.0072436 -1.7122957 4288085770
2.3505554 2.9231563 -1.28765 4293729569
2.6672363 3.0410256 -1.7139305 4288085770
2.3605957 2.886024 -1.2457398 4293729569
2.8844299 3.0718007 -1.7125748 4288085770
2.3786316 2.851892 -1.2068118 4293729569
3.0925598 3.0955768 -1.7082497 4288085770
2.3986816 2.8167586 -1.1678842 4293729569
2.6513367 2.9016366 -1.5743362 4293729569
2.4357605 2.7866197 -1.1329211 4293729569
2.4382324 2.7856069 -1.4899224 4293729569
2.4567871 2.7504869 -1.0949949 4293729569
2.4683228 2.7504716 -1.453982 4293729569
2.6398926 2.7652564 -1.0797261 4293729569
2.517334 2.7203279 -1.4220046 4293729569
2.5708923 2.6991839 -1.030995 4293729569
2.5463867 2.6841969 -1.3870682 4293729569
2.6109314 2.6660409 -0.99603665 4293729569
2.5744324 2.6460652 -1.3521391 4293729569
2.678009 2.6408849 -0.96602285 4293729569
2.5714722 2.5989547 -1.3132731 4293729569
2.7530823 2.617723 -0.93699348 4293729569
2.6125183 2.5638194 -1.2813193 4293729569
2.867157 2.6025348 -0.91189325 4293729569
2.6885986 2.5386682 -1.2562941 4293729569
2.9952393 2.5903344 -0.88776767 4293729569
2.7556152 2.5085187 -1.2282943 4293729569
3.1263123 2.5771317 -0.86364138 4293729569
2.8487244 2.4853587 -1.2062422 4293729569
3.2653809 2.5649238 -0.84050167 4293729569
3.0088501 2.4781537 -1.192063 4293729569
3.4395142 2.5586867 -0.81930244 4293729569
3.2049255 2.4769244 -1.1818224 4293729569
3.6275635 2.5534339 -0.79808295 4293729569
3.3370361 2.4577365 -1.1637112 4293729569
3.7886963 2.5392041 -0.77492166 4293729569
3.5031128 2.4455247 -1.1485382 4293729569
3.8757629 2.5050302 -0.74590814 4293729569
3.7442322 2.449265 -1.1432279 4293729569
3.8987732 2.4539046 -0.71102095 4293729569
3.9473267 2.4400249 -1.1320008 4293729569
3.9548035 2.4097543 -0.67907345 4293729569
4.1644287 2.4317756 -1.1217536 4293729569
4.0638733 2.3775649 -0.65202677 4293729569
4.3895874 2.4225173 -1.111499 4293729569
5.0571899 2.5376525 -0.68134749 4293729569
4.6346436 2.4132419 -1.1022197 4293729569
5.3973083 2.5442643 -0.66490591 4293729569
4.908783 2.4079452 -1.0958935 4293729569
5.8224182 2.5658002 -0.65231729 4293729569
5.2038879 2.4026322 -1.090541 4293729569
6.17453 2.565393 -0.63388038 4293729569
5.5159912 2.3973002 -1.0851678 4293729569
5.8381042 2.3889613 -1.0807902 4293729569
6.3062744 2.4035087 -1.0871676 4293729569
14.113556 3.7245851 -1.7507955 4288085770
14.78067 3.7119088 -1.7480012 4288085770
12.760162 -2.5841434 -0.75698173 4293729569
12.417236 -2.6547892 -0.76360416 4293729569
12.356232 -2.7686784 -0.78399622 4293729569
12.2883 -2.8805592 -0.80439079 4293729569
12.328339 -3.0115297 -0.83170497 4293729569
14.55777 -5.7894053 -1.7146477 4293729569
12.526123 -5.2501822 -0.70767176 4293729569
13.460083 -5.5844107 -1.6804429 4293729569
12.5112 -5.3680134 -0.76501739 4293729569
12.494354 -5.4065251 -1.6541492 4293729569
12.441467 -5.5103216 -1.7105032 4293729569
12.030609 -5.4938612 -1.7309684 4293729569
11.31781 -5.3701844 -1.7205111 4293729569
10.735046 -5.28161 -1.7199894 4293729569
10.191223 -5.1980672 -1.7224332 4293729569
9.6464539 -5.1055355 -1.7198535 4293729569
9.133667 -5.0170317 -1.7192448 4293729569
8.6419067 -4.9305449 -1.7196158 4293729569
8.1671143 -4.8430791 -1.7189635 4293729569
7.7713013 -4.7786694 -1.726276 4293729569
14.818573 -7.5617852 -1.7002426 4293729569
7.3895264 -4.7142754 -1.732572 4293729569
13.827972 -7.2987971 -1.7017435 4293729569
6.9907227 -4.638875 -1.7358583 4293729569
12.866364 -7.0328503 -1.6992003 4293729569
6.4269409 -4.4893832 -1.7121438 4293729569
12.022705 -6.8020096 -1.7006081 4293729569
6.077179 -4.4200306 -1.7153858 4293729569
11.217041 -6.575212 -1.6999799 4293729569
5.7483521 -4.3536935 -1.72061 4293729569
10.481384 -6.3664818 -1.7003146 4293729569
5.4295654 -4.2883692 -1.724825 4293729569
9.8356934 -6.1858287 -1.7056156 4293729569
5.1397705 -4.230062 -1.733023 4293729569
7.0796204 -5.083766 -1.4589804 4293729569
4.9109192 -4.194797 -1.7482096 4293729569
7.021759 -5.1325583 -1.5151881 4293729569
4.7660828 -4.1925769 -1.7773834 4293729569
7.0188904 -5.201385 -1.5783824 4293729569
4.6082458 -4.1833525 -1.8035542 4293729569
7.4739075 -5.4774947 -1.704584 4293729569
4.4744263 -4.1811376 -1.8347143 4288085770
7.0601501 -5.3610539 -1.7167751 4293729569
4.3146057 -4.164916 -1.8588678 4288085770
6.5934448 -5.2145891 -1.7179483 4293729569
4.1108093 -4.1256757 -1.8740119 4288085770
6.1057129 -5.0521269 -1.7111031 4293729569
3.8229675 -4.0424051 -1.8701385 4288085770
5.7209778 -4.9307332 -1.7162441 4293729569
3.5631714 -3.9701509 -1.8702606 4288085770
5.3142395 -4.7943382 -1.7143706 4293729569
3.3043823 -3.8938994 -1.8693701 4288085770
4.924469 -4.6619587 -1.7124876 4293729569
3.0295715 -3.8056562 -1.8604668 4288085770
4.5577393 -4.534606 -1.7095896 4293729569
2.7667847 -3.7214177 -1.8535591 4288085770
4.2789612 -4.4453082 -1.7186881 4293729569
2.5369873 -3.6482012 -1.8506414 4288085770
3.9801636 -4.3420057 -1.7217728 4293729569
2.3191833 -3.5779946 -1.8487169 4288085770
3.7104187 -4.2497249 -1.7278513 4293729569
2.129364 -3.5198047 -1.8507913 4288085770
3.4636536 -4.1654606 -1.7359241 4293729569
1.9255371 -3.4506123 -1.848852 4288085770
3.3318176 -4.1372576 -1.7640096 4293729569
1.7387085 -3.3874331 -1.8479089 4288085770
3.2440186 -4.1280718 -1.801093 4293729569
1.5569458 -3.3242595 -1.8469588 4288085770
3.1641846 -4.1218944 -1.8381752 4288085770
1.3841248 -3.2630918 -1.8470038 4288085770
3.0413818 -4.0906992 -1.8662411 4288085770
1.2123108 -3.2009339 -1.8440443 4288085770
2.8225708 -4.0074749 -1.8702813 4288085770
1.049469 -3.1407795 -1.8430797 4288085770
2.5808105 -3.9082465 -1.8673061 4288085770
0.89663696 -3.0836329 -1.8431109 4288085770
2.3570251 -3.8160334 -1.8653282 4288085770
0.75186157 -3.0284922 -1.8431376 4288085770
2.103241 -3.7048185 -1.8533345 4288085770
0.60803223 -2.9713573 -1.8421577 4288085770
1.9054565 -3.6206293 -1.8523463 4288085770
0.46322632 -2.9122262 -1.8391732 4288085770
1.6986694 -3.5294421 -1.84735 4288085770
0.33636475 -2.8611028 -1.8401886 4288085770
1.5168457 -3.4492755 -1.8453535 4288085770
0.22253418 -2.8149891 -1.8432022 4288085770
1.348053 -3.3741117 -1.8453547 4288085770
0.086730957 -2.7548735 -1.838204 4288085770
1.1852417 -3.2999537 -1.8453513 4288085770
-0.022064209 -2.7087629 -1.8402113 4288085770
1.0234375 -3.2238057 -1.8423408 4288085770
0.8706665 -3.1516633 -1.8403307 4288085770
0.75485229 -3.0975356 -1.8463246 4288085770
0.62304688 -3.0324094 -1.8463079 4288085770
0.48422241 -2.9632843 -1.8432883 4288085770
0.35342407 -2.8951664 -1.8402621 4288085770
0.23556519 -2.8340566 -1.8392388 4288085770
0.12478638 -2.7739537 -1.8382095 4288085770
0.013946533 -2.7138538 -1.8361803 4288085770
-0.006652832 -0.4503684 -1.787891 4288085770
0.079498291 -0.43646622 -1.7857445 4288085770
0.1656189 -0.42156506 -1.7825953 4288085770
0.27075195 -0.40867329 -1.7834281 4288085770
0.37490845 -0.39477968 -1.7842592 4288085770
0.48605347 -0.38189602 -1.7840844 4288085770
0.60317993 -0.36901855 -1.7839023 4288085770
0.71130371 -0.3541398 -1.7807254 4288085770
0.85543823 -0.34327555 -1.7855154 4288085770
0.98260498 -0.33041334 -1.7833205 4288085770
-0.030212402 -0.21441126 -1.7812604 4288085770
1.1117249 -0.31655645 -1.7801207 4288085770
0.089904785 -0.20352459 -1.7850801 4288085770
1.2579041 -0.30370665 -1.7799021 4288085770
0.2010498 -0.19163847 -1.7859081 4288085770
1.4040222 -0.29086351 -1.7776839 4288085770
0.31118774 -0.17876244 -1.7827345 4288085770
1.5781555 -0.27903795 -1.7794336 4288085770
0.44033813 -0.16788864 -1.7855426 4288085770
1.7472839 -0.26721478 -1.7781893 4288085770
0.55749512 -0.15501833 -1.7823604 4288085770
1.9294434 -0.25440168 -1.7779261 4288085770
0.68460083 -0.14215612 -1.7801658 4288085770
2.1295776 -0.24360085 -1.7796458 4288085770
0.82373047 -0.1313014 -1.7799617 4288085770
2.3226929 -0.23080587 -1.7773694 4288085770
0.98687744 -0.12045527 -1.7847275 4288085770
2.5498657 -0.22003174 -1.7790552 4288085770
1.1360474 -0.1086154 -1.7825085 4288085770
2.7860107 -0.20827103 -1.7797278 4288085770
1.295166 -0.096782207 -1.7812766 4288085770
3.0421143 -0.19752455 -1.7823781 4288085770
1.4622803 -0.084957123 -1.7800349 4288085770
3.2842407 -0.18478203 -1.7780401 4288085770
1.648407 -0.074146271 -1.7807723 4288085770
3.5683899 -0.17407227 -1.7776555 4288085770
1.8385925 -0.063341141 -1.7805046 4288085770
3.8595276 -0.1623702 -1.7762593 4288085770
2.0367126 -0.051546574 -1.779224 4288085770
4.1616516 -0.15068626 -1.7728494 4288085770
2.2498474 -0.040765762 -1.7789279 4288085770
4.5078125 -0.14003754 -1.7723879 4288085770
2.4809875 -0.029998302 -1.7796093 4288085770
4.8699341 -0.12841034 -1.7699031 4288085770
2.7401123 -0.019257545 -1.7812558 4288085770
5.2780762 -0.11682463 -1.7693614 4288085770
2.9942322 -0.0085163116 -1.7809085 4288085770
5.7322083 -0.10727739 -1.7707678 4288085770
3.2513733 0.0032076836 -1.7755545 4288085770
6.2043152 -0.095757484 -1.7691466 4288085770
3.5585327 0.013900757 -1.7771412 4288085770
6.7434692 -0.086293697 -1.7714471 4288085770
3.8546448 0.024586678 -1.7727422 4288085770
7.3376465 -0.075887203 -1.7726763 4288085770
4.2017822 0.035235405 -1.7722789 4288085770
8.0107422 -0.066551208 -1.7768103 4288085770
4.565918 0.045863628 -1.7707943 4288085770
8.750885 -0.057288647 -1.7788604 4288085770
4.9510498 0.056465149 -1.767284 4288085770
9.5570068 -0.047097206 -1.7788259 4288085770
5.4011841 0.066017151 -1.7696954 4288085770
10.48819 -0.039019585 -1.7826411 4288085770
5.866333 0.076545238 -1.7680851 4288085770
11.576324 -0.030087948 -1.790258 4288085770
6.4034729 0.086013794 -1.7713884 4288085770
12.743469 -0.021257401 -1.7897767 4288085770
6.9856262 0.096431732 -1.7726327 4288085770
14.121582 -0.012629509 -1.7920328 4288085770
7.646759 0.10577965 -1.7767812 4288085770
8.3378906 0.11508036 -1.7748924 4288085770
9.1780396 0.12425756 -1.7818183 4288085770
10.081146 0.13335991 -1.7846659 4288085770
11.15332 0.14231157 -1.7933027 4288085770
12.352448 0.151124 -1.7977813 4288085770
13.703613 0.15978146 -1.8010706 4288085770
12.471008 -2.8092728 -0.37883782 4293729569
13.721344 0.41764736 -1.7913841 4288085770
12.370483 0.43300867 -1.7850188 4288085770
11.179596 0.44720793 -1.7784578 4288085770
10.164734 0.46123219 -1.7746788 4288085770
9.2818604 0.47613001 -1.7737337 4288085770
8.4660339 0.48894835 -1.768711 4288085770
7.7501526 0.50266743 -1.7655617 4288085770
14.418396 0.67387724 -1.7838184 4288085770
7.1262817 0.51630592 -1.7662987 4288085770
12.997528 0.68330669 -1.7755555 4288085770
6.5414429 0.5288887 -1.7619897 4288085770
11.794678 0.69252396 -1.7710229 4288085770
6.0225525 0.54141331 -1.7615994 4288085770
10.709808 0.70161438 -1.7653438 4288085770
5.5426941 0.55489969 -1.7611579 4288085770
9.7869263 0.71254778 -1.7624592 4288085770
5.1068115 0.56733751 -1.7596642 4288085770
8.9440613 0.72239637 -1.7584778 4288085770
4.7089539 0.57974195 -1.7601238 4288085770
8.223175 0.73312998 -1.7583429 4288085770
4.3280945 0.59211969 -1.7575625 4288085770
7.5672913 0.74378777 -1.7551275 4288085770
3.9952698 0.60446072 -1.7589413 4288085770
7.0004272 0.75637245 -1.7577962 4288085770
3.6913757 0.61777353 -1.7612816 4288085770
6.4275818 0.76493502 -1.7504832 4288085770
3.4025269 0.63106728 -1.7626036 4288085770
5.9537354 0.77741957 -1.7520367 4288085770
3.1296387 0.64334345 -1.7629086 4288085770
