# .PCD v0.7 - Point Cloud Data file format
VERSION 0.7
FIELDS x y z rgb
SIZE 4 4 4 4
TYPE F F F U
COUNT 1 1 1 1
WIDTH 1122
HEIGHT 1
VIEWPOINT 0 0 0 1 0 0 0
POINTS 1122
DATA ascii
8.6028748 5.773324 -1.7553251 4288085770
6.3526306 4.4973755 -1.7576005 4288085770
8.8107605 5.9575825 -1.7590919 4288085770
6.4496155 4.6004972 -1.7535093 4288085770
9.0186462 6.1438427 -1.7608604 4288085770
6.574585 4.7206526 -1.7553782 4288085770
9.2625427 6.3531475 -1.7645795 4288085770
6.7215576 4.8548298 -1.7592173 4288085770
9.4993896 6.5584488 -1.7643089 4288085770
6.8485107 4.9759903 -1.7570832 4288085770
9.7572327 6.7787762 -1.7640111 4288085770
7.0094604 5.1201878 -1.7599041 4288085770
10.06604 7.0321674 -1.7686434 4288085770
7.1743774 5.2663956 -1.7607188 4288085770
10.336853 7.2615147 -1.7633288 4288085770
7.339325 5.4116011 -1.7585325 4288085770
10.7276 7.5710068 -1.7708523 4288085770
7.525238 5.5708361 -1.7593179 4288085770
11.072357 7.8504505 -1.7664385 4288085770
7.716156 5.7330799 -1.7570961 4288085770
7.9580383 5.9293785 -1.7628055 4288085770
8.1929321 6.1206779 -1.7635241 4288085770
8.4527893 6.3280029 -1.7652085 4288085770
8.7526245 6.5613804 -1.770838 4288085770
9.04245 6.7877493 -1.7704809 4288085770
9.3682556 7.0371628 -1.7720745 4288085770
9.6950378 7.2855835 -1.7686648 4288085770
10.085846 7.5780773 -1.7731698 4288085770
10.518555 7.8976288 -1.7766178 4288085770
18.42691 -1.0537815 -1.8190889 4288085770
17.38504 -1.0781021 -1.8151886 4288085770
16.483246 -1.0992479 -1.8150055 4288085770
15.648376 -1.1183109 -1.8156881 4288085770
14.852509 -1.131321 -1.8132975 4288085770
14.166626 -1.1461992 -1.8166804 4288085770
13.480743 -1.1530685 -1.8130715 4288085770
12.889923 -1.1618247 -1.8152668 4288085770
12.356049 -1.1695099 -1.8193469 4288085770
18.546936 -1.7687607 -1.8351319 4288085770
11.825195 -1.1731868 -1.8184252 4288085770
17.412964 -1.7341952 -1.832478 4288085770
11.327301 -1.1738205 -1.8164392 4288085770
16.424103 -1.7054486 -1.8325224 4288085770
10.913452 -1.179358 -1.823277 4288085770
15.49115 -1.6736283 -1.8294559 4288085770
10.460571 -1.1759329 -1.8192031 4288085770
14.659241 -1.643681 -1.8271811 4288085770
10.089691 -1.177412 -1.8239572 4288085770
13.934326 -1.6196041 -1.8296831 4288085770
9.6968079 -1.173914 -1.8227611 4288085770
13.211395 -1.5885158 -1.824187 4288085770
9.355957 -1.1713538 -1.8254578 4288085770
12.605499 -1.5662904 -1.8264441 4288085770
9.0180664 -1.1667876 -1.8251507 4288085770
12.029602 -1.5420213 -1.826642 4288085770
8.7071533 -1.1621876 -1.8257885 4288085770
11.489716 -1.5167084 -1.8257673 4288085770
8.3972778 -1.1555834 -1.8244259 4288085770
11.007782 -1.4943242 -1.8277717 4288085770
8.1283875 -1.1519332 -1.8279772 4288085770
10.524872 -1.4689345 -1.823781 4288085770
7.84552 -1.1422944 -1.8255627 4288085770
10.128021 -1.4504476 -1.829608 4288085770
7.5996704 -1.1366134 -1.8280692 4288085770
9.7181091 -1.4269681 -1.8274662 4288085770
7.3657837 -1.1299181 -1.8305521 4288085770
9.3331909 -1.4044585 -1.8262727 4288085770
7.1239014 -1.1202269 -1.828054 4288085770
8.9933167 -1.3838954 -1.8279855 4288085770
6.9240112 -1.1144915 -1.8334665 4288085770
8.662384 -1.3633184 -1.8276803 4288085770
6.7061462 -1.1047716 -1.8329198 4288085770
8.3664856 -1.3447013 -1.8313017 4288085770
6.5152283 -1.0960226 -1.8353174 4288085770
8.0675659 -1.3230824 -1.8289318 4288085770
6.3303833 -1.087265 -1.837702 4288085770
7.7836914 -1.301445 -1.8285315 4288085770
6.1324768 -1.0745173 -1.8341177 4288085770
7.5617981 -1.2887406 -1.8369961 4288085770
5.9615784 -1.0657406 -1.8354743 4288085770
7.2919006 -1.2650814 -1.831569 4288085770
5.7636719 -1.0489893 -1.8278935 4288085770
7.0699768 -1.2463703 -1.8340397 4288085770
5.612793 -1.0401878 -1.8302093 4288085770
6.8540955 -1.2286515 -1.8364968 4288085770
5.4739075 -1.031374 -1.8345006 4288085770
6.6322021 -1.2079339 -1.8339691 4288085770
5.3160095 -1.0185766 -1.8318343 4288085770
6.4313049 -1.1891928 -1.8333969 4288085770
5.1741638 -1.0067616 -1.8321342 4288085770
6.2344055 -1.169446 -1.8328171 4288085770
5.0302429 -0.99394798 -1.83044 4288085770
6.0474854 -1.1496863 -1.8312173 4288085770
4.9023438 -0.98311806 -1.8317106 4288085770
5.8826294 -1.1329031 -1.8335693 4288085770
4.7834778 -0.97227764 -1.8349631 4288085770
5.7037048 -1.1121311 -1.8299541 4288085770
4.6515808 -0.9584465 -1.8312452 4288085770
5.5428162 -1.093339 -1.8292999 4288085770
5.3849182 -1.074542 -1.8276401 4288085770
5.2460022 -1.0567255 -1.8289402 4288085770
5.1051331 -1.038908 -1.8282444 4288085770
4.9602051 -1.0190916 -1.8245587 4288085770
4.8352966 -1.0022564 -1.8258297 4288085770
4.7104187 -0.98442078 -1.8251016 4288085770
4.6135254 -0.97055531 -1.8313124 4288085770
4.5063782 0.89736843 -1.7975376 4288085770
4.622467 0.91249943 -1.7973247 4288085770
4.7445984 0.9286375 -1.7981007 4288085770
4.8657227 0.94477558 -1.7968795 4288085770
5.0007935 0.96092892 -1.7976303 4288085770
5.1249084 0.97507286 -1.7944009 4288085770
5.257019 0.99022484 -1.7911568 4288085770
5.4041443 1.0063934 -1.7908845 4288085770
4.5483398 0.9003582 -1.7974656 4288085770
5.5612183 1.0225725 -1.7915924 4288085770
4.6734619 0.91249752 -1.7982321 4288085770
5.7213745 1.0387554 -1.7912946 4288085770
4.8005676 0.92464161 -1.7989948 4288085770
5.8884583 1.0549498 -1.7889833 4288085770
4.9326782 0.93579006 -1.799747 4288085770
6.0705872 1.072156 -1.7906432 4288085770
5.0538025 0.94393158 -1.7945175 4288085770
6.2596436 1.0893745 -1.7902899 4288085770
5.204895 0.95710087 -1.7982342 4288085770
6.4517822 1.104598 -1.7879283 4288085770
5.3500061 0.96626759 -1.7969587 4288085770
6.6528625 1.1208296 -1.7865505 4288085770
5.4941101 0.97543335 -1.7936857 4288085770
6.8729553 1.1380844 -1.7861366 4288085770
5.6602478 0.98662186 -1.7953713 4288085770
7.1170654 1.1573648 -1.7886775 4288085770
5.8283386 0.99681377 -1.7950521 4288085770
7.3561707 1.1746426 -1.7872264 4288085770
6.0074768 1.0070181 -1.7967112 4288085770
7.6352844 1.1949615 -1.7916996 4288085770
6.187561 1.0162249 -1.7953677 4288085770
7.9094238 1.2132797 -1.7911813 4288085770
6.3737183 1.0244408 -1.7930112 4288085770
8.1885071 1.2296066 -1.7886512 4288085770
6.5767822 1.0336742 -1.7936227 4288085770
8.4985962 1.2479677 -1.7880623 4288085770
6.8039246 1.043931 -1.797188 4288085770
8.8187256 1.2653427 -1.7854528 4288085770
7.019043 1.0511827 -1.7947743 4288085770
9.1497803 1.2817307 -1.7818215 4288085770
7.2471619 1.0584459 -1.793335 4288085770
9.5279236 1.3011723 -1.7821004 4288085770
7.4892883 1.0657263 -1.7918684 4288085770
9.9480286 1.3226595 -1.7842996 4288085770
7.7514038 1.0730305 -1.7923629 4288085770
10.365143 1.3411493 -1.781502 4288085770
8.0184937 1.0783396 -1.7908454 4288085770
10.84021 1.3627033 -1.7825937 4288085770
8.3156738 1.0856819 -1.7922714 4288085770
11.327362 1.3812752 -1.7796593 4288085770
8.600769 1.0880184 -1.7867157 4288085770
11.891418 1.4049358 -1.7805793 4288085770
8.9299011 1.0934 -1.7870777 4288085770
12.478546 1.4266233 -1.7804527 4288085770
9.2619934 1.095788 -1.7844305 4288085770
13.146637 1.4514046 -1.7821703 4288085770
9.6611328 1.1012478 -1.7886553 4288085770
13.854736 1.4742374 -1.780808 4288085770
10.046234 1.1036978 -1.7869048 4288085770
14.692841 1.5042143 -1.7871985 4288085770
10.476379 1.1061974 -1.7880664 4288085770
15.550934 1.528224 -1.7865446 4288085770
10.908508 1.1047029 -1.7852201 4288085770
16.560059 1.5584068 -1.7906013 4288085770
11.422638 1.1063013 -1.7882166 4288085770
17.70816 1.5917521 -1.7963893 4288085770
11.96875 1.1059361 -1.7911487 4288085770
18.99527 1.6272602 -1.8029079 4288085770
12.506897 1.1005678 -1.7880919 4288085770
13.104034 1.0952654 -1.7869198 4288085770
13.765167 1.0880394 -1.7866206 4288085770
14.526306 1.0809269 -1.7901266 4288085770
15.332458 1.06987 -1.7915406 4288085770
16.223602 1.055912 -1.7927859 4288085770
17.299805 1.0441637 -1.8036716 4288085770
18.384888 1.0214367 -1.8045294 4288085770
10.77594 -7.9247427 -0.7136119 4293729569
10.755188 -7.9178472 -0.78066283 4293729569
10.758453 -7.9229255 -0.84965545 4293729569
10.763672 -7.9270005 -0.91764575 4293729569
6.9232178 -5.2201242 -0.66175824 4293729569
6.9104004 -5.2071939 -0.70579845 4293729569
6.9096375 -5.2002497 -0.74980944 4293729569
6.928833 -5.2052851 -0.79577035 4293729569
6.9740906 -5.2252951 -0.84566623 4293729569
6.9712524 -5.2103519 -0.88868934 4293729569
10.987091 -7.9255915 -0.70525044 4293729569
6.9544373 -5.183423 -0.92975169 4293729569
11.020325 -7.9186344 -0.77219921 4293729569
6.9025574 -5.1305289 -0.96590763 4293729569
11.102631 -7.9406238 -0.84202474 4293729569
6.8987427 -5.1075788 -1.0079393 4293729569
11.110809 -7.9096842 -0.90604502 4293729569
6.7217407 -4.9638062 -1.0244272 4293729569
7.1203308 -5.1619644 -0.64846689 4293729569
6.7389526 -4.9528399 -1.0674093 4293729569
7.1335144 -5.1430006 -0.68946475 4293729569
6.7701416 -4.9488583 -1.1103575 4293729569
11.345642 -7.9386625 -1.1125875 4293729569
6.8583984 -4.9818215 -1.1631594 4293729569
8.8744812 -6.2412977 -0.93603498 4293729569
6.8375549 -4.9388895 -1.1972468 4293729569
8.9006958 -6.217329 -0.98601466 4293729569
9.541626 -6.7203245 -1.675283 4293729569
8.9378662 -6.198348 -1.0359683 4293729569
9.24646 -6.4786711 -1.6760969 4293729569
11.65564 -7.9276319 -1.3820362 4293729569
9.0644226 -6.3119011 -1.6906195 4293729569
8.8891296 -6.0725098 -1.1192002 4293729569
8.8493652 -6.1241617 -1.6972253 4293729569
8.7921753 -5.9606619 -1.1505041 4293729569
8.5922241 -5.9094582 -1.6929388 4293729569
8.0065613 -5.409503 -1.0935657 4293729569
8.4371948 -5.759654 -1.7033913 4293729569
8.0077209 -5.3625484 -1.129616 4293729569
8.0639343 -5.4710531 -1.6714001 4293729569
8.0198364 -5.319582 -1.1666415 4293729569
7.9789734 -5.3681793 -1.6906714 4293729569
8.052002 -5.2895947 -1.2046158 4293729569
7.8739624 -5.2513204 -1.7029948 4293729569
8.8479004 -5.7248511 -1.3486655 4293729569
7.8240662 -5.1694088 -1.7251775 4293729569
8.8700562 -5.6798749 -1.3866746 4293729569
7.678009 -5.0255847 -1.7266064 4293729569
8.6659851 -5.4961185 -1.390255 4293729569
7.5159607 -4.8747725 -1.7210722 4293729569
8.5049438 -5.3393183 -1.3977253 4293729569
7.414978 -4.760901 -1.7273841 4293729569
8.5641174 -5.3133001 -1.4356451 4293729569
7.3069458 -4.6430345 -1.7297134 4293729569
8.4721069 -5.1984291 -1.4499416 4293729569
7.2189941 -4.5361481 -1.7339935 4293729569
8.4372253 -5.115499 -1.4710977 4293729569
7.118988 -4.4232707 -1.7353027 4293729569
8.3381958 -4.9956303 -1.4804127 4293729569
7.1711426 -4.3982558 -1.7682333 4293729569
8.9168701 -5.2561092 -1.6000569 4293729569
7.2783203 -4.4031887 -1.8130298 4288085770
9.3863831 -5.4476938 -1.7029781 4293729569
7.3895569 -4.4081182 -1.8578184 4288085770
9.2553711 -5.3028526 -1.7043793 4293729569
7.4277039 -4.3701124 -1.8847895 4288085770
9.1343079 -5.1649995 -1.7047548 4293729569
7.35672 -4.2702017 -1.88503 4288085770
9.0553284 -5.0491047 -1.7110279 4293729569
7.264679 -4.1603079 -1.8793209 4288085770
8.9903564 -4.9431949 -1.7182643 4293729569
7.1907043 -4.0603967 -1.8755662 4288085770
8.9223328 -4.8352871 -1.7235084 4293729569
7.1296997 -3.9674726 -1.873781 4288085770
8.8643494 -4.7323675 -1.7287283 4293729569
7.0617371 -3.8725524 -1.8690102 4288085770
8.8034058 -4.6294465 -1.7309537 4293729569
7.0107422 -3.7866158 -1.8661981 4288085770
8.7564087 -4.533514 -1.7351456 4293729569
6.9757996 -3.7086658 -1.8673477 4288085770
8.8215332 -4.4924736 -1.75807 4293729569
6.9328308 -3.6277194 -1.8645153 4288085770
8.98172 -4.4963446 -1.7987695 4293729569
6.9118652 -3.557754 -1.8666303 4288085770
9.1409302 -4.4972129 -1.8364739 4288085770
6.8808899 -3.4827967 -1.8647692 4288085770
9.2881165 -4.4880934 -1.8722117 4288085770
6.8519287 -3.4088345 -1.8619032 4288085770
9.2881775 -4.4101095 -1.8782966 4288085770
6.8439941 -3.3458529 -1.8629861 4288085770
9.2411499 -4.3121676 -1.8744907 4288085770
6.8410645 -3.2838669 -1.8650589 4288085770
9.2171936 -4.225203 -1.87363 4288085770
6.8330688 -3.2218833 -1.864141 4288085770
9.1601868 -4.1232681 -1.8648467 4288085770
6.8071289 -3.1499157 -1.8582671 4288085770
9.1322327 -4.0353045 -1.8609946 4288085770
6.8162231 -3.0949154 -1.8593099 4288085770
9.1332397 -3.9603128 -1.8610744 4288085770
6.8122559 -3.0339255 -1.8573835 4288085770
9.1272888 -3.8823256 -1.8581707 4288085770
6.8182983 -2.9769254 -1.8554344 4288085770
9.1423035 -3.8133197 -1.8592181 4288085770
6.8163757 -2.9159322 -1.8515038 4288085770
9.1483765 -3.7393188 -1.8562877 4288085770
6.8454285 -2.8689117 -1.8545012 4288085770
9.1654358 -3.6703072 -1.8543315 4288085770
6.8615112 -2.8158994 -1.8525288 4288085770
9.1944885 -3.6062827 -1.8533478 4288085770
6.8825989 -2.764883 -1.8515449 4288085770
9.2415466 -3.5472403 -1.855325 4288085770
6.9066467 -2.7138643 -1.8505557 4288085770
9.2825928 -3.4862032 -1.8543155 4288085770
6.9356995 -2.6648383 -1.8485551 4288085770
9.3456726 -3.4331431 -1.856257 4288085770
6.9737854 -2.6198058 -1.8495336 4288085770
9.3807068 -3.3691087 -1.852262 4288085770
7.007843 -2.5717735 -1.8475225 4288085770
9.442749 -3.3140478 -1.8512075 4288085770
7.0499573 -2.5257344 -1.8464944 4288085770
9.5028381 -3.256988 -1.8491585 4288085770
7.1059875 -2.4846816 -1.8474352 4288085770
9.5809021 -3.2059097 -1.8490696 4288085770
7.1591187 -2.4426308 -1.8473823 4288085770
9.6529541 -3.1518364 -1.8469958 4288085770
7.2211609 -2.4015684 -1.847312 4288085770
9.7339783 -3.0997515 -1.8439026 4288085770
7.2932434 -2.3644991 -1.8502188 4288085770
9.4017944 -2.9240551 -1.7687082 4293729569
7.3363342 -2.3164535 -1.8441913 4288085770
9.624939 -2.9158354 -1.789305 4293729569
7.4094238 -2.2783799 -1.8440974 4288085770
10.067261 -2.9664087 -1.8454323 4288085770
7.4915161 -2.2413001 -1.8459859 4288085770
10.203339 -2.9262667 -1.846225 4288085770
7.5885925 -2.2082024 -1.8488424 4288085770
10.332397 -2.8831306 -1.8450339 4288085770
7.7006836 -2.178092 -1.8546679 4288085770
10.476501 -2.842979 -1.8458116 4288085770
7.771759 -2.1360154 -1.8495824 4288085770
10.608551 -2.7978373 -1.8416171 4288085770
7.8708496 -2.100914 -1.8494375 4288085770
10.771606 -2.7606635 -1.8413568 4288085770
7.9909668 -2.0697923 -1.8532493 4288085770
10.945709 -2.7224784 -1.8410771 4288085770
8.0880127 -2.0316892 -1.8501117 4288085770
11.138794 -2.6872735 -1.8417592 4288085770
8.2401428 -2.006537 -1.8578579 4288085770
11.320892 -2.6480756 -1.8384659 4288085770
8.3522034 -1.9684176 -1.8556926 4288085770
11.534943 -2.6138473 -1.8391087 4288085770
8.4622803 -1.9302993 -1.8505309 4288085770
11.804077 -2.5885625 -1.8446398 4288085770
8.5783386 -1.8911738 -1.8463593 4288085770
12.00116 -2.5443444 -1.8363245 4288085770
8.7094116 -1.8550339 -1.8431566 4288085770
12.286224 -2.5170374 -1.8388288 4288085770
8.8194885 -1.8129106 -1.8339992 4288085770
12.677399 -2.5066271 -1.8541183 4288085770
8.9725647 -1.7797456 -1.8317528 4288085770
13.046478 -2.489234 -1.8624568 4288085770
9.1746826 -1.7525358 -1.8374095 4288085770
13.295563 -2.4439559 -1.8520472 4288085770
9.3577576 -1.7203407 -1.8371072 4288085770
13.621643 -2.4115996 -1.8484817 4288085770
9.5328369 -1.6841493 -1.8328235 4288085770
13.998749 -2.3821878 -1.8478189 4288085770
9.7629395 -1.6569071 -1.8374288 4288085770
14.402802 -2.3547473 -1.8461041 4288085770
9.9840393 -1.6256704 -1.8370557 4288085770
14.818909 -2.3242898 -1.8433707 4288085770
10.199127 -1.5894351 -1.8326983 4288085770
15.257996 -2.2928071 -1.8385966 4288085770
10.4552 -1.5591607 -1.8342595 4288085770
15.787079 -2.2702298 -1.8396463 4288085770
10.715332 -1.5268803 -1.8328154 4288085770
16.339172 -2.2456255 -1.8386562 4288085770
10.997375 -1.494575 -1.8323312 4288085770
16.958282 -2.2229471 -1.8385408 4288085770
11.301453 -1.4622469 -1.8328063 4288085770
17.639404 -2.2022009 -1.8393087 4288085770
11.633575 -1.4308872 -1.8332286 4288085770
18.456543 -2.1903119 -1.8468168 4288085770
11.949646 -1.3945417 -1.8286862 4288085770
19.304657 -2.1723809 -1.8482747 4288085770
12.358734 -1.3641 -1.8329663 4288085770
12.720856 -1.3257012 -1.8273416 4288085770
13.158905 -1.2902246 -1.8265738 4288085770
13.621002 -1.2537189 -1.8247628 4288085770
14.118073 -1.2161751 -1.8218892 4288085770
14.693176 -1.1805482 -1.8238697 4288085770
15.280243 -1.1409044 -1.820833 4288085770
15.965332 -1.1011562 -1.8226156 4288085770
16.699432 -1.0603514 -1.8213098 4288085770
17.552521 -1.0184202 -1.8247862 4288085770
18.508606 -0.97337341 -1.8280768 4288085770
19.045258 1.7930803 -1.80002 4288085770
18.326294 1.8523321 -1.7953196 4288085770
17.703369 1.9106808 -1.7924528 4288085770
17.117462 1.9680691 -1.7895205 4288085770
16.578491 2.0215063 -1.7855039 4288085770
16.071564 2.0739784 -1.7814302 4288085770
15.621643 2.1275053 -1.7782602 4288085770
15.179688 2.1760464 -1.7730706 4288085770
14.81076 2.2296562 -1.7717605 4288085770
14.460815 2.2822876 -1.7704165 4288085770
14.121918 2.3329306 -1.7670512 4288085770
13.796997 2.3805904 -1.7626591 4288085770
13.545013 2.4383192 -1.7651513 4288085770
13.275116 2.4900351 -1.7626681 4288085770
13.018158 2.5397635 -1.7591608 4288085770
12.786255 2.5915184 -1.7566121 4288085770
12.592316 2.6483078 -1.758003 4288085770
12.426392 2.7081251 -1.7603493 4288085770
12.25946 2.766943 -1.7616956 4288085770
12.092499 2.8227615 -1.7600391 4288085770
11.952606 2.8836088 -1.7613411 4288085770
19.268982 4.5560846 -1.7774799 4288085770
11.795654 2.937439 -1.7586653 4288085770
19.000031 4.6357927 -1.7800233 4288085770
11.693726 3.0033216 -1.7619066 4288085770
18.704071 4.7044811 -1.7776012 4288085770
11.590759 3.0672045 -1.7641482 4288085770
18.473145 4.7872314 -1.7790823 4288085770
11.468872 3.1260738 -1.7614169 4288085770
18.22818 4.8629713 -1.7765799 4288085770
11.389893 3.1949806 -1.7636223 4288085770
18.017212 4.9457445 -1.776026 4288085770
11.286987 3.2568665 -1.7618611 4288085770
17.818237 5.0295315 -1.773453 4288085770
11.207031 3.3247747 -1.7620666 4288085770
17.677277 5.1273737 -1.7737939 4288085770
11.173126 3.404727 -1.7672052 4288085770
17.499329 5.212184 -1.7701855 4288085770
11.109131 3.4746513 -1.7663856 4288085770
17.391327 5.3150644 -1.7704751 4288085770
11.04718 3.5445795 -1.7655621 4288085770
17.306366 5.422965 -1.77073 4288085770
11.007263 3.6215286 -1.765708 4288085770
17.228363 5.5338726 -1.7709758 4288085770
10.985291 3.7024946 -1.7678268 4288085770
17.2034 5.659832 -1.7731459 4288085770
10.95636 3.7814541 -1.7679558 4288085770
17.129395 5.7697496 -1.7693839 4288085770
10.941376 3.8664284 -1.7690668 4288085770
17.122375 5.9037304 -1.7705314 4288085770
10.949432 3.9584246 -1.772145 4288085770
17.132385 6.041728 -1.7716534 4288085770
10.901459 4.031373 -1.7653005 4288085770
17.162354 6.187746 -1.7727494 4288085770
10.899506 4.1203613 -1.7643929 4288085770
17.233307 6.3488045 -1.7747903 4288085770
10.931519 4.2203817 -1.7674382 4288085770
17.259308 6.4938211 -1.7718914 4288085770
10.94754 4.316391 -1.7665067 4288085770
17.338226 6.659894 -1.7709231 4288085770
10.952606 4.40839 -1.7625904 4288085770
17.397186 6.8209429 -1.7669845 4288085770
11.001587 4.5174284 -1.7636154 4288085770
17.59314 7.0331268 -1.7738621 4288085770
11.044647 4.6234646 -1.7626479 4288085770
17.686066 7.2102146 -1.7688813 4288085770
11.110626 4.741518 -1.7636528 4288085770
17.890991 7.4324093 -1.7707536 4288085770
11.174622 4.8605747 -1.7636623 4288085770
18.140869 7.6776466 -1.7755723 4288085770
11.272644 4.991663 -1.7666256 4288085770
18.409729 7.9349022 -1.7793705 4288085770
11.374634 5.1287622 -1.7675884 4288085770
11.455627 5.2568388 -1.7645755 4288085770
11.569611 5.4009457 -1.7645218 4288085770
11.712555 5.5600786 -1.7674339 4288085770
11.840546 5.7131987 -1.7653651 4288085770
12.033478 5.900382 -1.7702193 4288085770
12.218445 6.0835571 -1.7720833 4288085770
12.413391 6.274744 -1.7739379 4288085770
12.598297 6.462924 -1.7698066 4288085770
12.824219 6.6751461 -1.7696292 4288085770
13.085114 6.9083996 -1.7704124 4288085770
13.35199 7.1476593 -1.769192 4288085770
13.67688 7.4199772 -1.7719047 4288085770
14.047668 7.7193375 -1.7765663 4288085770
14.435516 8.0327206 -1.7782121 4288085770
18.609375 -0.5110817 -1.819694 4288085770
17.321533 -0.52532673 -1.8117988 4288085770
16.20166 -0.53741264 -1.8066297 4288085770
15.277802 -0.5493145 -1.8111382 4288085770
14.366913 -0.55619717 -1.8056295 4288085770
13.603058 -0.56294441 -1.8068788 4288085770
12.894165 -0.56663609 -1.806041 4288085770
12.253326 -0.57026291 -1.8070908 4288085770
18.146667 -0.84760952 -1.8131807 4288085770
11.686462 -0.57282066 -1.8110204 4288085770
16.947754 -0.82977486 -1.8141658 4288085770
11.106567 -0.57038116 -1.8039751 4288085770
15.856873 -0.81082916 -1.8109746 4288085770
10.638672 -0.5708456 -1.8087437 4288085770
14.860962 -0.79179382 -1.806627 4288085770
10.196838 -0.57028294 -1.81147 4288085770
13.99707 -0.77463341 -1.8060613 4288085770
9.7269287 -0.56573582 -1.8052456 4288085770
13.238159 -0.75837231 -1.8063221 4288085770
9.381073 -0.56508541 -1.8138146 4288085770
12.550293 -0.7420435 -1.8074658 4288085770
8.9931946 -0.55946255 -1.8104563 4288085770
11.927429 -0.7276516 -1.8085015 4288085770
8.675354 -0.55678368 -1.8159809 4288085770
11.316528 -0.71024227 -1.8025198 4288085770
8.3544312 -0.55210018 -1.8165119 4288085770
10.852631 -0.69870472 -1.8102915 4288085770
8.0595703 -0.54739285 -1.8180001 4288085770
10.346741 -0.68219566 -1.8071365 4288085770
7.7756958 -0.54067326 -1.8184717 4288085770
9.9228821 -0.66861343 -1.8108442 4288085770
7.5258179 -0.53592491 -1.8218861 4288085770
9.5369568 -0.65599728 -1.8154888 4288085770
7.2539368 -0.52818871 -1.8173389 4288085770
9.1430969 -0.64138126 -1.8131478 4288085770
7.0370483 -0.52240944 -1.8227 4288085770
8.8022156 -0.62771893 -1.8167191 4288085770
6.7971497 -0.51364422 -1.8201008 4288085770
8.4803467 -0.61503887 -1.8182583 4288085770
6.5742798 -0.50486565 -1.8174741 4288085770
8.1404114 -0.59836674 -1.8128307 4288085770
6.3824158 -0.49806023 -1.8207948 4288085770
7.8605347 -0.58564568 -1.8153007 4288085770
6.1805115 -0.48925781 -1.8181334 4288085770
7.607666 -0.57390022 -1.8197258 4288085770
5.9966125 -0.48044395 -1.8184426 4288085770
7.3147583 -0.55718136 -1.8112204 4288085770
5.8317566 -0.47261047 -1.8207197 4288085770
7.0978699 -0.54540253 -1.8175867 4288085770
5.6598816 -0.46378136 -1.8190091 4288085770
6.8700256 -0.53162861 -1.8179719 4288085770
5.5139771 -0.45593357 -1.8232548 4288085770
6.6421204 -0.51785278 -1.8153577 4288085770
5.3511353 -0.44509315 -1.8195307 4288085770
6.4502563 -0.50504589 -1.8176832 4288085770
5.2072449 -0.43623734 -1.8197744 4288085770
6.2533569 -0.49124146 -1.8170178 4288085770
5.0743408 -0.42637444 -1.8210006 4288085770
6.0704956 -0.47742367 -1.8163292 4288085770
4.9474487 -0.41750622 -1.8242159 4288085770
5.8925781 -0.46459961 -1.8156321 4288085770
4.8186035 -0.40763569 -1.8224359 4288085770
5.7377014 -0.45175934 -1.8188968 4288085770
4.7097168 -0.39875126 -1.8276217 4288085770
5.573822 -0.43792248 -1.8171771 4288085770
5.4198914 -0.42407703 -1.8164411 4288085770
5.2720337 -0.41122341 -1.8146944 4288085770
5.137146 -0.39836121 -1.8159263 4288085770
5.0132446 -0.38548851 -1.8181403 4288085770
4.8813782 -0.37161922 -1.8153677 4288085770
4.7554932 -0.35774422 -1.8125856 4288085770
5.0961914 1.6518259 -1.7851074 4288085770
5.2202759 1.6729336 -1.7820399 4288085770
5.3604126 1.6980486 -1.7829652 4288085770
5.5015259 1.7211676 -1.7818863 4288085770
5.6446228 1.7442894 -1.7798061 4288085770
5.7967224 1.7684183 -1.7787201 4288085770
5.9698181 1.795558 -1.7816215 4288085770
5.0000916 1.5616875 -1.7860339 4288085770
6.1419373 1.821701 -1.7815223 4288085770
5.1252441 1.5767918 -1.7849548 4288085770
6.3170166 1.8468494 -1.7804186 4288085770
5.2653198 1.5949039 -1.7868688 4288085770
6.5031433 1.8730059 -1.7803073 4288085770
5.3954163 1.6090155 -1.7847838 4288085770
6.708252 1.902174 -1.7831857 4288085770
5.5535583 1.6281395 -1.7886841 4288085770
6.9203186 1.9313488 -1.785058 4288085770
5.6896667 1.6412563 -1.7855928 4288085770
7.1204529 1.9555216 -1.7829318 4288085770
5.84375 1.6553869 -1.784488 4288085770
7.3525391 1.9847155 -1.7837875 4288085770
6.0119019 1.6725235 -1.7863767 4288085770
7.5776672 2.0099115 -1.7806425 4288085770
6.1770325 1.6876621 -1.7852643 4288085770
7.8227234 2.0381212 -1.7794859 4288085770
6.3301392 1.6967983 -1.7801518 4288085770
8.0858459 2.0673428 -1.7803159 4288085770
6.538208 1.7189608 -1.7880158 4288085770
8.3489685 2.0945683 -1.7791424 4288085770
6.7363892 1.7351236 -1.7898777 4288085770
8.6280518 2.1228085 -1.776957 4288085770
6.9394836 1.7502909 -1.791734 4288085770
8.9411621 2.1550722 -1.7787507 4288085770
7.1225891 1.7594519 -1.7865968 4288085770
9.2612915 2.1853476 -1.7775345 4288085770
7.3426819 1.7736359 -1.787437 4288085770
9.6073608 2.2186413 -1.7783027 4288085770
7.5428467 1.7818117 -1.7822838 4288085770
9.9834595 2.2539587 -1.7810485 4288085770
7.7789307 1.7960091 -1.7831109 4288085770
10.377563 2.2882938 -1.7827783 4288085770
8.0180359 1.8072119 -1.7829306 4288085770
10.78067 2.3216391 -1.7824984 4288085770
8.2791748 1.8194313 -1.7837331 4288085770
11.197784 2.3530025 -1.7792037 4288085770
8.5432739 1.8306541 -1.7835321 4288085770
11.667877 2.3894024 -1.7808731 4288085770
8.839386 1.8438997 -1.7873075 4288085770
12.141937 2.4218149 -1.7775331 4288085770
9.121521 1.8521395 -1.7860863 4288085770
12.653046 2.4572573 -1.7761669 4288085770
9.4056396 1.8573866 -1.7828584 4288085770
13.239105 2.4987564 -1.7787488 4288085770
9.7367859 1.8666658 -1.7835979 4288085770
13.842255 2.5372791 -1.7773111 4288085770
10.090881 1.8769636 -1.7863202 4288085770
14.51532 2.5808554 -1.7798238 4288085770
10.434021 1.8812571 -1.7850416 4288085770
15.258392 2.6284885 -1.7842853 4288085770
10.806122 1.8865738 -1.7847404 4288085770
16.037506 2.674159 -1.7857132 4288085770
11.182251 1.8878975 -1.7834291 4288085770
16.93161 2.7279215 -1.7920594 4288085770
11.602386 1.8912544 -1.7840846 4288085770
17.930664 2.7867718 -1.8003266 4288085770
12.059509 1.8946419 -1.7867095 4288085770
18.97876 2.8426723 -1.804548 4288085770
12.506653 1.8910284 -1.7843311 4288085770
13.020752 1.8934612 -1.7879066 4288085770
13.552887 1.8899136 -1.7894578 4288085770
14.124023 1.8853998 -1.7919745 4288085770
14.767151 1.8839407 -1.7984364 4288085770
15.352295 1.8664513 -1.7939198 4288085770
16.063446 1.8560543 -1.7973099 4288085770
16.782593 1.8386717 -1.798682 4288085770
17.657745 1.8264084 -1.8089328 4288085770
18.556885 1.8061705 -1.8161504 4288085770
19.469025 1.7739544 -1.8163369 4288085770
11.870087 -6.2182083 -0.60637909 4293729569
15.144897 -7.9958539 -0.8227163 4293729569
9.9756775 -5.3987975 -0.6023106 4293729569
9.7207947 -5.3340664 -0.63062996 4293729569
9.5969543 -5.3372407 -0.66772801 4293729569
9.5211182 -5.3633814 -0.70874828 4293729569
9.9745483 -5.6781445 -0.78685147 4293729569
10.701172 -6.1507263 -0.89246649 4293729569
10.703796 -6.1967835 -0.32238704 4293729569
13.783051 -7.9556899 -1.2009201 4293729569
10.643005 -6.2299309 -0.37438351 4293729569
10.418488 -6.1311216 -0.97773522 4293729569
10.477142 -6.2011585 -0.42256969 4293729569
10.34967 -6.1592703 -1.0267465 4293729569
10.452332 -6.2512784 -0.4765082 4293729569
9.7275085 -5.8627872 -1.0217545 4293729569
10.407562 -6.2864137 -0.52948815 4293729569
9.6707153 -5.889924 -1.0697575 4293729569
10.363739 -6.3195486 -0.5834704 4293729569
8.8094482 -5.4375849 -1.032222 4293729569
10.373993 -6.3846459 -0.6413551 4293729569
8.4694519 -5.2858968 -1.0447559 4293729569
10.36319 -6.434761 -0.69928199 4293729569
8.3766174 -5.2790461 -1.082845 4293729569
8.342804 -5.3061604 -1.1298289 4293729569
12.642914 -7.9333696 -0.98591191 4293729569
9.7789001 -6.2353783 -1.3691006 4293729569
8.4337158 -5.406436 -0.72858793 4293729569
9.6880798 -6.2305412 -1.4161844 4293729569
8.4179382 -5.4365387 -0.77755183 4293729569
8.1122437 -5.2945814 -1.2520418 4293729569
8.1339417 -5.2978268 -0.80401796 4293729569
8.0514221 -5.2967129 -1.2950895 4293729569
8.0801392 -5.298955 -0.84906143 4293729569
8.0316162 -5.3228192 -1.3440635 4293729569
8.0562744 -5.3170643 -0.89705223 4293729569
8.0338135 -5.3599157 -1.3980012 4293729569
8.0335083 -5.3341713 -0.94504362 4293729569
8.0209961 -5.3860197 -1.4489694 4293729569
8.0236816 -5.3572731 -0.99601442 4293729569
8.0281982 -5.4231124 -1.502903 4293729569
8.013855 -5.3783712 -1.0449884 4293729569
8.7769165 -5.9408178 -1.6924264 4293729569
8.0140381 -5.4034681 -1.0979474 4293729569
8.4949036 -5.7880697 -1.6989141 4293729569
8.0922852 -5.4785166 -1.1607592 4293729569
8.2219238 -5.6383147 -1.7053888 4293729569
8.8389587 -5.9861698 -1.317301 4293729569
7.9769287 -5.5015383 -1.7128191 4293729569
8.900177 -6.0472383 -1.3841503 4293729569
7.7319641 -5.3617563 -1.7172544 4293729569
8.918396 -6.0773335 -1.4450865 4293729569
7.4499512 -5.1949873 -1.7107644 4293729569
8.8615112 -6.0574703 -1.4941673 4293729569
7.2389526 -5.0711784 -1.716145 4293729569
8.9417725 -6.1235323 -1.5659926 4293729569
7.0279846 -4.9443669 -1.7195303 4293729569
9.2511597 -6.3394709 -1.6773796 4293729569
6.8160095 -4.814549 -1.7189219 4293729569
8.9781799 -6.168726 -1.6898894 4293729569
6.6250305 -4.6967187 -1.7212753 4293729569
8.6531067 -5.96 -1.6885049 4293729569
6.466095 -4.5978713 -1.7295713 4293729569
8.4411316 -5.8242111 -1.704906 4293729569
6.3061218 -4.495019 -1.7338746 4293729569
8.177124 -5.6504431 -1.7084131 4293729569
6.1331482 -4.3821688 -1.7332051 4293729569
7.9151001 -5.4756684 -1.70892 4293729569
6.077301 -4.3462691 -1.7613113 4293729569
7.7141418 -5.3398561 -1.7173116 4293729569
6.0794373 -4.3473463 -1.8033082 4288085770
7.4450989 -5.1560707 -1.7078393 4293729569
6.0765991 -4.3424225 -1.8433194 4288085770
7.2481079 -5.0182462 -1.7112308 4293729569
6.0467224 -4.3185086 -1.8753843 4288085770
7.0691528 -4.8914094 -1.7155893 4293729569
5.8977966 -4.2116342 -1.8726847 4288085770
6.8771362 -4.7535748 -1.7149768 4293729569
5.7878418 -4.1307435 -1.8789103 4288085770
6.7312012 -4.6447148 -1.7222781 4293729569
5.6428833 -4.0238614 -1.8732073 4288085770
6.5772095 -4.5288553 -1.7255979 4293729569
5.5049133 -3.9199705 -1.8654938 4288085770
6.4382629 -4.4209838 -1.7288916 4293729569
5.3979492 -3.8360682 -1.8667216 4288085770
6.3753662 -4.3620787 -1.7500417 4293729569
5.2940063 -3.7531624 -1.866945 4288085770
6.4075317 -4.363133 -1.7940137 4293729569
5.1880493 -3.6672506 -1.8631749 4288085770
6.4386902 -4.362186 -1.83599 4288085770
5.1011353 -3.5933332 -1.8653696 4288085770
6.4488525 -4.3452468 -1.8730102 4288085770
6.336853 -4.2483511 -1.8752635 4288085770
6.2109375 -4.1434579 -1.8725414 4288085770
6.1109924 -4.0525503 -1.8737745 4288085770
5.9889832 -3.948647 -1.8670475 4288085770
5.882019 -3.851737 -1.8632965 4288085770
5.7880859 -3.7648177 -1.8605182 4288085770
5.7011414 -3.679894 -1.8587306 4288085770
5.6192322 -3.5989656 -1.8569324 4288085770
5.5482788 -3.5230331 -1.8571167 4288085770
5.4803467 -3.4490943 -1.8562951 4288085770
5.4174194 -3.3781528 -1.8554647 4288085770
5.3584595 -3.3092079 -1.8546274 4288085770
5.3245544 -3.2542524 -1.8597462 4288085770
5.2746582 -3.1893005 -1.859895 4288085770
5.2156982 -3.119348 -1.8540595 4288085770
5.1737976 -3.0593882 -1.853193 4288085770
5.1328735 -2.9994273 -1.8513258 4288085770
5.0999451 -2.9434624 -1.8514454 4288085770
5.0730286 -2.8914933 -1.8515534 4288085770
5.0471191 -2.8385224 -1.8516624 4288085770
5.0221863 -2.7865491 -1.8507686 4288085770
5.0236511 -2.1256642 -1.8428535 4288085770
5.0457458 -2.0936556 -1.8428876 4288085770
5.0758667 -2.0636406 -1.8439116 4288085770
5.1079407 -2.0336251 -1.8449345 4288085770
5.1430664 -2.0036049 -1.8459542 4288085770
5.1741638 -1.9725881 -1.8449793 4288085770
5.2182617 -1.9455633 -1.846987 4288085770
5.2583618 -1.9165392 -1.8470006 4288085770
5.2894592 -1.8845172 -1.844027 4288085770
5.3405762 -1.8594866 -1.8460255 4288085770
5.3876648 -1.8314571 -1.8460321 4288085770
5.4438171 -1.8074222 -1.8470244 4288085770
5.4918518 -1.7793894 -1.8450303 4288085770
5.5499878 -1.7543521 -1.8460226 4288085770
5.6061096 -1.728312 -1.8440182 4288085770
5.6701965 -1.7042704 -1.8450043 4288085770
5.7263184 -1.6772265 -1.841001 4288085770
5.7874146 -1.6501818 -1.8389945 4288085770
5.8575439 -1.6261311 -1.8369751 4288085770
5.9366455 -1.604075 -1.8369451 4288085770
6.0227051 -1.5820169 -1.837909 4288085770
6.106842 -1.5589557 -1.8368764 4288085770
6.1869507 -1.5358958 -1.834847 4288085770
5.027771 -1.2588367 -1.8382678 4288085770
6.2940674 -1.5168219 -1.8367887 4288085770
5.0949097 -1.2377882 -1.8362458 4288085770
6.3891602 -1.4947524 -1.8357449 4288085770
5.1669922 -1.2167373 -1.8352201 4288085770
6.4882812 -1.4726782 -1.8336983 4288085770
5.2581177 -1.1996784 -1.8391714 4288085770
6.5963745 -1.4525995 -1.8336406 4288085770
5.3342285 -1.1786222 -1.837142 4288085770
6.7265015 -1.4355083 -1.8365595 4288085770
5.4203186 -1.1595607 -1.8371012 4288085770
6.8446045 -1.4144206 -1.835495 4288085770
5.5074463 -1.1404977 -1.8360593 4288085770
6.9737244 -1.3953257 -1.8354182 4288085770
5.5995483 -1.1194305 -1.8350165 4288085770
7.1158142 -1.3772206 -1.8363285 4288085770
5.6806641 -1.0973654 -1.8299847 4288085770
7.2379456 -1.3551235 -1.8312624 4288085770
5.842804 -1.0902719 -1.8468604 4288085770
7.4130554 -1.3410006 -1.8361392 4288085770
5.9309082 -1.0682011 -1.8418224 4288085770
7.577179 -1.3238811 -1.8380296 4288085770
6.0180054 -1.0451269 -1.8337872 4288085770
7.7272644 -1.3027616 -1.8329382 4288085770
6.1791382 -1.0340242 -1.8446705 4288085770
7.911377 -1.2856245 -1.833812 4288085770
6.2602539 -1.0079479 -1.8326449 4288085770
8.0735168 -1.2634931 -1.8277123 4288085770
6.3943481 -0.98985004 -1.8335619 4288085770
8.2996216 -1.2513323 -1.8335428 4288085770
6.5324402 -0.97174931 -1.8334758 4288085770
8.5007324 -1.2311735 -1.8304071 4288085770
6.6755676 -0.95364094 -1.8323853 4288085770
8.7138367 -1.2140074 -1.8272567 4288085770
6.8346863 -0.93652534 -1.83428 4288085770
8.9509583 -1.1968265 -1.8260863 4288085770
6.9917908 -0.91839981 -1.833179 4288085770
9.2150574 -1.1816192 -1.8278911 4288085770
7.1478882 -0.89927769 -1.8290799 4288085770
9.4861755 -1.1654115 -1.8276908 4288085770
7.3309937 -0.88114166 -1.8299561 4288085770
9.7932739 -1.1511788 -1.8294573 4288085770
7.5211182 -0.86399746 -1.8298249 4288085770
10.095398 -1.1349421 -1.8262308 4288085770
7.7462769 -0.84883308 -1.8346612 4288085770
10.436493 -1.1206808 -1.8279688 4288085770
7.9213562 -0.82668972 -1.8265507 4288085770
10.788605 -1.1044044 -1.8247006 4288085770
8.1364746 -0.80852509 -1.8244002 4288085770
11.161774 -1.0881119 -1.8224149 4288085770
8.3785706 -0.79133987 -1.8242254 4288085770
11.556854 -1.0717993 -1.8181109 4288085770
8.6366577 -0.77314377 -1.8250391 4288085770
12.047974 -1.0604258 -1.8227184 4288085770
8.8877869 -0.75294304 -1.8198619 4288085770
12.542084 -1.0460396 -1.8213286 4288085770
9.1809082 -0.73471928 -1.8196461 4288085770
13.055206 -1.0296335 -1.8169255 4288085770
9.5010376 -0.71747589 -1.8214064 4288085770
13.682312 -1.0181484 -1.8194194 4288085770
9.808136 -0.69723034 -1.815182 4288085770
14.353424 -1.0056248 -1.8198783 4288085770
10.175232 -0.67894936 -1.8169045 4288085770
15.066589 -0.99306679 -1.8193021 4288085770
10.532349 -0.65766716 -1.8116403 4288085770
15.919678 -0.98340511 -1.8236039 4288085770
11.016449 -0.64230442 -1.8202598 4288085770
16.829803 -0.97169018 -1.8228612 4288085770
11.432587 -0.62097549 -1.8149462 4288085770
17.897919 -0.9628582 -1.8269818 4288085770
11.939667 -0.60158157 -1.8155532 4288085770
19.129028 -0.95489979 -1.8319645 4288085770
12.493774 -0.58115292 -1.8161228 4288085770
13.105896 -0.56067753 -1.8176434 4288085770
13.768036 -0.53916264 -1.8181238 4288085770
14.531128 -0.516572 -1.8205218 4288085770
15.364227 -0.49392319 -1.8228614 4288085770
16.318359 -0.47018433 -1.827101 4288085770
17.391449 -0.44334793 -1.8292463 4288085770
18.63855 -0.41738033 -1.8362443 4288085770
19.98526 -0.12007046 -1.8350205 4288085770
18.40036 -0.12413025 -1.826236 4288085770
17.046509 -0.12503624 -1.8182778 4288085770
15.886627 -0.12581635 -1.8141704 4288085770
14.885712 -0.12449551 -1.8129437 4288085770
14.015839 -0.12308502 -1.8116164 4288085770
13.21698 -0.11962795 -1.8102372 4288085770
12.503082 -0.1161108 -1.8077924 4288085770
18.68222 -0.16401196 -1.8190079 4288085770
11.849213 -0.11155319 -1.8053029 4288085770
17.280304 -0.15094566 -1.8111038 4288085770
11.236328 -0.10596466 -1.7997832 4288085770
16.120422 -0.13973141 -1.8110116 4288085770
10.754456 -0.10130501 -1.8061621 4288085770
15.098541 -0.12742043 -1.8088145 4288085770
10.27356 -0.09563446 -1.805541 4288085770
14.166626 -0.11504364 -1.8035491 4288085770
9.8276978 -0.08894062 -1.8048944 4288085770
13.398773 -0.10457134 -1.8071547 4288085770
9.4638367 -0.083206177 -1.813184 4288085770
12.662872 -0.092069626 -1.8047383 4288085770
9.0469666 -0.075481415 -1.8065162 4288085770
12.02002 -0.080507278 -1.8042493 4288085770
8.7330627 -0.068711281 -1.8137686 4288085770
11.416107 -0.068914413 -1.8017304 4288085770
8.3931885 -0.059942245 -1.8110435 4288085770
10.917236 -0.058261871 -1.8061295 4288085770
8.0903015 -0.052154541 -1.8122885 4288085770
10.40036 -0.046608925 -1.8015437 4288085770
7.812439 -0.04434967 -1.8135138 4288085770
9.9695129 -0.034909248 -1.8038919 4288085770
7.5495605 -0.036535263 -1.814728 4288085770
9.5656128 -0.024188995 -1.8062179 4288085770
7.2796631 -0.027715683 -1.8099487 4288085770
9.1747437 -0.012454033 -1.8035352 4288085770
7.0697937 -0.018875122 -1.8171239 4288085770
8.8408203 -0.00069046021 -1.8068099 4288085770
6.8269043 -0.010035515 -1.8113239 4288085770
8.5109558 0.010082245 -1.8070788 4288085770
6.6230164 -0.0011835098 -1.8134942 4288085770
8.1980896 0.021867752 -1.8053367 4288085770
6.4271545 0.0086784363 -1.8136597 4288085770
7.9341736 0.033677101 -1.809557 4288085770
6.2312927 0.017541885 -1.8118234 4288085770
7.6733398 0.044495583 -1.8097734 4288085770
6.0464172 0.027415276 -1.8089805 4288085770
7.3964539 0.055311203 -1.8040018 4288085770
5.8865051 0.036297798 -1.8111167 4288085770
7.1815491 0.067153931 -1.8081846 4288085770
5.7276611 0.046183586 -1.8112533 4288085770
6.9587097 0.077999115 -1.8073716 4288085770
5.5657349 0.055072784 -1.8083911 4288085770
6.7438049 0.089851379 -1.8055542 4288085770
5.4338684 0.064971924 -1.8125076 4288085770
6.5599365 0.101717 -1.808713 4288085770
5.2929993 0.074871063 -1.8116307 4288085770
6.3660278 0.11358261 -1.8068795 4288085770
5.1751099 0.08577919 -1.815738 4288085770
6.1931763 0.12445927 -1.8070281 4288085770
5.0422363 0.095685005 -1.8138547 4288085770
6.0342712 0.136343 -1.8091679 4288085770
5.8804016 0.14823055 -1.8103034 4288085770
5.7225037 0.16012096 -1.8084421 4288085770
5.5856018 0.17201996 -1.8095653 4288085770
5.4327393 0.183918 -1.8046997 4288085770
5.3048401 0.19582558 -1.8048155 4288085770
5.1789856 0.20773411 -1.8049295 4288085770
5.0661011 0.21965122 -1.8050339 4288085770
5.0050354 2.432806 -1.7704673 4288085770
5.1411438 2.478878 -1.7744381 4288085770
5.2712708 2.5209503 -1.775408 4288085770
5.385376 2.5550222 -1.7703779 4288085770
5.5374451 2.6031036 -1.7743409 4288085770
5.6595459 2.6371803 -1.7683051 4288085770
5.838623 2.6932735 -1.7762609 4288085770
5.9797668 2.7313595 -1.7722175 4288085770
6.112854 2.7654448 -1.7651742 4288085770
5.1061401 2.3777924 -1.7763305 4288085770
6.3209534 2.8275518 -1.7751186 4288085770
5.2322388 2.4078655 -1.7752862 4288085770
6.4660339 2.8616467 -1.7670672 4288085770
5.3623962 2.4379377 -1.7762394 4288085770
6.6491394 2.9097519 -1.767009 4288085770
5.497467 2.4690161 -1.7751904 4288085770
6.8782349 2.9748755 -1.775943 4288085770
5.640564 2.5020943 -1.7771389 4288085770
7.0593262 3.0159864 -1.7708769 4288085770
5.7637329 2.5241737 -1.7700856 4288085770
7.2714233 3.069109 -1.771806 4288085770
5.941803 2.5672655 -1.7780244 4288085770
7.4785156 3.1162367 -1.7677305 4288085770
6.1029053 2.6003551 -1.7789605 4288085770
7.6996155 3.167366 -1.7666509 4288085770
6.2420349 2.6224442 -1.7728965 4288085770
7.955719 3.2285147 -1.7695613 4288085770
6.4131165 2.6565399 -1.7748275 4288085770
8.2197876 3.2896662 -1.7724664 4288085770
6.6011963 2.6936445 -1.7777512 4288085770
8.4788818 3.3458204 -1.7713678 4288085770
6.7773438 2.7247477 -1.7766743 4288085770
8.7539368 3.403985 -1.7702613 4288085770
6.9504395 2.7508526 -1.772593 4288085770
9.06604 3.472168 -1.7731433 4288085770
7.1435547 2.7829638 -1.7735064 4288085770
9.3861389 3.5393543 -1.7750187 4288085770
7.3396606 2.8130798 -1.771415 4288085770
9.7312317 3.6115551 -1.7788842 4288085770
7.5417786 2.8431988 -1.7703192 4288085770
10.058319 3.6727524 -1.7767467 4288085770
7.7468567 2.8723202 -1.7682207 4288085770
10.438416 3.7489748 -1.7795939 4288085770
7.9739685 2.9054518 -1.7691126 4288085770
10.822479 3.8212032 -1.7804329 4288085770
8.2110901 2.9395895 -1.7699988 4288085770
11.232574 3.898447 -1.7822611 4288085770
8.4532166 2.9717312 -1.7698791 4288085770
11.663635 3.9757042 -1.7830753 4288085770
8.7073059 3.0038795 -1.7697515 4288085770
12.098694 4.0489664 -1.7818816 4288085770
8.9654236 3.034029 -1.7706182 4288085770
12.564819 4.1272469 -1.780674 4288085770
9.2315369 3.0651875 -1.7694809 4288085770
13.082855 4.2165527 -1.7844458 4288085770
9.5196228 3.0973549 -1.7713306 4288085770
13.611938 4.3008718 -1.7842038 4288085770
9.8127136 3.1285286 -1.7711754 4288085770
14.22702 4.4042387 -1.7889292 4288085770
10.125854 3.1607113 -1.7730076 4288085770
14.879089 4.5106239 -1.7946341 4288085770
10.452942 3.193902 -1.7748322 4288085770
15.532166 4.6090164 -1.7953277 4288085770
10.778046 3.2210951 -1.7736504 4288085770
16.223206 4.7094326 -1.7959983 4288085770
11.150177 3.2573099 -1.7784488 4288085770
17.029266 4.8329096 -1.803623 4288085770
11.510254 3.2855215 -1.7782447 4288085770
17.803345 4.9373808 -1.8022432 4288085770
11.879364 3.3117428 -1.7780316 4288085770
18.696381 5.0639153 -1.8068135 4288085770
12.283508 3.3409796 -1.7797992 4288085770
19.651459 5.19349 -1.8103461 4288085770
12.676636 3.3642139 -1.7795663 4288085770
13.104736 3.3884668 -1.7803109 4288085770
13.591827 3.4217482 -1.7870283 4288085770
14.07193 3.4480314 -1.789741 4288085770
14.565063 3.4693213 -1.7914383 4288085770
15.099152 3.4926367 -1.7951107 4288085770
15.647308 3.51196 -1.7977681 4288085770
16.199402 3.5262871 -1.7984169 4288085770
16.775543 3.5376301 -1.8000453 4288085770
17.384644 3.5469913 -1.8016489 4288085770
18.08078 3.5633984 -1.8092031 4288085770
18.757935 3.5688 -1.8127558 4288085770
19.470001 3.57022 -1.8162801 4288085770
11.154053 -2.8140306 -0.75240308 4293729569
10.696167 -2.7773118 -0.74975914 4293729569
10.386261 -2.7725167 -0.75597435 4293729569
10.332458 -2.833591 -0.77993184 4293729569
10.273621 -2.8926697 -0.80389553 4293729569
10.258789 -2.9627261 -0.8318153 4293729569
9.7778625 -2.8960142 -0.82522577 4293729569
9.6820679 -2.9381118 -0.8472361 4293729569
19.002747 -5.8013582 -0.70625895 4293729569
9.6382446 -2.994184 -0.8741942 4293729569
9.622406 -3.0582471 -0.90512246 4293729569
9.7426453 -3.1652436 -0.94790381 4293729569
17.041718 -5.610899 -1.6748323 4293729569
16.436127 -5.4841089 -0.83140236 4293729569
16.391754 -5.5142927 -1.671396 4293729569
16.386383 -5.579226 -0.88731462 4293729569
16.159943 -5.5504932 -1.7085066 4293729569
15.743042 -5.5187759 -1.7258296 4293729569
15.256134 -5.4560876 -1.7342401 4293729569
14.69223 -5.3574295 -1.7307487 4293729569
13.877197 -5.1608782 -1.6965525 4293729569
13.6008 -5.1071024 -1.006808 4293729569
13.484283 -5.1091371 -1.7078855 4293729569
13.533997 -5.172225 -1.0587709 4293729569
13.152405 -5.0753684 -1.7251544 4293729569
13.593201 -5.284286 -1.1215885 4293729569
12.728516 -5.0006351 -1.7285378 4293729569
12.261536 -4.9019151 -1.7229815 4293729569
13.989746 -5.6192842 -1.2768946 4293729569
11.88266 -4.8331566 -1.728327 4293729569
13.901978 -5.6744232 -1.332885 4293729569
11.499725 -4.7563972 -1.7306855 4293729569
14.13324 -5.8574171 -1.4204962 4293729569
11.134796 -4.6826267 -1.7330284 4293729569
16.832306 -7.0672932 -1.7611244 4293729569
10.791901 -4.6128459 -1.7373509 4293729569
12.228088 -5.2354794 -1.3565845 4293729569
10.533997 -4.5730281 -1.7515779 4293729569
12.13028 -5.2696161 -1.4066088 4293729569
10.319122 -4.5491929 -1.7727551 4293729569
11.96344 -5.2717838 -1.4497209 4293729569
10.151245 -4.5403395 -1.7998817 4293729569
12.360748 -5.5197096 -1.5601375 4293729569
9.9803772 -4.5294852 -1.8260128 4288085770
12.661072 -5.7256832 -1.6636736 4293729569
9.8245544 -4.5216227 -1.8531296 4288085770
12.427216 -5.6948824 -1.7018731 4293729569
9.6346436 -4.4967728 -1.8742914 4288085770
11.927216 -5.5401888 -1.7024117 4293729569
9.3517456 -4.4249539 -1.8775764 4288085770
11.474243 -5.4004707 -1.7058988 4293729569
9.0718384 -4.3501296 -1.8788636 4288085770
11.046356 -5.2647371 -1.708364 4293729569
8.7949219 -4.2733002 -1.8771508 4288085770
10.665344 -5.1459694 -1.7127712 4293729569
8.5359802 -4.2004547 -1.8774164 4288085770
10.289429 -5.0242052 -1.7161839 4293729569
8.2670288 -4.1206164 -1.8737025 4288085770
9.9474792 -4.9144244 -1.7225583 4293729569
8.0131226 -4.0437713 -1.8709745 4288085770
9.6135559 -4.8036366 -1.7269287 4293729569
7.7732239 -3.9689183 -1.8692346 4288085770
9.2976074 -4.6978369 -1.7312803 4293729569
7.5413208 -3.8960614 -1.867487 4288085770
9.0036621 -4.5980263 -1.7366097 4293729569
7.3283691 -3.8291945 -1.8667188 4288085770
8.7247314 -4.5012059 -1.7409248 4293729569
7.1254578 -3.7633224 -1.8669424 4288085770
8.6079102 -4.4833288 -1.7750299 4293729569
6.9125366 -3.6904492 -1.8621817 4288085770
8.4980164 -4.4664488 -1.809129 4288085770
6.7376099 -3.6335654 -1.8663752 4288085770
8.4151917 -4.4615588 -1.8481946 4288085770
6.5457153 -3.5666833 -1.8635921 4288085770
8.2822876 -4.4296846 -1.8763287 4288085770
6.369812 -3.5047922 -1.8617926 4288085770
8.0433655 -4.3388391 -1.880609 4288085770
6.2008972 -3.4439001 -1.8619866 4288085770
7.7714539 -4.2269979 -1.8739383 4288085770
6.019989 -3.3740063 -1.8562002 4288085770
7.5354919 -4.1311421 -1.8722229 4288085770
5.8770447 -3.322103 -1.8593657 4288085770
7.3025513 -4.0342822 -1.8685069 4288085770
5.7271729 -3.2641969 -1.8585429 4288085770
7.0936279 -3.9474115 -1.8677614 4288085770
5.5932617 -3.2132859 -1.8607008 4288085770
6.8937073 -3.8625364 -1.867008 4288085770
5.4413452 -3.1503782 -1.855886 4288085770
6.6928101 -3.7746587 -1.8642583 4288085770
5.3224487 -3.1034589 -1.8590288 4288085770
6.5088501 -3.6927724 -1.8624902 4288085770
5.1945496 -3.0495415 -1.8591862 4288085770
6.3399353 -3.616878 -1.8617039 4288085770
5.0636597 -2.9926205 -1.8553495 4288085770
6.1630249 -3.5359855 -1.857929 4288085770
6.0151062 -3.468081 -1.8591185 4288085770
5.8641663 -3.3961763 -1.858315 4288085770
5.7122803 -3.3222685 -1.8545141 4288085770
5.6013489 -3.269351 -1.86166 4288085770
5.464447 -3.2004347 -1.8588428 4288085770
5.3415222 -3.1375127 -1.8580089 4288085770
5.2116089 -3.069591 -1.8541858 4288085770
5.10672 -3.0126629 -1.8563318 4288085770
5.0767517 -0.65427017 -1.814781 4288085770
5.1728516 -0.64022446 -1.8147466 4288085770
5.2929688 -0.62817192 -1.8206956 4288085770
5.3771362 -0.61212254 -1.8136706 4288085770
5.5092163 -0.60106373 -1.8196118 4288085770
5.6383362 -0.58900356 -1.8235562 4288085770
5.7354431 -0.57294655 -1.8155241 4288085770
5.8876038 -0.56187725 -1.822454 4288085770
6.0166931 -0.5478096 -1.8204012 4288085770
5.0007019 -0.43339062 -1.8231382 4288085770
6.1478271 -0.53374004 -1.8173468 4288085770
5.1148376 -0.42133617 -1.8250909 4288085770
6.3069458 -0.52166271 -1.8192744 4288085770
5.22995 -0.40928173 -1.8260434 4288085770
6.4590759 -0.50858307 -1.8182073 4288085770
5.3370667 -0.39522362 -1.8220029 4288085770
6.6201782 -0.4954977 -1.8161354 4288085770
5.4421692 -0.382164 -1.8169625 4288085770
6.7992859 -0.48340702 -1.8180513 4288085770
5.5722656 -0.37010002 -1.8169062 4288085770
6.9894409 -0.47131062 -1.8189616 4288085770
5.7154236 -0.35802937 -1.8188426 4288085770
7.180542 -0.45820904 -1.817873 4288085770
5.8655396 -0.34695625 -1.8207743 4288085770
7.3856506 -0.44610119 -1.8167748 4288085770
6.0046692 -0.33388233 -1.8177149 4288085770
7.606781 -0.43398476 -1.816668 4288085770
6.152771 -0.32180309 -1.8156488 4288085770
7.8538818 -0.42185879 -1.8195467 4288085770
6.3278809 -0.31071568 -1.8175666 4288085770
8.1030273 -0.40972519 -1.8184237 4288085770
6.5180054 -0.29862309 -1.8214769 4288085770
8.3701477 -0.3975811 -1.8172913 4288085770
6.7011414 -0.28652668 -1.8203914 4288085770
8.6712646 -0.38642597 -1.8201382 4288085770
