# .PCD v0.7 - Point Cloud Data file format
VERSION 0.7
FIELDS x y z rgb
SIZE 4 4 4 4
TYPE F F F U
COUNT 1 1 1 1
WIDTH 1104
HEIGHT 1
VIEWPOINT 0 0 0 1 0 0 0
POINTS 1104
DATA ascii
4.6013184 -7.5425501 -1.6306741 4293729569
1.2151184 -5.4599729 -1.7549498 4293729569
4.4209595 -7.4687986 -1.683316 4293729569
0.90487671 -5.2937436 -1.7550099 4293729569
4.1846924 -7.3558311 -1.7271392 4293729569
0.60665894 -5.1305633 -1.7530262 4293729569
3.8167114 -7.1533556 -1.7493937 4293729569
0.31838989 -4.9704247 -1.7490056 4293729569
3.4147644 -6.9247508 -1.7627561 4293729569
0.076049805 -4.8364635 -1.7518308 4293729569
3.0178528 -6.694169 -1.7720973 4293729569
-0.067443848 -4.7648811 -1.7743285 4293729569
2.6319275 -6.4666338 -1.7783978 4293729569
-0.29476929 -4.6349802 -1.776099 4293729569
2.2479553 -6.2361088 -1.7796881 4293729569
-0.51516724 -4.5071087 -1.7758434 4293729569
1.8559875 -5.9965577 -1.7760012 4293729569
-0.71356201 -4.3903222 -1.7785137 4293729569
1.4710083 -5.7570362 -1.7682865 4293729569
-0.93096924 -4.2574663 -1.7732432 4293729569
1.1270142 -5.5416751 -1.7624347 4293729569
-1.1143799 -4.1457415 -1.7738588 4293729569
0.78094482 -5.32131 -1.7535856 4293729569
-1.2957764 -4.0330257 -1.7724664 4293729569
0.5067749 -5.146224 -1.7524989 4293729569
-1.4353027 -3.9454713 -1.7789338 4293729569
0.2265625 -4.9641185 -1.7464283 4293729569
-1.4739685 -3.9252975 -1.8120716 4293729569
0.036254883 -4.8383594 -1.7560604 4293729569
-1.4737244 -3.9272735 -1.8530786 4288085770
-0.12313843 -4.7327204 -1.7695911 4293729569
-1.4744263 -3.9282448 -1.8950889 4288085770
-0.32049561 -4.5979371 -1.7732422 4293729569
-1.5400391 -3.882973 -1.9173095 4288085770
-0.49786377 -4.4752336 -1.7768271 4293729569
-1.6965332 -3.7753594 -1.9118249 4288085770
-0.69622803 -4.3374524 -1.7734787 4293729569
-1.8310242 -3.6808305 -1.9102671 4288085770
-0.8895874 -4.2006912 -1.7691128 4293729569
-1.9775391 -3.5762584 -1.9027469 4288085770
-1.0549622 -4.0810385 -1.7686527 4293729569
-2.1130066 -3.4777291 -1.896189 4288085770
-1.2113953 -3.9664218 -1.767163 4293729569
-2.2265625 -3.3922846 -1.8935578 4288085770
-1.2489929 -3.9282572 -1.7942827 4293729569
-2.335144 -3.3088589 -1.8919098 4288085770
-1.2137146 -3.9343686 -1.840162 4293729569
-2.4416809 -3.2264421 -1.8892543 4288085770
-1.1824646 -3.9364669 -1.8830526 4288085770
-2.5302734 -3.1540945 -1.8905394 4288085770
-1.2330627 -3.8842549 -1.9042113 4288085770
-2.6228638 -3.0777328 -1.8878353 4288085770
-1.3495483 -3.7887952 -1.9055841 4288085770
-1.4510498 -3.7013941 -1.9089072 4288085770
-1.6074829 -3.5777876 -1.8944089 4288085770
-1.7290039 -3.4773138 -1.8877962 4288085770
-1.8295593 -3.3889225 -1.884114 4288085770
-1.914093 -3.3095901 -1.8853781 4288085770
-1.9936829 -3.2332778 -1.8856256 4288085770
-2.0752258 -3.1549606 -1.8828785 4288085770
-2.1488342 -3.0806739 -1.8821051 4288085770
-2.2294006 -3.0023618 -1.8773539 4288085770
-2.2920227 -2.934119 -1.8765433 4288085770
-2.3406372 -2.8739293 -1.8786862 4288085770
-2.3812866 -2.81777 -1.8828022 4288085770
-2.4259033 -2.7585979 -1.88293 4288085770
-2.4625854 -2.7044542 -1.8860323 4288085770
-2.5052185 -2.6462908 -1.885154 4288085770
-2.5518494 -2.5851133 -1.8822877 4288085770
-2.581543 -2.5339994 -1.8833659 4288085770
-2.6182251 -2.4788604 -1.8814671 4288085770
-2.6458435 -2.4277539 -1.8815372 4288085770
-2.6512756 -1.6398525 -1.8700635 4288085770
-2.6140442 -1.6150045 -1.8739097 4288085770
-2.5947876 -1.5820904 -1.8698165 4288085770
-2.5795593 -1.548161 -1.8647377 4288085770
-2.5323181 -1.5243516 -1.8685477 4288085770
-2.5061035 -1.4944644 -1.8654311 4288085770
-2.4638672 -1.4686379 -1.8662579 4288085770
-2.4196472 -1.44382 -1.867079 4288085770
-2.3793945 -1.4169874 -1.8649127 4288085770
-2.3331909 -1.3911777 -1.8647249 4288085770
-2.2719727 -1.3704257 -1.8684862 4288085770
-2.2257385 -1.3436179 -1.8652976 4288085770
-2.1795349 -1.3168097 -1.8621099 4288085770
-2.1242981 -1.2930369 -1.8608906 4288085770
-2.0610657 -1.2702956 -1.8606431 4288085770
-2.0308838 -1.2384295 -1.8505108 4288085770
-1.9536743 -1.2187405 -1.853214 4288085770
-1.8964539 -1.1929789 -1.8479865 4288085770
-1.821228 -1.1722841 -1.8476961 4288085770
-1.7430115 -1.1526027 -1.8473957 4288085770
-1.6688232 -1.1289067 -1.8441069 4288085770
-1.5765991 -1.1102796 -1.8447559 4288085770
-2.6484985 -0.85500336 -1.8525302 4288085770
-1.4794312 -1.0926723 -1.8463871 4288085770
-2.5803223 -0.83628273 -1.8512676 4288085770
-1.3881836 -1.0720434 -1.8440382 4288085770
-2.505127 -0.81758833 -1.8519785 4288085770
-1.2950134 -1.0514231 -1.8416822 4288085770
-2.4299316 -0.79889441 -1.8516896 4288085770
-1.1818237 -1.0338793 -1.8432553 4288085770
-2.3727417 -0.77613449 -1.8434646 4288085770
-1.0716248 -1.0153251 -1.8428385 4288085770
-2.2865601 -0.75848436 -1.844136 4288085770
-0.95339966 -0.99780226 -1.8423922 4288085770
-2.1943359 -0.74185514 -1.8457863 4288085770
-0.83224487 -0.98029232 -1.8409369 4288085770
-2.0991211 -0.72523928 -1.8474252 4288085770
-0.7010498 -0.96282101 -1.8414433 4288085770
-1.9989624 -0.70964432 -1.848048 4288085770
-0.5668335 -0.94536304 -1.8399394 4288085770
-1.9007568 -0.69204235 -1.8476751 4288085770
-0.41464233 -0.92997503 -1.8413708 4288085770
-1.8085632 -0.67241955 -1.8433244 4288085770
-0.24545288 -0.91665316 -1.8447411 4288085770
-1.7103882 -0.65381956 -1.8399513 4288085770
-0.1022644 -0.89723444 -1.840203 4288085770
-1.5391846 -0.64649677 -1.8553188 4288085770
0.061920166 -0.87989569 -1.8375895 4288085770
-1.473999 -0.62077427 -1.8390625 4288085770
0.22711182 -0.86256218 -1.8349721 4288085770
-1.3398132 -0.60531425 -1.8415601 4288085770
0.40429688 -0.84627819 -1.8313115 4288085770
-1.2286377 -0.58676767 -1.8351405 4288085770
0.60449219 -0.83108234 -1.8305681 4288085770
-1.0484314 -0.57548475 -1.8454721 4288085770
0.8336792 -0.81800175 -1.8327191 4288085770
-0.89825439 -0.56008911 -1.8459113 4288085770
1.0488281 -0.80186796 -1.8299196 4288085770
-0.76705933 -0.54062414 -1.8394177 4288085770
1.2700195 -0.7857604 -1.8250988 4288085770
-0.61584473 -0.52323484 -1.8358519 4288085770
1.5271912 -0.77179146 -1.824147 4288085770
-0.44268799 -0.50793076 -1.8362072 4288085770
1.8074036 -0.75891542 -1.8241117 4288085770
-0.26248169 -0.49265623 -1.8355372 4288085770
2.0995483 -0.74608707 -1.8230331 4288085770
-0.088317871 -0.47536039 -1.8308876 4288085770
2.4087524 -0.73232746 -1.8208907 4288085770
0.13189697 -0.4612422 -1.8340709 4288085770
2.7399292 -0.71865654 -1.8186681 4288085770
0.30709839 -0.44095373 -1.8244164 4288085770
3.1340637 -0.70923376 -1.8212183 4288085770
0.54425049 -0.42590523 -1.8255379 4288085770
3.5172729 -0.69676876 -1.8188064 4288085770
0.77642822 -0.40984058 -1.821677 4288085770
3.9474182 -0.68549109 -1.8182237 4288085770
1.0366211 -0.39488363 -1.8217146 4288085770
4.4516296 -0.67750597 -1.8213713 4288085770
1.297821 -0.37793541 -1.8177474 4288085770
4.9497986 -0.66550112 -1.8185394 4288085770
1.5809937 -0.36207294 -1.8157008 4288085770
5.4989319 -0.65569925 -1.8165224 4288085770
1.907196 -0.34637976 -1.8154957 4288085770
6.1491089 -0.64929676 -1.8191373 4288085770
2.2523804 -0.33176327 -1.815223 4288085770
6.8633118 -0.64214993 -1.8215172 4288085770
2.6125793 -0.31520796 -1.8128941 4288085770
7.6294556 -0.63521242 -1.821708 4288085770
3.0057373 -0.29978275 -1.8124459 4288085770
8.4685974 -0.62756824 -1.8186309 4288085770
3.4599609 -0.2845993 -1.8137734 4288085770
9.4337769 -0.62242651 -1.8180945 4288085770
3.927124 -0.26847124 -1.8120539 4288085770
10.467926 -0.61456108 -1.8123038 4288085770
4.4463501 -0.25254869 -1.8111436 4288085770
11.666077 -0.60935068 -1.8069146 4288085770
5.0135193 -0.23581743 -1.8110578 4288085770
5.6377258 -0.21931505 -1.8097637 4288085770
6.348938 -0.20215845 -1.8101509 4288085770
7.1711731 -0.18644142 -1.8141329 4288085770
8.0413818 -0.16891909 -1.8139393 4288085770
8.996582 -0.14873934 -1.8104327 4288085770
10.102753 -0.12916183 -1.8083751 4288085770
11.399994 -0.10834265 -1.8086178 4288085770
11.595947 0.16363668 -1.8152959 4288085770
10.086029 0.17068338 -1.804734 4288085770
8.8781738 0.1755271 -1.8070843 4288085770
7.8093262 0.18281031 -1.8059318 4288085770
6.8514404 0.1896472 -1.8043792 4288085770
6.0075989 0.19702768 -1.8024156 4288085770
5.2877502 0.20391273 -1.8060043 4288085770
11.921661 0.14229012 -1.8080723 4288085770
4.5958557 0.21268082 -1.8024924 4288085770
10.403809 0.16137075 -1.8015349 4288085770
3.9790344 0.22115183 -1.8027089 4288085770
9.1540222 0.17938328 -1.8040307 4288085770
3.4411926 0.22930574 -1.8046415 4288085770
8.0631714 0.19575596 -1.8049543 4288085770
2.9343262 0.2383337 -1.8044617 4288085770
7.0633545 0.21275902 -1.8005493 4288085770
2.4614868 0.24722576 -1.803159 4288085770
6.2165527 0.22815323 -1.8015926 4288085770
2.0466614 0.25588512 -1.8046477 4288085770
5.4246826 0.2433219 -1.7974384 4288085770
1.6808472 0.26435089 -1.8089597 4288085770
4.7628784 0.2569747 -1.8008158 4288085770
1.3200073 0.2737937 -1.8102534 4288085770
4.1410828 0.27146435 -1.8000481 4288085770
0.99417114 0.28309774 -1.8124197 4288085770
3.5711975 0.28574324 -1.7980936 4288085770
0.67633057 0.29236698 -1.8125584 4288085770
3.0593872 0.29879189 -1.79793 4288085770
0.40249634 0.30146313 -1.8155386 4288085770
2.6115417 0.31158447 -1.799536 4288085770
0.13064575 0.31154871 -1.81651 4288085770
2.1947632 0.32525206 -1.8020294 4288085770
-0.12216187 0.32155848 -1.8184144 4288085770
1.8029175 0.33782053 -1.8024333 4288085770
-0.35900879 0.33150387 -1.8192599 4288085770
1.4511414 0.35022783 -1.8046925 4288085770
-0.58984375 0.34142351 -1.818084 4288085770
1.1443176 0.36245728 -1.8107898 4288085770
-0.79168701 0.35122967 -1.8208039 4288085770
0.83349609 0.37470007 -1.8119018 4288085770
-0.99551392 0.36104298 -1.8215315 4288085770
0.52966309 0.38791227 -1.8089874 4288085770
-1.1973572 0.37084484 -1.8182514 4288085770
0.25881958 0.39999342 -1.8099554 4288085770
-1.3811951 0.38157606 -1.8169057 4288085770
0.0090026855 0.41299057 -1.810847 4288085770
-1.5450134 0.39122915 -1.8194883 4288085770
-0.23483276 0.424963 -1.8107173 4288085770
-1.6948242 0.40182781 -1.8240201 4288085770
-0.45663452 0.43784904 -1.8115075 4288085770
-1.8496704 0.41244316 -1.82357 4288085770
-0.67248535 0.44970942 -1.8112772 4288085770
-1.9964905 0.42302704 -1.8240912 4288085770
-0.86932373 0.46249342 -1.8119776 4288085770
-2.1243286 0.43453741 -1.827543 4288085770
-1.052124 0.47422266 -1.813628 4288085770
-2.2591553 0.44507217 -1.8270214 4288085770
-1.2409363 0.48697281 -1.8112996 4288085770
-2.3849792 0.45557165 -1.8284662 4288085770
-1.4067688 0.49863291 -1.8118885 4288085770
-2.5068054 0.46705437 -1.8278968 4288085770
-1.555603 0.51122713 -1.8154156 4288085770
-2.6426697 0.47759008 -1.8213785 4288085770
-1.7044067 0.52381945 -1.8169429 4288085770
-1.847229 0.53638697 -1.8174484 4288085770
-1.9920959 0.54896116 -1.8149612 4288085770
-2.1308899 0.56051111 -1.8134534 4288085770
-2.2447205 0.57396412 -1.8168538 4288085770
-2.364502 0.58643866 -1.8162758 4288085770
-2.4743347 0.59887409 -1.817662 4288085770
-2.59021 0.61133289 -1.8160713 4288085770
-2.5766907 2.7686548 -1.7691615 4288085770
-2.4513855 2.8121481 -1.7716663 4288085770
-2.328064 2.8546476 -1.7721784 4288085770
-2.1957703 2.8991127 -1.7726567 4288085770
-2.0624695 2.9415712 -1.7721322 4288085770
-1.9281616 2.984025 -1.7706039 4288085770
-2.2010193 2.8450327 -1.6526997 4293729569
-2.4197388 2.730834 -1.55358 4293729569
-2.6070251 2.688736 -1.7752993 4288085770
-2.4248352 2.7098227 -1.5156085 4293729569
-2.4817505 2.7232285 -1.7778103 4288085770
-2.4018555 2.6997032 -1.4845264 4293729569
-2.3565063 2.7557201 -1.7773216 4288085770
-2.3547974 2.6994925 -1.4603491 4293729569
-2.2382507 2.7842388 -1.7748616 4288085770
-2.3038025 2.7002649 -1.436156 4293729569
-2.1210327 2.8097591 -1.7704074 4288085770
-2.2417297 2.7039957 -1.4149201 4293729569
-1.9807739 2.8441906 -1.7708614 4288085770
-2.192688 2.7017756 -1.3897359 4293729569
-1.8244934 2.8835611 -1.7752535 4288085770
-2.1567078 2.692605 -1.3616052 4293729569
-1.6772156 2.9169636 -1.7746823 4288085770
-2.1056824 2.6893778 -1.3364143 4293729569
-1.5259705 2.9493494 -1.7740972 4288085770
-2.0566711 2.683157 -1.3102331 4293729569
-1.3786926 2.9787521 -1.7715285 4288085770
-2.0016479 2.6789131 -1.2850282 4293729569
-1.9446411 2.6746616 -1.2608159 4293729569
-1.8632507 2.7235413 -1.5654824 4293729569
-1.8916321 2.6664257 -1.234621 4293729569
-1.8092346 2.7133017 -1.5392849 4293729569
-1.8246155 2.6631336 -1.2113709 4293729569
-1.7793274 2.6941538 -1.5091827 4293729569
-1.7585754 2.6588478 -1.1881249 4293729569
-1.7433472 2.6759834 -1.4810569 4293729569
-1.6895752 2.6545467 -1.1648679 4293729569
-1.6733398 2.670682 -1.458797 4293729569
-1.6145325 2.651226 -1.1425879 4293729569
-1.5933228 2.6663418 -1.4404993 4293729569
-1.5394897 2.646903 -1.1203084 4293729569
-1.4962158 2.6679354 -1.4241338 4293729569
-1.4464417 2.6465092 -1.0989594 4293729569
-1.3861389 2.6724777 -1.4107192 4293729569
-1.3563843 2.6451283 -1.0786226 4293729569
-1.2930603 2.6690855 -1.3923721 4293729569
-1.260376 2.6437225 -1.0572631 4293729569
-1.1920471 2.6676636 -1.375994 4293729569
-1.156311 2.6432867 -1.037873 4293729569
-1.0919495 2.6642437 -1.3586206 4293729569
-1.0502625 2.64184 -1.0174766 4293729569
-0.99493408 2.6578369 -1.3402603 4293729569
-0.94219971 2.6403875 -0.99707174 4293729569
-0.90594482 2.647459 -1.3209326 4293729569
-0.83319092 2.6369286 -0.97666526 4293729569
-0.8319397 2.6311407 -1.2976642 4293729569
-0.69610596 2.6403599 -0.95814943 4293729569
-0.66976929 2.6404791 -1.2900517 4293729569
-0.54901123 2.6457529 -0.94159532 4293729569
-0.29928589 2.7130032 -1.3146243 4293729569
-0.37689209 2.6560459 -0.92594504 4293729569
-0.39764404 2.6383553 -1.2620337 4293729569
-0.20980835 2.6633577 -0.90931535 4293729569
-0.28665161 2.6268911 -1.2436244 4293729569
0.012359619 2.6834526 -0.8974719 4293729569
-0.07144165 2.6440201 -1.2408092 4293729569
0.29162598 2.7173214 -0.8904078 4293729569
0.25790405 2.6907015 -1.2535505 4293729569
9.6144409 5.3075047 -1.7500775 4288085770
4.0560303 3.7078028 -1.7557714 4288085770
10.424072 5.4272499 -1.7499812 4288085770
4.4162903 3.7323475 -1.7524102 4288085770
11.31073 5.5546856 -1.7485931 4288085770
4.83255 3.7686729 -1.7558329 4288085770
12.222351 5.679018 -1.7451136 4288085770
5.2417908 3.7960234 -1.7542865 4288085770
5.7101135 3.8331432 -1.7595146 4288085770
6.1482849 3.8573761 -1.7578619 4288085770
6.6455688 3.8883753 -1.7599843 4288085770
7.165863 3.9192839 -1.7640216 4288085770
7.6540527 3.935317 -1.7611868 4288085770
8.2113037 3.9600763 -1.7640898 4288085770
8.7514954 3.9739008 -1.7630613 4288085770
9.3547058 3.993474 -1.7647955 4288085770
9.9458618 4.0020952 -1.7635801 4288085770
10.577026 4.0105543 -1.7632158 4288085770
11.239227 4.0168915 -1.763736 4288085770
11.963409 4.0239801 -1.7670252 4288085770
11.159088 -2.4907589 -0.85970259 4293729569
11.012817 -2.6011674 -0.87731075 4293729569
10.357819 -2.6235466 -0.87377 4293729569
10.282593 -2.7372363 -0.89611483 4293729569
10.292297 -2.8662639 -0.92315054 4293729569
11.772522 -5.3167977 -1.7230632 4293729569
11.006958 -5.2247324 -1.7188737 4293729569
10.427307 -5.1774044 -1.7280152 4293729569
9.8726501 -5.1271777 -1.7370608 4293729569
9.2401123 -5.0466437 -1.7363794 4293729569
8.7124939 -4.9905257 -1.7443206 4293729569
8.9461365 -5.1339722 -0.98852682 4293729569
8.0769653 -4.8919826 -1.73964 4293729569
8.9130554 -5.234807 -1.0477107 4293729569
7.4854736 -4.7976151 -1.7357967 4293729569
6.9918518 -4.7306371 -1.7396038 4293729569
6.5132751 -4.660718 -1.7433527 4293729569
6.0417175 -4.5848284 -1.7450712 4293729569
5.585144 -4.5089998 -1.7467339 4293729569
5.1385498 -4.4312124 -1.7463582 4293729569
11.897186 -7.0114141 -1.6946037 4293729569
4.7339783 -4.3625913 -1.7498305 4293729569
10.985229 -6.7887511 -1.702883 4293729569
4.3164062 -4.2839203 -1.7493451 4293729569
10.113251 -6.5682516 -1.7060134 4293729569
3.9528503 -4.218462 -1.7546661 4293729569
9.3231506 -6.3690786 -1.7138507 4293729569
3.6152039 -4.161108 -1.7608945 4293729569
8.5270996 -6.1558867 -1.713702 4293729569
3.3745117 -4.1351347 -1.7797787 4293729569
7.8330078 -5.9731002 -1.718189 4293729569
3.1577454 -4.1162567 -1.8005774 4293729569
7.1468811 -5.7843499 -1.718642 4293729569
2.9850159 -4.1125507 -1.8282216 4293729569
6.5426941 -5.619926 -1.7228043 4293729569
2.8132629 -4.1068487 -1.8558595 4288085770
5.9904175 -5.4717078 -1.7297819 4293729569
2.6355591 -4.0951242 -1.8815167 4288085770
5.4432068 -5.3145132 -1.7327335 4293729569
2.4028625 -4.0571866 -1.8953636 4288085770
4.9239197 -5.1644316 -1.7335865 4293729569
2.1212769 -3.9930575 -1.9003775 4288085770
4.4515686 -5.0275364 -1.7382705 4293729569
1.8226929 -3.9188643 -1.8994496 4288085770
4.0272217 -4.9078321 -1.745786 4293729569
1.5491028 -3.8517694 -1.9014323 4288085770
3.6278381 -4.7902298 -1.7522089 4293729569
1.2165527 -3.7514479 -1.8886154 4288085770
3.1965027 -4.6545029 -1.7507408 4293729569
0.940979 -3.6743503 -1.8845994 4288085770
2.7382202 -4.4996743 -1.7403615 4293729569
0.67938232 -3.6003063 -1.8815324 4288085770
2.3818054 -4.3872452 -1.7436264 4293729569
0.43579102 -3.5313346 -1.8804018 4288085770
2.0673218 -4.2899837 -1.7507441 4293729569
0.22216797 -3.4724803 -1.8831646 4288085770
1.7698364 -4.1977892 -1.7578008 4293729569
-0.022460938 -3.3965068 -1.8780329 4288085770
1.4993286 -4.1127028 -1.7657602 4293729569
-0.21508789 -3.3417354 -1.8827202 4288085770
1.2867737 -4.053843 -1.7835195 4293729569
-0.42169189 -3.2779119 -1.8804538 4288085770
1.1750793 -4.0403771 -1.8179276 4293729569
-0.61035156 -3.2191594 -1.8821232 4288085770
1.0983582 -4.0420475 -1.8592136 4288085770
-0.81396484 -3.1513491 -1.8778427 4288085770
0.97967529 -4.0215554 -1.8916447 4288085770
-0.9815979 -3.0976799 -1.8804367 4288085770
0.76916504 -3.9517081 -1.9023883 4288085770
-1.1512451 -3.0410044 -1.8800361 4288085770
0.49862671 -3.8486302 -1.8973377 4288085770
-1.3219299 -2.9823256 -1.878638 4288085770
0.26812744 -3.7617085 -1.9001467 4288085770
-1.4815369 -2.9256897 -1.8781998 4288085770
-0.011322021 -3.647598 -1.8881218 4288085770
-1.6192627 -2.8801398 -1.8826869 4288085770
-0.24685669 -3.5526617 -1.8829453 4288085770
-1.7689209 -2.8245444 -1.8822119 4288085770
-0.45736694 -3.4678209 -1.8826807 4288085770
-1.9145508 -2.7699659 -1.8807228 4288085770
-0.65591431 -3.3870296 -1.8813732 4288085770
-2.0502014 -2.7174268 -1.8801968 4288085770
-0.84851074 -3.3062625 -1.8800442 4288085770
-2.1609192 -2.6769841 -1.8865855 4288085770
-1.0250549 -3.2325587 -1.8796585 4288085770
-2.278595 -2.6315155 -1.8889968 4288085770
-1.1996765 -3.1568639 -1.8782651 4288085770
-2.4022522 -2.5810232 -1.888428 4288085770
-1.3632202 -3.0852122 -1.8778322 4288085770
-2.5279236 -2.5275259 -1.8848646 4288085770
-1.5128479 -3.0186157 -1.8783505 4288085770
-2.6416321 -2.4790761 -1.8842595 4288085770
-1.6644592 -2.9500134 -1.8768752 4288085770
-1.7901001 -2.8935111 -1.8813093 4288085770
-1.9177246 -2.8340037 -1.8827498 4288085770
-2.0543518 -2.7674608 -1.8812191 4288085770
-2.1699829 -2.7110009 -1.8836162 4288085770
-2.2826233 -2.6555526 -1.8840024 4288085770
-2.3902588 -2.600126 -1.8853695 4288085770
-2.5009155 -2.5426865 -1.8847477 4288085770
-2.6015625 -2.4892867 -1.8850896 4288085770
-2.5844727 -0.28386354 -1.8353832 4288085770
-2.5163269 -0.2681489 -1.8271115 4288085770
-2.4031067 -0.25660515 -1.8326714 4288085770
-2.315979 -0.24196529 -1.8283279 4288085770
-2.2097473 -0.2293973 -1.8289135 4288085770
-2.0976257 -0.21685505 -1.8284762 4288085770
-1.9944153 -0.20427704 -1.8260734 4288085770
-1.8752441 -0.19176245 -1.8256094 4288085770
-1.7470703 -0.1792841 -1.8261111 4288085770
-1.6178894 -0.16680956 -1.8246086 4288085770
-2.5943909 -0.058882713 -1.8282526 4288085770
-1.4937439 -0.15431881 -1.8201258 4288085770
-2.4772034 -0.048357487 -1.8317978 4288085770
-1.3445435 -0.14292431 -1.8205478 4288085770
-2.3760376 -0.0357728 -1.8284023 4288085770
-1.1913757 -0.13054514 -1.8209546 4288085770
-2.2528687 -0.025272369 -1.8309243 4288085770
-1.0281982 -0.11920738 -1.8203232 4288085770
-2.1496887 -0.012696743 -1.8245208 4288085770
-0.85702515 -0.10790348 -1.8196614 4288085770
-2.0215149 -0.0022187233 -1.8250239 4288085770
-0.68887329 -0.096587181 -1.8170111 4288085770
-1.8853455 0.0082292557 -1.8264959 4288085770
-0.48968506 -0.085392952 -1.8182433 4288085770
-1.7612 0.020720959 -1.8210132 4288085770
-0.29348755 -0.074188709 -1.8164861 4288085770
-1.5979919 0.030061245 -1.8263834 4288085770
-0.076324463 -0.064067364 -1.8176501 4288085770
-1.4518127 0.041466713 -1.8238165 4288085770
0.14782715 -0.052976608 -1.8157866 4288085770
-1.2936707 0.051823139 -1.8232052 4288085770
0.39602661 -0.041980743 -1.8168309 4288085770
-1.1154785 0.062101841 -1.824517 4288085770
0.64819336 -0.032000542 -1.8148611 4288085770
-0.93432617 0.072367191 -1.8238184 4288085770
0.92733765 -0.021129608 -1.8147881 4288085770
-0.75115967 0.082623482 -1.8221114 4288085770
1.2135315 -0.010289192 -1.8116877 4288085770
-0.54800415 0.092799664 -1.8213284 4288085770
1.515686 -0.00051307678 -1.8075273 4288085770
-0.3248291 0.10289717 -1.8234684 4288085770
1.8538208 0.010119915 -1.8062289 4288085770
-0.11166382 0.11303139 -1.8196471 4288085770
2.2200317 0.019639492 -1.8038242 4288085770
0.12753296 0.12306166 -1.816726 4288085770
2.6261597 0.028998852 -1.8032672 4288085770
0.39968872 0.13296366 -1.81968 4288085770
3.0513611 0.039281368 -1.8016369 4288085770
0.65084839 0.14294386 -1.8137133 4288085770
3.5555115 0.047249794 -1.8047073 4288085770
0.92700195 0.15282345 -1.8096511 4288085770
4.0726929 0.056163311 -1.8037264 4288085770
1.2561646 0.16149378 -1.8113883 4288085770
4.6168213 0.064963818 -1.7986434 4288085770
1.5643005 0.1712451 -1.8062041 4288085770
5.2710266 0.072329044 -1.8021414 4288085770
1.9264832 0.17978191 -1.8048151 4288085770
5.9832153 0.080457687 -1.8014171 4288085770
2.3236389 0.18817806 -1.804292 4288085770
6.7693176 0.08728838 -1.8004119 4288085770
2.7618408 0.19640875 -1.8046129 4288085770
7.67453 0.093642712 -1.8029525 4288085770
3.2209778 0.20455503 -1.8038538 4288085770
8.660675 0.099667072 -1.800184 4288085770
3.7501221 0.21142197 -1.8048279 4288085770
9.7968445 0.10609102 -1.7988436 4288085770
4.3233032 0.21911001 -1.8046339 4288085770
11.130005 0.11072206 -1.7987521 4288085770
4.9394531 0.22662401 -1.8022754 4288085770
5.6596375 0.23372173 -1.8045204 4288085770
6.4207764 0.23965168 -1.8026092 4288085770
7.3249512 0.24501085 -1.8061531 4288085770
8.3451233 0.24990129 -1.8082535 4288085770
9.47229 0.25436068 -1.806946 4288085770
10.75943 0.25817442 -1.8060286 4288085770
11.102509 -2.8501709 -0.52978611 4293729569
11.094299 -2.7161231 -0.55674362 4293729569
11.121033 -2.5882187 -0.58257413 4293729569
11.9104 -2.5753639 -0.6286242 4293729569
11.430878 0.51286173 -1.8031833 4288085770
10.01709 0.53353786 -1.7971814 4288085770
8.8222656 0.55333519 -1.7954042 4288085770
7.813446 0.57138729 -1.7959692 4288085770
6.8945923 0.58907509 -1.7942145 4288085770
6.0827942 0.6063323 -1.7920806 4288085770
5.3760071 0.6231699 -1.793575 4288085770
12.180817 0.79478979 -1.7894504 4288085770
4.7461548 0.63869953 -1.7957971 4288085770
10.73996 0.80757761 -1.7865407 4288085770
4.1513367 0.65408421 -1.793895 4288085770
9.5031128 0.82154608 -1.7869093 4288085770
3.6185303 0.66922188 -1.7937739 4288085770
8.4112854 0.83393049 -1.7847655 4288085770
3.1336975 0.68416548 -1.7934821 4288085770
7.4784241 0.84667587 -1.7840588 4288085770
2.6988831 0.69890928 -1.7940133 4288085770
6.6206055 0.85911894 -1.7810862 4288085770
2.2830505 0.71357441 -1.7934768 4288085770
5.9067688 0.87298679 -1.7846038 4288085770
1.9232483 0.72801781 -1.7957428 4288085770
5.2079468 0.88478947 -1.7800686 4288085770
1.5794067 0.74139547 -1.7959521 4288085770
4.6160889 0.89716434 -1.7811549 4288085770
1.2636108 0.75566149 -1.7980621 4288085770
4.0802612 0.91031361 -1.7820427 4288085770
0.96075439 0.76987314 -1.798126 4288085770
3.6104736 0.92420197 -1.7866967 4288085770
0.69696045 0.78392982 -1.800051 4288085770
3.1426086 0.93607569 -1.784344 4288085770
0.44116211 0.79795456 -1.8019478 4288085770
2.7277832 0.94873905 -1.7848036 4288085770
0.19631958 0.81093407 -1.8018072 4288085770
2.3329468 0.96032095 -1.7831924 4288085770
-0.010467529 0.82576323 -1.8075302 4288085770
1.9951172 0.97467566 -1.7863786 4288085770
-0.25131226 0.83772278 -1.8013747 4288085770
1.6652832 0.98699617 -1.785538 4288085770
-0.42010498 0.85340166 -1.809963 4288085770
1.35849 1.000226 -1.7866142 4288085770
-0.61392212 0.86717606 -1.8106401 4288085770
1.0926514 1.0142913 -1.7905452 4288085770
-0.81680298 0.87898207 -1.8053501 4288085770
0.82183838 1.0273757 -1.7904947 4288085770
-0.97958374 0.89363432 -1.8079169 4288085770
0.60003662 1.0422664 -1.7962701 4288085770
-1.1434326 0.9072876 -1.8084877 4288085770
0.36520386 1.0562048 -1.7970912 4288085770
-1.3022461 0.91992044 -1.8070414 4288085770
0.16641235 1.071003 -1.8017852 4288085770
-1.4480591 0.93450069 -1.8075483 4288085770
-0.053405762 1.08288 -1.7995546 4288085770
-1.5928955 0.94707632 -1.806052 4288085770
-0.26126099 1.0957088 -1.7972806 4288085770
-1.7267456 0.96061039 -1.8065169 4288085770
-0.44506836 1.1094427 -1.796922 4288085770
-1.8535461 0.97411346 -1.8059566 4288085770
-0.62991333 1.1221786 -1.7955668 4288085770
-1.9683228 0.98857117 -1.8083532 4288085770
-0.79470825 1.1358361 -1.79514 4288085770
-2.0881958 1.0020471 -1.8067682 4288085770
-0.94354248 1.1504312 -1.7976568 4288085770
-2.1989746 1.0164876 -1.8071506 4288085770
-1.0893555 1.1650119 -1.7981632 4288085770
-2.3118286 1.0289335 -1.8045413 4288085770
-1.2271423 1.1795616 -1.7986405 4288085770
-2.3946228 1.0452647 -1.8098242 4288085770
-1.3670044 1.1921167 -1.7971261 4288085770
-2.5054626 1.0577011 -1.8042071 4288085770
-1.5068359 1.2046723 -1.7936122 4288085770
-2.5932617 1.0720496 -1.8055084 4288085770
-1.6166382 1.2211089 -1.7959898 4288085770
-1.7184143 1.2375169 -1.8003385 4288085770
-1.8432922 1.2500091 -1.7957714 4288085770
-1.9420776 1.2654033 -1.7981107 4288085770
-2.0368652 1.2817793 -1.7984345 4288085770
-2.1356812 1.2961707 -1.7977746 4288085770
-2.2235107 1.3115196 -1.7980745 4288085770
-2.3043213 1.3278389 -1.80035 4288085770
-2.3931274 1.3431892 -1.7986534 4288085770
-2.4689331 1.3594899 -1.7999108 4288085770
-2.5467834 1.3747964 -1.7991755 4288085770
-2.6255798 1.3901076 -1.7974432 4288085770
-2.5696106 2.9074268 -0.604532 4293729569
-2.4163208 2.9517937 -0.5919826 4293729569
-2.4254456 2.9168043 -0.56504059 4293729569
-2.3473816 2.922471 -0.54577351 4293729569
-2.2652588 2.9281187 -0.52649355 4293729569
-2.209259 2.9208717 -0.50531101 4293729569
-2.1211548 2.9274969 -0.48601007 4293729569
-2.032074 2.9321156 -0.46670747 4293729569
-1.9069519 2.9515924 -0.44927168 4293729569
-1.8449097 2.9423218 -0.42807055 4293729569
-2.07547 2.8204308 -0.68494129 4293729569
-1.7318115 2.9528446 -0.40968251 4293729569
-1.9713745 2.8279924 -0.6715858 4293729569
-1.6177063 2.9613667 -0.39129281 4293729569
-1.8862915 2.8246336 -0.65630245 4293729569
-1.4905701 2.9758339 -0.37285423 4293729569
-1.7852173 2.8282089 -0.64296031 4293729569
-1.3544617 2.9902649 -0.35438609 4293729569
-1.6460571 2.8446341 -0.63247967 4293729569
-1.5119019 2.8570776 -0.62101984 4293729569
-1.4138489 2.8526659 -0.60569382 4293729569
-1.2807007 2.8611135 -0.59423971 4293729569
-1.1716614 2.8576574 -0.57987618 4293729569
-1.0305176 2.8640728 -0.56839728 4293729569
-0.89141846 2.8684959 -0.55592656 4293729569
-0.73831177 2.875864 -0.54440689 4293729569
11.897919 -2.4418268 -1.8432419 4288085770
11.621948 -2.4643407 -0.9561789 4293729569
11.241974 -2.466177 -1.8504589 4288085770
11.755737 -2.6058366 -1.0318439 4293729569
10.558014 -2.4774179 -1.8517592 4288085770
11.181854 -2.634496 -1.0707896 4293729569
9.8921204 -2.4817321 -1.8509934 4288085770
10.774933 -2.6838248 -1.1181927 4293729569
9.2882385 -2.4902956 -1.8550231 4288085770
10.765869 -2.7937474 -1.1873109 4293729569
8.7143555 -2.4929798 -1.8569481 4288085770
10.904663 -2.9312611 -1.2669563 4293729569
8.1364746 -2.4886501 -1.8568809 4288085770
7.6006165 -2.484489 -1.8576725 4288085770
7.0687866 -2.4733458 -1.8554451 4288085770
6.5169373 -2.4541245 -1.8502786 4288085770
6.0251465 -2.4371443 -1.8469121 4288085770
5.5942993 -2.4284067 -1.8493483 4288085770
5.1694641 -2.4146957 -1.8497608 4288085770
11.580872 -3.8516269 -1.8754313 4288085770
4.7656555 -2.3990674 -1.8511012 4288085770
10.717346 -3.767138 -1.878257 4288085770
4.3778076 -2.3835058 -1.8513877 4288085770
9.8858337 -3.6807811 -1.8779743 4288085770
3.9940491 -2.3629599 -1.8506572 4288085770
9.1482849 -3.6058018 -1.8813856 4288085770
3.5942688 -2.333354 -1.8439724 4288085770
8.3897095 -3.5157433 -1.8758552 4288085770
3.2574768 -2.3159971 -1.8450863 4288085770
7.6751709 -3.4278629 -1.8711798 4288085770
2.9456482 -2.2997403 -1.8481185 4288085770
7.0055847 -3.3431642 -1.8663552 4288085770
2.6308289 -2.277472 -1.8491552 4288085770
6.3650208 -3.2575841 -1.8584325 4288085770
2.3260498 -2.2552471 -1.8481581 4288085770
5.8154297 -3.1873679 -1.858218 4288085770
2.0572815 -2.239162 -1.8520453 4288085770
5.2978516 -3.1202793 -1.8578985 4288085770
1.805481 -2.2221479 -1.8568757 4288085770
4.8032227 -3.0532873 -1.854502 4288085770
1.5526733 -2.2031293 -1.8597071 4288085770
4.3385925 -2.9874141 -1.8540065 4288085770
1.3009033 -2.1821151 -1.8625333 4288085770
3.9099731 -2.9276865 -1.8533943 4288085770
1.0501404 -2.1571064 -1.8613532 4288085770
3.4913025 -2.8650007 -1.8507473 4288085770
0.81433105 -2.1331592 -1.8621242 4288085770
3.1106567 -2.8094661 -1.8519781 4288085770
0.59255981 -2.1102667 -1.8638484 4288085770
2.7600098 -2.7570524 -1.853111 4288085770
0.36578369 -2.0833554 -1.8625867 4288085770
2.4273071 -2.7067111 -1.8551853 4288085770
0.15802002 -2.0595202 -1.8642633 4288085770
2.1036682 -2.6544077 -1.8552282 4288085770
-0.035766602 -2.0377407 -1.866895 4288085770
1.7989807 -2.6051807 -1.8562095 4288085770
-0.22357178 -2.014986 -1.8685057 4288085770
1.5353088 -2.5641158 -1.8610604 4288085770
-0.42431641 -1.9861808 -1.8661554 4288085770
1.2416382 -2.5119352 -1.8590024 4288085770
-0.61407471 -1.9574203 -1.8647678 4288085770
0.98791504 -2.4679136 -1.8608177 4288085770
-0.77386475 -1.937777 -1.8692873 4288085770
0.73922729 -2.423912 -1.8626153 4288085770
-0.93664551 -1.9141226 -1.8708136 4288085770
0.49853516 -2.3789434 -1.8633859 4288085770
-1.0974121 -1.8894782 -1.8723323 4288085770
0.26086426 -2.3319874 -1.8621447 4288085770
-1.2441711 -1.867888 -1.8748071 4288085770
0.048126221 -2.291132 -1.8638246 4288085770
-1.3909607 -1.8442979 -1.877279 4288085770
-0.15658569 -2.2513084 -1.8654788 4288085770
-1.5507507 -1.8136601 -1.8737905 4288085770
-0.35827637 -2.2094975 -1.8661215 4288085770
-1.6925049 -1.7890921 -1.8742449 4288085770
-0.55297852 -2.1677165 -1.8657405 4288085770
-1.8212585 -1.7665739 -1.8776586 4288085770
-0.72872925 -2.1310086 -1.8683002 4288085770
-1.9480591 -1.7430668 -1.8790643 4288085770
-0.92443848 -2.0852265 -1.863919 4288085770
-2.0978088 -1.7094703 -1.8725393 4288085770
-1.0641479 -2.0576615 -1.8723652 4288085770
-2.2305603 -1.6809411 -1.869961 4288085770
-1.2198792 -2.0220342 -1.8748586 4288085770
-2.3383789 -1.6595087 -1.874305 4288085770
-1.3765869 -1.984406 -1.8753545 4288085770
-2.4521179 -1.6350541 -1.8746665 4288085770
-1.5303345 -1.9467921 -1.8738391 4288085770
-2.545929 -1.6166749 -1.8819664 4288085770
-1.6760254 -1.9102058 -1.8742983 4288085770
-1.810791 -1.8756666 -1.8767226 4288085770
-1.9405212 -1.842145 -1.8781302 4288085770
-2.0722351 -1.8056192 -1.8765428 4288085770
-2.2199707 -1.7620316 -1.8690031 4288085770
-2.3357239 -1.729569 -1.8703649 4288085770
-2.4354858 -1.7031674 -1.8756788 4288085770
-2.5602112 -1.663672 -1.870065 4288085770
-2.6569519 -1.6342835 -1.8733661 4288085770
-2.6037598 0.3688283 -1.8188713 4288085770
-2.5016174 0.38040686 -1.8175309 4288085770
-2.3824158 0.39291859 -1.8191335 4288085770
-2.268219 0.40444946 -1.818753 4288085770
-2.144043 0.41594028 -1.8183405 4288085770
-2.0239258 0.42744493 -1.8159411 4288085770
-1.8987427 0.43893003 -1.8135254 4288085770
-1.7565613 0.4493475 -1.8140543 4288085770
-2.6094055 0.46681023 -1.8248241 4288085770
-1.6043701 0.46072578 -1.8145506 4288085770
-2.505249 0.47637844 -1.8204777 4288085770
-1.4452209 0.47207355 -1.8160245 4288085770
-2.3921204 0.48591185 -1.8181026 4288085770
-1.308075 0.48350573 -1.8075702 4288085770
-2.2579346 0.49536467 -1.8216588 4288085770
-1.1218872 0.49474764 -1.8109553 4288085770
-2.1297302 0.50383711 -1.8202355 4288085770
-0.94470215 0.50602293 -1.8093703 4288085770
-2.0046082 0.51332092 -1.8158209 4288085770
-0.76254272 0.51627588 -1.8067701 4288085770
-1.8624573 0.52173758 -1.8153522 4288085770
-0.56140137 0.52745438 -1.8061073 4288085770
-1.7122803 0.53012276 -1.8158572 4288085770
-0.32821655 0.53850412 -1.8103402 4288085770
-1.5631104 0.5385108 -1.8133652 4288085770
-0.12203979 0.5496583 -1.8046615 4288085770
-1.3929443 0.54681492 -1.8148057 4288085770
0.12915039 0.56063509 -1.8058355 4288085770
-1.2148132 0.55508804 -1.8162196 4288085770
0.38330078 0.5715971 -1.8050005 4288085770
-1.0386353 0.56336641 -1.8136399 4288085770
0.64846802 0.58151531 -1.8031299 4288085770
-0.8454895 0.57157469 -1.8130057 4288085770
0.92565918 0.59238291 -1.7992208 4288085770
-0.61428833 0.57963657 -1.819247 4288085770
1.2417908 0.60309362 -1.7991846 4288085770
-0.42816162 0.5858717 -1.8126376 4288085770
1.5669556 0.61276722 -1.796119 4288085770
-0.2170105 0.59200573 -1.8079455 4288085770
1.9431763 0.62423706 -1.7978866 4288085770
0.028137207 0.5990057 -1.8081429 4288085770
2.3203125 0.63469839 -1.7936523 4288085770
0.27429199 0.60599804 -1.8043363 4288085770
2.7554932 0.64492893 -1.7952287 4288085770
0.55645752 0.61184883 -1.805414 4288085770
3.219696 0.65603924 -1.79371 4288085770
0.82855225 0.61673546 -1.7995255 4288085770
3.723877 0.66598749 -1.7920625 4288085770
1.1487427 0.62343168 -1.8014786 4288085770
4.2900085 0.67668533 -1.7922132 4288085770
1.4868774 0.62805319 -1.8003752 4288085770
4.8981934 0.68721199 -1.7912266 4288085770
1.8410339 0.6326108 -1.7992198 4288085770
5.5853882 0.69741964 -1.7919838 4288085770
2.2261963 0.63604164 -1.7969639 4288085770
6.325531 0.70741034 -1.7885683 4288085770
2.6473083 0.63932657 -1.796592 4288085770
7.1987305 0.71786547 -1.7927206 4288085770
3.1194763 0.64240694 -1.7980535 4288085770
8.2069092 0.72977352 -1.7974322 4288085770
3.621582 0.64536333 -1.7984183 4288085770
9.2661133 0.73947048 -1.7949798 4288085770
4.1827393 0.64708281 -1.7995913 4288085770
10.558319 0.7502265 -1.7987678 4288085770
4.7828979 0.64764261 -1.7996385 4288085770
12.03949 0.76021481 -1.8009427 4288085770
5.4329834 0.64599752 -1.7965252 4288085770
6.1761169 0.64397764 -1.7971094 4288085770
7.0012512 0.64062595 -1.7984278 4288085770
7.9483643 0.63578033 -1.8013508 4288085770
9.0125122 0.62946129 -1.8038943 4288085770
10.20462 0.61961889 -1.804024 4288085770
11.722748 0.60746479 -1.8180954 4288085770
3.3725281 -4.9356899 -0.391366 4293729569
3.401123 -4.8719416 -0.43040609 4293729569
12.444458 -7.6990314 -0.22242117 4293729569
12.368225 -7.6783819 -1.2689979 4293729569
12.665894 -7.6477489 -1.3312223 4293729569
8.9024658 -5.2912254 -1.3041716 4293729569
8.9008179 -5.1613569 -0.48061228 4293729569
8.9681702 -5.1885777 -1.3311112 4293729569
12.657013 -6.1198821 -1.6515639 4293729569
12.484924 -5.91225 -1.6583703 4293729569
12.299866 -5.7035604 -1.6632621 4293729569
12.121796 -5.5018835 -1.6640851 4293729569
11.996643 -5.3174205 -1.6675146 4293729569
11.891449 -5.1390285 -1.6697962 4293729569
11.80127 -4.9676986 -1.6729586 4293729569
11.736023 -4.804461 -1.6749356 4293729569
11.738739 -4.6604986 -1.6814153 4293729569
11.990326 -4.5785537 -1.7051075 4293729569
12.421875 -4.5383482 -1.7425168 4293729569
11.304382 -2.9063327 -0.65819526 4293729569
10.738434 -2.7791867 -1.5282357 4293729569
11.235016 -2.7590151 -0.6421423 4293729569
10.876953 -2.6697047 -1.5227368 4293729569
11.34549 -2.6423993 -0.62884521 4293729569
11.400391 -2.6187949 -1.5436013 4293729569
12.116699 -2.6263804 -0.63202119 4293729569
12.499786 0.88027334 -1.7677925 4288085770
11.139984 0.91853809 -1.7647107 4288085770
9.9752197 0.9530406 -1.7643554 4288085770
8.9484558 0.98601055 -1.7631032 4288085770
8.1217346 1.0201735 -1.7715619 4288085770
7.2729187 1.0474677 -1.7671402 4288085770
6.5411072 1.074297 -1.7659609 4288085770
5.9223633 1.101675 -1.7690527 4288085770
5.3225403 1.1259918 -1.7680118 4288085770
12.157379 1.5866585 -1.7363627 4288085770
4.8007812 1.1519976 -1.7704723 4288085770
11.070587 1.6028271 -1.7454431 4288085770
4.3169861 1.175859 -1.7716801 4288085770
10.046753 1.6167688 -1.74911 4288085770
3.8832092 1.1995249 -1.7735636 4288085770
9.1419373 1.6312542 -1.7520087 4288085770
3.4854431 1.2240496 -1.7762182 4288085770
8.3070984 1.6434765 -1.7524474 4288085770
3.1116638 1.2464848 -1.7777097 4288085770
7.5682678 1.65732 -1.7552707 4288085770
2.7598877 1.2678385 -1.7780554 4288085770
6.8834229 1.6699648 -1.7547414 4288085770
2.4430847 1.2900524 -1.7801783 4288085770
6.2675781 1.6833448 -1.7537682 4288085770
2.1352844 1.3112407 -1.7792399 4288085770
5.7177734 1.6984615 -1.7553742 4288085770
1.8584595 1.3332992 -1.7811038 4288085770
5.2009277 1.7114573 -1.7547596 4288085770
1.6247253 1.3571754 -1.7876952 4288085770
4.7481384 1.7281971 -1.7567437 4288085770
1.3889771 1.3790736 -1.7902935 4288085770
4.3543091 1.7476997 -1.7613556 4288085770
1.1571655 1.3999624 -1.7908628 4288085770
3.9835205 1.7651157 -1.7648118 4288085770
0.91931152 1.4178896 -1.7874606 4288085770
3.6097412 1.7805586 -1.764281 4288085770
0.72454834 1.4396296 -1.7897933 4288085770
3.2628784 1.7968979 -1.7635791 4288085770
0.51672363 1.4584332 -1.7882001 4288085770
2.946106 1.813118 -1.7636821 4288085770
0.34597778 1.4810772 -1.7913806 4288085770
2.6712952 1.8331614 -1.7675269 4288085770
0.1791687 1.5027137 -1.7925322 4288085770
2.4075012 1.8521709 -1.7692969 4288085770
0.0083618164 1.5213718 -1.7916996 4288085770
2.1577148 1.8701296 -1.7699726 4288085770
-0.13043213 1.5438929 -1.7946727 4288085770
1.9399414 1.892952 -1.7744577 4288085770
-0.27920532 1.5644636 -1.7947047 4288085770
1.7181396 1.9118032 -1.774956 4288085770
-0.42300415 1.5840139 -1.7947004 4288085770
1.5193787 1.9325552 -1.778311 4288085770
-0.55178833 1.6055079 -1.7946055 4288085770
1.331543 1.9542713 -1.7795994 4288085770
-0.67556763 1.6269779 -1.7954786 4288085770
1.1247253 1.9700756 -1.7769897 4288085770
-0.78436279 1.6493826 -1.7982576 4288085770
0.94592285 1.9897604 -1.7772124 4288085770
-0.89813232 1.6708155 -1.7990658 4288085770
0.77011108 2.0094414 -1.7754157 4288085770
-1.0139465 1.6912632 -1.7978837 4288085770
0.6343689 2.0349445 -1.78038 4288085770
-1.119751 1.7116709 -1.7966368 4288085770
0.50061035 2.0594463 -1.7833283 4288085770
-1.2235413 1.7330713 -1.7953804 4288085770
0.36181641 2.0809746 -1.7842987 4288085770
-1.3012695 1.7583513 -1.799969 4288085770
0.22201538 2.1025133 -1.7832754 4288085770
-1.3971252 1.7787218 -1.7986572 4288085770
0.084197998 2.1220522 -1.7802327 4288085770
-1.4799194 1.801033 -1.799268 4288085770
-0.043640137 2.1425486 -1.7781284 4288085770
-1.5536499 1.8253088 -1.8008273 4288085770
-0.14736938 2.1679354 -1.7808855 4288085770
-1.6384888 1.8466396 -1.7984478 4288085770
-0.25515747 2.1913509 -1.7796614 4288085770
-1.7212524 1.8669634 -1.7960517 4288085770
-0.35693359 2.214736 -1.7803991 4288085770
-1.7840576 1.8921947 -1.7975433 4288085770
-0.44268799 2.2430534 -1.7830498 4288085770
-1.8688965 1.9105377 -1.7921541 4288085770
-0.53652954 2.2664156 -1.7817352 4288085770
-1.9176331 1.9387045 -1.7965643 4288085770
-0.61724854 2.2937193 -1.7833498 4288085770
-1.9633789 1.9668646 -1.7999556 4288085770
-0.70904541 2.3170795 -1.7800224 4288085770
-2.0131531 1.9940405 -1.8033698 4288085770
-0.79083252 2.342391 -1.7796371 4288085770
-2.0708923 2.0182638 -1.8018253 4288085770
-0.84555054 2.3755827 -1.7841036 4288085770
-2.1216736 2.0444536 -1.8022425 4288085770
-0.91833496 2.4018669 -1.7816632 4288085770
-0.98913574 2.429141 -1.7802131 4288085770
-1.0418701 2.4593315 -1.7826564 4288085770
-1.1036377 2.4875736 -1.7801516 4288085770
-1.1634216 2.5158043 -1.7786338 4288085770
-1.2011108 2.5509338 -1.7819965 4288085770
-1.2468872 2.583107 -1.7814014 4288085770
-1.2806091 2.6192245 -1.7837422 4288085770
-1.3303833 2.6484241 -1.780163 4288085770
-1.3601074 2.6855278 -1.7824805 4288085770
-1.3928528 2.7206497 -1.7818115 4288085770
-1.4236145 2.7557659 -1.7811291 4288085770
-1.4462891 2.7938442 -1.7824047 4288085770
-1.4740601 2.8309517 -1.7807095 4288085770
-1.4917908 2.8700151 -1.7809565 4288085770
-1.5125122 2.9090958 -1.7792227 4288085770
-1.5322571 2.9471731 -1.7774789 4288085770
-1.6232605 2.9545975 -1.7550919 4288085770
-2.0739136 3.6358557 -0.325073 4293729569
11.898346 -1.1200681 -1.7902024 4288085770
10.975342 -1.1475186 -1.7981875 4288085770
10.133423 -1.1712804 -1.8056514 4288085770
9.3285217 -1.1881757 -1.8098958 4288085770
8.575592 -1.2002645 -1.8118136 4288085770
7.929657 -1.216794 -1.8210118 4288085770
7.2817993 -1.2252951 -1.8242505 4288085770
6.6098633 -1.2236719 -1.8186829 4288085770
6.0059509 -1.2223258 -1.8166664 4288085770
5.4690552 -1.223249 -1.8172009 4288085770
11.849182 -2.021019 -1.8113458 4288085770
4.940155 -1.219193 -1.8146994 4288085770
10.782501 -1.9758959 -1.8155329 4288085770
4.5003052 -1.2215104 -1.8205893 4288085770
9.8017883 -1.9311008 -1.8181522 4288085770
4.0434875 -1.2167416 -1.8206155 4288085770
8.9040527 -1.8876286 -1.8202202 4288085770
3.6125793 -1.2100668 -1.8184779 4288085770
8.1373596 -1.8546844 -1.828388 4288085770
3.2007141 -1.2024717 -1.818218 4288085770
7.3446045 -1.8096008 -1.8257697 4288085770
2.829895 -1.1950393 -1.8186867 4288085770
6.645874 -1.7698932 -1.8255136 4288085770
2.480011 -1.1876845 -1.8180177 4288085770
5.9711304 -1.7262621 -1.8211119 4288085770
2.163147 -1.1814704 -1.8211267 4288085770
5.3913269 -1.6920195 -1.8220522 4288085770
1.8563232 -1.1732907 -1.8231766 4288085770
4.8526306 -1.657939 -1.8237212 4288085770
1.5595093 -1.1641469 -1.8241637 4288085770
4.3468323 -1.6239824 -1.8241727 4288085770
1.278656 -1.1550655 -1.8250453 4288085770
3.8820801 -1.5931897 -1.8263428 4288085770
1.020813 -1.1460829 -1.8287756 4288085770
3.4103394 -1.5563459 -1.8215806 4288085770
0.7749939 -1.1371388 -1.8304265 4288085770
3.022583 -1.5298586 -1.825228 4288085770
0.53817749 -1.127233 -1.8330209 4288085770
2.6358337 -1.4993639 -1.8258827 4288085770
0.32232666 -1.1194162 -1.8374698 4288085770
2.2790527 -1.4709888 -1.8273332 4288085770
0.090545654 -1.1055198 -1.8370454 4288085770
1.9412842 -1.443687 -1.8286541 4288085770
-0.10327148 -1.0977907 -1.8423493 4288085770
1.615509 -1.4144235 -1.8279026 4288085770
-0.33013916 -1.0808973 -1.8369029 4288085770
1.3197021 -1.389287 -1.8299396 4288085770
-0.51593018 -1.0691915 -1.8401673 4288085770
1.0349731 -1.3631897 -1.8309071 4288085770
-0.69378662 -1.0575171 -1.8433793 4288085770
0.78518677 -1.3402386 -1.8346326 4288085770
-0.86660767 -1.045856 -1.844559 4288085770
0.52740479 -1.3142462 -1.8354218 4288085770
-1.0384216 -1.0321984 -1.8457382 4288085770
0.31167603 -1.294435 -1.841913 4288085770
-1.2102661 -1.017529 -1.8439209 4288085770
0.075897217 -1.2685189 -1.8405564 4288085770
-1.3490295 -1.0070167 -1.8498714 4288085770
-0.15090942 -1.2426424 -1.8401411 4288085770
-1.5008545 -0.99343252 -1.8499191 4288085770
-0.36273193 -1.217824 -1.8396232 4288085770
-1.6637268 -0.97579241 -1.8460534 4288085770
-0.55749512 -1.1950769 -1.8409855 4288085770
-1.8045044 -0.96125412 -1.8470314 4288085770
-0.74530029 -1.1723566 -1.8423026 4288085770
-1.9363098 -0.94775343 -1.8489468 4288085770
-0.92407227 -1.149673 -1.8435595 4288085770
-2.0691528 -0.93223906 -1.8478754 4288085770
-1.1028442 -1.1259775 -1.8418195 4288085770
-1.2686462 -1.1033401 -1.8419907 4288085770
-1.425415 -1.0817409 -1.8430994 4288085770
-1.558197 -1.0632467 -1.848038 4288085770
-1.7189636 -1.0376139 -1.844187 4288085770
-1.8547974 -1.0170956 -1.8451531 4288085770
-1.9755859 -0.99864435 -1.8490126 4288085770
-2.103363 -0.97815228 -1.8489258 4288085770
-2.0141907 0.99096107 -1.8108408 4288085770
-1.8759766 1.0054154 -1.8119709 4288085770
-1.7358093 1.018868 -1.8110836 4288085770
-1.5926208 1.0323124 -1.8091767 4288085770
-1.4234314 1.047636 -1.8131039 4288085770
-1.2843018 1.0591168 -1.8052166 4288085770
-1.1040955 1.0734005 -1.8080666 4288085770
-2.0723267 0.99313259 -1.8162305 4288085770
-0.91690063 1.088665 -1.8088734 4288085770
-1.9421692 1.0016313 -1.8133938 4288085770
-0.73977661 1.1009841 -1.8047364 4288085770
-1.7980042 1.0110612 -1.8144662 4288085770
-0.5305481 1.11516 -1.8063929 4288085770
-1.6408081 1.0214429 -1.8154557 4288085770
-0.32641602 1.1283693 -1.8040798 4288085770
-1.4977112 1.0288939 -1.8115289 4288085770
-0.097198486 1.1434708 -1.8046062 4288085770
-1.3215027 1.0381927 -1.8143876 4288085770
0.13397217 1.1575747 -1.8021162 4288085770
-1.1523438 1.0465298 -1.8142908 4288085770
0.38113403 1.1716137 -1.8005197 4288085770
-0.95016479 1.0577226 -1.8189838 4288085770
0.62731934 1.1836672 -1.7959225 4288085770
-0.76599121 1.0650058 -1.8177826 4288085770
0.90847778 1.198575 -1.7941024 4288085770
-0.57382202 1.0722599 -1.8155291 4288085770
1.1896362 1.2104921 -1.7892725 4288085770
-0.36871338 1.0784616 -1.8141849 4288085770
1.5038147 1.2252727 -1.7872326 4288085770
-0.16455078 1.0836782 -1.8098438 4288085770
1.8399963 1.2389722 -1.7840421 4288085770
0.064575195 1.0907855 -1.8083432 4288085770
2.1871338 1.2526302 -1.7797792 4288085770
0.28768921 1.0949283 -1.8038723 4288085770
2.5753174 1.2671213 -1.7782457 4288085770
0.52380371 1.0990233 -1.7983148 4288085770
3.0085449 1.2834296 -1.7784193 4288085770
0.79592896 1.1039624 -1.7975214 4288085770
3.4416504 1.2957602 -1.7725794 4288085770
1.0620422 1.1069407 -1.7917602 4288085770
3.9338684 1.3118482 -1.7703598 4288085770
1.3832397 1.1126804 -1.7936428 4288085770
4.460022 1.325808 -1.7669065 4288085770
1.6903381 1.1144943 -1.7896054 4288085770
5.0091858 1.3396897 -1.7603004 4288085770
2.0374756 1.1171398 -1.789304 4288085770
5.6614075 1.3571467 -1.7610209 4288085770
2.3926086 1.1177688 -1.7849429 4288085770
6.3735962 1.3743806 -1.7583416 4288085770
2.7817383 1.1182628 -1.7813551 4288085770
7.1727905 1.3922753 -1.7560856 4288085770
3.2258606 1.1195254 -1.7824042 4288085770
8.0860291 1.4117146 -1.757076 4288085770
3.6859741 1.1197386 -1.7803433 4288085770
9.0852661 1.4308295 -1.7554934 4288085770
4.1630859 1.1158948 -1.7751558 4288085770
10.173462 1.4496074 -1.7513177 4288085770
4.7192078 1.1127262 -1.7754438 4288085770
11.411652 1.4678078 -1.7451422 4288085770
5.3083496 1.1084356 -1.7735093 4288085770
12.833862 1.4872899 -1.7397473 4288085770
5.95047 1.1019382 -1.7722142 4288085770
6.6695557 1.0941377 -1.7714031 4288085770
7.4486694 1.0841103 -1.7691844 4288085770
8.304718 1.0697837 -1.7664392 4288085770
9.2628174 1.0530605 -1.7640073 4288085770
10.375885 1.0357203 -1.7655418 4288085770
11.545959 1.0091848 -1.7596657 4288085770
3.6422119 -7.3445797 -0.7535212 4293729569
3.7586365 -7.3902769 -0.82359171 4293729569
3.8032532 -7.3836799 -0.88931918 4293729569
3.9253845 -7.3826165 -1.0215139 4293729569
4.0637817 -7.4294057 -1.0934348 4293729569
4.2052612 -7.4732099 -1.1663454 4293729569
4.3306885 -7.5039468 -1.2374072 4293729569
4.473175 -7.5417585 -1.311332 4293729569
4.6017151 -7.565506 -1.3823969 4293729569
4.7512207 -7.5993452 -1.4562881 4293729569
5.1634216 -7.7327328 -0.80307007 4293729569
4.9086914 -7.6342154 -1.5311258 4293729569
5.2550049 -7.7183075 -0.86551738 4293729569
5.0162964 -7.6338749 -1.6004183 4293729569
0.72570801 -4.7988405 -0.62964511 4293729569
4.9242249 -7.5026698 -1.6444871 4293729569
0.73025513 -4.751986 -0.66577983 4293729569
0.79034424 -4.834919 -1.1651123 4293729569
0.72686768 -4.6970935 -0.6999948 4293729569
0.74694824 -4.7568517 -1.1936727 4293729569
0.76135254 -4.6653557 -0.73587823 4293729569
0.76147461 -4.7140293 -1.2277267 4293729569
0.8187561 -4.646709 -0.77256465 4293729569
0.76702881 -4.6641679 -1.260865 4293729569
0.86227417 -4.6180058 -0.80837846 4293729569
0.80249023 -4.6304297 -1.2957494 4293729569
0.86599731 -4.6128168 -1.3353918 4293729569
3.192627 -5.9231925 -1.7164485 4293729569
2.9595642 -5.7132816 -1.714721 4293729569
