# .PCD v0.7 - Point Cloud Data file format
VERSION 0.7
FIELDS x y z rgb
SIZE 4 4 4 4
TYPE F F F U
COUNT 1 1 1 1
WIDTH 1126
HEIGHT 1
VIEWPOINT 0 0 0 1 0 0 0
POINTS 1126
DATA ascii
5.4373436 -0.5956192 -1.7872517 4288085770
5.5804558 -0.58369946 -1.7902629 4288085770
4.6085663 -0.46524286 -1.8064561 4288085770
5.7065697 -0.56976342 -1.7872773 4288085770
4.6916809 -0.45027852 -1.7984734 4288085770
5.8636818 -0.55785131 -1.7902879 4288085770
4.7997932 -0.4383359 -1.7974856 4288085770
6.0077934 -0.54492402 -1.7873001 4288085770
4.9249077 -0.42640901 -1.8014971 4288085770
6.1559067 -0.53099871 -1.7843137 4288085770
5.0380211 -0.41346645 -1.7985106 4288085770
6.3260155 -0.51908898 -1.7843236 4288085770
5.1551285 -0.40052748 -1.7965235 4288085770
6.5001297 -0.50617981 -1.7833345 4288085770
5.2922401 -0.38960242 -1.7975333 4288085770
6.6872444 -0.49427676 -1.7823437 4288085770
5.4193535 -0.37566543 -1.7935473 4288085770
6.883358 -0.48137712 -1.780354 4288085770
5.5604668 -0.36373973 -1.7925581 4288085770
7.1014671 -0.46949148 -1.7803619 4288085770
5.7255745 -0.35283136 -1.7955666 4288085770
7.3225784 -0.45760417 -1.7783697 4288085770
5.874691 -0.3399055 -1.7915783 4288085770
7.5826912 -0.44674468 -1.7823749 4288085770
6.0458031 -0.32799625 -1.7915877 4288085770
7.8537979 -0.43588829 -1.7843792 4288085770
6.2109146 -0.31607842 -1.7875975 4288085770
8.1419144 -0.42504144 -1.7873832 4288085770
6.4060287 -0.30418253 -1.7886059 4288085770
8.4350281 -0.4131906 -1.785388 4288085770
6.603138 -0.29328489 -1.787613 4288085770
8.7071419 -0.39931941 -1.7763962 4288085770
6.816246 -0.28139615 -1.7876208 4288085770
9.0252457 -0.38747787 -1.7724001 4288085770
7.04636 -0.27051926 -1.7896264 4288085770
9.3733597 -0.37465 -1.7674041 4288085770
7.2524719 -0.25761509 -1.7806356 4288085770
9.7694702 -0.36385345 -1.7674034 4288085770
7.4995842 -0.24574113 -1.7786417 4288085770
10.191582 -0.35306668 -1.7654015 4288085770
7.8636894 -0.23795485 -1.7976383 4288085770
10.697697 -0.34333205 -1.7703954 4288085770
8.0838051 -0.22404957 -1.7826478 4288085770
11.194805 -0.3325808 -1.7663907 4288085770
8.3969193 -0.21321011 -1.7816501 4288085770
11.701916 -0.31982851 -1.7583879 4288085770
8.73703 -0.20238543 -1.7816509 4288085770
12.270031 -0.30710554 -1.749383 4288085770
9.1291389 -0.19159126 -1.78465 4288085770
12.935143 -0.29643798 -1.7453715 4288085770
9.4602547 -0.17874551 -1.7726537 4288085770
13.605255 -0.28376079 -1.7323623 4288085770
9.9103661 -0.16798329 -1.7776501 4288085770
14.443367 -0.2741828 -1.7303424 4288085770
10.392475 -0.15723109 -1.7786453 4288085770
15.362476 -0.26363826 -1.7233207 4288085770
10.910591 -0.14649773 -1.7796389 4288085770
16.369591 -0.25313854 -1.7162952 4288085770
11.389702 -0.13472772 -1.7686349 4288085770
17.539703 -0.24271894 -1.7082633 4288085770
11.90781 -0.12297297 -1.7546293 4288085770
19.004814 -0.23445749 -1.7082173 4288085770
12.595924 -0.11232591 -1.7566158 4288085770
13.256035 -0.10064554 -1.7446042 4288085770
14.035149 -0.090031862 -1.7375865 4288085770
14.95826 -0.078497171 -1.7355645 4288085770
15.925369 -0.06797266 -1.7245388 4288085770
17.067482 -0.056539774 -1.7165073 4288085770
18.491592 -0.046260357 -1.717463 4288085770
18.303329 0.17034101 -1.7052253 4288085770
16.986443 0.185004 -1.7123839 4288085770
15.829556 0.19759011 -1.7145227 4288085770
14.898666 0.21204901 -1.7266392 4288085770
13.940781 0.22453904 -1.7237567 4288085770
13.232891 0.23788261 -1.7368475 4288085770
12.586006 0.25119591 -1.748932 4288085770
18.953125 0.38799 -1.6973863 4288085770
11.939117 0.26351953 -1.7520156 4288085770
17.534233 0.39771104 -1.6985508 4288085770
11.413231 0.27777195 -1.763088 4288085770
16.388351 0.41028237 -1.7086892 4288085770
10.968342 0.29197741 -1.7791514 4288085770
15.332455 0.42081571 -1.7118152 4288085770
10.431454 0.30325317 -1.7742219 4288085770
14.468571 0.43324256 -1.7219226 4288085770
9.9945679 0.31546807 -1.7782824 4288085770
13.650681 0.44365335 -1.7250227 4288085770
9.5766716 0.32767582 -1.780341 4288085770
12.971786 0.45698571 -1.7351111 4288085770
9.2217865 0.34084487 -1.7873936 4288085770
12.342899 0.46929431 -1.7431927 4288085770
8.8128929 0.35205889 -1.7794501 4288085770
11.75901 0.48158312 -1.7482693 4288085770
8.4710083 0.36323047 -1.7784991 4288085770
11.315128 0.49678683 -1.7653339 4288085770
8.1691208 0.37537813 -1.780545 4288085770
10.869244 0.50999928 -1.7753967 4288085770
7.9292297 0.38948536 -1.790586 4288085770
10.36935 0.52025414 -1.772462 4288085770
7.6263466 0.40064144 -1.7856309 4288085770
9.9514656 0.53245997 -1.7755204 4288085770
7.3884544 0.41275406 -1.7896695 4288085770
9.5785751 0.54564202 -1.7795751 4288085770
7.1545639 0.42486787 -1.7907079 4288085770
9.1736832 0.55485034 -1.7746289 4288085770
6.9346809 0.43797374 -1.7927458 4288085770
8.8307953 0.56702113 -1.7746792 4288085770
6.7037926 0.44909263 -1.7877829 4288085770
8.5429115 0.58015609 -1.7817245 4288085770
6.5019035 0.46119142 -1.7878178 4288085770
8.2390251 0.59230936 -1.7797705 4288085770
6.3220177 0.47427559 -1.7908514 4288085770
7.9671364 0.60444272 -1.7808131 4288085770
6.149128 0.48635709 -1.7928828 4288085770
7.7152443 0.61656487 -1.7828535 4288085770
5.971241 0.49844587 -1.7909151 4288085770
7.4523582 0.62769926 -1.7788938 4288085770
5.8293495 0.51150918 -1.7949444 4288085770
7.2204704 0.63981438 -1.777932 4288085770
5.6764603 0.52458179 -1.795975 4288085770
7.000576 0.65092337 -1.7769676 4288085770
5.5175743 0.53566289 -1.7920039 4288085770
6.8026924 0.66401887 -1.7780031 4288085770
5.3726845 0.54773438 -1.7900326 4288085770
6.611805 0.67611194 -1.7780367 4288085770
5.2287941 0.55980802 -1.786061 4288085770
6.4369164 0.69019556 -1.7790706 4288085770
5.101902 0.5718683 -1.7860875 4288085770
6.2830315 0.70426404 -1.7841022 4288085770
4.983017 0.58492422 -1.7861143 4288085770
6.1011391 0.7153579 -1.7791337 4288085770
4.8751335 0.59897137 -1.7891409 4288085770
5.9612541 0.72942042 -1.7831639 4288085770
4.7722473 0.6120168 -1.7911659 4288085770
5.8083649 0.74249721 -1.7801944 4288085770
4.6753616 0.62605965 -1.7931914 4288085770
5.6504745 0.75257885 -1.7752221 4288085770
5.4945869 0.76366174 -1.7682508 4288085770
5.3716965 0.77671981 -1.7682779 4288085770
5.2518082 0.78977752 -1.7673045 4288085770
5.1249237 0.80184209 -1.7633311 4288085770
5.0230331 0.8158884 -1.7643569 4288085770
4.9141464 0.82895637 -1.762383 4288085770
4.8212585 0.843997 -1.7644087 4288085770
4.7643814 0.86400878 -1.7754359 4288085770
4.6744919 0.87805021 -1.7754604 4288085770
4.5856056 0.89209175 -1.7744845 4288085770
4.6226692 3.1036797 -1.8087139 4288085770
4.7358131 3.1716127 -1.8127689 4288085770
4.8609581 3.2455375 -1.8188289 4288085770
5.0091057 3.3314433 -1.8318987 4288085770
5.1132431 3.3903894 -1.8279451 4288085770
5.2173767 3.4483378 -1.8219905 4288085770
5.3295135 3.5082808 -1.8170367 4288085770
5.4586563 3.5762122 -1.8150891 4288085770
5.5817947 3.6401496 -1.810138 4288085770
5.7179298 3.7090793 -1.8061906 4288085770
4.671711 3.1705976 -1.81975 4288085770
5.8750763 3.7889931 -1.807252 4288085770
4.7998543 3.2335234 -1.8237975 4288085770
6.0612335 3.8838868 -1.8133254 4288085770
4.9599953 3.3134236 -1.8358588 4288085770
6.2193794 3.9588041 -1.8103811 4288085770
5.0731277 3.3633664 -1.8308942 4288085770
6.4315376 4.0636835 -1.8174615 4288085770
5.2032661 3.4222951 -1.8309369 4288085770
6.6086884 4.1465926 -1.8135229 4288085770
5.3153915 3.4672413 -1.8229669 4288085770
6.8118401 4.2404823 -1.8145926 4288085770
5.4395256 3.5181794 -1.8170018 4288085770
7.0410004 4.3463554 -1.8196714 4288085770
5.600666 3.588089 -1.8200519 4288085770
7.2721596 4.451231 -1.8207486 4288085770
5.7518082 3.6500087 -1.8180947 4288085770
7.5303268 4.5680885 -1.8258349 4288085770
5.883934 3.698945 -1.8101262 4288085770
7.7634811 4.6669693 -1.8219055 4288085770
6.0430679 3.7598619 -1.8071668 4288085770
8.0686531 4.8027992 -1.8310055 4288085770
6.2212105 3.8297648 -1.8082142 4288085770
8.4048424 4.9516106 -1.8421148 4288085770
6.4173584 3.9076567 -1.8112677 4288085770
8.7870407 5.1213918 -1.8602401 4288085770
6.6565132 4.005517 -1.8233365 4288085770
9.1792336 5.2921715 -1.8743651 4288085770
6.8436546 4.0724192 -1.8203793 4288085770
9.5854301 5.4649448 -1.88749 4288085770
7.0527992 4.1473079 -1.8204275 4288085770
9.9916229 5.6327233 -1.8966092 4288085770
7.2909508 4.2351756 -1.8254855 4288085770
10.381809 5.7875166 -1.8987167 4288085770
7.5170937 4.3130565 -1.8245344 4288085770
10.751987 5.9253287 -1.8928087 4288085770
7.7502403 4.3909335 -1.8235824 4288085770
11.207184 6.102087 -1.8969303 4288085770
8.0213966 4.4847846 -1.828642 4288085770
11.617363 6.2498813 -1.8890271 4288085770
8.3295555 4.5936127 -1.8377124 4288085770
12.058548 6.4076571 -1.8831302 4288085770
8.6777306 4.7194157 -1.8517952 4288085770
12.506729 6.5624323 -1.8742288 4288085770
9.047905 4.8502045 -1.8678802 4288085770
13.076942 6.7721329 -1.8773689 4288085770
9.4240837 4.9789939 -1.880962 4288085770
13.731178 7.0147839 -1.8865323 4288085770
9.7902489 5.0967922 -1.8900336 4288085770
14.310383 7.2114878 -1.881657 4288085770
10.154408 5.210597 -1.8951012 4288085770
14.90358 7.4071894 -1.872779 4288085770
10.507565 5.3114109 -1.8951564 4288085770
15.541794 7.6158667 -1.8649079 4288085770
10.848713 5.4032359 -1.8912034 4288085770
16.201008 7.8255358 -1.8540347 4288085770
11.219872 5.5020447 -1.8882537 4288085770
11.585022 5.5928583 -1.8832963 4288085770
11.960175 5.6826687 -1.8763363 4288085770
12.318317 5.7604918 -1.865366 4288085770
12.725471 5.8532877 -1.8574047 4288085770
13.19664 5.9690409 -1.8584588 4288085770
13.718811 6.0987654 -1.8615206 4288085770
14.210972 6.2085123 -1.8585652 4288085770
14.751141 6.3312306 -1.8586168 4288085770
15.328316 6.4599309 -1.8586699 4288085770
15.89048 6.5736418 -1.855709 4288085770
16.486641 6.6933365 -1.8517497 4288085770
17.197823 6.8479605 -1.8578111 4288085770
17.834999 6.9636364 -1.851842 4288085770
18.469162 7.0703154 -1.8438635 4288085770
19.233337 7.2149181 -1.8459071 4288085770
18.90892 -2.7561114 -1.7036865 4288085770
18.211014 -2.7747571 -1.7027631 4288085770
17.621101 -2.8014643 -1.7078172 4288085770
17.001205 -2.8181527 -1.7098855 4288085770
16.480301 -2.8418996 -1.7189336 4288085770
15.923397 -2.8536217 -1.7219985 4288085770
15.440498 -2.8693855 -1.7290494 4288085770
14.9506 -2.8771441 -1.7341092 4288085770
14.455704 -2.8788974 -1.7371756 4288085770
14.041805 -2.8896987 -1.7462221 4288085770
13.617912 -2.8924921 -1.752278 4288085770
13.152023 -2.8812568 -1.7513533 4288085770
12.695137 -2.8640258 -1.749433 4288085770
19.297417 -4.3663597 -1.7080805 4288085770
12.290245 -2.8548234 -1.7504982 4288085770
18.401566 -4.2819099 -1.7122861 4288085770
11.930355 -2.8486502 -1.7565542 4288085770
17.59272 -4.2055073 -1.718472 4288085770
11.600464 -2.846494 -1.7656024 4288085770
16.800865 -4.1231089 -1.7216612 4288085770
11.213585 -2.8252981 -1.7636768 4288085770
16.126003 -4.0597782 -1.7308161 4288085770
10.837696 -2.8031089 -1.7617503 4288085770
15.492142 -3.9984667 -1.7399635 4288085770
10.523815 -2.7899563 -1.7658072 4288085770
14.861282 -3.9281523 -1.744119 4288085770
10.224922 -2.7778141 -1.7718607 4288085770
14.301418 -3.8698781 -1.7522534 4288085770
9.9090424 -2.7566569 -1.7719254 4288085770
13.762554 -3.8096139 -1.7593868 4288085770
9.6171532 -2.7375138 -1.7739849 4288085770
13.160702 -3.7253063 -1.7545518 4288085770
9.3352661 -2.7183759 -1.7760431 4288085770
12.629845 -3.6530378 -1.7536954 4288085770
9.0803833 -2.702255 -1.7810946 4288085770
12.16198 -3.5928071 -1.7578189 4288085770
8.8384972 -2.6871426 -1.7881434 4288085770
11.710117 -3.5305827 -1.7599422 4288085770
8.5576172 -2.6580007 -1.7852108 4288085770
11.293255 -3.4743783 -1.7650548 4288085770
8.3657303 -2.6509187 -1.7972453 4288085770
10.884392 -3.4151757 -1.7661691 4288085770
8.1108513 -2.6217902 -1.7953092 4288085770
10.476528 -3.3499706 -1.7652891 4288085770
7.8849678 -2.5996807 -1.7973626 4288085770
10.127666 -3.2988007 -1.7693875 4288085770
7.6660881 -2.5745757 -1.7994177 4288085770
9.7977943 -3.2496412 -1.7744812 4288085770
7.4732018 -2.5564873 -1.8054626 4288085770
9.4849243 -3.2004893 -1.7785726 4288085770
7.2713203 -2.5323908 -1.8075147 4288085770
9.1910553 -3.1553495 -1.7846576 4288085770
7.0784378 -2.509299 -1.8105642 4288085770
8.9031868 -3.1072109 -1.7887446 4288085770
6.8825607 -2.4832046 -1.8116173 4288085770
8.6343117 -3.0630825 -1.793825 4288085770
6.6906776 -2.4551113 -1.8116714 4288085770
8.365448 -3.0149524 -1.7969095 4288085770
6.5028 -2.4260185 -1.810726 4288085770
8.1155777 -2.970834 -1.800987 4288085770
6.3329201 -2.4009383 -1.8127744 4288085770
7.8777046 -2.9277203 -1.8050623 4288085770
6.1710358 -2.3768623 -1.8148209 4288085770
7.652832 -2.8866146 -1.8101338 4288085770
6.0101585 -2.3507864 -1.8168687 4288085770
7.4219666 -2.8385026 -1.8112125 4288085770
5.8352776 -2.3176973 -1.8129253 4288085770
7.2000923 -2.7923949 -1.8122882 4288085770
5.6784019 -2.2886217 -1.8119755 4288085770
6.9782219 -2.7442839 -1.8103658 4288085770
5.5265198 -2.2595475 -1.8110253 4288085770
6.762352 -2.6951768 -1.8084432 4288085770
5.3976364 -2.2374899 -1.8150649 4288085770
6.5804749 -2.655091 -1.8115076 4288085770
5.259758 -2.2094238 -1.8151115 4288085770
6.3996048 -2.6140044 -1.8125726 4288085770
5.1188812 -2.179354 -1.8121603 4288085770
6.2217293 -2.5729182 -1.8136373 4288085770
5 -2.1553013 -1.8162005 4288085770
6.0438614 -2.5288317 -1.8127046 4288085770
4.8781166 -2.130244 -1.8172419 4288085770
5.8889847 -2.4917586 -1.8147622 4288085770
4.7442398 -2.0971768 -1.8132926 4288085770
5.7251129 -2.4496787 -1.8138257 4288085770
4.6473541 -2.0781372 -1.8193249 4288085770
5.5712357 -2.4086049 -1.8138868 4288085770
5.4043694 -2.3615186 -1.8079554 4288085770
5.2844887 -2.3314688 -1.8150012 4288085770
5.137619 -2.2893946 -1.8110622 4288085770
5.0157394 -2.2553389 -1.8131121 4288085770
4.8888664 -2.2172782 -1.8131665 4288085770
4.776989 -2.1852286 -1.8162129 4288085770
4.6621094 -2.1491745 -1.8162637 4288085770
4.6213875 -0.027606487 -1.8031572 4288085770
4.7274971 -0.015663624 -1.8021504 4288085770
4.8456078 -0.0037279129 -1.8031418 4288085770
4.9547234 0.0082149506 -1.8001345 4288085770
5.0858307 0.020143986 -1.8011237 4288085770
5.2139397 0.032076359 -1.8001137 4288085770
5.3430519 0.044010162 -1.796103 4288085770
5.4911652 0.05493021 -1.7970889 4288085770
4.6042328 0.081364632 -1.8082451 4288085770
5.638279 0.066853762 -1.7950755 4288085770
4.7073402 0.091312647 -1.8032368 4288085770
5.79039 0.078774452 -1.7930614 4288085770
4.835453 0.10124135 -1.8062247 4288085770
5.9664993 0.089680672 -1.7940426 4288085770
4.9695663 0.1111691 -1.8072115 4288085770
6.1386147 0.10159063 -1.7930254 4288085770
5.0976753 0.12110162 -1.8051995 4288085770
6.3167191 0.11349916 -1.7900072 4288085770
5.2397881 0.13102555 -1.8051851 4288085770
6.5238342 0.12438893 -1.7919836 4288085770
5.3828926 0.13995004 -1.8041697 4288085770
6.7379456 0.13627696 -1.7919598 4288085770
5.5310059 0.14887309 -1.8021536 4288085770
6.9770584 0.14814949 -1.7959321 4288085770
5.6971169 0.15878439 -1.8031354 4288085770
7.1801682 0.15904927 -1.7879089 4288085770
5.8652267 0.16769743 -1.801116 4288085770
7.4252815 0.16992474 -1.7848793 4288085770
6.0473404 0.17660117 -1.8010947 4288085770
7.7203903 0.18176699 -1.7908429 4288085770
6.2194481 0.18551469 -1.7960744 4288085770
7.9875031 0.19363379 -1.7848107 4288085770
6.4265594 0.19340539 -1.7970483 4288085770
8.2746124 0.20448899 -1.7797744 4288085770
6.633667 0.2022984 -1.7950227 4288085770
8.5977211 0.21532345 -1.7787324 4288085770
6.8787766 0.21016717 -1.7999907 4288085770
9.0038376 0.22810864 -1.7866795 4288085770
7.1088867 0.21804976 -1.7969607 4288085770
9.3779526 0.23891902 -1.7836297 4288085770
7.317997 0.2249496 -1.785933 4288085770
9.7910614 0.25070834 -1.7825745 4288085770
7.6071053 0.23279667 -1.7898939 4288085770
10.240173 0.26247978 -1.7815138 4288085770
7.9022141 0.24064255 -1.7918537 4288085770
10.736282 0.27322626 -1.7814449 4288085770
8.1763268 0.24650717 -1.7838151 4288085770
11.221397 0.28398609 -1.7723776 4288085770
8.49543 0.25334549 -1.7807703 4288085770
11.671505 0.29277229 -1.7523139 4288085770
8.8905411 0.26013637 -1.7887138 4288085770
12.311615 0.30444884 -1.7502234 4288085770
9.2966499 0.26692581 -1.7916554 4288085770
12.984722 0.31511259 -1.7431267 4288085770
9.6877594 0.27172971 -1.7865977 4288085770
13.731831 0.32573938 -1.7360184 4288085770
10.112865 0.2765162 -1.7815346 4288085770
14.522942 0.33534861 -1.7239025 4288085770
10.600975 0.28126717 -1.7814617 4288085770
15.492058 0.34686232 -1.7187605 4288085770
11.137085 0.28499389 -1.7813804 4288085770
16.579163 0.35731816 -1.7125992 4288085770
11.575191 0.28580189 -1.759313 4288085770
17.808273 0.36871719 -1.705418 4288085770
12.159294 0.28751016 -1.7522229 4288085770
19.296387 0.37996984 -1.7011952 4288085770
12.867401 0.28815103 -1.7521124 4288085770
13.546501 0.2868166 -1.7390046 4288085770
14.343609 0.28541827 -1.7318786 4288085770
15.309711 0.28293133 -1.7297255 4288085770
16.378815 0.27939367 -1.7265552 4288085770
17.521919 0.2708261 -1.7143694 4288085770
19.045021 0.26305461 -1.7191252 4288085770
19.114746 0.50228238 -1.7058576 4288085770
17.783859 0.53590584 -1.7061465 4288085770
16.687988 0.56841588 -1.7123859 4288085770
15.725113 0.5988642 -1.7165967 4288085770
14.878227 0.62725675 -1.7227827 4288085770
14.117348 0.65460932 -1.7279505 4288085770
13.443466 0.6809206 -1.7330995 4288085770
12.886589 0.70917416 -1.7452251 4288085770
12.377708 0.73640478 -1.7573401 4288085770
18.628937 1.1194836 -1.7081716 4288085770
11.815826 0.75766623 -1.755464 4288085770
17.506042 1.1320065 -1.7124093 4288085770
11.394943 0.78385615 -1.7665603 4288085770
16.491158 1.1434802 -1.7136242 4288085770
11.017063 0.81002486 -1.7786478 4288085770
15.599266 1.1558951 -1.7158136 4288085770
10.65118 0.83418953 -1.7877316 4288085770
14.846378 1.1722425 -1.7229754 4288085770
10.231297 0.85338449 -1.7838253 4288085770
14.12849 1.1845758 -1.7241286 4288085770
9.8384056 0.87156725 -1.7789129 4288085770
13.538609 1.2038459 -1.7332574 4288085770
9.4725189 0.88873696 -1.7749943 4288085770
13.044724 1.2260685 -1.7473673 4288085770
9.1706352 0.90887392 -1.7770634 4288085770
12.608849 1.2502631 -1.7634655 4288085770
8.8637466 0.9270153 -1.7741331 4288085770
12.138966 1.267478 -1.7685685 4288085770
8.5718651 0.94414997 -1.7701989 4288085770
11.650074 1.279705 -1.7656738 4288085770
8.3139801 0.96226704 -1.7702582 4288085770
11.286194 1.3018682 -1.7757564 4288085770
8.0840912 0.98137033 -1.771312 4288085770
10.968311 1.3250086 -1.7878296 4288085770
7.8732071 1.001464 -1.7743622 4288085770
10.678432 1.3501357 -1.8008977 4288085770
7.6473198 1.0185676 -1.7704141 4288085770
10.291538 1.3603159 -1.7939808 4288085770
7.4524345 1.0366547 -1.7714603 4288085770
9.911644 1.3684947 -1.7830619 4288085770
7.2615471 1.0547403 -1.7705053 4288085770
9.582756 1.3796471 -1.7781329 4288085770
7.1056671 1.0758075 -1.7755442 4288085770
9.3088722 1.3967717 -1.7781949 4288085770
6.9407806 1.0948805 -1.7755841 4288085770
9.0539856 1.4138865 -1.7792528 4288085770
6.7558899 1.1099653 -1.7696269 4288085770
8.7830925 1.4260117 -1.7743124 4288085770
6.6360092 1.1330146 -1.7766589 4288085770
8.5402069 1.4411229 -1.7703669 4288085770
6.4701195 1.14809 -1.7716976 4288085770
8.322319 1.457221 -1.7704165 4288085770
6.3602409 1.1711349 -1.7777274 4288085770
8.1394348 1.4783015 -1.7734609 4288085770
6.2313538 1.1901911 -1.7777597 4288085770
7.9565506 1.4963827 -1.7745038 4288085770
6.1154709 1.2102406 -1.7797898 4288085770
7.7756653 1.5154632 -1.7745469 4288085770
5.9925842 1.2282944 -1.7788204 4288085770
7.6077805 1.5335376 -1.7755866 4288085770
5.8686981 1.2463492 -1.7758515 4288085770
7.4468956 1.5536088 -1.7756257 4288085770
5.7648163 1.2663935 -1.7758787 4288085770
7.2730064 1.5676877 -1.7706654 4288085770
5.6649284 1.2854359 -1.7759049 4288085770
7.1491203 1.5907401 -1.7746979 4288085770
5.5550385 1.3024848 -1.7719324 4288085770
7.0052376 1.6088045 -1.7717326 4288085770
5.4561539 1.3205276 -1.7699579 4288085770
6.8773537 1.62886 -1.7717648 4288085770
5.3892746 1.3445522 -1.7759788 4288085770
6.7574692 1.6499116 -1.7727953 4288085770
5.3153915 1.3675815 -1.7790009 4288085770
6.6435852 1.6709607 -1.7728246 4288085770
5.2415085 1.3896108 -1.7810223 4288085770
6.5226974 1.6900139 -1.7708548 4288085770
5.1906242 1.4166278 -1.788041 4288085770
6.4328117 1.7140505 -1.7738802 4288085770
5.1107368 1.4356616 -1.7860627 4288085770
6.3189278 1.7321013 -1.7699085 4288085770
5.0648575 1.4636759 -1.7940804 4288085770
6.2300453 1.7551382 -1.7709333 4288085770
5.0209808 1.4906895 -1.8010972 4288085770
6.1381569 1.7771771 -1.7699583 4288085770
4.9580956 1.5137141 -1.8021168 4288085770
6.0682793 1.8042041 -1.7739803 4288085770
4.9122124 1.5407293 -1.8071339 4288085770
5.979393 1.8262422 -1.7720046 4288085770
4.8483315 1.5617557 -1.8051529 4288085770
5.8875084 1.8462826 -1.7670288 4288085770
4.8034477 1.5877712 -1.8081695 4288085770
5.8286285 1.8743043 -1.7710487 4288085770
4.7405624 1.6087974 -1.8051882 4288085770
5.7497406 1.8963382 -1.7680708 4288085770
4.6926842 1.6338151 -1.8062048 4288085770
5.6748543 1.9183698 -1.7650919 4288085770
4.6478004 1.6588318 -1.8062209 4288085770
5.5979691 1.9394033 -1.7601131 4288085770
4.6059151 1.6848462 -1.8082368 4288085770
5.553093 1.9704187 -1.7641311 4288085770
5.4802055 1.9914505 -1.7581513 4288085770
5.424324 2.017473 -1.7561698 4288085770
5.3884468 2.049484 -1.7601858 4288085770
5.3525658 2.0814958 -1.7622019 4288085770
5.3026848 2.1075161 -1.7592189 4288085770
5.2718048 2.1405251 -1.761234 4288085770
5.2429314 2.1735332 -1.7642488 4288085770
5.2330551 2.2135315 -1.7702616 4288085770
5.2071762 2.2465389 -1.7712758 4288085770
5.1963005 2.2865376 -1.776289 4288085770
5.1854286 2.325537 -1.7803017 4288085770
5.1855545 2.3695302 -1.7873135 4288085770
5.1846809 2.4135242 -1.7933254 4288085770
5.1778069 2.4545224 -1.7953378 4288085770
5.1589317 2.4905274 -1.7943507 4288085770
5.167057 2.5375175 -1.7993617 4288085770
5.1591797 2.5785167 -1.8003739 4288085770
5.1603088 2.6235113 -1.8013854 4288085770
5.1544342 2.6645103 -1.8003972 4288085770
5.1585617 2.7095039 -1.8014078 4288085770
5.1626854 2.7554977 -1.8024189 4288085770
5.1728096 2.803488 -1.8034294 4288085770
5.1749382 2.8474841 -1.8004398 4288085770
5.1820641 2.8934765 -1.7994498 4288085770
5.2001915 2.944464 -1.7994591 4288085770
5.2023163 2.9884603 -1.7944694 4288085770
5.2384567 3.049438 -1.7984779 4288085770
5.2775879 3.1124139 -1.803486 4288085770
5.2997208 3.1654005 -1.8004944 4288085770
5.3428535 3.2293751 -1.8035021 4288085770
5.3729897 3.2873576 -1.80151 4288085770
5.4191246 3.3533311 -1.8035173 4288085770
5.4732628 3.4233012 -1.8055238 4288085770
5.5293999 3.4942703 -1.80753 4288085770
5.5755386 3.5602455 -1.8055366 4288085770
5.6566811 3.6462016 -1.8115418 4288085770
5.6968117 3.7081809 -1.8055487 4288085770
5.767952 3.7871435 -1.8065534 4288085770
4.6087418 3.2016752 -1.8146214 4288085770
5.8451004 3.8701036 -1.8065581 4288085770
4.6808777 3.2766352 -1.8216254 4288085770
5.9282417 3.9570606 -1.8075625 4288085770
4.7500229 3.3485975 -1.8256288 4288085770
6.0113907 4.0440183 -1.8065666 4288085770
4.8161621 3.4185624 -1.8266321 4288085770
6.1255493 4.1479597 -1.8125691 4288085770
4.9223137 3.5135045 -1.8406341 4288085770
6.1936874 4.224926 -1.8045731 4288085770
5.0114555 3.5974574 -1.8456362 4288085770
6.3038406 4.3268709 -1.8055754 4288085770
5.0735931 3.6624258 -1.8416384 4288085770
6.4350014 4.4418049 -1.8095769 4288085770
5.1387291 3.729393 -1.8366402 4288085770
6.5621567 4.5527411 -1.8115776 4288085770
5.225872 3.8093486 -1.8366411 4288085770
6.7103195 4.6776671 -1.815578 4288085770
5.3200188 3.8933003 -1.8376414 4288085770
6.855484 4.7995958 -1.8165778 4288085770
5.3721428 3.9482765 -1.823642 4288085770
7.0286522 4.9385099 -1.8225762 4288085770
5.489296 4.0472169 -1.8276415 4288085770
7.2098274 5.0834208 -1.8265743 4288085770
5.563427 4.1141815 -1.8176404 4288085770
7.3910027 5.2273321 -1.8295718 4288085770
5.6895828 4.2161183 -1.8206384 4288085770
7.5921822 5.383234 -1.8325682 4288085770
5.7947197 4.3020678 -1.814636 4288085770
7.8283615 5.5611191 -1.8395633 4288085770
5.9248772 4.4040031 -1.8146325 4288085770
8.1075668 5.7659817 -1.8535564 4288085770
6.0560265 4.5039387 -1.8136281 4288085770
8.4017792 5.9808378 -1.8665488 4288085770
6.2171898 4.6248598 -1.8166229 4288085770
8.7059898 6.1996903 -1.8765395 4288085770
6.3743477 4.7397823 -1.8176166 4288085770
9.0311966 6.4325333 -1.8875293 4288085770
6.5535164 4.8686948 -1.8206093 4288085770
9.3574142 6.6643772 -1.8935177 4288085770
6.7526894 5.0105972 -1.8256011 4288085770
9.7306442 6.9241982 -1.9045036 4288085770
6.9688644 5.1604919 -1.8325909 4288085770
10.058857 7.1530485 -1.9014931 4288085770
7.1780357 5.3043942 -1.8355834 4288085770
10.451084 7.4208622 -1.9054743 4288085770
7.4182167 5.4672785 -1.84057 4288085770
10.856319 7.695672 -1.9064537 4288085770
7.6744041 5.6381545 -1.8465549 4288085770
7.9736061 5.8350096 -1.8585371 4288085770
8.3058167 6.0528474 -1.8735175 4288085770
8.6290169 6.2606926 -1.8824964 4288085770
8.9962349 6.4955158 -1.8964725 4288085770
9.3634529 6.7253408 -1.9034464 4288085770
9.758667 6.9701529 -1.912418 4288085770
10.094864 7.1719952 -1.9063895 4288085770
10.511086 7.4207993 -1.9093556 4288085770
10.974319 7.6975813 -1.9153183 4288085770
11.507572 8.014328 -1.9272755 4288085770
19.138992 -1.3234625 -1.698197 4288085770
18.154083 -1.358021 -1.6954485 4288085770
17.339172 -1.3956575 -1.7016549 4288085770
16.637264 -1.4323468 -1.7118316 4288085770
15.924358 -1.4600298 -1.7180133 4288085770
15.232456 -1.4817219 -1.7201911 4288085770
14.648552 -1.5054631 -1.72834 4288085770
14.063652 -1.5222037 -1.7324908 4288085770
13.564747 -1.5439842 -1.7446178 4288085770
13.07885 -1.5597703 -1.7527429 4288085770
12.536957 -1.5625293 -1.7498854 4288085770
18.520653 -2.3322179 -1.7031418 4288085770
12.104057 -1.5733402 -1.7569977 4288085770
17.533775 -2.2987778 -1.7084101 4288085770
11.712158 -1.5851686 -1.7660991 4288085770
16.663898 -2.2693908 -1.7166464 4288085770
11.372269 -1.5990217 -1.7811861 4288085770
15.855015 -2.2400305 -1.7228668 4288085770
10.963375 -1.5988414 -1.7822945 4288085770
15.097141 -2.2096941 -1.727074 4288085770
10.582481 -1.5986736 -1.7833954 4288085770
14.454262 -2.1864097 -1.7372493 4288085770
10.216591 -1.5955131 -1.7844931 4288085770
13.812378 -2.1581256 -1.7424254 4288085770
9.8666954 -1.5923598 -1.7855866 4288085770
13.255497 -2.1368806 -1.7525777 4288085770
9.5308037 -1.5872128 -1.7856768 4288085770
12.631615 -2.0986025 -1.7477511 4288085770
9.206913 -1.5800703 -1.7847644 4288085770
12.129738 -2.0723813 -1.7528896 4288085770
8.8870201 -1.5689299 -1.7808515 4288085770
11.712852 -2.0571997 -1.7660036 4288085770
8.6321297 -1.5668204 -1.7869198 4288085770
11.355965 -2.0470459 -1.7841008 4288085770
8.3862419 -1.5637143 -1.7929859 4288085770
10.929089 -2.020858 -1.7872195 4288085770
8.1503487 -1.5586131 -1.7980497 4288085770
10.539204 -1.9966881 -1.7933282 4288085770
7.9014587 -1.5495055 -1.7991177 4288085770
10.160324 -1.9715226 -1.796434 4288085770
7.6665688 -1.5404041 -1.8001822 4288085770
9.7864418 -1.9433577 -1.7975394 4288085770
7.4506836 -1.5323117 -1.8042413 4288085770
9.4205627 -1.9121969 -1.795643 4288085770
7.2077942 -1.5162058 -1.7993093 4288085770
9.0596848 -1.8790381 -1.7917457 4288085770
7.0129013 -1.5081229 -1.8023628 4288085770
8.7338028 -1.8498952 -1.7898383 4288085770
6.8560104 -1.5050578 -1.8134053 4288085770
8.440918 -1.8237679 -1.7899216 4288085770
6.6481247 -1.4899681 -1.8104637 4288085770
8.1720352 -1.7996519 -1.792998 4288085770
6.4362335 -1.4718764 -1.8035238 4288085770
7.9211502 -1.7775433 -1.7960693 4288085770
6.2803497 -1.4638112 -1.810567 4288085770
7.6802673 -1.7544396 -1.7991381 4288085770
6.0924568 -1.4467301 -1.8056206 4288085770
7.4683838 -1.7353499 -1.8061984 4288085770
5.9185715 -1.4316556 -1.8036699 4288085770
7.2275047 -1.708245 -1.8042679 4288085770
5.772686 -1.4195955 -1.807711 4288085770
7.026619 -1.6881597 -1.8083254 4288085770
5.6167946 -1.4055293 -1.8057554 4288085770
6.8117371 -1.6620672 -1.8073877 4288085770
5.4769135 -1.3924708 -1.8077954 4288085770
6.612854 -1.6379821 -1.8074455 4288085770
5.340023 -1.3794141 -1.8088346 4288085770
6.4129715 -1.6108959 -1.804504 4288085770
5.2101326 -1.3663607 -1.8118718 4288085770
6.2210884 -1.5858138 -1.8025601 4288085770
5.0722466 -1.350302 -1.8099115 4288085770
6.0522003 -1.5637424 -1.8046093 4288085770
4.9563599 -1.3372552 -1.8129449 4288085770
5.8893204 -1.540674 -1.8046571 4288085770
4.8354721 -1.3232055 -1.8139799 4288085770
5.7424393 -1.5216126 -1.8087001 4288085770
4.7075882 -1.3051517 -1.8100173 4288085770
5.5805511 -1.4965441 -1.805748 4288085770
4.592701 -1.2901042 -1.810051 4288085770
5.4256706 -1.4714787 -1.8027939 4288085770
5.2967796 -1.4524252 -1.806832 4288085770
5.169899 -1.4323733 -1.8088695 4288085770
5.0420151 -1.4113195 -1.8099074 4288085770
4.9161301 -1.3892674 -1.809945 4288085770
4.7842445 -1.3642125 -1.8059849 4288085770
4.6843605 -1.3471727 -1.8110145 4288085770
4.588665 0.54539967 -1.7920601 4288085770
4.6847725 0.55735362 -1.7860293 4288085770
4.7988853 0.57029998 -1.7849931 4288085770
4.9249992 0.58324122 -1.785953 4288085770
5.019104 0.59319603 -1.7749226 4288085770
5.1492195 0.60613537 -1.7738813 4288085770
5.2923317 0.6200695 -1.7748359 4288085770
5.4494476 0.63399708 -1.7777863 4288085770
4.613472 0.58135903 -1.7880384 4288085770
5.6065598 0.64892459 -1.7787366 4288085770
4.7205849 0.58930826 -1.7840041 4288085770
5.7816696 0.66284466 -1.7826813 4288085770
4.8536987 0.60024643 -1.7869616 4288085770
5.9487801 0.67676818 -1.7816284 4288085770
4.9838028 0.61018562 -1.7869202 4288085770
6.1248932 0.68968773 -1.7795727 4288085770
5.0929146 0.61713421 -1.7778851 4288085770
6.3120041 0.70360243 -1.7795135 4288085770
5.2230186 0.62507391 -1.7748433 4288085770
6.4891129 0.71452177 -1.7744572 4288085770
5.3781281 0.63500261 -1.7767942 4288085770
6.7052269 0.72942412 -1.7753891 4288085770
5.554245 0.6459223 -1.7837385 4288085770
6.9223366 0.74232614 -1.7753206 4288085770
5.727356 0.65584302 -1.7876836 4288085770
7.1564484 0.75622058 -1.7752467 4288085770
5.8774605 0.66177392 -1.7816356 4288085770
7.4045601 0.77010918 -1.7751685 4288085770
6.068573 0.67168713 -1.7855753 4288085770
7.674675 0.78498805 -1.7760835 4288085770
6.2646866 0.68059826 -1.787513 4288085770
7.9577866 0.79986179 -1.7769945 4288085770
6.4407921 0.68651807 -1.782457 4288085770
8.2468987 0.81273258 -1.7749034 4288085770
6.6458969 0.69442534 -1.782392 4288085770
8.5440063 0.82459986 -1.7708099 4288085770
6.8610077 0.70132828 -1.7813239 4288085770
8.8831177 0.83944917 -1.7697034 4288085770
7.0921173 0.70822418 -1.781251 4288085770
9.2652321 0.85528004 -1.7725835 4288085770
7.3272285 0.71411836 -1.7791766 4288085770
9.6543427 0.86910808 -1.7714615 4288085770
7.5883331 0.7200017 -1.7800941 4288085770
10.111458 0.8869065 -1.7763184 4288085770
7.8514404 0.72488391 -1.7780112 4288085770
10.636574 0.90767574 -1.7861543 4288085770
8.1605492 0.73174655 -1.7809138 4288085770
11.061684 0.91648793 -1.7740207 4288085770
8.460659 0.73561287 -1.7798194 4288085770
11.515789 0.92628777 -1.7618781 4288085770
8.7767677 0.73947215 -1.7777197 4288085770
12.072903 0.93904328 -1.7567037 4288085770
9.1048698 0.74132669 -1.7736163 4288085770
12.694012 0.95377111 -1.7545097 4288085770
9.4629745 0.74316812 -1.7705036 4288085770
13.245117 0.95952868 -1.7333369 4288085770
9.8900871 0.74697983 -1.7753698 4288085770
13.951225 0.97222006 -1.7261162 4288085770
10.333195 0.74878466 -1.7772309 4288085770
14.759335 0.98586714 -1.7198641 4288085770
10.841301 0.75156188 -1.7830718 4288085770
15.710445 1.003453 -1.7185675 4288085770
11.259403 0.74637759 -1.7699405 4288085770
16.707558 1.016019 -1.7112567 4288085770
11.714504 0.73917699 -1.7567977 4288085770
17.881668 1.0335087 -1.707891 4288085770
12.295601 0.73492265 -1.7556163 4288085770
19.299774 1.0538932 -1.7094499 4288085770
12.881699 0.72666609 -1.7474329 4288085770
13.4688 0.71440864 -1.7332493 4288085770
14.173897 0.7031008 -1.7260292 4288085770
14.981995 0.68974864 -1.7207772 4288085770
15.888092 0.67435431 -1.7154948 4288085770
16.910194 0.65591013 -1.7111766 4288085770
18.041283 0.63341951 -1.7068245 4288085770
19.42939 0.60781825 -1.709393 4288085770
8.5623627 -5.5113811 -0.42767864 4293729569
8.5845642 -5.5612831 -0.95968401 4293729569
8.5594978 -5.4553776 -0.46667248 4293729569
8.5837097 -5.5072803 -0.99867785 4293729569
8.5526505 -5.3953724 -0.50566685 4293729569
8.5768509 -5.449275 -1.0356724 4293729569
8.6207695 -5.378397 -0.54664552 4293729569
8.594986 -5.4032793 -1.0746616 4293729569
8.6998978 -5.3674288 -0.58762187 4293729569
8.6311226 -5.3672915 -1.1146467 4293729569
8.724247 -5.3633261 -1.1606199 4293729569
12.48362 -7.4958086 -1.6708492 4293729569
12.051865 -7.160634 -1.660925 4293729569
11.685089 -6.8644838 -1.6549875 4293729569
11.485287 -6.6664028 -1.6670159 4293729569
11.246483 -6.4483032 -1.6720523 4293729569
11.020679 -6.2412128 -1.6740865 4293729569
10.776875 -6.0261145 -1.6711243 4293729569
10.594059 -5.8450422 -1.6751493 4293729569
10.450233 -5.6879845 -1.6821665 4293729569
10.312408 -5.5339289 -1.688182 4293729569
10.141582 -5.3648634 -1.6852047 4293729569
10.016747 -5.2208118 -1.6892174 4293729569
10.448826 -5.3549786 -1.7801104 4288085770
15.802834 -7.8182487 -1.7439137 4293729569
10.593952 -5.3430347 -1.8240645 4282675967
15.554039 -7.5751476 -1.7479465 4293729569
10.373131 -5.1499491 -1.8080974 4288085770
15.354237 -7.3580656 -1.7539688 4288085770
10.208305 -4.9878864 -1.7981184 4288085770
15.143436 -7.1389799 -1.7569937 4288085770
10.063473 -4.8378325 -1.7901355 4288085770
14.935635 -6.9238968 -1.7570182 4288085770
9.9646339 -4.709795 -1.7871422 4288085770
14.758827 -6.7268276 -1.7590364 4288085770
9.8697853 -4.5837603 -1.7841477 4288085770
14.581013 -6.5297556 -1.7580544 4288085770
9.8089409 -4.4757395 -1.7851461 4288085770
14.403202 -6.3346853 -1.7540724 4288085770
9.7580872 -4.3717213 -1.7871418 4288085770
14.284378 -6.1696396 -1.7550778 4288085770
9.7132378 -4.272707 -1.7881367 4288085770
14.182552 -6.0126009 -1.7570791 4288085770
9.6773872 -4.1766958 -1.789129 4288085770
14.065723 -5.8505554 -1.754084 4288085770
9.6445312 -4.0836868 -1.7891208 4288085770
14.002888 -5.7135344 -1.7560767 4288085770
9.6066742 -3.9886749 -1.7881137 4288085770
13.975044 -5.5895252 -1.7600605 4288085770
9.5748215 -3.8956664 -1.7861048 4288085770
13.927208 -5.4595098 -1.7600495 4288085770
9.5509605 -3.8076608 -1.7840943 4288085770
13.909359 -5.3425064 -1.7620311 4288085770
9.5480995 -3.7276642 -1.7850788 4288085770
13.885517 -5.2215004 -1.7620137 4288085770
9.5352402 -3.6436636 -1.7820654 4288085770
13.858673 -5.1024942 -1.7599975 4288085770
9.541378 -3.5676706 -1.7820473 4288085770
13.870827 -4.9955034 -1.7609712 4288085770
9.5415192 -3.4886754 -1.7800305 4288085770
13.86998 -4.8845072 -1.758948 4288085770
9.5326538 -3.4066775 -1.7750157 4288085770
13.90612 -4.7875271 -1.7589158 4288085770
9.5687866 -3.3406966 -1.7769898 4288085770
13.948269 -4.6915493 -1.7588814 4288085770
9.5849266 -3.2687089 -1.7739689 4288085770
13.989414 -4.5945711 -1.7568471 4288085770
9.6210594 -3.2017281 -1.7739425 4288085770
14.080559 -4.5136127 -1.7598002 4288085770
9.6511917 -3.1327465 -1.7709173 4288085770
14.106701 -4.4106302 -1.752769 4288085770
9.6943245 -3.0677688 -1.769889 4288085770
14.188847 -4.3266697 -1.7517238 4288085770
9.7474594 -3.0057962 -1.7688577 4288085770
14.301983 -4.2487221 -1.7516696 4288085770
9.8245888 -2.9508326 -1.7708203 4288085770
14.347126 -4.1517477 -1.7416329 4288085770
9.8787193 -2.8878601 -1.7677881 4288085770
14.500259 -4.0858154 -1.7435684 4288085770
9.9558525 -2.831897 -1.7677501 4288085770
14.644398 -4.0138807 -1.7425051 4288085770
10.025982 -2.7719319 -1.7647133 4288085770
14.777538 -3.9379423 -1.7384441 4288085770
10.133106 -2.7209809 -1.7666664 4288085770
14.92767 -3.864011 -1.734378 4288085770
10.239235 -2.6700299 -1.7676197 4288085770
15.112801 -3.799094 -1.7323024 4288085770
10.362362 -2.6210854 -1.769568 4288085770
15.292938 -3.7291753 -1.7282269 4288085770
10.481491 -2.5691397 -1.7695165 4288085770
15.528065 -3.6702793 -1.727136 4288085770
10.609619 -2.5181983 -1.7694622 4288085770
15.774197 -3.6113875 -1.7250415 4288085770
10.756744 -2.4712641 -1.7714025 4288085770
16.00433 -3.5474899 -1.7199504 4288085770
10.900871 -2.4223292 -1.7703432 4288085770
16.276459 -3.48861 -1.7158469 4288085770
11.065998 -2.3764031 -1.7722776 4288085770
16.588589 -3.4357464 -1.7137314 4288085770
11.285118 -2.3384984 -1.779196 4288085770
16.918716 -3.3808906 -1.7096092 4288085770
11.451244 -2.2875726 -1.7771286 4288085770
17.23484 -3.32003 -1.70249 4288085770
11.610378 -2.2336457 -1.7720624 4288085770
17.669968 -3.2782171 -1.7023363 4288085770
11.759502 -2.1757147 -1.7639984 4288085770
18.081093 -3.2253964 -1.6971875 4288085770
11.948627 -2.1227996 -1.7589221 4288085770
18.581215 -3.1846116 -1.6970123 4288085770
12.149754 -2.0708907 -1.7538422 4288085770
19.07235 -3.1348245 -1.6908373 4288085770
12.396881 -2.023999 -1.7537483 4288085770
12.649006 -1.9761102 -1.7516522 4288085770
12.955132 -1.9322426 -1.7535393 4288085770
13.283257 -1.8873856 -1.7544186 4288085770
13.557381 -1.8335063 -1.7473133 4288085770
13.893509 -1.7846534 -1.7451884 4288085770
14.195637 -1.7277877 -1.7350725 4288085770
14.607765 -1.6799653 -1.7349226 4288085770
15.015888 -1.6271417 -1.7307723 4288085770
15.414013 -1.5693166 -1.7216237 4288085770
15.929138 -1.5185382 -1.7214382 4288085770
16.395271 -1.4577413 -1.7102659 4288085770
16.995399 -1.4029987 -1.7090503 4288085770
17.642525 -1.3442762 -1.7048181 4288085770
18.333664 -1.2825735 -1.69857 4288085770
19.171791 -1.22293 -1.6992735 4288085770
19.515427 1.0008647 -1.7070603 4288085770
18.533554 1.0572696 -1.7103604 4288085770
17.591675 1.1056545 -1.7076511 4288085770
16.824806 1.1579711 -1.7128806 4288085770
16.095936 1.2042699 -1.7141001 4288085770
15.483059 1.2515233 -1.7202801 4288085770
14.88118 1.2947693 -1.7214581 4288085770
14.371307 1.3389797 -1.7276047 4288085770
13.895428 1.3821752 -1.7317401 4288085770
13.463551 1.4243529 -1.7368611 4288085770
13.093678 1.4695069 -1.7459595 4288085770
12.766811 1.5146441 -1.7560433 4288085770
12.472935 1.5617684 -1.7681147 4288085770
18.888298 2.3610742 -1.7035166 4288085770
12.183064 1.6058894 -1.7771864 4288085770
18.121414 2.3823881 -1.7037606 4288085770
11.842178 1.6410254 -1.77528 4288085770
17.431526 2.4066696 -1.7039769 4288085770
11.557304 1.6801417 -1.7793524 4288085770
16.80365 2.4319263 -1.7051716 4288085770
11.318428 1.7232411 -1.7874069 4288085770
16.289768 2.4661391 -1.712323 4288085770
11.095554 1.7653332 -1.7944567 4288085770
15.766884 2.4933519 -1.7134813 4288085770
10.900684 1.8094149 -1.8034959 4288085770
15.334003 2.52753 -1.7186053 4288085770
10.722809 1.8544902 -1.8135284 4288085770
14.889122 2.5577104 -1.7187353 4288085770
10.487926 1.888582 -1.8115863 4288085770
14.506245 2.5918667 -1.7228423 4288085770
10.176037 1.9076979 -1.7956783 4288085770
14.137363 2.6250165 -1.7249449 4288085770
9.9311485 1.9347904 -1.7877433 4288085770
13.799484 2.6601534 -1.727036 4293729569
9.7252693 1.9658689 -1.7837926 4288085770
13.541615 2.7062614 -1.7360938 4293729569
9.5223808 1.9949455 -1.7778423 4288085770
13.282738 2.7483678 -1.7421541 4288085770
9.3825035 2.0350015 -1.7818643 4288085770
13.077866 2.8004549 -1.7531906 4288085770
9.182621 2.0610754 -1.7739143 4288085770
12.881996 2.8515377 -1.7632245 4288085770
9.0217361 2.0951359 -1.7709467 4288085770
12.732128 2.9106033 -1.7762382 4288085770
8.9058609 2.1361821 -1.7749598 4288085770
12.618267 2.9766562 -1.7932358 4288085770
8.8059845 2.1792221 -1.7799664 4288085770
12.458401 3.0307236 -1.8022554 4288085770
8.6450958 2.2072797 -1.7720019 4288085770
12.31353 3.085784 -1.8102694 4288085770
8.5042152 2.2373309 -1.7670294 4288085770
12.21167 3.1518304 -1.8242625 4288085770
8.4023361 2.277369 -1.7670381 4288085770
12.054794 3.2028935 -1.8282822 4288085770
8.293457 2.3134084 -1.7650512 4288085770
11.910923 3.2549505 -1.8312972 4288085770
8.1925735 2.3504453 -1.7640611 4288085770
11.787056 3.3110013 -1.837303 4288085770
8.0916939 2.3874807 -1.761071 4288085770
11.631176 3.3570609 -1.836325 4288085770
8.045826 2.4384999 -1.7680541 4288085770
11.500305 3.4101117 -1.8373346 4288085770
7.9399414 2.4725358 -1.762067 4288085770
11.392433 3.4661536 -1.8393345 4288085770
7.86306 2.5125628 -1.7610667 4288085770
11.305561 3.5271885 -1.8443244 4288085770
7.8121872 2.5605814 -1.7640531 4288085770
11.19569 3.5812297 -1.844326 4288085770
7.7373085 2.5996063 -1.7610524 4288085770
11.138828 3.6512532 -1.8513004 4288085770
7.703434 2.6526189 -1.7660298 4288085770
11.062958 3.7142811 -1.8522849 4288085770
7.6655617 2.7036321 -1.7690096 4288085770
11.010098 3.7833023 -1.8572582 4288085770
7.6076851 2.74665 -1.7660006 4288085770
10.906219 3.836338 -1.8522578 4288085770
7.5718155 2.7976613 -1.7669796 4288085770
10.859356 3.9063544 -1.8542281 4288085770
7.5419426 2.8496704 -1.7689557 4288085770
10.840496 3.986362 -1.8601832 4288085770
7.5090637 2.9006798 -1.7689335 4288085770
10.807632 4.0623727 -1.863145 4288085770
7.4911957 2.9566841 -1.7709032 4288085770
10.767769 4.1333857 -1.863112 4288085770
7.510334 3.0266781 -1.7808521 4288085770
10.754906 4.2153888 -1.8660631 4288085770
7.48246 3.0796847 -1.7798264 4288085770
10.743046 4.2983909 -1.8680134 4288085770
7.4725914 3.1386852 -1.7807913 4288085770
10.726185 4.3783937 -1.8679668 4288085770
7.4917259 3.2096767 -1.7867389 4288085770
10.722328 4.4643908 -1.8679122 4288085770
7.5258675 3.2876644 -1.7966775 4288085770
10.72747 4.5523853 -1.8688531 4288085770
7.5209961 3.3486614 -1.7956389 4288085770
10.758614 4.6533709 -1.8727773 4288085770
7.5671425 3.4326444 -1.8055696 4288085770
10.783764 4.7513571 -1.8737053 4288085770
7.5902748 3.5056324 -1.8085142 4288085770
10.786907 4.8403502 -1.8696457 4288085770
7.643425 3.5936127 -1.8184398 4288085770
10.836056 4.9503269 -1.872558 4288085770
7.6655617 3.6685998 -1.8193831 4288085770
10.872204 5.054307 -1.870478 4288085770
7.6966972 3.7475841 -1.8213211 4288085770
10.921356 5.1652827 -1.8703892 4288085770
7.7198334 3.8235698 -1.8202631 4288085770
10.993507 5.2872496 -1.8712858 4288085770
7.7329636 3.8945575 -1.8162116 4288085770
11.053661 5.4042187 -1.8691891 4288085770
7.7731056 3.9785366 -1.8161429 4288085770
11.14082 5.5341797 -1.8700756 4288085770
7.8012428 4.056519 -1.813082 4288085770
11.238983 5.6711354 -1.8699536 4288085770
7.8593864 4.1504927 -1.8150008 4288085770
11.34515 5.8140883 -1.8708252 4288085770
7.9255333 4.2484617 -1.8169144 4288085770
11.472317 5.9680319 -1.8716826 4288085770
7.9836807 4.3444333 -1.8158317 4288085770
11.602486 6.1259737 -1.8705364 4288085770
8.0708313 4.4543953 -1.8197306 4288085770
11.747662 6.2929091 -1.8693793 4288085770
8.1629868 4.5693555 -1.8236245 4288085770
11.896835 6.4618435 -1.8682194 4288085770
8.2561378 4.6843143 -1.824518 4288085770
12.072018 6.6467667 -1.8670405 4288085770
8.3732986 4.8132648 -1.8303946 4288085770
12.240196 6.8306904 -1.8628643 4288085770
8.5034599 4.9502115 -1.8362616 4288085770
12.436382 7.0296049 -1.8606694 4288085770
8.6616325 5.1041479 -1.8451087 4288085770
12.68758 7.2624989 -1.8624345 4288085770
8.8328094 5.2680798 -1.8559448 4288085770
12.953785 7.5063858 -1.8631873 4288085770
9.0029793 5.4310102 -1.8627818 4288085770
13.271008 7.7802544 -1.8679044 4288085770
9.1801605 5.6009369 -1.8686115 4288085770
9.4123535 5.8048458 -1.8834014 4288085770
9.594532 5.9797683 -1.884226 4288085770
9.8127174 6.1776781 -1.8910235 4288085770
10.042908 6.3845825 -1.8958111 4288085770
10.268101 6.5904865 -1.8966008 4288085770
10.497292 6.7983875 -1.8953873 4288085770
10.74049 7.0192823 -1.8921608 4288085770
11.035698 7.2711573 -1.8938969 4288085770
11.364914 7.54702 -1.8976061 4288085770
11.749153 7.8598633 -1.9052734 4288085770
18.563133 -0.69864583 -1.6940132 4288085770
17.434235 -0.72718787 -1.6983811 4288085770
16.428326 -0.75178027 -1.7027079 4288085770
15.550426 -0.77242208 -1.7099929 4288085770
14.733524 -0.79009032 -1.7152567 4288085770
14.004623 -0.80479431 -1.7204914 4288085770
13.352726 -0.81652904 -1.7267003 4288085770
12.783829 -0.8292942 -1.7368848 4288085770
18.890709 -1.2418132 -1.6863776 4288085770
12.214931 -0.83706427 -1.741065 4288085770
17.636818 -1.2203076 -1.6877421 4288085770
11.731037 -0.8458643 -1.7502202 4288085770
16.562935 -1.2028701 -1.695055 4288085770
11.291142 -0.85368013 -1.7623614 4288085770
15.671043 -1.189503 -1.7073163 4288085770
10.773247 -0.85247898 -1.7565186 4288085770
14.816158 -1.1731544 -1.7145635 4288085770
10.30735 -0.85029745 -1.7526591 4288085770
14.05127 -1.1568434 -1.7207834 4288085770
9.9314613 -0.85214448 -1.7587757 4288085770
13.374386 -1.1435661 -1.728979 4288085770
9.55756 -0.85199499 -1.7608899 4288085770
12.763489 -1.1303148 -1.7381545 4288085770
9.1846619 -0.84784842 -1.7600006 4288085770
12.184605 -1.1160772 -1.7463195 4288085770
8.8787689 -0.84772396 -1.7660941 4288085770
11.677723 -1.1038687 -1.7554644 4288085770
8.5678825 -0.84460044 -1.7681867 4288085770
11.219833 -1.0926783 -1.7665952 4288085770
8.2759895 -0.84048414 -1.7702727 4288085770
10.684944 -1.0704706 -1.7607398 4288085770
8.0060959 -0.83737659 -1.7733529 4288085770
10.224056 -1.0522883 -1.7598654 4288085770
7.7532005 -0.83327484 -1.7774268 4288085770
9.8081703 -1.0351238 -1.7599781 4288085770
7.5093117 -0.82717824 -1.7794966 4288085770
9.4392815 -1.0209751 -1.764079 4288085770
7.2684174 -0.82108521 -1.7795651 4288085770
9.0743904 -1.0038316 -1.7641761 4288085770
7.0625267 -0.81600094 -1.7856241 4288085770
8.7485046 -0.98870111 -1.7672632 4288085770
6.8046341 -0.8039093 -1.7756928 4288085770
8.4526176 -0.974581 -1.7723418 4288085770
6.6187477 -0.79883289 -1.7817456 4288085770
8.1497307 -0.95846224 -1.7724209 4288085770
6.4398537 -0.79276109 -1.7857956 4288085770
7.9038429 -0.94636059 -1.7804862 4288085770
6.2509613 -0.78468919 -1.7858465 4288085770
7.6369553 -0.93025732 -1.7795541 4288085770
6.0700684 -0.77561998 -1.7858944 4288085770
7.3960686 -0.9161613 -1.782616 4288085770
5.9111786 -0.76855636 -1.7899371 4288085770
7.1681786 -0.902071 -1.785674 4288085770
5.7542839 -0.75949526 -1.7919776 4288085770
6.9322853 -0.88498116 -1.7837316 4288085770
5.5893936 -0.74943542 -1.7890196 4288085770
6.7074013 -0.86789751 -1.7797859 4288085770
5.4515038 -0.74138021 -1.7930552 4288085770
6.5065117 -0.85181952 -1.7808337 4288085770
5.3296127 -0.73432899 -1.8000867 4288085770
6.3346214 -0.83974981 -1.7858764 4288085770
5.182724 -0.72327662 -1.7971225 4288085770
6.1517334 -0.82368016 -1.7859187 4288085770
5.0568314 -0.71422839 -1.7991532 4288085770
5.9738426 -0.80861235 -1.7859602 4288085770
4.9399452 -0.70518184 -1.8031814 4288085770
5.8139534 -0.7945509 -1.7869971 4288085770
4.8070526 -0.69313502 -1.8002119 4288085770
5.6500664 -0.77848983 -1.7860336 4288085770
5.5291786 -0.76743746 -1.7950613 4288085770
5.3762894 -0.75138235 -1.7920945 4288085770
5.2374001 -0.73633051 -1.792124 4288085770
5.1065102 -0.72128177 -1.7921512 4288085770
4.9906273 -0.70823646 -1.7951756 4288085770
4.8647385 -0.69319081 -1.7942013 4288085770
4.748848 -0.67814732 -1.7952238 4288085770
5.0151138 1.2222409 -1.7880795 4288085770
5.1242256 1.2362117 -1.7821468 4288085770
5.2333412 1.250181 -1.775214 4288085770
5.3484573 1.2641497 -1.7682861 4288085770
5.4885635 1.2821238 -1.767373 4288085770
5.6706657 1.3071089 -1.7774841 4288085770
5.8047791 1.3220763 -1.7715704 4288085770
5.9928856 1.3460546 -1.777688 4288085770
5.0389061 1.1791887 -1.7801479 4288085770
6.1649933 1.3660274 -1.7787982 4288085770
5.1560211 1.1891617 -1.776228 4288085770
6.3390999 1.3839953 -1.7769132 4288085770
5.2711296 1.1971332 -1.7713093 4288085770
6.5142097 1.4009616 -1.7740304 4288085770
5.407238 1.2081081 -1.7704034 4288085770
6.7183189 1.4229316 -1.7761643 4288085770
5.5523491 1.2200813 -1.7695034 4288085770
6.9164276 1.4408948 -1.7732991 4288085770
5.7254524 1.2350619 -1.7756221 4288085770
7.1535378 1.4648646 -1.7784573 4288085770
5.8985558 1.2500405 -1.7807407 4288085770
7.3916435 1.48683 -1.7806191 4288085770
