# .PCD v0.7 - Point Cloud Data file format
VERSION 0.7
FIELDS x y z rgb
SIZE 4 4 4 4
TYPE F F F U
COUNT 1 1 1 1
WIDTH 1117
HEIGHT 1
VIEWPOINT 0 0 0 1 0 0 0
POINTS 1117
DATA ascii
2.3734436 -0.97576666 -1.8384874 4288085770
0.89822388 -0.72054195 -1.8411601 4288085770
2.5326042 -0.95823288 -1.8363568 4288085770
1.0083847 -0.70286894 -1.8390491 4288085770
2.7197609 -0.94277 -1.8372222 4288085770
1.1275406 -0.68522549 -1.8359344 4288085770
2.904911 -0.92730856 -1.8360883 4288085770
1.2626953 -0.66961336 -1.8368207 4288085770
3.1220665 -0.91392326 -1.8389487 4288085770
1.3798599 -0.6499753 -1.8306997 4288085770
3.3372154 -0.89854717 -1.8378028 4288085770
1.5270195 -0.63340092 -1.8305775 4288085770
3.5703697 -0.88421917 -1.8376529 4288085770
1.665184 -0.61481905 -1.8254515 4288085770
3.8205147 -0.87093592 -1.8384999 4288085770
1.8333359 -0.59930134 -1.8263242 4288085770
4.0976677 -0.85772276 -1.841336 4288085770
2.0214844 -0.58582926 -1.8301963 4288085770
4.365818 -0.84350491 -1.8381718 4288085770
2.1806488 -0.56730795 -1.8250616 4288085770
4.6489735 -0.82733011 -1.8349944 4288085770
2.3738022 -0.5518651 -1.8249241 4288085770
4.9431267 -0.81219101 -1.8308158 4288085770
2.5429649 -0.53238297 -1.8167816 4288085770
5.2762775 -0.79815578 -1.8286253 4288085770
2.7461243 -0.51497555 -1.8146327 4288085770
5.5844402 -0.77908134 -1.8174264 4288085770
2.9752808 -0.49963951 -1.8134804 4288085770
5.9765892 -0.76621103 -1.8162156 4288085770
3.2014389 -0.48230505 -1.809322 4288085770
6.4187298 -0.75547647 -1.8169917 4288085770
3.4595947 -0.46604872 -1.8091544 4288085770
6.8848763 -0.74281788 -1.8157506 4288085770
3.721756 -0.44881344 -1.8059812 4288085770
7.4210148 -0.7343421 -1.8194958 4288085770
4.0219097 -0.43367338 -1.8067997 4288085770
7.9911556 -0.72397709 -1.8192196 4288085770
4.352066 -0.41861582 -1.8086063 4288085770
8.6442928 -0.71583843 -1.8219172 4288085770
4.6832237 -0.40157843 -1.8054048 4288085770
9.3004417 -0.70373392 -1.8175986 4288085770
5.0723648 -0.38668919 -1.808189 4288085770
10.025566 -0.69283056 -1.8132604 4288085770
5.4525204 -0.36978817 -1.8059711 4288085770
10.828709 -0.68114948 -1.8078876 4288085770
5.882679 -0.35302687 -1.8047332 4288085770
11.763844 -0.67383146 -1.8064764 4288085770
6.3748341 -0.33742809 -1.8074739 4288085770
12.860977 -0.66696978 -1.8069999 4288085770
6.8739967 -0.31986666 -1.8052045 4288085770
14.146103 -0.66363478 -1.8104591 4288085770
7.4771557 -0.30358219 -1.808897 4288085770
8.107317 -0.28638601 -1.8095751 4288085770
8.8384819 -0.26946354 -1.8142128 4288085770
9.6156483 -0.25068712 -1.8148245 4288085770
10.411818 -0.22899723 -1.8064177 4288085770
11.449989 -0.2099452 -1.8129212 4288085770
12.538168 -0.18707275 -1.8093899 4288085770
13.938347 -0.16703844 -1.8207406 4288085770
14.225189 0.090807915 -1.8153628 4288085770
12.714294 0.093090057 -1.8069088 4288085770
11.517405 0.095515251 -1.8103398 4288085770
10.43852 0.099597931 -1.8117214 4288085770
9.5396385 0.10318232 -1.8180392 4288085770
8.6477547 0.1097126 -1.8143429 4288085770
7.8298759 0.116014 -1.8056202 4288085770
14.495785 0.054969788 -1.8054547 4288085770
7.1330013 0.12299347 -1.803851 4288085770
13.004934 0.072218418 -1.8039366 4288085770
6.4541245 0.13089418 -1.7940716 4288085770
11.724081 0.087870598 -1.8033475 4288085770
5.9122467 0.13744473 -1.7962474 4288085770
10.65123 0.10294914 -1.8086851 4288085770
5.4053764 0.14488792 -1.7964071 4288085770
9.7383747 0.11657381 -1.81497 4288085770
4.9385052 0.15321422 -1.7955488 4288085770
8.8205204 0.13117433 -1.810252 4288085770
4.5046349 0.16144538 -1.7946788 4288085770
7.9876633 0.14551854 -1.8015038 4288085770
4.1267643 0.16853094 -1.7977927 4288085770
7.300806 0.15947986 -1.8027048 4288085770
3.8018951 0.17747903 -1.8048807 4288085770
6.6159477 0.17240095 -1.7939076 4288085770
3.4650269 0.18544006 -1.8059763 4288085770
6.0520916 0.18600392 -1.793065 4288085770
3.1471634 0.19434023 -1.8050613 4288085770
5.5372314 0.1984632 -1.7912084 4288085770
2.8612938 0.20315552 -1.8061353 4288085770
5.0723724 0.2107904 -1.7923342 4288085770
2.5624199 0.21198773 -1.8012133 4288085770
4.632515 0.22303534 -1.7904509 4288085770
2.3085594 0.2217114 -1.8022722 4288085770
4.2736568 0.2350769 -1.7965397 4288085770
2.0826912 0.23036242 -1.8053247 4288085770
3.9157982 0.24709821 -1.7976274 4288085770
1.8448257 0.24003077 -1.8033776 4288085770
3.5939445 0.26002693 -1.8016994 4288085770
1.6519623 0.24959421 -1.8084151 4288085770
3.2730827 0.2709353 -1.8007776 4288085770
1.4500923 0.25916958 -1.8094554 4288085770
2.9822197 0.28276157 -1.8008419 4288085770
1.2392311 0.26975036 -1.804495 4288085770
2.690361 0.29458046 -1.7979062 4288085770
1.0963669 0.27818823 -1.8145183 4288085770
2.4395027 0.3072958 -1.7989529 4288085770
0.92550278 0.28767157 -1.8145477 4288085770
2.2056465 0.31896257 -1.7999969 4288085770
0.77064133 0.29811954 -1.8175677 4288085770
1.9817848 0.33060098 -1.8010375 4288085770
0.60477448 0.30857491 -1.8135915 4288085770
1.7509232 0.34223843 -1.7960804 4288085770
0.45790863 0.31798935 -1.8136121 4288085770
1.5780678 0.35475206 -1.8030996 4288085770
0.32704926 0.32837272 -1.8176237 4288085770
1.3732109 0.36631846 -1.7991333 4288085770
0.19718552 0.33874226 -1.818635 4288085770
1.2263527 0.37876439 -1.8081437 4288085770
0.061325073 0.35011506 -1.8156446 4288085770
1.0714989 0.39121246 -1.8111567 4288085770
-0.052536011 0.36044621 -1.8186501 4288085770
0.90263748 0.40268326 -1.8091778 4288085770
-0.17139816 0.37077713 -1.8176574 4288085770
0.75378418 0.41510725 -1.8101883 4288085770
-0.27025986 0.38206887 -1.8216542 4288085770
0.60992432 0.42651677 -1.8112006 4288085770
0.4670639 0.43891358 -1.809209 4288085770
0.33420563 0.45028472 -1.8082175 4288085770
0.21334839 0.4626286 -1.8092183 4288085770
0.10449219 0.47594857 -1.8132116 4288085770
-0.012363434 0.48827767 -1.8132108 4288085770
-0.11821747 0.5005753 -1.8132063 4288085770
-0.22007751 0.51286459 -1.8142005 4288085770
-0.32393265 0.52515316 -1.8131951 4288085770
-0.27330399 2.6074977 -1.7972223 4288085770
-0.16407776 2.6471806 -1.7970573 4288085770
-0.046852112 2.6878448 -1.7978867 4288085770
0.066364288 2.7265131 -1.7967243 4288085770
-0.25001526 2.5699368 -1.6593544 4293729569
-0.30567551 2.5435748 -1.8034706 4288085770
-0.18946838 2.5762415 -1.8043282 4288085770
-0.09029007 2.6009359 -1.7992182 4288085770
-0.29076004 2.454247 -1.433778 4293729569
0.044921875 2.6385624 -1.8040538 4288085770
-0.23964691 2.4570236 -1.4127567 4293729569
0.15710449 2.6652234 -1.7999336 4288085770
-0.14948273 2.4767239 -1.4016663 4293729569
0.29532242 2.7008376 -1.8037755 4288085770
-0.16045761 2.4516196 -1.3637581 4293729569
0.38346481 2.7145329 -1.7897069 4288085770
-0.13938904 2.4394553 -1.3347965 4293729569
-0.05708313 2.5022016 -1.6205609 4293729569
-0.099304199 2.4342499 -1.3098059 4293729569
-0.12413788 2.4501958 -1.5647606 4293729569
-0.065227509 2.4260583 -1.2838271 4293729569
-0.046009064 2.4579196 -1.5507151 4293729569
-0.018135071 2.4218402 -1.2608311 4293729569
-0.018951416 2.443738 -1.5217589 4293729569
0.028957367 2.4176219 -1.2378353 4293729569
-0.019924164 2.4176154 -1.4868515 4293729569
0.085048676 2.4143815 -1.2158337 4293729569
0.058193207 2.4223366 -1.4718165 4293729569
0.12813187 2.4061675 -1.1908526 4293729569
0.1333046 2.4250655 -1.4567894 4293729569
0.19623566 2.4068995 -1.1708343 4293729569
0.19340134 2.4208202 -1.4367901 4293729569
0.26333618 2.4056349 -1.150823 4293729569
0.25448608 2.4155726 -1.4167941 4293729569
0.33943558 2.4063478 -1.1318026 4293729569
0.30855942 2.4063411 -1.3958138 4293729569
0.39551926 2.3991036 -1.108815 4293729569
0.35362244 2.3931251 -1.3718499 4293729569
0.45359802 2.3918576 -1.086827 4293729569
0.40969467 2.382885 -1.3498726 4293729569
0.52569199 2.3875749 -1.065825 4293729569
0.5358429 2.3964958 -1.3427945 4293729569
0.59778214 2.382292 -1.0448266 4293729569
0.58791351 2.3832669 -1.320829 4293729569
0.66886139 2.3750088 -1.0228353 4293729569
0.73206329 2.3998334 -1.3157362 4293729569
0.76997757 2.3776569 -1.005802 4293729569
0.79313278 2.3865788 -1.2937683 4293729569
0.89611053 2.3872442 -0.99173832 4293729569
0.87321091 2.3782835 -1.2757783 4293729569
1.1003075 2.4196424 -0.98757553 4293729569
0.94227982 2.3650093 -1.2548087 4293729569
7.738781 4.5587263 -1.8644613 4288085770
1.1494789 2.3964303 -1.2596487 4293729569
8.3702602 4.6869769 -1.8808596 4288085770
1.1144333 2.3473883 -1.2198293 4293729569
8.9636898 4.7973022 -1.8873307 4288085770
4.7278481 3.4471171 -1.812098 4288085770
9.6231518 4.919456 -1.8987441 4288085770
5.0360622 3.4822392 -1.8139012 4288085770
10.367664 5.0583801 -1.9140782 4288085770
5.3772907 3.5242772 -1.8186722 4288085770
11.146175 5.1972008 -1.9274044 4288085770
5.7114983 3.5583253 -1.8204728 4288085770
12.241938 5.4212112 -1.9683554 4282675967
12.877945 5.5057554 -1.9539019 4288085770
6.4388638 3.6355941 -1.8262744 4288085770
13.449177 5.5551147 -1.9284384 4288085770
6.8500881 3.6765034 -1.8319193 4288085770
14.307611 5.6757951 -1.9275599 4288085770
7.2432842 3.7084494 -1.8346081 4288085770
7.636467 3.7353802 -1.8333162 4288085770
8.107687 3.7751353 -1.8409373 4288085770
8.5768909 3.8088765 -1.8435826 4288085770
9.0550785 3.8375971 -1.8472434 4288085770
9.5952969 3.8761659 -1.8548365 4288085770
10.109472 3.8997858 -1.8575001 4288085770
10.659658 3.9273164 -1.8621315 4288085770
11.150787 3.9349718 -1.8578688 4288085770
11.758965 3.9583464 -1.8624885 4288085770
12.404142 3.981632 -1.8700913 4288085770
13.037287 3.9949315 -1.872739 4288085770
13.673407 3.9982109 -1.8724242 4288085770
14.24847 3.9826291 -1.8652116 4288085770
14.883547 3.9709003 -1.861956 4288085770
10.894369 -2.9970865 -0.97395664 4293729569
11.023113 -3.1382937 -1.0124435 4293729569
10.975956 -3.2430568 -1.0428721 4293729569
10.55801 -3.2629051 -1.0511464 4293729569
10.767401 -3.3882632 -0.3165265 4293729569
10.202044 -3.2929044 -1.0634307 4293729569
10.035975 -3.3623667 -1.0887783 4293729569
10.091774 -3.4833732 -1.1282209 4293729569
10.874107 -3.7871327 -1.2220299 4293729569
15.000948 -5.110764 -1.6202163 4293729569
14.251225 -5.0467601 -1.6173216 4293729569
13.618444 -5.006041 -1.6224622 4293729569
13.015665 -4.9644008 -1.6275848 4293729569
12.350954 -4.8946185 -1.6266277 4293729569
11.736231 -4.8319669 -1.6266744 4293729569
12.247326 -5.0632768 -0.85532302 4293729569
11.118534 -4.757318 -1.6236761 4293729569
12.238146 -5.1790433 -0.9117763 4293729569
10.595779 -4.7068906 -1.6297266 4293729569
10.096029 -4.6545329 -1.633759 4293729569
9.6112843 -4.6002116 -1.6387768 4293729569
9.1455383 -4.5459428 -1.6437854 4293729569
8.663826 -4.4786448 -1.6447513 4293729569
8.2340851 -4.42347 -1.6507394 4293729569
7.7743855 -4.3512387 -1.6496756 4293729569
14.785521 -6.9115415 -1.5492941 4293729569
7.3576565 -4.2891097 -1.6526303 4293729569
13.848194 -6.7009854 -1.5579194 4293729569
6.9529381 -4.2240167 -1.6545683 4293729569
12.941872 -6.4895177 -1.5655266 4293729569
6.5662212 -4.1589713 -1.656498 4293729569
12.115507 -6.2942691 -1.5721589 4293729569
6.2024937 -4.0979848 -1.6594324 4293729569
11.286173 -6.0860314 -1.5737425 4293729569
5.8737431 -4.0460811 -1.6653856 4293729569
10.560762 -5.9070592 -1.5793905 4293729569
5.5639877 -3.9962239 -1.672338 4293729569
9.9612484 -5.7683892 -1.5941354 4293729569
5.3041916 -3.9614797 -1.6853251 4293729569
9.3607502 -5.6227393 -1.6038536 4293729569
5.1013489 -3.9468608 -1.7053638 4293729569
8.7522888 -5.4630933 -1.6065214 4293729569
4.9065056 -3.932261 -1.7263985 4293729569
8.1838017 -5.3125472 -1.6112053 4293729569
4.7256508 -3.9206958 -1.7484384 4293729569
7.6792679 -5.1801658 -1.6179298 4293729569
4.5607929 -3.9121652 -1.7724826 4288085770
7.1417866 -5.0267215 -1.6175882 4293729569
4.4099255 -3.9066691 -1.7975323 4288085770
6.2926693 -4.7316098 -1.5718435 4293729569
4.2360878 -3.8901258 -1.8185496 4288085770
6.1487846 -4.7350669 -1.613925 4293729569
4.0432777 -3.8605509 -1.8345257 4288085770
4.8292408 -4.2139764 -1.4915251 4293729569
3.7825546 -3.7988415 -1.8374089 4288085770
4.7103558 -4.2165151 -1.5295911 4293729569
3.5218353 -3.7341442 -1.8372803 4288085770
4.5595131 -4.2029929 -1.56161 4293729569
3.239151 -3.6534095 -1.8310997 4288085770
4.4336414 -4.1985173 -1.5986518 4293729569
2.991436 -3.5867548 -1.8289578 4288085770
4.3127766 -4.1940646 -1.6336917 4293729569
2.7497253 -3.518116 -1.8268051 4288085770
4.0990276 -4.143414 -1.6545962 4293729569
2.5150146 -3.4514918 -1.825657 4288085770
3.8243599 -4.061645 -1.6634084 4293729569
2.3112755 -3.3949409 -1.8275334 4288085770
3.5227394 -3.9618325 -1.6641635 4293729569
2.1085358 -3.3373957 -1.8284054 4288085770
3.2780495 -3.8861442 -1.6729854 4293729569
1.898819 -3.271843 -1.8262498 4288085770
3.0982933 -3.8385925 -1.6918858 4293729569
1.7130775 -3.2163439 -1.8271217 4288085770
3.0064316 -3.8322215 -1.7259049 4293729569
1.5313416 -3.1588588 -1.8269844 4288085770
2.9175758 -3.8248544 -1.7609186 4288085770
1.3685799 -3.1104097 -1.830873 4288085770
2.8446999 -3.8245225 -1.7979524 4288085770
1.183857 -3.0469327 -1.8267136 4288085770
2.7368698 -3.8051233 -1.8279284 4288085770
1.0251007 -2.9945059 -1.827585 4288085770
2.5321732 -3.7325506 -1.8347437 4288085770
0.87335205 -2.9430947 -1.8294569 4288085770
2.2925339 -3.6399207 -1.8314976 4288085770
0.74257278 -2.9007282 -1.8343543 4288085770
2.061882 -3.5483193 -1.8272513 4288085770
0.58483887 -2.8423195 -1.8312021 4288085770
1.8512192 -3.4637647 -1.8250231 4288085770
0.44009018 -2.7879424 -1.8290594 4288085770
1.6605301 -3.3882556 -1.8248204 4288085770
0.31931686 -2.7456069 -1.8329523 4288085770
1.4719009 -3.3107581 -1.8236108 4288085770
0.19460678 -2.6982703 -1.8348287 4288085770
1.3011971 -3.2402959 -1.8254176 4288085770
1.1314926 -3.1688471 -1.8242204 4288085770
0.98576736 -3.1074476 -1.8270509 4288085770
0.83506012 -3.0410428 -1.8278644 4288085770
0.70032501 -2.9826689 -1.8317016 4288085770
0.55760956 -2.9172935 -1.8305153 4288085770
0.41589355 -2.8509278 -1.8273246 4288085770
0.3021431 -2.7986073 -1.8321757 4288085770
0.18740082 -2.7432947 -1.8340155 4288085770
0.13562012 -0.32658529 -1.8280704 4288085770
0.21876907 -0.31183958 -1.8209865 4288085770
0.33491135 -0.29914999 -1.8228985 4288085770
0.44205475 -0.2864542 -1.819814 4288085770
0.56119537 -0.27377987 -1.8197252 4288085770
0.68933487 -0.26212549 -1.8206373 4288085770
0.81247711 -0.24946928 -1.8185476 4288085770
0.94862366 -0.23684359 -1.8174534 4288085770
1.0937614 -0.22523928 -1.8173599 4288085770
0.091091156 -0.12249184 -1.8313352 4288085770
1.2439041 -0.21265173 -1.8162611 4288085770
0.19123459 -0.10978127 -1.8272532 4288085770
1.3960419 -0.20107269 -1.8141656 4288085770
0.3103714 -0.098110199 -1.8261688 4288085770
1.5591812 -0.18952417 -1.8120664 4288085770
0.40551376 -0.08440876 -1.8160851 4288085770
1.7273254 -0.17699289 -1.808962 4288085770
0.5426445 -0.073774338 -1.8179983 4288085770
1.9054604 -0.16448736 -1.805854 4288085770
0.68178558 -0.063153744 -1.8179109 4288085770
2.1055946 -0.15403461 -1.8047464 4288085770
0.83392334 -0.052560329 -1.8198192 4288085770
2.3117371 -0.14260101 -1.8026332 4288085770
0.98305893 -0.041974068 -1.8177289 4288085770
2.5398712 -0.13121605 -1.8035125 4288085770
1.1332016 -0.0303936 -1.8146343 4288085770
2.7880096 -0.12088394 -1.8043889 4288085770
1.3063354 -0.019860268 -1.815536 4288085770
3.0591507 -0.11061049 -1.8062577 4288085770
1.4764709 -0.0093340874 -1.8124388 4288085770
3.3382835 -0.10036182 -1.8071241 4288085770
1.6666107 0.0011501312 -1.812335 4288085770
3.6484222 -0.091193199 -1.808984 4288085770
1.8637466 0.011610985 -1.811229 4288085770
3.9395618 -0.078999996 -1.8038394 4288085770
2.0728798 0.022040367 -1.8101192 4288085770
4.2756977 -0.068915844 -1.8016875 4288085770
2.2880173 0.032445908 -1.8070077 4288085770
4.6108341 -0.057844639 -1.7955322 4288085770
2.5241508 0.042802334 -1.8058889 4288085770
5.0199718 -0.047945499 -1.7963561 4288085770
2.7862854 0.05209589 -1.8067656 4288085770
5.4791069 -0.039170265 -1.800167 4288085770
3.0784264 0.061317444 -1.8096321 4288085770
5.9352417 -0.02941227 -1.7969757 4288085770
3.3575592 0.071550846 -1.8064998 4288085770
6.4493752 -0.019803047 -1.7957655 4288085770
3.6686935 0.081705093 -1.8053569 4288085770
7.0545101 -0.011419773 -1.7995286 4288085770
3.9948254 0.09081316 -1.802213 4288085770
7.7396412 -0.0032434464 -1.8052652 4288085770
4.3579617 0.10082769 -1.8010533 4288085770
8.4487762 0.0048456192 -1.8049945 4288085770
4.7510948 0.10976219 -1.7998875 4288085770
9.2929096 0.012593746 -1.8106792 4288085770
5.1692257 0.11862636 -1.797714 4288085770
10.16604 0.0202384 -1.8093553 4288085770
5.650362 0.12733555 -1.7995197 4288085770
11.155174 0.028566837 -1.8069894 4288085770
6.1764946 0.13492393 -1.8013145 4288085770
12.286304 0.035513878 -1.804581 4288085770
6.7366257 0.14341331 -1.8010948 4288085770
13.697435 0.040746212 -1.8120838 4288085770
7.4377575 0.15056157 -1.8108323 4288085770
8.1498909 0.15765405 -1.813567 4288085770
9.0070229 0.16437912 -1.8222543 4288085770
9.9211521 0.17093563 -1.8269234 4288085770
10.81728 0.17848492 -1.8165959 4288085770
11.957409 0.18442321 -1.8181921 4288085770
13.289541 0.18984532 -1.8197262 4288085770
14.865665 0.1936233 -1.8241848 4288085770
14.238335 0.4228487 -1.8199203 4288085770
12.82749 0.44263172 -1.8182585 4288085770
11.678646 0.46073198 -1.8225261 4288085770
10.625801 0.47956634 -1.8247631 4288085770
9.7779579 0.4968791 -1.8349451 4288085770
8.9851112 0.51402164 -1.8391123 4288085770
8.1642551 0.52818775 -1.8292993 4288085770
14.936773 0.69388819 -1.8046435 4288085770
7.4633999 0.54304957 -1.8244485 4288085770
13.495913 0.70675874 -1.8050205 4288085770
6.800539 0.55679417 -1.815591 4288085770
12.256056 0.72009277 -1.8063363 4288085770
6.1936779 0.569381 -1.8047214 4288085770
11.2052 0.73393631 -1.8125939 4288085770
5.691824 0.58372235 -1.8038143 4288085770
10.266338 0.74646044 -1.8138237 4288085770
5.2379704 0.5979383 -1.8038932 4288085770
9.5294952 0.76349664 -1.8299764 4288085770
4.8041134 0.61108899 -1.8009707 4288085770
8.7866402 0.77750063 -1.8331429 4288085770
4.4652634 0.62602162 -1.808013 4288085770
8.0327721 0.78749394 -1.825328 4288085770
4.1134109 0.63996649 -1.8090633 4288085770
7.3629055 0.79827213 -1.8204854 4288085770
3.7815552 0.65285063 -1.8081117 4288085770
6.7070312 0.80597639 -1.8056504 4288085770
3.4856949 0.66564488 -1.8091499 4288085770
6.1901722 0.81835389 -1.8037562 4288085770
3.2028427 0.6794045 -1.8101805 4288085770
5.686306 0.82868218 -1.7978662 4288085770
2.9699936 0.6940515 -1.8171933 4288085770
5.2724457 0.84079766 -1.7999426 4288085770
2.711132 0.70673203 -1.8142213 4288085770
4.8605804 0.85188603 -1.7960225 4288085770
2.4832764 0.72034717 -1.8162365 4288085770
4.512722 0.86482406 -1.7980764 4288085770
2.2444153 0.7319665 -1.8112626 4288085770
4.1968708 0.87868309 -1.8021171 4288085770
2.0455627 0.74550366 -1.8132695 4288085770
3.8890152 0.89151001 -1.8031594 4288085770
1.8387032 0.75804377 -1.8102828 4288085770
3.613163 0.90525436 -1.8051889 4288085770
1.6708527 0.77250886 -1.8152772 4288085770
3.3292999 0.91700578 -1.8032284 4288085770
1.4939957 0.78497601 -1.8142818 4288085770
3.1104507 0.93261838 -1.8112338 4288085770
1.3351402 0.79940534 -1.8162739 4288085770
2.8665962 0.94526196 -1.809258 4288085770
1.1872902 0.81280565 -1.8182664 4288085770
2.6437378 0.95786023 -1.8102762 4288085770
1.0454369 0.82618952 -1.8202572 4288085770
2.4168777 0.9694469 -1.8052995 4288085770
0.90758133 0.8395586 -1.8212471 4288085770
2.2340279 0.98394847 -1.8092985 4288085770
0.76472473 0.85293055 -1.8192385 4288085770
2.0301666 0.99648046 -1.8063116 4288085770
0.63286972 0.86627674 -1.8182267 4288085770
1.8463097 1.0089626 -1.8043188 4288085770
0.52101517 0.88058329 -1.8212055 4288085770
1.6854515 1.0223978 -1.8063154 4288085770
0.39816284 0.89390135 -1.8191912 4288085770
1.5225983 1.0358272 -1.805313 4288085770
0.27830505 0.90621114 -1.8171799 4288085770
1.3857498 1.0501976 -1.8072988 4288085770
0.17744827 0.92048144 -1.8181555 4288085770
1.2398911 1.0645847 -1.8072879 4288085770
1.1100426 1.0789363 -1.8092721 4288085770
0.9791832 1.0922799 -1.8082604 4288085770
0.87133789 1.1085796 -1.8122306 4288085770
0.73648071 1.1209188 -1.807224 4288085770
0.62162399 1.1342189 -1.8062077 4288085770
0.53478241 1.1514661 -1.811168 4288085770
0.42692566 1.1647434 -1.8091497 4288085770
0.33508301 1.1809931 -1.8111155 4288085770
0.24723053 1.1972277 -1.8120801 4288085770
0.16838837 1.2134459 -1.8150421 4288085770
0.28178787 2.5992908 -0.65148759 4293729569
14.969648 -2.3852654 -1.8304582 4288085770
14.288668 -2.4194198 -1.8368535 4288085770
13.556725 -2.4364672 -1.8352078 4288085770
12.926775 -2.4597659 -1.8395432 4288085770
12.335829 -2.480166 -1.8448528 4288085770
11.710917 -2.4874964 -1.844129 4288085770
11.101015 -2.489872 -1.8423811 4288085770
10.506134 -2.4852977 -1.8376025 4288085770
9.9752464 -2.4828773 -1.8378054 4288085770
9.4453716 -2.4764705 -1.834994 4288085770
8.9574947 -2.4711657 -1.8351697 4288085770
8.5046139 -2.4669514 -1.8363349 4288085770
8.049757 -2.4537425 -1.8344685 4288085770
11.126875 -3.1311917 -1.5116571 4293729569
7.5889072 -2.4365282 -1.8295906 4288085770
11.206709 -3.2451262 -1.5900321 4293729569
7.1700573 -2.4194164 -1.8276961 4288085770
10.887764 -3.2691245 -1.6312449 4293729569
6.7782021 -2.4053736 -1.8268015 4288085770
10.866667 -3.3568172 -1.7015663 4293729569
6.3953609 -2.3863616 -1.8238854 4288085770
11.17938 -3.5212741 -1.8080283 4288085770
6.0684929 -2.3774705 -1.8289833 4288085770
10.384741 -3.4251862 -1.7970012 4288085770
5.7026653 -2.3535123 -1.8240427 4288085770
9.9449062 -3.4069185 -1.8221107 4288085770
5.3918133 -2.3396716 -1.8271163 4288085770
9.3401947 -3.3402972 -1.8231126 4288085770
5.0899658 -2.3228626 -1.8281757 4288085770
8.7484913 -3.269721 -1.8210952 4288085770
4.7901268 -2.304059 -1.829227 4288085770
8.2127666 -3.2072835 -1.8220848 4288085770
4.5132809 -2.2873106 -1.8322765 4288085770
7.661068 -3.1348262 -1.8170447 4288085770
4.2584305 -2.2736173 -1.836328 4288085770
7.1933289 -3.0775728 -1.8180255 4288085770
3.9945946 -2.2529101 -1.8373581 4288085770
6.7266045 -3.0153279 -1.8169879 4288085770
3.7537498 -2.2362542 -1.8413936 4288085770
6.3108597 -2.9602132 -1.8179554 4288085770
3.506916 -2.2145963 -1.8414134 4288085770
5.9081173 -2.9051337 -1.818918 4288085770
3.2570953 -2.1869421 -1.8384126 4288085770
5.5803337 -2.86623 -1.8269081 4288085770
3.0292664 -2.1643353 -1.8384216 4288085770
5.2105904 -2.8112454 -1.8258576 4288085770
2.8174286 -2.1447611 -1.8414347 4288085770
4.8888206 -2.7653766 -1.8288205 4288085770
2.587616 -2.1151643 -1.8374192 4288085770
4.5820484 -2.7215433 -1.8327847 4288085770
2.3897858 -2.0926352 -1.8384162 4288085770
4.2742882 -2.6727185 -1.8337313 4288085770
2.2019501 -2.0721283 -1.8404163 4288085770
3.9875183 -2.6279464 -1.8356841 4288085770
2.0081291 -2.0456171 -1.8393973 4288085770
3.7117538 -2.5812078 -1.8366253 4288085770
1.8362999 -2.0251498 -1.8423913 4288085770
3.4419861 -2.534493 -1.8355643 4288085770
1.6664696 -2.0026956 -1.8433772 4288085770
3.1792221 -2.4877963 -1.8345008 4288085770
1.4886475 -1.9762268 -1.842352 4288085770
2.9484406 -2.4471741 -1.8364457 4288085770
1.3308182 -1.952805 -1.8433298 4288085770
2.696682 -2.3965187 -1.8323635 4288085770
1.1709938 -1.9283814 -1.8433048 4288085770
2.472908 -2.3539233 -1.8322988 4288085770
1.0331573 -1.9090018 -1.8472886 4288085770
2.2811089 -2.320395 -1.8372538 4288085770
0.90231705 -1.8896379 -1.8522701 4288085770
2.0893173 -2.2828779 -1.8391943 4288085770
0.74150848 -1.8582339 -1.8462205 4288085770
1.9145203 -2.2493925 -1.8451425 4288085770
0.60868454 -1.8348746 -1.8481883 4288085770
1.6997528 -2.2008467 -1.8380529 4288085770
0.48185349 -1.8125319 -1.8501571 4288085770
1.5099792 -2.1573539 -1.8349713 4288085770
0.3440361 -1.7841749 -1.8481091 4288085770
1.3751602 -2.1329608 -1.844936 4288085770
0.22220993 -1.76085 -1.8490729 4288085770
1.1933861 -2.0894928 -1.8408514 4288085770
0.1073761 -1.7385392 -1.8510373 4288085770
1.0425797 -2.0550852 -1.8427869 4288085770
0.89878082 -2.0216975 -1.844723 4288085770
0.76298141 -1.9893274 -1.8476596 4288085770
0.6171875 -1.9519453 -1.8465823 4288085770
0.48838425 -1.9195971 -1.8485162 4288085770
0.35659027 -1.8842521 -1.8474405 4288085770
0.2267952 -1.8489127 -1.846364 4288085770
0.096004486 -1.8105817 -1.8422772 4288085770
0.14495087 0.30961061 -1.813202 4288085770
0.26508713 0.32128263 -1.8131009 4288085770
0.37822342 0.33195901 -1.8090067 4288085770
0.5153656 0.34358883 -1.8098977 4288085770
0.65650558 0.35520816 -1.8107867 4288085770
0.81864929 0.36678505 -1.815666 4288085770
0.94378281 0.37741113 -1.8065659 4288085770
1.1249275 0.38894105 -1.8124361 4288085770
0.16801453 0.40054131 -1.8218485 4288085770
1.2710648 0.39951754 -1.8053263 4288085770
0.29214096 0.41019583 -1.8197528 4288085770
1.4581985 0.41101336 -1.8061939 4288085770
0.42327499 0.41883111 -1.8176574 4288085770
1.6463394 0.42149925 -1.8050643 4288085770
0.54740906 0.42747045 -1.811565 4288085770
1.8434792 0.43296432 -1.8049269 4288085770
0.70053864 0.43606114 -1.8134593 4288085770
2.0596199 0.44437838 -1.8047806 4288085770
0.86867523 0.44561481 -1.8163427 4288085770
2.2847557 0.45477176 -1.8056335 4288085770
1.0268059 0.45318127 -1.8152381 4288085770
2.5289001 0.46611071 -1.805474 4288085770
1.1999397 0.46170712 -1.8141229 4288085770
2.7960396 0.47739482 -1.8073037 4288085770
1.3820724 0.47021246 -1.8140032 4288085770
3.0821838 0.48862839 -1.8091244 4288085770
1.5752029 0.47768831 -1.8138821 4288085770
3.3723183 0.49883628 -1.8069466 4288085770
1.7783356 0.48513722 -1.8137562 4288085770
3.6904602 0.50997996 -1.8077523 4288085770
1.9884644 0.49256039 -1.8116269 4288085770
4.0115986 0.52110076 -1.8045563 4288085770
2.2065964 0.49996185 -1.8094939 4288085770
4.3667355 0.53113413 -1.8023481 4288085770
2.4657249 0.50727844 -1.8143415 4288085770
4.7458763 0.54210305 -1.8001246 4288085770
2.7088509 0.51360536 -1.8102005 4288085770
5.1670132 0.55196261 -1.7988852 4288085770
3.0059814 0.5208199 -1.8150302 4288085770
5.6441555 0.56368613 -1.8016121 4288085770
3.2671013 0.52608776 -1.807884 4288085770
6.1512966 0.57431483 -1.8003285 4288085770
3.5942307 0.53221083 -1.8097032 4288085770
6.7774448 0.58666348 -1.8099816 4288085770
3.9213524 0.53731942 -1.8075259 4288085770
7.4695988 0.59983873 -1.8206 4288085770
4.2664776 0.54137611 -1.8043437 4288085770
8.227747 0.61183262 -1.8301908 4288085770
4.6435966 0.54535007 -1.8021463 4288085770
9.0508976 0.6246376 -1.8357472 4288085770
5.068718 0.54920626 -1.8029263 4288085770
9.8180294 0.63353825 -1.8263444 4288085770
5.5278397 0.55297089 -1.8036902 4288085770
10.735163 0.64305091 -1.8208671 4288085770
6.0389576 0.55559635 -1.8044331 4288085770
11.737301 0.6523242 -1.8123497 4288085770
6.6280804 0.55803347 -1.8111393 4288085770
12.92944 0.66210151 -1.8077391 4288085770
7.3222065 0.56121039 -1.8237922 4288085770
14.329576 0.67132688 -1.8050302 4288085770
8.0173206 0.56135201 -1.8274554 4288085770
8.8744431 0.56209826 -1.8420385 4288085770
9.6775455 0.55892062 -1.8376615 4288085770
10.513634 0.55262542 -1.8252794 4288085770
11.515726 0.54491329 -1.8208227 4288085770
12.651812 0.53484464 -1.8173096 4288085770
14.024897 0.5231576 -1.8186883 4288085770
4.3723202 -4.4804177 -0.2831406 4293729569
4.1728802 -4.3177752 -0.31365398 4293729569
4.1502094 -4.2425942 -0.34839645 4293729569
4.1265373 -4.1664195 -0.3801358 4293729569
4.1957531 -4.1334853 -0.41498592 4293729569
4.3918114 -4.1588759 -0.45398471 4293729569
4.5559177 -4.1661868 -0.49193388 4293729569
4.7200375 -4.169497 -0.52986878 4293729569
6.2615566 -4.7812724 -0.63432992 4293729569
6.3028564 -4.7172637 -0.6690824 4293729569
15.046659 -7.1806989 -1.5387847 4293729569
14.754465 -6.9228683 -1.5520018 4293729569
14.459259 -6.6690412 -1.5622345 4293729569
14.238983 -6.4434028 -1.5755327 4293729569
13.957739 -6.2016349 -1.5798017 4293729569
13.799383 -6.0051646 -1.5931749 4293729569
13.605049 -5.7986226 -1.599529 4293729569
12.278624 -5.2363753 -1.5111426 4293729569
12.225653 -5.09337 -0.64164937 4293729569
12.305077 -5.1113791 -1.5306845 4293729569
12.302059 -4.986505 -0.66223258 4293729569
12.966043 -5.1789069 -1.6016169 4293729569
13.010485 -5.0569625 -1.6201614 4293729569
13.010971 -4.9189277 -1.6316687 4293729569
13.019447 -4.7849116 -1.6431868 4293729569
12.973951 -4.6377769 -1.6476833 4293729569
12.985418 -4.5057817 -1.6562072 4293729569
13.1418 -4.4091392 -1.6747895 4293729569
13.610981 -4.3892484 -1.7185 4293729569
10.989578 -3.632906 -0.69001722 4293729569
10.453381 -3.4857473 -1.4437491 4293729569
10.908058 -3.4946961 -0.68856233 4293729569
10.456799 -3.3707585 -1.4443372 4293729569
10.914482 -3.3777151 -0.68914193 4293729569
10.922955 -3.3598766 -1.483081 4293729569
10.970875 -3.2728653 -0.69074172 4293729569
11.17824 -3.2984967 -1.5027431 4293729569
11.184181 -3.2014227 -0.69638735 4293729569
11.231646 -3.1886458 -1.5023263 4293729569
11.418482 -3.1310401 -0.7010271 4293729569
11.179104 -3.05655 -1.4908794 4293729569
13.960855 0.80675173 -1.7994372 4288085770
12.79406 0.84388995 -1.8006841 4288085770
11.792261 0.88059473 -1.8048792 4288085770
10.904457 0.91398931 -1.8080487 4288085770
10.102648 0.94514918 -1.8101982 4288085770
9.4288406 0.97698236 -1.8173041 4288085770
8.7250137 1.0028565 -1.81344 4288085770
8.0831833 1.026557 -1.8075631 4288085770
15.088459 1.4726467 -1.7877843 4288085770
7.5273571 1.0520439 -1.8066521 4288085770
13.899603 1.4878478 -1.7901114 4288085770
6.98452 1.0744777 -1.8007476 4288085770
12.869757 1.5046315 -1.7953819 4288085770
6.4866791 1.0947905 -1.7948358 4288085770
11.943905 1.5211289 -1.7986201 4288085770
6.0578442 1.1169357 -1.7938955 4288085770
11.09705 1.5354028 -1.7988405 4288085770
5.6650105 1.1389806 -1.7919439 4288085770
10.337189 1.5494423 -1.7990338 4288085770
5.306179 1.1609409 -1.7919816 4288085770
9.6553364 1.5652716 -1.7991958 4288085770
4.9573364 1.1808674 -1.790023 4288085770
9.0294857 1.5809543 -1.8003401 4288085770
4.6445026 1.2027004 -1.789046 4288085770
8.4426289 1.5945175 -1.797479 4288085770
4.364666 1.2244523 -1.7900589 4288085770
7.892765 1.6069775 -1.7936099 4288085770
4.095829 1.2451739 -1.7910717 4288085770
7.4019089 1.6212859 -1.7917155 4288085770
3.8830032 1.270767 -1.7980496 4288085770
6.9290447 1.6335316 -1.7858225 4288085770
3.6311607 1.2894287 -1.7950637 4288085770
6.5462036 1.6515677 -1.7888807 4288085770
3.4263306 1.3119893 -1.7990496 4288085770
6.1653481 1.6665802 -1.7869487 4288085770
3.2134933 1.3315535 -1.7980483 4288085770
5.8044968 1.682539 -1.7850066 4288085770
3.0256577 1.3530607 -1.8000321 4288085770
5.5056591 1.7023487 -1.7880316 4288085770
2.8308144 1.3725767 -1.7990248 4288085770
5.2178192 1.7221253 -1.7900529 4288085770
2.6649857 1.395025 -1.8009983 4288085770
4.9159622 1.7359183 -1.7860997 4288085770
2.4911423 1.4134805 -1.7989881 4288085770
4.6541214 1.7546179 -1.7861164 4288085770
2.3483124 1.4368746 -1.8029507 4288085770
4.4262829 1.7752364 -1.7891157 4288085770
2.1914711 1.456284 -1.8009316 4288085770
4.1884365 1.7928643 -1.7871282 4288085770
2.0376282 1.4746859 -1.7989149 4288085770
3.9815998 1.8134193 -1.7881209 4288085770
1.9127998 1.4970241 -1.8008754 4288085770
3.7837639 1.8339503 -1.7891105 4288085770
1.7739563 1.5153818 -1.7978541 4288085770
3.5979271 1.8544528 -1.7910967 4288085770
1.6601257 1.5386937 -1.8008075 4288085770
3.418087 1.8739314 -1.7910844 4288085770
1.5602989 1.5619719 -1.8047565 4288085770
3.2532539 1.89537 -1.7910603 4288085770
1.4484596 1.5832641 -1.8037162 4288085770
3.1064262 1.918771 -1.7940238 4288085770
1.3386269 1.6045547 -1.8036749 4288085770
2.9625931 1.9421601 -1.7959861 4288085770
1.2537956 1.627789 -1.8066195 4288085770
2.8357697 1.9675071 -1.7989362 4288085770
1.1459541 1.647063 -1.8035848 4288085770
2.6909294 1.9868848 -1.7969128 4288085770
1.0571251 1.6692972 -1.8035338 4288085770
2.5751076 2.0122023 -1.7998595 4288085770
0.99030685 1.6954937 -1.809462 4288085770
2.4242516 2.0265779 -1.7928555 4288085770
0.90346909 1.7167151 -1.8074138 4288085770
2.3484459 2.0588093 -1.8017654 4288085770
0.83864975 1.7428989 -1.8113413 4288085770
2.213604 2.0771456 -1.7957423 4288085770
0.74980545 1.7621183 -1.8073004 4288085770
2.1518021 2.1113429 -1.8056407 4288085770
0.67197418 1.7833157 -1.8052495 4288085770
2.0419655 2.1326227 -1.8025994 4288085770
0.61915588 1.8114707 -1.810166 4288085770
1.9251289 2.1519103 -1.796567 4288085770
0.54031754 1.8316636 -1.8061185 4288085770
1.8413086 2.1791377 -1.7984967 4288085770
0.47748947 1.8548238 -1.8050559 4288085770
1.7504768 2.2023664 -1.7954423 4288085770
0.43467331 1.8839521 -1.8099657 4288085770
1.6736603 2.2295718 -1.7963697 4288085770
0.38785934 1.9110839 -1.8128841 4288085770
1.5928345 2.253777 -1.7943088 4288085770
0.31701279 1.9312479 -1.8068339 4288085770
1.5200081 2.2809646 -1.7932348 4288085770
0.27920151 1.9603593 -1.8107423 4288085770
1.4531937 2.3081393 -1.793159 4288085770
0.21736526 1.9815025 -1.805686 4288085770
1.3813667 2.3333168 -1.7900918 4288085770
0.18155289 2.0106049 -1.8085938 4288085770
1.2224579 2.3296413 -1.7631527 4288085770
0.14873123 2.0407012 -1.811492 4288085770
1.1345978 2.3488421 -1.7541065 4293729569
0.10791016 2.0678055 -1.8114085 4288085770
1.0907974 2.3809619 -1.7560066 4293729569
1.1080513 2.4339714 -1.7728143 4288085770
1.1032867 2.4790189 -1.7836566 4288085770
1.0955162 2.523067 -1.7925036 4288085770
1.0707245 2.5611393 -1.7953767 4288085770
1.0249138 2.5912464 -1.7922841 4288085770
0.99912262 2.6283178 -1.7941611 4288085770
0.96532059 2.6623957 -1.7920507 4288085770
0.89547729 2.6815314 -1.7790041 4288085770
0.40313721 2.5283654 -1.6456933 4293729569
14.420218 -1.0788584 -1.8098967 4288085770
13.458231 -1.112257 -1.8121443 4288085770
12.595261 -1.1399202 -1.815358 4288085770
11.847286 -1.1698756 -1.8235657 4288085770
11.125326 -1.1929159 -1.8277434 4288085770
10.444382 -1.2110667 -1.8318981 4288085770
9.8204384 -1.2283645 -1.8380425 4288085770
9.2565041 -1.243824 -1.8441725 4288085770
8.658596 -1.2492247 -1.8412683 4288085770
8.0976982 -1.2507253 -1.8383449 4288085770
14.533684 -2.0251436 -1.8344924 4288085770
7.5658016 -1.2513075 -1.8344142 4288085770
13.384909 -1.9800553 -1.8314657 4288085770
7.0879021 -1.2530222 -1.8344811 4288085770
12.467094 -1.9505587 -1.8374693 4288085770
6.6240139 -1.2507844 -1.8315312 4288085770
11.631277 -1.9212804 -1.8444639 4288085770
6.1961269 -1.2486415 -1.8295772 4288085770
10.798481 -1.8840384 -1.8434278 4288085770
5.799242 -1.2445774 -1.8286122 4288085770
10.058672 -1.8520389 -1.845399 4288085770
5.4363499 -1.2435956 -1.8306528 4288085770
9.3398705 -1.8161097 -1.8433511 4288085770
5.100462 -1.2416825 -1.8336868 4288085770
8.6810722 -1.781342 -1.8413004 4288085770
4.8025684 -1.241858 -1.8407241 4288085770
8.1002598 -1.7507749 -1.8422561 4288085770
4.5146809 -1.240067 -1.8457527 4288085770
7.4924698 -1.7121634 -1.8351843 4288085770
4.1998119 -1.2312255 -1.844758 4288085770
6.9646645 -1.67875 -1.833123 4288085770
3.9369221 -1.2285018 -1.8497797 4288085770
6.4648533 -1.6464152 -1.8300614 4288085770
3.6760445 -1.2217951 -1.8517865 4288085770
6.0390282 -1.6212597 -1.8330187 4288085770
3.4061775 -1.2120748 -1.8507829 4288085770
5.6022167 -1.590095 -1.8299545 4288085770
3.1862984 -1.2084599 -1.8577964 4288085770
5.2413864 -1.5681071 -1.8349159 4288085770
2.9274445 -1.1947808 -1.8537765 4288085770
4.8875618 -1.5431457 -1.8378651 4288085770
2.6885834 -1.182148 -1.851758 4288085770
4.5817184 -1.5242987 -1.8448318 4288085770
2.463726 -1.1695528 -1.8497381 4288085770
4.2638893 -1.5004377 -1.8467808 4288085770
2.2568588 -1.1589956 -1.8507236 4288085770
3.9510708 -1.4735975 -1.846718 4288085770
2.0559998 -1.1474581 -1.8507048 4288085770
3.6842346 -1.453867 -1.8506765 4288085770
1.8631401 -1.1349454 -1.8496815 4288085770
3.4064064 -1.4281216 -1.8506137 4288085770
1.6872749 -1.1234679 -1.8516599 4288085770
3.144577 -1.4044189 -1.8505563 4288085770
1.5164146 -1.1120076 -1.8526378 4288085770
2.9097404 -1.3827791 -1.8535038 4288085770
1.3465576 -1.0995536 -1.8526117 4288085770
2.6459312 -1.3530927 -1.847424 4288085770
1.1946945 -1.0881414 -1.8545876 4288085770
2.4320984 -1.3315125 -1.8493693 4288085770
1.0628281 -1.0797648 -1.8615725 4288085770
2.2172661 -1.3079371 -1.8493067 4288085770
0.89997864 -1.063345 -1.8575306 4288085770
2.0214348 -1.2864094 -1.8502499 4288085770
0.74612808 -1.0479441 -1.8544912 4288085770
1.8106079 -1.2608557 -1.8471792 4288085770
0.61326981 -1.035583 -1.8564612 4288085770
1.6327705 -1.2403727 -1.849124 4288085770
0.48740768 -1.0242372 -1.8594339 4288085770
1.4579353 -1.2189016 -1.8500646 4288085770
0.36355209 -1.0109 -1.8613991 4288085770
1.3120918 -1.2024908 -1.856021 4288085770
0.25369263 -0.99958992 -1.8663704 4288085770
1.1422615 -1.1790438 -1.8539536 4288085770
0.10785294 -0.97923326 -1.8573114 4288085770
0.9744339 -1.1546063 -1.8508821 4288085770
0.85358429 -1.1392555 -1.8588398 4288085770
0.70674896 -1.1168714 -1.8567736 4288085770
0.5609169 -1.0944891 -1.8547071 4288085770
0.43507767 -1.0751505 -1.8556498 4288085770
0.30024719 -1.0518022 -1.8525788 4288085770
0.18640518 -1.0334883 -1.8555239 4288085770
0.13378143 0.87987208 -1.8158932 4288085770
0.24992752 0.89254332 -1.813851 4288085770
0.35006714 0.90323639 -1.8058158 4288085770
0.49921799 0.91884375 -1.8107635 4288085770
0.62836075 0.93147564 -1.807722 4288085770
0.79351425 0.94704342 -1.8136705 4288085770
0.93065262 0.95865011 -1.8096334 4288085770
0.092525482 0.89398599 -1.82586 4288085770
1.089798 0.97221184 -1.8095895 4288085770
0.19965363 0.90167451 -1.8218362 4288085770
1.2489395 0.98476624 -1.8075494 4288085770
0.3127861 0.909343 -1.8168129 4288085770
1.4220848 0.99828577 -1.8065065 4288085770
0.44491959 0.91797471 -1.8157866 4288085770
1.6032333 1.0107841 -1.8054674 4288085770
0.59004974 0.92758155 -1.817757 4288085770
1.7883759 1.0242636 -1.8024254 4288085770
0.7271843 0.93619204 -1.8147312 4288085770
1.9985237 1.0386937 -1.8043804 4288085770
0.88131714 0.94477105 -1.8157059 4288085770
2.2326698 1.0540657 -1.8083328 4288085770
1.0474548 0.95432091 -1.8176777 4288085770
2.4778252 1.0694041 -1.811286 4288085770
1.1825752 0.95891452 -1.8086671 4288085770
2.7159729 1.0827432 -1.8092467 4288085770
1.3607063 0.96742439 -1.8086435 4288085770
2.9621124 1.095057 -1.8062115 4288085770
1.5478363 0.97491717 -1.8106238 4288085770
3.2172585 1.1073422 -1.802177 4288085770
1.7379684 0.98239064 -1.8096046 4288085770
3.5094032 1.1215413 -1.8021367 4288085770
1.9601021 0.99179888 -1.8145795 4288085770
3.8095512 1.1347077 -1.7991011 4288085770
2.1662254 0.99722505 -1.8125688 4288085770
4.1276951 1.1478291 -1.7970662 4288085770
2.4033546 1.0045853 -1.815552 4288085770
4.4728413 1.1608763 -1.7950329 4288085770
2.6054726 1.0079999 -1.8075492 4288085770
4.8569927 1.1758251 -1.7949939 4288085770
2.8515968 1.0133209 -1.806541 4288085770
5.2581406 1.1897237 -1.7939601 4288085770
3.1177216 1.017591 -1.8065375 4288085770
5.7232971 1.2064629 -1.7969179 4288085770
3.3838348 1.0218499 -1.8035343 4288085770
6.1954422 1.2201679 -1.7958881 4288085770
3.6779556 1.0250399 -1.8025361 4288085770
6.7375984 1.2366974 -1.7988504 4288085770
4.0000763 1.0291612 -1.8035359 4288085770
7.3367558 1.2550747 -1.8028082 4288085770
4.3221874 1.0302675 -1.8005474 4288085770
7.9609127 1.2703695 -1.8027791 4288085770
4.6783047 1.0322888 -1.7995569 4288085770
8.7040768 1.2903621 -1.8087375 4288085770
5.0454121 1.0312686 -1.7955784 4288085770
9.5122414 1.3101778 -1.8146995 4288085770
5.4935284 1.0340648 -1.801589 4288085770
10.337393 1.324914 -1.8116821 4288085770
5.9426346 1.0328324 -1.8006152 4288085770
11.264549 1.3403759 -1.8096664 4288085770
6.4437428 1.0324771 -1.8046408 4288085770
12.330709 1.3584738 -1.8116473 4288085770
7.0108547 1.0329525 -1.811666 4288085770
13.441858 1.3714194 -1.8056501 4288085770
7.6019554 1.0293479 -1.814708 4288085770
14.82403 1.3926604 -1.8086338 4288085770
8.2400513 1.0236115 -1.8167603 4288085770
8.9551449 1.0176802 -1.8228173 4288085770
9.6942253 1.0056577 -1.8218982 4288085770
10.478298 0.99150133 -1.8179901 4288085770
11.35236 0.97310352 -1.8151021 4288085770
12.323414 0.9514339 -1.8102312 4288085770
13.459463 0.92834067 -1.8123736 4288085770
14.730494 0.89887261 -1.8125461 4288085770
2.0729866 -4.5503106 -0.22748779 4293729569
2.0300102 -4.5436282 -0.65146297 4293729569
2.054203 -4.5091281 -0.26433694 4293729569
2.0741043 -4.5465989 -0.69348192 4293729569
2.0533905 -4.4769864 -0.30322137 4293729569
2.0543251 -4.5034137 -0.73032355 4293729569
2.0655632 -4.4528852 -0.34113687 4293729569
2.0654945 -4.4803128 -0.76724261 4293729569
2.0857315 -4.431808 -0.37806439 4293729569
2.0626945 -4.4461751 -0.80411941 4293729569
2.0959091 -4.4037099 -0.41396493 4293729569
2.0748672 -4.4200768 -0.84102756 4293729569
2.1360435 -4.3926845 -0.45193177 4293729569
2.0930367 -4.3969979 -0.8769474 4293729569
2.1422462 -4.3575816 -0.48580593 4293729569
2.1191978 -4.3769393 -0.91387939 4293729569
2.2303047 -4.3746829 -0.52488202 4293729569
2.1403694 -4.3518653 -0.95079231 4293729569
2.2224388 -4.3639388 -0.99284923 4293729569
6.2077312 -6.8398366 -1.5424461 4293729569
5.9414768 -6.6060624 -1.5555578 4293729569
5.6762142 -6.37431 -1.5636768 4293729569
5.4658546 -6.1796927 -1.5759389 4293729569
5.2415199 -5.9750533 -1.584162 4293729569
5.0391407 -5.7874732 -1.5924504 4293729569
4.84375 -5.6029172 -1.5987506 4293729569
4.6603355 -5.4284034 -1.6030889 4293729569
8.9430237 -7.768558 -1.491228 4293729569
4.5058708 -5.2719569 -1.6104974 4293729569
8.6288891 -7.4906573 -1.5031714 4293729569
4.3623829 -5.1215463 -1.6169288 4293729569
8.3546734 -7.2398582 -1.5172187 4293729569
4.2398643 -4.9851871 -1.6244147 4293729569
8.1183987 -7.0131698 -1.5293597 4293729569
4.1123505 -4.8468223 -1.6298926 4293729569
7.886116 -6.7904963 -1.5405154 4293729569
3.9918213 -4.7134833 -1.6333896 4293729569
4.1180706 -4.6656566 -1.1392257 4293729569
3.911232 -4.603231 -1.6429763 4293729569
4.1133671 -4.5945659 -1.1619664 4293729569
3.8366318 -4.4949994 -1.6515714 4293729569
4.1256447 -4.532517 -1.1857424 4293729569
3.7190933 -4.3656831 -1.6510831 4293729569
4.1159534 -4.4584222 -1.2054713 4293729569
3.6484833 -4.2624745 -1.6566967 4293729569
4.1232395 -4.3923726 -1.2252318 4293729569
3.581871 -4.1612754 -1.6623185 4293729569
4.1305275 -4.3263249 -1.2449924 4293729569
3.5102577 -4.0580745 -1.6649318 4293729569
4.1198406 -4.2502446 -1.2597135 4293729569
3.4336586 -3.952867 -1.6655372 4293729569
4.1391163 -4.1882339 -1.2784905 4293729569
3.4369392 -3.8868299 -1.6792969 4293729569
4.2992077 -4.1935439 -1.3145335 4293729569
3.5061378 -3.8529315 -1.7041833 4293729569
4.4812813 -4.2049117 -1.3516012 4293729569
3.6622314 -3.8582125 -1.7452254 4293729569
4.649374 -4.2092414 -1.3876417 4293729569
3.8293076 -3.867516 -1.7882838 4288085770
4.8194752 -4.210587 -1.4216715 4293729569
3.9894047 -3.8698106 -1.8283156 4288085770
6.1621361 -4.7325501 -1.6167699 4293729569
4.0046844 -3.8048172 -1.8390805 4288085770
6.1864452 -4.6565738 -1.6294966 4293729569
3.9510555 -3.7096872 -1.8357259 4288085770
6.1738071 -4.5635142 -1.6371554 4293729569
3.8734512 -3.6035175 -1.825327 4288085770
6.1371994 -4.4594102 -1.6397707 4293729569
3.8427925 -3.519443 -1.824016 4288085770
6.1165733 -4.3623433 -1.6434135 4293729569
3.8331032 -3.4444146 -1.8257407 4288085770
6.1249084 -4.2793508 -1.6491125 4293729569
3.8034401 -3.3613501 -1.8224332 4288085770
6.1302509 -4.1933532 -1.6537995 4293729569
3.7997513 -3.288342 -1.8231663 4288085770
6.1425819 -4.1113772 -1.6575024 4293729569
3.8150368 -3.2233782 -1.8259314 4288085770
6.1968746 -4.044498 -1.6662666 4293729569
3.8073463 -3.149374 -1.82266 4288085770
6.3540573 -4.0158572 -1.6871848 4293729569
3.8156357 -3.0824022 -1.8224168 4288085770
6.6121464 -4.0214372 -1.7222428 4293729569
3.8239326 -3.0144343 -1.8211697 4288085770
6.9062042 -4.0381036 -1.7613466 4288085770
3.856205 -2.9555206 -1.8229593 4288085770
7.1862965 -4.0437503 -1.7954081 4288085770
3.8844719 -2.8955994 -1.8237447 4288085770
7.4154396 -4.0292859 -1.8213888 4288085770
3.9347229 -2.8437281 -1.8275626 4288085770
7.4917393 -3.9604859 -1.8251489 4288085770
4.006958 -2.797905 -1.8344058 4288085770
7.5250854 -3.8735981 -1.8208369 4288085770
4.0352383 -2.7349982 -1.83118 4288085770
7.5694122 -3.7937393 -1.816552 4288085770
4.0874882 -2.6821437 -1.8319945 4288085770
7.6577015 -3.7259827 -1.8173176 4288085770
4.1407452 -2.6272945 -1.831802 4288085770
7.7459984 -3.6572342 -1.8160797 4288085770
4.244957 -2.5895519 -1.8406793 4288085770
7.8472881 -3.5915208 -1.814855 4288085770
4.2552567 -2.520627 -1.8294289 4288085770
7.9765549 -3.5328732 -1.8166598 4288085770
4.3604736 -2.4798937 -1.8362955 4288085770
8.10783 -3.4722342 -1.8174579 4288085770
4.4247303 -2.4260864 -1.8331084 4288085770
8.2650871 -3.418663 -1.8192855 4288085770
4.501976 -2.376307 -1.8319379 4288085770
8.4293423 -3.3651147 -1.820114 4288085770
4.5762272 -2.3245234 -1.8297596 4288085770
8.5946045 -3.3085728 -1.819932 4288085770
4.6874561 -2.2808251 -1.8316162 4288085770
8.7648678 -3.2530479 -1.8187544 4288085770
4.7996826 -2.2381344 -1.8324766 4288085770
8.9501266 -3.1985683 -1.8165829 4288085770
4.8979244 -2.1894159 -1.8303132 4288085770
9.1973438 -3.158236 -1.8204721 4288085770
5.0281429 -2.1487708 -1.8321838 4288085770
9.4106045 -3.1068392 -1.8183122 4288085770
5.1503849 -2.1031179 -1.8320287 4288085770
9.710804 -3.0736408 -1.8252263 4288085770
5.2936096 -2.0615115 -1.8328912 4288085770
9.9980297 -3.0314288 -1.8261051 4288085770
5.4138508 -2.0138607 -1.8287286 4288085770
10.332232 -2.9973307 -1.8310202 4288085770
5.5740719 -1.9733043 -1.8285974 4288085770
10.664448 -2.9592381 -1.8329203 4288085770
5.7542858 -1.934792 -1.8314763 4288085770
11.065639 -2.9293203 -1.8388596 4288085770
5.9365082 -1.8942933 -1.8323481 4288085770
11.428867 -2.8873239 -1.837749 4288085770
6.1287289 -1.8538208 -1.8332212 4288085770
11.87006 -2.857522 -1.8416939 4288085770
6.3219528 -1.8123631 -1.8310909 4288085770
12.294277 -2.8186927 -1.8406029 4288085770
6.5661564 -1.778019 -1.8359938 4288085770
12.732506 -2.7769127 -1.8365026 4288085770
6.7813854 -1.735621 -1.8338628 4288085770
13.215715 -2.7402487 -1.8344272 4288085770
7.0545921 -1.700356 -1.8387657 4288085770
13.734932 -2.7016902 -1.8303494 4288085770
7.3587914 -1.667172 -1.8446803 4288085770
14.354128 -2.6713915 -1.8303154 4288085770
7.6909904 -1.6340604 -1.851599 4288085770
14.963343 -2.6340795 -1.8262534 4288085770
8.0162106 -1.5949454 -1.8544942 4288085770
8.3954105 -1.5619631 -1.8614193 4288085770
8.7276421 -1.5178857 -1.859297 4288085770
9.0828743 -1.4738708 -1.8571779 4288085770
9.4851055 -1.4299817 -1.8560653 4288085770
9.9123402 -1.38516 -1.8549523 4288085770
10.32559 -1.3343272 -1.8468151 4288085770
10.788837 -1.2856193 -1.8416922 4288085770
11.385065 -1.2432423 -1.8456101 4288085770
11.899332 -1.1866932 -1.8354647 4288085770
12.488592 -1.133338 -1.8283406 4288085770
13.176853 -1.0792432 -1.8242267 4288085770
13.983107 -1.0274529 -1.8251363 4288085770
14.803381 -0.96972227 -1.8200256 4288085770
14.76269 1.3778443 -1.8089424 4288085770
13.844957 1.4363561 -1.8076547 4288085770
13.07522 1.4934802 -1.811383 4288085770
12.31547 1.5455546 -1.8091315 4288085770
11.692726 1.5992785 -1.8138835 4288085770
11.067959 1.6459823 -1.811662 4288085770
10.509201 1.6935117 -1.8114424 4288085770
10.005436 1.738894 -1.8122349 4288085770
9.5206642 1.7832167 -1.8110328 4288085770
9.0708866 1.8244395 -1.808845 4288085770
8.661108 1.865556 -1.8076605 4288085770
8.2613201 1.9026341 -1.8034921 4288085770
7.9265461 1.9455557 -1.8053066 4288085770
7.565752 1.9805193 -1.7991489 4288085770
14.850645 3.001596 -1.8278409 4288085770
7.2489624 2.0173736 -1.7959875 4288085770
14.163843 3.0344815 -1.8286682 4288085770
6.9751835 2.0581234 -1.7968147 4288085770
13.548035 3.0651646 -1.8275086 4288085770
6.7073975 2.09585 -1.7956537 4288085770
12.929213 3.0908413 -1.8223679 4288085770
6.4506111 2.1335425 -1.7934936 4288085770
12.450428 3.1301663 -1.8261859 4288085770
6.2208252 2.1721685 -1.7933321 4288085770
11.977638 3.1664634 -1.827016 4288085770
5.9930363 2.2087774 -1.7901784 4288085770
11.571863 3.2085803 -1.8288292 4288085770
5.7922554 2.2483234 -1.7900157 4288085770
11.160072 3.2457061 -1.8286605 4288085770
5.6334858 2.2927723 -1.7948376 4288085770
