# .PCD v0.7 - Point Cloud Data file format
VERSION 0.7
FIELDS x y z rgb
SIZE 4 4 4 4
TYPE F F F U
COUNT 1 1 1 1
WIDTH 1130
HEIGHT 1
VIEWPOINT 0 0 0 1 0 0 0
POINTS 1130
DATA ascii
4.5989037 0.90366793 -1.8019837 4288085770
6.401845 1.1199594 -1.7981544 4288085770
4.4400043 0.91855025 -1.8032504 4288085770
6.1689434 1.1347888 -1.8000823 4288085770
4.2671375 0.93242049 -1.7984537 4288085770
5.9480419 1.1496263 -1.802065 4288085770
4.1132488 0.9473052 -1.7967436 4288085770
5.7141714 1.161453 -1.7969897 4288085770
3.9513855 0.95918298 -1.790998 4288085770
5.5082836 1.176301 -1.7960414 4288085770
3.8324738 0.97709465 -1.7954468 4288085770
5.3054008 1.1891503 -1.7941074 4288085770
3.7045765 0.9929986 -1.7958552 4288085770
5.1225119 1.2040145 -1.7932643 4288085770
3.5906754 1.0099132 -1.7983272 4288085770
4.9546146 1.2198904 -1.7944893 4288085770
3.466795 1.0238194 -1.7957547 4288085770
4.8017159 1.2357771 -1.7957828 4288085770
3.3628941 1.0407407 -1.7972726 4288085770
4.6458273 1.2506604 -1.7950633 4288085770
3.2500095 1.0546546 -1.7957504 4288085770
4.4919491 1.2645447 -1.7923533 4288085770
3.1551113 1.0725827 -1.7973089 4288085770
4.3490582 1.2804375 -1.7916927 4288085770
3.0552254 1.0875063 -1.7958459 4288085770
4.2141743 1.295336 -1.7900691 4288085770
2.9703197 1.1054416 -1.7984502 4288085770
4.085289 1.3102386 -1.7884731 4288085770
2.8804302 1.1213727 -1.7980323 4288085770
3.9693947 1.3271511 -1.7889357 4288085770
2.8025246 1.139313 -1.8006686 4288085770
3.8525085 1.3430624 -1.787394 4288085770
2.7196388 1.1552486 -1.7992829 4288085770
3.741621 1.3589783 -1.7868799 4288085770
2.6217804 1.1681716 -1.7928299 4288085770
3.6517067 1.3789101 -1.7904602 4288085770
3.5727921 1.3998506 -1.7950903 4288085770
3.4818859 1.4187813 -1.7956668 4288085770
3.3880024 1.435709 -1.7942299 4288085770
3.3060989 1.4546463 -1.7958473 4288085770
3.2162228 1.4715762 -1.7924286 4288085770
3.1383305 1.4905155 -1.7920642 4288085770
3.0624409 1.5084565 -1.7907091 4288085770
2.9895573 1.5263991 -1.7893678 4288085770
2.926651 1.5473497 -1.7910711 4288085770
2.8527756 1.5642912 -1.7877256 4288085770
2.7868919 1.5832388 -1.7854159 4288085770
2.7349892 1.6051972 -1.7871687 4288085770
2.6810932 1.6261542 -1.7869132 4288085770
2.6341896 1.6481164 -1.7886888 4288085770
2.6794376 3.2759514 -1.7841114 4288085770
2.7465115 3.3389955 -1.7843856 4288085770
2.8415375 3.4190636 -1.7927799 4288085770
2.9196033 3.4881163 -1.7941012 4288085770
3.0356045 3.5802009 -1.8055854 4288085770
3.1196766 3.652257 -1.8049322 4288085770
3.2167301 3.7303245 -1.8073353 4288085770
3.3217735 3.8133979 -1.8107725 4288085770
3.4378109 3.9024792 -1.8142568 4288085770
3.5588531 3.9935641 -1.8177624 4288085770
3.6709194 4.0786409 -1.8162296 4288085770
3.8149357 4.1817436 -1.822834 4288085770
3.958971 4.2848458 -1.825438 4288085770
2.721611 3.5849361 -1.8071077 4288085770
4.1149864 4.3939567 -1.8310939 4288085770
2.8186855 3.6530023 -1.806514 4288085770
4.2820034 4.5080767 -1.8357967 4288085770
2.9407139 3.7360892 -1.8130271 4288085770
4.433054 4.6101818 -1.8354317 4288085770
3.0467968 3.8071613 -1.8104724 4288085770
4.6270542 4.7393212 -1.8412501 4288085770
3.1768398 3.8922529 -1.8140204 4288085770
4.8320475 4.8734694 -1.8481154 4288085770
3.3098831 3.9773469 -1.8175817 4288085770
5.0390558 5.0066171 -1.8519901 4288085770
3.4529228 4.0674481 -1.8211856 4288085770
5.2600536 5.1467762 -1.8569245 4288085770
3.6039562 4.1615553 -1.8258239 4288085770
5.504034 5.2989526 -1.8639578 4288085770
3.7500114 4.2496581 -1.8264418 4288085770
5.7380409 5.44312 -1.8659483 4288085770
3.9190369 4.3507786 -1.8311577 4288085770
6.0150089 5.6113205 -1.8731228 4288085770
4.1090412 4.4629164 -1.8389641 4288085770
6.3179569 5.7935414 -1.8824087 4288085770
4.2721043 4.5560298 -1.8366556 4288085770
6.6149321 5.9687548 -1.8866695 4288085770
4.479105 4.6741796 -1.8445351 4288085770
6.9678574 6.1770129 -1.8971692 4288085770
4.6851215 4.7893276 -1.8494111 4288085770
7.3337812 6.3892794 -1.9067252 4288085770
4.9011345 4.9084826 -1.8543302 4288085770
7.7326899 6.6185708 -1.9174223 4288085770
5.1461229 5.0426612 -1.8623737 4288085770
8.1176405 6.8348494 -1.9210608 4288085770
5.3821354 5.1688309 -1.8663791 4288085770
8.5625381 7.0831738 -1.9309561 4288085770
5.6271553 5.2970057 -1.8684239 4288085770
8.9884949 7.3154807 -1.9307715 4288085770
5.8991461 5.4382029 -1.8745848 4288085770
9.5283375 7.6128769 -1.9450734 4288085770
6.1721592 5.5753989 -1.8767513 4288085770
10.096187 7.9212923 -1.956496 4288085770
6.4881277 5.7366285 -1.8851013 4288085770
6.8021164 5.8918562 -1.8894442 4288085770
7.1570644 6.0681152 -1.8999627 4288085770
7.4970598 6.2303605 -1.9024186 4288085770
7.9139709 6.4346671 -1.9162037 4288085770
8.329917 6.63097 -1.9239867 4288085770
8.7368898 6.8162651 -1.9267336 4288085770
9.1908312 7.0235949 -1.933682 4288085770
9.6497917 7.2279282 -1.9366531 4288085770
10.176703 7.4633131 -1.9459171 4288085770
10.72662 7.7037153 -1.9532816 4288085770
11.34549 7.9771686 -1.965942 4288085770
17.462805 -1.6637263 -1.7993541 4288085770
16.739918 -1.7142587 -1.8071409 4288085770
16.145 -1.7686925 -1.8235039 4288085770
15.463128 -1.8041983 -1.8264667 4288085770
14.790255 -1.8346982 -1.8284677 4288085770
14.118396 -1.8541999 -1.8254675 4288085770
13.464547 -1.86869 -1.8195455 4288085770
12.865679 -1.8821373 -1.8178694 4288085770
12.274823 -1.8895807 -1.8122264 4288085770
11.754948 -1.8999686 -1.8119032 4288085770
11.281063 -1.9103222 -1.8137864 4288085770
10.839172 -1.919651 -1.8168125 4288085770
17.078171 -2.9290533 -1.7893283 4288085770
10.431266 -1.9299531 -1.8229916 4288085770
16.195225 -2.8917069 -1.7953527 4288085770
10.00139 -1.9302754 -1.8210669 4288085770
15.306306 -2.8443685 -1.7943449 4288085770
9.609499 -1.9315686 -1.8233129 4288085770
14.510373 -2.8039589 -1.7977579 4288085770
9.2316046 -1.9318509 -1.8256214 4288085770
13.766445 -2.7625117 -1.7994033 4288085770
8.8587217 -1.9281311 -1.8249499 4288085770
13.079521 -2.7220225 -1.8013048 4288085770
8.5218306 -1.9263835 -1.8264412 4288085770
12.440593 -2.6834974 -1.8044226 4288085770
8.1739483 -1.9176455 -1.8248792 4288085770
11.83468 -2.6419506 -1.8036865 4288085770
7.8530579 -1.9108872 -1.8254395 4288085770
11.217777 -2.5924139 -1.7988968 4288085770
7.5301828 -1.8991323 -1.821988 4288085770
10.701855 -2.5577974 -1.8015682 4288085770
7.245286 -1.8913465 -1.8237089 4288085770
10.22893 -2.5241494 -1.8054326 4288085770
6.9913797 -1.8875356 -1.8285712 4288085770
9.7930012 -2.4934726 -1.8104645 4288085770
6.7194901 -1.875741 -1.8283483 4288085770
9.3600807 -2.4587965 -1.8125075 4288085770
6.4655972 -1.8659329 -1.8292071 4288085770
8.9521627 -2.4251013 -1.8146633 4288085770
6.2336903 -1.8571057 -1.8331652 4288085770
8.5572491 -2.3893971 -1.8158761 4288085770
5.9788113 -1.840301 -1.8300157 4288085770
8.196331 -2.3566675 -1.818243 4288085770
5.7539148 -1.8284717 -1.8310035 4288085770
7.8484116 -2.3239274 -1.8206681 4288085770
5.5310183 -1.8136406 -1.8309984 4288085770
7.5135031 -2.2901797 -1.8201509 4288085770
5.3191252 -1.7988019 -1.8310428 4288085770
7.2115774 -2.2604046 -1.8247837 4288085770
5.1132374 -1.7839589 -1.830114 4288085770
6.9176655 -2.2296257 -1.8264518 4288085770
4.9063511 -1.766118 -1.828179 4288085770
6.6267586 -2.1968455 -1.8261322 4288085770
4.7324467 -1.7542491 -1.8313953 4288085770
6.3368597 -2.1600666 -1.8238146 4288085770
4.5395632 -1.7353983 -1.8285223 4288085770
6.0809517 -2.1292596 -1.824653 4288085770
4.3566761 -1.7165394 -1.8266944 4288085770
5.8240452 -2.0964541 -1.8244855 4288085770
4.1897793 -1.7006664 -1.8279396 4288085770
5.5871391 -2.0646343 -1.8244083 4288085770
4.0069046 -1.6778097 -1.8221093 4288085770
5.3502426 -2.0318155 -1.8223304 4288085770
3.8420238 -1.6589389 -1.8193619 4288085770
5.1173487 -1.996994 -1.8192694 4288085770
3.7101059 -1.6460371 -1.8257655 4288085770
4.9254293 -1.9711385 -1.823397 4288085770
3.5622139 -1.6281514 -1.8250946 4288085770
4.7295265 -1.9422879 -1.823505 4288085770
3.4283142 -1.6122541 -1.8264877 4288085770
4.5486155 -1.9154248 -1.8256812 4288085770
3.285429 -1.5923667 -1.823838 4288085770
4.3467312 -1.8805823 -1.8207587 4288085770
3.1565304 -1.5754647 -1.8252528 4288085770
4.1778202 -1.8537107 -1.8229887 4288085770
3.0306358 -1.5575624 -1.8256806 4288085770
4.000927 -1.8228483 -1.8201805 4288085770
2.8997517 -1.5366669 -1.8220838 4288085770
3.8380299 -1.7939744 -1.8184359 4288085770
2.7988319 -1.5237422 -1.8286263 4288085770
3.6811295 -1.7650962 -1.8177184 4288085770
2.6919308 -1.5078244 -1.83014 4288085770
3.5392227 -1.7402048 -1.8190702 4288085770
3.4113064 -1.7173014 -1.8234857 4288085770
3.2773991 -1.6914039 -1.8248731 4288085770
3.1365128 -1.6615157 -1.8212262 4288085770
2.9996223 -1.6316237 -1.8185973 4288085770
2.8777256 -1.6057186 -1.818038 4288085770
2.7708111 -1.5828004 -1.8215474 4288085770
2.6589146 -1.5578885 -1.8210334 4288085770
2.672411 0.41259718 -1.7886611 4288085770
2.7755413 0.42366791 -1.785107 4288085770
2.8916588 0.43574953 -1.7836094 4288085770
3.0177689 0.44784117 -1.784156 4288085770
3.1578579 0.46094513 -1.7877635 4288085770
3.2959728 0.47304487 -1.7873631 4288085770
3.4470711 0.48615646 -1.7900189 4288085770
3.6091747 0.49927664 -1.7927232 4288085770
2.7002525 0.47458744 -1.7907223 4288085770
3.7662888 0.51139069 -1.7924062 4288085770
2.8213634 0.483675 -1.7912489 4288085770
3.9403934 0.52351904 -1.7941643 4288085770
2.9544716 0.49377251 -1.7928275 4288085770
4.1254921 0.53665733 -1.7969699 4288085770
3.0865879 0.50286722 -1.7924025 4288085770
4.3056145 0.54878712 -1.7947541 4288085770
3.2336903 0.51197624 -1.7950436 4288085770
4.5177116 0.56194639 -1.7986789 4288085770
3.3808041 0.52108335 -1.7956847 4288085770
4.7587862 0.57613087 -1.8067306 4288085770
3.5419102 0.53020239 -1.7973874 4288085770
4.9739094 0.58828688 -1.804669 4288085770
3.7100163 0.53932619 -1.7991209 4288085770
5.2160139 0.60146761 -1.8067257 4288085770
3.8651485 0.54743671 -1.7957978 4288085770
5.4531364 0.61264086 -1.8047618 4288085770
4.0522537 0.55557585 -1.7986159 4288085770
5.7252445 0.62584352 -1.8059508 4288085770
4.2843151 0.56675673 -1.81063 4288085770
6.0023651 0.63804722 -1.8041621 4288085770
4.4634533 0.57388401 -1.8054134 4288085770
6.3144693 0.65128088 -1.8065274 4288085770
4.671566 0.58103657 -1.8053247 4288085770
6.6375799 0.66352081 -1.8059417 4288085770
4.9026737 0.58920908 -1.8073364 4288085770
6.9876919 0.67678165 -1.8064742 4288085770
5.1268005 0.5953722 -1.8053188 4288085770
7.3568077 0.6890564 -1.8060912 4288085770
5.3799086 0.60256195 -1.8074281 4288085770
7.7599182 0.70235825 -1.8068573 4288085770
5.6260452 0.60773993 -1.8035082 4288085770
8.1920347 0.71568108 -1.8067509 4288085770
5.9121542 0.61395407 -1.805764 4288085770
8.6801395 0.72904778 -1.8088915 4288085770
6.2162657 0.62018108 -1.8070987 4288085770
9.1872625 0.74142599 -1.8071167 4288085770
6.5473776 0.6264286 -1.8085526 4288085770
9.7074022 0.75281191 -1.8023996 4288085770
6.8904915 0.63068581 -1.810061 4288085770
10.320523 0.76627064 -1.801091 4288085770
7.2586155 0.63496065 -1.8096793 4288085770
11.009636 0.78078938 -1.8021168 4288085770
7.6437426 0.63824606 -1.8083733 4288085770
11.714781 0.79231453 -1.7962151 4288085770
8.1028414 0.64259434 -1.8133929 4288085770
12.525909 0.80492258 -1.7937799 4288085770
8.5529709 0.64392996 -1.8123749 4288085770
13.470018 0.8206358 -1.7959285 4288085770
9.0330992 0.64528942 -1.811489 4288085770
14.48915 0.83340168 -1.7934098 4288085770
9.5702267 0.64469147 -1.810856 4288085770
15.626294 0.84625483 -1.7884113 4288085770
10.14836 0.64412451 -1.8094035 4288085770
16.948427 0.86025047 -1.7862273 4288085770
10.804477 0.64261913 -1.8112959 4288085770
11.48363 0.63712502 -1.8062924 4288085770
12.250765 0.63170242 -1.8056768 4288085770
13.168873 0.62539959 -1.8117276 4288085770
14.061047 0.61406517 -1.8036674 4288085770
15.154188 0.60189009 -1.803494 4288085770
16.368341 0.58480501 -1.8018577 4288085770
8.4687815 -5.436718 -0.9929446 4293729569
8.5092468 -5.3543158 -0.42502582 4293729569
8.4396896 -5.3447104 -1.0247208 4293729569
8.4771433 -5.2593088 -0.45878556 4293729569
8.4566078 -5.2736645 -1.0587202 4293729569
8.4990673 -5.1892624 -0.49180755 4293729569
8.5285234 -5.2295713 -1.097988 4293729569
8.6010103 -5.1581507 -0.52722025 4293729569
12.642252 -7.1349039 -1.5389857 4293729569
12.333132 -6.8751373 -1.547359 4293729569
12.077027 -6.6443291 -1.5569943 4293729569
11.825939 -6.4205179 -1.5646586 4293729569
11.622859 -6.2196693 -1.5745568 4293729569
11.431793 -6.0268116 -1.5825156 4293729569
11.247738 -5.8419495 -1.5895133 4293729569
11.060695 -5.657095 -1.5934975 4293729569
10.901659 -5.4852161 -1.5986176 4293729569
10.75863 -5.3243246 -1.6038193 4293729569
10.623613 -5.1674299 -1.6070596 4293729569
10.506601 -5.0185213 -1.6103868 4293729569
10.409591 -4.8805923 -1.6158129 4293729569
10.31959 -4.746664 -1.6192734 4293729569
10.2166 -4.6087456 -1.6196729 4293729569
10.199597 -4.5047522 -1.6294835 4293729569
10.1866 -4.4017553 -1.6383123 4293729569
10.176611 -4.3007603 -1.645156 4293729569
10.316586 -4.2526264 -1.6707102 4293729569
17.544989 -6.5751448 -1.5647004 4293729569
10.636512 -4.2633286 -1.7181116 4288085770
17.413956 -6.38025 -1.5649118 4293729569
10.990424 -4.2769985 -1.7696638 4288085770
14.950113 -5.4353733 -1.3811505 4293729569
11.261371 -4.2617493 -1.8078225 4288085770
14.900112 -5.2904139 -1.3827691 4293729569
11.293389 -4.1657209 -1.8138528 4282675967
15.075098 -5.2122622 -1.4004394 4293729569
11.201452 -4.0328083 -1.8033028 4288085770
17.47987 -5.7981825 -1.5915364 4293729569
11.187502 -3.9238262 -1.800118 4288085770
17.561867 -5.6721144 -1.5977477 4293729569
11.208543 -3.8258133 -1.801097 4288085770
17.598877 -5.5330877 -1.5987486 4293729569
11.257582 -3.7367725 -1.8042076 4288085770
11.313622 -3.6477308 -1.8063482 4288085770
11.37067 -3.5586901 -1.8074926 4288085770
11.396729 -3.462678 -1.8034946 4288085770
11.473784 -3.3786211 -1.8037308 4288085770
11.551839 -3.2925634 -1.8039688 4288085770
11.646895 -3.2114925 -1.8042858 4288085770
11.775948 -3.1363935 -1.8067567 4288085770
11.872015 -3.0513263 -1.8040726 4288085770
12.020068 -2.977211 -1.8066261 4288085770
12.164129 -2.9021025 -1.8071607 4288085770
12.371177 -2.8369384 -1.8129793 4288085770
12.515251 -2.756834 -1.8095075 4288085770
12.701317 -2.6846938 -1.8092262 4288085770
12.927374 -2.6165175 -1.8121222 4288085770
13.146441 -2.5443511 -1.811983 4288085770
13.389509 -2.4731655 -1.8119481 4288085770
13.658575 -2.4039588 -1.8130276 4288085770
13.959637 -2.3367252 -1.8152475 4288085770
14.253705 -2.2635007 -1.8144294 4288085770
14.619761 -2.1982145 -1.8189315 4288085770
15.002821 -2.1309171 -1.8215041 4288085770
15.43387 -2.0635791 -1.8262836 4288085770
15.918917 -1.999197 -1.8332994 4288085770
16.304005 -1.9179077 -1.8268623 4288085770
16.665112 -1.8286443 -1.8153113 4288085770
17.157187 -1.7492676 -1.8123376 4288085770
17.388096 0.87083292 -1.7861018 4288085770
16.319147 0.91899538 -1.7915543 4288085770
15.318222 0.96220422 -1.7922999 4288085770
14.482283 1.0035491 -1.796737 4288085770
13.61939 1.0398564 -1.7910708 4288085770
12.902475 1.0752871 -1.7910154 4288085770
12.247568 1.1087661 -1.7902223 4288085770
11.666652 1.1423066 -1.7917382 4288085770
11.164721 1.1759145 -1.7965835 4288085770
10.66881 1.2065194 -1.7964597 4288085770
17.321587 1.7967036 -1.7662078 4288085770
10.215896 1.2381601 -1.7975135 4288085770
16.36467 1.8159521 -1.7701781 4288085770
9.8119812 1.2678409 -1.7997746 4288085770
15.483757 1.8342576 -1.7724673 4288085770
9.4130793 1.2955215 -1.7990606 4288085770
14.683864 1.8506215 -1.7710979 4288085770
9.055171 1.3242359 -1.799516 4288085770
13.99994 1.8720865 -1.776204 4288085770
8.7172689 1.3519642 -1.7990563 4288085770
13.320053 1.8885422 -1.7733357 4288085770
8.4233494 1.3817341 -1.8027768 4288085770
12.740146 1.9090838 -1.7748775 4288085770
8.1254473 1.4074943 -1.8024876 4288085770
12.214232 1.9316695 -1.7776417 4288085770
7.8435497 1.4332659 -1.8012651 4288085770
11.705334 1.950264 -1.7774835 4288085770
7.5776548 1.4590502 -1.8001095 4288085770
11.254429 1.9729061 -1.7785603 4288085770
7.3427467 1.4868622 -1.8010798 4288085770
10.849514 1.9965878 -1.7818273 4288085770
7.1218395 1.5136852 -1.80211 4288085770
10.453617 2.0172703 -1.7811371 4288085770
6.8959484 1.5374994 -1.8001245 4288085770
10.095712 2.0399866 -1.7826018 4288085770
6.7040415 1.5643456 -1.8012757 4288085770
9.7817926 2.0667408 -1.7862433 4288085770
6.5031481 1.5891795 -1.7993932 4288085770
9.4608946 2.0894828 -1.7858628 4288085770
6.3332415 1.6170435 -1.8006344 4288085770
9.1580009 2.1112375 -1.7845588 4288085770
6.1563463 1.6418965 -1.7988516 4288085770
8.903079 2.1390386 -1.7884449 4288085770
6.0034323 1.669775 -1.8011638 4288085770
8.6331882 2.1608181 -1.7862785 4288085770
5.8335552 1.6926286 -1.7964137 4288085770
8.4002781 2.1876328 -1.7882578 4288085770
5.686655 1.7185071 -1.7957544 4288085770
8.1543922 2.2094297 -1.7851917 4288085770
5.5577478 1.7454035 -1.7971679 4288085770
7.9404898 2.2362568 -1.7852502 4288085770
5.4118643 1.7692778 -1.7935162 4288085770
7.7455835 2.2631004 -1.786388 4288085770
5.2939606 1.796181 -1.7939759 4288085770
7.5506907 2.2879395 -1.7845291 4288085770
5.1870461 1.8260963 -1.7964761 4288085770
7.3737869 2.3157957 -1.7847401 4288085770
5.0761471 1.8530033 -1.7959648 4288085770
7.2148771 2.3456678 -1.7860225 4288085770
4.9812336 1.8829284 -1.798515 4288085770
7.0629654 2.3765457 -1.7873325 4288085770
4.8963118 1.9158626 -1.8021016 4288085770
6.9060717 2.402415 -1.7856302 4288085770
4.8034115 1.943784 -1.8016635 4288085770
6.7621717 2.4312959 -1.784977 4288085770
4.7085161 1.9717021 -1.800217 4288085770
6.6332693 2.4621885 -1.7843825 4288085770
4.6096354 1.9956119 -1.7957608 4288085770
6.5163565 2.4950941 -1.7858349 4288085770
4.5237398 2.0235374 -1.7943516 4288085770
6.3954611 2.5249918 -1.7842754 4288085770
4.4348469 2.0504587 -1.7919319 4288085770
6.2825556 2.5578969 -1.7837443 4288085770
4.3749332 2.0834098 -1.7936224 4288085770
6.1906385 2.5928226 -1.785297 4288085770
4.2940445 2.1113358 -1.7902342 4288085770
6.0837402 2.6247311 -1.7837925 4288085770
4.2391262 2.145292 -1.7929436 4288085770
6.0088167 2.6646719 -1.786407 4288085770
4.1782246 2.1762393 -1.7926332 4288085770
5.910923 2.6965861 -1.7839397 4288085770
4.1233196 2.2091908 -1.7923441 4288085770
5.8340149 2.73352 -1.783551 4288085770
4.0604229 2.2401326 -1.7900254 4288085770
5.7591028 2.7714574 -1.7841691 4288085770
4.010519 2.2730877 -1.789757 4288085770
5.6911936 2.8103983 -1.7838142 4288085770
3.9586201 2.3050404 -1.788482 4288085770
5.6222897 2.8483374 -1.7824569 4288085770
3.9167137 2.3410017 -1.7882416 4288085770
5.5793581 2.8943048 -1.7861937 4288085770
3.8588333 2.3699431 -1.7829469 4288085770
5.5414276 2.9422748 -1.7889477 4288085770
3.8329048 2.4099238 -1.7867661 4288085770
5.4785337 2.9802151 -1.7856152 4288085770
3.7999973 2.4478929 -1.7865592 4288085770
5.4426031 3.0281863 -1.7883772 4288085770
3.7481174 2.4778364 -1.7802875 4288085770
5.4006939 3.0731468 -1.7871196 4288085770
3.7252007 2.5178175 -1.7821186 4288085770
5.3777618 3.1241286 -1.7899302 4288085770
3.7002945 2.5567906 -1.7809433 4288085770
5.3548355 3.1751089 -1.7917408 4288085770
3.674387 2.5957656 -1.7807635 4288085770
5.3269176 3.2250817 -1.7915322 4288085770
3.6704502 2.643764 -1.7846595 4288085770
5.3299665 3.2870877 -1.7964314 4288085770
3.6385593 2.6797273 -1.78046 4288085770
5.3150406 3.3410726 -1.7972697 4288085770
3.626646 2.7237127 -1.7803295 4288085770
5.3180962 3.4030771 -1.8011684 4288085770
3.6187267 2.7687035 -1.7812135 4288085770
5.3211565 3.4650793 -1.8040669 4288085770
3.5988331 2.8086755 -1.7770565 4288085770
5.3222256 3.5260773 -1.8049587 4288085770
3.601902 2.8586783 -1.7799772 4288085770
5.3382759 3.5940914 -1.8089004 4288085770
3.6159649 2.913691 -1.7839347 4288085770
5.3413525 3.6560874 -1.8077983 4288085770
3.6150513 2.9626839 -1.7828404 4288085770
5.3614044 3.7271035 -1.810751 4288085770
3.6361027 3.0217042 -1.7878197 4288085770
5.3734779 3.7931066 -1.8096788 4288085770
3.6411877 3.0727015 -1.7867464 4288085770
5.4075251 3.8701339 -1.8126785 4288085770
3.6642475 3.1327219 -1.7907318 4288085770
5.4445715 3.949163 -1.8156868 4288085770
3.6773281 3.1877255 -1.7896843 4288085770
5.4906101 4.0322018 -1.8197253 4288085770
3.7043915 3.2497454 -1.7916824 4288085770
5.5286674 4.1132269 -1.8197339 4288085770
3.7464314 3.3197839 -1.7977285 4288085770
5.589695 4.2042789 -1.8248197 4288085770
3.7974606 3.3948331 -1.8058027 4288085770
5.6497335 4.2953272 -1.8279011 4288085770
3.8095589 3.4498293 -1.8007503 4288085770
5.7207584 4.3943853 -1.8320138 4288085770
3.8526096 3.5218687 -1.8037964 4288085770
5.7598324 4.4764071 -1.8270239 4288085770
3.9256191 3.6089387 -1.8139402 4288085770
5.8578348 4.5904922 -1.8342216 4288085770
3.9427242 3.666935 -1.8069025 4288085770
5.953845 4.7035718 -1.8394122 4288085770
4.0107517 3.7519941 -1.8130285 4288085770
6.0478678 4.8166442 -1.8415942 4288085770
4.0648079 3.8300333 -1.8141084 4288085770
6.1638689 4.9427395 -1.8468438 4288085770
4.1378345 3.9200947 -1.8192457 4288085770
6.2948532 5.0788507 -1.8541378 4288085770
4.1988926 4.0021381 -1.8193469 4288085770
6.4258461 5.2149577 -1.8594309 4288085770
4.284914 4.1002097 -1.8245232 4288085770
6.555851 5.3520594 -1.8617178 4288085770
4.3539658 4.1872592 -1.8246481 4288085770
6.7148237 5.5061908 -1.868094 4288085770
4.4519844 4.2923403 -1.8298608 4288085770
6.8648176 5.6573076 -1.8704379 4288085770
4.5490103 4.3974175 -1.833069 4288085770
7.0447817 5.8264537 -1.8758732 4288085770
4.6570253 4.5095043 -1.8373101 4288085770
7.248724 6.0106239 -1.8843808 4288085770
4.753067 4.614574 -1.8365132 4288085770
7.4516821 6.195787 -1.8888817 4288085770
4.9010344 4.7517052 -1.8478745 4288085770
7.7115803 6.4180069 -1.900552 4288085770
5.0180607 4.8697929 -1.8481406 4288085770
7.9565077 6.631207 -1.9071752 4288085770
5.1670485 5.0079165 -1.8545032 4288085770
8.2433968 6.8724461 -1.9179215 4288085770
5.3220329 5.150043 -1.859883 4288085770
8.5193186 7.1076632 -1.9206326 4288085770
5.4810219 5.2951708 -1.8642731 4288085770
8.834199 7.3689222 -1.9294572 4288085770
5.6569986 5.4513135 -1.8697133 4288085770
9.1770706 7.6501989 -1.9363606 4288085770
5.8449726 5.6154647 -1.8741884 4288085770
9.5549173 7.9545069 -1.9453667 4288085770
6.0469341 5.7886286 -1.8797046 4288085770
6.2738771 5.9788156 -1.8872927 4288085770
6.517808 6.180016 -1.8949308 4288085770
6.7987051 6.4062524 -1.9066762 4288085770
7.0955963 6.6424999 -1.9174687 4288085770
7.4024868 6.8857541 -1.9272889 4288085770
7.7133999 7.1310015 -1.931121 4288085770
8.0512886 7.3932743 -1.9380329 4288085770
8.4291506 7.6825809 -1.9460602 4288085770
8.8579721 8.0059328 -1.9572357 4288085770
17.218647 -0.80449343 -1.7921833 4288085770
16.175777 -0.84231186 -1.7950736 4288085770
15.21991 -0.8760643 -1.7973058 4288085770
14.419018 -0.90768242 -1.8051548 4288085770
13.604145 -0.93032646 -1.8059318 4288085770
12.865273 -0.95091009 -1.8070095 4288085770
12.184393 -0.9684453 -1.8093145 4288085770
11.575508 -0.98292351 -1.811902 4288085770
11.016622 -0.99635983 -1.8156883 4288085770
17.352243 -1.5554214 -1.7990685 4288085770
10.502725 -1.0097575 -1.8216548 4288085770
16.305298 -1.5432239 -1.8118534 4288085770
10.043819 -1.0221071 -1.8298396 4288085770
15.318361 -1.5279865 -1.8208736 4288085770
9.5619402 -1.0264902 -1.8299179 4288085770
14.420437 -1.5116849 -1.8272483 4288085770
9.1020632 -1.0298586 -1.8290828 4288085770
13.550529 -1.4893713 -1.8277243 4288085770
8.6871777 -1.0331869 -1.8304278 4288085770
12.732631 -1.4660215 -1.8264071 4288085770
8.2842979 -1.0325093 -1.8298135 4288085770
12.020725 -1.4455838 -1.8275194 4288085770
7.9204082 -1.0337973 -1.8313593 4288085770
11.362817 -1.4251022 -1.8288482 4288085770
7.5595293 -1.0310884 -1.8299097 4288085770
10.801891 -1.410533 -1.8365761 4288085770
7.2416353 -1.0303378 -1.8326356 4288085770
10.278971 -1.394937 -1.8424541 4288085770
6.9317493 -1.0285845 -1.8333923 4288085770
9.6901026 -1.3664227 -1.8330446 4288085770
6.6408587 -1.0248141 -1.8352209 4288085770
9.1772137 -1.3438373 -1.8299503 4288085770
6.3499765 -1.0190506 -1.8340462 4288085770
8.7133217 -1.3222098 -1.828054 4288085770
6.1030779 -1.0162411 -1.8380531 4288085770
8.2964191 -1.3035398 -1.8293511 4288085770
5.8511906 -1.0114427 -1.8390365 4288085770
7.9115162 -1.2848444 -1.8307763 4288085770
5.6102991 -1.0046349 -1.8400599 4288085770
7.5486145 -1.2671313 -1.8322915 4288085770
5.3914013 -0.99980545 -1.8431752 4288085770
7.1937227 -1.246418 -1.8308332 4288085770
5.1585255 -0.98999977 -1.8402253 4288085770
6.8888092 -1.2306533 -1.835584 4288085770
4.9566298 -0.98315859 -1.8424051 4288085770
6.5699205 -1.2099128 -1.8332698 4288085770
4.7297678 -0.97035599 -1.8354739 4288085770
6.301012 -1.1951218 -1.8371665 4288085770
4.5418749 -0.96250534 -1.8367077 4288085770
6.0291138 -1.1763387 -1.838044 4288085770
4.3659782 -0.9546442 -1.8389896 4288085770
5.7472353 -1.1545749 -1.8328762 4288085770
4.1771049 -0.94280529 -1.8352122 4288085770
5.5213223 -1.1397471 -1.8379452 4288085770
4.0152111 -0.93393469 -1.8365486 4288085770
5.27244 -1.1189561 -1.8339111 4288085770
3.8553219 -0.92406511 -1.8368907 4288085770
5.0575409 -1.102128 -1.8350203 4288085770
3.6804543 -0.91021776 -1.8311658 4288085770
4.8536434 -1.0852904 -1.8361735 4288085770
3.5245743 -0.89835072 -1.8285203 4288085770
4.6407576 -1.0654678 -1.8332853 4288085770
3.3996716 -0.89044523 -1.8330061 4288085770
4.4538631 -1.0486197 -1.8335066 4288085770
3.2438068 -0.87658644 -1.8263572 4288085770
4.2749672 -1.0307646 -1.8337578 4288085770
3.0909405 -0.86072397 -1.8197165 4288085770
4.0970764 -1.0129104 -1.8330132 4288085770
2.966053 -0.84982872 -1.8191969 4288085770
3.9221954 -0.99406052 -1.8292788 4288085770
2.8741283 -0.84388638 -1.8288184 4288085770
3.7543106 -0.9751997 -1.8265734 4288085770
2.7312698 -0.82701826 -1.8202167 4288085770
3.6203976 -0.96029949 -1.8320096 4288085770
3.4775047 -0.94441509 -1.8324083 4288085770
3.3036499 -0.92057848 -1.8216683 4288085770
3.163763 -0.90269756 -1.8190753 4288085770
3.0548515 -0.88877726 -1.8246135 4288085770
2.9389477 -0.87286806 -1.8271199 4288085770
2.806076 -0.85398817 -1.8215531 4288085770
2.6993141 0.9942944 -1.7998997 4288085770
2.8084259 1.0093753 -1.7992848 4288085770
2.9175491 1.0234513 -1.7966719 4288085770
3.0266743 1.0365236 -1.7920607 4288085770
3.1607761 1.0536306 -1.7945374 4288085770
3.2878914 1.0677238 -1.7929933 4288085770
3.4359913 1.0848424 -1.7955235 4288085770
2.6201191 0.98319411 -1.7975888 4288085770
3.576107 1.099946 -1.794027 4288085770
2.7472095 0.99630022 -1.8020471 4288085770
3.7372017 1.1170754 -1.7966069 4288085770
2.8633251 1.0063868 -1.8014693 4288085770
3.8923187 1.1321912 -1.7951678 4288085770
2.9794464 1.0164707 -1.7998912 4288085770
4.0724125 1.1503379 -1.7988181 4288085770
3.1005688 1.026557 -1.7973322 4288085770
4.2415257 1.1654649 -1.7974323 4288085770
3.2326813 1.0366588 -1.7978153 4288085770
4.4306297 1.1826146 -1.7991189 4288085770
3.3658066 1.0457542 -1.7953042 4288085770
4.6267376 1.1997657 -1.7988322 4288085770
3.5129128 1.0558701 -1.7968447 4288085770
4.8348408 1.2159309 -1.8005936 4288085770
3.6690216 1.0669935 -1.7984174 4288085770
5.0549459 1.233103 -1.8013988 4288085770
3.8171425 1.0751035 -1.7969656 4288085770
5.2630692 1.2482579 -1.7981616 4288085770
3.9972401 1.0872505 -1.8006282 4288085770
5.5191612 1.2674656 -1.8021003 4288085770
4.1613617 1.0953734 -1.7992376 4288085770
5.791255 1.2866871 -1.8061001 4288085770
4.3504677 1.1055253 -1.8019384 4288085770
6.0473776 1.3018801 -1.8030467 4288085770
4.5575609 1.1166961 -1.8067063 4288085770
6.3254862 1.3190975 -1.8030732 4288085770
4.7536774 1.1248472 -1.806438 4288085770
6.6345901 1.337342 -1.8042163 4288085770
4.9637909 1.1330123 -1.8072232 4288085770
6.9357166 1.3515697 -1.8003367 4288085770
5.1629257 1.1381571 -1.8029723 4288085770
7.300807 1.3728659 -1.8046877 4288085770
5.4220104 1.1493747 -1.8099387 4288085770
7.6509237 1.3891349 -1.8019916 4288085770
5.6441412 1.1535404 -1.8067778 4288085770
8.048027 1.4084513 -1.8034686 4288085770
5.8812733 1.1577184 -1.8036742 4288085770
8.464139 1.4267781 -1.8030206 4288085770
6.1423988 1.1629176 -1.8016604 4288085770
8.891264 1.4421072 -1.7996206 4288085770
6.4385014 1.1701589 -1.8057761 4288085770
9.3893566 1.4635093 -1.8034796 4288085770
6.7286253 1.173384 -1.8048773 4288085770
9.8784876 1.4788847 -1.7983165 4288085770
7.0447445 1.1776323 -1.8050755 4288085770
10.445594 1.4993358 -1.7994412 4288085770
7.3738689 1.179889 -1.8043277 4288085770
11.026719 1.5147874 -1.7956297 4288085770
7.7000103 1.1791346 -1.7995745 4288085770
11.647855 1.5302672 -1.7899711 4288085770
8.1001167 1.1824598 -1.804096 4288085770
12.35997 1.5498295 -1.7886521 4288085770
8.5082369 1.1837828 -1.8046522 4288085770
13.185066 1.5734916 -1.791757 4288085770
8.9253674 1.1811087 -1.8032509 4288085770
14.054182 1.5941808 -1.791036 4288085770
9.3734999 1.1784596 -1.8019681 4288085770
15.002309 1.6129274 -1.7876211 4288085770
9.8606329 1.1738422 -1.8008386 4288085770
16.074429 1.6337767 -1.7856762 4288085770
10.389761 1.1682615 -1.8008717 4288085770
17.265554 1.6537175 -1.7821884 4288085770
10.961892 1.1607149 -1.8010734 4288085770
11.556037 1.1481776 -1.7973702 4288085770
12.217169 1.1377037 -1.797918 4288085770
12.918317 1.1222553 -1.7956293 4288085770
13.75444 1.1069293 -1.7998569 4288085770
14.612593 1.0846083 -1.798183 4288085770
15.605734 1.0604033 -1.8000294 4288085770
16.657892 1.0292392 -1.7991159 4288085770
9.0831566 -7.8447046 -1.4945167 4293729569
8.6620531 -7.5279369 -1.503199 4293729569
8.2829628 -7.2381401 -1.5130998 4293729569
7.9738865 -6.9962883 -1.5273728 4293729569
7.6838217 -6.7664299 -1.5407439 4293729569
7.3777723 -6.5246 -1.5470271 4293729569
7.1477289 -6.333704 -1.5607117 4293729569
6.9106979 -6.1378241 -1.5703583 4293729569
6.7056675 -5.961916 -1.5831697 4293729569
6.4886532 -5.7780323 -1.5899177 4293729569
6.3076391 -5.6181145 -1.6008552 4293729569
9.5052557 -7.5924864 -1.5022719 4293729569
6.1286383 -5.4582081 -1.6077996 4293729569
9.1571703 -7.306675 -1.5112885 4293729569
5.965641 -5.3092871 -1.6158291 4293729569
8.8430996 -7.0448408 -1.5204877 4293729569
5.8136511 -5.1683636 -1.6229181 4293729569
8.5540428 -6.798995 -1.5288166 4293729569
5.6556702 -5.0224514 -1.6269729 4293729569
8.3079948 -6.5811176 -1.5393701 4293729569
5.520689 -4.890521 -1.633145 4293729569
8.0729542 -6.3722363 -1.5489861 4293729569
5.3947163 -4.7655869 -1.6383671 4293729569
7.8789272 -6.1903267 -1.5598172 4293729569
5.3177299 -4.6705961 -1.6528399 4293729569
7.7119026 -6.024395 -1.5727847 4293729569
5.2257595 -4.5666351 -1.6612365 4293729569
7.5318937 -5.8514881 -1.5796883 4293729569
5.1028042 -4.4437122 -1.6614741 4293729569
7.3928833 -5.7045441 -1.5918041 4293729569
4.9938498 -4.3287783 -1.6627816 4293729569
7.2238874 -5.5406351 -1.59677 4293729569
4.9108887 -4.2298183 -1.6682224 4293729569
7.0708923 -5.3857164 -1.6018155 4293729569
4.842926 -4.1408405 -1.6767421 4293729569
6.9549046 -5.2537689 -1.6100513 4293729569
4.7759752 -4.0508709 -1.6822623 4293729569
6.8379211 -5.1218243 -1.6172835 4293729569
4.753006 -3.9868479 -1.6970052 4293729569
6.7299433 -4.994875 -1.6235601 4293729569
4.8339949 -3.9836979 -1.7352724 4288085770
6.6249752 -4.871932 -1.627858 4293729569
4.9399748 -3.9905186 -1.7786527 4288085770
6.5370083 -4.758975 -1.6332417 4293729569
5.0269632 -3.9863634 -1.8169372 4288085770
6.4550438 -4.650013 -1.6386569 4293729569
5.0000124 -3.9163618 -1.825649 4282675967
6.3820829 -4.5450468 -1.6441137 4293729569
4.9140902 -3.8134336 -1.8200675 4288085770
6.3131266 -4.4430809 -1.6485925 4293729569
4.8081856 -3.701539 -1.8073926 4288085770
6.2491751 -4.3441153 -1.6520965 4293729569
4.763257 -3.6225672 -1.8080175 4288085770
6.1912279 -4.2491446 -1.655632 4293729569
4.7203293 -3.545598 -1.8086549 4288085770
6.1482801 -4.1611624 -1.660238 4293729569
4.6824055 -3.4696264 -1.8083118 4288085770
6.1053352 -4.0741835 -1.6638467 4293729569
4.6374865 -3.3916655 -1.8059393 4288085770
6.1853523 -4.0490675 -1.6900474 4293729569
4.6335497 -3.3336525 -1.812762 4288085770
6.3453426 -4.0588617 -1.7306179 4288085770
4.5966349 -3.2596874 -1.8104277 4288085770
6.5063362 -4.0676594 -1.7701888 4288085770
4.5807123 -3.1967001 -1.8111954 4288085770
6.6603279 -4.0704632 -1.8087189 4288085770
4.5498018 -3.1257324 -1.8078897 4288085770
6.7013702 -4.018404 -1.8227105 4282675967
4.542881 -3.0677371 -1.8097018 4288085770
6.6724453 -3.9344311 -1.8213742 4288085770
4.5339661 -3.0067482 -1.8094985 4288085770
6.6065388 -3.8345022 -1.8118671 4288085770
4.5220556 -2.9467635 -1.8082879 4288085770
6.5836134 -3.7535238 -1.8105593 4288085770
4.5291367 -2.8927598 -1.8101583 4288085770
6.570693 -3.6775408 -1.8092992 4288085770
4.5412188 -2.8427496 -1.8130568 4288085770
6.5667753 -3.6055508 -1.8080809 4288085770
4.5503073 -2.7917466 -1.8139423 4288085770
6.5698547 -3.5375547 -1.8078974 4288085770
4.5573959 -2.7387476 -1.8138154 4288085770
6.5779371 -3.4705553 -1.8077337 4288085770
4.579483 -2.6917343 -1.8157558 4288085770
6.5900221 -3.4045553 -1.806586 4288085770
4.6065664 -2.6467147 -1.818719 4288085770
6.6061087 -3.3415546 -1.8054602 4288085770
4.6156626 -2.5937209 -1.8165982 4288085770
6.6301966 -3.2805481 -1.8043671 4288085770
4.6517487 -2.5516953 -1.8195996 4288085770
6.671278 -3.2275229 -1.8063538 4288085770
4.6618528 -2.5007067 -1.8154877 4288085770
6.7183666 -3.1744967 -1.8073608 4288085770
4.702939 -2.4596786 -1.8185091 4288085770
6.7654533 -3.1224709 -1.8083704 4288085770
4.7350378 -2.4156675 -1.8174909 4288085770
6.8315344 -3.0744276 -1.8114554 4288085770
4.7991123 -2.3826137 -1.8246125 4288085770
6.8996181 -3.0283856 -1.8135526 4288085770
4.831213 -2.3376055 -1.8225914 4288085770
6.954711 -2.9773598 -1.8125916 4288085770
4.873313 -2.2955875 -1.8216125 4288085770
7.0248041 -2.9293222 -1.8126895 4288085770
4.9254055 -2.2565589 -1.8226756 4288085770
7.1008987 -2.8832812 -1.8128133 4288085770
4.9854994 -2.2195215 -1.8247715 4288085770
7.1799898 -2.8362384 -1.8129439 4288085770
5.0346012 -2.1775031 -1.8228155 4288085770
7.2590904 -2.7902007 -1.8110775 4288085770
5.1056919 -2.1434565 -1.8259568 4288085770
7.3551836 -2.7491446 -1.8122821 4288085770
5.1637964 -2.1044321 -1.8240397 4288085770
7.4592781 -2.708086 -1.8125138 4288085770
5.2318945 -2.0673962 -1.8241616 4288085770
7.5773735 -2.6690164 -1.8137981 4288085770
5.305994 -2.0313559 -1.8243066 4288085770
7.6924734 -2.627954 -1.8130662 4288085770
5.3940887 -1.998302 -1.8265073 4288085770
7.8215675 -2.5898776 -1.8143901 4288085770
5.486186 -1.966248 -1.8277242 4288085770
7.9556684 -2.5538034 -1.8137361 4288085770
5.5942726 -1.9371734 -1.8330033 4288085770
8.1007643 -2.5177169 -1.8151191 4288085770
5.6963673 -1.9061103 -1.8352562 4288085770
8.2618647 -2.4826236 -1.8155586 4288085770
5.7814798 -1.8680754 -1.8314316 4288085770
8.4169664 -2.4465365 -1.8149745 4288085770
5.8925753 -1.837007 -1.8337145 4288085770
8.5850687 -2.4104414 -1.8144342 4288085770
6.0116682 -1.8059359 -1.8350241 4288085770
8.7661676 -2.3753409 -1.8129404 4288085770
6.1417637 -1.7758565 -1.8373736 4288085770
8.9712658 -2.3442178 -1.8145382 4288085770
6.2818565 -1.7467666 -1.840759 4288085770
9.1763725 -2.3101029 -1.8131273 4288085770
6.3899708 -1.7097201 -1.8360137 4288085770
9.4054747 -2.2799673 -1.8138081 4288085770
6.5430679 -1.6816263 -1.8384455 4288085770
9.6185904 -2.243856 -1.8094176 4288085770
6.678175 -1.6475544 -1.8367991 4288085770
9.8826895 -2.2156959 -1.8112212 4288085770
6.8382778 -1.6174607 -1.8372481 4288085770
10.144801 -2.1835489 -1.8090062 4288085770
7.0033789 -1.5853658 -1.8377079 4288085770
10.367932 -2.141448 -1.7986311 4288085770
7.1934757 -1.5572476 -1.8402631 4288085770
10.681038 -2.1132636 -1.7985984 4288085770
7.3715839 -1.5251498 -1.8387659 4288085770
11.08312 -2.0979996 -1.8079019 4288085770
7.5416956 -1.4910622 -1.835236 4288085770
11.442232 -2.0717893 -1.8070287 4288085770
7.7468023 -1.4599442 -1.8348317 4288085770
11.824341 -2.0435658 -1.8062264 4288085770
7.9729042 -1.43081 -1.8355037 4288085770
12.253445 -2.0193062 -1.8075931 4288085770
8.1820202 -1.3957019 -1.8311009 4288085770
12.739548 -1.9980097 -1.8101593 4288085770
8.4341221 -1.3655524 -1.8318566 4288085770
13.239655 -1.97471 -1.8107661 4288085770
8.6762381 -1.3314228 -1.8275669 4288085770
13.879738 -1.9642954 -1.82188 4288085770
8.9963207 -1.3042169 -1.8335588 4288085770
14.46685 -1.9379501 -1.8197691 4288085770
9.2954254 -1.2730408 -1.8334683 4288085770
15.151951 -1.9205284 -1.8240123 4288085770
9.6365213 -1.2438302 -1.8365239 4288085770
15.869063 -1.9000974 -1.8243531 4288085770
10.010614 -1.2135997 -1.8396869 4288085770
16.53021 -1.8637385 -1.8114589 4288085770
10.36273 -1.1774025 -1.8357582 4288085770
17.244358 -1.8263497 -1.7977388 4288085770
10.74684 -1.1411824 -1.8329365 4288085770
11.118965 -1.1009851 -1.8250622 4288085770
11.497106 -1.0577974 -1.8121989 4288085770
11.999212 -1.021502 -1.8107709 4288085770
12.540368 -0.98218107 -1.8094602 4288085770
13.111482 -0.94085217 -1.8052511 4288085770
13.771584 -0.9004612 -1.8043426 4288085770
14.500687 -0.85802698 -1.8036588 4288085770
15.254803 -0.80959463 -1.7970406 4288085770
16.134905 -0.76207066 -1.7958467 4288085770
17.094017 -0.7105093 -1.7909051 4288085770
17.65427 1.6353276 -1.7680311 4288085770
16.982334 1.7069232 -1.7706182 4288085770
16.364399 1.776552 -1.7733865 4288085770
15.761476 1.8401775 -1.7722236 4288085770
15.191561 1.9008198 -1.7701766 4288085770
14.756615 1.9685714 -1.7765427 4288085770
14.251715 2.0242438 -1.7717223 4288085770
13.812799 2.0819705 -1.7711083 4288085770
13.437876 2.1417432 -1.7726946 4288085770
13.07596 2.1985173 -1.7723327 4288085770
12.769033 2.259335 -1.775135 4288085770
12.441122 2.3141267 -1.7738894 4288085770
12.14121 2.3689358 -1.7727342 4288085770
11.869293 2.4257653 -1.7726626 4288085770
11.640366 2.4866314 -1.7757167 4288085770
11.410444 2.5454905 -1.7767742 4288085770
11.212517 2.6063755 -1.7799281 4288085770
11.021595 2.6662583 -1.7811079 4288085770
10.859667 2.729166 -1.7843711 4288085770
10.678746 2.7880518 -1.7845865 4288085770
10.514833 2.8459449 -1.7838598 4288085770
10.390901 2.9128759 -1.7872322 4288085770
18.039833 4.6016665 -1.825344 4288085770
10.28896 2.9828267 -1.7926656 4288085770
17.755898 4.6824956 -1.8271499 4288085770
10.177028 3.0487652 -1.7960796 4288085770
17.467968 4.7603149 -1.8269526 4288085770
10.063107 3.1126924 -1.7964939 4288085770
17.298 4.8612309 -1.8340596 4288085770
9.9891672 3.1866574 -1.8010039 4288085770
17.070065 4.949091 -1.8350223 4288085770
9.8872442 3.2525921 -1.8014498 4288085770
16.88612 5.0439816 -1.8371037 4288085770
9.7973242 3.3205314 -1.8009279 4288085770
16.716177 5.1398745 -1.8372269 4288085770
9.742383 3.3955078 -1.8054953 4288085770
16.557232 5.2377772 -1.8383785 4288085770
9.6984425 3.4744883 -1.8090848 4288085770
16.494253 5.3607593 -1.8457566 4288085770
9.6365166 3.5474479 -1.8096358 4288085770
16.359318 5.4606671 -1.8439785 4288085770
9.5985813 3.6274254 -1.8112409 4288085770
16.305349 5.5846419 -1.8473818 4288085770
9.5466576 3.7023878 -1.8108171 4288085770
16.294361 5.720655 -1.8548834 4288085770
9.5317116 3.7883863 -1.814476 4288085770
16.282383 5.8566589 -1.8593816 4288085770
9.5347576 3.8794024 -1.820176 4288085770
16.347372 6.0177269 -1.8690441 4288085770
9.5058241 3.9623761 -1.8188 4288085770
16.366379 6.16675 -1.8735991 4288085770
9.5148754 4.0573859 -1.8215054 4288085770
16.413382 6.3237939 -1.879216 4288085770
9.5389194 4.1574121 -1.8262423 4288085770
16.514372 6.500874 -1.8859402 4288085770
9.5439806 4.2514129 -1.8269379 4288085770
16.572382 6.6659141 -1.8885653 4288085770
9.5260611 4.3373833 -1.8225857 4288085770
16.67038 6.8449826 -1.8922719 4288085770
9.6300631 4.4674816 -1.8344796 4288085770
16.784374 7.0330582 -1.8949996 4288085770
9.6890965 4.583529 -1.8392749 4288085770
17.070282 7.2872896 -1.9130608 4288085770
9.7441359 4.6985674 -1.8420602 4288085770
17.207279 7.4873686 -1.9128213 4288085770
9.8191681 4.8226213 -1.8458794 4288085770
17.501192 7.7505913 -1.9268767 4288085770
9.9051962 4.9516826 -1.8497174 4288085770
17.674183 7.9716897 -1.9256817 4288085770
9.9912281 5.0817404 -1.8525512 4288085770
10.107243 5.2268229 -1.8574313 4288085770
10.238251 5.3789182 -1.8633358 4288085770
10.348282 5.5239811 -1.8631957 4288085770
10.503282 5.6900911 -1.8691297 4288085770
10.66828 5.8622055 -1.8740753 4288085770
10.884245 6.0603666 -1.8840977 4288085770
11.100219 6.261518 -1.8911089 4288085770
11.370159 6.4917192 -1.9031965 4288085770
11.590137 6.7008638 -1.9071926 4288085770
11.845101 6.9290323 -1.9122369 4288085770
12.118061 7.1692095 -1.9162982 4288085770
12.458981 7.4474449 -1.92545 4288085770
12.845871 7.7527227 -1.938658 4288085770
13.213791 8.0529613 -1.9438207 4288085770
17.021906 -0.35010052 -1.7820266 4288085770
15.784022 -0.37385702 -1.7862084 4288085770
14.71913 -0.39350033 -1.791921 4288085770
13.719254 -0.40812111 -1.792821 4288085770
12.823378 -0.41868401 -1.7920344 4288085770
11.989508 -0.42721415 -1.7894363 4288085770
11.26063 -0.43367147 -1.7891619 4288085770
17.977936 -0.71455526 -1.7783113 4288085770
10.633739 -0.4400506 -1.7932085 4288085770
16.548042 -0.69944763 -1.777752 4288085770
10.04385 -0.4454093 -1.7963684 4288085770
15.355122 -0.68716097 -1.7859495 4288085770
9.493968 -0.44775391 -1.7966435 4288085770
14.292217 -0.67480803 -1.7905564 4288085770
9.0010796 -0.44905567 -1.7990948 4288085770
13.290325 -0.65943766 -1.789345 4288085770
8.5461874 -0.4503293 -1.8026657 4288085770
12.418428 -0.6459775 -1.7905501 4288085770
8.1142998 -0.44959641 -1.804302 4288085770
11.602547 -0.63050175 -1.7869246 4288085770
7.706418 -0.44785547 -1.8040106 4288085770
10.937634 -0.6188941 -1.7937886 4288085770
7.3225384 -0.44410229 -1.8027874 4288085770
10.317736 -0.60627174 -1.7967905 4288085770
6.9666548 -0.44032812 -1.8026524 4288085770
9.7548304 -0.59460974 -1.8009754 4288085770
6.6347704 -0.43653917 -1.8025932 4288085770
9.1999445 -0.57996511 -1.7991753 4288085770
6.3098993 -0.43076086 -1.7985489 4288085770
8.7370386 -0.56923771 -1.8046788 4288085770
6.0489969 -0.42790508 -1.8047166 4288085770
8.290144 -0.55551434 -1.806222 4288085770
5.7691174 -0.4210906 -1.8028105 4288085770
7.8602591 -0.54179049 -1.8048189 4288085770
5.5222273 -0.41624069 -1.8050153 4288085770
7.4713669 -0.52903366 -1.8055482 4288085770
5.2823391 -0.4103899 -1.8062385 4288085770
7.0954838 -0.51527977 -1.803315 4288085770
5.0624514 -0.40452719 -1.8075247 4288085770
6.7675858 -0.50347805 -1.8062402 4288085770
4.8325739 -0.39668465 -1.8047726 4288085770
6.4387026 -0.48869419 -1.8041512 4288085770
4.6436768 -0.39079094 -1.8091564 4288085770
6.1468143 -0.47688007 -1.8041897 4288085770
4.4338036 -0.38193989 -1.8054636 4288085770
5.854929 -0.4620738 -1.8022172 4288085770
4.2459164 -0.37406445 -1.8048434 4288085770
5.590044 -0.44924641 -1.8013371 4288085770
4.0610409 -0.36519337 -1.8022292 4288085770
5.3411579 -0.43640804 -1.8005073 4288085770
3.8801651 -0.35632038 -1.7996277 4288085770
5.1212635 -0.42454243 -1.802772 4288085770
3.7222786 -0.34742451 -1.7990984 4288085770
4.8963795 -0.41069269 -1.8010141 4288085770
3.5713921 -0.33852196 -1.7995911 4288085770
4.6964836 -0.3988142 -1.8033417 4288085770
3.4165115 -0.32963276 -1.7970715 4288085770
4.4985943 -0.38594389 -1.8026724 4288085770
3.2666359 -0.31974363 -1.7935638 4288085770
4.2857265 -0.37110567 -1.7959487 4288085770
3.1457405 -0.31181097 -1.7971543 4288085770
4.1308231 -0.36018658 -1.8014216 4288085770
3.9589386 -0.34630442 -1.7998303 4288085770
3.7980499 -0.33440828 -1.8002808 4288085770
3.6381702 -0.32052565 -1.7967273 4288085770
3.4723034 -0.30665779 -1.7901552 4288085770
3.3414078 -0.29373503 -1.7926961 4288085770
3.2115192 -0.2818222 -1.7922442 4288085770
3.1680717 1.7324681 -1.7862458 4288085770
3.3051643 1.7585614 -1.7895662 4288085770
3.4392719 1.7826409 -1.7898847 4288085770
3.5613956 1.8026938 -1.7851816 4288085770
3.7124882 1.8297956 -1.7885411 4288085770
3.8595943 1.8538797 -1.7878996 4288085770
4.0176964 1.8789785 -1.7892878 4288085770
4.1837959 1.9060824 -1.7906932 4288085770
3.2030048 1.6654634 -1.7905813 4288085770
4.3489056 1.9301779 -1.7901068 4288085770
3.3351116 1.6825457 -1.7919204 4288085770
4.5190153 1.954273 -1.7885355 4288085770
3.4732151 1.6996355 -1.7942779 4288085770
4.7510757 1.9934571 -1.8000979 4288085770
3.6103249 1.7157171 -1.794636 4288085770
4.9341898 2.0165567 -1.7975703 4288085770
3.7394543 1.7277749 -1.7899847 4288085770
5.1103163 2.0366399 -1.7920327 4288085770
3.8865585 1.7428625 -1.7903774 4288085770
5.3104258 2.0607507 -1.7895535 4288085770
4.0466614 1.7609668 -1.7927984 4288085770
5.5335312 2.0888832 -1.7891299 4288085770
4.2127686 1.7770708 -1.7942457 4288085770
5.7576408 2.1150126 -1.7877167 4288085770
4.3808784 1.7931724 -1.794699 4288085770
6.0067387 2.1431694 -1.7893727 4288085770
4.586956 1.8163326 -1.8042421 4288085770
6.266839 2.1733298 -1.7900549 4288085770
4.7350988 1.822387 -1.7956721 4288085770
6.5289516 2.1994796 -1.7877582 4288085770
4.9212103 1.8364995 -1.796188 4288085770
6.8250437 2.2326703 -1.7905395 4288085770
5.0903435 1.8445787 -1.7906747 4288085770
7.1201487 2.2608488 -1.7903366 4288085770
5.3034458 1.8607166 -1.7932659 4288085770
7.4272594 2.2890272 -1.7881703 4288085770
5.5005693 1.8708251 -1.790831 4288085770
7.7543659 2.3182225 -1.7870619 4288085770
5.7226801 1.8839612 -1.7914613 4288085770
8.101469 2.3494341 -1.7870071 4288085770
5.9587851 1.8981135 -1.7941309 4288085770
8.465579 2.3786492 -1.7850121 4288085770
6.1839085 1.9072399 -1.7917857 4288085770
8.845685 2.4088781 -1.7840625 4288085770
6.4440126 1.9204078 -1.7945328 4288085770
9.2817745 2.445158 -1.787262 4288085770
6.7021303 1.9305632 -1.7942849 4288085770
9.7008905 2.4734006 -1.7834395 4288085770
6.9662466 1.9387221 -1.7940636 4288085770
10.157002 2.5046704 -1.7807195 4288085770
7.2453632 1.946887 -1.7928882 4288085770
10.660099 2.5389819 -1.7811323 4288085770
7.5414801 1.9550662 -1.7927649 4288085770
11.235185 2.5803509 -1.7847396 4288085770
7.8525953 1.9612594 -1.7936953 4288085770
11.803289 2.614696 -1.7833519 4288085770
8.1687202 1.9664438 -1.7916449 4288085770
12.393404 2.6460478 -1.7800434 4288085770
8.5018444 1.9696431 -1.7906545 4288085770
13.055508 2.6834528 -1.7789329 4288085770
8.8579645 1.9728606 -1.7907348 4288085770
13.810591 2.7289369 -1.7830776 4288085770
9.2080956 1.9720635 -1.787812 4288085770
14.584689 2.7674174 -1.7833073 4288085770
9.6102161 1.9743102 -1.7880373 4288085770
15.417793 2.8059282 -1.7817184 4288085770
9.9913578 1.9685247 -1.7832289 4288085770
16.329893 2.8484926 -1.781357 4288085770
10.44547 1.968817 -1.7866218 4288085770
17.324991 2.8911107 -1.7812504 4288085770
10.862617 1.9590507 -1.7809395 4288085770
11.343745 1.9523447 -1.7804422 4288085770
11.841879 1.9416456 -1.7790128 4288085770
12.375011 1.9309688 -1.7776908 4288085770
12.929155 1.9133015 -1.7754604 4288085770
13.56628 1.8987031 -1.7774737 4288085770
14.196419 1.8760848 -1.7754966 4288085770
14.890558 1.852515 -1.7757198 4288085770
15.601709 1.8219445 -1.7730222 4288085770
16.394855 1.7884343 -1.7725884 4288085770
17.203014 1.7479258 -1.7702277 4288085770
18.032194 1.6974111 -1.7629704 4288085770
8.5230608 -5.1768589 -0.57081568 4293729569
8.4720945 -5.2277422 -0.60986894 4293729569
8.4938536 -5.3039064 -0.06923648 4293729569
8.4641361 -5.2985878 -0.65113401 4293729569
8.4731684 -5.3784075 -0.69648737 4293729569
11.200377 -7.6555109 -1.5070475 4293729569
10.61531 -7.3928623 -1.5122097 4293729569
10.087254 -7.1541672 -1.5196421 4293729569
9.6392088 -6.9564056 -1.5314837 4293729569
9.1901693 -6.7516565 -1.5402935 4293729569
8.7221384 -6.5279484 -1.5419685 4293729569
8.348114 -6.3561468 -1.5531398 4293729569
7.9850979 -6.1833467 -1.5613376 4293729569
7.6790838 -6.0424843 -1.5758383 4293729569
7.3690767 -5.8946419 -1.5862985 4293729569
7.0630732 -5.7428045 -1.5947546 4293729569
10.469818 -7.8650904 -1.4937242 4293729569
6.7660789 -5.5939703 -1.6012501 4293729569
9.8847151 -7.541441 -1.4986353 4293729569
6.500083 -5.4601059 -1.6099006 4293729569
9.402626 -7.2757015 -1.5100943 4293729569
6.2410965 -5.3262463 -1.6165724 4293729569
8.95755 -7.0279379 -1.5217389 4293729569
5.9831152 -5.189394 -1.6212349 4293729569
