# .PCD v0.7 - Point Cloud Data file format
VERSION 0.7
FIELDS x y z rgb
SIZE 4 4 4 4
TYPE F F F U
COUNT 1 1 1 1
WIDTH 1122
HEIGHT 1
VIEWPOINT 0 0 0 1 0 0 0
POINTS 1122
DATA ascii
5.0490417 0.7430954 -1.786844 4288085770
8.7354431 0.9081912 -1.7874334 4288085770
5.433197 0.74637318 -1.7878501 4288085770
9.4465942 0.92184925 -1.7864196 4288085770
5.8443298 0.74859715 -1.7878606 4288085770
10.32077 0.93923092 -1.7953982 4288085770
6.2934265 0.75075483 -1.7898722 4288085770
11.19989 0.95257282 -1.7933896 4288085770
6.7675781 0.75186157 -1.7898879 4288085770
12.240082 0.96962929 -1.7973752 4288085770
7.2977295 0.75186777 -1.7919087 4288085770
13.337219 0.98255444 -1.7923746 4288085770
7.8577881 0.74980927 -1.7909367 4288085770
14.630371 0.99712515 -1.7913747 4288085770
8.4829407 0.74763823 -1.7929666 4288085770
9.1980591 0.74430323 -1.7970028 4288085770
9.9772034 0.73984861 -1.8010442 4288085770
10.817322 0.73228025 -1.8050969 4288085770
11.779388 0.72247982 -1.8081598 4288085770
12.871521 0.71144772 -1.8152304 4288085770
14.155609 0.69706297 -1.8253167 4288085770
15.635712 0.67831373 -1.8364213 4288085770
3.3743896 -4.9464235 -0.067010403 4293729569
3.338623 -4.8932452 -0.11087179 4293729569
3.3427734 -4.8641491 -0.15280175 4293729569
3.3639221 -4.8450818 -0.19576025 4293729569
3.3591614 -4.8089714 -0.23667026 4293729569
3.3822937 -4.7869101 -0.27862096 4293729569
3.3924866 -4.7568278 -0.31954885 4293729569
3.4416199 -4.7478189 -0.36053705 4293729569
3.5207214 -4.7558632 -0.40257406 4293729569
11.029724 -7.8486657 -1.7258108 4293729569
5.9631348 -5.1020112 -0.62090397 4293729569
5.9940186 -5.1485219 -1.2070367 4293729569
5.977356 -5.0329628 -0.65173149 4293729569
6.0022583 -5.0744681 -1.2358501 4293729569
6.0375671 -4.9849987 -0.68361974 4293729569
6.0674744 -5.0305057 -1.2707498 4293729569
9.662384 -6.7191024 -1.7276888 4293729569
9.4049072 -6.4876194 -1.7290535 4293729569
9.1654663 -6.2681684 -1.7304516 4293729569
8.9579773 -6.0667763 -1.7329011 4293729569
8.8034058 -5.8924732 -1.7394292 4293729569
8.6358643 -5.7141566 -1.7419453 4293729569
8.4983215 -5.5518913 -1.7465072 4293729569
8.3597412 -5.3906283 -1.7490714 4293729569
8.2021484 -5.2243443 -1.7466197 4293729569
8.0995483 -5.0831494 -1.7492414 4293729569
7.9839783 -4.9369416 -1.7478483 4293729569
15.191772 -7.73171 -1.6992176 4293729569
7.9023132 -4.8067865 -1.7505019 4293729569
15.119232 -7.5535393 -1.7147498 4293729569
7.8497009 -4.6896815 -1.7551935 4293729569
15.025696 -7.364337 -1.7272501 4293729569
7.7770386 -4.5665493 -1.7558675 4293729569
14.760315 -7.1148558 -1.7215667 4293729569
7.754364 -4.4625006 -1.7605979 4293729569
14.669769 -6.9346743 -1.728091 4293729569
7.7546387 -4.3674841 -1.7693558 4293729569
14.527252 -6.7344136 -1.7275546 4293729569
7.9168396 -4.3327217 -1.798295 4293729569
14.457733 -6.5662766 -1.7321131 4293729569
8.203949 -4.3401499 -1.8443637 4288085770
11.512085 -5.3873887 -1.4755971 4293729569
8.4870911 -4.3415756 -1.8884161 4288085770
11.608398 -5.299541 -1.4893894 4293729569
8.6062927 -4.2827554 -1.908287 4288085770
14.279022 -6.0729499 -1.7358217 4293729569
8.5626526 -4.1676936 -1.9029856 4288085770
14.293427 -5.9359746 -1.7394741 4293729569
8.4760132 -4.0385695 -1.8906415 4288085770
14.298798 -5.7949905 -1.7401152 4293729569
8.4663391 -3.9355681 -1.8863769 4288085770
14.37912 -5.677134 -1.7458277 4293729569
8.475647 -3.8385966 -1.8851311 4288085770
14.385559 -5.5391598 -1.7434766 4293729569
8.4829407 -3.7426255 -1.8818877 4288085770
14.487885 -5.4273505 -1.7472084 4293729569
8.5092468 -3.6516871 -1.8796599 4288085770
14.589203 -5.3155413 -1.749939 4293729569
8.5545349 -3.5667827 -1.8784509 4288085770
14.71051 -5.2077765 -1.7506845 4293729569
8.6098328 -3.4828947 -1.8782468 4288085770
14.830841 -5.0960121 -1.7504199 4293729569
8.6660767 -3.3990145 -1.8760428 4288085770
14.996185 -4.9973273 -1.7521956 4293729569
8.7354126 -3.3181553 -1.8748484 4288085770
15.225464 -4.9137564 -1.7570219 4293729569
8.8316345 -3.2443416 -1.8756771 4288085770
15.45575 -4.8281918 -1.7598429 4293729569
8.921936 -3.1695251 -1.8735018 4288085770
15.803986 -4.7678289 -1.7707481 4293729569
9.012207 -3.0917199 -1.8713171 4288085770
9.1344604 -3.0209591 -1.8711486 4288085770
9.2737122 -2.9532287 -1.8719902 4288085770
9.4379883 -2.8895411 -1.8738458 4288085770
9.5922241 -2.8208416 -1.8736875 4288085770
9.7434692 -2.7511432 -1.8705258 4288085770
9.9577332 -2.6915467 -1.8743999 4288085770
10.194946 -2.6339936 -1.8782835 4288085770
10.418182 -2.5724189 -1.8801537 4288085770
10.629456 -2.503834 -1.8770037 4288085770
10.875671 -2.4403124 -1.8758729 4288085770
14.765778 -3.0100267 -1.3669479 4293729569
11.177948 -2.3818839 -1.8787627 4288085770
14.682159 -2.8649933 -1.3225527 4293729569
11.456177 -2.3174219 -1.877634 4288085770
14.87149 -2.7634313 -1.2953119 4293729569
11.743439 -2.2519817 -1.8745036 4288085770
15.837616 -2.7742193 -1.3144829 4293729569
12.159668 -2.2007565 -1.8824298 4288085770
12.548889 -2.140497 -1.8843284 4288085770
12.967133 -2.0792899 -1.887229 4288085770
13.354431 -2.0100441 -1.882103 4288085770
13.894623 -1.9550567 -1.8890378 4288085770
14.337891 -1.8829184 -1.8839128 4288085770
14.878174 -1.8139529 -1.8828101 4288085770
15.462433 -1.7450709 -1.8817151 4288085770
15.802307 1.0220342 -1.8060582 4288085770
14.636536 1.0702453 -1.8008113 4288085770
13.620728 1.1131692 -1.7955942 4288085770
12.739899 1.156847 -1.7953904 4288085770
11.887115 1.1934524 -1.7872069 4288085770
11.191315 1.2327795 -1.788033 4288085770
10.550507 1.2699986 -1.7878709 4288085770
9.922699 1.3031774 -1.7817206 4288085770
9.3799133 1.3352046 -1.7795823 4288085770
8.8660889 1.3661728 -1.7764497 4288085770
8.3892822 1.3960667 -1.7713239 4288085770
15.365692 2.0987368 -1.7791979 4288085770
7.9794312 1.4288459 -1.772198 4288085770
14.464844 2.1174555 -1.7800584 4288085770
7.5846252 1.4575882 -1.7700844 4288085770
13.670044 2.1389771 -1.7819219 4288085770
7.2257996 1.4862638 -1.7679741 4288085770
12.89917 2.1564388 -1.7797995 4288085770
6.8959961 1.5158877 -1.7678647 4288085770
12.200317 2.1737633 -1.7776847 4288085770
6.5992126 1.5474544 -1.7697539 4288085770
11.578491 2.1929445 -1.7765729 4288085770
6.326355 1.5779748 -1.7716482 4288085770
10.954651 2.2071133 -1.7694745 4288085770
6.0545654 1.6064863 -1.7705481 4288085770
10.453827 2.2300673 -1.7703655 4288085770
5.7887268 1.6329818 -1.7684538 4288085770
9.9519653 2.2480106 -1.7662697 4288085770
5.5419312 1.6594396 -1.7653618 4288085770
9.5221558 2.2718287 -1.7671664 4288085770
5.335083 1.6898365 -1.7682636 4288085770
9.089325 2.2916412 -1.7630727 4288085770
5.1092834 1.7162552 -1.7651739 4288085770
8.6784668 2.308404 -1.7569897 4288085770
4.9324646 1.7475934 -1.7680769 4288085770
8.3326416 2.3330603 -1.7568927 4288085770
4.7446289 1.7749448 -1.7669883 4288085770
8.027832 2.36164 -1.7587898 4288085770
4.579834 1.8052573 -1.7688951 4288085770
7.7109985 2.3842354 -1.7567012 4288085770
4.42099 1.8355575 -1.7698021 4288085770
7.4252014 2.4087706 -1.7546105 4288085770
4.2461853 1.8608751 -1.7657211 4288085770
7.1283569 2.4293194 -1.7495296 4288085770
4.1273804 1.896111 -1.7716198 4288085770
6.9185181 2.463727 -1.7544217 4288085770
3.969574 1.9203959 -1.7675428 4288085770
6.6987305 2.4941435 -1.7553227 4288085770
3.8457336 1.9516282 -1.7684517 4288085770
6.4699097 2.5185661 -1.7522388 4288085770
3.7039185 1.9768829 -1.764374 4288085770
6.2570801 2.54496 -1.7491512 4288085770
3.5791016 2.0051107 -1.762291 4288085770
6.0762634 2.5763006 -1.7500544 4288085770
3.47229 2.0363111 -1.7632012 4288085770
5.9204712 2.6116009 -1.7529497 4288085770
3.3644714 2.0665102 -1.7631149 4288085770
5.7486267 2.6419191 -1.7518561 4288085770
3.2576294 2.0957031 -1.7610307 4288085770
5.579834 2.6712284 -1.7487657 4288085770
3.1618347 2.1258774 -1.7599452 4288085770
5.4349976 2.7044983 -1.748668 4288085770
3.0860291 2.1610231 -1.7628489 4288085770
5.2771912 2.7337837 -1.7445791 4288085770
3.0082397 2.1951675 -1.7637551 4288085770
5.1343994 2.7640419 -1.7414887 4288085770
2.9124146 2.2233343 -1.7596753 4288085770
5.0175476 2.8002586 -1.7413862 4288085770
2.8536072 2.2604504 -1.763576 4288085770
4.8997803 2.8344727 -1.7392883 4288085770
2.7828064 2.2935791 -1.7634857 4288085770
4.7969666 2.8716631 -1.7391844 4288085770
2.6949768 2.3217258 -1.7574067 4288085770
4.6941833 2.9088488 -1.7370808 4288085770
2.6322021 2.3558388 -1.7573144 4288085770
4.6103821 2.951004 -1.7379661 4288085770
2.5883789 2.3959236 -1.7602093 4288085770
4.5075684 2.986187 -1.7348676 4288085770
2.5255432 2.4300318 -1.7581177 4288085770
4.435791 3.0283194 -1.7357543 4288085770
2.4567566 2.460144 -1.7530355 4288085770
4.3519592 3.0674658 -1.7326477 4288085770
2.4399719 2.5081873 -1.7599123 4288085770
4.301178 3.1165619 -1.7345188 4288085770
2.3841553 2.5412798 -1.756824 4288085770
4.2354126 3.1596785 -1.7334034 4288085770
2.326355 2.5743713 -1.7517354 4288085770
4.1886597 3.2097635 -1.7342722 4288085770
2.3025818 2.6194172 -1.7546194 4288085770
4.1508789 3.2618341 -1.7361372 4288085770
2.2477417 2.6515007 -1.7485342 4288085770
4.092041 3.305934 -1.7330205 4288085770
2.230957 2.6975336 -1.7514162 4288085770
4.0523071 3.3559999 -1.7318897 4288085770
2.1981506 2.7375851 -1.7493124 4288085770
4.01651 3.4070578 -1.7307577 4288085770
2.1803894 2.783617 -1.7511947 4288085770
4.0027771 3.4680862 -1.7336016 4288085770
2.1746216 2.8346291 -1.754065 4288085770
3.9690247 3.5191364 -1.7304697 4288085770
2.1297913 2.8676872 -1.7459786 4288085770
3.9552002 3.5791578 -1.7313166 4288085770
2.11203 2.9137125 -1.7448609 4288085770
3.9414673 3.6391754 -1.7301636 4288085770
2.09021 2.9567385 -1.7407508 4288085770
3.9457397 3.7061663 -1.7319942 4288085770
2.0734253 3.0017557 -1.7376359 4288085770
3.9389648 3.7681704 -1.7308366 4288085770
2.0666504 3.0507603 -1.7365117 4288085770
3.9602661 3.8431301 -1.7336485 4288085770
2.0878906 3.1117249 -1.7413597 4288085770
3.957489 3.9061203 -1.730489 4288085770
2.0721436 3.1567364 -1.7362447 4288085770
3.9647217 3.9740973 -1.7293179 4288085770
2.0593262 3.2027378 -1.7301283 4288085770
3.9970398 4.0550337 -1.7311156 4288085770
2.0996094 3.2736731 -1.7369521 4288085770
4.0263062 4.1349707 -1.7309155 4288085770
15.930481 -0.79462242 -1.8407767 4288085770
14.729553 -0.82133913 -1.8378487 4288085770
13.676636 -0.84633398 -1.8369162 4288085770
12.743713 -0.86854696 -1.8409758 4288085770
11.841797 -0.88283777 -1.8370166 4288085770
11.057922 -0.89634275 -1.8380547 4288085770
10.359039 -0.90900564 -1.8410902 4288085770
9.6681213 -0.9156971 -1.8381114 4288085770
9.0272522 -0.91948891 -1.8341253 4288085770
15.86322 -1.5044804 -1.8684564 4288085770
8.431366 -0.92236233 -1.8311374 4288085770
14.596375 -1.4720664 -1.8673892 4288085770
7.8835144 -0.92332888 -1.8281438 4288085770
13.479584 -1.4419427 -1.8653257 4288085770
7.3996277 -0.92440748 -1.8291507 4288085770
12.50174 -1.4150743 -1.8672695 4288085770
6.9517822 -0.92555571 -1.8301573 4288085770
11.579926 -1.3853278 -1.8632059 4288085770
6.5178833 -0.92273569 -1.8281541 4288085770
10.769104 -1.3597836 -1.8631516 4288085770
6.098999 -0.91895008 -1.8251491 4288085770
10.020294 -1.3343616 -1.8620973 4288085770
5.7251587 -0.91624022 -1.8251457 4288085770
9.26651 -1.3019509 -1.8520262 4288085770
5.3652649 -0.91156149 -1.8241379 4288085770
8.5796814 -1.2696648 -1.8429549 4288085770
5.0274353 -0.90592623 -1.8221278 4288085770
7.9708252 -1.2425222 -1.8368959 4288085770
4.7145386 -0.90033245 -1.8231175 4288085770
7.4630127 -1.2215528 -1.8388505 4288085770
4.429657 -0.89579105 -1.8241098 4288085770
6.9501953 -1.1965904 -1.8337953 4288085770
4.1418152 -0.88824987 -1.8230944 4288085770
6.5253601 -1.1777773 -1.8367543 4288085770
3.8749695 -0.88074589 -1.8230793 4288085770
6.0925293 -1.1549611 -1.8347042 4288085770
3.6420898 -0.87530041 -1.8260691 4288085770
5.6647034 -1.1291666 -1.8276472 4288085770
3.4102478 -0.86785984 -1.8270535 4288085770
5.3048706 -1.1084857 -1.8276012 4288085770
3.1734009 -0.85841846 -1.8250337 4288085770
4.9710083 -1.0898504 -1.8285601 4288085770
2.9645386 -0.85102034 -1.8270187 4288085770
4.6441956 -1.0692348 -1.8275142 4288085770
2.7606812 -0.84163666 -1.8269987 4288085770
4.3563538 -1.0516877 -1.8284755 4288085770
2.5678406 -0.83227348 -1.8269784 4288085770
4.0605164 -1.0301356 -1.8254275 4288085770
2.4129639 -0.82796288 -1.8359702 4288085770
3.7976685 -1.0116405 -1.8253863 4288085770
2.2461243 -0.8196454 -1.8379526 4288085770
3.5548096 -0.99417782 -1.8273475 4288085770
2.0702515 -0.8093152 -1.8379304 4288085770
3.321991 -0.97773504 -1.8283105 4288085770
1.8554077 -0.78994656 -1.8228869 4288085770
3.0991516 -0.96031141 -1.830272 4288085770
1.7115479 -0.78166914 -1.8268692 4288085770
2.8973083 -0.94392633 -1.8322353 4288085770
1.5617065 -0.77138901 -1.8268468 4288085770
2.6784363 -0.923522 -1.8291898 4288085770
1.4118652 -0.75911331 -1.8248198 4288085770
2.4756165 -0.90414858 -1.8261459 4288085770
1.2770081 -0.74885941 -1.8257973 4288085770
2.2977905 -0.88781166 -1.8271093 4288085770
1.1331482 -0.73560095 -1.8217678 4288085770
2.1199646 -0.87047815 -1.8270705 4288085770
1.0173035 -0.72637606 -1.8257477 4288085770
1.9521484 -0.85316563 -1.8260312 4288085770
1.7752686 -0.83284378 -1.8219855 4288085770
1.629425 -0.81656885 -1.8229487 4288085770
1.4806213 -0.79929113 -1.8229096 4288085770
1.3397827 -0.78303051 -1.8218732 4288085770
1.2069397 -0.76678324 -1.8218367 4288085770
1.0700989 -0.74853516 -1.8187957 4288085770
0.95523071 -0.73331165 -1.8227611 4288085770
0.96755981 1.1587567 -1.7813222 4288085770
1.0897217 1.1745143 -1.7802808 4288085770
1.1988831 1.1862803 -1.7732503 4288085770
1.3440247 1.2050047 -1.7772009 4288085770
1.4881897 1.2217236 -1.7781565 4288085770
1.6353455 1.2384315 -1.7771122 4288085770
1.7865295 1.2541323 -1.7760699 4288085770
1.9416809 1.2688227 -1.7740302 4288085770
1.0194702 1.1396046 -1.7803853 4288085770
2.1118469 1.2864904 -1.7749827 4288085770
1.1486206 1.1503506 -1.7803559 4288085770
2.2940063 1.3041368 -1.7759345 4288085770
1.2827759 1.1610851 -1.7803266 4288085770
2.4691467 1.3187857 -1.7728939 4288085770
1.4319458 1.173799 -1.7832916 4288085770
2.6583252 1.3354139 -1.771848 4288085770
1.5720825 1.1835208 -1.7822645 4288085770
2.8624878 1.3520126 -1.7708015 4288085770
1.7212524 1.1922278 -1.7822397 4288085770
3.0736084 1.3685985 -1.7707551 4288085770
1.866394 1.2009325 -1.7782145 4288085770
3.3067932 1.3871469 -1.7717023 4288085770
2.0344849 1.2106051 -1.7791865 4288085770
3.5399475 1.403687 -1.7696548 4288085770
2.2006531 1.2192731 -1.7771606 4288085770
3.7961121 1.4211879 -1.769604 4288085770
2.3878174 1.2289124 -1.7791319 4288085770
4.0783081 1.4416437 -1.7715447 4288085770
2.5899658 1.2395244 -1.7821 4288085770
4.3664246 1.4600821 -1.7714908 4288085770
2.7610779 1.2441711 -1.7750838 4288085770
4.6616211 1.4765058 -1.7704408 4288085770
2.9872131 1.2547421 -1.7800512 4288085770
4.9637451 1.4929104 -1.767391 4288085770
3.1863708 1.2603455 -1.7770312 4288085770
5.3019409 1.511251 -1.7663343 4288085770
3.4244995 1.2688847 -1.7790036 4288085770
5.6560669 1.5285587 -1.7642801 4288085770
3.6586304 1.2754259 -1.7779796 4288085770
6.0652466 1.5497708 -1.7672141 4288085770
3.9127808 1.28193 -1.777956 4288085770
6.4924011 1.569943 -1.7671497 4288085770
4.1619263 1.2844338 -1.7739415 4288085770
6.9485779 1.5910616 -1.7680819 4288085770
4.4460754 1.2898808 -1.7739189 4288085770
7.4337463 1.6101217 -1.7680175 4288085770
4.7501831 1.2952938 -1.7758954 4288085770
7.9729004 1.6330795 -1.7689419 4288085770
5.037323 1.295723 -1.7708848 4288085770
8.5401001 1.6539817 -1.7688696 4288085770
5.3624573 1.2980871 -1.7698677 4288085770
9.1932678 1.6787291 -1.7737851 4288085770
5.7235718 1.3013887 -1.7708473 4288085770
9.879425 1.7014027 -1.7737036 4288085770
6.0927429 1.3016691 -1.7698328 4288085770
10.676605 1.7288761 -1.7796063 4288085770
6.5028381 1.3018756 -1.7708178 4288085770
11.500824 1.7532868 -1.780515 4288085770
6.9299622 1.3010492 -1.7718041 4288085770
12.488983 1.7853994 -1.7893984 4288085770
7.3861084 1.2991648 -1.7717919 4288085770
13.523163 1.8124075 -1.7912922 4288085770
7.8842163 1.2952018 -1.772783 4288085770
14.536346 1.8284264 -1.7812133 4288085770
8.4153442 1.290175 -1.7737753 4288085770
15.850494 1.858902 -1.786087 4288085770
8.9954529 1.2840533 -1.7747686 4288085770
9.6335449 1.275825 -1.7777643 4288085770
10.327667 1.2664924 -1.7817602 4288085770
11.094757 1.2540178 -1.7857606 4288085770
11.884857 1.2354908 -1.7857747 4288085770
12.773956 1.2157793 -1.7887876 4288085770
13.768036 1.1928673 -1.7928035 4288085770
14.799103 1.1608706 -1.7908409 4288085770
3.3768616 -4.8091192 -0.035981178 4293729569
3.3639526 -4.8400106 -0.074061394 4293729569
3.3640137 -4.8769217 -0.11415529 4293729569
3.3500671 -4.9038067 -0.15422583 4293729569
3.3910522 -4.9647932 -0.19637704 4293729569
6.8989258 -7.6232672 -0.78172684 4293729569
6.8330994 -7.6029968 -0.84468722 4293729569
6.7393188 -7.5586796 -0.90459013 4293729569
6.7264099 -7.567503 -0.97161913 4293729569
6.7105408 -7.5713243 -1.0366361 4293729569
6.6107788 -7.5140028 -1.093508 4293729569
6.6328735 -7.5378861 -1.1635723 4293729569
6.6339722 -7.5437412 -1.2285943 4293729569
6.6210938 -7.5375671 -1.2945871 4293729569
6.6192322 -7.5344138 -1.3605874 4293729569
6.8031616 -7.597188 -0.76773834 4293729569
6.6044006 -7.5192375 -1.4255588 4293729569
6.7873535 -7.5750132 -0.83169317 4293729569
6.6195068 -7.5231152 -1.4925759 4293729569
6.6326294 -7.5209889 -1.5595784 4293729569
6.6497498 -7.5188723 -1.625581 4293729569
6.9216614 -7.6138082 -1.0368085 4293729569
6.6698914 -7.5157571 -1.6935811 4293729569
6.9358215 -7.5986886 -1.1017802 4293729569
6.6191406 -7.4595332 -1.749455 4293729569
7.0258484 -7.6327024 -1.172869 4293729569
6.3367004 -7.2379522 -1.7659347 4293729569
7.1169128 -7.6647124 -1.2459528 4293729569
6.0432434 -7.0073624 -1.7773933 4293729569
7.1889954 -7.6796961 -1.3149962 4293729569
5.731842 -6.7627559 -1.780818 4293729569
7.2641296 -7.6926827 -1.3850353 4293729569
5.4164429 -6.514154 -1.7792327 4293729569
7.3442078 -7.705677 -1.4560742 4293729569
5.1390076 -6.2916203 -1.7797093 4293729569
7.4542847 -7.7357249 -1.5291538 4293729569
4.8685608 -6.0721054 -1.7781928 4293729569
3.3867798 -4.9599524 -1.0535429 4293729569
4.5711365 -5.8345613 -1.7666333 4293729569
3.3520203 -4.903811 -1.0874152 4293729569
4.2927246 -5.6100521 -1.756104 4293729569
3.3392029 -4.8607121 -1.1213186 4293729569
4.0252686 -5.3935714 -1.7425942 4293729569
3.3424377 -4.8266401 -1.1572433 4293729569
3.346344 -4.9025016 -1.6404283 4293729569
3.351593 -4.7945771 -1.1941731 4293729569
3.311554 -4.8423715 -1.669291 4293729569
3.3727722 -4.7685375 -1.2311172 4293729569
3.3307495 -4.8153257 -1.7072327 4293729569
3.4019165 -4.7455139 -1.2680688 4293729569
3.2910156 -4.7491989 -1.7310808 4293729569
3.447113 -4.731514 -1.3080418 4293729569
3.1963501 -4.6459966 -1.7418406 4293729569
3.5641785 -4.7596292 -1.3581154 4293729569
3.0676575 -4.520752 -1.7425478 4293729569
5.7067871 -6.0518613 -1.7552133 4293729569
2.9769897 -4.4195638 -1.7503119 4293729569
5.4623108 -5.839407 -1.7497129 4293729569
2.8783264 -4.3133698 -1.7540641 4293729569
5.2328186 -5.6369829 -1.7432365 4293729569
2.7696838 -4.2011681 -1.7528014 4293729569
5.0533142 -5.4686408 -1.7428408 4293729569
2.7329712 -4.1320682 -1.7676425 4293729569
4.8867188 -5.3073254 -1.7424626 4293729569
2.8110657 -4.1341276 -1.8096542 4293729569
4.736145 -5.1570401 -1.74211 4293729569
2.8812256 -4.1281757 -1.8496463 4288085770
4.6165161 -5.0258036 -1.746803 4293729569
2.9613342 -4.1262417 -1.8906486 4288085770
4.4829102 -4.8855543 -1.7454746 4293729569
2.9156189 -4.0471392 -1.8994658 4288085770
4.3792725 -4.7643528 -1.7481918 4293729569
2.8368835 -3.9509981 -1.8972418 4288085770
4.2816467 -4.6471634 -1.7509179 4293729569
2.7452393 -3.8458416 -1.8909962 4288085770
4.1809998 -4.5289774 -1.7496424 4293729569
2.6256104 -3.7266541 -1.8747168 4288085770
4.0973206 -4.4208183 -1.7513905 4293729569
2.5729065 -3.6445563 -1.8755264 4288085770
4.0256348 -4.3196812 -1.7531552 4293729569
2.5131836 -3.5604551 -1.8723311 4288085770
3.9649658 -4.2255635 -1.7559369 4293729569
2.4744568 -3.4863818 -1.8741596 4288085770
3.9831848 -4.1725636 -1.7738173 4293729569
2.4307251 -3.4113064 -1.8729861 4288085770
4.1123047 -4.1767268 -1.8138359 4293729569
2.3799744 -3.3322246 -1.8688028 4288085770
4.247406 -4.1819 -1.854857 4288085770
2.3512573 -3.2641759 -1.8686459 4288085770
4.3515625 -4.1690321 -1.8878348 4288085770
2.3164978 -3.1941197 -1.8664842 4288085770
4.3778076 -4.1150541 -1.9027133 4288085770
2.2967529 -3.1310863 -1.8673394 4288085770
4.2971191 -4.0079246 -1.894464 4288085770
2.2709961 -3.0660484 -1.86519 4288085770
4.2394409 -3.9128332 -1.888243 4288085770
2.2622375 -3.008034 -1.8670573 4288085770
4.1427612 -3.800689 -1.8729813 4288085770
2.2464905 -2.9480131 -1.8659201 4288085770
4.1060486 -3.7176323 -1.8697898 4288085770
2.2327271 -2.8889959 -1.864785 4288085770
4.0903015 -3.6446087 -1.8696222 4288085770
2.2329407 -2.8359983 -1.8666644 4288085770
4.0756226 -3.5715904 -1.8684552 4288085770
2.2301941 -2.781003 -1.8655393 4288085770
4.0678711 -3.5025854 -1.8672972 4288085770
2.2344055 -2.7310152 -1.8664262 4288085770
4.0551147 -3.4305751 -1.8641326 4288085770
2.2376404 -2.6780314 -1.8653059 4288085770
4.056366 -3.3655875 -1.8629844 4288085770
2.2348633 -2.6240401 -1.8621831 4288085770
4.0626526 -3.3016071 -1.8628392 4288085770
2.2460938 -2.5760698 -1.8620749 4288085770
4.0708313 -3.2406359 -1.8607016 4288085770
2.2713013 -2.5331187 -1.8649793 4288085770
4.085083 -3.1806734 -1.859566 4288085770
2.2905273 -2.4871633 -1.864876 4288085770
4.1063538 -3.1227248 -1.8584354 4288085770
2.3077393 -2.4412074 -1.8637731 4288085770
4.1455383 -3.0728047 -1.8603246 4288085770
2.3259583 -2.3942547 -1.8616676 4288085770
4.1777649 -3.0188768 -1.8592041 4288085770
2.3711243 -2.3593376 -1.8665915 4288085770
4.2100525 -2.9639492 -1.8580806 4288085770
2.3813477 -2.3093801 -1.8604789 4288085770
4.2512512 -2.9140396 -1.8569698 4288085770
2.4095459 -2.2664471 -1.8583837 4288085770
4.3174438 -2.8711693 -1.8598771 4288085770
2.4577637 -2.23054 -1.8613052 4288085770
4.3536987 -2.8182564 -1.8557591 4288085770
2.4969788 -2.1906269 -1.8602173 4288085770
4.4078979 -2.7713754 -1.8536565 4288085770
2.5321655 -2.1497068 -1.8581269 4288085770
4.4920959 -2.7335372 -1.8575759 4288085770
2.5763855 -2.1108038 -1.8570421 4288085770
4.5552979 -2.6876736 -1.8554761 4288085770
2.6365356 -2.0779238 -1.8589718 4288085770
4.6225281 -2.6428163 -1.8533788 4288085770
2.6687622 -2.0340078 -1.8528743 4288085770
4.6977539 -2.5999751 -1.8512864 4288085770
2.736969 -2.0021429 -1.8548071 4288085770
4.8009338 -2.5651774 -1.8542142 4288085770
2.8021545 -1.9682755 -1.8557348 4288085770
4.8861084 -2.5223587 -1.8511229 4288085770
2.8633728 -1.9324064 -1.8536577 4288085770
4.9953308 -2.4865761 -1.8520486 4288085770
2.9315491 -1.8985486 -1.8525858 4288085770
5.09552 -2.4477849 -1.8499675 4288085770
2.9967346 -1.8636889 -1.8505116 4288085770
5.2227173 -2.4150355 -1.8519018 4288085770
3.0789185 -1.8318567 -1.850445 4288085770
5.3539124 -2.3812973 -1.852834 4288085770
3.1510925 -1.7960119 -1.847369 4288085770
5.4811401 -2.3465548 -1.8517632 4288085770
3.2502747 -1.7682061 -1.8503129 4288085770
5.6113281 -2.3108213 -1.8496909 4288085770
3.3464966 -1.7384005 -1.8502519 4288085770
5.740509 -2.2720933 -1.8446116 4288085770
3.4496765 -1.7086077 -1.8511915 4288085770
5.9016724 -2.2414162 -1.844553 4288085770
3.5598145 -1.6788278 -1.8521318 4288085770
6.0778809 -2.212765 -1.8454995 4288085770
3.651001 -1.6450219 -1.8480618 4288085770
6.2510681 -2.1801164 -1.843437 4288085770
3.7542419 -1.6132383 -1.8449967 4288085770
6.4402161 -2.1514938 -1.843385 4288085770
3.8713684 -1.5834775 -1.8439379 4288085770
6.6564026 -2.1259208 -1.8443415 4288085770
4.0155945 -1.5577607 -1.8458893 4288085770
6.9075928 -2.1034083 -1.8493066 4288085770
4.1157837 -1.5219831 -1.837816 4288085770
7.1387634 -2.0758667 -1.8492599 4288085770
4.2529297 -1.4922619 -1.8367581 4288085770
7.3889465 -2.050364 -1.8492186 4288085770
4.401123 -1.4645615 -1.8357058 4288085770
7.6661072 -2.026912 -1.8501837 4288085770
4.5423279 -1.4328532 -1.8316438 4288085770
7.9562988 -2.0014863 -1.8501453 4288085770
4.7245178 -1.4082098 -1.8346004 4288085770
8.2744446 -1.9791117 -1.8521159 4288085770
4.9056702 -1.3815713 -1.8345528 4288085770
8.6226196 -1.9597931 -1.8550949 4288085770
5.0878601 -1.3529401 -1.8325005 4288085770
8.9997864 -1.9395323 -1.8570738 4288085770
5.2860413 -1.3253379 -1.8314519 4288085770
9.4109497 -1.9213376 -1.8600593 4288085770
5.5082092 -1.2987771 -1.832407 4288085770
9.8421021 -1.9021826 -1.8630443 4288085770
5.7493896 -1.2742515 -1.834368 4288085770
10.306305 -1.8830924 -1.8650312 4288085770
5.9875793 -1.2457242 -1.8343196 4288085770
10.801422 -1.8630691 -1.8650184 4288085770
6.2607422 -1.2212625 -1.8362832 4288085770
11.355591 -1.8471546 -1.8680186 4288085770
6.5529175 -1.1958356 -1.8382452 4288085770
11.925751 -1.8262792 -1.8670087 4288085770
6.8380737 -1.1654062 -1.8361959 4288085770
12.568909 -1.8095436 -1.8680129 4288085770
7.1682434 -1.1400557 -1.8381615 4288085770
13.258087 -1.7919021 -1.8670177 4288085770
7.5204468 -1.1137471 -1.8401258 4288085770
14.071228 -1.7794909 -1.8710425 4288085770
7.8676453 -1.0834408 -1.837081 4288085770
14.872406 -1.760077 -1.8670511 4288085770
8.2548218 -1.0532088 -1.8360386 4288085770
15.815552 -1.7459311 -1.8670802 4288085770
8.7000122 -1.0260801 -1.8390074 4288085770
9.1641846 -0.99699688 -1.8389733 4288085770
9.6723633 -0.9659996 -1.8389373 4288085770
10.244568 -0.93612099 -1.8419082 4288085770
10.815735 -0.9012537 -1.8388679 4288085770
11.468964 -0.86853981 -1.8388376 4288085770
12.189148 -0.83196306 -1.836803 4288085770
12.984344 -0.79353046 -1.8357692 4288085770
13.87854 -0.75528955 -1.8357427 4288085770
14.854767 -0.7122159 -1.8327103 4288085770
15.742279 1.9950185 -1.7828317 4288085770
15.162567 2.0711622 -1.7845201 4288085770
14.583801 2.1422939 -1.7822196 4288085770
14.035065 2.2063627 -1.7779429 4288085770
13.597321 2.2802267 -1.7806709 4288085770
13.134583 2.3451262 -1.7774127 4288085770
12.696838 2.4049759 -1.7731724 4288085770
12.297089 2.4667492 -1.7689371 4288085770
11.933319 2.5274553 -1.765713 4288085770
11.568542 2.584156 -1.7594974 4288085770
11.298798 2.6506844 -1.7602832 4288085770
10.991028 2.7102757 -1.7560756 4288085770
10.720306 2.7717991 -1.7528713 4288085770
10.458527 2.8312979 -1.7486746 4288085770
10.22879 2.894742 -1.7464769 4288085770
10.050049 2.9640942 -1.7482784 4288085770
9.8212891 3.0225239 -1.7420924 4288085770
9.6725769 3.091815 -1.7429011 4288085770
9.5168152 3.1601171 -1.7427106 4288085770
9.4071045 3.2363338 -1.7455139 4288085770
9.2703857 3.306592 -1.7433233 4288085770
9.1696472 3.3827906 -1.7451284 4288085770
9.0478821 3.4510164 -1.7419465 4288085770
8.9941711 3.5371256 -1.7457407 4288085770
8.918457 3.6152706 -1.7465479 4288085770
8.8397522 3.694417 -1.7453518 4288085770
8.8030396 3.7844906 -1.7481411 4288085770
8.761322 3.8705673 -1.7479384 4288085770
8.719635 3.9576426 -1.7477329 4288085770
8.6659546 4.0417356 -1.7445316 4288085770
8.6542358 4.1367531 -1.7443159 4288085770
8.673584 4.2407169 -1.7480879 4288085770
8.6488953 4.3337507 -1.7438736 4288085770
8.657196 4.4347248 -1.7426498 4288085770
8.6705322 4.5386896 -1.74142 4288085770
8.6908875 4.6456394 -1.7391853 4288085770
8.722229 4.7575665 -1.7369423 4288085770
8.7895813 4.8824291 -1.737679 4288085770
8.8499451 5.0073013 -1.7364135 4288085770
8.9043274 5.129179 -1.7331536 4288085770
8.9937134 5.2659941 -1.7318685 4288085770
9.130188 5.4227238 -1.7345498 4288085770
9.2075806 5.5575533 -1.7282662 4288085770
9.3430176 5.7172785 -1.727941 4288085770
9.4984741 5.8869638 -1.727598 4288085770
9.6649475 6.0636244 -1.7262423 4288085770
9.878479 6.262207 -1.7298486 4288085770
10.091949 6.4647779 -1.7294457 4288085770
10.33255 6.6812983 -1.7300179 4288085770
10.556091 6.8918438 -1.7266002 4288085770
10.828674 7.1302938 -1.7241306 4288085770
11.139313 7.3886738 -1.7246263 4288085770
11.458984 7.6570292 -1.7211013 4288085770
11.832703 7.9542828 -1.7205243 4288085770
15.201019 -0.31833649 -1.8245196 4288085770
13.871124 -0.33171082 -1.822082 4288085770
12.719269 -0.341434 -1.8216987 4288085770
11.700348 -0.34942293 -1.8203588 4288085770
10.789459 -0.35462427 -1.8200502 4288085770
9.9965515 -0.35905504 -1.8217824 4288085770
9.2307129 -0.36054945 -1.8185165 4288085770
8.5128479 -0.3591485 -1.8112612 4288085770
14.530426 -0.60706568 -1.8229675 4288085770
7.9129639 -0.35796928 -1.8100481 4288085770
13.308563 -0.58864546 -1.8244941 4288085770
7.368103 -0.35689211 -1.8108544 4288085770
12.209717 -0.56947374 -1.8240631 4288085770
6.8612061 -0.35489368 -1.8106725 4288085770
11.214905 -0.55150986 -1.8226709 4288085770
6.3863525 -0.35096121 -1.8094974 4288085770
10.350037 -0.53479862 -1.8233283 4288085770
5.9614563 -0.34712362 -1.8103402 4288085770
9.54422 -0.51621485 -1.8200021 4288085770
5.5405884 -0.34230423 -1.8061821 4288085770
8.8193665 -0.49879074 -1.8167071 4288085770
5.1807556 -0.33759308 -1.8080459 4288085770
8.1695251 -0.48251343 -1.8144412 4288085770
4.8438721 -0.33192825 -1.8089151 4288085770
7.5836792 -0.46736097 -1.8132007 4288085770
4.5310059 -0.32731056 -1.8107958 4288085770
7.026825 -0.45027399 -1.807966 4288085770
4.2211609 -0.31970453 -1.8096704 4288085770
6.5589905 -0.43634844 -1.8097701 4288085770
3.9502869 -0.3141675 -1.8125639 4288085770
6.0961609 -0.42144108 -1.8075736 4288085770
3.6824341 -0.30764437 -1.8114555 4288085770
5.6813354 -0.40662479 -1.8073943 4288085770
3.4355774 -0.30015707 -1.8133533 4288085770
5.3114624 -0.39289379 -1.8092339 4288085770
3.1966858 -0.29269028 -1.8132534 4288085770
4.9666138 -0.38021231 -1.8110843 4288085770
2.9648438 -0.2842412 -1.8111534 4288085770
4.6447449 -0.36657619 -1.8129408 4288085770
2.7589722 -0.27683353 -1.8130658 4288085770
4.3149109 -0.35193682 -1.8087921 4288085770
2.5511169 -0.26743317 -1.8109725 4288085770
4.0320435 -0.33838034 -1.8096628 4288085770
2.3632812 -0.26006413 -1.8118906 4288085770
3.7602234 -0.32484627 -1.8095369 4288085770
2.1934204 -0.25172615 -1.8148129 4288085770
3.5063477 -0.31134987 -1.809418 4288085770
2.0085449 -0.24237537 -1.8107278 4288085770
3.2635193 -0.29787636 -1.8083026 4288085770
1.8566895 -0.23407173 -1.8146572 4288085770
3.0426636 -0.28544235 -1.8091974 4288085770
1.6958618 -0.22476149 -1.8135803 4288085770
2.8278198 -0.27202511 -1.8080924 4288085770
1.5449829 -0.21447086 -1.8125052 4288085770
2.6329651 -0.25864029 -1.8099945 4288085770
1.4191284 -0.2062149 -1.8174436 4288085770
2.4341125 -0.2452569 -1.8078952 4288085770
1.2782593 -0.19694519 -1.8163743 4288085770
2.2522888 -0.23190308 -1.8078017 4288085770
1.1494141 -0.18669415 -1.8173072 4288085770
2.0864258 -0.21957588 -1.8097167 4288085770
1.0155945 -0.17644167 -1.8142378 4288085770
1.9226074 -0.20625687 -1.8096299 4288085770
1.7767334 -0.19496822 -1.811554 4288085770
1.6098633 -0.18065834 -1.805464 4288085770
1.4700317 -0.1673851 -1.806386 4288085770
1.3371887 -0.15512753 -1.8063126 4288085770
1.2143555 -0.14188242 -1.8092406 4288085770
1.0874939 -0.12864208 -1.8071668 4288085770
0.97363281 -0.11642075 -1.8081005 4288085770
0.97229004 1.8377442 -1.7689018 4288085770
1.0804443 1.8585129 -1.7648964 4288085770
1.193634 1.8812766 -1.7628877 4288085770
1.3318176 1.9100037 -1.766875 4288085770
1.4539795 1.9327478 -1.7638698 4288085770
1.5931702 1.9584594 -1.763871 4288085770
1.7373657 1.9851651 -1.7638617 4288085770
1.8825378 2.0098667 -1.7628577 4288085770
0.98510742 1.7726665 -1.7690728 4288085770
2.0487061 2.0395355 -1.7658491 4288085770
1.1112671 1.7924137 -1.7710729 4288085770
2.2018738 2.0642166 -1.7628474 4288085770
1.2204285 1.8051791 -1.7670825 4288085770
2.3570557 2.086894 -1.7598505 4288085770
1.3546143 1.824913 -1.7700851 4288085770
2.5432739 2.1175222 -1.7618465 4288085770
1.4777527 1.8396521 -1.7660952 4288085770
2.7604675 2.1550999 -1.7698376 4288085770
1.6128845 1.8553758 -1.7661076 4288085770
2.9386292 2.1787281 -1.7658467 4288085770
1.7640686 1.875072 -1.768116 4288085770
3.1468201 2.2093086 -1.7668505 4288085770
1.90625 1.890779 -1.7671304 4288085770
3.3500061 2.2358923 -1.7648609 4288085770
2.0643921 1.9084597 -1.7681456 4288085770
3.5601807 2.2624607 -1.7618737 4288085770
2.2315674 1.9271245 -1.7701616 4288085770
3.7963562 2.2939844 -1.7628846 4288085770
2.4227295 1.9497523 -1.7771773 4288085770
4.0475464 2.3254766 -1.7629004 4288085770
2.5508728 1.9544659 -1.7662108 4288085770
4.303772 2.3569603 -1.7629178 4288085770
2.7620544 1.9790564 -1.7742283 4288085770
4.5779724 2.3894081 -1.7639389 4288085770
2.9302063 1.9907074 -1.77126 4288085770
4.8371277 2.4158754 -1.7599688 4288085770
3.1113281 2.0023298 -1.7672963 4288085770
5.1353149 2.4482737 -1.7589977 4288085770
3.319519 2.0189123 -1.7693305 4288085770
5.4695129 2.4856052 -1.7620285 4288085770
3.5306702 2.0344877 -1.7703674 4288085770
5.8027039 2.5189342 -1.7620676 4288085770
3.744812 2.0470533 -1.7704127 4288085770
6.1379395 2.5502529 -1.7591109 4288085770
3.9729614 2.0615921 -1.770458 4288085770
6.5171204 2.5864916 -1.7601588 4288085770
4.2171326 2.0761003 -1.7715082 4288085770
6.9112854 2.6216993 -1.7602136 4288085770
4.4462891 2.08463 -1.7685671 4288085770
7.3285217 2.6588593 -1.7592716 4288085770
4.7044373 2.0961094 -1.7686291 4288085770
7.7526855 2.690999 -1.7563431 4288085770
4.9615784 2.1055861 -1.7666948 4288085770
8.2219238 2.7280521 -1.7544186 4288085770
5.2427063 2.1160173 -1.7667663 4288085770
8.7250977 2.7670422 -1.7545013 4288085770
5.5368652 2.1264267 -1.7678421 4288085770
9.2773438 2.8099384 -1.7565911 4288085770
5.8580627 2.1367826 -1.7689269 4288085770
9.8805542 2.8547297 -1.757694 4288085770
6.1841736 2.1461267 -1.7700157 4288085770
10.516754 2.8994589 -1.7598081 4288085770
6.5303345 2.1544323 -1.7711134 4288085770
11.22998 2.9510393 -1.763932 4288085770
6.8904419 2.1607084 -1.7722199 4288085770
11.985229 3.0005302 -1.7660747 4288085770
7.2445984 2.1619892 -1.769335 4288085770
12.743408 3.0420036 -1.7632358 4288085770
7.6447449 2.1661901 -1.7714593 4288085770
13.676697 3.105154 -1.7714067 4288085770
8.026886 2.1634121 -1.7675929 4288085770
14.622925 3.1562614 -1.772609 4288085770
8.5149841 2.1714468 -1.7747378 4288085770
15.803192 3.2339354 -1.7878299 4288085770
8.9631042 2.1685448 -1.7738931 4288085770
9.4682312 2.1685362 -1.777061 4288085770
10.005371 2.1664667 -1.7812436 4288085770
10.524475 2.1554184 -1.7784402 4288085770
11.128601 2.1492176 -1.7836535 4288085770
11.773682 2.1399317 -1.7878878 4288085770
12.472809 2.126543 -1.7931483 4288085770
13.180908 2.1081276 -1.7954223 4288085770
13.890991 2.080699 -1.7937167 4288085770
14.633026 2.047205 -1.7910349 4288085770
15.483093 2.0145063 -1.7933865 4288085770
11.589264 -5.137711 -0.20762658 4293729569
11.514221 -5.2285094 -0.23379731 4293729569
11.525085 -5.3494749 -0.26206136 4293729569
15.799988 -7.7483473 -0.5836165 4293729569
15.506042 -7.7766714 -0.62658024 4293729569
15.035248 -7.7276525 -0.66431975 4293729569
14.862213 -7.7982073 -0.71241379 4293729569
6.0204773 -4.9485459 -0.28739476 4293729569
6.0513 -4.9833727 -0.84547949 4293729569
5.970459 -4.9913583 -0.32946992 4293729569
6.0003052 -5.0261889 -0.88555431 4293729569
5.9544983 -5.0502396 -0.37159038 4293729569
5.9753113 -5.0820498 -0.92866492 4293729569
5.9724731 -5.1251793 -0.41775584 4293729569
5.9992676 -5.1639948 -0.97784829 4293729569
9.7408447 -7.6638279 -1.7424166 4293729569
9.1074829 -7.3875809 -1.7366161 4293729569
8.5021667 -7.1173916 -1.7298381 4293729569
8.0057068 -6.9023976 -1.7332137 4293729569
7.5622253 -6.711503 -1.7396581 4293729569
7.1437073 -6.5276613 -1.7451265 4293729569
6.762146 -6.3598871 -1.752641 4293729569
6.4066162 -6.2011657 -1.7601831 4293729569
6.0290833 -6.0254145 -1.7616823 4293729569
5.6725464 -5.8557072 -1.7622013 4293729569
5.3100281 -5.6779957 -1.7587011 4293729569
4.9704895 -5.5103283 -1.7562304 4293729569
8.3554688 -7.5741816 -1.7217312 4293729569
4.6868896 -5.3707604 -1.7598376 4293729569
7.8631287 -7.314187 -1.729012 4293729569
4.3903198 -5.2201781 -1.7574174 4293729569
7.4006958 -7.0672512 -1.7373309 4293729569
4.1167297 -5.0806384 -1.7570283 4293729569
6.9922791 -6.8484197 -1.746727 4293729569
3.8431396 -4.9371023 -1.7546308 4293729569
6.6048279 -6.6376324 -1.7551472 4293729569
3.4657288 -4.7224188 -1.7250478 4293729569
6.2513428 -6.4429059 -1.766613 4293729569
3.3279724 -4.6581059 -1.7448637 4293729569
5.895874 -6.2431889 -1.7720678 4293729569
3.1263123 -4.5517015 -1.7485693 4293729569
3.5300293 -4.7522478 -1.4151204 4293729569
2.9685669 -4.4683666 -1.7603383 4293729569
3.479187 -4.7360649 -1.4550664 4293729569
2.7879028 -4.3690023 -1.7640653 4293729569
3.4622803 -4.7399368 -1.5010662 4293729569
2.6221924 -4.2756672 -1.7688105 4293729569
3.4404297 -4.7367992 -1.5460489 4293729569
2.4345398 -4.1663036 -1.7665145 4293729569
3.4195557 -4.7346668 -1.5900342 4293729569
2.3407898 -4.1160784 -1.7863746 4293729569
3.4216614 -4.7435722 -1.6380506 4293729569
2.3218994 -4.1139617 -1.8253617 4288085770
3.4057617 -4.7394481 -1.683033 4293729569
2.2940369 -4.1028314 -1.8623259 4288085770
3.375885 -4.7243047 -1.7239873 4293729569
2.2662048 -4.0907044 -1.8972883 4288085770
3.2511902 -4.6460195 -1.7427769 4293729569
2.1754456 -4.0354948 -1.9131389 4288085770
3.0705566 -4.5286565 -1.7464652 4293729569
2.0067749 -3.9251816 -1.9048469 4288085770
2.908905 -4.4213276 -1.7521813 4293729569
1.8521118 -3.8228931 -1.898577 4288085770
2.7681885 -4.326035 -1.7599299 4293729569
1.7084351 -3.7266257 -1.8923235 4288085770
2.6185608 -4.2237334 -1.7636607 4293729569
1.5647583 -3.6283627 -1.8840656 4288085770
2.4738464 -4.1224451 -1.7663953 4293729569
1.4460449 -3.545136 -1.8818476 4288085770
2.4660034 -4.1083541 -1.8033588 4293729569
1.3422852 -3.4699342 -1.882652 4288085770
2.4891052 -4.1123099 -1.8473701 4288085770
1.2335815 -3.3907299 -1.879446 4288085770
2.5032654 -4.108252 -1.8893614 4288085770
1.1369019 -3.3175449 -1.8782566 4288085770
2.424469 -4.0430694 -1.9041941 4288085770
1.052124 -3.2523763 -1.8810885 4288085770
2.2988281 -3.9468262 -1.9029455 4288085770
0.95343018 -3.1751962 -1.8758898 4288085770
2.1551514 -3.8385615 -1.8956659 4288085770
2.0045166 -3.7242937 -1.8833716 4288085770
1.882843 -3.6270671 -1.8781226 4288085770
1.7791443 -3.5408716 -1.8759029 4288085770
1.694397 -3.4657047 -1.8777127 4288085770
1.6016846 -3.3855324 -1.8745093 4288085770
1.5209656 -3.3113768 -1.8743227 4288085770
1.4372559 -3.2352231 -1.8711309 4288085770
1.3645325 -3.1650863 -1.8699553 4288085770
1.3087769 -3.1039748 -1.8728039 4288085770
1.2470093 -3.0398588 -1.8726449 4288085770
1.2052612 -2.9867702 -1.8775148 4288085770
1.1464844 -2.9216645 -1.8753548 4288085770
1.0867615 -2.8565567 -1.8721938 4288085770
1.0469971 -2.8034799 -1.8740652 4288085770
1.0062256 -2.7494054 -1.8739338 4288085770
0.96749878 -2.6953337 -1.8738031 4288085770
0.94418335 -1.6315041 -1.8573768 4288085770
0.97235107 -1.6025691 -1.8563166 4288085770
1.0145264 -1.5786567 -1.8572707 4288085770
1.0527344 -1.5527396 -1.8572195 4288085770
1.0788879 -1.5228124 -1.8511565 4288085770
1.1141052 -1.4958935 -1.8491025 4288085770
1.1692505 -1.4750066 -1.8510656 4288085770
1.2134399 -1.4491057 -1.8490157 4288085770
1.2686157 -1.4272189 -1.8499765 4288085770
1.3007812 -1.3983068 -1.8429172 4288085770
1.3450012 -1.3724122 -1.8378665 4288085770
1.4111328 -1.3525462 -1.8398345 4288085770
1.4763184 -1.3316808 -1.8407996 4288085770
1.5344849 -1.3088098 -1.8377588 4288085770
1.6126709 -1.2899685 -1.839731 4288085770
1.6878357 -1.270124 -1.8407001 4288085770
1.7509766 -1.2462673 -1.8356583 4288085770
1.835144 -1.2274394 -1.8366315 4288085770
1.9173279 -1.2076139 -1.8356018 4288085770
2.0035095 -1.1877947 -1.834573 4288085770
0.95404053 -0.95170069 -1.8328326 4288085770
2.0976562 -1.1699891 -1.8345504 4288085770
1.0202026 -0.93284559 -1.8308027 4288085770
2.1968384 -1.1511936 -1.8345263 4288085770
1.1073608 -0.918015 -1.8357856 4288085770
2.3039856 -1.1344118 -1.8355081 4288085770
1.1925049 -0.90218687 -1.8377659 4288085770
2.4061584 -1.1156259 -1.8344846 4288085770
1.2677002 -0.88334799 -1.8357372 4288085770
2.5103149 -1.0958476 -1.831459 4288085770
1.3538208 -0.86652613 -1.8357155 4288085770
2.6284485 -1.0790925 -1.8304429 4288085770
1.428009 -0.84669304 -1.8306847 4288085770
2.7566528 -1.0623531 -1.8314288 4288085770
1.5271606 -0.83089352 -1.8326676 4288085770
2.9237976 -1.0526729 -1.8404369 4288085770
1.6093445 -0.81207275 -1.82864 4288085770
3.0579834 -1.0349493 -1.8394215 4288085770
1.727478 -0.79830456 -1.8336308 4288085770
3.1881409 -1.0162282 -1.8344026 4288085770
1.8176575 -0.77850199 -1.8286026 4288085770
3.34729 -1.0005507 -1.8353961 4288085770
1.9288025 -0.76273346 -1.8275874 4288085770
3.5064087 -0.98388004 -1.8333874 4288085770
2.0440063 -0.74597025 -1.82757 4288085770
3.6645813 -0.96620941 -1.8303757 4288085770
2.1721497 -0.73022985 -1.828558 4288085770
3.8427429 -0.95057487 -1.8293724 4288085770
2.3372803 -0.71954536 -1.8385642 4288085770
4.0379333 -0.93497086 -1.8293722 4288085770
2.4674377 -0.70281649 -1.8365495 4288085770
4.2470703 -0.92139578 -1.8293784 4288085770
2.5765991 -0.6830616 -1.8275244 4288085770
4.459259 -0.905828 -1.8283811 4288085770
2.7358093 -0.66837931 -1.8305197 4288085770
4.6853638 -0.89129114 -1.8273888 4288085770
2.9069214 -0.65472221 -1.8335199 4288085770
4.9345398 -0.87779236 -1.8284023 4288085770
3.0480652 -0.636024 -1.8275025 4288085770
5.1967163 -0.864326 -1.8274179 4288085770
3.2232361 -0.62038374 -1.826498 4288085770
5.4628601 -0.84887028 -1.82443 4288085770
3.4024048 -0.60474968 -1.8254943 4288085770
5.7940369 -0.83752823 -1.8294632 4288085770
3.5965881 -0.58814573 -1.8244908 4288085770
6.0991821 -0.82315159 -1.826484 4288085770
3.8147278 -0.57458544 -1.8264987 4288085770
6.4602966 -0.8118763 -1.8285222 4288085770
4.0238647 -0.55801535 -1.8234978 4288085770
6.8414917 -0.79964399 -1.8285613 4288085770
4.2560425 -0.54248667 -1.823503 4288085770
7.2416382 -0.78645468 -1.827601 4288085770
4.4782104 -0.52495146 -1.8175018 4288085770
7.7077942 -0.77738285 -1.8316619 4288085770
4.754364 -0.51050615 -1.8195174 4288085770
8.1639404 -0.76331091 -1.8277094 4288085770
5.0515137 -0.49510241 -1.8215342 4288085770
8.7190857 -0.75441885 -1.8317857 4288085770
5.3396912 -0.47869205 -1.8175461 4288085770
9.3152466 -0.74461174 -1.834867 4288085770
5.678833 -0.46437407 -1.819572 4288085770
9.9634094 -0.73491096 -1.8359568 4288085770
6.0289917 -0.44808006 -1.8195953 4288085770
10.692505 -0.72637033 -1.8390636 4288085770
6.4031677 -0.43183994 -1.8176229 4288085770
11.464661 -0.71592474 -1.8371732 4288085770
6.8313293 -0.41669607 -1.8206618 4288085770
12.354797 -0.70670891 -1.8383055 4288085770
7.2834778 -0.40060616 -1.8207023 4288085770
13.324951 -0.69765997 -1.8364515 4288085770
7.7866516 -0.38461637 -1.8217511 4288085770
14.44812 -0.68991327 -1.8366263 4288085770
8.3258057 -0.36769962 -1.8228045 4288085770
15.772247 -0.68456078 -1.8398416 4288085770
8.9229736 -0.35189772 -1.8238695 4288085770
9.6031494 -0.33525515 -1.8279467 4288085770
10.360321 -0.31777 -1.8310351 4288085770
11.176453 -0.30040216 -1.8341327 4288085770
12.065643 -0.28019381 -1.8312359 4288085770
13.112823 -0.26028728 -1.8343658 4288085770
14.290985 -0.23864746 -1.8355136 4288085770
15.744141 -0.21853924 -1.8457112 4288085770
14.275818 0.039340019 -1.8324993 4288085770
12.897919 0.044064522 -1.819711 4288085770
11.824066 0.049212456 -1.821872 4288085770
10.816193 0.05521059 -1.8160222 4288085770
9.9493408 0.060932636 -1.8131497 4288085770
9.1744995 0.068470955 -1.8102593 4288085770
8.4756165 0.074855804 -1.8073597 4288085770
14.584656 0.052683353 -1.8323777 4288085770
7.849762 0.083101749 -1.8064439 4288085770
13.154816 0.068505287 -1.8165798 4288085770
7.2709045 0.09024477 -1.8025236 4288085770
12.040985 0.082727909 -1.8167329 4288085770
6.7600708 0.098263741 -1.8035903 4288085770
11.030151 0.096736908 -1.8128703 4288085770
6.2891846 0.10619736 -1.8026514 4288085770
10.141266 0.10950327 -1.8099904 4288085770
5.8503418 0.1150651 -1.8007052 4288085770
9.3464355 0.12307739 -1.8050935 4288085770
5.4624634 0.12383699 -1.8017509 4288085770
8.6425476 0.13547564 -1.8031845 4288085770
5.1195984 0.13252544 -1.8057899 4288085770
8.0046997 0.14874172 -1.8012633 4288085770
4.7827454 0.14119387 -1.8058276 4288085770
7.4388733 0.16086531 -1.8003321 4288085770
4.4709167 0.15081406 -1.8068597 4288085770
6.9230042 0.17189217 -1.8003953 4288085770
4.1800537 0.15939093 -1.8078909 4288085770
6.4631653 0.18380785 -1.8014479 4288085770
3.8951721 0.16895103 -1.8059187 4288085770
6.0152893 0.19669151 -1.7984965 4288085770
3.6453552 0.17744875 -1.8079429 4288085770
5.6064453 0.20849752 -1.795541 4288085770
3.3994446 0.18693209 -1.8069656 4288085770
5.2496033 0.22021055 -1.7975769 4288085770
3.1686401 0.19638586 -1.8059847 4288085770
4.9147644 0.23187256 -1.7976098 4288085770
2.9567871 0.20680571 -1.8069997 4288085770
4.6068726 0.24448729 -1.7996364 4288085770
2.7529297 0.21620607 -1.8060153 4288085770
4.3230591 0.25605059 -1.8006606 4288085770
2.5710754 0.2265687 -1.8090253 4288085770
4.0502014 0.26759243 -1.8016834 4288085770
2.3791809 0.23693943 -1.8050373 4288085770
3.7823792 0.27911711 -1.7987058 4288085770
2.2093506 0.24627542 -1.8060477 4288085770
3.5355225 0.29160357 -1.7977228 4288085770
2.0534973 0.257586 -1.8080516 4288085770
3.3116455 0.3030467 -1.798738 4288085770
1.8946533 0.26789474 -1.8070586 4288085770
3.1048279 0.3154583 -1.8007486 4288085770
1.7438049 0.27819109 -1.8070636 4288085770
2.881958 0.32688856 -1.795764 4288085770
1.6139526 0.28944969 -1.8100638 4288085770
2.7041016 0.33924389 -1.7987697 4288085770
1.4760742 0.29971695 -1.8090675 4288085770
2.53125 0.3515873 -1.8007755 4288085770
1.3492126 0.30996752 -1.8100688 4288085770
2.3554077 0.36292934 -1.7987831 4288085770
1.2283936 0.32120275 -1.8100674 4288085770
2.1785583 0.37526846 -1.7947893 4288085770
1.0945129 0.33145285 -1.8040709 4288085770
2.0317383 0.38655758 -1.7957911 4288085770
0.98565674 0.34266567 -1.8050678 4288085770
1.9098816 0.39980984 -1.802788 4288085770
1.7680054 0.41208506 -1.8017912 4288085770
1.6281738 0.42335415 -1.7987952 4288085770
1.5043335 0.43659782 -1.7997928 4288085770
1.3844299 0.4488306 -1.7997921 4288085770
1.2726135 0.46104956 -1.7997897 4288085770
1.1647339 0.4732585 -1.7997866 4288085770
1.0619202 0.4854598 -1.7997823 4288085770
0.95205688 0.49766493 -1.7957797 4288085770
0.9574585 2.5990047 -1.7487957 4288085770
1.0766602 2.6447659 -1.7516851 4288085770
1.1848755 2.6845398 -1.7495885 4288085770
1.3061218 2.7282934 -1.7504814 4288085770
1.4393616 2.7760267 -1.7523642 4288085770
1.5765686 2.8247499 -1.7542446 4288085770
1.6887817 2.8595066 -1.7471569 4288085770
1.8269958 2.9052229 -1.746043 4288085770
1.9732056 2.9529238 -1.7459238 4288085770
1.0284729 2.5638227 -1.7538683 4288085770
2.1184082 2.9976244 -1.7438102 4288085770
1.1567078 2.6025696 -1.7577698 4288085770
2.2806091 3.0482941 -1.7436821 4288085770
1.2718811 2.6343307 -1.7566881 4288085770
2.4438477 3.0979624 -1.7435555 4288085770
1.3890686 2.6650858 -1.7546074 4288085770
2.6040955 3.1436281 -1.7394373 4288085770
1.5292664 2.7038069 -1.7575066 4288085770
2.7973328 3.2022429 -1.7422876 4288085770
1.6664429 2.7405291 -1.7584105 4288085770
2.983551 3.2548628 -1.7411509 4288085770
1.7836609 2.7652779 -1.7523415 4288085770
3.1838074 3.3114576 -1.7410038 4288085770
1.9328308 2.8029757 -1.7532413 4288085770
3.3980408 3.3710279 -1.7428482 4288085770
2.0930481 2.8436575 -1.7571328 4288085770
3.6182861 3.430583 -1.7436914 4288085770
2.2272339 2.8703718 -1.7510574 4288085770
3.8405151 3.489131 -1.7415364 4288085770
2.3804321 2.9030561 -1.748966 4288085770
4.0827942 3.5516424 -1.7423697 4288085770
2.5476074 2.9407148 -1.7488625 4288085770
4.3500671 3.621109 -1.7451844 4288085770
2.7118225 2.9733801 -1.7477691 4288085770
4.6092834 3.6845827 -1.7440128 4288085770
2.8970032 3.0130081 -1.7496583 4288085770
4.8885803 3.7530193 -1.7438273 4288085770
3.0772095 3.0486403 -1.7485559 4288085770
5.184845 3.8244257 -1.7456326 4288085770
3.2524109 3.0792799 -1.7454648 4288085770
5.4981079 3.8987961 -1.7464292 4288085770
3.4536133 3.1168718 -1.7453544 4288085770
