# .PCD v0.7 - Point Cloud Data file format
VERSION 0.7
FIELDS x y z rgb
SIZE 4 4 4 4
TYPE F F F U
COUNT 1 1 1 1
WIDTH 1115
HEIGHT 1
VIEWPOINT 0 0 0 1 0 0 0
POINTS 1115
DATA ascii
9.2059517 -5.3572907 -1.853659 4288085770
8.6852722 -5.2849102 -1.859428 4288085770
8.1685944 -5.2065458 -1.8641387 4282675967
7.1471329 -4.9373097 -1.8047415 4288085770
6.3006096 -4.7184258 -1.7599275 4293729569
5.8609238 -4.6422696 -1.7633187 4293729569
5.5361938 -4.6033263 -1.7794641 4293729569
5.2594528 -4.5794735 -1.8005037 4288085770
12.132565 -7.326076 -1.8363274 4288085770
4.9957123 -4.5556479 -1.822487 4288085770
4.7609558 -4.5398841 -1.8463992 4288085770
9.2257118 -6.3863149 -1.7235562 4293729569
4.5032234 -4.5110874 -1.8663225 4288085770
8.5543022 -6.208528 -1.7312623 4293729569
4.198513 -4.4582233 -1.8782859 4288085770
6.0639954 -5.2624173 -1.5326388 4293729569
3.9137993 -4.4104037 -1.8911967 4288085770
6.0102158 -5.3198671 -1.5942634 4293729569
3.5391197 -4.3194652 -1.8872048 4288085770
6.0054092 -5.3974037 -1.6618121 4293729569
3.2124214 -4.2436185 -1.8881071 4288085770
5.7767487 -5.3755341 -1.7036564 4293729569
2.8607445 -4.1517463 -1.8830088 4288085770
5.2552567 -5.2201862 -1.7038641 4293729569
2.554039 -4.0759583 -1.8828248 4288085770
4.7237701 -5.051846 -1.6990268 4293729569
2.2533379 -3.9981928 -1.8816011 4288085770
4.2772369 -4.9176722 -1.7020532 4293729569
1.9526367 -3.91644 -1.8783505 4288085770
3.8706779 -4.7935963 -1.7059747 4293729569
1.6929283 -3.8487616 -1.8800176 4288085770
3.5060959 -4.6856027 -1.7138231 4293729569
1.4422112 -3.7821054 -1.8816526 4288085770
3.1655045 -4.582665 -1.7226019 4293729569
1.1854973 -3.7084537 -1.8802662 4288085770
2.879879 -4.5008373 -1.7362857 4293729569
0.94578171 -3.6398401 -1.8798403 4288085770
2.6632233 -4.4501143 -1.7608815 4293729569
0.71405792 -3.5712476 -1.8793796 4288085770
2.534523 -4.4365325 -1.7983483 4293729569
0.50033569 -3.5096817 -1.8818887 4288085770
2.4398079 -4.4389997 -1.8417764 4288085770
0.2936058 -3.4471407 -1.883361 4288085770
2.3271141 -4.4294395 -1.882201 4288085770
0.071880341 -3.3746009 -1.8788303 4288085770
2.1294518 -4.3747864 -1.9036876 4288085770
-0.12285233 -3.312098 -1.8792508 4288085770
1.7968483 -4.2499785 -1.8962833 4288085770
-0.31258392 -3.2496147 -1.8786496 4288085770
1.5052223 -4.141243 -1.89381 4288085770
-0.50932312 -3.1811409 -1.8740382 4288085770
1.2315903 -4.0385418 -1.8933001 4288085770
-0.68106079 -3.1226974 -1.8743865 4288085770
0.96095657 -3.932868 -1.8897569 4288085770
-0.83780289 -3.0692739 -1.8777039 4288085770
0.7132988 -3.8362474 -1.8871754 4288085770
-1.0095558 -3.0068564 -1.8740253 4288085770
0.46964264 -3.7386432 -1.88357 4288085770
-1.1643105 -2.9504652 -1.8733138 4288085770
0.26096725 -3.6570911 -1.8859218 4288085770
-1.3360558 -2.8820696 -1.8665947 4288085770
0.036296844 -3.5625439 -1.8812549 4288085770
-1.4708061 -2.8317094 -1.8688376 4288085770
-0.17338181 -3.4750228 -1.8785707 4288085770
-1.6075668 -2.7783647 -1.8680691 4288085770
-0.36407089 -3.394537 -1.877852 4288085770
-1.7433243 -2.7240224 -1.8672892 4288085770
-0.54176712 -3.3180785 -1.8781043 4288085770
-1.8610916 -2.6767135 -1.8684793 4288085770
-0.72146225 -3.2386351 -1.8753449 4288085770
-1.9868546 -2.6234102 -1.8666675 4288085770
-0.88817596 -3.1642265 -1.8735672 4288085770
-2.118618 -2.5651059 -1.8618431 4288085770
-1.0498924 -3.0908298 -1.8707703 4288085770
-1.2076035 -3.0164437 -1.8679495 4288085770
-1.3413353 -2.9540935 -1.8691064 4288085770
-1.4820557 -2.8857446 -1.8672529 4288085770
-1.6247826 -2.8154049 -1.8633949 4288085770
-1.7525253 -2.7510972 -1.8605127 4288085770
-1.8562622 -2.6988034 -1.8646083 4288085770
-1.9680099 -2.6405244 -1.8636976 4288085770
-2.0997581 -2.5702462 -1.8547925 4288085770
-2.130352 -0.31486797 -1.8048557 4288085770
-2.0582352 -0.29910994 -1.7974421 4288085770
-1.9380684 -0.28837729 -1.8048561 4288085770
-1.8459358 -0.27464485 -1.8013703 4288085770
-1.7578163 -0.25891542 -1.7958882 4288085770
-1.6496811 -0.24621153 -1.7943407 4288085770
-1.512516 -0.23553085 -1.8006823 4288085770
-1.3803596 -0.22385693 -1.8040386 4288085770
-1.2752495 -0.20918584 -1.7964911 4288085770
-1.1511154 -0.1965239 -1.7948754 4288085770
-2.1397629 -0.084929705 -1.7983813 4288085770
-0.9989624 -0.18490934 -1.7971464 4288085770
-2.0216141 -0.07421875 -1.8018045 4288085770
-0.85783386 -0.17229223 -1.7954582 4288085770
-1.9204865 -0.061510086 -1.7982874 4288085770
-0.70269775 -0.15971255 -1.7937104 4288085770
-1.7903328 -0.050824404 -1.8026593 4288085770
-0.53656006 -0.14814806 -1.7939219 4288085770
-1.6872215 -0.037140608 -1.7961271 4288085770
-0.37142944 -0.13560104 -1.7911314 4288085770
-1.5520782 -0.026488066 -1.797478 4288085770
-0.17928696 -0.12509131 -1.7932386 4288085770
-1.417942 -0.014846087 -1.7968265 4288085770
0.018856049 -0.11361146 -1.7933139 4288085770
-1.2768021 -0.0032160282 -1.7971452 4288085770
0.23499298 -0.1021719 -1.7943121 4288085770
-1.1306763 0.0073878765 -1.7954494 4288085770
0.4631424 -0.091757298 -1.7962657 4288085770
-0.96652985 0.018964052 -1.79667 4288085770
0.70228195 -0.080378532 -1.7971659 4288085770
-0.80940247 0.029531956 -1.7939272 4288085770
0.9474144 -0.069035292 -1.7950406 4288085770
-0.61624908 0.040058613 -1.7990305 4288085770
1.2295609 -0.058756351 -1.7977639 4288085770
-0.44712448 0.051588535 -1.7952302 4288085770
1.5347099 -0.048537731 -1.8003889 4288085770
-0.24898911 0.062068462 -1.7953125 4288085770
1.8238335 -0.037323713 -1.7960762 4288085770
-0.03484726 0.072512865 -1.7963265 4288085770
2.1589699 -0.027197599 -1.7965734 4288085770
0.19129562 0.082926273 -1.7972893 4288085770
2.5041008 -0.01611805 -1.7940215 4288085770
0.43444061 0.093301058 -1.7991796 4288085770
2.8672256 -0.0050923824 -1.790393 4288085770
0.67456436 0.10365725 -1.7970831 4288085770
3.2673531 0.0048496723 -1.7886132 4288085770
0.92969894 0.11397386 -1.7949225 4288085770
3.7004738 0.015684605 -1.7836859 4288085770
1.2128334 0.12422991 -1.7946423 4288085770
4.1996117 0.025378704 -1.7834833 4288085770
1.5439873 0.13339353 -1.7991636 4288085770
4.7537575 0.034941673 -1.7850461 4288085770
1.8881302 0.14250875 -1.8016299 4288085770
5.3368874 0.044401884 -1.7824854 4288085770
2.253273 0.15256238 -1.8029997 4288085770
5.9920197 0.052685499 -1.7816238 4288085770
2.6274033 0.16257215 -1.8013316 4288085770
6.7141533 0.06179285 -1.7804697 4288085770
3.0165176 0.17252326 -1.7965999 4288085770
7.4862633 0.070734978 -1.7741027 4288085770
3.4486504 0.18138027 -1.794691 4288085770
8.4414253 0.078275442 -1.7789605 4288085770
3.8957558 0.19116473 -1.7877119 4288085770
9.3084869 0.087888002 -1.7601823 4288085770
4.4429054 0.19975233 -1.7903121 4288085770
10.395588 0.096987963 -1.7504646 4288085770
5.028038 0.20821977 -1.7897506 4288085770
11.565655 0.10582304 -1.7333933 4288085770
5.6321487 0.21759748 -1.7831016 4288085770
6.4103127 0.22461677 -1.7907228 4288085770
7.2224503 0.23250008 -1.791193 4288085770
8.0685654 0.24024725 -1.7845185 4288085770
8.9536362 0.24883151 -1.7686716 4288085770
10.052742 0.25491929 -1.7619246 4288085770
11.211807 0.26178265 -1.7449157 4288085770
12.647903 0.26698303 -1.7367311 4288085770
11.913437 0.50829172 -1.7249984 4288085770
10.673653 0.52869296 -1.7409889 4288085770
9.5748367 0.54768407 -1.7514063 4288085770
8.6820641 0.56717539 -1.7699718 4288085770
7.761219 0.58465028 -1.773664 4288085770
6.9763908 0.60078382 -1.7808037 4288085770
6.1775017 0.61587584 -1.7750067 4288085770
12.682816 0.7791208 -1.7122484 4288085770
5.5076485 0.63166308 -1.775674 4288085770
11.31398 0.79282224 -1.7208074 4288085770
4.9107895 0.64625978 -1.7770475 4288085770
10.252193 0.80876946 -1.7400886 4288085770
4.3409233 0.66077161 -1.7763101 4288085770
9.1963539 0.82262099 -1.7463568 4288085770
3.861084 0.67507136 -1.7802032 4288085770
8.4355965 0.84079349 -1.7703847 4288085770
3.4252434 0.6902585 -1.7849097 4288085770
7.505703 0.85224557 -1.7661475 4288085770
2.9793663 0.70342433 -1.7816691 4288085770
6.6607933 0.86145008 -1.7585735 4288085770
2.5654907 0.71650362 -1.7782971 4288085770
5.9799385 0.8742795 -1.7613026 4288085770
2.2186394 0.73043907 -1.7806441 4288085770
5.3480682 0.88595891 -1.7608365 4288085770
1.8897896 0.744326 -1.782917 4288085770
4.8042221 0.89943147 -1.7649972 4288085770
1.5999451 0.75912642 -1.7880237 4288085770
4.2583313 0.91086698 -1.7621778 4288085770
1.3160896 0.77288604 -1.789112 4288085770
3.8285027 0.9250505 -1.768865 4288085770
1.0232124 0.78463984 -1.7852492 4288085770
3.3906326 0.9372133 -1.7685969 4288085770
0.78436661 0.79929626 -1.7891467 4288085770
2.9177094 0.94539762 -1.7564962 4288085770
0.52449036 0.81096113 -1.7851484 4288085770
2.5438461 0.95739388 -1.7569654 4288085770
0.31864548 0.82552898 -1.7889104 4288085770
2.2220039 0.97127438 -1.7612091 4288085770
0.10078049 0.83810484 -1.7887338 4288085770
1.8991318 0.98312128 -1.759469 4288085770
-0.11008835 0.85064352 -1.7855282 4288085770
1.6102791 0.99590051 -1.7615836 4288085770
-0.29794693 0.86514485 -1.7862163 4288085770
1.3574333 1.0105952 -1.7655381 4288085770
-0.47480392 0.87761629 -1.7868713 4288085770
1.1366119 1.0262277 -1.7733557 4288085770
-0.62965393 0.89204049 -1.7894239 4288085770
0.91877747 1.04084 -1.7791668 4288085770
-0.81053925 0.90348661 -1.7841015 4288085770
0.68891907 1.0544482 -1.7790329 4288085770
-0.96239853 0.91688466 -1.7836479 4288085770
0.4630394 1.0660278 -1.775895 4288085770
-1.1042557 0.93026173 -1.7841531 4288085770
0.25016785 1.0775782 -1.7737037 4288085770
-1.2431145 0.94362485 -1.7836462 4288085770
0.068313599 1.0920694 -1.7753669 4288085770
-1.3779831 0.95697117 -1.7821229 4288085770
-0.12355423 1.1045631 -1.7730834 4288085770
-1.49683 0.97129858 -1.7845278 4288085770
-0.28540421 1.1190065 -1.7756646 4288085770
-1.6186905 0.98461592 -1.7839509 4288085770
-0.44125748 1.1334214 -1.7762215 4288085770
-1.7315521 0.99790883 -1.7833374 4288085770
-0.60312653 1.1458346 -1.7738148 4288085770
-1.834404 1.0121871 -1.7846767 4288085770
-0.75499344 1.1592267 -1.7723612 4288085770
-1.9372597 1.0264593 -1.7850161 4288085770
-0.88383484 1.1745811 -1.7748011 4288085770
-2.0451317 1.0387268 -1.782388 4288085770
-1.011692 1.1889205 -1.7752432 4288085770
-2.1490097 1.0519775 -1.7787374 4288085770
-1.1455574 1.2022641 -1.7737159 4288085770
-1.2554054 1.2175673 -1.7760779 4288085770
-1.3692589 1.2318631 -1.7754625 4288085770
-1.4921417 1.2441591 -1.7708958 4288085770
-1.5839806 1.2604196 -1.7741785 4288085770
-1.6988602 1.2736881 -1.768573 4288085770
-1.7907143 1.2889304 -1.7688614 4288085770
-1.8745613 1.3041576 -1.7701172 4288085770
-1.9574089 1.3203819 -1.7713628 4288085770
-2.0462761 1.3345981 -1.7686449 4288085770
-2.1291389 1.3498046 -1.7668964 4288085770
-2.1634598 3.4094095 -1.7370222 4288085770
-2.0531349 3.4821465 -1.7431463 4288085770
-1.9468346 3.5498643 -1.7443169 4288085770
-1.8345261 3.6205721 -1.7464454 4288085770
-1.7172165 3.6932659 -1.7485422 4288085770
-1.5778503 3.77793 -1.7554784 4288085770
-1.4384995 3.8615763 -1.7594209 4288085770
-1.2700844 3.9601851 -1.7701566 4288085770
-1.1096992 4.0517859 -1.775967 4288085770
-0.93429184 4.1513581 -1.7836694 4288085770
-2.1651764 3.491436 -1.7486016 4288085770
-0.73181915 4.265892 -1.7971731 4288085770
-2.0529099 3.5511317 -1.7487967 4288085770
-0.56145859 4.3584361 -1.7979385 4288085770
-1.9246025 3.618808 -1.7528796 4288085770
-0.3620224 4.4669366 -1.8044915 4288085770
-1.7963142 3.6844664 -1.7539748 4288085770
-0.17965698 4.5624418 -1.8041912 4288085770
-1.6379433 3.7660909 -1.7628534 4288085770
0.016727448 4.6629143 -1.8048048 4288085770
-1.4926262 3.8387146 -1.7658385 4288085770
0.23314667 4.7743454 -1.8072722 4288085770
-1.332283 3.9173157 -1.7717278 4288085770
0.44753647 4.8807573 -1.8057784 4288085770
-1.1498909 4.0078807 -1.7814565 4288085770
0.67895889 4.9941411 -1.8071744 4288085770
-0.98656464 4.0844555 -1.7843462 4288085770
0.93342209 5.1194739 -1.8104064 4288085770
-0.74604797 4.2029276 -1.8046744 4288085770
1.2279549 5.2637281 -1.8183639 4288085770
-0.58476257 4.2734728 -1.8016088 4288085770
1.519455 5.4029598 -1.8213643 4288085770
-0.36433411 4.3749399 -1.8121201 4288085770
1.8169441 5.5421643 -1.8223408 4288085770
-0.19205093 4.4454489 -1.8080108 4288085770
2.0933647 5.6643839 -1.8165045 4288085770
0.010284424 4.5308995 -1.8076913 4288085770
2.4268875 5.8154898 -1.8172653 4288085770
0.22965622 4.6223226 -1.8102676 4288085770
2.7483559 5.9555936 -1.8121412 4288085770
0.43397141 4.7037501 -1.8069646 4288085770
3.1068878 6.1116199 -1.8107728 4288085770
0.65430832 4.7901459 -1.8055679 4288085770
3.5205078 6.2945318 -1.8150223 4288085770
0.9026947 4.8894901 -1.8079808 4288085770
3.9611473 6.4853601 -1.8181212 4288085770
1.1781197 4.9987726 -1.8132305 4288085770
4.4699059 6.7080555 -1.8287513 4288085770
1.4575348 5.1060381 -1.8164722 4288085770
4.9876251 6.9276848 -1.8323642 4288085770
1.7589722 5.22225 -1.8205721 4288085770
5.585495 7.1851559 -1.8454294 4288085770
2.0233231 5.3145151 -1.8169646 4288085770
6.2043457 7.4445462 -1.8543992 4288085770
2.3016701 5.4097357 -1.8122836 4288085770
6.8842697 7.7277813 -1.8649817 4288085770
2.6070518 5.5139008 -1.8104405 4288085770
7.5340919 7.98704 -1.8658293 4288085770
2.9054031 5.6110611 -1.8046679 4288085770
8.2419739 8.2661514 -1.8683257 4288085770
3.2488251 5.727128 -1.8036016 4288085770
3.6313019 5.8571191 -1.8072952 4288085770
4.0428047 5.9960318 -1.8108194 4288085770
4.4933586 6.1478615 -1.8181098 4288085770
4.9529037 6.2986555 -1.8233708 4288085770
5.493557 6.4802752 -1.8361222 4288085770
6.057209 6.6638212 -1.8467699 4288085770
6.6649132 6.8622651 -1.8601526 4288085770
7.2345161 7.0337601 -1.8648497 4288085770
7.8220863 7.2031875 -1.8664867 4288085770
8.361557 7.3446922 -1.859485 4288085770
9.014183 7.528955 -1.8627739 4288085770
9.5706024 7.6593843 -1.8507713 4288085770
10.223141 7.8225927 -1.8451874 4288085770
10.934731 8.0016651 -1.8432722 4288085770
11.604218 8.1538048 -1.8336874 4288085770
12.285728 -2.3942485 -1.7541336 4288085770
11.636784 -2.4224596 -1.7618971 4288085770
11.023846 -2.4467621 -1.7704934 4288085770
10.361927 -2.4559722 -1.7721957 4288085770
9.6760139 -2.4521589 -1.7669168 4288085770
9.2371025 -2.4818764 -1.7848486 4288085770
8.6782074 -2.4833612 -1.787093 4288085770
8.1483231 -2.4849129 -1.7912216 4288085770
7.6394348 -2.4825339 -1.7932428 4288085770
7.1145668 -2.4691348 -1.7912629 4288085770
6.6776924 -2.4689221 -1.7980088 4288085770
6.2438278 -2.4617348 -1.8017014 4288085770
5.8339615 -2.454607 -1.8062984 4288085770
12.060215 -3.8396034 -1.7795761 4288085770
5.4821053 -2.4536142 -1.8146995 4288085770
11.231533 -3.7673249 -1.7874627 4288085770
5.0622559 -2.4334946 -1.8132596 4288085770
10.400867 -3.6840711 -1.7902926 4288085770
4.7234039 -2.4265428 -1.8205734 4288085770
9.5722084 -3.5898685 -1.7850497 4288085770
4.3515549 -2.407548 -1.8199481 4288085770
8.9275017 -3.529079 -1.7942686 4288085770
4.0117111 -2.3916168 -1.8232127 4288085770
8.2598114 -3.457262 -1.7975141 4288085770
3.6928749 -2.3767366 -1.8273997 4288085770
7.6271095 -3.3845515 -1.7986145 4288085770
3.3630333 -2.3558497 -1.8275949 4288085770
7.0713959 -3.3240218 -1.804479 4288085770
3.0571976 -2.3360171 -1.8297005 4288085770
6.5676727 -3.2706213 -1.8121774 4288085770
2.7603645 -2.3142152 -1.8307585 4288085770
6.0969543 -3.2192993 -1.8217566 4288085770
2.4715271 -2.29144 -1.8307786 4288085770
5.6292267 -3.1630149 -1.8262944 4288085770
2.1917 -2.267683 -1.8317568 4288085770
5.1714973 -3.1037626 -1.8297745 4288085770
1.925869 -2.2439704 -1.8316796 4288085770
4.7447624 -3.0485954 -1.8331547 4288085770
1.6900368 -2.225316 -1.8355122 4288085770
4.3530235 -2.9965167 -1.8374137 4288085770
1.4382019 -2.1986418 -1.8353614 4288085770
3.9602814 -2.9394536 -1.8386468 4288085770
1.2143707 -2.1770315 -1.8371284 4288085770
3.5865402 -2.8844357 -1.8408163 4288085770
0.97854233 -2.1504068 -1.8359139 4288085770
3.2257919 -2.8284702 -1.839928 4288085770
0.7587204 -2.1248136 -1.8366416 4288085770
2.8900375 -2.776556 -1.841964 4288085770
0.56989288 -2.1062813 -1.8412871 4288085770
2.5692863 -2.7246885 -1.8429402 4288085770
0.35707092 -2.0777183 -1.8399693 4288085770
2.2545319 -2.6718488 -1.8418866 4288085770
0.17424393 -2.0562081 -1.8435731 4288085770
1.9587746 -2.6200547 -1.8417634 4288085770
-0.014575958 -2.0296993 -1.8441716 4288085770
1.6780167 -2.570302 -1.8415924 4288085770
-0.22340393 -1.9951773 -1.8378025 4288085770
1.4182472 -2.5245938 -1.8433614 4288085770
-0.3942337 -1.9707174 -1.8383411 4288085770
1.1794739 -2.4819374 -1.8460644 4288085770
-0.56805801 -1.9422607 -1.8368683 4288085770
0.94370651 -2.4392896 -1.8487554 4288085770
-0.72187424 -1.9198289 -1.840351 4288085770
0.69592667 -2.388649 -1.8444473 4288085770
-0.86769867 -1.8984203 -1.8438076 4288085770
0.48815918 -2.3490653 -1.8490446 4288085770
-1.0475311 -1.8619823 -1.8363116 4288085770
0.25238419 -2.2974644 -1.843683 4288085770
-1.1803513 -1.8416023 -1.8407223 4288085770
0.048606873 -2.2539139 -1.8442409 4288085770
-1.3261719 -1.8142161 -1.8401439 4288085770
-0.14917755 -2.2113924 -1.8427809 4288085770
-1.4609985 -1.7898474 -1.8415393 4288085770
-0.3319664 -2.1718936 -1.8442789 4288085770
-1.595829 -1.7624974 -1.8399172 4288085770
-0.51575089 -2.1294107 -1.8427635 4288085770
-1.7236519 -1.7361546 -1.840273 4288085770
-0.69454575 -2.086946 -1.8402282 4288085770
-1.8284683 -1.7178388 -1.8465843 4288085770
-0.86533356 -2.0454979 -1.8386669 4288085770
-1.9432945 -1.6935191 -1.8489003 4288085770
-1.0221252 -2.0070767 -1.8390677 4288085770
-2.0661163 -1.6652017 -1.8472247 4288085770
-1.171917 -1.9696732 -1.8394464 4288085770
-2.1599388 -1.6469164 -1.8534924 4288085770
-1.3157158 -1.9332924 -1.8388072 4288085770
-1.4565125 -1.8959203 -1.8381503 4288085770
-1.5953102 -1.8575587 -1.8364797 4288085770
-1.701107 -1.8312411 -1.842748 4288085770
-1.8179054 -1.7989163 -1.8450251 4288085770
-1.9347038 -1.7655973 -1.8462965 4288085770
-2.0635185 -1.7262864 -1.8405803 4288085770
-2.173317 -1.6929927 -1.8408239 4288085770
-2.0996971 0.35701513 -1.79107 4288085770
-1.9945679 0.36871576 -1.7895979 4288085770
-1.8704185 0.38038683 -1.7920524 4288085770
-1.7432747 0.39203858 -1.7924955 4288085770
-1.6441727 0.40371585 -1.7840475 4288085770
-1.489006 0.41532445 -1.7903821 4288085770
-1.3528709 0.42693996 -1.7887909 4288085770
-1.2047348 0.43853354 -1.7891533 4288085770
-2.106617 0.45602226 -1.7955642 4288085770
-1.0546036 0.45011044 -1.7875084 4288085770
-1.9914932 0.46569562 -1.7940654 4288085770
-0.8944664 0.46166587 -1.7868246 4288085770
-1.8483353 0.47533703 -1.8004583 4288085770
-0.71331787 0.47318029 -1.7890596 4288085770
-1.7362213 0.48499012 -1.7939718 4288085770
-0.54519653 0.48469615 -1.7853458 4288085770
-1.6010933 0.49461389 -1.7933961 4288085770
-0.33904648 0.49614215 -1.7874846 4288085770
-1.4659767 0.5032208 -1.7898265 4288085770
-0.13290787 0.50757647 -1.7876239 4288085770
-1.3068275 0.51280093 -1.7931584 4288085770
0.098251343 0.51996469 -1.791661 4288085770
-1.1557083 0.52136922 -1.7905272 4288085770
0.32538605 0.53133535 -1.7907196 4288085770
-0.99658585 0.52992177 -1.7888653 4288085770
0.5625267 0.54267871 -1.7897398 4288085770
-0.82245255 0.5384438 -1.7891455 4288085770
0.82066345 0.55396414 -1.7886792 4288085770
-0.60828781 0.54789555 -1.7962655 4288085770
1.1088066 0.56518459 -1.7905029 4288085770
-0.41015244 0.55635762 -1.7974533 4288085770
1.4249649 0.57733905 -1.7942131 4288085770
-0.22504044 0.56382108 -1.7926975 4288085770
1.7631226 0.58943307 -1.7978384 4288085770
-0.00090789795 0.57221115 -1.7937855 4288085770
2.0922546 0.60051775 -1.7955049 4288085770
0.22021484 0.57959306 -1.7918911 4288085770
2.4263649 0.61056602 -1.7891582 4288085770
0.47935486 0.58689833 -1.7948499 4288085770
2.8174973 0.62148571 -1.7875861 4288085770
0.72246552 0.594208 -1.7908711 4288085770
3.2486382 0.63330126 -1.7868541 4288085770
1.0176086 0.60142016 -1.7946916 4288085770
3.6867561 0.64406908 -1.7811015 4288085770
1.3167343 0.6075927 -1.7935028 4288085770
4.1808815 0.65469432 -1.7771331 4288085770
1.652874 0.61469197 -1.7971658 4288085770
4.7210083 0.6651988 -1.773988 4288085770
2.0020103 0.62074399 -1.7987847 4288085770
5.3721771 0.67744875 -1.7794031 4288085770
2.319088 0.62482178 -1.7895392 4288085770
5.995285 0.68769658 -1.770939 4288085770
2.7192268 0.63073349 -1.7909622 4288085770
6.8194771 0.70149946 -1.780677 4288085770
3.1613541 0.63552988 -1.7922294 4288085770
7.6005936 0.71132398 -1.7736048 4288085770
3.6014595 0.63830876 -1.789516 4288085770
8.5357246 0.72274768 -1.7699281 4288085770
4.0725555 0.64098001 -1.782684 4288085770
9.4417877 0.73016584 -1.7513876 4288085770
4.6076622 0.64349759 -1.7796056 4288085770
10.568893 0.7400279 -1.7409786 4288085770
5.2497978 0.6457665 -1.7841148 4288085770
11.753963 0.7476846 -1.7223589 4288085770
5.8678818 0.64503872 -1.7777349 4288085770
6.6250076 0.64498556 -1.7808138 4288085770
7.4491196 0.64373088 -1.7806412 4288085770
8.3822289 0.64018786 -1.7820609 4288085770
9.2102318 0.63179183 -1.7589152 4288085770
10.312309 0.62374949 -1.753709 4288085770
11.433319 0.61057591 -1.7344594 4288085770
4.4137573 -5.6571889 -0.12537439 4293729569
4.4152565 -5.5799279 -0.17394873 4293729569
4.4347305 -5.5117288 -0.22050536 4293729569
4.5290985 -5.4787345 -0.26697376 4293729569
5.9849739 -5.3604527 -0.68790203 4293729569
6.0357742 -5.2832127 -0.027276322 4293729569
6.0064621 -5.272315 -0.72434396 4293729569
6.169136 -5.2413778 -0.064552404 4293729569
6.1408386 -5.2304549 -0.76661634 4293729569
12.807854 0.87020373 -1.718473 4288085770
11.580082 0.90961003 -1.7256486 4288085770
10.547333 0.94950783 -1.738127 4288085770
9.7056122 0.98991346 -1.7569227 4288085770
8.842823 1.0223103 -1.7628336 4288085770
8.1870842 1.0592015 -1.7809849 4288085770
7.352211 1.0834385 -1.7708364 4288085770
6.6463661 1.1083548 -1.7672249 4288085770
6.0145226 1.1320668 -1.7633564 4288085770
12.663651 1.5685191 -1.7075108 4288085770
5.4516754 1.1555928 -1.7602432 4288085770
11.611851 1.5884748 -1.7211561 4288085770
4.9498405 1.1789657 -1.7599136 4288085770
10.663036 1.6081351 -1.7324363 4288085770
4.4659843 1.2002733 -1.75653 4288085770
9.9402962 1.6372271 -1.7538649 4288085770
4.0501595 1.2244184 -1.7578902 4288085770
9.1894989 1.6593499 -1.7664278 4288085770
3.6953506 1.2484156 -1.7630342 4288085770
8.5387077 1.6832016 -1.7796261 4288085770
3.3264999 1.2694156 -1.7612425 4288085770
7.9118958 1.7039664 -1.7887541 4288085770
2.9296112 1.2854519 -1.7515755 4288085770
7.1259346 1.7050326 -1.7715466 4288085770
2.6828346 1.3131839 -1.7623199 4288085770
6.5200577 1.7166747 -1.7676492 4288085770
2.4590492 1.3398539 -1.7739841 4288085770
5.9421501 1.7252159 -1.7596642 4288085770
2.2382622 1.3665051 -1.7836378 4288085770
5.4512863 1.7395523 -1.7583402 4288085770
1.9984398 1.3891784 -1.7873787 4288085770
4.999424 1.7537808 -1.7568784 4288085770
1.6324768 1.3950516 -1.7626522 4288085770
4.5835609 1.7689102 -1.7552836 4288085770
1.3886185 1.4137 -1.7594274 4288085770
4.1997032 1.7839507 -1.7535753 4288085770
1.238842 1.4411707 -1.7718244 4288085770
3.8478508 1.7999134 -1.7537487 4288085770
1.0490112 1.4626955 -1.773393 4288085770
3.5310059 1.8177791 -1.7537879 4288085770
0.88219833 1.487177 -1.7788651 4288085770
3.2031288 1.8316548 -1.7498862 4288085770
0.71136856 1.5086495 -1.7803665 4288085770
2.894249 1.8444728 -1.7449223 4288085770
0.51649857 1.5251473 -1.7739782 4288085770
2.6584244 1.8651352 -1.7486594 4288085770
0.36867142 1.546561 -1.7763983 4288085770
2.507679 1.8986287 -1.7650298 4288085770
0.22784042 1.5679557 -1.7787935 4288085770
2.3739395 1.9330854 -1.783335 4288085770
0.071990967 1.5873662 -1.7762517 4288085770
2.1761208 1.9556425 -1.7869273 4288085770
-0.06685257 1.6077402 -1.7756447 4288085770
1.9042015 1.964323 -1.7748519 4288085770
-0.21471786 1.6251183 -1.7710847 4288085770
1.5922203 1.9630579 -1.751969 4288085770
-0.31252289 1.6504092 -1.7763072 4288085770
1.4103775 1.9825506 -1.7515196 4288085770
-0.44337845 1.6687509 -1.7736821 4288085770
1.266571 2.0079687 -1.7569057 4288085770
-0.5461998 1.6920402 -1.7759326 4288085770
1.1608047 2.0403171 -1.7691216 4288085770
-0.66505814 1.7113433 -1.7722597 4288085770
1.0350113 2.0676908 -1.7754338 4288085770
-0.78292084 1.7286388 -1.7675936 4288085770
0.87515259 2.0861073 -1.7719117 4288085770
-0.87976074 1.7498963 -1.7668329 4288085770
0.7383194 2.1084752 -1.7712879 4288085770
-0.96358109 1.7741333 -1.769011 4288085770
0.59647369 2.1288521 -1.7696921 4288085770
-1.0544205 1.7953743 -1.768229 4288085770
0.46262741 2.1492019 -1.7670678 4288085770
-1.1402588 1.8166015 -1.7674294 4288085770
0.33978271 2.1705263 -1.7653996 4288085770
-1.2150841 1.8398035 -1.767581 4288085770
0.22093964 2.1918397 -1.7637173 4288085770
-1.3069382 1.8590322 -1.7638124 4288085770
0.11310577 2.2151227 -1.7619859 4288085770
-1.3787727 1.8822207 -1.7629534 4288085770
0.012271881 2.2393913 -1.7612246 4288085770
-1.4626312 1.901422 -1.7581568 4288085770
-0.058509827 2.2706125 -1.7673222 4288085770
-1.5324745 1.9236 -1.7562957 4288085770
-0.16336441 2.291872 -1.7625903 4288085770
-1.5722656 1.9537356 -1.7622877 4288085770
-0.2441864 2.3180954 -1.7637482 4288085770
-1.6391068 1.9759053 -1.7604159 4288085770
-0.33302307 2.3423209 -1.7609446 4288085770
-1.7029495 1.9980617 -1.7575336 4288085770
-0.41586304 2.3665295 -1.7581198 4288085770
-1.7587852 2.0212009 -1.755618 4288085770
-0.48868179 2.3937261 -1.7582446 4288085770
-1.802597 2.0493271 -1.7576346 4288085770
-0.56651688 2.4189157 -1.7543973 4288085770
-1.849411 2.0764565 -1.7586669 4288085770
-0.63835144 2.4450939 -1.7515236 4288085770
-1.8902283 2.1035695 -1.7596779 4288085770
-0.6951561 2.475251 -1.7525767 4288085770
-1.9390678 2.1276844 -1.7567328 4288085770
-0.75498199 2.5034013 -1.7506508 4288085770
-1.9678574 2.1587794 -1.7606814 4288085770
-0.80579376 2.5335367 -1.7506828 4288085770
-2.0277252 2.178899 -1.7527952 4288085770
-0.86161804 2.5626707 -1.7477376 4288085770
-2.0455093 2.2129688 -1.75769 4288085770
-0.90842819 2.5937951 -1.7477508 4288085770
-2.0833359 2.2400579 -1.7556908 4288085770
-0.95023346 2.6269002 -1.7467359 4288085770
-2.1211662 2.2661424 -1.7526966 4288085770
-0.97701263 2.6649847 -1.749643 4288085770
-2.1449623 2.2982135 -1.7546228 4288085770
-1.0158195 2.6980765 -1.747618 4288085770
-1.0566292 2.7301741 -1.745605 4288085770
-1.0924492 2.7622526 -1.7425743 4288085770
-1.1282616 2.7953312 -1.7395387 4288085770
-1.1460457 2.8353753 -1.7394043 4288085770
-1.1678352 2.8734303 -1.7392942 4288085770
-1.1926422 2.9094787 -1.7362049 4288085770
-1.2164459 2.945524 -1.7331121 4288085770
-1.2212143 2.989537 -1.7339122 4288085770
-1.217968 3.0375381 -1.7366638 4288085770
-1.2247505 3.0805411 -1.7344761 4288085770
-1.2205048 3.1295342 -1.7362194 4288085770
-1.210247 3.1805105 -1.7379317 4288085770
-1.1979942 3.2324765 -1.738632 4288085770
-1.1887512 3.2824454 -1.7383531 4288085770
-1.1624718 3.3413875 -1.7419691 4288085770
-1.1402054 3.3973255 -1.7426147 4288085770
-1.101902 3.4632392 -1.7471535 4288085770
-1.0716209 3.5241601 -1.7487457 4288085770
-1.013279 3.600039 -1.757164 4288085770
-0.95493317 3.6759071 -1.7635828 4288085770
-0.90862656 3.7457886 -1.7660739 4288085770
-0.84628296 3.8246405 -1.771464 4288085770
-0.78093338 3.9054844 -1.7768335 4288085770
-2.1438408 3.2520242 -1.737922 4288085770
-0.7085762 3.9903035 -1.7811587 4288085770
-2.1055717 3.3099179 -1.7385013 4288085770
-0.62419128 4.0821047 -1.7884066 4288085770
-2.0532684 3.3747933 -1.7429965 4288085770
-0.54281235 4.1729035 -1.7936703 4288085770
-2.0140076 3.4326739 -1.7415726 4288085770
-0.46144485 4.2626929 -1.7969395 4288085770
-1.954689 3.5015345 -1.7470233 4288085770
-0.36404037 4.3634524 -1.8030974 4288085770
-1.9104233 3.5623963 -1.7445674 4288085770
-0.29972458 4.4442482 -1.798472 4288085770
-1.8420982 3.6362267 -1.7489618 4288085770
-0.2304039 4.5270305 -1.7938194 4288085770
-1.7767792 3.7090557 -1.751372 4288085770
-0.12198639 4.633749 -1.7979095 4288085770
-1.677372 3.8028355 -1.7625574 4288085770
-0.0095710754 4.7434468 -1.7999707 4288085770
-1.6070557 3.8786397 -1.7629356 4288085770
0.09582901 4.8491488 -1.7990772 4288085770
-1.5166893 3.9654143 -1.7681886 4288085770
0.20923615 4.9588289 -1.7981359 4288085770
-1.4353523 4.0471935 -1.7694983 4288085770
0.35170746 5.0854526 -1.8020074 4288085770
-1.3389854 4.1379404 -1.7727108 4288085770
0.50319672 5.2190523 -1.805813 4288085770
-1.2215576 4.2416601 -1.7817845 4288085770
0.66469955 5.3586183 -1.8085536 4288085770
-1.1432571 4.3194127 -1.7761261 4288085770
0.8221817 5.4941812 -1.808329 4288085770
-1.0098 4.4330926 -1.7860941 4288085770
1.0067291 5.6476879 -1.8119197 4288085770
-0.87836456 4.5437574 -1.7920849 4288085770
1.2423897 5.834094 -1.8231665 4288085770
-0.75696564 4.6474252 -1.7931461 4288085770
1.4720306 6.0164914 -1.8294553 4288085770
-0.62554169 4.75807 -1.7951375 4288085770
1.6775932 6.1819205 -1.828914 4288085770
-0.47107315 4.8826661 -1.7999784 4288085770
1.8941727 6.3543081 -1.8263 4288085770
-0.32764053 4.9982729 -1.8009037 4288085770
2.1618614 6.5595899 -1.8303422 4288085770
-0.15815735 5.1308222 -1.8046532 4288085770
2.4165115 6.7548771 -1.8284811 4288085770
0.010318756 5.2613645 -1.8064166 4288085770
2.694191 6.9651003 -1.8264649 4288085770
0.19482803 5.4018664 -1.8090743 4288085770
3.0139618 7.2012267 -1.8281721 4288085770
0.40840149 5.5603089 -1.8155408 4288085770
3.3898506 7.4742231 -1.8344986 4288085770
0.63498688 5.7267141 -1.8219223 4288085770
3.776741 7.7531734 -1.8377578 4288085770
0.88061523 5.9040723 -1.829183 4288085770
4.169632 8.0340862 -1.8369871 4288085770
1.137249 6.0864 -1.8363801 4288085770
1.4249496 6.2886515 -1.8453701 4288085770
1.6725235 6.4609528 -1.8426511 4288085770
1.9481544 6.6491876 -1.841755 4288085770
2.2388 6.8453751 -1.8397672 4288085770
2.5464706 7.0505147 -1.8376757 4288085770
2.8892021 7.276567 -1.8373578 4288085770
3.3040924 7.5474601 -1.8445638 4288085770
3.7279816 7.8223124 -1.8487198 4288085770
4.1578445 8.0951233 -1.8478663 4288085770
12.129662 -1.0482006 -1.7364212 4288085770
11.264687 -1.0837665 -1.746554 4288085770
10.452732 -1.1124899 -1.7544718 4288085770
9.6947899 -1.1383579 -1.7631905 4288085770
9.054863 -1.1655247 -1.7775128 4288085770
8.3819351 -1.1826446 -1.7828971 4288085770
7.7130127 -1.1918004 -1.7832279 4288085770
7.1050949 -1.200115 -1.785346 4288085770
6.5501785 -1.2085724 -1.7882837 4288085770
6.0082703 -1.211081 -1.7881471 4288085770
12.103168 -1.9660993 -1.7531239 4288085770
5.5493813 -1.2187808 -1.7957532 4288085770
11.10339 -1.9313006 -1.7613639 4288085770
5.1184883 -1.2235627 -1.8022492 4288085770
10.222603 -1.9018235 -1.7712244 4288085770
4.6906013 -1.2253687 -1.8057197 4288085770
9.3598137 -1.8654261 -1.7749885 4288085770
4.2597084 -1.2221859 -1.8051753 4288085770
8.7430191 -1.8556085 -1.7990462 4288085770
3.8598289 -1.2180786 -1.8065206 4288085770
8.0352287 -1.8266215 -1.806318 4288085770
3.5029449 -1.2160819 -1.8097297 4288085770
7.3934288 -1.7998137 -1.8143756 4288085770
3.1430702 -1.2100859 -1.8109287 4288085770
6.6836243 -1.7548952 -1.8065742 4288085770
2.8041878 -1.2041535 -1.8110563 4288085770
6.0288239 -1.7121196 -1.8005958 4288085770
2.5113182 -1.2013195 -1.8170425 4288085770
5.4960175 -1.6826344 -1.8042678 4288085770
2.2104492 -1.1934831 -1.8190309 4288085770
4.9982109 -1.6542511 -1.8068255 4288085770
1.9015732 -1.181649 -1.8160266 4288085770
4.5444031 -1.6269751 -1.8122389 4288085770
1.6347084 -1.173907 -1.8178993 4288085770
4.1255913 -1.6018014 -1.8165432 4288085770
1.3838425 -1.1662042 -1.8207177 4288085770
3.7107773 -1.5726538 -1.8178141 4288085770
1.1299782 -1.1555088 -1.8205311 4288085770
3.3129616 -1.5435572 -1.818027 4288085770
0.89810944 -1.1458638 -1.822275 4288085770
2.9541435 -1.5175595 -1.8201222 4288085770
0.65724564 -1.1322141 -1.8200294 4288085770
2.5923233 -1.4875741 -1.8182079 4288085770
0.44438553 -1.1216214 -1.8217034 4288085770
2.2795067 -1.4626994 -1.8211519 4288085770
0.24852371 -1.1120722 -1.8243248 4288085770
1.9616814 -1.4348309 -1.8200978 4288085770
0.034664154 -1.0964968 -1.8219774 4288085770
1.6818657 -1.4110434 -1.8239347 4288085770
-0.12018967 -1.0920272 -1.8314842 4288085770
1.398037 -1.3832691 -1.822765 4288085770
-0.29904175 -1.0795298 -1.833033 4288085770
1.1312141 -1.3575373 -1.8225478 4288085770
-0.48490524 -1.0650275 -1.8315952 4288085770
0.88739014 -1.3338594 -1.8242621 4288085770
-0.67476654 -1.0475335 -1.8261561 4288085770
0.6545639 -1.3102121 -1.8259394 4288085770
-0.84962845 -1.0310674 -1.8236711 4288085770
0.43273163 -1.2866006 -1.826579 4288085770
-1.0054855 -1.0166438 -1.8231317 4288085770
0.22690964 -1.2640228 -1.8291695 4288085770
-1.1473389 -1.005239 -1.8265594 4288085770
0.021080017 -1.2404561 -1.8297548 4288085770
-1.3032036 -0.98883009 -1.8230097 4288085770
-0.19675827 -1.2128847 -1.824361 4288085770
-1.4200439 -0.9794755 -1.8303626 4288085770
-0.39659119 -1.1863534 -1.820911 4288085770
-1.5468979 -0.96611786 -1.8327296 4288085770
-0.56441879 -1.1658819 -1.8233823 4288085770
-1.6637421 -0.95477772 -1.8370724 4288085770
-0.7322464 -1.143415 -1.8248438 4288085770
-1.7835922 -0.94143963 -1.8394156 4288085770
-0.88908386 -1.1229792 -1.8262777 4288085770
-1.9004478 -0.92711949 -1.8397436 4288085770
-1.0509148 -1.0985436 -1.8247087 4288085770
-1.1867485 -1.0801561 -1.8280814 4288085770
-1.3405838 -1.0557482 -1.8254851 4288085770
-1.4594116 -1.0383928 -1.8318051 4288085770
-1.5832443 -1.0190437 -1.8341321 4288085770
-1.7130814 -0.99769235 -1.8334694 4288085770
-1.8379211 -0.97635484 -1.8327898 4288085770
-1.9547577 -0.95503473 -1.833083 4288085770
-2.1762657 0.92581594 -1.7741481 4288085770
-2.0611115 0.93950105 -1.7757068 4288085770
-1.9259377 0.95515478 -1.7821906 4288085770
-1.8168106 0.96782851 -1.7777741 4288085770
-1.7126961 0.97950172 -1.7703792 4288085770
-1.5775452 0.99313176 -1.771873 4288085770
-1.4374046 1.0067381 -1.7713505 4288085770
-1.278244 1.0223156 -1.7757562 4288085770
-2.1333771 0.9566741 -1.7758902 4288085770
-1.1230927 1.0368854 -1.7761803 4288085770
-2.0012169 0.96833146 -1.7814034 4288085770
-0.94992447 1.0524241 -1.7805405 4288085770
-1.8720779 0.97897804 -1.7829314 4288085770
-0.80080795 1.063977 -1.7739989 4288085770
-1.7519531 0.98763061 -1.7804987 4288085770
-0.62466049 1.0774884 -1.7743593 4288085770
-1.6258316 0.9962666 -1.7780465 4288085770
-0.44351959 1.0909764 -1.7727038 4288085770
-1.483696 1.0058724 -1.778537 4288085770
-0.23736191 1.1064138 -1.7749567 4288085770
-1.3385658 1.0154653 -1.7780181 4288085770
-0.032215118 1.1208401 -1.7742182 4288085770
-1.1794243 1.0250285 -1.7794536 4288085770
0.1729126 1.1332566 -1.7714894 4288085770
-1.0162849 1.0345809 -1.780876 4288085770
0.41207504 1.1486026 -1.7736351 4288085770
-0.8641777 1.0411352 -1.7763489 4288085770
0.67123413 1.1648978 -1.7767107 4288085770
-0.69304657 1.0496604 -1.7767504 4288085770
0.91537476 1.1782061 -1.7738504 4288085770
-0.48488617 1.0601115 -1.7830211 4288085770
1.1684952 1.1904798 -1.7689656 4288085770
-0.30677795 1.0665936 -1.77841 4288085770
1.4136009 1.1997523 -1.7591218 4288085770
-0.10264587 1.0740274 -1.7787086 4288085770
1.7207489 1.2149001 -1.7590464 4288085770
0.1074791 1.0814397 -1.7779881 4288085770
2.1559868 1.2397823 -1.7775047 4288085770
0.33460617 1.0888095 -1.7782122 4288085770
2.4701004 1.2508727 -1.7694265 4288085770
0.57974243 1.0961391 -1.7803777 4288085770
2.7551689 1.2570009 -1.7524678 4288085770
0.83787155 1.1024228 -1.7805057 4288085770
3.2143593 1.2767645 -1.7598729 4288085770
1.0949821 1.1076952 -1.7776421 4288085770
3.6685219 1.2935135 -1.7613094 4288085770
1.3360672 1.1089884 -1.7698503 4288085770
4.1186447 1.3062404 -1.7557786 4288085770
1.5941544 1.1102297 -1.7610031 4288085770
4.631794 1.3218117 -1.7540281 4288085770
1.9202766 1.1153343 -1.7629149 4288085770
5.2219658 1.3401927 -1.7570126 4288085770
2.2894211 1.1213384 -1.7686816 4288085770
5.8451195 1.3564632 -1.7558991 4288085770
2.5954895 1.1194371 -1.7576931 4288085770
6.6073265 1.3794044 -1.7662987 4288085770
2.9535828 1.1194245 -1.7535253 4288085770
7.4575462 1.4041063 -1.7774025 4288085770
3.4367447 1.1261358 -1.7639163 4288085770
8.3577347 1.4256408 -1.7823582 4288085770
3.8778572 1.1259069 -1.7624784 4288085770
9.1137962 1.4314474 -1.760862 4288085770
4.3409462 1.1236078 -1.7589787 4288085770
10.093929 1.4467031 -1.7535874 4288085770
4.8540497 1.1211838 -1.7583163 4288085770
10.98296 1.4481168 -1.7266781 4288085770
5.4401588 1.1185715 -1.7604162 4288085770
12.233093 1.4646231 -1.718515 4288085770
6.0812683 1.1148113 -1.7633418 4288085770
6.7903709 1.1098623 -1.7660514 4288085770
7.6245155 1.1056089 -1.777349 4288085770
8.4405899 1.094344 -1.7757398 4288085770
9.1595688 1.071254 -1.7545052 4288085770
10.137619 1.0525349 -1.7514027 4288085770
11.024574 1.021974 -1.7286556 4288085770
12.202587 0.99367607 -1.7199464 4288085770
4.1550789 -7.5855241 -0.22830808 4293729569
4.0665054 -7.5130181 -0.2931779 4293729569
4.0118866 -7.4615865 -0.35806724 4293729569
3.967247 -7.4131894 -0.42094728 4293729569
4.0174789 -7.4279847 -0.48890227 4293729569
3.9948235 -7.3896327 -0.55277807 4293729569
3.9961472 -7.3643298 -0.61765897 4293729569
3.9744987 -7.3199906 -0.6795041 4293729569
3.9378738 -7.2626262 -0.73932302 4293729569
4.0180969 -7.2824903 -0.80723149 4293729569
3.9545212 -7.2010789 -0.8640005 4293729569
4.075695 -7.2420268 -0.93391216 4293729569
4.553791 -7.4829593 -0.33291674 4293729569
4.0850258 -7.2047677 -0.99371791 4293729569
4.5841179 -7.4517331 -0.39570189 4293729569
4.1542854 -7.2046227 -1.0585581 4293729569
4.6304245 -7.4285483 -0.45748746 4293729569
4.2954559 -7.2496114 -1.129442 4293729569
4.3797112 -7.2524962 -1.1952616 4293729569
4.4889412 -7.2684274 -1.2630839 4293729569
4.6141586 -7.2913852 -1.332902 4293729569
4.8696251 -7.3399529 -0.70052356 4293729569
4.7283974 -7.303328 -1.4006941 4293729569
4.9798737 -7.3429112 -0.76328278 4293729569
5.0281982 -7.3037553 -0.81998903 4293729569
5.0675468 -7.2555795 -0.87667394 4293729569
5.5895729 -7.6430287 -1.670287 4293729569
5.2417297 -7.2886777 -0.94042557 4293729569
5.221386 -7.3381705 -1.6747185 4293729569
5.3689804 -7.2886844 -1.0011317 4293729569
4.8871498 -7.0553784 -1.6811743 4293729569
5.5621605 -7.3248153 -1.0668534 4293729569
4.5469017 -6.7716117 -1.6796393 4293729569
5.7064056 -7.3278565 -1.1285342 4293729569
4.1966476 -6.4848399 -1.6741136 4293729569
5.9065895 -7.3610053 -1.1942261 4293729569
3.9332886 -6.2532306 -1.6766441 4293729569
6.0248718 -7.3420091 -1.2508644 4293729569
3.6918869 -6.0366702 -1.6791937 4293729569
6.1831131 -7.343081 -1.3125037 4293729569
3.473465 -5.8341622 -1.6817559 4293729569
3.2839966 -5.6507106 -1.6863401 4293729569
3.1125031 -5.4793 -1.6909388 4293729569
2.9809647 -5.3319616 -1.6995573 4293729569
2.8424301 -5.1806207 -1.7051734 4293729569
7.716713 -7.6958365 -1.6846029 4293729569
2.7078819 -5.0332999 -1.7087991 4293729569
7.3894768 -7.40908 -1.687025 4293729569
2.603302 -4.9030328 -1.7154351 4293729569
4.4316673 -5.7427793 -1.3801063 4293729569
2.4917221 -4.7697582 -1.7200732 4293729569
4.4160461 -5.6476254 -1.4057004 4293729569
2.4360886 -4.6675797 -1.731727 4293729569
4.412056 -5.5575194 -1.4303207 4293729569
2.3441162 -4.5463796 -1.7344018 4293729569
4.4473839 -5.4884686 -1.4589196 4293729569
2.3264465 -4.4632688 -1.7500575 4293729569
4.5106964 -5.4294705 -1.4895006 4293729569
2.4107018 -4.4313097 -1.7827159 4293729569
4.6339569 -5.3995824 -1.5260789 4293729569
2.5599098 -4.4304481 -1.8263693 4293729569
5.8353577 -5.8855138 -1.6985685 4293729569
2.7361031 -4.4396291 -1.8740071 4288085770
5.7008438 -5.7221971 -1.7011214 4293729569
2.7953796 -4.3896508 -1.8986398 4288085770
5.5972939 -5.5739417 -1.7056731 4293729569
2.726738 -4.2784996 -1.898283 4288085770
5.4627647 -5.41365 -1.7032404 4293729569
2.6450958 -4.1633415 -1.8929378 4288085770
5.3821831 -5.2794466 -1.7078047 4293729569
2.5684433 -4.0511947 -1.8875951 4288085770
5.337574 -5.1603169 -1.7143559 4293729569
2.507782 -3.9460754 -1.8842481 4288085770
5.2549858 -5.0281329 -1.7139348 4293729569
2.4681015 -3.8529892 -1.8839091 4288085770
5.2273521 -4.9190469 -1.7194941 4293729569
2.4114227 -3.7518888 -1.878572 4288085770
5.1907158 -4.8079534 -1.7220649 4293729569
2.383728 -3.6638341 -1.877229 4288085770
5.1181068 -4.6808066 -1.7186443 4293729569
2.3720131 -3.5838079 -1.8778863 4288085770
5.1684074 -4.6058698 -1.7301831 4293729569
2.3483162 -3.496768 -1.8755389 4288085770
5.3696251 -4.5891876 -1.7606452 4293729569
2.3186111 -3.4087281 -1.8702008 4288085770
5.686779 -4.6137004 -1.8060316 4288085770
2.314888 -3.3327246 -1.869859 4288085770
6.0219307 -4.6422439 -1.8533958 4288085770
2.3051643 -3.2537208 -1.8665171 4288085770
6.128212 -4.5794244 -1.866863 4288085770
2.3134346 -3.1827493 -1.8651712 4288085770
6.104557 -4.468399 -1.8614055 4288085770
2.3226967 -3.1107845 -1.8628186 4288085770
6.10989 -4.3664303 -1.8579236 4288085770
2.3439598 -3.0428324 -1.8634572 4288085770
6.098217 -4.2604413 -1.8504623 4288085770
2.3592148 -2.9738865 -1.860105 4288085770
6.1325226 -4.1705327 -1.8479702 4288085770
2.3864555 -2.9079623 -1.8577392 4288085770
6.1818161 -4.0846548 -1.8464619 4288085770
2.4097099 -2.8400335 -1.8543737 4288085770
6.2321053 -4.0007882 -1.8429615 4288085770
2.4499512 -2.7801342 -1.8530065 4288085770
6.3003883 -3.9199581 -1.8404338 4288085770
2.4931908 -2.7192473 -1.850628 4288085770
6.3886642 -3.8451643 -1.8398883 4288085770
2.5544243 -2.6633863 -1.8512317 4288085770
6.4169617 -3.7512794 -1.8293926 4288085770
2.60466 -2.6035199 -1.8478422 4288085770
6.5642128 -3.6926012 -1.8327868 4288085770
2.6698875 -2.547677 -1.846437 4288085770
6.6624756 -3.618844 -1.829224 4288085770
2.7411118 -2.4938498 -1.8450277 4288085770
6.7787323 -3.5481324 -1.8246342 4288085770
2.8213387 -2.4410415 -1.8436024 4288085770
6.9069862 -3.4804435 -1.8210312 4288085770
2.9015617 -2.3872337 -1.8421729 4288085770
7.043232 -3.4137774 -1.8164148 4288085770
3.0107765 -2.3414774 -1.8437144 4288085770
7.1934776 -3.3491426 -1.8117759 4288085770
3.079998 -2.283668 -1.8372917 4288085770
7.3857117 -3.2925858 -1.8110783 4288085770
3.1932144 -2.2359314 -1.8368151 4288085770
7.552948 -3.2289996 -1.804406 4288085770
3.2864304 -2.1831675 -1.8323615 4288085770
7.7551765 -3.1724792 -1.8006865 4288085770
3.4216385 -2.1394753 -1.8328537 4288085770
8.0213852 -3.1280813 -1.8018767 4288085770
3.564846 -2.0958014 -1.8333279 4288085770
8.2965927 -3.0827088 -1.8020419 4288085770
3.7000542 -2.0481234 -1.830802 4288085770
8.5968018 -3.0383935 -1.8021553 4288085770
3.8682556 -2.0075026 -1.8322337 4288085770
8.8550186 -2.9830141 -1.7953142 4288085770
4.0164642 -1.9608541 -1.8296833 4288085770
9.1922226 -2.9407878 -1.7943532 4288085770
4.1996651 -1.9182715 -1.8300718 4288085770
9.5484238 -2.8976088 -1.7923449 4288085770
4.383873 -1.8737011 -1.8284492 4288085770
9.916626 -2.8524671 -1.7883004 4288085770
4.5740738 -1.8301439 -1.8268179 4288085770
10.341816 -2.813446 -1.7861544 4288085770
4.7832756 -1.7856297 -1.8251388 4288085770
10.818008 -2.7775311 -1.7859064 4288085770
5.0314789 -1.7471867 -1.8273991 4288085770
11.292198 -2.7376261 -1.7826455 4288085770
5.2446823 -1.700696 -1.8227026 4288085770
11.804382 -2.6988173 -1.7773032 4288085770
5.5108795 -1.6593075 -1.8219087 4288085770
12.334572 -2.6550632 -1.7688974 4288085770
5.7810783 -1.6159325 -1.820097 4288085770
12.963753 -2.6215072 -1.7663132 4288085770
6.0792847 -1.573617 -1.8192265 4288085770
6.374485 -1.5283084 -1.8153493 4288085770
6.7306786 -1.4881206 -1.8153572 4288085770
7.1198845 -1.4469981 -1.8172858 4288085770
7.5150909 -1.4039037 -1.816192 4288085770
7.9142952 -1.3568368 -1.8110712 4288085770
8.3704987 -1.3118815 -1.8098307 4288085770
8.8527031 -1.2649951 -1.8065225 4288085770
9.2439117 -1.2039654 -1.7893575 4288085770
9.7971268 -1.15325 -1.7838713 4288085770
10.40834 -1.1006668 -1.7782447 4288085770
11.020554 -1.0431092 -1.7675937 4288085770
11.785782 -0.98985791 -1.765615 4288085770
12.56601 -0.92867351 -1.7565665 4288085770
13.201092 1.431877 -1.7336376 4288085770
12.284348 1.4949715 -1.7392886 4288085770
11.435581 1.5508944 -1.7408284 4288085770
10.763851 1.6124636 -1.7529736 4288085770
10.196121 1.6738098 -1.767902 4288085770
9.690403 1.7370238 -1.7846924 4288085770
9.0856094 1.7843883 -1.7847579 4288085770
8.6358719 1.8414576 -1.7974575 4288085770
8.25914 1.9003786 -1.8139964 4288085770
7.7293167 1.9385419 -1.8069443 4288085770
7.1014214 1.9608579 -1.7841643 4288085770
6.6786118 1.9998002 -1.7818849 4288085770
6.2757912 2.0376883 -1.777568 4288085770
5.8829575 2.0715451 -1.7712475 4288085770
12.81612 3.0266905 -1.7286689 4288085770
5.5541496 2.1102784 -1.7697723 4288085770
12.169319 3.0631721 -1.7338696 4288085770
5.2313271 2.1459892 -1.7662973 4288085770
11.521488 3.0916345 -1.7341064 4288085770
4.9505157 2.184618 -1.7657223 4288085770
11.067734 3.1427128 -1.7468408 4288085770
4.672699 2.221231 -1.7631494 4288085770
10.626972 3.1927531 -1.7575526 4288085770
4.4198837 2.2577915 -1.7615246 4288085770
10.313263 3.2575438 -1.7769356 4288085770
4.1880722 2.2963092 -1.7608472 4288085770
10.018555 3.3222876 -1.7952794 4288085770
3.9752655 2.3357835 -1.7601261 4288085770
9.7738647 3.39393 -1.8164889 4288085770
3.7674522 2.3732464 -1.7594033 4288085770
9.4681168 3.4516637 -1.8268855 4288085770
3.5946541 2.4146385 -1.7605906 4288085770
9.1713638 3.5063722 -1.8362762 4288085770
3.4198494 2.4550309 -1.7607862 4288085770
8.7815361 3.5392308 -1.8319547 4288085770
3.2650566 2.4963865 -1.7629362 4288085770
8.4577408 3.5819612 -1.8324529 4288085770
3.0952377 2.5327499 -1.7591386 4288085770
8.1969643 3.6325665 -1.8367862 4288085770
2.9844627 2.5820277 -1.7661623 4288085770
7.9071655 3.6762111 -1.835209 4288085770
2.8516617 2.6233244 -1.7662665 4288085770
7.608345 3.7138629 -1.8306766 4288085770
2.7498894 2.6725686 -1.7702719 4288085770
7.3575516 3.7604232 -1.830006 4288085770
2.6751366 2.726773 -1.7791996 4288085770
7.1147499 3.8049569 -1.8273271 4288085770
2.6083794 2.7809548 -1.787111 4288085770
6.8779488 3.8484724 -1.8236403 4288085770
2.517601 2.8301694 -1.7900938 4288085770
6.6391296 3.8879793 -1.8169748 4288085770
2.4498367 2.8833404 -1.7950115 4288085770
6.4083061 3.9274683 -1.8102925 4288085770
2.3530464 2.9285557 -1.7950239 4288085770
6.2345238 3.977845 -1.8074449 4288085770
2.2392235 2.9677832 -1.7890974 4288085770
6.0637398 4.0292149 -1.8045866 4288085770
2.1594429 3.0159597 -1.7890617 4288085770
5.8729248 4.0726128 -1.7978042 4288085770
2.0866623 3.0651202 -1.7890073 4288085770
5.7731857 4.1388435 -1.7997346 4288085770
2.0198784 3.1142673 -1.7889405 4288085770
5.6424141 4.1941271 -1.7977765 4288085770
1.9761124 3.1703794 -1.7927961 4288085770
5.5596809 4.2653141 -1.7986501 4288085770
1.9133339 3.2215128 -1.7917123 4288085770
5.434906 4.3215709 -1.7936752 4288085770
1.8715706 3.2776117 -1.7935638 4288085770
5.3621788 4.3937407 -1.795524 4288085770
1.8568306 3.3426621 -1.7983208 4288085770
5.2624092 4.4559402 -1.7904717 4288085770
1.8160667 3.3987546 -1.7991703 4288085770
5.1946716 4.5260854 -1.7893187 4288085770
1.8063316 3.4647892 -1.802913 4288085770
5.147953 4.6041861 -1.789088 4288085770
1.7955894 3.5308261 -1.8066576 4288085770
5.1072388 4.6842742 -1.7888367 4288085770
1.7998695 3.6028378 -1.8123455 4288085770
5.085537 4.7693229 -1.7895248 4288085770
1.8181686 3.6798267 -1.8199832 4288085770
5.0678444 4.857358 -1.7891917 4288085770
1.8134308 3.7488413 -1.8217031 4288085770
5.0691681 4.9523587 -1.7907895 4288085770
1.8257141 3.8238258 -1.8253621 4288085770
5.0664825 5.0443602 -1.7904086 4288085770
1.8299904 3.8968201 -1.8270464 4288085770
5.0958366 5.1523018 -1.7928929 4288085770
1.8212471 3.9648263 -1.824779 4288085770
5.1231842 5.2582426 -1.7943904 4288085770
1.8285179 4.038805 -1.8244531 4288085770
5.1765594 5.3741302 -1.7967914 4288085770
1.8247795 4.1087956 -1.8211672 4288085770
5.2379494 5.4960032 -1.8001504 4288085770
1.8430595 4.1877494 -1.8207976 4288085770
5.3023376 5.6198606 -1.8014948 4288085770
1.8593407 4.2657032 -1.8194363 4288085770
5.4227982 5.768621 -1.8096167 4288085770
1.878624 4.3456459 -1.8170605 4288085770
5.5392532 5.9183774 -1.8147428 4288085770
1.8989029 4.4275818 -1.8136742 4288085770
5.7197952 6.0980234 -1.8276086 4288085770
1.9392166 4.5174809 -1.8122125 4288085770
5.8212242 6.2427883 -1.8267881 4288085770
