# .PCD v0.7 - Point Cloud Data file format
VERSION 0.7
FIELDS x y z rgb
SIZE 4 4 4 4
TYPE F F F U
COUNT 1 1 1 1
WIDTH 1125
HEIGHT 1
VIEWPOINT 0 0 0 1 0 0 0
POINTS 1125
DATA ascii
5.0847931 0.69127274 -1.836979 4288085770
6.846756 0.80283594 -1.8289117 4288085770
5.2969055 0.70040655 -1.8386537 4288085770
7.1648407 0.81705761 -1.8304335 4288085770
5.489975 0.70666313 -1.8333169 4288085770
7.5009308 0.83231401 -1.8309335 4288085770
5.7280884 0.71477938 -1.8369111 4288085770
7.8320312 0.84566545 -1.8264085 4288085770
5.952179 0.72202206 -1.8335215 4288085770
8.2431183 0.86190748 -1.8307503 4288085770
6.2192993 0.72918367 -1.8360285 4288085770
8.6311951 0.87628746 -1.8271109 4288085770
6.4963837 0.73637295 -1.8375126 4288085770
9.0542755 0.8896966 -1.8233703 4288085770
6.7754669 0.74260473 -1.8369745 4288085770
9.5493774 0.9060483 -1.8255173 4288085770
7.0565796 0.74691582 -1.8323942 4288085770
10.089478 0.92345953 -1.8265787 4288085770
7.3716736 0.75121737 -1.829734 4288085770
10.688568 0.94087934 -1.8295015 4288085770
7.7307739 0.75745726 -1.8320082 4288085770
11.330658 0.95837641 -1.8303248 4288085770
8.1338806 0.76365709 -1.8381785 4288085770
12.004745 0.97395897 -1.8280362 4288085770
8.5189819 0.76699781 -1.8363363 4288085770
12.704819 0.98772144 -1.8176509 4288085770
8.9050751 0.76745939 -1.8284358 4288085770
13.529907 1.0054135 -1.8160487 4288085770
9.3621674 0.7698226 -1.828406 4288085770
14.49501 1.0251446 -1.8181564 4288085770
9.8842773 0.77218199 -1.8312238 4288085770
15.613098 1.0469661 -1.8219441 4288085770
10.425385 0.77259827 -1.8319598 4288085770
16.917206 1.071866 -1.8293546 4288085770
11.05249 0.77400923 -1.8365136 4288085770
11.714615 0.77153063 -1.8369101 4288085770
12.368698 0.76620054 -1.8292712 4288085770
13.160812 0.75983286 -1.8292884 4288085770
14.013916 0.75255585 -1.8271447 4288085770
15.030045 0.74428129 -1.8316015 4288085770
16.16716 0.73311043 -1.835719 4288085770
17.563309 0.72096395 -1.8492118 4288085770
12.850357 -7.6088138 -1.7739643 4293729569
9.2803345 -5.577189 -0.76259768 4293729569
12.588287 -7.3662162 -1.7852157 4293729569
9.2654266 -5.4887795 -0.79334617 4293729569
12.253128 -7.0874248 -1.7833184 4293729569
9.2795258 -5.4143586 -0.82476246 4293729569
9.2499695 -5.4532743 -1.4442035 4293729569
9.3346405 -5.3599362 -0.85770512 4293729569
9.2340393 -5.3627687 -1.4699925 4293729569
9.2171173 -5.270226 -1.4938222 4293729569
9.2652435 -5.2107701 -1.5248755 4293729569
9.3573914 -5.1693654 -1.5604876 4293729569
10.914612 -5.817615 -1.7957085 4293729569
10.754562 -5.6467586 -1.7973498 4293729569
10.574509 -5.4678254 -1.7941881 4293729569
10.45047 -5.3159509 -1.7963852 4293729569
10.329437 -5.1670346 -1.7965182 4293729569
10.235428 -5.0331473 -1.7993039 4293729569
17.097015 -7.7781768 -1.7797204 4293729569
10.167435 -4.9092746 -1.8038403 4293729569
16.861893 -7.5363421 -1.7798916 4293729569
10.09642 -4.7883639 -1.8063258 4293729569
16.596771 -7.28546 -1.7762998 4293729569
10.028427 -4.6674132 -1.8068048 4293729569
16.448685 -7.0866342 -1.7804552 4293729569
9.9884338 -4.5595279 -1.8119723 4293729569
16.361649 -6.9108243 -1.7880367 4293729569
10.037506 -4.4857659 -1.8272938 4293729569
16.197571 -6.7079158 -1.7873026 4293729569
10.253693 -4.4753346 -1.8670422 4293729569
16.110519 -6.5380254 -1.7907683 4293729569
10.535919 -4.4890265 -1.9161869 4288085770
16.0625 -6.3821378 -1.7958804 4293729569
10.748093 -4.4705215 -1.952099 4288085770
16.016479 -6.2292066 -1.7989305 4293729569
10.778137 -4.3826451 -1.9607307 4288085770
15.551208 -5.9287963 -1.7587074 4293729569
10.722107 -4.2655282 -1.953106 4288085770
14.853836 -5.555119 -1.6943864 4293729569
10.685104 -4.1554503 -1.9483057 4288085770
14.941849 -5.4592242 -1.7050508 4293729569
10.6651 -4.0533929 -1.9453145 4288085770
15.991409 -5.6772876 -1.8076323 4293729569
10.667114 -3.9563336 -1.94318 4288085770
16.147461 -5.5924048 -1.8219403 4293729569
10.683136 -3.8642783 -1.9419187 4288085770
16.169449 -5.4623103 -1.8194014 4293729569
10.703171 -3.7751994 -1.9395913 4288085770
16.25946 -5.3532643 -1.8223122 4293729569
10.738174 -3.690146 -1.9391545 4288085770
16.379501 -5.2562242 -1.8269287 4293729569
10.77121 -3.6060557 -1.9367031 4288085770
16.444473 -5.1400876 -1.8240284 4293729569
10.81723 -3.5239501 -1.9341851 4288085770
16.686554 -5.0740809 -1.8357872 4293729569
10.877274 -3.4458709 -1.93356 4288085770
16.892609 -4.9929957 -1.8419117 4293729569
10.935287 -3.366756 -1.9309584 4288085770
17.090637 -4.9088798 -1.8461112 4293729569
10.997314 -3.2876163 -1.9273483 4288085770
17.409714 -4.8548369 -1.859475 4293729569
11.074356 -3.2134814 -1.9246098 4288085770
17.864853 -4.8288713 -1.8830096 4293729569
11.19339 -3.1464019 -1.9266461 4288085770
11.263428 -3.0681977 -1.9199997 4288085770
11.385468 -3.0010581 -1.9190296 4288085770
11.512497 -2.9318938 -1.9170877 4288085770
11.643524 -2.865726 -1.9150797 4288085770
11.827591 -2.8076015 -1.9178044 4288085770
11.965622 -2.739388 -1.9138201 4288085770
12.164688 -2.681231 -1.9155132 4288085770
12.364731 -2.6200337 -1.9152616 4288085770
12.537766 -2.5537667 -1.9101645 4288085770
12.785812 -2.4975619 -1.9117147 4288085770
12.977844 -2.4292397 -1.9046155 4288085770
13.253906 -2.3729882 -1.9051067 4288085770
13.524948 -2.3127046 -1.903685 4288085770
13.830994 -2.2544045 -1.9031509 4288085770
14.165054 -2.1960797 -1.902557 4288085770
14.491089 -2.1327033 -1.8990768 4288085770
14.908142 -2.0773559 -1.9012486 4288085770
15.322205 -2.0179534 -1.900504 4288085770
15.849274 -1.9666324 -1.9093648 4288085770
16.364319 -1.9091897 -1.9113675 4288085770
16.919373 -1.8497071 -1.9133242 4288085770
17.570465 -1.7932181 -1.9200329 4288085770
18.208527 -1.730638 -1.9208804 4288085770
18.135239 1.1231074 -1.8269144 4288085770
17.052277 1.1661186 -1.8206271 4288085770
16.025314 1.2042832 -1.8091465 4288085770
15.133362 1.2415156 -1.801411 4288085770
14.419434 1.2817678 -1.8024231 4288085770
13.716476 1.3171449 -1.7973202 4288085770
13.110535 1.3525486 -1.7960485 4288085770
12.583603 1.3899617 -1.7986768 4288085770
12.084671 1.4244432 -1.7991992 4288085770
11.648727 1.4599528 -1.8016289 4288085770
11.207794 1.4925146 -1.8010114 4288085770
10.806854 1.5241165 -1.8003055 4288085770
17.319077 2.3081393 -1.7918357 4288085770
10.413925 1.5528026 -1.795529 4288085770
16.456146 2.317349 -1.7865082 4288085770
10.044983 1.5804954 -1.7916912 4288085770
15.64624 2.3246889 -1.7770511 4288085770
9.7310486 1.6121526 -1.7928327 4288085770
14.954315 2.33706 -1.7724847 4288085770
9.4441071 1.6438389 -1.7939278 4288085770
14.27739 2.3445401 -1.7627972 4288085770
9.156189 1.671598 -1.790949 4288085770
13.76947 2.3689752 -1.765139 4288085770
8.9002533 1.7023177 -1.7919704 4288085770
13.232544 2.38451 -1.7603599 4288085770
8.6613312 1.7330737 -1.7919618 4288085770
12.805618 2.4110107 -1.7635986 4288085770
8.4223938 1.7608662 -1.7898968 4288085770
12.360687 2.4296246 -1.7597171 4288085770
8.2214813 1.7926435 -1.7908415 4288085770
12.005783 2.4591823 -1.763887 4288085770
8.0105286 1.8214474 -1.7897457 4288085770
11.684845 2.4917769 -1.7680544 4288085770
7.8376007 1.8532352 -1.7916414 4288085770
11.38092 2.5233893 -1.7721738 4288085770
7.656662 1.8840523 -1.7915305 4288085770
11.067993 2.5490665 -1.7721952 4288085770
7.4867401 1.912899 -1.7903639 4288085770
10.766052 2.5747933 -1.770197 4288085770
7.3188019 1.9427476 -1.7892114 4288085770
10.484131 2.600522 -1.769164 4288085770
7.165863 1.9726133 -1.7880334 4288085770
10.246185 2.6332412 -1.7711869 4288085770
7.0389252 2.0064311 -1.7908853 4288085770
10.015259 2.6640048 -1.7711602 4288085770
6.8929901 2.0353403 -1.7876755 4288085770
9.8193207 2.7017298 -1.7752041 4288085770
6.7760773 2.0701876 -1.7895283 4288085770
9.6024017 2.7315454 -1.7731336 4288085770
6.6281281 2.0951505 -1.7832466 4288085770
9.4384613 2.7702866 -1.7781416 4288085770
6.541214 2.1329732 -1.7881039 4288085770
9.2585144 2.8051043 -1.7781008 4288085770
6.4232635 2.1638937 -1.7858821 4288085770
9.0865784 2.8389478 -1.7770277 4288085770
6.323349 2.1977949 -1.7856859 4288085770
8.9026337 2.868835 -1.7728995 4288085770
6.2404022 2.2346597 -1.7885166 4288085770
8.7397156 2.9017076 -1.7707914 4288085770
6.1394501 2.2656159 -1.7852656 4288085770
8.5857697 2.9356079 -1.7676862 4288085770
6.0365143 2.2955885 -1.7809988 4288085770
8.4498138 2.9714894 -1.7665879 4288085770
5.9615784 2.3315167 -1.7807964 4288085770
8.3058777 3.0044374 -1.7614468 4288085770
5.8806458 2.3654566 -1.7795666 4288085770
8.2069397 3.0483019 -1.763435 4288085770
5.8367157 2.4093065 -1.7854606 4288085770
8.0940094 3.088208 -1.7623714 4288085770
5.748764 2.4403319 -1.7791861 4288085770
7.9910431 3.1291423 -1.7603093 4288085770
5.6958313 2.4802456 -1.7810203 4288085770
7.9091187 3.177043 -1.7613424 4288085770
5.6188812 2.5132637 -1.7757636 4288085770
7.83815 3.2259362 -1.7633756 4288085770
5.5739441 2.5542049 -1.7766029 4288085770
7.7752228 3.2758391 -1.7654141 4288085770
5.5200043 2.593173 -1.7754191 4288085770
7.7112427 3.3277757 -1.7654907 4288085770
5.4900513 2.6390915 -1.7783257 4288085770
7.6512909 3.3787177 -1.7655419 4288085770
5.4371185 2.6770988 -1.7751213 4288085770
7.5753479 3.4236991 -1.7625076 4288085770
5.394165 2.7180963 -1.772956 4288085770
7.5263824 3.4776707 -1.7615958 4288085770
5.341217 2.7551398 -1.7677327 4288085770
7.477417 3.530642 -1.7606653 4288085770
5.3102875 2.7991128 -1.7676028 4288085770
7.4434662 3.5896111 -1.7608212 4288085770
5.2793121 2.8431234 -1.7654728 4288085770
7.4075012 3.6466148 -1.7589432 4288085770
5.2353668 2.882194 -1.759271 4288085770
7.3825226 3.707592 -1.7591213 4288085770
5.2324066 2.9371223 -1.7632989 4288085770
7.367569 3.7725801 -1.7593571 4288085770
5.2104797 2.983161 -1.7601908 4288085770
7.351593 3.8375857 -1.7585942 4288085770
5.2255096 3.0450699 -1.7663187 4288085770
7.3606262 3.9125421 -1.7619761 4288085770
5.1985626 3.0891395 -1.7611815 4288085770
7.3626404 3.9845471 -1.7623137 4288085770
5.1956024 3.1441593 -1.7602087 4288085770
7.3676605 4.0575733 -1.7616647 4288085770
5.1826477 3.1932077 -1.7571408 4288085770
7.3736725 4.1316195 -1.7600325 4288085770
5.2026825 3.2581768 -1.760316 4288085770
7.3866882 4.2086725 -1.7584447 4288085770
5.1927032 3.3092637 -1.7552804 4288085770
7.4037018 4.2877293 -1.7568876 4288085770
5.2197418 3.3782218 -1.7595178 4288085770
7.4397278 4.3767681 -1.757485 4288085770
5.2117767 3.4293475 -1.752479 4288085770
7.4707031 4.4628391 -1.7560347 4288085770
5.2488098 3.5023346 -1.7557749 4288085770
7.504715 4.5509315 -1.7536169 4288085770
5.2928314 3.5803096 -1.760152 4288085770
7.571701 4.6549649 -1.7564424 4288085770
5.3198547 3.6483603 -1.7593714 4288085770
7.629715 4.7560635 -1.7552272 4288085770
5.3618622 3.7263877 -1.7607516 4288085770
7.7076721 4.8671432 -1.7561654 4288085770
5.3958893 3.7994633 -1.7590524 4288085770
7.7906647 4.9822292 -1.7571694 4288085770
5.4498901 3.8825037 -1.7605067 4288085770
7.8656311 5.0943804 -1.754131 4288085770
5.5039215 3.9665442 -1.761979 4288085770
7.9586029 5.2155128 -1.7532307 4288085770
5.5619049 4.0526066 -1.7624823 4288085770
8.0725555 5.3496294 -1.7545382 4288085770
5.6459198 4.1546221 -1.7672406 4288085770
8.1985016 5.4907575 -1.7559561 4288085770
5.7189178 4.250699 -1.7679054 4288085770
8.3264465 5.6339426 -1.7544087 4288085770
5.7968903 4.3487816 -1.7685994 4288085770
8.4723816 5.7891083 -1.7550548 4288085770
5.8959045 4.4598298 -1.7725011 4288085770
8.6443024 5.9582639 -1.7579197 4288085770
5.9858856 4.5669422 -1.772343 4288085770
8.8432007 6.1464281 -1.7620941 4288085770
6.0858459 4.6790466 -1.7732621 4288085770
9.0610809 6.3456097 -1.7664429 4288085770
6.1688385 4.7842441 -1.7680787 4288085770
9.2929688 6.5568237 -1.769992 4288085770
6.2657928 4.8964376 -1.7640032 4288085770
9.5518341 6.7850466 -1.774814 4288085770
6.3947754 5.0275526 -1.7662288 4288085770
9.7337036 6.96945 -1.7649437 4288085770
6.5197296 5.1567554 -1.7634245 4288085770
9.9445801 7.1718454 -1.7573613 4288085770
6.6756744 5.3058772 -1.7669414 4288085770
10.184418 7.3942876 -1.7491046 4288085770
6.8356171 5.4580588 -1.7675084 4288085770
10.44426 7.6287503 -1.7410392 4288085770
6.9965363 5.611279 -1.7660924 4288085770
10.774048 7.9091887 -1.7387162 4288085770
7.1634674 5.7695413 -1.7627608 4288085770
7.3323822 5.9288425 -1.7574447 4288085770
7.5852509 6.1419868 -1.7659963 4288085770
7.8401337 6.3582258 -1.7696017 4288085770
8.0979919 6.5764856 -1.7722403 4288085770
8.422821 6.8387017 -1.7815892 4282675967
8.6746521 7.0541215 -1.7751836 4288085770
8.9385223 7.2765908 -1.7668902 4288085770
9.2513275 7.5330706 -1.7611502 4288085770
9.5651398 7.7886076 -1.7523922 4288085770
9.9079285 8.0641909 -1.7429599 4288085770
17.33075 -0.79318428 -1.8563796 4288085770
16.196869 -0.81332779 -1.8491389 4288085770
15.196976 -0.83237457 -1.844786 4288085770
14.322098 -0.84835148 -1.8443664 4288085770
13.517227 -0.8602314 -1.8429495 4288085770
12.827347 -0.87408924 -1.8473877 4288085770
12.179443 -0.88386345 -1.8498548 4288085770
11.608551 -0.89360428 -1.8552488 4288085770
18.319229 -1.4037433 -1.8891789 4288085770
11.021652 -0.89723921 -1.8537608 4288085770
16.829254 -1.3569484 -1.8634187 4288085770
10.447739 -0.89575243 -1.8463467 4288085770
15.664291 -1.3261409 -1.8570758 4288085770
9.9678497 -0.8983202 -1.8477741 4288085770
14.70137 -1.3022075 -1.8564237 4288085770
9.5239563 -0.89986372 -1.8501841 4288085770
13.798447 -1.2781892 -1.8547119 4288085770
9.098053 -0.8993516 -1.8506111 4288085770
13.013519 -1.2560735 -1.8548561 4288085770
8.6851501 -0.8967905 -1.8490595 4288085770
12.308594 -1.2359176 -1.8578893 4288085770
8.32724 -0.89523745 -1.8514396 4288085770
11.713684 -1.221745 -1.8667158 4288085770
7.9843445 -0.89265108 -1.8528222 4288085770
11.081757 -1.1983838 -1.8627311 4288085770
7.65242 -0.88801527 -1.8522257 4288085770
10.518814 -1.1769795 -1.8606435 4288085770
7.3495178 -0.88338232 -1.8536047 4288085770
9.9728851 -1.1535001 -1.8555769 4288085770
7.0696259 -0.87974215 -1.8559445 4288085770
9.5149689 -1.1370826 -1.8593069 4288085770
6.800705 -0.87508821 -1.8582903 4288085770
9.0580292 -1.1155391 -1.8561221 4288085770
6.5568085 -0.87146044 -1.8635951 4288085770
8.6591187 -1.0980363 -1.8588136 4288085770
6.2978973 -0.86270809 -1.8610007 4288085770
8.262207 -1.0784431 -1.8565367 4288085770
6.0559845 -0.85497189 -1.8603719 4288085770
7.8992767 -1.0588279 -1.8552285 4288085770
5.8390808 -0.84825897 -1.8627027 4288085770
7.5643463 -1.0412164 -1.8558587 4288085770
5.6021576 -0.83744669 -1.8581201 4288085770
7.2674255 -1.0266347 -1.8604013 4288085770
5.409256 -0.82972383 -1.8614455 4288085770
6.9785004 -1.0099883 -1.8619713 4288085770
5.2203369 -0.82196474 -1.8627664 4288085770
6.7106018 -0.99331903 -1.8635219 4288085770
5.0384521 -0.81317616 -1.8630983 4288085770
6.469696 -0.97968817 -1.8689948 4288085770
4.8255157 -0.79826641 -1.8545607 4288085770
6.1987457 -0.95891619 -1.8646156 4288085770
4.6706085 -0.79151917 -1.858832 4288085770
5.9438324 -0.93912506 -1.8602034 4288085770
4.5266876 -0.78375959 -1.8631109 4288085770
5.7248993 -0.92340088 -1.861689 4288085770
4.3657837 -0.77293205 -1.862456 4288085770
5.5039978 -0.90560675 -1.8592104 4288085770
4.2088623 -0.7610817 -1.8608135 4288085770
5.2910461 -0.88680267 -1.8567406 4288085770
4.0859528 -0.75433397 -1.8670546 4288085770
5.1221466 -0.87410927 -1.8631283 4288085770
3.9350281 -0.74142361 -1.862424 4288085770
4.9142151 -0.85321188 -1.8556882 4288085770
3.7941132 -0.72853804 -1.8597842 4288085770
4.7403107 -0.8374176 -1.8561305 4288085770
3.6622009 -0.71665907 -1.8581187 4288085770
4.5813904 -0.8216238 -1.85756 4288085770
4.4384613 -0.80786514 -1.8619398 4288085770
4.2775421 -0.79100227 -1.8593863 4288085770
4.1316223 -0.77415943 -1.8588203 4288085770
4.0007172 -0.75933266 -1.8602055 4288085770
3.856781 -0.74243355 -1.8566355 4288085770
3.7138519 -0.72349691 -1.8510991 4288085770
3.5879211 -0.70661306 -1.8495132 4288085770
3.3575897 1.1429229 -1.8015882 4288085770
3.4716797 1.1600347 -1.8028907 4288085770
3.5857391 1.1771984 -1.8011945 4288085770
3.7078247 1.1943364 -1.8014988 4288085770
3.8368988 1.2114658 -1.8028034 4288085770
3.9749756 1.2306061 -1.8041433 4288085770
4.1300507 1.2506971 -1.8095001 4288085770
4.2801361 1.2698498 -1.8108422 4288085770
3.4143372 1.1288495 -1.8084801 4288085770
4.4181976 1.2850785 -1.8071178 4288085770
3.5334015 1.1409674 -1.8097001 4288085770
4.5622864 1.3003116 -1.8033947 4288085770
3.6425018 1.1511779 -1.8048881 4288085770
4.7133636 1.3155718 -1.7986726 4288085770
3.795578 1.1672149 -1.8131775 4288085770
4.8974304 1.335732 -1.8020362 4288085770
3.906662 1.1744466 -1.8073148 4288085770
5.068512 1.3519807 -1.7993318 4288085770
4.0667419 1.1905093 -1.8146065 4288085770
5.2545776 1.3692293 -1.7976476 4288085770
4.1938324 1.1987419 -1.8097645 4288085770
5.4556427 1.3884792 -1.7969993 4288085770
4.3709106 1.214807 -1.8180591 4288085770
5.6657257 1.407721 -1.7973531 4288085770
4.4819946 1.2181606 -1.8051349 4288085770
5.8978119 1.4279547 -1.7997254 4288085770
4.6450806 1.2293482 -1.8053476 4288085770
6.1278839 1.446238 -1.7990664 4288085770
4.8261719 1.241488 -1.8095785 4288085770
6.3759613 1.466526 -1.7994438 4288085770
5.0032501 1.2516937 -1.8097774 4288085770
6.632019 1.4848576 -1.7977897 4288085770
5.1883392 1.2619081 -1.8099784 4288085770
6.9271088 1.5081487 -1.8012241 4288085770
5.3904114 1.2731075 -1.8121985 4288085770
7.2141724 1.5275002 -1.800593 4288085770
5.568512 1.2784185 -1.8063177 4288085770
7.5192413 1.5468726 -1.7999653 4288085770
5.772583 1.2866731 -1.8054906 4288085770
7.8313141 1.5662885 -1.7973412 4288085770
5.9986877 1.2959194 -1.8066832 4288085770
8.1723938 1.5857382 -1.794721 4288085770
6.2317657 1.3041744 -1.8078612 4288085770
8.5244751 1.6042013 -1.7920882 4288085770
6.4698486 1.3114696 -1.8070251 4288085770
8.9295502 1.6266918 -1.7915293 4288085770
6.7169495 1.3158102 -1.80414 4288085770
9.3496246 1.6472182 -1.7899417 4288085770
6.9920349 1.3241153 -1.8053268 4288085770
9.8006744 1.6687636 -1.7893752 4288085770
7.2731323 1.3284616 -1.8044492 4288085770
10.32074 1.6953206 -1.7929047 4288085770
7.5592194 1.3328323 -1.8025748 4288085770
10.837814 1.7179618 -1.7913712 4288085770
7.8653107 1.336225 -1.8006879 4288085770
11.403885 1.7406435 -1.7908467 4288085770
8.2024231 1.3396215 -1.8008062 4288085770
12.053955 1.7683725 -1.7934202 4288085770
8.5575104 1.3430209 -1.8019294 4288085770
12.652023 1.7842479 -1.7837914 4288085770
8.9375916 1.3454695 -1.8020414 4288085770
13.391098 1.8101344 -1.783352 4288085770
9.3037109 1.3420038 -1.796054 4288085770
14.202164 1.8371067 -1.7829443 4288085770
9.7417908 1.3424864 -1.7981449 4288085770
15.121231 1.8671718 -1.7846068 4288085770
10.215897 1.3430109 -1.8002445 4288085770
16.185287 1.9033213 -1.7913967 4288085770
10.736984 1.3425403 -1.8053364 4288085770
17.419327 1.9465861 -1.803336 4288085770
11.28009 1.3401294 -1.8084024 4288085770
11.828201 1.33183 -1.8053728 4288085770
12.406311 1.3205829 -1.8013016 4288085770
13.026428 1.3044224 -1.7951561 4288085770
13.723541 1.2902665 -1.7940618 4288085770
14.515656 1.2741714 -1.7959505 4288085770
15.348785 1.2541604 -1.7957884 4288085770
16.355911 1.235218 -1.8036772 4288085770
17.515015 1.214354 -1.8175658 4288085770
9.5052185 -7.7011104 -1.7350906 4293729569
9.0679474 -7.3855815 -1.7340533 4293729569
8.6907196 -7.1090417 -1.7364124 4293729569
8.3775177 -6.8765349 -1.7450904 4293729569
8.0773468 -6.6499648 -1.7506746 4293729569
7.7971649 -6.4353814 -1.7570719 4293729569
7.5310211 -6.2287488 -1.7613443 4293729569
7.3048706 -6.0491309 -1.7691997 4293729569
7.0477448 -5.8464046 -1.7684053 4293729569
6.7966003 -5.6466184 -1.764562 4293729569
9.9741058 -7.6484628 -1.7312838 4293729569
6.6395264 -5.5109935 -1.7767385 4293729569
9.6288605 -7.3739514 -1.7376159 4293729569
6.4544373 -5.3552566 -1.780218 4293729569
9.2536011 -7.0793309 -1.7352456 4293729569
6.2443237 -5.1814036 -1.7749699 4293729569
8.9253845 -6.8156962 -1.7353989 4293729569
6.0312195 -5.0055022 -1.7667469 4293729569
8.6732178 -6.6031137 -1.7437702 4293729569
5.8911591 -4.8777413 -1.7717942 4293729569
8.4500732 -6.4085097 -1.7528685 4293729569
5.7501068 -4.7499309 -1.7738382 4293729569
8.2219238 -6.2108464 -1.7580079 4293729569
5.615036 -4.6250958 -1.7748357 4293729569
8.0087891 -6.0231643 -1.7629918 4293729569
5.5170135 -4.5233455 -1.7834848 4293729569
7.8186798 -5.8514676 -1.7687291 4293729569
5.4129791 -4.4175191 -1.7871927 4293729569
7.6535797 -5.694756 -1.7752391 4293729569
5.3069611 -4.3106799 -1.7899133 4293729569
7.45047 -5.5149446 -1.7730893 4293729569
5.3319702 -4.2861991 -1.8234009 4293729569
7.2783661 -5.3551421 -1.7736357 4293729569
5.3980255 -4.28583 -1.8665313 4293729569
7.1182861 -5.2033067 -1.7730583 4293729569
5.4700928 -4.2884526 -1.9096185 4288085770
6.9872284 -5.0695195 -1.7772087 4293729569
5.4821167 -4.2498899 -1.9373261 4288085770
6.8551636 -4.9346642 -1.7773722 4293729569
5.3871002 -4.1459527 -1.9350027 4288085770
6.7441101 -4.8138499 -1.7813228 4293729569
5.2850647 -4.0379605 -1.9287366 4288085770
6.624054 -4.687963 -1.7803448 4293729569
5.2110443 -3.9470458 -1.9292156 4288085770
6.5420074 -4.5841432 -1.7860392 4293729569
5.1430359 -3.858108 -1.928666 4288085770
6.4579773 -4.4792781 -1.7887465 4293729569
5.0510254 -3.7570863 -1.9212888 4288085770
6.3589478 -4.3653808 -1.7885851 4293729569
4.9880219 -3.6721253 -1.9196731 4288085770
6.3839569 -4.3227353 -1.8123742 4293729569
4.9200134 -3.5841212 -1.9151026 4288085770
6.4990082 -4.3272891 -1.8544821 4293729569
4.8650055 -3.5051503 -1.9133955 4288085770
6.6180725 -4.3318524 -1.897595 4288085770
4.8170166 -3.4301705 -1.9116281 4288085770
6.700119 -4.3142982 -1.9310342 4288085770
4.7660217 -3.3521619 -1.9079064 4288085770
6.6631165 -4.2324214 -1.936406 4288085770
4.7360382 -3.2872062 -1.9089907 4288085770
6.6071014 -4.1404691 -1.9359215 4288085770
4.6890564 -3.2121768 -1.9042214 4288085770
6.532074 -4.0394588 -1.9305638 4288085770
4.6640778 -3.1501994 -1.9042598 4288085770
6.4700775 -3.9464478 -1.926087 4288085770
4.6300964 -3.0821843 -1.9013869 4288085770
6.4200592 -3.8584399 -1.9225389 4288085770
4.5951233 -3.0141387 -1.8965119 4288085770
6.3950806 -3.7834802 -1.9238023 4288085770
4.585144 -2.9591594 -1.8974487 4288085770
6.3440704 -3.6974397 -1.9182178 4288085770
4.5611725 -2.8981318 -1.8944684 4288085770
6.3370819 -3.6314912 -1.9213501 4288085770
4.5502014 -2.8431211 -1.8934029 4288085770
6.2990875 -3.5524325 -1.9156626 4288085770
4.5412292 -2.7891231 -1.8933223 4288085770
6.2961273 -3.488462 -1.9177653 4288085770
4.5362701 -2.7361045 -1.8922294 4288085770
6.2751312 -3.4164319 -1.9149793 4288085770
4.527298 -2.6820588 -1.8891479 4288085770
6.2551422 -3.3453679 -1.9101774 4288085770
4.5223236 -2.629024 -1.8870531 4288085770
6.2531738 -3.2833304 -1.9082459 4288085770
4.5203857 -2.5779681 -1.8839294 4288085770
6.2531738 -3.2213063 -1.9073163 4288085770
4.5354309 -2.5349736 -1.8856922 4288085770
6.2592163 -3.1612582 -1.9053608 4288085770
4.5384521 -2.4849114 -1.8825566 4288085770
6.2672424 -3.103209 -1.9033738 4288085770
4.5545044 -2.4418826 -1.8823203 4288085770
6.2952728 -3.0521979 -1.9052941 4288085770
4.5645447 -2.3968282 -1.8801097 4288085770
6.2932892 -2.9900784 -1.8983611 4288085770
4.5946198 -2.3578143 -1.8818229 4288085770
6.3223419 -2.9400344 -1.8982657 4288085770
4.6176453 -2.3167939 -1.8825613 4288085770
6.366394 -2.8950038 -1.9001058 4288085770
4.6427002 -2.2767367 -1.8812853 4288085770
6.3984222 -2.8459401 -1.8989974 4288085770
4.6577454 -2.2326436 -1.8770636 4288085770
6.4254456 -2.7938333 -1.8949326 4288085770
4.7018127 -2.1986299 -1.879711 4288085770
6.4794922 -2.7517743 -1.8957349 4288085770
4.7428589 -2.1625848 -1.8803879 4288085770
6.5335541 -2.7077146 -1.8965701 4288085770
4.7678986 -2.1214957 -1.8771285 4288085770
6.5735931 -2.6595912 -1.8924552 4288085770
4.7979431 -2.0813832 -1.8728584 4288085770
6.624649 -2.6144719 -1.8893038 4288085770
4.8560181 -2.0513673 -1.8764573 4288085770
6.7056885 -2.5794101 -1.8920246 4288085770
4.9120636 -2.0183377 -1.8791033 4288085770
6.761734 -2.5352836 -1.8888632 4288085770
4.947113 -1.9802032 -1.8738035 4288085770
6.853775 -2.5012097 -1.8915769 4288085770
5.0271606 -1.9542089 -1.8803638 4288085770
6.9338379 -2.4620862 -1.8903636 4288085770
5.0692291 -1.9150653 -1.8750926 4288085770
7.0228882 -2.425983 -1.8911122 4288085770
5.1302795 -1.8829808 -1.8747298 4288085770
7.1089325 -2.387836 -1.8888909 4288085770
5.1833344 -1.847857 -1.8714067 4288085770
7.193985 -2.3486743 -1.8856856 4288085770
5.2644043 -1.8197961 -1.8740033 4288085770
7.3010406 -2.3145328 -1.8854254 4288085770
5.3394623 -1.7897096 -1.874626 4288085770
7.4081116 -2.2793584 -1.8831831 4288085770
5.4205322 -1.7606149 -1.8752404 4288085770
7.5321655 -2.2482114 -1.8838969 4288085770
5.5105896 -1.7325263 -1.8768502 4288085770
7.663208 -2.2170577 -1.8846205 4288085770
5.5706482 -1.6963296 -1.8695544 4288085770
7.7792664 -2.1808419 -1.8804084 4288085770
5.6717072 -1.6702428 -1.8721465 4288085770
7.9233551 -2.1506534 -1.8801347 4288085770
5.777771 -1.644135 -1.8737456 4288085770
8.0813904 -2.121449 -1.8798629 4288085770
5.8768463 -1.6139874 -1.8724023 4288085770
8.2124786 -2.0851827 -1.8736733 4288085770
5.9749146 -1.5838246 -1.8700587 4288085770
8.3875275 -2.056973 -1.8744096 4288085770
6.0979767 -1.5587106 -1.8726658 4288085770
8.5756073 -2.0297484 -1.8751482 4288085770
6.2240143 -1.5325799 -1.8742939 4288085770
8.778656 -2.0045037 -1.8758746 4288085770
6.3690948 -1.5094543 -1.8778969 4288085770
8.978714 -1.976234 -1.8746461 4288085770
6.519165 -1.48634 -1.8825098 4288085770
9.2047882 -1.9509616 -1.8754066 4288085770
6.6592102 -1.4591422 -1.8811761 4288085770
9.4338531 -1.9246545 -1.8741893 4288085770
6.7702789 -1.4258828 -1.8739046 4288085770
9.6759186 -1.8973155 -1.872008 4288085770
6.9113464 -1.3966346 -1.8696073 4288085770
9.9319916 -1.8709741 -1.8708307 4288085770
7.0854187 -1.3714433 -1.8712894 4288085770
10.235046 -1.8496251 -1.872636 4288085770
7.2514954 -1.3441958 -1.8689953 4288085770
10.544113 -1.8262353 -1.8724853 4288085770
7.4265442 -1.3159547 -1.8677307 4288085770
10.873184 -1.8028216 -1.8723642 4288085770
7.6236115 -1.2907176 -1.8684484 4288085770
11.239258 -1.7823949 -1.8742462 4288085770
7.8306885 -1.2644553 -1.8681971 4288085770
11.653336 -1.7649417 -1.8781477 4288085770
8.0337524 -1.2361465 -1.8649756 4288085770
12.03241 -1.7383857 -1.8731536 4288085770
8.2698212 -1.2108464 -1.864751 4288085770
12.453476 -1.7138114 -1.8701867 4288085770
8.5198822 -1.1845298 -1.8645641 4288085770
12.973541 -1.697227 -1.8742279 4288085770
8.7869415 -1.1582074 -1.8654023 4288085770
13.455627 -1.6715293 -1.8683697 4288085770
9.0700226 -1.1318507 -1.865265 4288085770
14.040695 -1.6528182 -1.8695427 4288085770
9.3720703 -1.1044545 -1.8641728 4288085770
14.678772 -1.6350417 -1.8707782 4288085770
9.6941376 -1.0770478 -1.8641087 4288085770
15.410828 -1.6201997 -1.8750972 4288085770
10.020218 -1.0475745 -1.8600882 4288085770
16.20993 -1.6052575 -1.8785197 4288085770
10.410263 -1.0211177 -1.8621103 4288085770
17.099991 -1.5922217 -1.8830439 4288085770
10.827332 -0.99362993 -1.8641895 4288085770
18.16507 -1.5850673 -1.8937229 4288085770
11.305389 -0.96812916 -1.8703252 4288085770
11.756454 -0.93752003 -1.8675102 4288085770
12.231522 -0.9028306 -1.8617982 4288085770
12.77858 -0.87010336 -1.8591591 4288085770
13.381638 -0.8353076 -1.8566376 4288085770
14.025681 -0.79944515 -1.8531963 4288085770
14.78476 -0.76450586 -1.8539089 4288085770
15.610809 -0.72748518 -1.8547574 4288085770
16.624847 -0.69134712 -1.862867 4288085770
17.712891 -0.65003872 -1.8661751 4288085770
18.23288 2.1813045 -1.8079067 4288085770
17.673889 2.2537427 -1.8041629 4288085770
17.199905 2.3312154 -1.8046187 4288085770
16.64296 2.3897872 -1.7916673 4288085770
16.162003 2.4533691 -1.7839013 4288085770
15.754044 2.5189867 -1.7792736 4288085770
15.414062 2.5906215 -1.7788352 4288085770
15.05394 2.6553016 -1.7746505 4288085770
14.758972 2.7259951 -1.7732137 4288085770
14.439011 2.7897201 -1.7676352 4288085770
14.182037 2.8604693 -1.7652575 4288085770
13.954056 2.9322219 -1.7649392 4288085770
13.705093 2.9990096 -1.7605146 4288085770
13.570099 3.082792 -1.7655162 4288085770
13.393112 3.1566145 -1.7643057 4288085770
13.226151 3.2324488 -1.7631396 4288085770
13.082138 3.3102927 -1.7630378 4288085770
12.977158 3.3961368 -1.7661136 4288085770
12.854172 3.4750185 -1.7650589 4288085770
12.747192 3.5569317 -1.7630726 4288085770
12.654205 3.6408315 -1.763137 4288085770
12.555222 3.7237685 -1.7601768 4288085770
12.51622 3.8196838 -1.7634996 4288085770
12.474197 3.9146392 -1.7638026 4288085770
12.452194 4.0145869 -1.7662092 4288085770
12.422195 4.1125703 -1.7655739 4288085770
12.437164 4.2235436 -1.7691973 4288085770
12.439148 4.3315315 -1.7707566 4288085770
12.490097 4.4535303 -1.7755955 4288085770
12.4561 4.5505943 -1.7689375 4288085770
12.388138 4.6366944 -1.7570659 4288085770
12.416122 4.753768 -1.7547947 4288085770
12.483078 4.8838253 -1.7567731 4288085770
12.602997 5.0338979 -1.7621244 4288085770
12.712921 5.1819873 -1.7654303 4288085770
12.836853 5.3380919 -1.7688738 4288085770
12.966766 5.496232 -1.7703553 4288085770
13.062729 5.6444073 -1.7666379 4288085770
13.232605 5.8235893 -1.7684852 4288085770
13.45549 6.0247555 -1.7757345 4288085770
13.680344 6.2309685 -1.7800587 4288085770
13.843262 6.4152427 -1.7749659 4288085770
14.01416 6.6045403 -1.7689573 4288085770
14.248016 6.8218617 -1.7664529 4288085770
14.483902 7.0452137 -1.7620379 4288085770
14.70076 7.2636166 -1.7525195 4288085770
14.973602 7.5100508 -1.7454945 4288085770
15.319382 7.7925057 -1.7431046 4288085770
18.634583 -0.28057957 -1.8724698 4288085770
17.095734 -0.29520988 -1.8583981 4288085770
15.791855 -0.3076396 -1.8497936 4288085770
14.689972 -0.31687832 -1.8446091 4288085770
13.753098 -0.32600832 -1.845734 4288085770
12.900208 -0.33202887 -1.8460582 4288085770
12.193298 -0.33796358 -1.8526555 4288085770
11.512421 -0.34078407 -1.8533443 4288085770
17.787689 -0.5375185 -1.8642422 4288085770
10.86351 -0.34152746 -1.8511213 4288085770
16.413788 -0.52207565 -1.858898 4288085770
10.257645 -0.34017992 -1.8460072 4288085770
15.151886 -0.50340605 -1.8468064 4288085770
9.741745 -0.3398118 -1.8470472 4288085770
14.146988 -0.49061918 -1.8481113 4288085770
9.2468567 -0.33737755 -1.8451549 4288085770
13.241074 -0.47768927 -1.847602 4288085770
8.8159485 -0.33491039 -1.846382 4288085770
12.446152 -0.46463108 -1.8473009 4288085770
8.4000549 -0.33139944 -1.8456517 4288085770
11.774231 -0.45454168 -1.8551873 4288085770
8.0261536 -0.32786655 -1.8469998 4288085770
11.075333 -0.43930387 -1.8500944 4288085770
7.6632385 -0.32330704 -1.8473827 4288085770
10.451431 -0.42599297 -1.8461143 4288085770
7.3453369 -0.31870985 -1.8488497 4288085770
9.9045258 -0.4126339 -1.8452779 4288085770
7.0324249 -0.31310797 -1.8503405 4288085770
9.3986053 -0.40022898 -1.844505 4288085770
6.7455292 -0.30744696 -1.8498796 4288085770
8.9546967 -0.38779259 -1.8468472 4288085770
6.4766388 -0.3018074 -1.8524524 4288085770
8.5167999 -0.37529325 -1.8452016 4288085770
6.2167358 -0.29510212 -1.8510565 4288085770
8.1298828 -0.36276388 -1.8456508 4288085770
5.9668274 -0.28738594 -1.8496929 4288085770
7.7779541 -0.35122108 -1.8481513 4288085770
5.723938 -0.27963209 -1.8463429 4288085770
7.4390564 -0.33863544 -1.8486909 4288085770
5.5180206 -0.27292013 -1.8490478 4288085770
7.1251526 -0.32700729 -1.8482634 4288085770
5.3151093 -0.26517725 -1.8497721 4288085770
6.8222351 -0.31435204 -1.8468703 4288085770
5.1222076 -0.25742102 -1.8505155 4288085770
6.5493317 -0.3016901 -1.8475331 4288085770
4.9143066 -0.24758768 -1.8442589 4288085770
6.2884369 -0.29000139 -1.8472048 4288085770
4.7314148 -0.23878002 -1.8420352 4288085770
6.0445099 -0.27730656 -1.847922 4288085770
4.572525 -0.2310133 -1.8448421 4288085770
5.7966003 -0.26454687 -1.8436323 4288085770
4.4196167 -0.22221184 -1.8456739 4288085770
5.5727081 -0.25178671 -1.8413874 4288085770
4.2577057 -0.21237993 -1.8435031 4288085770
5.3687897 -0.23903179 -1.8411793 4288085770
4.1148071 -0.20355368 -1.8433539 4288085770
5.1988983 -0.22833252 -1.8480064 4288085770
3.9689026 -0.1937027 -1.8412131 4288085770
4.9819794 -0.21446848 -1.8387893 4288085770
3.8419952 -0.1848712 -1.8420943 4288085770
4.8070679 -0.20267868 -1.838622 4288085770
4.6421661 -0.18987894 -1.8384873 4288085770
4.4822693 -0.17807198 -1.8383478 4288085770
4.3353424 -0.16626453 -1.8392323 4288085770
4.1804504 -0.15339804 -1.8351167 4288085770
4.0425262 -0.14056587 -1.8350321 4288085770
3.9146423 -0.12872219 -1.8349525 4288085770
3.7877197 -0.11586475 -1.8338884 4288085770
3.8180237 1.9173312 -1.7796172 4288085770
3.9271088 1.9395342 -1.7741019 4288085770
4.0741577 1.971633 -1.7797898 4288085770
4.1932526 1.9938478 -1.7742926 4288085770
4.3572998 2.0289526 -1.7810508 4288085770
4.5063782 2.0571351 -1.7806877 4288085770
4.6574402 2.0853205 -1.7803279 4288085770
4.8235168 2.1164961 -1.7820355 4288085770
3.8339233 1.8312697 -1.7813944 4288085770
4.9945831 2.1466913 -1.7827386 4288085770
3.9599915 1.849412 -1.7818545 4288085770
5.173645 2.1778822 -1.7844688 4288085770
4.0910645 1.8685608 -1.7823368 4288085770
5.3577271 2.2081065 -1.7841948 4288085770
4.2281494 1.8877163 -1.7828299 4288085770
5.5467834 2.2383375 -1.7839297 4288085770
4.3802185 1.9098492 -1.7863902 4288085770
5.7458496 2.2695799 -1.7836956 4288085770
4.5263062 1.9280162 -1.7868854 4288085770
5.9609222 2.3028145 -1.7855169 4288085770
4.6734009 1.9451976 -1.786369 4288085770
6.210968 2.3440223 -1.7925092 4288085770
4.8314819 1.963378 -1.7868854 4288085770
6.4350281 2.375309 -1.7913193 4288085770
5.0195465 1.988513 -1.7935501 4288085770
6.6661072 2.4056301 -1.7881285 4288085770
5.1746216 2.0017452 -1.7899936 4288085770
6.9221802 2.4399276 -1.7890362 4288085770
5.3547211 2.0209532 -1.7905632 4288085770
7.1742401 2.4702749 -1.7858831 4288085770
5.5308075 2.0361834 -1.789071 4288085770
7.4683075 2.5096035 -1.7879258 4288085770
5.763855 2.0643187 -1.7998558 4288085770
7.7843475 2.549932 -1.7920214 4288085770
5.9309692 2.0726061 -1.7932528 4288085770
8.0904083 2.5863166 -1.7910448 4288085770
6.1210632 2.0848813 -1.7897447 4288085770
8.3884888 2.6157331 -1.7869591 4288085770
6.3551331 2.1070991 -1.7944499 4288085770
8.7305603 2.6531467 -1.7870597 4288085770
6.5662384 2.1193852 -1.791979 4288085770
9.0936737 2.6915956 -1.7862111 4288085770
6.8023682 2.1346564 -1.7925905 4288085770
9.5057068 2.736053 -1.7895247 4288085770
7.0534515 2.1509371 -1.7942394 4288085770
9.8778076 2.7675858 -1.7835902 4288085770
7.2975464 2.1642499 -1.7928349 4288085770
10.272888 2.8001456 -1.7777098 4288085770
7.5506592 2.1745744 -1.7914056 4288085770
10.758926 2.847693 -1.7811934 4288085770
7.8407288 2.1908875 -1.7941226 4288085770
11.230988 2.8863039 -1.7785298 4288085770
8.1408081 2.205214 -1.7968298 4288085770
11.696075 2.9199629 -1.7717854 4288085770
8.4329224 2.2145858 -1.7954551 4288085770
12.258133 2.9656286 -1.7733749 4288085770
8.7370148 2.223958 -1.7951008 4288085770
12.854172 3.0123615 -1.7730378 4288085770
9.0411224 2.2283711 -1.791679 4288085770
13.513214 3.0661163 -1.7769059 4288085770
9.3742218 2.2357793 -1.7913483 4288085770
14.210266 3.1179576 -1.7778138 4288085770
9.7383118 2.2432103 -1.7920727 4288085770
15.035263 3.1848435 -1.7871503 4288085770
10.109421 2.2486644 -1.7917813 4288085770
15.968262 3.2608182 -1.7997991 4288085770
10.538498 2.2581196 -1.7966467 4288085770
17.161194 3.3698864 -1.8293535 4288085770
10.947601 2.2616062 -1.7973946 4288085770
18.218185 3.4450512 -1.8392056 4288085770
11.36174 2.2581539 -1.7940568 4288085770
11.773849 2.2517123 -1.7896739 4288085770
12.212967 2.2432904 -1.7863115 4288085770
12.7061 2.2369065 -1.785071 4288085770
13.21521 2.226542 -1.7838041 4288085770
13.793335 2.2192068 -1.7866989 4288085770
14.349457 2.2019277 -1.7834193 4288085770
15.025558 2.1926713 -1.7894586 4288085770
15.735672 2.1794553 -1.795503 4288085770
16.536789 2.166296 -1.8057076 4288085770
17.405884 2.1511788 -1.8190035 4288085770
18.322006 2.1291461 -1.830289 4288085770
17.102859 -5.3732419 -0.33610928 4293729569
14.935577 -5.5861487 -0.49752045 4293729569
14.821716 -5.6667275 -0.52924395 4293729569
9.3274231 -5.285193 -1.0949788 4293729569
9.2805176 -5.3348508 -1.1392374 4293729569
9.361557 -5.4056287 -0.60337925 4293729569
9.2396088 -5.385529 -1.1854928 4293729569
9.2796326 -5.4333596 -0.64987171 4293729569
9.2407227 -5.4582324 -1.2375258 4293729569
9.2707367 -5.4960504 -0.70002151 4293729569
13.460724 -7.7393003 -1.7732536 4293729569
9.2898407 -5.5737453 -0.75301862 4293729569
12.87355 -7.5240951 -1.7791332 4293729569
12.280396 -7.2968345 -1.7801632 4293729569
11.716232 -7.0765204 -1.7801491 4293729569
11.213104 -6.8821597 -1.7818919 4293729569
10.725952 -6.6867681 -1.7826751 4293729569
10.257843 -6.4963355 -1.7824243 4293729569
9.7266846 -6.2638144 -1.7696272 4293729569
9.2915649 -6.0803142 -1.7673389 4293729569
8.9505005 -5.9428449 -1.7755963 4293729569
8.5934143 -5.7903152 -1.7780267 4293729569
8.3143463 -5.6798301 -1.7910286 4293729569
12.178223 -7.9157434 -1.7567211 4293729569
7.998291 -5.5422626 -1.7943286 4293729569
11.577957 -7.6225104 -1.7596186 4293729569
7.689209 -5.4036469 -1.7946538 4293729569
11.056763 -7.3702445 -1.7671033 4293729569
7.3721619 -5.2560029 -1.7920855 4293729569
10.527527 -7.1059108 -1.7687346 4293729569
7.0780792 -5.118341 -1.7904228 4293729569
9.9972992 -6.8335099 -1.7654706 4293729569
6.8120422 -4.9926724 -1.7906474 4293729569
9.55513 -6.6090798 -1.7677161 4293729569
6.5650177 -4.8760037 -1.7927841 4293729569
9.0869446 -6.3635745 -1.7621974 4293729569
6.3089752 -4.7492814 -1.7900389 4293729569
8.7018127 -6.1630712 -1.7642194 4293729569
6.1079559 -4.6536231 -1.7969733 4293729569
8.3847046 -5.9995875 -1.7738627 4293729569
5.9009247 -4.5509048 -1.7989906 4293729569
8.1096191 -5.8581033 -1.787284 4293729569
5.7039032 -4.4511886 -1.8019851 4293729569
7.7915039 -5.6865268 -1.7900323 4293729569
5.500885 -4.3454146 -1.8000497 4293729569
7.4723969 -5.5099006 -1.7888457 4293729569
5.3708801 -4.2837834 -1.8156503 4293729569
7.1652832 -5.3382325 -1.7856129 4293729569
5.3339233 -4.2783399 -1.8536607 4293729569
6.9002228 -5.1885781 -1.7871579 4293729569
5.3049622 -4.2769113 -1.8936313 4288085770
6.6731567 -5.0599542 -1.7944866 4293729569
5.2720032 -4.2704616 -1.931662 4288085770
6.4130859 -4.9082007 -1.7890667 4293729569
5.1470032 -4.2027736 -1.9433511 4288085770
6.1760101 -4.7684703 -1.7875255 4293729569
4.9929962 -4.113976 -1.944271 4288085770
5.9809723 -4.6517663 -1.7917484 4293729569
4.8380127 -4.0231547 -1.9432162 4288085770
5.7759247 -4.5270104 -1.791061 4293729569
4.673996 -3.9232774 -1.937266 4288085770
5.6139069 -4.4272895 -1.7971131 4293729569
4.5109863 -3.8223739 -1.9293305 4288085770
5.4338684 -4.3135142 -1.7973214 4293729569
4.3829956 -3.7425313 -1.9291743 4288085770
5.3798828 -4.2799878 -1.8276755 4293729569
4.2480011 -3.6556468 -1.9250995 4288085770
5.3889313 -4.2825637 -1.8716558 4293729569
4.1230164 -3.5747724 -1.9229616 4288085770
5.3929596 -4.2811475 -1.9156805 4288085770
3.9930267 -3.4888406 -1.9158818 4288085770
5.338974 -4.2405658 -1.9421276 4288085770
3.8960571 -3.4219975 -1.918604 4288085770
5.1819458 -4.1337228 -1.9392811 4288085770
5.0309448 -4.0288434 -1.9344178 4288085770
4.9079285 -3.940022 -1.9363884 4288085770
4.7709198 -3.8411269 -1.9314686 4288085770
4.6409302 -3.746223 -1.9265076 4288085770
4.5089264 -3.648293 -1.919583 4288085770
4.398941 -3.5633893 -1.9165221 4288085770
4.296936 -3.4824882 -1.914421 4288085770
4.1969604 -3.4025722 -1.9113101 4288085770
4.1079865 -3.3276553 -1.909151 4288085770
4.022995 -3.254746 -1.9079717 4288085770
3.9320068 -3.1777787 -1.9018358 4288085770
3.8620453 -3.112864 -1.9015752 4288085770
3.7770691 -3.0378881 -1.8954226 4288085770
3.8530121 -1.3367162 -1.8806804 4288085770
3.9130859 -1.3146358 -1.8800615 4288085770
3.9771729 -1.2945752 -1.8814219 4288085770
4.0462494 -1.275497 -1.8817776 4288085770
4.1053314 -1.252378 -1.8781699 4288085770
4.1544189 -1.2272191 -1.8705724 4288085770
4.2404938 -1.2101579 -1.8739282 4288085770
4.3495636 -1.1981454 -1.8832544 4288085770
4.4226532 -1.1760097 -1.8796555 4288085770
4.488739 -1.152842 -1.8730584 4288085770
4.5618286 -1.1296668 -1.8664724 4288085770
4.661911 -1.1125731 -1.8688499 4288085770
4.746994 -1.0924087 -1.8642431 4288085770
4.8980713 -1.0833831 -1.8765963 4288085770
3.8008728 -0.87372398 -1.8736054 4288085770
5.0491333 -1.0723443 -1.8879756 4288085770
3.875946 -0.85458517 -1.869969 4288085770
5.1232452 -1.0470891 -1.8754171 4288085770
3.9780273 -0.84051609 -1.8743097 4288085770
5.2123413 -1.0248666 -1.8668429 4288085770
4.0731201 -0.82441711 -1.8756651 4288085770
5.3394318 -1.0087008 -1.8662499 4288085770
4.1462097 -0.8042407 -1.8690387 4288085770
5.4785004 -0.9925456 -1.8676759 4288085770
4.2353058 -0.7870841 -1.8653983 4288085770
5.604599 -0.97434187 -1.8641073 4288085770
4.3503723 -0.77198553 -1.8687721 4288085770
5.7656708 -0.96017361 -1.8665415 4288085770
4.4784546 -0.75891018 -1.8751403 4288085770
5.9157562 -0.94396639 -1.8649846 4288085770
4.5565491 -0.73766279 -1.8635348 4288085770
6.0878448 -0.92877054 -1.8664497 4288085770
4.6626282 -0.72048473 -1.8599206 4288085770
6.2559357 -0.91253901 -1.864921 4288085770
4.787735 -0.70433474 -1.8603233 4288085770
6.4530182 -0.89832544 -1.8674122 4288085770
4.9208069 -0.68916035 -1.8597258 4288085770
6.6591034 -0.88408518 -1.8689176 4288085770
5.0688934 -0.67502165 -1.8631381 4288085770
6.8461914 -0.8667922 -1.864432 4288085770
5.2129822 -0.65883398 -1.8625709 4288085770
7.0712891 -0.85251665 -1.8649675 4288085770
5.3650818 -0.6436367 -1.8620032 4288085770
7.2913818 -0.83619452 -1.8615211 4288085770
5.5211639 -0.6274209 -1.8604547 4288085770
7.5244751 -0.81986952 -1.8590952 4288085770
5.679245 -0.61119032 -1.8579093 4288085770
7.7845612 -0.80551052 -1.8566858 4288085770
5.8623352 -0.59598017 -1.8593901 4288085770
8.0686493 -0.79114628 -1.8563143 4288085770
6.0614319 -0.58175039 -1.8608831 4288085770
8.3607483 -0.77574682 -1.8539687 4288085770
6.2525024 -0.56547737 -1.8583897 4288085770
8.6928406 -0.76233673 -1.8546599 4288085770
6.4665985 -0.55021524 -1.8589195 4288085770
9.0499268 -0.74889421 -1.8553909 4288085770
6.692688 -0.53492546 -1.8584682 4288085770
9.4190216 -0.73441029 -1.8541538 4288085770
6.8957977 -0.51657248 -1.8510197 4288085770
9.8250885 -0.72088003 -1.8529619 4288085770
7.1518707 -0.50225687 -1.8516027 4288085770
10.27919 -0.70832825 -1.8548332 4288085770
7.4169617 -0.48589182 -1.8492261 4288085770
10.760269 -0.6946907 -1.8527604 4288085770
7.7210388 -0.470541 -1.8518978 4288085770
11.325363 -0.68303776 -1.8577942 4288085770
8.0311279 -0.45513248 -1.8505794 4288085770
11.920441 -0.67129517 -1.8588756 4288085770
8.3562164 -0.43870401 -1.8492969 4288085770
12.517548 -0.65544653 -1.8520123 4288085770
8.7003021 -0.42122507 -1.8460582 4288085770
13.210648 -0.64255428 -1.8512617 4288085770
9.1083984 -0.40675783 -1.8498808 4288085770
13.987747 -0.62954426 -1.8496443 4288085770
9.5074768 -0.38919592 -1.8457288 4288085770
14.882828 -0.61843586 -1.8521873 4288085770
9.9695587 -0.37362242 -1.84665 4288085770
15.915924 -0.60715485 -1.8549489 4288085770
10.490646 -0.35699892 -1.8496774 4288085770
17.141998 -0.59869528 -1.8629767 4288085770
11.037735 -0.33929014 -1.8487591 4288085770
18.505096 -0.58801174 -1.8672475 4288085770
11.681808 -0.3225379 -1.8539809 4288085770
12.311905 -0.30265999 -1.84822 4288085770
13.051971 -0.28372192 -1.8486198 4288085770
13.824066 -0.2626791 -1.8440961 4288085770
14.724167 -0.2424984 -1.8417617 4288085770
15.812241 -0.22117424 -1.8467375 4288085770
17.140289 -0.20063686 -1.8590795 4288085770
18.585358 -0.17687511 -1.8656455 4288085770
18.566177 0.066196918 -1.8318774 4288085770
16.984299 0.067195892 -1.8212909 4288085770
15.619415 0.068445683 -1.8141996 4288085770
14.476517 0.07196331 -1.80964 4288085770
13.536591 0.074644089 -1.8145353 4288085770
12.714676 0.079491615 -1.8187236 4288085770
12.000732 0.084457397 -1.8251594 4288085770
11.283844 0.090523243 -1.8225957 4288085770
17.223923 0.12061405 -1.8118168 4288085770
10.65593 0.096682549 -1.8222364 4288085770
15.865005 0.1288476 -1.8067909 4288085770
10.055038 0.10293436 -1.8169366 4288085770
14.704086 0.13832903 -1.8032342 4288085770
9.532135 0.11023188 -1.8168277 4288085770
13.753159 0.14801741 -1.8061646 4288085770
9.0702057 0.11657476 -1.8198477 4288085770
12.903244 0.15782785 -1.8103269 4288085770
8.6652832 0.12396908 -1.8250107 4288085770
12.165314 0.16777372 -1.8157486 4288085770
8.2683716 0.13143206 -1.8251899 4288085770
11.481384 0.17783546 -1.817293 4288085770
7.8994598 0.13993168 -1.8254448 4288085770
10.80748 0.18799019 -1.8118576 4288085770
7.5465393 0.14846277 -1.8247348 4288085770
10.236557 0.19821358 -1.8126618 4288085770
7.236618 0.15700579 -1.8281237 4288085770
9.7186432 0.20850515 -1.8135868 4288085770
6.9327087 0.16561317 -1.826526 4288085770
9.2417297 0.21886206 -1.8136073 4288085770
6.6577911 0.1752243 -1.8280066 4288085770
8.8307953 0.229249 -1.818782 4288085770
6.3948822 0.18386316 -1.8285023 4288085770
8.4748688 0.2406621 -1.828096 4288085770
6.1489716 0.19352388 -1.8290488 4288085770
8.1289215 0.25212288 -1.8344318 4288085770
5.9110565 0.20221758 -1.8276011 4288085770
7.7290497 0.26169538 -1.8246142 4288085770
5.6931458 0.21191502 -1.8282109 4288085770
7.3851471 0.27228451 -1.819939 4288085770
5.501236 0.22162485 -1.8308817 4288085770
7.0932159 0.28387356 -1.8213977 4288085770
5.2993011 0.23136568 -1.8295273 4288085770
6.8013153 0.2935071 -1.8188316 4288085770
5.099411 0.24114418 -1.8251766 4288085770
6.5484009 0.30513668 -1.8213798 4288085770
4.9294891 0.25090361 -1.8258961 4288085770
6.3024902 0.3158083 -1.8209323 4288085770
4.7435913 0.2607131 -1.8205765 4288085770
6.0665588 0.3275032 -1.8195184 4288085770
4.6236572 0.27142477 -1.8314255 4288085770
5.847641 0.33821201 -1.8191324 4288085770
4.4687347 0.28223896 -1.8291897 4288085770
5.6507111 0.34992552 -1.8208097 4288085770
4.3218231 0.29205322 -1.8279606 4288085770
5.4757996 0.3616457 -1.8245386 4288085770
4.1879272 0.3028717 -1.8277735 4288085770
5.2819061 0.37240839 -1.8222095 4288085770
4.0670013 0.3136735 -1.8306166 4288085770
5.1229553 0.38514853 -1.8259858 4288085770
3.9380798 0.3245225 -1.8284401 4288085770
4.9360657 0.39496613 -1.8196598 4288085770
3.804184 0.3343873 -1.8242387 4288085770
4.7871399 0.40774298 -1.8214587 4288085770
4.6462402 0.41952991 -1.8232647 4288085770
4.5003204 0.43034506 -1.8220462 4288085770
4.3793945 0.44314623 -1.8249103 4288085770
4.2514801 0.45497274 -1.8247453 4288085770
4.1275482 0.46681786 -1.8235892 4288085770
4.0076294 0.47866631 -1.8224419 4288085770
3.872757 0.48957443 -1.8142463 4288085770
3.7698364 0.50142288 -1.8151392 4288085770
3.8777313 2.7669802 -1.7576314 4288085770
4.0007629 2.8151364 -1.7585152 4288085770
4.102829 2.8503537 -1.7511972 4288085770
4.2238922 2.8935628 -1.7470218 4288085770
4.365921 2.9457335 -1.7490054 4288085770
4.5219269 3.0019112 -1.7520741 4288085770
4.6669617 3.0511293 -1.7500354 4288085770
4.8300018 3.1073282 -1.7521259 4288085770
3.8136292 2.66085 -1.7583255 4288085770
4.9910126 3.1615455 -1.7521895 4288085770
3.9736023 2.7159352 -1.7703944 4288085770
5.1680298 3.2197735 -1.7533439 4288085770
4.0816803 2.7431493 -1.7640084 4288085770
5.352066 3.2790217 -1.7535309 4288085770
4.1977386 2.7733526 -1.759679 4288085770
5.5410767 3.3382645 -1.754733 4288085770
4.3328094 2.8105478 -1.7584819 4288085770
5.7660522 3.4115119 -1.7601935 4288085770
4.4678497 2.8457427 -1.7572635 4288085770
6.0180206 3.4947395 -1.7708427 4288085770
4.6109009 2.8829494 -1.7560915 4288085770
6.2130737 3.5480459 -1.7670006 4288085770
4.7739563 2.9271369 -1.7590541 4288085770
6.4290771 3.6093805 -1.7633082 4288085770
4.9170074 2.9603648 -1.7558399 4288085770
6.6660919 3.6766989 -1.7637435 4288085770
5.0890503 3.0025759 -1.7578095 4288085770
6.9181061 3.7470365 -1.7642568 4288085770
5.2540894 3.0408118 -1.7567161 4288085770
7.1761169 3.8173933 -1.7637891 4288085770
5.4381256 3.084039 -1.7587332 4288085770
7.4450989 3.8877754 -1.762355 4288085770
5.6171875 3.1242929 -1.7577046 4288085770
7.7041473 3.9511778 -1.7578171 4288085770
5.8331909 3.1765072 -1.7649158 4288085770
7.9961548 4.0245905 -1.7564868 4288085770
