# .PCD v0.7 - Point Cloud Data file format
VERSION 0.7
FIELDS x y z rgb
SIZE 4 4 4 4
TYPE F F F U
COUNT 1 1 1 1
WIDTH 1109
HEIGHT 1
VIEWPOINT 0 0 0 1 0 0 0
POINTS 1109
DATA ascii
-3.4154568 -2.8961287 -1.8311161 4288085770
-2.1956482 -3.5407043 -1.8272438 4288085770
-3.4663944 -2.8381748 -1.8350602 4288085770
-2.2886448 -3.4508243 -1.8252106 4288085770
-2.3776455 -3.3619437 -1.8221667 4288085770
-2.4355946 -3.2919955 -1.827086 4288085770
-2.5065689 -3.2130818 -1.8270165 4288085770
-2.5775547 -3.1351771 -1.8249514 4288085770
-2.6305103 -3.0672336 -1.8268604 4288085770
-2.684473 -2.9983006 -1.8267694 4288085770
-2.7374382 -2.9293656 -1.8266745 4288085770
-2.7824001 -2.8654218 -1.8265706 4288085770
-2.8293686 -2.7994843 -1.8254659 4288085770
-2.8733368 -2.7355471 -1.8233584 4288085770
-2.8922615 -2.6855512 -1.8282155 4288085770
-2.9192047 -2.6315823 -1.8290861 4288085770
-2.9481564 -2.5746198 -1.8289515 4288085770
-2.9680977 -2.5236421 -1.8298081 4288085770
-2.9740124 -2.4796309 -1.8346415 4288085770
-2.9839439 -2.4326377 -1.8364774 4288085770
-2.9898739 -2.3866386 -1.8383024 4288085770
-3.0008144 -2.3386488 -1.8391353 4288085770
-3.0067482 -2.2926545 -1.8399602 4288085770
-3.0076809 -2.2496552 -1.8407792 4288085770
-3.0046082 -2.2076468 -1.8425874 4288085770
-3.0045414 -2.16465 -1.8424026 4288085770
-2.9974747 -2.1246452 -1.8422037 4288085770
-2.9894028 -2.0846353 -1.8430015 4288085770
-2.9723186 -2.0486064 -1.8457816 4288085770
-2.9592476 -2.0105939 -1.8455687 4288085770
-2.9471817 -1.9715881 -1.8443552 4288085770
-2.9260998 -1.9365582 -1.8461246 4288085770
-2.9030228 -1.9015298 -1.8468864 4288085770
-2.8729362 -1.8694901 -1.8486342 4288085770
-2.8468609 -1.8354626 -1.8483888 4288085770
-2.8187866 -1.8014331 -1.8481357 4288085770
-2.7877102 -1.7684002 -1.8478755 4288085770
-2.7416134 -1.7403326 -1.8515794 4288085770
-2.7045345 -1.7092924 -1.8513047 4288085770
-2.6744709 -1.6752729 -1.848044 4288085770
-2.6253796 -1.6482105 -1.8497406 4288085770
-2.5933189 -1.614193 -1.8454722 4288085770
-2.5382271 -1.5871234 -1.8471459 4288085770
-2.4911575 -1.5570793 -1.8448373 4288085770
-2.4300652 -1.531003 -1.8464924 4288085770
-3.4743176 -1.2171717 -1.8641272 4288085770
-2.3739834 -1.5029402 -1.8461579 4288085770
-3.4282284 -1.1931214 -1.8638482 4288085770
-2.3038883 -1.4788527 -1.8477873 4288085770
-3.3741341 -1.1700525 -1.8655429 4288085770
-2.2327976 -1.4547687 -1.8484123 4288085770
-3.3290577 -1.1440115 -1.8632593 4288085770
-2.159708 -1.4296813 -1.8490257 4288085770
-3.2629509 -1.1239204 -1.8669209 4288085770
-2.0786152 -1.4065809 -1.8506169 4288085770
-3.2198868 -1.0968943 -1.8616406 4288085770
-2.0045319 -1.3805013 -1.8492222 4288085770
-3.1467762 -1.0767899 -1.8662757 4288085770
-1.9224415 -1.3564038 -1.8498052 4288085770
-3.0906963 -1.0527363 -1.8639584 4288085770
-1.8453674 -1.3303289 -1.8463989 4288085770
-3.0356255 -1.0276918 -1.8596404 4288085770
-1.7362576 -1.3111825 -1.8509002 4288085770
-2.9675369 -1.0056148 -1.859286 4288085770
-1.6351643 -1.2900629 -1.8514235 4288085770
-2.8964481 -0.98253441 -1.8589154 4288085770
-1.5250664 -1.2689285 -1.8529123 4288085770
-2.8193531 -0.96244335 -1.8595349 4288085770
-1.4259796 -1.2468185 -1.8514386 4288085770
-2.7322483 -0.94333172 -1.8621204 4288085770
-1.309885 -1.2256813 -1.8519043 4288085770
-2.6531639 -0.92124605 -1.8607234 4288085770
-1.1897926 -1.2045388 -1.8523546 4288085770
-2.5951138 -0.89421892 -1.8513855 4288085770
-1.0737133 -1.1824145 -1.849816 4288085770
-2.5030212 -0.87410975 -1.8519473 4288085770
-0.93861961 -1.1622534 -1.8502133 4288085770
-2.4049263 -0.85499334 -1.8524907 4288085770
-0.79452324 -1.143084 -1.8505803 4288085770
-2.3148441 -0.83289957 -1.8500515 4288085770
-0.64943314 -1.1229157 -1.8499391 4288085770
-2.2067471 -0.81377077 -1.8505564 4288085770
-0.50935364 -1.1007624 -1.8473084 4288085770
-2.1136703 -0.79167747 -1.8471056 4288085770
-0.33724976 -1.0835547 -1.8485767 4288085770
-1.9865646 -0.77451801 -1.8495462 4288085770
-0.19919014 -1.0594244 -1.8409446 4288085770
-1.8834915 -0.75241661 -1.8450572 4288085770
0.02794838 -1.0481181 -1.8500282 4288085770
-1.7624035 -0.73228121 -1.8435079 4288085770
0.18600845 -1.0239644 -1.8423197 4288085770
-1.6293087 -0.71312428 -1.8439168 4288085770
0.35606956 -1.0007968 -1.8345696 4288085770
-1.4531689 -0.70087767 -1.8531909 4288085770
0.56015205 -0.98156834 -1.8317064 4288085770
-1.3351135 -0.67677546 -1.8446357 4288085770
0.7852459 -0.96330595 -1.830767 4288085770
-1.1670036 -0.65956306 -1.8479192 4288085770
1.0543575 -0.94897509 -1.8336763 4288085770
-1.0279388 -0.63742828 -1.841292 4288085770
1.3194618 -0.93365717 -1.8345965 4288085770
-0.86885452 -0.61725283 -1.8385967 4288085770
1.5745373 -0.91437674 -1.8295377 4288085770
-0.73079872 -0.59412766 -1.8299689 4288085770
1.8546162 -0.89606285 -1.8253874 4288085770
-0.5367012 -0.57589722 -1.8301479 4288085770
2.1857243 -0.88166237 -1.8270589 4288085770
-0.3556385 -0.55470371 -1.8253644 4288085770
2.5288181 -0.86625624 -1.8266805 4288085770
-0.14854813 -0.53546715 -1.8234891 4288085770
2.8728962 -0.84786654 -1.8222847 4288085770
0.077548981 -0.51819944 -1.8235497 4288085770
3.2539864 -0.83242464 -1.8197598 4288085770
0.31764412 -0.4989152 -1.8235482 4288085770
3.6660728 -0.81594992 -1.816112 4288085770
0.57373619 -0.48061705 -1.8224894 4288085770
4.0861397 -0.79748249 -1.8084247 4288085770
0.82481003 -0.45934057 -1.8174367 4288085770
4.5652199 -0.7809329 -1.8035201 4288085770
1.110899 -0.44000626 -1.8162584 4288085770
5.0963097 -0.76531839 -1.7994201 4288085770
1.3969746 -0.41868877 -1.8110715 4288085770
5.7174206 -0.75357199 -1.8009925 4288085770
1.7270622 -0.39930677 -1.8087244 4288085770
6.4035301 -0.74175262 -1.8013157 4288085770
2.0641365 -0.37792492 -1.8043418 4288085770
7.1316204 -0.72790098 -1.7974691 4288085770
2.4642372 -0.35844326 -1.8057264 4288085770
7.929718 -0.71496248 -1.7943581 4288085770
2.8643188 -0.33698273 -1.8021019 4288085770
8.8057966 -0.69994402 -1.7879397 4288085770
3.3124065 -0.31545734 -1.8002934 4288085770
9.8949194 -0.69263649 -1.7897391 4288085770
3.7834797 -0.29291773 -1.7953924 4288085770
11.061021 -0.68125439 -1.787226 4288085770
4.3065567 -0.27031231 -1.7912917 4288085770
4.8896351 -0.24663115 -1.7879567 4288085770
5.515707 -0.22290325 -1.7834569 4288085770
6.2968197 -0.20095062 -1.7883711 4288085770
7.1489248 -0.1769228 -1.7910041 4288085770
8.0470009 -0.1488657 -1.7874432 4288085770
9.08109 -0.12063503 -1.7863603 4288085770
10.371208 -0.092064381 -1.7932959 4288085770
10.275367 1.9424634 -1.123736 4293729569
9.2992945 1.9871442 -1.0924047 4293729569
8.2912216 2.0167613 -1.0552641 4293729569
7.6441927 2.0688951 -1.0366 4293729569
7.2441912 2.1403787 -1.0298769 4293729569
7.0582151 2.2301693 -1.0342296 4293729569
6.9682436 2.3310959 -1.0431551 4293729569
6.9202719 2.435077 -1.0529014 4293729569
8.6562195 2.6962092 -0.34390858 4293729569
6.9163017 2.545119 -1.064448 4293729569
8.6062355 2.8101878 -0.35362014 4293729569
6.9183254 2.6561644 -1.0749667 4293729569
8.5182533 2.9191165 -0.36250365 4293729569
6.8803387 2.7621446 -1.0816652 4293729569
8.4422617 3.0290473 -0.36833537 4293729569
6.8583508 2.8711443 -1.0882876 4293729569
8.4732513 3.1561143 -0.375671 4293729569
6.8573551 2.9821649 -1.0938182 4293729569
8.5022383 3.283175 -0.38201457 4293729569
6.8723583 3.0962086 -1.1002728 4293729569
8.6332045 3.4283581 -0.38787743 4293729569
6.8913517 3.2122531 -1.1057031 4293729569
6.9023371 3.3282752 -1.1081651 4293729569
6.9393244 3.4473329 -1.1115112 4293729569
6.9863033 3.5714021 -1.1147968 4293729569
7.0762758 3.7045274 -1.1188735 4293729569
10.350501 0.20894241 -1.7881193 4288085770
8.9605894 0.20420408 -1.7837696 4288085770
7.8267231 0.20082378 -1.7893766 4288085770
6.8068333 0.19856215 -1.7895176 4288085770
5.8449135 0.20034504 -1.7834072 4288085770
5.0510235 0.20136595 -1.7846189 4288085770
4.3111286 0.20344448 -1.7836077 4288085770
10.636341 0.12526941 -1.7842697 4288085770
3.7052574 0.20571566 -1.7890528 4288085770
9.2444162 0.1385355 -1.7818555 4288085770
3.1183681 0.20899391 -1.7904167 4288085770
8.0295076 0.15103102 -1.7817274 4288085770
2.6134968 0.21339178 -1.7964437 4288085770
6.9765949 0.16372728 -1.7819419 4288085770
2.1376152 0.21781349 -1.7993532 4288085770
6.0176716 0.17552233 -1.7777795 4288085770
1.6827202 0.22324753 -1.7991736 4288085770
5.2187786 0.18754482 -1.7809672 4288085770
1.3158607 0.22882652 -1.8076365 4288085770
4.4858742 0.19863558 -1.7808914 4288085770
0.97500038 0.23443794 -1.815994 4288085770
3.8549881 0.20987129 -1.7854015 4288085770
0.61510849 0.24099588 -1.8174248 4288085770
3.2771034 0.22117281 -1.7896966 4288085770
0.26920319 0.24855423 -1.8147949 4288085770
2.7502098 0.23252726 -1.7917849 4288085770
-0.062709808 0.25612545 -1.8111084 4288085770
2.2563076 0.24391747 -1.7927394 4288085770
-0.3666153 0.26373911 -1.8093081 4288085770
1.8194218 0.25439024 -1.7964665 4288085770
-0.65052032 0.27137327 -1.8064268 4288085770
1.4325504 0.26594019 -1.8039862 4288085770
-0.89140129 0.2790885 -1.8103707 4288085770
1.0726738 0.27651548 -1.8094008 4288085770
-1.1352997 0.2877841 -1.8103229 4288085770
0.72177696 0.28808451 -1.8107749 4288085770
-1.3531857 0.29551983 -1.8121736 4288085770
0.37387276 0.29964828 -1.810137 4288085770
-1.5670815 0.30425501 -1.813004 4288085770
0.036952972 0.31120872 -1.8054547 4288085770
-1.7679787 0.31300354 -1.8127817 4288085770
-0.2539463 0.3228507 -1.8065854 4288085770
-1.9518623 0.32178402 -1.8154902 4288085770
-0.53885841 0.33448315 -1.8036921 4288085770
-2.1397724 0.33154345 -1.8142112 4288085770
-0.78275108 0.34619141 -1.8066322 4288085770
-2.3026581 0.34034967 -1.8168347 4288085770
-1.017643 0.35790586 -1.8085353 4288085770
-2.4585438 0.35016441 -1.8194256 4288085770
-1.2485485 0.36961222 -1.8074228 4288085770
-2.6084366 0.35898256 -1.8209964 4288085770
-1.4524403 0.38036442 -1.8092045 4288085770
-2.761343 0.36878014 -1.8185751 4288085770
-1.642334 0.39213371 -1.8109251 4288085770
-2.8942261 0.3786273 -1.8220727 4288085770
-1.8402443 0.40387583 -1.8086787 4288085770
-3.0361385 0.38843441 -1.8186072 4288085770
-2.0061302 0.41568327 -1.8123018 4288085770
-3.1480141 0.39831543 -1.8240194 4288085770
-2.1780281 0.42546606 -1.8119582 4288085770
-3.2709084 0.40816212 -1.8244766 4288085770
-2.3229122 0.43730307 -1.816496 4288085770
-3.3807983 0.4180336 -1.8268808 4288085770
-2.4808121 0.4491024 -1.8160871 4288085770
-2.6247139 0.46091938 -1.8156211 4288085770
-2.7656155 0.47374487 -1.8161391 4288085770
-2.8995152 0.48457336 -1.8156369 4288085770
-3.0254173 0.49641228 -1.815098 4288085770
-3.1353054 0.50828695 -1.8184941 4288085770
-3.2502022 0.52114391 -1.8189062 4288085770
-3.359108 0.53300762 -1.8192983 4288085770
-3.4600029 0.54488087 -1.8196579 4288085770
-3.4958 2.6005051 -1.8119706 4288085770
-3.3877335 2.6366346 -1.8113716 4288085770
-3.269659 2.6757846 -1.8127184 4288085770
-3.1495876 2.7139332 -1.8130612 4288085770
-3.0335197 2.7490678 -1.811433 4288085770
-2.90345 2.7882285 -1.8117303 4288085770
-2.7763863 2.825377 -1.810048 4288085770
-2.6383171 2.8655472 -1.8103076 4288085770
-2.4982567 2.9047122 -1.8085631 4288085770
-3.404768 2.5726161 -1.8177016 4288085770
-2.3381939 2.9499178 -1.8107108 4288085770
-3.2986965 2.5967302 -1.8141611 4288085770
-2.1881313 2.9890947 -1.808925 4288085770
-3.174612 2.6278877 -1.8155165 4288085770
-2.0240688 3.0322971 -1.809064 4288085770
-3.0465298 2.6590502 -1.8168554 4288085770
-1.8430023 3.0815289 -1.8111075 4288085770
-2.9274521 2.6841848 -1.8142565 4288085770
-1.6549339 3.1297736 -1.8141265 4288085770
-2.7913742 2.7153528 -1.8145624 4288085770
-1.4548683 3.1820326 -1.8170786 4288085770
-2.6703014 2.7384856 -1.8109635 4288085770
-1.2538071 3.2312849 -1.8180389 4288085770
-2.5272236 2.7686582 -1.8102443 4288085770
-1.0477486 3.2795391 -1.817983 4288085770
-2.3711376 2.8018594 -1.8124586 4288085770
-0.8456974 3.32478 -1.815956 4288085770
-2.2150555 2.8330564 -1.8136811 4288085770
-0.61263847 3.3790755 -1.8177627 4288085770
-2.0569744 2.8632517 -1.8138996 4288085770
-0.36057472 3.436403 -1.8214781 4288085770
-1.9119072 2.8854055 -1.8082056 4288085770
-0.097515106 3.4957442 -1.8251395 4288085770
-1.7068043 2.9297009 -1.8181703 4288085770
0.17553902 3.5560937 -1.827755 4288085770
-1.5307255 2.9599142 -1.817314 4288085770
0.47659874 3.6224899 -1.8332292 4288085770
-1.3446445 2.991148 -1.8184121 4288085770
0.76664925 3.6808515 -1.8337826 4288085770
-1.1855812 3.0103109 -1.8106723 4288085770
1.0816975 3.7442522 -1.8362112 4288085770
-0.99050903 3.0405517 -1.8107371 4288085770
1.4197445 3.8126903 -1.8405236 4288085770
-0.80043983 3.0657697 -1.8068436 4288085770
1.7687912 3.8801329 -1.8427944 4288085770
-0.58235359 3.0990472 -1.8088002 4288085770
2.116827 3.943562 -1.8420858 4288085770
-0.35126686 3.1333449 -1.8116987 4288085770
2.4888649 4.0100245 -1.8422651 4288085770
-0.1191864 3.1646314 -1.8116058 4288085770
2.9249096 4.0925956 -1.849112 4288085770
0.12889671 3.1979463 -1.8134378 4288085770
3.3259392 4.1580815 -1.8461751 4288085770
0.37397957 3.2272487 -1.8132989 4288085770
3.757967 4.2296176 -1.8460844 4288085770
0.63606644 3.2585807 -1.8150814 4288085770
4.2319984 4.3072104 -1.846794 4288085770
0.92214966 3.2939463 -1.8177474 4288085770
4.7630291 4.3958941 -1.8522214 4288085770
1.1982327 3.3222871 -1.817484 4288085770
5.2330379 4.4594436 -1.8440062 4288085770
1.5253277 3.36272 -1.8239588 4288085770
5.8100548 4.5501719 -1.846234 4288085770
1.8184013 3.3870692 -1.8206416 4288085770
6.4790821 4.657042 -1.8550129 4288085770
2.1644974 3.4245214 -1.8260499 4288085770
7.1691008 4.7629299 -1.8617086 4288085770
2.4905796 3.4519238 -1.8255832 4288085770
7.8531065 4.856781 -1.8614796 4288085770
2.8376675 3.4793563 -1.8260291 4288085770
8.6171131 4.9657512 -1.8658553 4288085770
3.1937523 3.5047956 -1.825446 4288085770
9.473115 5.0868483 -1.872799 4288085770
3.5598297 3.5292435 -1.8238257 4288085770
10.358108 5.2069721 -1.8776267 4288085770
3.9099064 3.5446546 -1.8183091 4288085770
11.25109 5.3150764 -1.875471 4288085770
4.3340034 3.5721946 -1.8214353 4288085770
4.7690964 3.5987399 -1.8225199 4288085770
5.1871815 3.614243 -1.8187209 4288085770
5.6492786 3.633822 -1.8197228 4288085770
6.15938 3.6594682 -1.8224999 4288085770
6.6784821 3.678117 -1.8232689 4288085770
7.2195406 3.7377968 -1.1157635 4293729569
7.2105856 3.6927822 -1.8240007 4288085770
7.1555243 3.6274414 -1.0514886 4293729569
7.7456875 3.7014384 -1.8217452 4288085770
7.1555204 3.5281894 -0.99290228 4293729569
7.9337177 3.6344984 -1.7812442 4288085770
7.1015244 3.4198718 -0.93457758 4293729569
8.8778982 3.7098274 -1.8170139 4288085770
7.0385332 3.3105423 -0.87629455 4293729569
7.348609 3.3200219 -1.6069814 4293729569
7.0245485 3.2082906 -0.82177877 4293729569
7.2526045 3.2006266 -1.5428776 4293729569
7.0815639 3.1181426 -0.77091819 4293729569
7.0095825 3.0570002 -1.4674844 4293729569
7.3325863 3.0612845 -0.73111385 4293729569
7.0476198 2.9628458 -1.4207194 4293729569
7.450613 2.9782331 -0.68497062 4293729569
7.0436535 2.8616276 -1.371158 4293729569
7.6346445 2.9022756 -0.6415242 4293729569
7.0246916 2.757391 -1.3216715 4293729569
7.0207376 2.6541808 -1.2741188 4293729569
7.9847202 2.741343 -0.5557434 4293729569
7.0307913 2.5540006 -1.2294952 4293729569
8.0937672 2.6482885 -0.51167941 4293729569
7.0418539 2.4538307 -1.1868674 4293729569
8.1248245 2.5451345 -0.4669809 4293729569
7.0519209 2.3526633 -1.1452479 4293729569
8.3148823 2.4571974 -0.42655978 4293729569
7.1280041 2.2586024 -1.1093252 4293729569
8.5359402 2.3713024 -0.3870014 4293729569
7.2640963 2.1696327 -1.0771323 4293729569
7.6092291 2.1009879 -1.0599877 4293729569
8.0303736 2.035454 -1.0465149 4293729569
8.9655933 2.0106885 -1.0627397 4293729569
9.862812 1.969851 -1.0731894 4293729569
11.021069 1.9373906 -1.0955215 4293729569
10.837199 -5.3360848 -0.3757138 4293729569
10.875347 -5.3829427 -1.3417665 4293729569
10.846701 -5.4748578 -0.42725572 4293729569
10.709748 -5.4689708 -1.3848145 4293729569
10.632209 -5.5798593 -1.4346009 4293729569
10.760826 -5.7554126 -1.5028026 4293729569
10.606239 -5.8394094 -1.5497965 4293729569
9.990303 -5.765141 -1.5600418 4293729569
9.3843594 -5.6868587 -1.5702289 4293729569
8.7613831 -5.5956149 -1.5764326 4293729569
8.1554031 -5.5013509 -1.5825533 4293729569
7.5604105 -5.4010758 -1.587603 4293729569
6.99541 -5.302773 -1.5905368 4293729569
6.4434185 -5.2034469 -1.5954124 4293729569
5.8813915 -5.0901532 -1.595271 4293729569
5.2012157 -4.9230828 -1.5773946 4293729569
4.8253307 -4.8294215 -0.90155143 4293729569
4.702198 -4.8197074 -1.5780338 4293729569
4.7797432 -4.8992629 -0.95303404 4293729569
4.3523102 -4.7660851 -1.5932618 4293729569
4.798214 -4.9920011 -1.0103463 4293729569
3.9363403 -4.6825852 -1.5986392 4293729569
10.17017 -7.289309 -1.4766694 4293729569
3.5604019 -4.6100192 -1.6078964 4293729569
9.3300619 -7.0592933 -1.4931939 4293729569
3.1584129 -4.5195155 -1.6101865 4293729569
8.4819069 -6.8133168 -1.502685 4293729569
2.7804356 -4.4339728 -1.6143978 4293729569
7.746809 -6.6021829 -1.5158526 4293729569
2.4384804 -4.3583789 -1.620501 4293729569
7.0657301 -6.4059834 -1.5288585 4293729569
2.1225414 -4.2887435 -1.6285213 4293729569
6.4016342 -6.2077794 -1.5377858 4293729569
1.7825584 -4.2041621 -1.6305789 4293729569
5.786562 -6.021502 -1.5495594 4293729569
1.4345551 -4.1116061 -1.6296364 4293729569
5.1234055 -5.8053355 -1.5494074 4293729569
1.1405945 -4.0379567 -1.6345487 4293729569
4.5803375 -5.6359859 -1.5569531 4293729569
0.88567352 -3.9782405 -1.6433574 4293729569
4.0943127 -5.4855485 -1.568341 4293729569
0.62973976 -3.9145312 -1.6511533 4293729569
3.5782223 -5.3131833 -1.5717618 4293729569
0.38881493 -3.8537984 -1.6598997 4293729569
3.1542091 -5.1776738 -1.581955 4293729569
0.14787102 -3.7880788 -1.665625 4293729569
2.7371826 -5.0401673 -1.5891105 4293729569
-0.023981094 -3.7552228 -1.6832014 4293729569
2.3311481 -4.9026523 -1.5952206 4293729569
-0.14276886 -3.7452579 -1.7106535 4293729569
1.9481201 -4.7701087 -1.6012559 4293729569
-0.25455093 -3.7352843 -1.7380762 4288085770
1.5921116 -4.6475282 -1.6082212 4293729569
-0.35130692 -3.7322764 -1.7694659 4288085770
1.249094 -4.5259404 -1.6131361 4293729569
-0.45307922 -3.7242827 -1.7988555 4288085770
0.90105057 -4.3963752 -1.6140387 4293729569
-0.58289909 -3.7003531 -1.8212947 4288085770
0.62408447 -4.2996831 -1.6237838 4293729569
-0.7888546 -3.6325984 -1.8248663 4288085770
0.36212158 -4.2059722 -1.6334791 4293729569
-0.99481964 -3.5628524 -1.8264296 4288085770
0.12217712 -4.1202264 -1.6451164 4293729569
-1.1887722 -3.4970841 -1.8299595 4288085770
-0.14582443 -4.0175538 -1.6477993 4293729569
-1.3967628 -3.4203572 -1.8275021 4288085770
-0.41984367 -3.9068971 -1.6484736 4293729569
-1.5867348 -3.350596 -1.8279988 4288085770
-0.62878799 -3.8281217 -1.6580113 4293729569
-1.7516727 -3.2917876 -1.8324375 4288085770
-0.85977936 -3.7344022 -1.660578 4293729569
-1.9256382 -3.2250066 -1.8328803 4288085770
-0.9605732 -3.7084069 -1.6898875 4293729569
-2.1006222 -3.1552396 -1.8303148 4288085770
-1.0122986 -3.7073131 -1.7280977 4293729569
-2.2665958 -3.0884571 -1.8287241 4288085770
-1.0750484 -3.6982455 -1.7633201 4288085770
-2.4075394 -3.0326228 -1.8320757 4288085770
-1.1217709 -3.6961417 -1.8025051 4288085770
-2.5645161 -2.9658337 -1.8294479 4288085770
-1.2476387 -3.6482234 -1.8208268 4288085770
-2.6984615 -2.9109945 -1.8317742 4288085770
-1.4276047 -3.5674338 -1.8252355 4288085770
-2.8574638 -2.8392248 -1.825134 4288085770
-1.61059 -3.4836602 -1.8266442 4288085770
-2.9804077 -2.7853765 -1.826419 4288085770
-1.812624 -3.3859429 -1.8200736 4288085770
-3.096344 -2.7335105 -1.8296831 4288085770
-1.9515591 -3.3220897 -1.8273828 4288085770
-3.2062817 -2.6846418 -1.8319349 4288085770
-2.1175461 -3.240303 -1.8267293 4288085770
-3.3362694 -2.6208329 -1.8262073 4288085770
-2.2775383 -3.1605134 -1.8250593 4288085770
-3.4402027 -2.5719519 -1.829434 4288085770
-2.4235134 -3.086699 -1.8253559 4288085770
-2.5604858 -3.0158715 -1.8256277 4288085770
-2.6914501 -2.9470334 -1.8268826 4288085770
-2.8214302 -2.8772063 -1.8251296 4288085770
-2.9484119 -2.8073807 -1.8223639 4288085770
-3.0523567 -2.7495003 -1.8255526 4288085770
-3.1713409 -2.6816678 -1.8217622 4288085770
-3.2522545 -2.6347427 -1.8289008 4288085770
-3.3391895 -2.5818367 -1.8330395 4288085770
-3.4351463 -2.5239639 -1.832195 4288085770
-3.2391548 -0.42390251 -1.839317 4288085770
-3.153059 -0.40879965 -1.838886 4288085770
-3.0930099 -0.38977051 -1.8285486 4288085770
-3.0009174 -0.37466288 -1.8270919 4288085770
-2.9048233 -0.36054707 -1.8266226 4288085770
-2.808733 -0.34543943 -1.8241489 4288085770
-2.7026367 -0.33131123 -1.8236368 4288085770
-2.5895424 -0.317173 -1.8230951 4288085770
-2.4764519 -0.30203915 -1.8215488 4288085770
-2.3543549 -0.28789139 -1.8209683 4288085770
-3.3294277 -0.16008615 -1.82956 4288085770
-2.2372742 -0.27376556 -1.8164093 4288085770
-3.2293262 -0.14696074 -1.8300778 4288085770
-2.0931683 -0.26058102 -1.8177394 4288085770
-3.128233 -0.13384247 -1.8285912 4288085770
-1.948061 -0.24839497 -1.8190694 4288085770
-3.0351562 -0.11875153 -1.8231299 4288085770
-1.8029728 -0.23422623 -1.8163909 4288085770
-2.9120407 -0.10658407 -1.8265538 4288085770
-1.6428738 -0.22102976 -1.8156526 4288085770
-2.8019581 -0.092463017 -1.8230244 4288085770
-1.4837875 -0.20684338 -1.8129143 4288085770
-2.6798611 -0.080318928 -1.8214523 4288085770
-1.300684 -0.19461489 -1.8130821 4288085770
-2.5537682 -0.067169189 -1.8198588 4288085770
-1.1145859 -0.18138599 -1.8122327 4288085770
-2.4176636 -0.05399847 -1.8202226 4288085770
-0.93450546 -0.16718245 -1.8074046 4288085770
-2.2735653 -0.041822433 -1.8195565 4288085770
-0.72941208 -0.15493393 -1.8054783 4288085770
-2.1374836 -0.028673172 -1.8149202 4288085770
-0.49830437 -0.14264059 -1.8064412 4288085770
-1.9763832 -0.016471386 -1.8151816 4288085770
-0.24718857 -0.13131428 -1.8093231 4288085770
-1.8012695 -0.0042438507 -1.8173831 4288085770
0.0049095154 -0.11900377 -1.8081961 4288085770
-1.6221695 0.0079803467 -1.8175676 4288085770
0.30202675 -0.1086154 -1.8118861 4288085770
-1.4560909 0.021167278 -1.812803 4288085770
0.59914017 -0.096235752 -1.813567 4288085770
-1.260994 0.033402443 -1.8109189 4288085770
0.90823174 -0.083857536 -1.8111969 4288085770
-1.0328751 0.044704437 -1.8148985 4288085770
1.2393303 -0.072448254 -1.8097368 4288085770
-0.82178307 0.056956291 -1.8119458 4288085770
1.55439 -0.058093071 -1.8003321 4288085770
-0.58868599 0.069243431 -1.8108996 4288085770
1.9234734 -0.045648098 -1.7957054 4288085770
-0.34659195 0.0815382 -1.8088144 4288085770
2.3175526 -0.032177448 -1.7899677 4288085770
-0.076488495 0.093874931 -1.8086101 4288085770
2.7986698 -0.021564007 -1.7918717 4288085770
0.22361755 0.10525417 -1.8092816 4288085770
3.2817574 -0.0089735985 -1.7877582 4288085770
0.56274414 0.11670399 -1.8147869 4288085770
3.831852 0.0027089119 -1.7853633 4288085770
0.88983727 0.12910414 -1.8123387 4288085770
4.4069347 0.015409946 -1.7798569 4288085770
1.2489433 0.14155769 -1.812754 4288085770
5.0570259 0.027213573 -1.7760348 4288085770
1.5910072 0.1549468 -1.803237 4288085770
5.8191338 0.038172722 -1.7757388 4288085770
1.9770851 0.16740751 -1.7975366 4288085770
6.6942616 0.048295021 -1.7799647 4288085770
2.4301872 0.1799736 -1.79655 4288085770
7.6653795 0.058524132 -1.7807806 4288085770
2.9082718 0.19255781 -1.7924565 4288085770
8.7654839 0.069905758 -1.7790414 4288085770
3.4503727 0.20423508 -1.7910939 4288085770
10.054608 0.080544472 -1.7814997 4288085770
4.030468 0.21695566 -1.7885646 4288085770
4.6755562 0.22975302 -1.7847574 4288085770
5.4186687 0.2426939 -1.7855315 4288085770
6.2837944 0.25480509 -1.7897884 4288085770
7.2699194 0.26706648 -1.7935294 4288085770
8.3230228 0.28039122 -1.7919796 4288085770
9.5551367 0.29495192 -1.7926605 4288085770
11.014259 0.3088088 -1.7953761 4288085770
9.8696365 2.2107148 -0.53511453 4293729569
9.1495008 2.2626069 -0.49503908 4293729569
8.6813736 2.3308516 -0.46078983 4293729569
8.4532433 2.4234328 -0.43238506 4293729569
8.6340837 2.5645761 -0.41097972 4293729569
8.759922 2.6996365 -0.38684133 4293729569
8.8917418 2.8386912 -0.3596594 4293729569
9.0115604 2.9767308 -0.33253434 4293729569
11.746817 0.54947901 -1.7803382 4288085770
10.263927 0.55989361 -1.785341 4288085770
8.9760237 0.57150316 -1.7874089 4288085770
7.8271112 0.58124924 -1.7868253 4288085770
6.7701797 0.5920701 -1.7817984 4288085770
5.9182816 0.6031518 -1.7837929 4288085770
5.151392 0.61433554 -1.7873822 4288085770
4.4795036 0.62461901 -1.7905239 4288085770
10.794378 0.7743578 -1.7695601 4288085770
3.8516045 0.63594341 -1.7924509 4288085770
9.4934978 0.78398085 -1.7767055 4288085770
3.2987156 0.64735317 -1.7950199 4288085770
8.3015842 0.79167509 -1.7753422 4288085770
2.824852 0.65988493 -1.8042061 4288085770
7.2896891 0.80058765 -1.7781142 4288085770
2.3419514 0.67035723 -1.8044473 4288085770
6.3707752 0.80957699 -1.7764428 4288085770
1.8820324 0.68083191 -1.8005788 4288085770
5.5878906 0.81874251 -1.7801219 4288085770
1.4971523 0.69243574 -1.8053468 4288085770
4.94203 0.83008647 -1.7891358 4288085770
1.120245 0.70401525 -1.8040771 4288085770
4.275116 0.8393476 -1.7872623 4288085770
0.80638123 0.71571016 -1.8115063 4288085770
3.7092323 0.85074878 -1.790895 4288085770
0.47046852 0.7263279 -1.8090466 4288085770
3.1943493 0.86120915 -1.79529 4288085770
0.16255951 0.73797989 -1.807448 4288085770
2.7444801 0.87375498 -1.8023636 4288085770
-0.10532761 0.7497015 -1.8106582 4288085770
2.2885723 0.88425064 -1.8014774 4288085770
-0.37923813 0.76038432 -1.8079032 4288085770
1.8626614 0.89377236 -1.7994537 4288085770
-0.61512375 0.7721405 -1.8109608 4288085770
1.4877625 0.90536427 -1.8001757 4288085770
-0.81999969 0.78494549 -1.8168648 4288085770
1.1478786 0.91701055 -1.8037302 4288085770
-1.0499096 0.7956748 -1.8138998 4288085770
0.84099388 0.92869091 -1.8071271 4288085770
-1.2638245 0.80742097 -1.8108531 4288085770
0.54410553 0.94037676 -1.8094767 4288085770
-1.4266911 0.82028723 -1.819557 4288085770
0.25519562 0.95205474 -1.8087887 4288085770
-1.6075878 0.83309031 -1.8203471 4288085770
-0.030719757 0.96171927 -1.8050971 4288085770
-1.7754803 0.84491277 -1.8220804 4288085770
-0.27862167 0.97344589 -1.805213 4288085770
-1.951395 0.85669899 -1.8188527 4288085770
-0.48348999 0.98725653 -1.812112 4288085770
-2.107296 0.86852336 -1.8185291 4288085770
-0.71240044 0.99899197 -1.8101375 4288085770
-2.247179 0.88138628 -1.8221235 4288085770
-0.89526939 1.012826 -1.8169314 4288085770
-2.3910847 0.89321756 -1.8207428 4288085770
-1.1111908 1.0235593 -1.8119007 4288085770
-2.5149651 0.90710282 -1.8252555 4288085770
-1.2890873 1.036371 -1.8136768 4288085770
-2.6308479 0.92099118 -1.8287297 4288085770
-1.456974 1.0501988 -1.8163998 4288085770
-2.750742 0.93386436 -1.830229 4288085770
-1.6178703 1.0630226 -1.817095 4288085770
-2.8526211 0.94777322 -1.8346366 4288085770
-1.777771 1.0748429 -1.8167909 4288085770
-2.9635201 0.96064997 -1.835093 4288085770
-1.9286804 1.0876665 -1.8154385 4288085770
-2.0595646 1.1025391 -1.8189794 4288085770
-2.2074776 1.1133549 -1.8156239 4288085770
-2.3343773 1.1272149 -1.8161511 4288085770
-2.4322472 1.1431444 -1.8235285 4288085770
-2.5571613 1.1559901 -1.8210524 4288085770
-2.6630592 1.1698728 -1.8214796 4288085770
-2.7699604 1.1837542 -1.8219116 4288085770
-2.8798714 1.1976159 -1.8193581 4288085770
-2.9557457 1.213563 -1.8256304 4288085770
-2.9261055 3.603236 -1.8270621 4288085770
-2.7990494 3.6763928 -1.8310423 4288085770
-2.6399708 3.7656274 -1.8427792 4288085770
-2.5289421 3.8247178 -1.8379138 4288085770
-2.3758869 3.9079132 -1.8437126 4288085770
-2.2318439 3.9830716 -1.8445991 4288085770
-2.0757999 4.0642533 -1.8473942 4288085770
-1.9167671 4.1444278 -1.8481801 4288085770
-1.7507362 4.226604 -1.847921 4288085770
-2.9470692 3.6082478 -1.8411055 4288085770
-1.5937233 4.3027492 -1.8437384 4288085770
-2.849041 3.6493025 -1.8324016 4288085770
-1.3666706 4.4150558 -1.8550184 4288085770
-2.6909637 3.7235146 -1.8402253 4288085770
-1.1416283 4.5243444 -1.8633243 4288085770
-2.5318985 3.7977219 -1.8470442 4288085770
-0.9276104 4.6235881 -1.8657386 4288085770
-2.4018593 3.8518386 -1.8431133 4288085770
-0.71159744 4.7228231 -1.8661429 4288085770
-2.2438068 3.9200172 -1.8449696 4288085770
-0.52261162 4.8029747 -1.8567822 4288085770
-2.0807476 3.9882073 -1.8478012 4288085770
-0.16454506 4.9755139 -1.8840961 4288085770
-1.9177074 4.0543756 -1.8466439 4288085770
0.1324749 5.1088839 -1.8929199 4288085770
-1.7506676 4.1205478 -1.8454671 4288085770
0.37345695 5.2081137 -1.8872018 4288085770
-1.5846272 4.1837134 -1.8433112 4288085770
0.66744614 5.3334374 -1.8880836 4288085770
-1.367569 4.2719884 -1.8507705 4288085770
0.9854393 5.4678025 -1.8917993 4288085770
-1.1265011 4.3703103 -1.862058 4288085770
1.3164253 5.6041765 -1.8944405 4288085770
-0.91045952 4.4515572 -1.8645601 4288085770
1.6313858 5.7284894 -1.889225 4288085770
-0.69642258 4.5297904 -1.8650882 4288085770
2.0273666 5.8909602 -1.8964074 4288085770
-0.49239922 4.5979857 -1.8607196 4288085770
2.4263363 6.0504174 -1.900591 4288085770
-0.23635674 4.6922908 -1.8659554 4288085770
2.8562946 6.2199078 -1.9045689 4288085770
0.10172081 4.823772 -1.8865893 4288085770
3.355257 6.4195151 -1.9160467 4288085770
0.39076424 4.9271235 -1.8936149 4288085770
3.8722038 6.6211252 -1.9244255 4288085770
0.6407814 5.0053735 -1.8899668 4288085770
4.4291458 6.8367891 -1.9345325 4288085770
0.8757782 5.0725751 -1.880452 4288085770
4.9690628 7.0363913 -1.9368097 4288085770
1.1658001 5.1638894 -1.8805377 4288085770
5.5999737 7.2721281 -1.9454464 4288085770
1.4758205 5.2592311 -1.8815041 4288085770
6.289875 7.5299444 -1.9566747 4288085770
1.776825 5.3465357 -1.8775578 4288085770
6.9777565 7.776721 -1.9609731 4288085770
2.1638584 5.4710083 -1.88699 4288085770
7.7506266 8.0536156 -1.9696923 4288085770
2.5278702 5.5794134 -1.8886213 4288085770
8.5714798 8.3445549 -1.977101 4288085770
2.9078846 5.6888399 -1.8911692 4288085770
3.3188915 5.8083057 -1.8945107 4288085770
3.764904 5.9368253 -1.9006324 4288085770
4.2069073 6.0573187 -1.902817 4288085770
4.6849117 6.1878676 -1.907771 4288085770
5.1569042 6.3073826 -1.9078141 4288085770
5.7039089 6.4530206 -1.9153491 4288085770
6.2819023 6.6046925 -1.9227 4288085770
6.9048967 6.7654228 -1.9317816 4288085770
7.4378691 6.8799763 -1.9265531 4288085770
8.1238546 7.0507793 -1.936272 4288085770
8.7678251 7.1924844 -1.9363538 4288085770
9.4868021 7.3563018 -1.9419488 4288085770
10.24577 7.5221567 -1.9463376 4288085770
10.950735 7.659915 -1.944142 4288085770
11.7307 7.8147764 -1.9454871 4288085770
8.169549 3.5714078 -0.61279988 4293729569
8.3046942 3.4794736 -0.59863383 4293729569
8.3760099 3.2533703 -0.56750435 4293729569
8.3081856 3.1232026 -0.55153835 4293729569
8.3423634 3.0091715 -0.53998595 4293729569
8.3045483 2.8850524 -0.52684033 4293729569
8.3487406 2.7710481 -0.5182389 4293729569
8.3619442 2.6550167 -0.51079994 4293729569
8.3691463 2.5379784 -0.50339574 4293729569
8.3553638 2.4189284 -0.49810502 4293729569
8.5095863 2.3170915 -0.49789932 4293729569
9.1028347 2.260813 -0.51129884 4293729569
9.8740978 2.2147579 -0.5297718 4293729569
11.531925 -2.7497997 -1.7774237 4288085770
10.842067 -2.7665453 -1.7808896 4288085770
10.204214 -2.7792244 -1.7860789 4282675967
9.5533295 -2.7819409 -1.7872783 4282675967
8.9194355 -2.7816434 -1.7873784 4282675967
8.3115387 -2.7773185 -1.7873293 4282675967
7.7476501 -2.7719359 -1.7890592 4288085770
7.194746 -2.7625523 -1.7887139 4288085770
6.6528358 -2.7471571 -1.7882822 4288085770
6.188961 -2.7406492 -1.7925164 4288085770
5.7060623 -2.7261796 -1.793801 4288085770
5.2161236 -2.701745 -1.790066 4288085770
4.766201 -2.6792564 -1.7881458 4288085770
11.439995 -4.2890048 -1.77114 4282675967
4.3763199 -2.6656651 -1.7929795 4288085770
10.582046 -4.2009063 -1.7798638 4282675967
4.0004349 -2.651063 -1.7967395 4288085770
9.7921028 -4.1167359 -1.7882755 4282675967
3.6245365 -2.6324677 -1.7994781 4288085770
8.8890324 -3.994781 -1.7800375 4282675967
3.2746449 -2.6148391 -1.8030945 4288085770
8.0860119 -3.8886847 -1.7773952 4282675967
2.9317532 -2.5942025 -1.8066604 4288085770
7.3760128 -3.7964768 -1.7763724 4282675967
2.6158638 -2.5755315 -1.8111045 4288085770
6.7450581 -3.7171512 -1.7810321 4282675967
2.2859535 -2.5498977 -1.8115799 4288085770
6.1751137 -3.6447549 -1.7864304 4282675967
1.9690361 -2.52425 -1.8119917 4288085770
5.5561008 -3.5524669 -1.7819616 4282675967
1.6961555 -2.5055265 -1.8172251 4288085770
5.018137 -3.4760518 -1.7841818 4288085770
1.435276 -2.4867854 -1.8233997 4288085770
4.5351944 -3.4085679 -1.7881807 4288085770
1.1493587 -2.4581041 -1.8236434 4288085770
4.0612354 -3.3370843 -1.7901142 4288085770
0.89946747 -2.4363627 -1.8277482 4288085770
3.6352978 -3.2745385 -1.7938604 4288085770
0.63354874 -2.4056602 -1.8278828 4288085770
3.2353764 -3.2159476 -1.800501 4288085770
0.39164162 -2.379921 -1.829927 4288085770
2.855442 -3.157352 -1.8040435 4288085770
0.17576218 -2.3591318 -1.8358703 4288085770
2.4604836 -3.0907884 -1.8046169 4288085770
-0.045139313 -2.3333645 -1.8388113 4288085770
2.1135502 -3.0331578 -1.8080029 4288085770
-0.26806068 -2.304615 -1.8387461 4288085770
1.7846222 -2.9785023 -1.8123171 4288085770
-0.4659481 -2.2808123 -1.843585 4288085770
1.4857063 -2.9288077 -1.817511 4288085770
-0.65884018 -2.2560086 -1.8473942 4288085770
1.1897831 -2.8771167 -1.8216794 4288085770
-0.8687706 -2.2232518 -1.8462437 4288085770
0.91286469 -2.8273988 -1.8267655 4288085770
-1.0727043 -2.1894937 -1.8440584 4288085770
0.63693047 -2.7746959 -1.8288305 4288085770
-1.2536125 -2.1626892 -1.8457984 4288085770
0.35698509 -2.7190099 -1.8288995 4288085770
-1.430521 -2.1338797 -1.8475077 4288085770
0.11406136 -2.6712613 -1.8328296 4288085770
-1.6164684 -2.0991135 -1.8432288 4288085770
-0.12085915 -2.6245093 -1.835726 4288085770
-1.7603436 -2.0782409 -1.8498192 4288085770
-0.36181068 -2.5717859 -1.8346199 4288085770
-1.9192524 -2.0494127 -1.8514403 4288085770
-0.5627079 -2.5319757 -1.841387 4288085770
-2.0871964 -2.0156212 -1.8480786 4288085770
-0.76362228 -2.4891815 -1.8451383 4288085770
-2.2491341 -1.9818234 -1.8446878 4288085770
-0.98858452 -2.4344516 -1.841943 4288085770
-2.4010582 -1.9499984 -1.8442584 4288085770
-1.1945305 -2.3856907 -1.8406867 4288085770
-2.5249443 -1.9271159 -1.8487401 4288085770
-1.3874702 -2.3389106 -1.8403776 4288085770
-2.6448364 -1.9042292 -1.853202 4288085770
-1.5704079 -2.293119 -1.8400245 4288085770
-2.7767525 -1.8743768 -1.8536854 4288085770
-1.7473469 -2.2473216 -1.8396423 4288085770
-2.9136887 -1.8415523 -1.8501773 4288085770
-1.8902321 -2.2144427 -1.8471628 4288085770
-2.0481606 -2.1736193 -1.8477142 4288085770
-2.205101 -2.1297998 -1.8472447 4288085770
-2.3710632 -2.0820117 -1.842798 4288085770
-2.5139961 -2.0411773 -1.8422759 4288085770
-2.6358948 -2.0082932 -1.8466936 4288085770
-2.763813 -1.9704261 -1.8491139 4288085770
-2.8877354 -1.9325652 -1.8495147 4288085770
-3.0106659 -1.8947096 -1.8489108 4288085770
-3.0149441 0.31461191 -1.8154439 4288085770
-2.9008484 0.32672596 -1.8138033 4288085770
-2.7897701 0.33881998 -1.8091779 4288085770
-2.6576595 0.35097027 -1.810447 4288085770
-2.5155506 0.36313105 -1.8116655 4288085770
-2.3814659 0.37525702 -1.8079244 4288085770
-2.2193413 0.38745594 -1.8120427 4288085770
-2.0832729 0.39956713 -1.8052914 4288085770
-1.910162 0.41076231 -1.8063595 4288085770
-2.9251118 0.43666124 -1.8132964 4288085770
-1.7280521 0.42296743 -1.807377 4288085770
-2.7749786 0.44685268 -1.8184856 4288085770
-1.5429516 0.43516493 -1.8063794 4288085770
-2.6508961 0.45696211 -1.8138052 4288085770
-1.3448448 0.44638777 -1.8073217 4288085770
-2.501791 0.46712494 -1.8139992 4288085770
-1.13274 0.45861959 -1.8071883 4288085770
-2.3566971 0.47626829 -1.8112187 4288085770
-0.90963173 0.47087049 -1.8079994 4288085770
-2.1825714 0.48648071 -1.8152871 4288085770
-0.69455719 0.48307276 -1.8018506 4288085770
-2.0304928 0.49562073 -1.8104712 4288085770
-0.42042732 0.49540663 -1.8074055 4288085770
-1.8463802 0.5058279 -1.8114891 4288085770
-0.14531708 0.50771904 -1.808955 4288085770
-1.6562691 0.51504135 -1.8124821 4288085770
0.12377167 0.51899719 -1.80554 4288085770
-1.4501534 0.52427864 -1.8143946 4288085770
0.44789505 0.53137493 -1.808843 4288085770
-1.2380409 0.53351688 -1.8152767 4288085770
0.79301834 0.5437746 -1.8120403 4288085770
-0.99491501 0.54380512 -1.8189975 4288085770
1.1281033 0.55612564 -1.8082877 4288085770
-0.79284477 0.55198336 -1.8109351 4288085770
1.4881859 0.56849909 -1.8034093 4288085770
-0.53973198 0.56026649 -1.8116163 4288085770
1.9142952 0.58097744 -1.804199 4288085770
-0.27563477 0.56854582 -1.809242 4288085770
2.3774109 0.59350157 -1.8058025 4288085770
0.0064659119 0.57684946 -1.8077772 4288085770
2.8605118 0.60703135 -1.8042998 4288085770
0.3215847 0.58520603 -1.8091462 4288085770
3.3625927 0.61856031 -1.798712 4288085770
0.66771126 0.5936079 -1.8123592 4288085770
3.9286785 0.6311698 -1.7947971 4288085770
1.0298252 0.60201597 -1.8134915 4288085770
4.5667782 0.64486933 -1.7925142 4288085770
1.3699036 0.60835648 -1.8067449 4288085770
5.2508698 0.65761471 -1.7890053 4288085770
1.7730026 0.61578798 -1.8036761 4288085770
6.0509758 0.67150259 -1.7879074 4288085770
2.2461376 0.62333965 -1.808255 4288085770
6.9550819 0.68551064 -1.787286 4288085770
2.7372475 0.62988997 -1.8087488 4288085770
7.9841871 0.70066118 -1.7870309 4288085770
3.2403336 0.63542032 -1.8031873 4288085770
9.1493015 0.7159667 -1.7870907 4288085770
3.7884274 0.64000559 -1.7984042 4288085770
10.453397 0.73140812 -1.783451 4288085770
4.4025326 0.6446743 -1.7952889 4288085770
11.954481 0.7480545 -1.7768143 4288085770
5.1156464 0.64946747 -1.7946754 4288085770
5.8977566 0.65233135 -1.7927251 4288085770
6.7668762 0.65529633 -1.7913365 4288085770
7.8130236 0.65749359 -1.7960626 4288085770
8.9521561 0.65777111 -1.7963308 4288085770
10.239282 0.65720558 -1.7948591 4288085770
11.669383 0.65277052 -1.7876885 4288085770
4.738451 -4.9714656 -0.4167411 4293729569
4.74366 -4.8782554 -0.4552007 4293729569
4.8229065 -4.8139558 -0.49443892 4293729569
10.806447 -5.6237597 -1.1401379 4293729569
10.748509 -5.463695 -1.1645534 4293729569
10.821664 -5.359694 -0.2305811 4293729569
10.953735 -5.3832583 -1.2030551 4293729569
11.55613 0.93919206 -1.7740053 4288085770
10.243202 0.96871209 -1.7757174 4288085770
9.1633158 0.99753261 -1.7842128 4288085770
8.1063614 1.0203018 -1.7786214 4288085770
7.2574663 1.0463715 -1.7849227 4288085770
6.4425449 1.0684459 -1.7850682 4288085770
5.7246284 1.0906329 -1.7857049 4288085770
5.1017323 1.112946 -1.7898434 4288085770
4.4978065 1.1322474 -1.7878991 4288085770
10.977375 1.5524666 -1.7656224 4288085770
3.9729004 1.1526577 -1.7895349 4288085770
9.8894949 1.5622618 -1.7712666 4288085770
3.5030022 1.1731398 -1.7928824 4288085770
8.8946066 1.5711539 -1.7754287 4288085770
3.0420818 1.1916046 -1.791194 4288085770
7.958684 1.5770731 -1.7722982 4288085770
2.6541939 1.212188 -1.7961113 4288085770
7.1517839 1.5861616 -1.7734745 4288085770
2.2872963 1.2327831 -1.798919 4288085770
6.439888 1.5983655 -1.776136 4288085770
1.9023705 1.2493262 -1.7958434 4288085770
5.7799892 1.6096218 -1.7775304 4288085770
1.5474396 1.2658968 -1.7916105 4288085770
5.1750793 1.6199276 -1.7766422 4288085770
1.2755623 1.2866189 -1.7979196 4288085770
4.6351795 1.6323159 -1.7774019 4288085770
0.9816494 1.3042786 -1.7973613 4288085770
4.1282711 1.6437349 -1.7769939 4288085770
0.71574783 1.3229799 -1.7986504 4288085770
3.6923847 1.6582599 -1.781197 4288085770
0.48285866 1.3427341 -1.802761 4288085770
3.2644749 1.6707661 -1.7803692 4288085770
0.22793198 1.3584204 -1.7990093 4288085770
2.8675652 1.6833069 -1.779379 4288085770
0.042062759 1.3802483 -1.8068621 4288085770
2.5466862 1.7009692 -1.7849624 4288085770
-0.17385101 1.3979936 -1.8058947 4288085770
2.2418041 1.7196496 -1.7904563 4288085770
-0.36876106 1.4157681 -1.8058172 4288085770
1.9238987 1.7322829 -1.7900517 4288085770
-0.52363586 1.4376245 -1.8125077 4288085770
1.6239796 1.7459247 -1.7875473 4288085770
-0.72557068 1.4513583 -1.8064892 4288085770
1.356081 1.7616239 -1.788864 4288085770
-0.88246536 1.4711907 -1.8092014 4288085770
1.113184 1.7783561 -1.7910439 4288085770
-1.0423756 1.4890037 -1.8089405 4288085770
0.86927414 1.7940707 -1.7902348 4288085770
-1.1942825 1.506825 -1.8086377 4288085770
0.65537834 1.8118351 -1.7922572 4288085770
-1.3231735 1.527694 -1.8121974 4288085770
0.45647812 1.8306155 -1.7941953 4288085770
-1.4620838 1.5455298 -1.8118265 4288085770
0.26758575 1.8494127 -1.7970811 4288085770
-1.5869846 1.5643921 -1.8133763 4288085770
0.078678131 1.8671935 -1.7969725 4288085770
-1.7148972 1.5822349 -1.8119478 4288085770
-0.083215714 1.8880258 -1.8007058 4288085770
-1.828804 1.6021039 -1.8124347 4288085770
-0.23410797 1.907865 -1.8033866 4288085770
-1.9547291 1.6189375 -1.8090012 4288085770
-0.39801216 1.9266789 -1.8041414 4288085770
-2.0346012 1.643882 -1.8162822 4288085770
-0.55292702 1.9444914 -1.8028547 4288085770
-2.1445217 1.6607392 -1.8137646 4288085770
-0.6618042 1.9704039 -1.810282 4288085770
-2.2354259 1.681639 -1.8151253 4288085770
-0.80472374 1.9882245 -1.8079324 4288085770
-2.331337 1.7005224 -1.8145236 4288085770
-0.95765686 2.0030179 -1.8026518 4288085770
-2.4312611 1.7173848 -1.8109537 4288085770
-1.0515385 2.0289416 -1.8090006 4288085770
-2.5081635 1.7393003 -1.8122356 4288085770
-1.154438 2.0518336 -1.8114132 4288085770
-2.5870647 1.7602136 -1.8135335 4288085770
-1.2723541 2.071687 -1.8099214 4288085770
-2.667984 1.7801077 -1.8118474 4288085770
-1.4062958 2.0854905 -1.8025469 4288085770
-2.7358894 1.8020327 -1.8130821 4288085770
-1.502203 2.1073794 -1.8029283 4288085770
-2.8058014 1.8229446 -1.812333 4288085770
-1.5861073 2.132292 -1.8052306 4288085770
-2.8616924 1.8468995 -1.8164935 4288085770
-1.6890335 2.150146 -1.8006711 4288085770
-2.9095821 1.8718629 -1.8206066 4288085770
-1.7629356 2.1760755 -1.8039153 4288085770
-2.9684944 1.8947926 -1.8207887 4288085770
-1.8358421 2.2019949 -1.8051543 4288085770
-3.0284023 1.9167211 -1.8209815 4288085770
-1.9177608 2.2228885 -1.8034682 4288085770
-1.9846706 2.2498143 -1.8046701 4288085770
-2.0635948 2.2717054 -1.8019627 4288085770
-2.1305122 2.2956209 -1.8011814 4288085770
-2.1954365 2.3205328 -1.7993839 4288085770
-2.2483559 2.348475 -1.8005074 4288085770
-2.3112812 2.3723838 -1.7977051 4288085770
-2.3511868 2.4033506 -1.8007433 4288085770
-2.4121189 2.4272561 -1.7969308 4288085770
-2.4480286 2.4592218 -1.7989426 4288085770
-2.4959545 2.4861524 -1.7970451 4288085770
-2.5368786 2.5160964 -1.7960943 4288085770
-2.5727978 2.5460513 -1.7961173 4288085770
-2.590704 2.584048 -1.8000015 4288085770
-2.6136189 2.6190279 -1.8019288 4288085770
-2.6435452 2.6509838 -1.8009093 4288085770
-2.667469 2.6859519 -1.8008417 4288085770
-2.7024078 2.7148864 -1.7968651 4288085770
-2.701313 2.7599144 -1.8026111 4288085770
-2.7322598 2.7908478 -1.7976027 4288085770
-2.7461853 2.827827 -1.7974715 4288085770
-2.7501087 2.8688276 -1.7992659 4288085770
-2.7610416 2.9068048 -1.7981137 4288085770
-2.7769909 2.9437597 -1.7939934 4288085770
-2.7669067 2.9907873 -1.7976812 4288085770
-2.769846 3.0327728 -1.7964649 4288085770
-2.7627773 3.0777807 -1.7971797 4288085770
-2.7517071 3.1247983 -1.7988622 4288085770
-2.7466488 3.1707926 -1.7975819 4288085770
-2.7195759 3.2258387 -1.8011365 4288085770
-2.7025185 3.2768517 -1.8007656 4288085770
-2.6614399 3.3399301 -1.8072026 4288085770
-2.6353817 3.394958 -1.8077625 4288085770
-2.6053238 3.4519968 -1.8092901 4288085770
-2.5472431 3.525104 -1.8175827 4288085770
-2.4971809 3.5921807 -1.8219503 4288085770
-2.4501247 3.6582437 -1.8243392 4288085770
-2.3690414 3.7443981 -1.8364393 4288085770
-2.3139915 3.8144693 -1.8387641 4288085770
-2.2489433 3.8915572 -1.8419979 4288085770
-2.1969109 3.960609 -1.8413439 4288085770
-2.1428795 4.0306573 -1.8396739 4288085770
-2.0498295 4.1237984 -1.8466723 4288085770
-1.9768009 4.2048783 -1.8468418 4288085770
-1.8727531 4.3030367 -1.8547549 4288085770
-1.805748 4.3800826 -1.8499779 4288085770
-1.7197361 4.4681726 -1.8490405 4288085770
-1.6457405 4.5492206 -1.8432047 4288085770
-2.969944 3.8366678 -1.8370775 4288085770
-1.5467358 4.6433249 -1.8421659 4288085770
-2.8818913 3.9187922 -1.8421625 4288085770
-1.4227257 4.754478 -1.8449022 4288085770
-2.7918453 4.0019131 -1.8462313 4288085770
-1.2807102 4.8756723 -1.8514886 4288085770
-2.696806 4.0880394 -1.8502573 4288085770
-1.0806789 5.0339904 -1.8685663 4288085770
-2.6107807 4.1671286 -1.849369 4288085770
-0.61649323 5.362958 -1.9493209 4282675967
-2.5137596 4.2522359 -1.8493899 4288085770
-0.41449547 5.5232458 -1.9603771 4282675967
-2.4057312 4.3443708 -1.8523144 4288085770
-0.26753998 5.6463861 -1.9559261 4282675967
-2.2826996 4.4445343 -1.8571157 4288085770
-0.13760757 5.7574697 -1.94463 4282675967
-2.1486664 4.5517197 -1.8638207 4288085770
-0.0036773682 5.8705521 -1.9323019 4288085770
-2.0186558 4.6548743 -1.8655685 4288085770
0.14024162 5.9886456 -1.9198936 4288085770
-1.8936558 4.7540064 -1.8643646 4288085770
0.32616615 6.132823 -1.9141213 4288085770
-1.757658 4.8581562 -1.8640752 4288085770
0.54008675 6.2950478 -1.9111027 4288085770
-1.5946465 4.9803686 -1.8695447 4288085770
0.81601906 6.4953957 -1.9175488 4288085770
-1.4126396 5.1146126 -1.876848 4288085770
1.1459427 6.7318406 -1.9305125 4288085770
-0.94346428 5.4425759 -1.9555799 4282675967
1.4768486 6.9662657 -1.9394821 4288085770
-0.69245338 5.6189508 -1.972289 4282675967
1.8077374 7.198668 -1.9444619 4288085770
-0.49948692 5.7551689 -1.9725229 4282675967
2.1716137 7.4511185 -1.9511582 4288085770
-0.34354973 5.8632812 -1.9611052 4282675967
2.54146 7.7055483 -1.9528116 4288085770
-0.18362999 5.9713817 -1.9466664 4288085770
3.0042934 8.0201397 -1.9646455 4288085770
-0.011709213 6.0855007 -1.9331311 4288085770
0.18621063 6.2146707 -1.9233764 4288085770
0.42112923 6.3669081 -1.9183005 4288085770
0.73506165 6.5693035 -1.9255332 4288085770
1.1030025 6.8058081 -1.9412946 4288085770
1.4549065 7.0262394 -1.9472276 4288085770
1.8378086 7.2647223 -1.9558982 4288085770
2.2076817 7.4901466 -1.9567083 4288085770
2.6185436 7.7386332 -1.9601754 4288085770
3.1334038 8.0503054 -1.9757482 4288085770
11.560941 -1.2027426 -1.7955219 4282675967
10.666107 -1.234745 -1.8004661 4282675967
9.8202658 -1.2626925 -1.8051269 4282675967
9.0204048 -1.2845993 -1.8075101 4282675967
8.2905445 -1.3034239 -1.8105032 4282675967
7.5956812 -1.3182087 -1.813288 4282675967
6.9378023 -1.3289633 -1.8138539 4282675967
6.3039017 -1.334703 -1.8122648 4282675967
5.7560406 -1.3433132 -1.8162323 4282675967
5.1781235 -1.342001 -1.8123065 4288085770
11.700084 -2.2137289 -1.7811983 4288085770
4.6902504 -1.3455501 -1.8149269 4288085770
10.653175 -2.1728907 -1.7885618 4288085770
4.2523937 -1.351027 -1.8202907 4288085770
9.674242 -2.1279988 -1.7915406 4288085770
3.8125114 -1.350522 -1.822633 4288085770
8.7883167 -2.086998 -1.7950447 4288085770
3.4346714 -1.3549156 -1.8306711 4288085770
7.9824057 -2.0498953 -1.8001426 4288085770
3.0477943 -1.3533473 -1.8337251 4288085770
7.2004604 -2.0067949 -1.8000807 4288085770
2.6669044 -1.348783 -1.8347311 4288085770
6.4585037 -1.9626608 -1.7977996 4288085770
2.2549534 -1.3343019 -1.826849 4288085770
5.7955532 -1.9214325 -1.7961128 4288085770
1.9370861 -1.3306451 -1.8315238 4288085770
5.2116432 -1.8880835 -1.8000467 4288085770
1.6302109 -1.3259816 -1.8351344 4288085770
4.6547165 -1.8527212 -1.8008261 4288085770
1.3513508 -1.3222704 -1.8416008 4288085770
4.1548119 -1.8222733 -1.8053275 4288085770
1.024416 -1.3076792 -1.836265 4288085770
3.7049313 -1.795753 -1.8125836 4288085770
0.72650146 -1.2950377 -1.8337846 4288085770
3.2640266 -1.7652392 -1.8167702 4288085770
0.46961784 -1.2863183 -1.8371071 4288085770
2.8130798 -1.728775 -1.8139782 4288085770
0.24876404 -1.2825317 -1.8452637 4288085770
2.4141598 -1.6982245 -1.8159406 4288085770
-0.0031414032 -1.2688298 -1.8445325 4288085770
2.0372467 -1.6686511 -1.8177909 4288085770
-0.22301674 -1.2600632 -1.8486569 4288085770
1.7203712 -1.645977 -1.825358 4288085770
-0.43589973 -1.2502956 -1.8517389 4288085770
1.4204998 -1.6242843 -1.8328398 4288085770
-0.68084908 -1.2306175 -1.8449384 4288085770
1.1035862 -1.5946431 -1.8343694 4288085770
-0.86370659 -1.2227945 -1.8518704 4288085770
0.7896595 -1.5640097 -1.833878 4288085770
