# .PCD v0.7 - Point Cloud Data file format
VERSION 0.7
FIELDS x y z rgb
SIZE 4 4 4 4
TYPE F F F U
COUNT 1 1 1 1
WIDTH 1113
HEIGHT 1
VIEWPOINT 0 0 0 1 0 0 0
POINTS 1113
DATA ascii
-1.4792938 2.5533009 -1.7876704 4288085770
0.1015625 2.9986663 -1.7464871 4288085770
-1.3491516 2.5627084 -1.7775714 4288085770
0.35183716 3.0376425 -1.7451723 4288085770
-1.1398926 2.5938993 -1.7843165 4288085770
0.60610962 3.074584 -1.7408676 4288085770
-0.95869446 2.6131554 -1.7831421 4288085770
0.86238098 3.1085124 -1.7355807 4288085770
-0.79953003 2.6244569 -1.7750227 4288085770
1.1266327 3.1424074 -1.7302914 4288085770
-0.66139221 2.6278143 -1.7619574 4288085770
1.4088898 3.17823 -1.7249846 4288085770
-0.47822571 2.6420374 -1.7568126 4288085770
1.693161 3.2110322 -1.7176955 4288085770
-0.25500488 2.6651416 -1.7586017 4288085770
2.0394745 3.2576261 -1.7173035 4288085770
-0.037811279 2.6832519 -1.7574227 4288085770
2.3757324 3.2972367 -1.7129567 4288085770
0.1633606 2.6943965 -1.7512906 4288085770
2.7500458 3.341706 -1.7105684 4288085770
0.420578 2.7183757 -1.7550633 4288085770
3.1313477 3.3861399 -1.7071779 4288085770
0.68980408 2.7423058 -1.7588327 4288085770
3.5466614 3.431437 -1.7037716 4288085770
0.94999695 2.7592487 -1.758647 4288085770
3.9859924 3.4806497 -1.7023339 4288085770
1.1751404 2.7662849 -1.7505314 4288085770
4.4192505 3.5208552 -1.6959519 4288085770
1.4142914 2.7722697 -1.7434182 4288085770
4.8815613 3.5639446 -1.6895435 4288085770
1.6844482 2.7831488 -1.7392654 4288085770
5.3918915 3.6128581 -1.6860845 4288085770
1.9706268 2.7939739 -1.737108 4288085770
5.9522247 3.665576 -1.6835866 4288085770
2.2837982 2.8077035 -1.7369242 4288085770
6.4514771 3.6994734 -1.6702213 4288085770
2.5639191 2.8095174 -1.7288227 4288085770
7.122879 3.7637661 -1.671618 4288085770
2.8930817 2.8181691 -1.7266643 4288085770
7.9463501 3.8515103 -1.683825 4288085770
3.2032166 2.8198729 -1.7205544 4288085770
8.7497711 3.9252801 -1.6871221 4288085770
3.5403442 2.821475 -1.7154343 4288085770
9.5491638 3.9880311 -1.6844847 4288085770
3.8854675 2.8210444 -1.710324 4288085770
10.449585 4.0603924 -1.684757 4288085770
4.2626038 2.8214908 -1.706198 4288085770
11.406006 4.1325216 -1.6840122 4288085770
4.6487122 2.8178959 -1.7010934 4288085770
5.040802 2.8112693 -1.6950047 4288085770
5.4528961 2.8045692 -1.6899099 4288085770
5.904007 2.7987294 -1.6877973 4288085770
6.3710785 2.7888131 -1.6837037 4288085770
6.874176 2.7777643 -1.6816053 4288085770
7.4372406 2.7684894 -1.682477 4288085770
8.115387 2.7698054 -1.6922474 4288085770
8.7164459 2.7523723 -1.6921554 4288085770
9.254425 2.7171402 -1.6831901 4288085770
9.8263855 2.67977 -1.6742265 4288085770
10.479385 2.6451101 -1.6712203 4288085770
11.223373 2.6111064 -1.6721804 4288085770
11.815247 2.5506268 -1.6583486 4288085770
10.035706 -4.9575253 -0.84382212 4293729569
9.931427 -5.0569057 -0.87744999 4293729569
9.9300385 -5.1876717 -0.91623187 4293729569
11.69664 -7.4522419 -1.6821859 4293729569
10.893494 -7.2699871 -1.685358 4293729569
10.19722 -7.1181307 -1.6936767 4293729569
5.015152 -5.0648375 -0.59908563 4293729569
5.0243225 -5.0937042 -1.2872653 4293729569
4.9490356 -5.1262951 -0.64547366 4293729569
4.9252625 -5.1440468 -1.3305981 4293729569
4.9338531 -5.2079401 -0.69496572 4293729569
4.9140625 -5.229702 -1.3811128 4293729569
7.5942383 -6.4905128 -1.714772 4293729569
6.9580536 -6.3159599 -1.7129354 4293729569
6.3718109 -6.1555967 -1.7131679 4293729569
5.8335266 -6.0084095 -1.7164629 4293729569
5.3292084 -5.8693514 -1.7207956 4293729569
4.8548584 -5.7354221 -1.7241492 4293729569
4.397522 -5.6025667 -1.7265036 4293729569
3.9621582 -5.4747868 -1.7308812 4293729569
3.5697327 -5.3611746 -1.7363293 4293729569
3.1404266 -5.222456 -1.7346394 4293729569
2.7949524 -5.1190205 -1.7421331 4293729569
7.6790314 -7.6030283 -1.6973605 4293729569
2.4315491 -5.0035448 -1.7445607 4293729569
7.0141449 -7.3572779 -1.7091081 4293729569
2.0921173 -4.8921585 -1.7480047 4293729569
6.3652649 -7.1086149 -1.7168326 4293729569
1.7476959 -4.7757759 -1.7474208 4293729569
5.7373657 -6.8630505 -1.7225692 4293729569
1.4232788 -4.6634636 -1.7488544 4293729569
5.1574097 -6.6346827 -1.7273929 4293729569
1.1237946 -4.5592508 -1.7503283 4293729569
4.5714874 -6.3953218 -1.7271528 4293729569
0.8692627 -4.4751768 -1.758908 4293729569
4.0205383 -6.1651115 -1.7259557 4293729569
0.63769531 -4.4001884 -1.7685344 4293729569
3.510498 -5.9520626 -1.7248483 4293729569
0.36920166 -4.3011007 -1.7700286 4293729569
3.0823517 -5.7753019 -1.7309306 4293729569
0.10374451 -4.1990423 -1.7685044 4293729569
2.6721649 -5.6026192 -1.7360313 4293729569
-0.12979126 -4.111083 -1.7720537 4293729569
2.3218689 -5.4591532 -1.7452869 4293729569
-0.33236694 -4.0382252 -1.7796834 4293729569
1.9346619 -5.2885942 -1.7453928 4293729569
-0.44114685 -4.0136356 -1.8055701 4293729569
1.5844116 -5.1351652 -1.748589 4293729569
-0.53094482 -4.0000906 -1.8365171 4293729569
1.2531128 -4.9868193 -1.7508094 4293729569
-0.58082581 -4.0066576 -1.8755708 4288085770
0.96775818 -4.8606281 -1.758147 4293729569
-0.64369202 -4.0031929 -1.9115689 4288085770
0.67440796 -4.7264395 -1.7594395 4293729569
-0.74545288 -3.9756298 -1.9374356 4288085770
0.39207458 -4.5942917 -1.7617407 4293729569
-0.9349823 -3.8938608 -1.9390073 4288085770
0.14564514 -4.4802675 -1.7671382 4293729569
-1.138504 -3.8000641 -1.9355118 4288085770
-0.12870789 -4.3461866 -1.7634251 4293729569
-1.3429871 -3.7042837 -1.9290047 4288085770
-0.3631134 -4.2322321 -1.7658193 4293729569
-1.5195465 -3.6215849 -1.9275672 4288085770
-0.56660461 -4.1333761 -1.7722936 4293729569
-1.7060699 -3.5308743 -1.9210846 4288085770
-0.78204346 -4.0255136 -1.7717178 4293729569
-1.8626404 -3.455246 -1.9216821 4288085770
-0.87576294 -3.9869719 -1.7995155 4293729569
-2.0102386 -3.3826571 -1.9212949 4288085770
-0.90061951 -3.9886236 -1.8415301 4293729569
-2.1548309 -3.3110743 -1.9219129 4288085770
-0.92549133 -3.9882727 -1.883533 4288085770
-2.3053894 -3.2324991 -1.917491 4288085770
-0.95433044 -3.9839211 -1.9235129 4288085770
-2.4349823 -3.1649771 -1.918128 4288085770
-1.1048889 -3.903266 -1.9320781 4288085770
-2.5665741 -3.0944643 -1.9157479 4288085770
-1.2883453 -3.8005447 -1.9295223 4288085770
-2.6891937 -3.027976 -1.9153891 4288085770
-1.4678192 -3.6988468 -1.9259715 4288085770
-1.6403046 -3.5981884 -1.9204242 4288085770
-1.7967987 -3.5065718 -1.918926 4288085770
-1.9403381 -3.4200058 -1.9174535 4288085770
-2.0689087 -3.3414879 -1.9180241 4288085770
-2.2084198 -3.2549562 -1.9135504 4288085770
-2.3349915 -3.1754589 -1.9121146 4288085770
-2.4475861 -3.1020184 -1.9107101 4288085770
-2.5561829 -3.0305862 -1.9103167 4288085770
-2.6577759 -2.9611835 -1.9099326 4288085770
-2.7643585 -2.8877792 -1.9065266 4288085770
-2.7931061 -0.64629126 -1.8527391 4288085770
-2.7268982 -0.62859344 -1.8476 4288085770
-2.6437225 -0.61293316 -1.8474658 4288085770
-2.5565338 -0.59629536 -1.846324 4288085770
-2.4663696 -0.58067465 -1.8441868 4288085770
-2.3581696 -0.56709671 -1.8470538 4288085770
-2.2659912 -0.55049753 -1.8429096 4288085770
-2.1588135 -0.53593397 -1.8427711 4288085770
-2.0546265 -0.52037048 -1.8406277 4288085770
-1.938446 -0.50584745 -1.8394849 4288085770
-1.8172607 -0.49134636 -1.8383403 4288085770
-1.6860962 -0.47787809 -1.8381972 4288085770
-2.7643585 -0.31352234 -1.8426828 4288085770
-1.5529022 -0.46343184 -1.8360472 4288085770
-2.6682129 -0.29992676 -1.8405552 4288085770
-1.4087372 -0.45001078 -1.8368983 4288085770
-2.5570221 -0.28637266 -1.8414207 4288085770
-1.2565613 -0.43663263 -1.835746 4288085770
-2.4608459 -0.27079582 -1.8362808 4288085770
-1.1053619 -0.4222641 -1.8325877 4288085770
-2.3236694 -0.2603159 -1.8421531 4288085770
-0.92120361 -0.41099072 -1.8354337 4288085770
-2.1995087 -0.24682713 -1.841013 4288085770
-0.74803162 -0.39770412 -1.833272 4288085770
-2.0733185 -0.23334503 -1.8398719 4288085770
-0.55685425 -0.38547802 -1.8331084 4288085770
-1.9261475 -0.22092915 -1.8417275 4288085770
-0.34368896 -0.37332678 -1.8349352 4288085770
-1.8109589 -0.20544529 -1.8335788 4288085770
-0.12651062 -0.36219931 -1.8357663 4288085770
-1.6657867 -0.19204044 -1.8324292 4288085770
0.090652466 -0.34909487 -1.8325851 4288085770
-1.509613 -0.17967987 -1.8312807 4288085770
0.30581665 -0.33599424 -1.8274045 4288085770
-1.3254395 -0.16840076 -1.8351264 4288085770
0.53800964 -0.32196856 -1.8212104 4288085770
-1.1692657 -0.15406322 -1.8299656 4288085770
0.80418396 -0.3100543 -1.8190136 4288085770
-0.96809387 -0.14285946 -1.8328032 4288085770
1.080368 -0.29718637 -1.8158062 4288085770
-0.75894165 -0.13168669 -1.8356373 4288085770
1.3925323 -0.28645229 -1.814595 4288085770
-0.54476929 -0.11954641 -1.8364632 4288085770
1.6896973 -0.27369308 -1.8073781 4288085770
-0.32759094 -0.10742998 -1.8352873 4288085770
2.0278625 -0.26108646 -1.8021431 4288085770
-0.088424683 -0.095396519 -1.8351018 4288085770
2.4160156 -0.25065613 -1.8008983 4288085770
0.16474915 -0.083423138 -1.8339102 4288085770
2.8132019 -0.2392869 -1.7956433 4288085770
0.38491821 -0.068374157 -1.8237147 4288085770
3.2553711 -0.22908592 -1.7923741 4288085770
0.66610718 -0.056520462 -1.8215103 4288085770
3.7555237 -0.21911097 -1.7900798 4288085770
0.94329834 -0.042674541 -1.8152955 4288085770
4.2606964 -0.20818758 -1.7827768 4288085770
1.2524414 -0.02994585 -1.8110723 4288085770
4.8658447 -0.19962788 -1.7814419 4288085770
1.5836182 -0.017305374 -1.8068397 4288085770
5.4840088 -0.19015694 -1.7740946 4288085770
1.9517975 -0.0058002472 -1.8045964 4288085770
6.1841736 -0.18000841 -1.7677054 4288085770
2.3139801 0.0076851845 -1.7953434 4288085770
6.9333344 -0.17008257 -1.7572939 4288085770
2.7551422 0.019897461 -1.7930617 4288085770
7.9664917 -0.16718054 -1.765794 4288085770
3.2303162 0.030972481 -1.7907708 4288085770
8.9396362 -0.15915871 -1.7542894 4288085770
3.7404938 0.043893814 -1.7864518 4288085770
10.1008 -0.15285587 -1.7487075 4288085770
4.3126526 0.055580139 -1.7841113 4288085770
11.604935 -0.15285635 -1.7550049 4288085770
4.9368286 0.067044258 -1.7797477 4288085770
5.5740051 0.080415249 -1.7683659 4288085770
6.3261871 0.092360497 -1.7629385 4288085770
7.2483521 0.10267162 -1.7654419 4288085770
8.2885132 0.1135025 -1.7668865 4288085770
9.3006897 0.12734461 -1.7513244 4288085770
10.894867 0.13507271 -1.7725286 4288085770
11.387787 0.35899401 -1.7621033 4288085770
9.6249084 0.3728323 -1.7352726 4288085770
8.5470886 0.38519526 -1.7499626 4288085770
7.5212708 0.3973155 -1.7586179 4288085770
6.5214081 0.40925598 -1.7542565 4288085770
5.6985779 0.42153931 -1.7577672 4288085770
5.0537415 0.43317938 -1.7721546 4288085770
11.604034 0.48197222 -1.7381561 4288085770
4.4049072 0.44478321 -1.7775459 4288085770
10.244217 0.49843168 -1.7490265 4288085770
3.7900848 0.45621634 -1.7769144 4288085770
8.8023834 0.51305676 -1.7329681 4288085770
3.2532501 0.46836185 -1.7802229 4288085770
7.8045502 0.52808952 -1.7455895 4288085770
2.7593994 0.47933245 -1.7825084 4288085770
6.8327332 0.54194689 -1.7461998 4288085770
2.312561 0.49112701 -1.7867556 4288085770
5.9658813 0.5553813 -1.7457385 4288085770
1.9247284 0.50271034 -1.7949619 4288085770
5.3100739 0.57007074 -1.7611179 4288085770
1.536911 0.51425266 -1.7961688 4288085770
4.653244 0.58370066 -1.7655051 4288085770
1.2160797 0.52657509 -1.8053229 4288085770
4.0614166 0.59707069 -1.7698474 4288085770
0.92724609 0.53877735 -1.8154552 4288085770
3.4905853 0.6103406 -1.7711759 4288085770
0.66342163 0.5508914 -1.8275702 4288085770
2.9907532 0.62332773 -1.772455 4288085770
0.40960693 0.56394768 -1.8366728 4288085770
2.5619202 0.63706779 -1.7796791 4288085770
0.15177917 0.57599688 -1.8417842 4288085770
2.1430969 0.64973879 -1.7819026 4288085770
-0.10505676 0.58701801 -1.8429012 4288085770
1.7832642 0.66220474 -1.7890847 4288085770
-0.39189148 0.59809923 -1.8340397 4288085770
1.4544525 0.67654753 -1.7962341 4288085770
-0.64274597 0.60906124 -1.8291533 4288085770
1.146637 0.68980694 -1.8033748 4288085770
-0.8855896 0.6199851 -1.8232615 4288085770
0.87181091 0.70394659 -1.8124864 4288085770
-1.0894165 0.63179016 -1.8233364 4288085770
0.62498474 0.71798706 -1.8235788 4288085770
-1.3042603 0.64260292 -1.8174253 4288085770
0.38517761 0.73198223 -1.8316667 4288085770
-1.496109 0.65334129 -1.8144982 4288085770
0.13835144 0.74598122 -1.8357596 4288085770
-1.6529236 0.6659832 -1.8185346 4288085770
-0.10647583 0.7579484 -1.8358634 4288085770
-1.8247833 0.67664909 -1.8165941 4288085770
-0.37434387 0.7689662 -1.82899 4288085770
-1.9736023 0.68924046 -1.8176253 4288085770
-0.62217712 0.77990389 -1.8221023 4288085770
-2.1284332 0.69983864 -1.8156729 4288085770
-0.84101868 0.79174519 -1.8181884 4288085770
-2.2632751 0.71238041 -1.8176944 4288085770
-1.0448456 0.8045373 -1.8162584 4288085770
-2.3950958 0.72389889 -1.8177202 4288085770
-1.2456818 0.81530046 -1.8113382 4288085770
-2.5149384 0.73638105 -1.8197312 4288085770
-1.408493 0.82895899 -1.8143735 4288085770
-2.6347656 0.7488575 -1.8207428 4288085770
-1.5763397 0.84160852 -1.8124187 4288085770
-2.7716064 0.75935984 -1.8147783 4288085770
-1.7511749 0.85326862 -1.8074749 4288085770
-1.8940125 0.86583614 -1.8085024 4288085770
-2.030838 0.87837458 -1.8085258 4288085770
-2.1436462 0.89385271 -1.8145146 4288085770
-2.2754669 0.90635872 -1.8125348 4288085770
-2.3963013 0.91883326 -1.8125474 4288085770
-2.538147 0.9293375 -1.803587 4288085770
-2.6149597 0.94569635 -1.8135445 4288085770
-2.7348022 0.95713711 -1.8085625 4288085770
-2.7506256 3.2844739 -1.7576983 4288085770
-2.6513367 3.3290396 -1.7513573 4288085770
-2.5360107 3.3795655 -1.7489688 4288085770
-2.4146729 3.4330611 -1.7455583 4288085770
-2.2662964 3.4994912 -1.7490506 4288085770
-2.1169128 3.5639055 -1.7505538 4288085770
-1.9605255 3.6302981 -1.7530398 4288085770
-1.8221893 3.6847153 -1.7476101 4288085770
-1.6457672 3.758034 -1.7510395 4288085770
-2.7437744 3.2363963 -1.7569628 4288085770
-1.4533386 3.8362954 -1.7554271 4288085770
-2.6245117 3.2779067 -1.7546239 4288085770
-1.253891 3.9165294 -1.7597976 4288085770
-2.5022278 3.3204045 -1.7522769 4288085770
-1.0654907 3.9887769 -1.7592237 4288085770
-2.3478546 3.3768234 -1.7578228 4288085770
-0.82498169 4.0838776 -1.7684743 4288085770
-2.209549 3.4232638 -1.7564399 4288085770
-0.61253357 4.1630363 -1.7688406 4288085770
-2.0612335 3.4736712 -1.7560258 4288085770
-0.3921051 4.2421579 -1.7682006 4288085770
-1.9289703 3.5121121 -1.7506943 4288085770
-0.13961792 4.3351822 -1.7724535 4288085770
-1.762619 3.5664597 -1.7522423 4288085770
0.11486816 4.4261799 -1.7737164 4288085770
-1.5932922 3.6197891 -1.752794 4288085770
0.36231995 4.5091829 -1.7710319 4288085770
-1.4209595 3.6721017 -1.7523491 4288085770
0.58370972 4.5772476 -1.7614551 4288085770
-1.2236023 3.7343435 -1.7568264 4288085770
0.80406189 4.6412992 -1.7489026 4288085770
-1.0502777 3.7816343 -1.7534103 4288085770
1.0474701 4.7132711 -1.7382853 4288085770
-0.80986023 3.8587413 -1.7637658 4288085770
1.3399353 4.8040905 -1.7345183 4288085770
-0.60450745 3.9169288 -1.7642601 4288085770
1.6564484 4.9028254 -1.732686 4288085770
-0.39616394 3.9720984 -1.7637694 4288085770
1.986969 5.0035 -1.729831 4288085770
-0.1587677 4.0381823 -1.7681916 4288085770
2.3365173 5.108099 -1.7269373 4288085770
0.058563232 4.0923052 -1.7656996 4288085770
2.6639709 5.19875 -1.7181427 4288085770
0.27287292 4.141427 -1.7612391 4288085770
3.0285034 5.300272 -1.7122552 4288085770
0.47613525 4.1825647 -1.7518342 4288085770
3.4250641 5.4116735 -1.7072837 4288085770
0.7074585 4.232626 -1.7483544 4288085770
3.8696899 5.5379019 -1.7051871 4288085770
0.93876648 4.279664 -1.7408922 4288085770
4.3132782 5.6571169 -1.7001319 4288085770
1.1991119 4.3356166 -1.7383544 4288085770
4.8269806 5.8010898 -1.7008755 4288085770
1.4564362 4.38657 -1.7338481 4288085770
5.4227753 5.9697609 -1.7054088 4288085770
1.7507935 4.4483929 -1.7322488 4288085770
6.0035095 6.1244626 -1.7050357 4288085770
2.041153 4.5052271 -1.7296813 4288085770
6.5802155 6.272151 -1.6997063 4288085770
2.3595276 4.567956 -1.7280571 4288085770
7.1538696 6.4088283 -1.6904435 4288085770
2.6598358 4.6197391 -1.7235107 4288085770
7.8927612 6.6009216 -1.6927235 4288085770
2.9611511 4.6684999 -1.7159812 4288085770
8.7508087 6.8305907 -1.7026882 4288085770
3.2955017 4.7241545 -1.7123849 4288085770
9.5496979 7.0244179 -1.6999092 4288085770
3.6708832 4.7906637 -1.7116921 4288085770
10.171265 7.1428242 -1.6767132 4288085770
4.0722809 4.8610821 -1.7129552 4288085770
10.727707 7.2294297 -1.643755 4288085770
4.4676514 4.9235067 -1.7112696 4288085770
11.633636 7.4318109 -1.6368387 4288085770
4.9120789 4.9977551 -1.7124753 4288085770
5.3374329 5.0600605 -1.7107658 4288085770
5.741745 5.1084213 -1.7041545 4288085770
6.1720734 5.1606846 -1.6984992 4288085770
6.6354218 5.2148232 -1.6938062 4288085770
7.110733 5.2689199 -1.6901033 4288085770
7.605072 5.3219371 -1.6853914 4288085770
8.116394 5.3718863 -1.6806831 4288085770
8.7248077 5.4434919 -1.68277 4288085770
9.2941437 5.4962177 -1.6789982 4288085770
9.8894653 5.5478468 -1.6762114 4288085770
10.543823 5.6072602 -1.6763313 4288085770
11.17511 5.6507416 -1.6725624 4288085770
11.822388 5.6901541 -1.6678042 4288085770
11.954544 -3.4059706 -1.8153641 4288085770
11.239685 -3.3991766 -1.8119106 4288085770
10.715729 -3.4210405 -1.824466 4288085770
10.171814 -3.4308567 -1.8319683 4288085770
9.5909576 -3.4245567 -1.8344076 4288085770
9.0471039 -3.4183903 -1.8388171 4288085770
8.4682922 -3.3981209 -1.8371739 4288085770
7.9554749 -3.3840847 -1.8405128 4288085770
7.5006256 -3.378253 -1.8478515 4288085770
7.0317993 -3.3623838 -1.8521473 4288085770
6.5600128 -3.3385201 -1.8533974 4288085770
6.1491852 -3.3238678 -1.8596506 4288085770
12.172699 -4.9646206 -1.6941791 4293729569
5.7184143 -3.3001604 -1.8618677 4288085770
11.177368 -4.8217096 -1.6921711 4293729569
5.3026276 -3.2725115 -1.8640497 4288085770
10.39389 -4.7235575 -1.7032478 4293729569
4.8978729 -3.2429123 -1.8652112 4288085770
9.6883392 -4.6377058 -1.7153316 4293729569
4.5121002 -3.2133837 -1.8673575 4288085770
8.9808502 -4.541873 -1.7233589 4293729569
4.1643219 -3.1909866 -1.872514 4288085770
8.41922 -4.4795494 -1.7424603 4293729569
3.8035736 -3.157568 -1.872617 4288085770
7.9565277 -4.4385872 -1.7666037 4293729569
3.4658051 -3.1282225 -1.8757248 4288085770
7.5597534 -4.4128504 -1.7967811 4288085770
3.1170807 -3.0898581 -1.8747892 4288085770
7.2109833 -4.3962793 -1.8309717 4288085770
2.7893372 -3.0545616 -1.8758545 4288085770
6.8392334 -4.3686476 -1.8601174 4288085770
2.4965668 -3.0253887 -1.8799262 4288085770
6.4045715 -4.3158264 -1.8791692 4288085770
2.178833 -2.9851522 -1.8779545 4288085770
5.8590698 -4.218668 -1.8810554 4288085770
1.9050903 -2.9550476 -1.8830051 4288085770
5.3455505 -4.1256351 -1.8829391 4288085770
1.5993805 -2.9088755 -1.8779891 4288085770
4.8520508 -4.0326929 -1.8828068 4288085770
1.3546295 -2.8798857 -1.8830221 4288085770
4.3835144 -3.9408503 -1.8826604 4288085770
1.0958862 -2.8438644 -1.8840263 4288085770
3.9509583 -3.8581381 -1.8845372 4288085770
0.83816528 -2.8028603 -1.8830004 4288085770
3.5503998 -3.7805452 -1.8874171 4288085770
0.60742188 -2.7699366 -1.8859994 4288085770
3.1588287 -3.7000008 -1.8882725 4288085770
0.37368774 -2.7320185 -1.8859718 4288085770
2.7942505 -3.6245499 -1.8911355 4288085770
0.1489563 -2.6951323 -1.8869429 4288085770
2.4286804 -3.5451183 -1.8899763 4288085770
-0.060791016 -2.6602993 -1.8889134 4288085770
2.0940857 -3.4727983 -1.8908324 4288085770
-0.25154114 -2.6305227 -1.8938975 4288085770
1.7834778 -3.4045601 -1.8936925 4288085770
-0.45626831 -2.5907259 -1.8928349 4288085770
1.4778595 -3.3343544 -1.8945372 4288085770
-0.65400696 -2.5529509 -1.8927786 4288085770
1.1812744 -3.2641964 -1.8933744 4288085770
-0.84674072 -2.5142088 -1.8907125 4288085770
0.90364075 -3.1981077 -1.8932199 4288085770
-1.0194702 -2.4795141 -1.8936532 4288085770
0.64201355 -3.1340694 -1.8950639 4288085770
-1.2111969 -2.4367933 -1.8885632 4288085770
0.39439392 -3.0730934 -1.8959143 4288085770
-1.3819275 -2.3991261 -1.8884852 4288085770
0.14974976 -3.0111265 -1.8967564 4288085770
-1.5336609 -2.3675108 -1.8924265 4288085770
-0.066925049 -2.9562607 -1.8996165 4288085770
-1.6834106 -2.3349133 -1.8943605 4288085770
-0.30053711 -2.8923502 -1.8984385 4288085770
-1.8561249 -2.290266 -1.8892438 4288085770
-0.51519775 -2.8335161 -1.897274 4288085770
-1.9988861 -2.2557039 -1.8901606 4288085770
-0.71585083 -2.7777243 -1.8981156 4288085770
-2.1356201 -2.2221632 -1.8910785 4288085770
-0.9105072 -2.721962 -1.8979526 4288085770
-2.2703705 -2.1876392 -1.8909891 4288085770
-1.0921936 -2.6702461 -1.898802 4288085770
-2.4200745 -2.1450834 -1.8858654 4288085770
-1.2778473 -2.6135244 -1.8976259 4288085770
-2.5448456 -2.11059 -1.8867681 4288085770
-1.4565125 -2.5578442 -1.8944502 4288085770
-2.6695862 -2.0761099 -1.8856704 4288085770
-1.6271973 -2.5041828 -1.8932796 4288085770
-2.7903137 -2.0416403 -1.8855698 4288085770
-1.7818909 -2.4555788 -1.8931248 4288085770
-1.9385529 -2.4039783 -1.8909545 4288085770
-2.0882416 -2.3533993 -1.8897843 4288085770
-2.2339325 -2.3038425 -1.8876169 4288085770
-2.3686218 -2.2573242 -1.8864579 4288085770
-2.4943237 -2.2128344 -1.8863032 4288085770
-2.6269989 -2.1633329 -1.8831253 4288085770
-2.7307587 -2.1269073 -1.8869991 4288085770
-2.7807159 0.13048077 -1.8287225 4288085770
-2.6635437 0.1420269 -1.8305504 4288085770
-2.5523682 0.15358019 -1.8293831 4288085770
-2.4372101 0.16511011 -1.8272128 4288085770
-2.3410492 0.17767572 -1.818053 4288085770
-2.2068787 0.18914366 -1.8178661 4288085770
-2.0517273 0.20055819 -1.8226604 4288085770
-1.9155579 0.21199512 -1.8184717 4288085770
-1.7533875 0.2223649 -1.820266 4288085770
-2.7161255 0.27620554 -1.8318071 4288085770
-1.5962372 0.23373079 -1.8180585 4288085770
-2.6039429 0.28674269 -1.8286448 4288085770
-1.4200745 0.24404097 -1.8188407 4288085770
-2.4818115 0.29623985 -1.8254797 4288085770
-1.2368927 0.25532246 -1.8196106 4288085770
-2.3466339 0.30570936 -1.826303 4288085770
-1.0327301 0.26553392 -1.8223681 4288085770
-2.2144928 0.31516314 -1.8221292 4288085770
-0.80854797 0.27667665 -1.8271024 4288085770
-2.0573273 0.32455826 -1.8249335 4288085770
-0.58938599 0.28681278 -1.8268466 4288085770
-1.8941498 0.33391809 -1.8257322 4288085770
-0.35324097 0.29688644 -1.8275762 4288085770
-1.7390137 0.34329224 -1.8235383 4288085770
-0.043060303 0.30674505 -1.8412411 4288085770
-1.5608368 0.35259438 -1.8243241 4288085770
0.22410583 0.31769753 -1.8419373 4288085770
-1.3746948 0.36085844 -1.8241086 4288085770
0.46025085 0.32870817 -1.8316607 4288085770
-1.1695251 0.37006617 -1.8268707 4288085770
0.72442627 0.33861923 -1.8233654 4288085770
-0.95837402 0.37823772 -1.8276331 4288085770
0.99258423 0.34950447 -1.8130608 4288085770
-0.73422241 0.38535976 -1.8283901 4288085770
1.2837219 0.35930061 -1.8027418 4288085770
-0.46005249 0.39333677 -1.8380978 4288085770
1.6428833 0.36787415 -1.800369 4288085770
-0.19190979 0.40130854 -1.8428104 4288085770
2.0020447 0.37742043 -1.7929904 4288085770
0.089248657 0.40921736 -1.8455114 4288085770
2.4122009 0.38678312 -1.7885673 4288085770
0.31240845 0.41726208 -1.832263 4288085770
2.8483429 0.39603949 -1.7831213 4288085770
0.59153748 0.42413902 -1.8279717 4288085770
3.3444977 0.40507603 -1.7806227 4288085770
0.88769531 0.43094397 -1.8226652 4288085770
3.9026642 0.41387606 -1.7790699 4288085770
1.1748352 0.4367547 -1.8123722 4288085770
4.5308228 0.42341995 -1.7804499 4288085770
1.5019531 0.44341993 -1.8040383 4288085770
5.1779938 0.4318471 -1.7748191 4288085770
1.8731079 0.44893074 -1.7986717 4288085770
5.8181305 0.43923998 -1.7581997 4288085770
2.2592316 0.45337009 -1.7912979 4288085770
6.6022797 0.44712496 -1.7514484 4288085770
2.7103882 0.45857954 -1.7878611 4288085770
7.6824493 0.45495462 -1.7624326 4288085770
3.1985321 0.46263695 -1.7833974 4288085770
8.6546021 0.46206331 -1.7485166 4288085770
3.748642 0.46646929 -1.7818797 4288085770
9.8797455 0.46823645 -1.744379 4288085770
4.3677979 0.4690423 -1.7823069 4288085770
11.443909 0.47515678 -1.752933 4288085770
5.0309296 0.47143221 -1.7806954 4288085770
5.6880341 0.47178173 -1.7681005 4288085770
6.4711609 0.47166061 -1.7593949 4288085770
7.4873047 0.47071791 -1.766485 4288085770
8.4764099 0.46778393 -1.7566099 4288085770
9.4974976 0.46267223 -1.7377179 4288085770
11.284622 0.45686531 -1.771143 4288085770
9.904953 -5.2509193 -0.70328677 4293729569
9.9325867 -5.1288147 -0.74055529 4293729569
9.9452515 -5.0016623 -0.77580893 4293729569
10.271561 -4.9666786 -0.8212949 4293729569
11.437256 0.682899 -1.7412376 4288085770
10.011459 0.71339798 -1.734524 4288085770
8.8016968 0.7410841 -1.7326055 4288085770
7.9099274 0.77162933 -1.7473443 4288085770
6.9631348 0.79629278 -1.7451735 4288085770
6.1593628 0.82041645 -1.7458594 4288085770
5.5355682 0.84490108 -1.7573583 4288085770
4.9427948 0.86925459 -1.7668264 4288085770
11.182892 1.1416559 -1.7038312 4288085770
4.3590088 0.89052105 -1.767303 4288085770
9.7880402 1.1500163 -1.6942165 4288085770
3.8392029 0.91155577 -1.7707157 4288085770
8.8162384 1.1698675 -1.708101 4288085770
3.3603973 0.93142509 -1.7730927 4288085770
7.9514313 1.1882901 -1.7198837 4288085770
2.9185791 0.95114994 -1.7754331 4288085770
7.0375824 1.1988077 -1.7147624 4288085770
2.5217896 0.97071171 -1.7797282 4288085770
6.2697754 1.2128019 -1.7174714 4288085770
2.1839905 0.99206114 -1.7869523 4288085770
5.6359558 1.2303028 -1.7250226 4288085770
1.860199 1.0123491 -1.7931683 4288085770
5.0711517 1.2465358 -1.7325099 4288085770
1.5683899 1.0325193 -1.8003523 4288085770
4.5603333 1.2645631 -1.7409315 4288085770
1.2655945 1.0497041 -1.8025646 4288085770
4.0715179 1.2814889 -1.7463372 4288085770
1.0328064 1.071661 -1.8126779 4288085770
3.6076813 1.2952933 -1.747735 4288085770
0.81100464 1.0925808 -1.8237855 4288085770
3.2128906 1.31387 -1.7560344 4288085770
0.56721497 1.1115408 -1.8269277 4288085770
2.8090668 1.3284359 -1.7563665 4288085770
0.35340881 1.1303964 -1.8320391 4288085770
2.4512482 1.3438401 -1.7596462 4288085770
0.12660217 1.148273 -1.83217 4288085770
2.1194305 1.3601427 -1.7628944 4288085770
-0.10923767 1.163157 -1.8273273 4288085770
1.8126068 1.3753424 -1.7651229 4288085770
-0.33506775 1.1769962 -1.8214803 4288085770
1.5618134 1.39537 -1.7752662 4288085770
-0.55291748 1.1907983 -1.8146253 4288085770
1.2990112 1.4124036 -1.7784393 4288085770
-0.73371887 1.2064962 -1.8147213 4288085770
1.0711975 1.4313245 -1.7855654 4288085770
-0.89852905 1.2241373 -1.8157899 4288085770
0.75733948 1.4394717 -1.7738423 4288085770
-1.0703583 1.2397833 -1.8128774 4288085770
0.49047852 1.450459 -1.7660544 4288085770
-1.2291718 1.2553849 -1.8109515 4288085770
0.31970215 1.4721751 -1.7761059 4288085770
-1.3990173 1.2690001 -1.8040485 4288085770
0.13290405 1.4899187 -1.7801967 4288085770
-1.5348358 1.2855225 -1.8040938 4288085770
-0.030899048 1.5095844 -1.786253 4288085770
-1.6706543 1.3010345 -1.8021452 4288085770
-0.24772644 1.5203834 -1.7794149 4288085770
-1.7764435 1.3204632 -1.806143 4288085770
-0.45358276 1.5321331 -1.7715597 4288085770
-1.8962555 1.3369179 -1.8051724 4288085770
-0.62139893 1.5467691 -1.7696493 4288085770
-2.0020752 1.3543353 -1.8071818 4288085770
-0.7532196 1.5663047 -1.7746735 4288085770
-2.1279144 1.367785 -1.8012347 4288085770
-0.85598755 1.5907555 -1.7846396 4288085770
-2.2297211 1.3851757 -1.8012404 4288085770
-0.98078918 1.6102529 -1.7876568 4288085770
-2.3035126 1.406497 -1.8081946 4288085770
-1.1196136 1.6257815 -1.7867112 4288085770
-2.3953094 1.4238482 -1.8081901 4288085770
-1.2414246 1.6432548 -1.7877371 4288085770
-2.4831238 1.441185 -1.8081815 4288085770
-1.3722382 1.6587353 -1.7837837 4288085770
-2.5619354 1.4594908 -1.8091583 4288085770
-1.4890594 1.675179 -1.7828102 4288085770
-2.6387482 1.4787955 -1.8111274 4288085770
-1.5948639 1.6935854 -1.7828145 4288085770
-2.7275696 1.4941125 -1.8071318 4288085770
-1.689682 1.7139597 -1.784796 4288085770
-1.7824707 1.7333269 -1.7867813 4288085770
-1.8622742 1.7546482 -1.789742 4288085770
-1.9570923 1.7729998 -1.7877352 4288085770
-2.0388794 1.7923126 -1.7877095 4288085770
-2.1216888 1.8116231 -1.7866848 4288085770
-2.1874695 1.8338957 -1.7906258 4288085770
-2.2672882 1.8531899 -1.7885981 4288085770
-2.3360748 1.8744521 -1.788548 4288085770
-2.3968658 1.896688 -1.789484 4288085770
-2.4666901 1.9169431 -1.787441 4288085770
-2.5244751 1.9391675 -1.7883739 4288085770
-2.5732422 1.9643621 -1.7902806 4288085770
-2.6350708 1.9835796 -1.787235 4288085770
-2.6848602 2.0067739 -1.7881544 4288085770
-2.7236176 2.0329361 -1.7910452 4288085770
-2.7694092 2.0571032 -1.7899549 4288085770
-2.7341003 3.512553 -1.7476182 4288085770
-2.6717377 3.5763106 -1.7481894 4288085770
-2.6063538 3.6410508 -1.7477515 4288085770
-2.536972 3.7077703 -1.7462986 4288085770
-2.4545593 3.7824559 -1.7477863 4288085770
-2.3561096 3.8660958 -1.7522061 4288085770
-2.2636719 3.9457424 -1.753655 4288085770
-2.1532135 4.0353355 -1.7580283 4288085770
-2.0467529 4.1219339 -1.7604227 4288085770
-1.9382935 4.2095127 -1.7608094 4288085770
-1.816803 4.3040466 -1.7621429 4288085770
-1.6893005 4.4015627 -1.7644527 4288085770
-1.5628052 4.4980593 -1.7627692 4288085770
-1.4353333 4.5925531 -1.761096 4288085770
-2.7341461 3.8545127 -1.751667 4288085770
-1.2717438 4.7099404 -1.7652545 4288085770
-2.6156921 3.9390752 -1.7560599 4288085770
-1.1342468 4.8093786 -1.7605424 4288085770
-2.492218 4.0266175 -1.7604308 4288085770
-0.96865845 4.9247351 -1.76071 4288085770
-2.3607635 4.117136 -1.7657759 4288085770
-0.80210876 5.0400715 -1.7578766 4288085770
-2.2262573 4.2086306 -1.7691123 4288085770
-0.62753296 5.1583819 -1.7560174 4288085770
-2.1088562 4.2871575 -1.7665403 4288085770
-0.43891907 5.2836328 -1.753104 4288085770
-1.9653625 4.3806057 -1.7678556 4288085770
-0.25332642 5.4058781 -1.7472103 4288085770
-1.816864 4.4760351 -1.7691543 4288085770
-0.056732178 5.5320807 -1.7412825 4288085770
-1.6703796 4.5684609 -1.768472 4288085770
0.16093445 5.670208 -1.7362645 4288085770
-1.5108795 4.6668358 -1.7677419 4288085770
0.40464783 5.8232498 -1.7341337 4288085770
-1.3644409 4.7552338 -1.7620821 4288085770
0.66738892 5.9862127 -1.7309263 4288085770
-1.1748505 4.8695087 -1.7642295 4288085770
0.95118713 6.1591053 -1.7296398 4288085770
-0.98429871 4.9817743 -1.7653873 4288085770
1.2740784 6.3548632 -1.7311816 4288085770
-0.79374695 5.0920238 -1.7635558 4288085770
1.7032166 6.6142926 -1.7472486 4288085770
-0.58917236 5.2082181 -1.7616758 4288085770
2.0401001 6.810957 -1.7417696 4288085770
-0.40568542 5.3074551 -1.752914 4288085770
2.3639221 6.9966378 -1.7303667 4288085770
-0.18008423 5.4315681 -1.7509661 4288085770
2.7148132 7.1942191 -1.7198665 4288085770
0.038497925 5.548697 -1.7470648 4288085770
3.1208191 7.4226089 -1.7131326 4288085770
0.27911377 5.6757355 -1.742084 4288085770
3.4144897 7.5763164 -1.6859419 4288085770
0.534729 5.8087206 -1.7380528 4288085770
3.9076843 7.849391 -1.6828606 4288085770
0.81640625 5.9546156 -1.7359202 4288085770
4.3978271 8.1154375 -1.6728218 4288085770
1.1020966 6.0994844 -1.7317889 4288085770
1.48703 6.3020506 -1.7422261 4288085770
1.8839417 6.5065613 -1.7506349 4288085770
2.2016449 6.6572776 -1.7414334 4288085770
2.5473938 6.8208961 -1.7341278 4288085770
2.9362335 7.0043588 -1.7286634 4288085770
3.3159943 7.1768341 -1.71927 4288085770
3.7498932 7.3761225 -1.713666 4288085770
4.0875244 7.5116825 -1.690526 4288085770
4.6055603 7.7476668 -1.6886218 4288085770
5.1135254 7.9706564 -1.6808014 4288085770
5.6886292 8.2234077 -1.6767392 4288085770
12.147171 -1.3847284 -1.7655654 4288085770
11.356125 -1.4276247 -1.7747095 4288085770
10.635086 -1.4697771 -1.7867694 4288085770
9.891098 -1.4998789 -1.7917891 4288085770
9.1821289 -1.5221348 -1.793725 4288085770
8.4481964 -1.5353212 -1.7906399 4288085770
7.8722382 -1.5570631 -1.7974203 4288085770
7.2982941 -1.5728197 -1.8031654 4288085770
6.7493591 -1.5846825 -1.8068604 4288085770
6.2314606 -1.5946608 -1.8115094 4288085770
5.7455292 -1.6027689 -1.8151119 4288085770
5.2636414 -1.6049032 -1.8166759 4288085770
11.601883 -2.6035719 -1.7878811 4288085770
4.8347473 -1.6112213 -1.8222024 4288085770
10.636169 -2.5568075 -1.7947321 4288085770
4.3898773 -1.6085043 -1.8226976 4288085770
9.8424225 -2.5236797 -1.8064601 4288085770
4.016983 -1.6120329 -1.8291442 4288085770
9.0007324 -2.4754171 -1.8091602 4288085770
3.6181183 -1.6074944 -1.8295765 4288085770
8.233017 -2.4294348 -1.8127878 4288085770
3.2562561 -1.6040831 -1.8329725 4288085770
7.5382996 -2.3877287 -1.8173552 4288085770
2.9223938 -1.6017675 -1.8383422 4288085770
6.9035645 -2.3502502 -1.8228767 4288085770
2.5685577 -1.5914145 -1.8366904 4288085770
6.2708588 -2.3048086 -1.8233521 4288085770
2.2566833 -1.5861979 -1.840019 4288085770
5.7171478 -2.267643 -1.8287823 4288085770
1.9678345 -1.5800629 -1.844316 4288085770
5.1813965 -2.2285652 -1.8311815 4288085770
1.6719971 -1.5699177 -1.8455989 4288085770
4.7016602 -2.1936913 -1.8355391 4288085770
1.4011536 -1.5618591 -1.8488648 4288085770
4.2419128 -2.1588964 -1.8398747 4288085770
1.1353302 -1.5508308 -1.8501084 4288085770
3.8101807 -2.1242085 -1.8441784 4288085770
0.88348389 -1.540844 -1.8533416 4288085770
3.4004364 -2.089612 -1.8474576 4288085770
0.63365173 -1.5268831 -1.8535507 4288085770
3.0007019 -2.0520649 -1.8487089 4288085770
0.39682007 -1.5139666 -1.8547509 4288085770
2.6209412 -2.0156012 -1.8489435 4288085770
0.18899536 -1.5051336 -1.86094 4288085770
2.2712097 -1.9822378 -1.8521605 4288085770
-0.034851074 -1.4892807 -1.8601086 4288085770
1.9154663 -1.9438829 -1.8493571 4288085770
-0.22567749 -1.4805136 -1.8662786 4288085770
1.5777283 -1.9055939 -1.8475332 4288085770
-0.45147705 -1.4596691 -1.8624222 4288085770
1.3149414 -1.8815393 -1.8557014 4288085770
-0.63731384 -1.4469385 -1.8655648 4288085770
1.0231934 -1.8484097 -1.8568532 4288085770
-0.84111023 -1.4271727 -1.862689 4288085770
0.7504425 -1.8163605 -1.8569889 4288085770
-0.99395752 -1.4175482 -1.8698106 4288085770
0.50367737 -1.7883835 -1.8621173 4288085770
-1.1987457 -1.3937998 -1.8629141 4288085770
0.23693848 -1.7523804 -1.8582246 4288085770
-1.3595734 -1.3791733 -1.8650174 4288085770
0.022171021 -1.7265263 -1.8633277 4288085770
-1.536377 -1.3575172 -1.8611002 4288085770
-0.18360901 -1.7017088 -1.8684266 4288085770
-1.6821899 -1.3429413 -1.8641865 4288085770
-0.42636108 -1.6648045 -1.8635011 4288085770
-1.8280029 -1.3273726 -1.8662674 4288085770
-0.64112854 -1.6319962 -1.8605661 4288085770
-1.9748077 -1.308816 -1.8653328 4288085770
-0.82188416 -1.607275 -1.8656366 4288085770
-2.111618 -1.2922859 -1.8663981 4288085770
-1.0186462 -1.5765305 -1.8636923 4288085770
-2.2464294 -1.2737713 -1.8664498 4288085770
-1.1974182 -1.5478392 -1.8647387 4288085770
-2.3832397 -1.2542524 -1.8654988 4288085770
-1.3731995 -1.5191765 -1.862782 4288085770
-2.5050507 -1.236783 -1.8665416 4288085770
-1.5409698 -1.4905338 -1.8628159 4288085770
-2.6338654 -1.2173023 -1.8645813 4288085770
-1.6857605 -1.4669514 -1.8678513 4288085770
-2.7446747 -1.2008667 -1.8666172 4288085770
-1.8565063 -1.4343243 -1.8628669 4288085770
-1.9793091 -1.4148159 -1.8698993 4288085770
-2.1330719 -1.3842506 -1.8659067 4288085770
-2.2758484 -1.3557148 -1.8639126 4288085770
-2.3996277 -1.3322306 -1.8659246 4288085770
-2.5444031 -1.2997103 -1.859911 4288085770
-2.6611786 -1.2762585 -1.8609149 4288085770
-2.7799683 -1.2498112 -1.8599048 4288085770
-2.7262268 0.71909761 -1.8124418 4288085770
-2.6130829 0.73064327 -1.8102303 4288085770
-2.4788971 0.74313593 -1.8129866 4288085770
-2.3407288 0.7556076 -1.814738 4288085770
-2.213562 0.76708841 -1.8105085 4288085770
-2.0643921 0.77951813 -1.8122456 4288085770
-1.9212494 0.79094219 -1.8089957 4288085770
-1.7610626 0.80331802 -1.8087187 4288085770
-2.6761322 0.77188778 -1.817059 4288085770
-1.5808868 0.81563807 -1.8124163 4288085770
-2.5419617 0.78137493 -1.8188317 4288085770
-1.403717 0.82794809 -1.8121176 4288085770
-2.4147949 0.7898674 -1.8166187 4288085770
-1.2045441 0.84118938 -1.8147855 4288085770
-2.2866669 0.79734421 -1.8124096 4288085770
-1.0153809 0.85244226 -1.8124766 4288085770
-2.1284943 0.80674982 -1.8161516 4288085770
-0.77018738 0.86653948 -1.8210804 4288085770
-1.9853516 0.81417465 -1.8129234 4288085770
-0.52600098 0.88062429 -1.8266852 4288085770
-1.8261871 0.82255363 -1.8126693 4288085770
-0.2578125 0.89462709 -1.8342593 4288085770
-1.6600494 0.82990599 -1.8124118 4288085770
-0.005645752 0.90764713 -1.833859 4288085770
-1.4508667 0.840137 -1.8200831 4288085770
0.28755188 0.92054224 -1.8394065 4288085770
-1.2727356 0.84743214 -1.8178098 4288085770
0.55870056 0.93247271 -1.8359871 4288085770
-1.075592 0.85466576 -1.8175128 4288085770
0.81584167 0.94141769 -1.8256018 4288085770
-0.83641052 0.86278009 -1.8251565 4288085770
1.0609894 0.94938183 -1.8102372 4288085770
-0.60624695 0.87089682 -1.8268111 4288085770
1.3491211 0.95720243 -1.7988174 4288085770
-0.33409119 0.87889004 -1.8354127 4288085770
1.7102814 0.96879053 -1.796283 4288085770
-0.07093811 0.88587904 -1.8370306 4288085770
2.0734406 0.97934914 -1.7897511 4288085770
0.20721436 0.89281511 -1.8396294 4288085770
2.4405823 0.98786449 -1.7782247 4288085770
0.48336792 0.89774323 -1.8392413 4288085770
2.8617401 0.99720383 -1.7726238 4288085770
0.71347046 0.89777088 -1.8249393 4288085770
3.3539124 1.0092864 -1.7699158 4288085770
0.97557068 0.89869118 -1.8135908 4288085770
3.8390656 1.0173678 -1.7622387 4288085770
1.2666931 0.90051174 -1.8041997 4288085770
4.4152222 1.0291204 -1.7584229 4288085770
1.6028137 0.90218544 -1.7997508 4288085770
5.0423889 1.0396705 -1.7535472 4288085770
1.941925 0.90182543 -1.7913089 4288085770
5.64151 1.0452671 -1.7377341 4288085770
2.351059 0.90323353 -1.7897668 4288085770
6.3466492 1.0534773 -1.7257693 4288085770
2.6991577 0.8987999 -1.7743349 4288085770
7.2228241 1.0650935 -1.7255635 4288085770
3.1702728 0.89796972 -1.7727239 4288085770
8.2089844 1.0762682 -1.7222171 4288085770
3.6933899 0.89694977 -1.773046 4288085770
9.1771393 1.08144 -1.7059257 4288085770
4.239502 0.89382362 -1.7703495 4288085770
10.541336 1.0972161 -1.713062 4288085770
4.8476105 0.88845825 -1.7675843 4288085770
11.832443 1.1021242 -1.693351 4288085770
5.4616852 0.88003159 -1.7578275 4288085770
6.1237488 0.8694129 -1.7470198 4288085770
6.9068298 0.85835028 -1.740057 4288085770
7.8859253 0.84659624 -1.744843 4288085770
8.8279724 0.82889795 -1.7337084 4288085770
9.9780273 0.8094449 -1.7313123 4288085770
11.379059 0.78605652 -1.7346108 4288085770
7.2697601 -7.4233971 -1.7036233 4293729569
6.9998627 -7.1752911 -1.7156246 4293729569
6.6630554 -6.8939819 -1.7175369 4293729569
6.3382263 -6.6237354 -1.7164941 4293729569
6.0532837 -6.3776398 -1.7165287 4293729569
5.7823029 -6.1425934 -1.7166052 4293729569
5.5462799 -5.9276905 -1.7157435 4293729569
5.3261871 -5.7228432 -1.7159154 4293729569
5.0681305 -5.5038977 -1.7070634 4293729569
4.9069061 -5.3312607 -1.7103307 4293729569
4.9424744 -5.2201405 -1.0316526 4293729569
4.7556915 -5.1646729 -1.7116172 4293729569
4.960968 -5.1280918 -1.0541108 4293729569
4.698288 -5.0413904 -1.7230105 4293729569
4.5989685 -4.8989878 -1.7273576 4293729569
4.4856567 -4.7545519 -1.7277133 4293729569
11.820679 -7.6062422 -1.6590526 4293729569
4.3943024 -4.6201944 -1.7290938 4293729569
11.713562 -7.411747 -1.6741192 4293729569
4.3238983 -4.4949074 -1.7324951 4293729569
11.509598 -7.1789455 -1.6771121 4293729569
4.2455139 -4.3686104 -1.7319019 4293729569
11.264648 -6.9360189 -1.6741073 4293729569
4.2430115 -4.2725525 -1.7413683 4293729569
11.056641 -6.7092285 -1.6721394 4293729569
4.425293 -4.245079 -1.7739511 4293729569
10.893539 -6.5046005 -1.6722305 4293729569
4.7284241 -4.259985 -1.8225965 4288085770
10.778381 -6.317153 -1.6733484 4293729569
5.0215912 -4.2668619 -1.8692112 4288085770
10.672195 -6.1377487 -1.6724985 4293729569
5.1199799 -4.2001486 -1.8866959 4288085770
10.642929 -5.9836149 -1.6766789 4293729569
5.0675659 -4.0799751 -1.8820999 4288085770
10.621628 -5.8345175 -1.6798756 4293729569
5.062088 -3.9779549 -1.8825369 4288085770
10.645279 -5.701582 -1.6850977 4293729569
5.03862 -3.8698864 -1.8789666 4288085770
10.60498 -5.5464439 -1.6822884 4293729569
5.049118 -3.7719326 -1.8784037 4288085770
10.605637 -5.4054585 -1.6804991 4293729569
5.0466156 -3.6719408 -1.8758483 4288085770
10.053864 -5.0986071 -1.6305807 4293729569
5.0820923 -3.5840788 -1.8763056 4288085770
10.52002 -5.1032181 -1.664932 4293729569
5.0905762 -3.4871387 -1.8717513 4288085770
10.803406 -5.0462132 -1.6832035 4293729569
5.1170349 -3.3952637 -1.8681993 4288085770
10.935913 -4.9437084 -1.6864386 4293729569
5.1474915 -3.3044052 -1.8646479 4288085770
11.06543 -4.8392076 -1.6866672 4293729569
5.197937 -3.2196169 -1.8621006 4288085770
11.283875 -4.7570181 -1.6928916 4293729569
5.280365 -3.1429348 -1.8625529 4288085770
11.631241 -4.7052755 -1.7080998 4293729569
5.3298187 -3.0561647 -1.8559961 4288085770
12.094498 -4.6799479 -1.7292883 4293729569
5.4092255 -2.978488 -1.853447 4288085770
5.5056305 -2.9028721 -1.8518848 4288085770
5.6040497 -2.8272734 -1.8483198 4288085770
5.6984711 -2.7486668 -1.8437438 4288085770
5.8338623 -2.6792002 -1.8421597 4288085770
5.9872437 -2.611804 -1.8405609 4288085770
6.134613 -2.54039 -1.8379488 4288085770
6.2800293 -2.4679842 -1.8323338 4288085770
6.4703979 -2.40273 -1.8306935 4288085770
6.6347809 -2.3323965 -1.8250623 4288085770
6.907135 -2.2764263 -1.8293557 4288085770
7.0915222 -2.2031879 -1.8206797 4288085770
7.3088989 -2.1350584 -1.8149846 4288085770
7.5682678 -2.0690823 -1.8112409 4288085770
7.8566132 -2.0052109 -1.8084667 4288085770
8.2009735 -1.9455395 -1.808635 4288085770
8.5123596 -1.8777742 -1.8028057 4288085770
8.926712 -1.8203611 -1.8048854 4288085770
9.3190918 -1.754899 -1.800952 4288085770
9.743454 -1.689558 -1.7969725 4288085770
10.320801 -1.6347475 -1.8038311 4288085770
10.758209 -1.5584898 -1.793772 4288085770
11.232605 -1.4823809 -1.78266 4288085770
11.787003 -1.4075632 -1.7744396 4288085770
11.710297 1.087482 -1.6964629 4288085770
10.780655 1.1461277 -1.714591 4288085770
9.5558929 1.1836958 -1.6952953 4288085770
8.8082123 1.2336221 -1.7091877 4288085770
8.0875244 1.2794123 -1.7170608 4288085770
7.3187714 1.3153224 -1.713063 4288085770
6.654007 1.3518496 -1.7119002 4288085770
6.0862732 1.389029 -1.714582 4288085770
5.5985413 1.4269276 -1.7221353 4288085770
5.149826 1.4636717 -1.7286341 4288085770
11.914124 2.0674586 -1.6527483 4288085770
4.7410736 1.499258 -1.734077 4288085770
11.038376 2.0958643 -1.6649599 4288085770
4.3433228 1.5327907 -1.737514 4288085770
10.219589 2.1220407 -1.6750951 4288085770
3.9505615 1.5642886 -1.7379546 4288085770
9.4207916 2.1441031 -1.6782217 4288085770
3.6268158 1.5975494 -1.7432778 4288085770
8.8230743 2.1784663 -1.6939669 4288085770
3.2900543 1.6268325 -1.743643 4288085770
8.1602783 2.1989965 -1.6948898 4288085770
3.0042877 1.6589422 -1.7479131 4288085770
7.4584198 2.2096281 -1.6869278 4288085770
2.7225189 1.6890206 -1.7491887 4288085770
6.8986053 2.2297707 -1.6886921 4288085770
2.4517517 1.7180562 -1.7504525 4288085770
6.3818054 2.2507367 -1.6883848 4288085770
2.201004 1.7480159 -1.7516801 4288085770
5.9350281 2.2764568 -1.6919422 4288085770
1.9742279 1.7768888 -1.7538764 4288085770
5.5512543 2.3049526 -1.698386 4288085770
1.7664642 1.8076949 -1.7570324 4288085770
5.1674805 2.3294268 -1.7008517 4288085770
1.5596924 1.8364911 -1.759198 4288085770
4.824707 2.3587542 -1.7052271 4288085770
1.3829651 1.869184 -1.7632954 4288085770
4.4889221 2.3840446 -1.7076137 4288085770
1.2011871 1.8978796 -1.7644227 4288085770
4.2021637 2.4141583 -1.7118974 4288085770
1.0474243 1.9304891 -1.7694845 4288085770
3.9243927 2.4422317 -1.715178 4288085770
0.85063171 1.9542041 -1.7636626 4288085770
3.6456146 2.4682927 -1.7154715 4288085770
0.64581299 1.9739337 -1.7548749 4288085770
3.3918304 2.4952641 -1.7167211 4288085770
0.5401001 2.0103812 -1.7638409 4288085770
3.1600647 2.5241561 -1.7189255 4288085770
0.44537354 2.0477924 -1.7737846 4288085770
2.9483185 2.5549765 -1.7220881 4288085770
0.34162903 2.0842218 -1.7807479 4288085770
2.72052 2.5808315 -1.7203033 4288085770
0.20684814 2.111721 -1.7788086 4288085770
2.5387726 2.6125379 -1.7234144 4288085770
0.11212158 2.1461105 -1.7847688 4288085770
2.352005 2.6422467 -1.7235444 4288085770
-0.017669678 2.1725855 -1.7818272 4288085770
2.1902618 2.6758771 -1.7266138 4288085770
-0.12643433 2.2029963 -1.7818315 4288085770
2.0214844 2.7055116 -1.7257161 4288085770
-0.22520447 2.2343683 -1.7818148 4288085770
1.8707275 2.7370882 -1.7267795 4288085770
-0.39103699 2.2479162 -1.7670002 4288085770
1.7429962 2.7745876 -1.7297747 4288085770
-0.47579956 2.2802401 -1.7679565 4288085770
1.6232758 2.8120561 -1.7327578 4288085770
-0.58958435 2.304637 -1.7620018 4288085770
1.474472 2.8406043 -1.7298348 4288085770
-0.68037415 2.3339682 -1.7599838 4288085770
1.3617554 2.8780408 -1.7318072 4288085770
-0.72409058 2.3751736 -1.7678273 4288085770
1.2550049 2.9144492 -1.7327757 4288085770
-0.78482056 2.4114165 -1.770725 4288085770
1.1362305 2.946887 -1.7307847 4288085770
-0.82553101 2.4515996 -1.7765696 4288085770
1.0495148 2.9872246 -1.7327006 4288085770
-0.88827515 2.4868345 -1.7764757 4288085770
0.95779419 3.0255704 -1.732635 4288085770
-0.9400177 2.5240426 -1.7793539 4288085770
0.85903931 3.0609312 -1.7305968 4288085770
-1.0207977 2.5513139 -1.7733316 4288085770
0.77328491 3.0982428 -1.7285278 4288085770
-1.069519 2.5895 -1.7742 4288085770
0.71261597 3.1444864 -1.7313707 4288085770
-1.1112518 2.6286645 -1.7760518 4288085770
0.64689636 3.1877372 -1.7322381 4288085770
-1.1840515 2.6559 -1.7690177 4288085770
0.57214355 3.2270014 -1.729141 4288085770
-1.2297974 2.6920638 -1.7678921 4288085770
0.52044678 3.2732043 -1.7309701 4288085770
-1.2424774 2.7411447 -1.7746444 4288085770
0.46975708 3.3203938 -1.7307925 4288085770
-1.29422 2.7743101 -1.7695451 4288085770
0.43807983 3.3725257 -1.7335579 4288085770
-1.322937 2.8164196 -1.7703607 4288085770
0.39337158 3.4206853 -1.7323656 4288085770
-1.3647003 2.8535581 -1.7672238 4288085770
0.36470032 3.4738009 -1.7341211 4288085770
-1.3974304 2.8926668 -1.7650621 4288085770
0.31700134 3.5199564 -1.7299445 4288085770
-1.4181519 2.9367409 -1.7648547 4288085770
0.32336426 3.5859647 -1.7365749 4288085770
-1.450882 2.9758434 -1.761693 4288085770
0.29168701 3.6380696 -1.7343407 4288085770
-1.4685974 3.0199013 -1.7604809 4288085770
0.30508423 3.7070513 -1.7409437 4288085770
-1.4933167 3.061974 -1.7572906 4288085770
0.30944824 3.7730403 -1.7425773 4288085770
-1.5050049 3.1090074 -1.756053 4288085770
0.31785583 3.8410249 -1.7461936 4288085770
-1.5257568 3.1500602 -1.7518618 4288085770
0.31318665 3.9030313 -1.7448633 4288085770
-1.5484619 3.1921144 -1.7466686 4288085770
0.31655884 3.9680135 -1.744504 4288085770
-1.5361328 3.2480776 -1.7493443 4288085770
0.32792664 4.0369644 -1.7441103 4288085770
-1.5548553 3.2911062 -1.7421396 4288085770
0.35836792 4.1148653 -1.7476385 4288085770
-1.533493 3.352041 -1.7457743 4288085770
0.38679504 4.1927567 -1.7481694 4288085770
-1.528183 3.40501 -1.7444777 4288085770
0.43023682 4.2766066 -1.7516446 4288085770
-1.5158386 3.4609518 -1.7431536 4288085770
0.45864868 4.3554878 -1.7501702 4288085770
-1.4824524 3.528841 -1.7467318 4288085770
0.50509644 4.4423161 -1.7516246 4288085770
-1.4580994 3.5917473 -1.7473509 4288085770
0.56359863 4.5351038 -1.7540271 4288085770
-1.4487762 3.6476793 -1.7420318 4288085770
0.60804749 4.6229229 -1.7524791 4288085770
-1.3712921 3.7384434 -1.7534161 4288085770
0.62542725 4.6978083 -1.7440441 4288085770
-1.3419189 3.8043201 -1.7520113 4288085770
0.67189026 4.7856045 -1.7394929 4288085770
-1.283493 3.8861189 -1.7564743 4288085770
0.7233429 4.8773808 -1.7349122 4288085770
-1.2290497 3.9659216 -1.7589543 4288085770
0.79284668 4.9790993 -1.732249 4288085770
-1.1746216 4.0457134 -1.7594342 4288085770
0.87036133 5.0847874 -1.7295518 4288085770
-1.1081696 4.1324711 -1.7618575 4288085770
0.96092224 5.1974306 -1.7277958 4288085770
-1.0587616 4.2102661 -1.7593565 4288085770
1.0374146 5.3031006 -1.7210999 4288085770
-0.96923828 4.310957 -1.7656674 4288085770
1.1610718 5.4366341 -1.7221785 4288085770
-0.88174438 4.4106388 -1.7689874 4288085770
1.2786865 5.5661688 -1.7192879 4288085770
-0.80525208 4.5053415 -1.7683516 4288085770
1.4073334 5.7036676 -1.7173369 4288085770
-0.69972229 4.6149645 -1.7735887 4288085770
1.595108 5.8769832 -1.7230978 4288085770
-0.62324524 4.7096462 -1.7689528 4288085770
