# .PCD v0.7 - Point Cloud Data file format
VERSION 0.7
FIELDS x y z rgb
SIZE 4 4 4 4
TYPE F F F U
COUNT 1 1 1 1
WIDTH 1125
HEIGHT 1
VIEWPOINT 0 0 0 1 0 0 0
POINTS 1125
DATA ascii
7.331068 7.4872789 -1.9183468 4288085770
4.6036587 5.756753 -1.9221066 4288085770
7.7943783 7.8012276 -1.9285439 4288085770
4.7756596 5.8706746 -1.9079574 4288085770
4.9737015 5.9996033 -1.8974909 4288085770
5.2087936 6.1515398 -1.8915676 4288085770
5.5230331 6.3535013 -1.8976651 4288085770
5.8913631 6.5894794 -1.9120942 4288085770
6.2435913 6.8094292 -1.9167401 4288085770
6.6268501 7.0473828 -1.9240068 4288085770
6.9970264 7.2723131 -1.9234496 4288085770
7.4082336 7.5202451 -1.9253937 4288085770
7.9235821 7.8311963 -1.9390582 4288085770
16.337688 -1.4326105 -1.6947315 4288085770
15.442849 -1.4634352 -1.7041588 4288085770
14.597004 -1.4902697 -1.7130628 4288085770
13.797138 -1.5111198 -1.7194686 4288085770
13.067278 -1.5289807 -1.7261351 4288085770
12.372417 -1.5428486 -1.7324243 4288085770
11.714535 -1.5527301 -1.7363155 4288085770
11.080627 -1.5576234 -1.7379411 4288085770
10.532782 -1.565515 -1.7446786 4288085770
9.954855 -1.5634255 -1.7436987 4288085770
16.475401 -2.4437466 -1.6773844 4288085770
9.4669971 -1.5663328 -1.7487952 4288085770
15.428599 -2.4015346 -1.6901723 4288085770
9.0291653 -1.5712399 -1.7563759 4288085770
14.449755 -2.3553486 -1.6982386 4288085770
8.589304 -1.5701566 -1.7609594 4288085770
13.563913 -2.3131781 -1.7063477 4288085770
8.2115002 -1.5740662 -1.7709113 4288085770
12.758088 -2.2750173 -1.7156343 4288085770
7.8246479 -1.5719905 -1.7759389 4288085770
11.976213 -2.2308774 -1.7196528 4288085770
7.4437752 -1.5669222 -1.7788948 4288085770
11.234312 -2.1857519 -1.7212509 4288085770
7.0318089 -1.5518756 -1.7731436 4288085770
10.571417 -2.1436386 -1.7230343 4288085770
6.713974 -1.5478072 -1.7794453 4288085770
9.9875813 -2.1095233 -1.7300179 4288085770
6.4071274 -1.5427446 -1.7846292 4288085770
9.4307117 -2.0734224 -1.7337141 4288085770
6.1283092 -1.5386777 -1.792524 4288085770
8.9308777 -2.0423212 -1.7408309 4288085770
5.8013725 -1.5236392 -1.7888864 4288085770
8.4810753 -2.0152202 -1.7504382 4288085770
5.5034657 -1.5105968 -1.7879521 4288085770
8.0402393 -1.9841299 -1.7569398 4288085770
5.2466145 -1.501544 -1.7926024 4288085770
7.5893326 -1.9470596 -1.7565277 4288085770
5.0258102 -1.4974828 -1.8018924 4288085770
7.1904697 -1.9159846 -1.7605914 4288085770
4.7739201 -1.4834433 -1.8024751 4288085770
6.813612 -1.8859138 -1.7644285 4288085770
4.554081 -1.4743943 -1.8077391 4288085770
6.496809 -1.8628364 -1.773661 4288085770
4.3412285 -1.4643517 -1.8119277 4288085770
6.1970081 -1.8407626 -1.7827195 4288085770
4.0962772 -1.4443321 -1.8064195 4288085770
5.8801441 -1.8107038 -1.7859308 4288085770
3.9134655 -1.4362817 -1.8143004 4288085770
5.5662632 -1.7796521 -1.7871081 4288085770
3.7035542 -1.4192572 -1.8124362 4288085770
5.2924061 -1.7535987 -1.7908829 4288085770
3.5277119 -1.4082174 -1.8172354 4288085770
5.0175304 -1.7245522 -1.7926594 4288085770
3.3448296 -1.393189 -1.8180953 4288085770
4.7666626 -1.6985068 -1.795195 4288085770
3.1689453 -1.3781624 -1.8188828 4288085770
4.5318165 -1.6734586 -1.7995664 4288085770
2.9940414 -1.3621416 -1.8176564 4288085770
4.316988 -1.6514072 -1.8057381 4288085770
2.8371792 -1.3471117 -1.8202449 4288085770
4.0880985 -1.6233726 -1.806038 4288085770
2.6863136 -1.3330832 -1.8227745 4288085770
3.8862514 -1.5993314 -1.8100685 4288085770
2.5284195 -1.3160634 -1.8223678 4288085770
3.6783695 -1.572298 -1.8111523 4288085770
2.4036026 -1.3060246 -1.8296376 4288085770
3.4875088 -1.5472612 -1.8140649 4288085770
2.2587013 -1.2880101 -1.8280925 4288085770
3.2855797 -1.5182452 -1.8100804 4288085770
2.1077595 -1.2680039 -1.823604 4288085770
3.1197338 -1.4962072 -1.8147417 4288085770
1.9818935 -1.2529802 -1.8258694 4288085770
2.9528618 -1.4721789 -1.8164071 4288085770
1.8730602 -1.2409511 -1.8309666 4288085770
2.7839584 -1.4451599 -1.8150841 4288085770
1.7582035 -1.2259274 -1.8341173 4288085770
2.623064 -1.4201393 -1.8146843 4288085770
2.4942532 -1.4010992 -1.821968 4288085770
2.3593998 -1.3800712 -1.8253087 4288085770
2.223526 -1.3570495 -1.8266541 4288085770
2.0836201 -1.3320351 -1.8250352 4288085770
1.9617596 -1.3100133 -1.827237 4288085770
1.8469143 -1.2889862 -1.831369 4288085770
1.7767048 0.68632197 -1.807603 4288085770
1.8928051 0.69928956 -1.8053421 4288085770
1.9998531 0.71124387 -1.798179 4288085770
2.1229305 0.72420359 -1.7938446 4288085770
2.2680721 0.73817801 -1.7952758 4288085770
2.3971386 0.75113368 -1.7898782 4288085770
2.5422287 0.76409245 -1.7863129 4288085770
2.7113762 0.77906489 -1.788489 4288085770
1.8165703 0.72527385 -1.8070513 4288085770
2.875473 0.79202294 -1.7857238 4288085770
1.942667 0.73523927 -1.8046948 4288085770
3.0546036 0.80698729 -1.7857949 4288085770
2.0657463 0.74319935 -1.8003761 4288085770
3.2497406 0.82195139 -1.7866977 4288085770
2.2018528 0.7531662 -1.7989143 4288085770
3.4558773 0.83691311 -1.787485 4288085770
2.3469639 0.76313138 -1.7973579 4288085770
3.6329117 0.84884953 -1.7785865 4288085770
2.4970608 0.7720921 -1.7947522 4288085770
3.8640575 0.86380935 -1.7801114 4288085770
2.6541672 0.78105426 -1.7930731 4288085770
4.080143 0.87675357 -1.7757999 4288085770
2.8503685 0.79303718 -1.7999741 4288085770
4.3052139 0.88969278 -1.7703942 4288085770
2.9974003 0.79998016 -1.7914065 4288085770
4.5693378 0.90463972 -1.7695721 4288085770
3.2186089 0.81196046 -1.7990452 4288085770
4.8384304 0.91857624 -1.7657009 4288085770
3.3836422 0.8178997 -1.7902917 4288085770
5.12854 0.93351483 -1.763606 4288085770
3.5867481 0.82585287 -1.7881323 4288085770
5.4556713 0.94945192 -1.7631191 4288085770
3.7777901 0.83178949 -1.7801055 4288085770
5.7727489 0.96337533 -1.7577438 4288085770
3.9978828 0.83873582 -1.7767707 4288085770
6.1218376 0.97729564 -1.7530322 4288085770
4.245018 0.8466897 -1.7771488 4288085770
6.4869137 0.99220943 -1.7471496 4288085770
4.4800777 0.85262346 -1.7706598 4288085770
6.9180489 1.0091283 -1.7465671 4288085770
4.7542 0.85956836 -1.7697574 4288085770
7.3551311 1.0240304 -1.7409281 4288085770
5.0533409 0.86651468 -1.7705926 4288085770
7.8312225 1.038928 -1.7358793 4288085770
5.3624496 0.87344933 -1.7683226 4288085770
8.3453121 1.0548172 -1.7304281 4288085770
5.6855583 0.87838101 -1.7659119 4288085770
8.9144077 1.0716987 -1.725396 4288085770
6.0006046 0.88129544 -1.7575917 4288085770
9.5375118 1.088572 -1.7207969 4288085770
6.3526783 0.88421202 -1.7518827 4288085770
10.238625 1.1064327 -1.7163749 4288085770
6.7327728 0.88712907 -1.7478794 4288085770
10.98671 1.1242774 -1.7094594 4288085770
7.1999474 0.89305305 -1.7509524 4288085770
11.868853 1.1451137 -1.7071267 4288085770
7.6520348 0.89395547 -1.746199 4288085770
12.779908 1.162919 -1.6964992 4288085770
8.1311016 0.89384604 -1.7391651 4288085770
13.896051 1.1857107 -1.6927023 4288085770
8.6431694 0.89372969 -1.7317845 4288085770
15.119156 1.2074709 -1.6847844 4288085770
9.2312832 0.89261341 -1.7286084 4288085770
16.411171 1.226192 -1.6681514 4288085770
9.8633709 0.89048171 -1.7229733 4288085770
10.543449 0.88533783 -1.7158433 4288085770
11.30954 0.87918234 -1.7098128 4288085770
12.214699 0.87401986 -1.7093185 4288085770
13.114729 0.86082172 -1.6969023 4288085770
14.223868 0.84961486 -1.6932837 4288085770
15.371894 0.83136845 -1.6792775 4288085770
4.0108452 -4.7353725 -0.43461406 4293729569
4.0016613 -4.6806316 -0.030515358 4293729569
3.9773598 -4.6792545 -0.4717927 4293729569
3.9951935 -4.6385145 -0.069453284 4293729569
3.9998894 -4.658143 -0.51049078 4293729569
3.9957142 -4.6004019 -0.10733007 4293729569
4.0184116 -4.6320295 -0.54921556 4293729569
4.0172138 -4.5732946 -0.14402027 4293729569
4.0409393 -4.6069193 -0.58790112 4293729569
4.0457344 -4.5481873 -0.18164276 4293729569
4.0854664 -4.5948114 -0.6263957 4293729569
4.0842361 -4.5290842 -0.21817882 4293729569
9.732914 -7.6784344 -1.3935813 4293729569
9.4112511 -7.403327 -1.4111103 4293729569
9.0905552 -7.1302309 -1.4256353 4293729569
8.7898273 -6.8721476 -1.4369967 4293729569
8.5551376 -6.6550617 -1.4527909 4293729569
8.3474445 -6.4539814 -1.4683506 4293729569
8.1196938 -6.244916 -1.4780962 4293729569
7.9349632 -6.0618505 -1.4904704 4293729569
7.7241745 -5.8647976 -1.497075 4293729569
7.5223637 -5.6757526 -1.5016098 4293729569
7.3585796 -5.5077066 -1.5088099 4293729569
7.224823 -5.356657 -1.518747 4293729569
7.1040516 -5.2136135 -1.5275722 4293729569
12.218328 -7.6409664 -1.3782746 4293729569
6.9702435 -5.0655804 -1.532519 4293729569
11.920577 -7.3758917 -1.3875829 4293729569
6.8744678 -4.9375401 -1.5411279 4293729569
11.69987 -7.1498146 -1.401202 4293729569
6.7967014 -4.8195019 -1.5505784 4293729569
11.543173 -6.9597454 -1.4162592 4293729569
6.7139034 -4.7014723 -1.5570817 4293729569
11.360437 -6.7596827 -1.4275591 4293729569
6.6320953 -4.5834465 -1.5625744 4293729569
11.192688 -6.5666265 -1.4377234 4293729569
6.5763035 -4.4774189 -1.569831 4293729569
11.070953 -6.3985739 -1.449481 4293729569
6.4884548 -4.3584042 -1.5713842 4293729569
10.974215 -6.2425241 -1.4610127 4293729569
6.4576721 -4.2663784 -1.5794209 4293729569
10.852428 -6.077487 -1.4677801 4293729569
6.4278851 -4.1743517 -1.5874473 4293729569
10.749651 -5.9204493 -1.4753722 4293729569
6.4040909 -4.085331 -1.5944198 4293729569
10.676876 -5.7804146 -1.4837015 4293729569
6.5285206 -4.0602674 -1.6230321 4293729569
9.5650005 -5.2095366 -1.3846238 4293729569
6.7440834 -4.0701799 -1.6647946 4288085770
9.5782681 -5.1145039 -1.3971878 4293729569
6.9646473 -4.079092 -1.7065014 4288085770
10.461437 -5.363348 -1.4976679 4293729569
7.1401234 -4.0670233 -1.7396166 4288085770
10.418619 -5.2383327 -1.5017283 4293729569
7.1873817 -4.0019979 -1.7519163 4288085770
10.342741 -5.1033287 -1.5001055 4293729569
7.1054153 -3.8860178 -1.7424165 4288085770
10.442041 -5.0323009 -1.5158384 4293729569
7.0835381 -3.7940226 -1.7413591 4288085770
10.439217 -4.9242926 -1.5195307 4293729569
7.0926971 -3.7150202 -1.7440158 4288085770
10.514456 -4.8432798 -1.5294856 4293729569
7.0818024 -3.6270304 -1.7418553 4288085770
10.557648 -4.7492752 -1.534737 4293729569
7.0739021 -3.5410433 -1.7386693 4288085770
10.610826 -4.6582756 -1.5388926 4293729569
7.0960503 -3.464047 -1.7401954 4288085770
10.665995 -4.5682793 -1.5420305 4293729569
7.1111565 -3.3870616 -1.7377952 4288085770
10.719154 -4.4782867 -1.5441895 4293729569
7.1573124 -3.319067 -1.7400966 4288085770
10.847368 -4.4112911 -1.55163 4293729569
7.2044544 -3.2520761 -1.7413907 4288085770
10.980581 -4.3442945 -1.5590179 4293729569
7.2435799 -3.1810889 -1.7407566 4288085770
11.275944 -4.3252811 -1.5808487 4293729569
7.3087234 -3.1181011 -1.7418735 4288085770
11.654377 -4.325264 -1.6088642 4293729569
7.3748665 -3.0551138 -1.74298 4288085770
12.120883 -4.3462391 -1.6440181 4288085770
7.457016 -2.9951267 -1.7449274 4288085770
12.584368 -4.3612194 -1.6771852 4288085770
7.5381451 -2.9351449 -1.7448852 4288085770
12.856624 -4.3172359 -1.6881807 4288085770
7.6302872 -2.876163 -1.7457304 4288085770
13.041762 -4.2452726 -1.6880059 4288085770
7.7184067 -2.8161864 -1.7446146 4288085770
13.165822 -4.1563225 -1.680421 4288085770
7.8105164 -2.7562137 -1.7424569 4288085770
13.370949 -4.0853662 -1.6790388 4288085770
7.9096241 -2.6962419 -1.7402254 4288085770
13.574041 -4.0134182 -1.6746747 4288085770
8.039772 -2.6452637 -1.7416953 4288085770
13.836185 -3.9514675 -1.6747204 4288085770
8.169899 -2.5902929 -1.741153 4288085770
14.116314 -3.8925228 -1.6735858 4288085770
8.3120365 -2.5373201 -1.7414902 4288085770
14.480491 -3.8465796 -1.6766069 4288085770
8.4651623 -2.484354 -1.7407119 4288085770
14.848655 -3.7986412 -1.6785799 4288085770
8.6032562 -2.4283934 -1.7370824 4288085770
15.124694 -3.7257233 -1.6684443 4288085770
8.7733822 -2.3764296 -1.7361282 4288085770
15.510807 -3.6738052 -1.6652155 4288085770
8.9454861 -2.322473 -1.7331467 4288085770
15.901896 -3.6168909 -1.6599187 4288085770
9.1466084 -2.2735157 -1.7318754 4288085770
16.341995 -3.5649862 -1.6551213 4288085770
9.3357105 -2.2205625 -1.728718 4288085770
9.5948677 -2.1776047 -1.7308546 4288085770
9.8480091 -2.1306515 -1.7310419 4288085770
10.106129 -2.0807061 -1.7291673 4288085770
10.418295 -2.036756 -1.7317424 4288085770
10.727432 -1.9898143 -1.7313401 4288085770
11.076578 -1.9438772 -1.7315197 4288085770
11.501791 -1.9059343 -1.7379231 4288085770
11.919963 -1.8620028 -1.7403823 4288085770
12.336094 -1.8130827 -1.738847 4288085770
12.779224 -1.7631683 -1.7370241 4288085770
13.244323 -1.7092671 -1.7319574 4288085770
13.691372 -1.6483788 -1.7220589 4288085770
14.223455 -1.5904942 -1.7152743 4288085770
14.866605 -1.5396109 -1.7143424 4288085770
15.477675 -1.4767456 -1.7057104 4288085770
16.207783 -1.417892 -1.6998376 4288085770
16.562401 1.2816367 -1.6692818 4288085770
15.640618 1.3358288 -1.6828328 4288085770
14.690696 1.3799865 -1.6837108 4288085770
13.917861 1.4261365 -1.6917158 4288085770
16.551916 1.6625788 -1.0091677 4293729569
13.201002 1.4692686 -1.6971401 4288085770
15.437243 1.6868412 -1.0348459 4293729569
12.541138 1.5113897 -1.7019666 4288085770
14.530604 1.7170734 -1.0623126 4293729569
11.954271 1.5504959 -1.7060325 4288085770
13.815005 1.756283 -1.0927371 4293729569
11.41441 1.5905957 -1.7105998 4288085770
13.153375 1.7934728 -1.1195989 4293729569
10.876509 1.6246829 -1.711165 4288085770
12.83794 1.8586543 -1.1627243 4293729569
10.393602 1.6587594 -1.7111503 4288085770
12.627573 1.9328361 -1.2117144 4293729569
9.9587269 1.6938353 -1.7136263 4288085770
12.584307 2.0240154 -1.2688904 4293729569
9.5628471 1.7289028 -1.7156909 4288085770
12.53903 2.1161919 -1.3250846 4293729569
9.1769447 1.7609627 -1.7156596 4288085770
12.626853 2.2233729 -1.3898292 4293729569
8.8741264 1.8000307 -1.7227311 4288085770
12.806782 2.3465657 -1.4635535 4293729569
8.5732746 1.8360889 -1.726791 4288085770
13.361087 2.5237975 -1.5701647 4293729569
8.2814102 1.870142 -1.7297624 4288085770
13.874385 2.7050343 -1.6761959 4288085770
7.9935131 1.902185 -1.7296978 4288085770
13.411626 2.7451496 -1.6899508 4288085770
7.7346344 1.9372289 -1.7313184 4288085770
12.902772 2.7722468 -1.695232 4288085770
7.4997787 1.9722738 -1.7346855 4288085770
12.424894 2.7993312 -1.6981864 4288085770
7.259882 2.004307 -1.7341149 4288085770
11.995037 2.8294125 -1.702625 4288085770
7.0640354 2.0393474 -1.738071 4288085770
11.595169 2.8584843 -1.7057507 4288085770
6.881197 2.077388 -1.7428805 4288085770
11.226307 2.8895531 -1.7095432 4288085770
6.6853065 2.1104157 -1.7428429 4288085770
10.883459 2.9226196 -1.7140553 4288085770
6.5074253 2.144443 -1.7436124 4288085770
10.550564 2.9516721 -1.7144747 4288085770
6.3375454 2.1784689 -1.7442974 4288085770
10.246679 2.9837213 -1.715579 4288085770
6.1886845 2.2144964 -1.7467549 4288085770
10.001858 3.0257778 -1.7220298 4288085770
6.0267811 2.2465143 -1.7453619 4288085770
9.7500038 3.0638258 -1.725567 4288085770
5.8969212 2.284538 -1.747613 4288085770
9.5221577 3.1038725 -1.7298448 4288085770
5.7600498 2.3195603 -1.748947 4288085770
9.3022919 3.1439109 -1.7320386 4288085770
5.6331558 2.3555741 -1.7481726 4288085770
9.1014462 3.1859524 -1.7360257 4288085770
5.5232944 2.394594 -1.7502098 4288085770
8.9115772 3.2279849 -1.7378969 4288085770
5.4064102 2.4306087 -1.7503299 4288085770
8.7467403 3.2740219 -1.7424917 4288085770
5.3235798 2.4736323 -1.7550695 4288085770
8.5908928 3.3200541 -1.7459921 4288085770
5.2216778 2.5096416 -1.7540318 4288085770
8.4670696 3.3740892 -1.7521302 4288085770
5.1298027 2.5496545 -1.7548759 4288085770
8.3161888 3.4191108 -1.7525809 4288085770
5.0509396 2.5916681 -1.7565768 4288085770
8.1913433 3.4701366 -1.7557387 4288085770
4.9630451 2.6306744 -1.7553821 4288085770
8.0825024 3.5241625 -1.7597184 4288085770
4.8901711 2.6726832 -1.7560196 4288085770
7.9766521 3.5781841 -1.7626666 4288085770
4.829319 2.7176962 -1.7585213 4288085770
7.8878136 3.6362057 -1.7664231 4288085770
4.7734642 2.7627082 -1.7609702 4288085770
7.8089733 3.6952257 -1.7700714 4288085770
4.7226105 2.810719 -1.7633573 4288085770
7.7191143 3.7522411 -1.7718416 4288085770
4.669735 2.8567243 -1.7637717 4288085770
7.6532726 3.815258 -1.7753402 4288085770
4.6198597 2.902729 -1.7641543 4288085770
7.5864143 3.8762689 -1.7768556 4288085770
4.5880184 2.9547389 -1.7673284 4288085770
7.5425835 3.9462845 -1.7811002 4288085770
4.5491428 3.0047412 -1.767583 4288085770
7.4797134 4.0082917 -1.7815706 4288085770
4.5042458 3.0517387 -1.76591 4288085770
7.4428635 4.0792994 -1.7837387 4288085770
4.4854031 3.1077461 -1.7689346 4288085770
7.4180222 4.1533079 -1.7867707 4288085770
4.4805927 3.1687598 -1.7747961 4288085770
7.389164 4.2273116 -1.7878453 4288085770
4.4486961 3.2197552 -1.7729737 4288085770
7.3703136 4.3053155 -1.7898017 4288085770
4.4468498 3.2817593 -1.7758006 4288085770
7.3744907 4.3903241 -1.794494 4288085770
4.437994 3.3427615 -1.7777046 4288085770
7.3856602 4.4793291 -1.7981001 4288085770
4.4581966 3.4137735 -1.7842714 4288085770
7.3888111 4.5653291 -1.7997998 4288085770
4.4633541 3.4797761 -1.787012 4288085770
7.4290161 4.6673369 -1.8060597 4288085770
4.470499 3.5467753 -1.7887286 4288085770
7.4501667 4.7623329 -1.8075417 4288085770
4.4936771 3.6207805 -1.7932545 4288085770
7.5033588 4.8703346 -1.8126458 4288085770
4.5048122 3.6897757 -1.7939228 4288085770
7.5375099 4.9713283 -1.8139724 4288085770
4.5429935 3.7707777 -1.7982689 4288085770
7.6117039 5.0903258 -1.8188208 4288085770
4.5701427 3.8477731 -1.8007425 4288085770
7.6908932 5.2133193 -1.823603 4288085770
4.6183357 3.9347758 -1.8059639 4288085770
7.7480469 5.3273082 -1.8246454 4288085770
4.652483 4.0147691 -1.8073546 4288085770
7.8432407 5.4603009 -1.829228 4288085770
4.7116718 4.1087699 -1.8124381 4288085770
7.9414139 5.593287 -1.8317791 4288085770
4.7698536 4.2017674 -1.8165351 4288085770
8.0596104 5.739275 -1.8360792 4288085770
4.8480549 4.3057671 -1.8223873 4288085770
8.1978302 5.8952661 -1.8421367 4288085770
4.9382896 4.4157743 -1.8310939 4288085770
8.3500481 6.0612535 -1.8480159 4288085770
5.0104485 4.5187631 -1.8330127 4288085770
8.5393009 6.2472429 -1.8564426 4288085770
5.1387367 4.6517768 -1.8462471 4288085770
8.7425632 6.4432321 -1.8656906 4288085770
5.2319164 4.7677679 -1.8499037 4288085770
8.9678268 6.6542168 -1.8746601 4288085770
5.3010254 4.8707414 -1.8468543 4288085770
9.1590176 6.848187 -1.877041 4288085770
5.3741341 4.9767141 -1.8437535 4288085770
9.3822403 7.0611601 -1.8820256 4288085770
5.4863071 5.1046977 -1.8461725 4288085770
9.6484871 7.3021307 -1.8884696 4288085770
5.6165009 5.2436838 -1.8503677 4288085770
9.951767 7.5651021 -1.8974551 4288085770
5.766716 5.3956718 -1.8563114 4288085770
10.276037 7.8430672 -1.9051727 4288085770
5.8998699 5.5376453 -1.8564657 4288085770
6.0540657 5.6946263 -1.8603519 4288085770
6.2202435 5.8585987 -1.86209 4288085770
6.4154625 6.0405769 -1.8674661 4288085770
6.6286945 6.2355552 -1.8736118 4288085770
6.888979 6.4595389 -1.8841718 4288085770
7.1452465 6.682518 -1.8927771 4288085770
7.423502 6.9214888 -1.9001008 4288085770
7.6916943 7.1564426 -1.9015425 4288085770
8.0199604 7.4304066 -1.9092301 4288085770
8.4123058 7.7473793 -1.9231089 4288085770
8.8056145 8.067338 -1.932968 4288085770
15.841578 -0.67659283 -1.6740955 4288085770
14.71874 -0.7013669 -1.6850482 4288085770
13.619805 -0.71617413 -1.6867172 4288085770
12.704939 -0.72999763 -1.6934361 4288085770
11.902126 -0.74482679 -1.7049732 4288085770
11.098202 -0.75068855 -1.705494 4288085770
10.389311 -0.75655842 -1.7090098 4288085770
9.7364178 -0.76143932 -1.7119303 4288085770
16.356415 -1.2457118 -1.6803708 4288085770
9.1705742 -0.76532412 -1.7189271 4288085770
15.134611 -1.2214589 -1.6942211 4288085770
8.6507263 -0.76921797 -1.7254374 4288085770
13.969729 -1.1922398 -1.7004539 4288085770
8.1668892 -0.77211571 -1.7325637 4288085770
12.940844 -1.1650491 -1.7052542 4288085770
7.732069 -0.77401829 -1.7411686 4288085770
12.061022 -1.1428671 -1.7154931 4288085770
7.2951984 -0.77193546 -1.7447827 4288085770
11.231144 -1.1187115 -1.7201974 4288085770
6.8763046 -0.76886272 -1.7462034 4288085770
10.456232 -1.092577 -1.7213141 4288085770
6.5114498 -0.76578856 -1.7510529 4288085770
9.7853565 -1.0694513 -1.7253394 4288085770
6.1856365 -0.76571035 -1.7594986 4288085770
9.2105598 -1.0533218 -1.7363702 4288085770
5.8688011 -0.76264 -1.7658402 4288085770
8.6356678 -1.031219 -1.7383832 4288085770
5.5649452 -0.75857925 -1.7700411 4288085770
8.1498547 -1.0151105 -1.7474728 4288085770
5.2500362 -0.75053072 -1.7693468 4288085770
7.6910191 -0.99701357 -1.7542706 4288085770
4.9952183 -0.74746752 -1.7770325 4288085770
7.2451496 -0.97792912 -1.757928 4288085770
4.7193165 -0.73842382 -1.7769223 4288085770
6.7922115 -0.95486403 -1.754648 4288085770
4.4664383 -0.73137999 -1.7785751 4288085770
6.4353905 -0.93978262 -1.762376 4288085770
4.2385864 -0.72533226 -1.782966 4288085770
6.084549 -0.92270851 -1.7680346 4288085770
3.9896641 -0.71430016 -1.7805647 4288085770
5.7727261 -0.90763617 -1.7752866 4288085770
3.8088741 -0.71024323 -1.790464 4288085770
5.4378071 -0.88659096 -1.7737669 4288085770
3.6009884 -0.70121241 -1.7916373 4288085770
5.1449375 -0.87053537 -1.7768143 4288085770
3.4191341 -0.69317341 -1.795535 4288085770
4.8640633 -0.85248518 -1.7787288 4288085770
3.2192326 -0.68214607 -1.7946142 4288085770
4.5861568 -0.8334446 -1.7776088 4288085770
3.028307 -0.67112637 -1.7915984 4288085770
4.3443069 -0.81739235 -1.7821168 4288085770
2.8694611 -0.66308928 -1.7962528 4288085770
4.1024055 -0.79935694 -1.781619 4288085770
2.7085876 -0.65306091 -1.7979227 4288085770
3.8995781 -0.78530693 -1.7877203 4288085770
2.5486946 -0.6420393 -1.7975789 4288085770
3.6927185 -0.76926613 -1.7908584 4288085770
2.3937988 -0.63101816 -1.7971827 4288085770
3.492836 -0.75323296 -1.7919225 4288085770
2.2499123 -0.61999655 -1.7976695 4288085770
3.3049641 -0.73719883 -1.7938594 4288085770
2.1160374 -0.60997391 -1.7990538 4288085770
3.1180706 -0.72017097 -1.7937831 4288085770
1.9881706 -0.59894991 -1.8013717 4288085770
2.9471989 -0.70414114 -1.7955405 4288085770
1.864296 -0.5889287 -1.8026501 4288085770
2.7843266 -0.68911219 -1.7972161 4288085770
2.6043797 -0.66910172 -1.7920572 4288085770
2.461525 -0.65507126 -1.7955242 4288085770
2.3096104 -0.63805676 -1.7930778 4288085770
2.1677151 -0.62103844 -1.7925256 4288085770
2.0278091 -0.60502338 -1.7909557 4288085770
1.9199734 -0.59199429 -1.7960552 4288085770
1.8101273 -0.57796717 -1.8001734 4288085770
1.8373051 1.3163497 -1.7888128 4288085770
1.9433746 1.3313096 -1.7836379 4288085770
2.071497 1.3502796 -1.7832166 4288085770
2.2126503 1.3722565 -1.7856477 4288085770
2.3467617 1.3902223 -1.7841657 4288085770
2.4938927 1.4101913 -1.7845393 4288085770
2.6470203 1.4301593 -1.7848493 4288085770
1.7971859 1.2873635 -1.8023158 4288085770
2.8021317 1.4491205 -1.7831408 4288085770
1.8932114 1.2953131 -1.7932686 4288085770
2.9622402 1.4690807 -1.781376 4288085770
2.024353 1.3102889 -1.7948273 4288085770
3.1283379 1.4870367 -1.7785538 4288085770
2.1504517 1.3222535 -1.7924486 4288085770
3.3144798 1.5090005 -1.7795063 4288085770
2.2775421 1.3332145 -1.7890624 4288085770
3.493576 1.5279536 -1.7765428 4288085770
2.4056206 1.3431726 -1.7846686 4288085770
3.6836739 1.5469043 -1.7734622 4288085770
2.5667934 1.3591506 -1.7889053 4288085770
3.9068356 1.5708663 -1.7760149 4288085770
2.7219124 1.3721154 -1.7882148 4288085770
4.1470032 1.5958273 -1.779384 4288085770
2.8719978 1.3820715 -1.784587 4288085770
4.3510685 1.612766 -1.7731606 4288085770
3.037117 1.3940339 -1.7837936 4288085770
4.5821533 1.6317048 -1.768644 4288085770
3.2152443 1.4069963 -1.7838584 4288085770
4.8302574 1.6526463 -1.7659403 4288085770
3.3953648 1.4189551 -1.7829052 4288085770
5.0963726 1.6745868 -1.7640423 4288085770
3.5644398 1.4269044 -1.7780813 4288085770
5.3644543 1.6945176 -1.7591287 4288085770
3.7495232 1.435853 -1.774084 4288085770
5.6525459 1.7144473 -1.7550027 4288085770
3.9847088 1.4518218 -1.7795333 4288085770
5.9646435 1.7373753 -1.7516123 4288085770
4.1998138 1.4617701 -1.7772139 4288085770
6.301754 1.7602999 -1.7489556 4288085770
4.4098988 1.4687135 -1.772957 4288085770
6.6528549 1.7832191 -1.7451502 4288085770
4.6329784 1.4766538 -1.7685586 4288085770
7.0299644 1.8061359 -1.7420685 4288085770
4.8790932 1.4845989 -1.7669154 4288085770
7.4110279 1.8270392 -1.7349501 4288085770
5.1061325 1.4885261 -1.7584867 4288085770
7.8651752 1.8549514 -1.7350336 4288085770
5.3912659 1.4984686 -1.7584225 4288085770
8.3362904 1.8818507 -1.7319396 4288085770
5.6713562 1.5043998 -1.7544237 4288085770
8.8183498 1.9047325 -1.7237409 4288085770
5.9754639 1.5113323 -1.7521667 4288085770
9.3394299 1.928612 -1.7171242 4288085770
6.2995853 1.5182633 -1.7506967 4288085770
9.906517 1.9534845 -1.7110151 4288085770
6.6527214 1.5251944 -1.7509179 4288085770
10.590696 1.9893594 -1.7126276 4288085770
7.0088196 1.5291123 -1.7471167 4288085770
11.283798 2.0182111 -1.7071662 4288085770
7.3598709 1.5290191 -1.739381 4288085770
12.073939 2.0530539 -1.7046543 4288085770
7.7489548 1.5299273 -1.7342379 4288085770
12.858995 2.0798733 -1.6942203 4288085770
8.1950855 1.5328376 -1.7334821 4288085770
13.805138 2.1166856 -1.6910429 4288085770
8.6431847 1.531739 -1.7297173 4288085770
13.959371 2.0603991 -1.6085652 4293729569
9.1242714 1.5306304 -1.7246013 4288085770
13.11462 1.8980331 -1.4410292 4293729569
9.6373672 1.5265174 -1.7201542 4288085770
13.093722 1.8217442 -1.3474742 4293729569
10.215492 1.5234001 -1.7180123 4288085770
13.419142 1.778476 -1.2811376 4293729569
10.859644 1.5212772 -1.718165 4288085770
14.003729 1.7542038 -1.2289873 4293729569
11.504732 1.5111361 -1.7123317 4288085770
14.763395 1.7389183 -1.182948 4293729569
12.202827 1.4999866 -1.7069376 4288085770
15.453944 1.709614 -1.1266855 4293729569
12.958919 1.4858246 -1.7009354 4288085770
16.087379 1.6682885 -1.0600663 4293729569
13.816037 1.46965 -1.6968646 4288085770
14.695096 1.4464552 -1.6875813 4288085770
15.740245 1.4252524 -1.6855254 4288085770
16.723236 1.3890173 -1.6691755 4288085770
4.0998135 -4.5248766 -0.15810572 4293729569
4.0563202 -4.5387592 -0.1956109 4293729569
4.0488358 -4.574646 -0.23379926 4293729569
4.0373478 -4.6055317 -0.27201504 4293729569
4.0208778 -4.6324148 -0.31127185 4293729569
4.0244102 -4.6712999 -0.35135192 4293729569
4.0129471 -4.6971788 -0.39155227 4293729569
4.0084915 -4.7280588 -0.43269318 4293729569
4.021059 -4.7679348 -0.47568011 4293729569
7.7180214 -7.5698032 -1.4227984 4293729569
7.2552719 -7.2596941 -1.4317864 4293729569
6.8475456 -6.9825878 -1.4432884 4293729569
6.5418987 -6.7744751 -1.4629123 4293729569
6.2231998 -6.5543747 -1.4776387 4293729569
5.9364967 -6.3522816 -1.4920788 4293729569
5.6167049 -6.1252079 -1.4977957 4293729569
5.3619823 -5.9411268 -1.5109497 4293729569
5.1242409 -5.7670517 -1.5219531 4293729569
8.2407017 -7.8280239 -1.3979657 4293729569
4.9085159 -5.605978 -1.5347615 4293729569
7.8490543 -7.5379 -1.4162574 4293729569
4.707777 -5.4529095 -1.5464344 4293729569
7.4643726 -7.2497864 -1.4314811 4293729569
4.5220375 -5.3088446 -1.5579747 4293729569
7.086628 -6.9656916 -1.4406428 4293729569
4.2781563 -5.1238089 -1.5560102 4293729569
6.7979584 -6.7415895 -1.4580375 4293729569
3.9921455 -4.9078045 -1.5414001 4293729569
4.0517235 -4.8551016 -1.1205761 4293729569
3.8884754 -4.8167343 -1.5602272 4293729569
4.036232 -4.8199959 -1.1566334 4293729569
3.7938042 -4.7306643 -1.5789731 4293729569
4.0307598 -4.790884 -1.1946018 4293729569
3.6540222 -4.6116171 -1.5870996 4293729569
4.0352726 -4.7657766 -1.2314759 4293729569
3.4731216 -4.4645996 -1.5835791 4293729569
4.0387878 -4.7386703 -1.2683549 4293729569
3.3553276 -4.3585606 -1.5905108 4293729569
4.0543213 -4.7165594 -1.3071206 4293729569
3.2495537 -4.260519 -1.5993385 4293729569
4.0928841 -4.7084465 -1.3486832 4293729569
3.1417561 -4.1594839 -1.6061788 4293729569
4.1083965 -4.683342 -1.3854399 4293729569
3.0579987 -4.074441 -1.6168115 4293729569
4.14995 -4.6732321 -1.4259646 4293729569
2.9601784 -3.9794121 -1.6215636 4293729569
4.2395802 -4.6911077 -1.4740616 4293729569
2.8633404 -3.8843908 -1.624305 4293729569
4.5095634 -4.8219109 -1.5565791 4293729569
2.892828 -3.8702955 -1.6589464 4293729569
4.3456917 -4.675889 -1.5558803 4293729569
2.9563885 -3.8761873 -1.7002854 4293729569
4.2619667 -4.5788355 -1.5694759 4293729569
3.0169373 -3.8780804 -1.740644 4288085770
4.1962528 -4.4937849 -1.5839158 4293729569
3.0814953 -3.8809719 -1.781963 4288085770
4.1044655 -4.3917484 -1.5915822 4293729569
3.0247021 -3.8059444 -1.7893385 4288085770
4.0096512 -4.2887211 -1.5962776 4293729569
2.933794 -3.7089424 -1.7860104 4288085770
3.9208374 -4.1866932 -1.6019123 4293729569
2.8639393 -3.6259289 -1.7875005 4288085770
3.8430271 -4.0936651 -1.6074569 4293729569
2.8040829 -3.5489187 -1.7889024 4288085770
3.7732162 -4.0046415 -1.6129283 4293729569
2.7492352 -3.4739065 -1.7912568 4288085770
3.7404613 -3.9376068 -1.6240714 4293729569
2.7054081 -3.4058905 -1.7955152 4288085770
3.8049393 -3.9255228 -1.6573447 4293729569
2.6435089 -3.3268914 -1.7929324 4288085770
3.887434 -3.9214363 -1.69245 4293729569
2.6026592 -3.2608814 -1.7951649 4288085770
3.98596 -3.924345 -1.7304056 4288085770
2.5477505 -3.1858878 -1.7915198 4288085770
4.0704575 -3.9172592 -1.7654802 4288085770
2.5149002 -3.1228805 -1.7936763 4288085770
4.0516796 -3.8532324 -1.7744831 4288085770
2.4790287 -3.0588784 -1.7938615 4288085770
4.001833 -3.7712221 -1.7767624 4288085770
2.4561882 -3.0018692 -1.7969295 4288085770
3.9549675 -3.6912165 -1.777016 4288085770
2.4273167 -2.9418688 -1.7970523 4288085770
3.9371586 -3.6272001 -1.7830085 4288085770
2.3974228 -2.8808742 -1.7951831 4288085770
3.9043007 -3.5541954 -1.7841338 4288085770
2.3725395 -2.8218775 -1.7942663 4288085770
3.8824596 -3.4881868 -1.7871631 4288085770
2.3616848 -2.7708745 -1.7962242 4288085770
3.8515797 -3.4171896 -1.7862736 4288085770
2.3769035 -2.7328563 -1.8049437 4288085770
3.830719 -3.3511872 -1.7872921 4288085770
2.3720531 -2.6848507 -1.8078469 4288085770
3.8148537 -3.2871861 -1.7882637 4288085770
2.3491287 -2.6268668 -1.8029124 4288085770
3.8059998 -3.2271838 -1.7901725 4288085770
2.3633251 -2.5878539 -1.8096396 4288085770
3.8011379 -3.1681857 -1.7910415 4288085770
2.3584385 -2.5388622 -1.8085395 4288085770
3.7822323 -3.1031961 -1.7880424 4288085770
2.35355 -2.4908695 -1.807443 4288085770
3.7873688 -3.0492005 -1.7888199 4288085770
2.3606834 -2.4468732 -1.80823 4288085770
3.7804737 -2.9902101 -1.7867106 4288085770
2.378849 -2.4078708 -1.8119148 4288085770
3.7936192 -2.9392128 -1.7884117 4288085770
2.3809509 -2.3618827 -1.8097495 4288085770
3.8077545 -2.8882184 -1.7891024 4288085770
2.400095 -2.3228865 -1.8114237 4288085770
3.8238773 -2.8382277 -1.7887746 4288085770
2.407196 -2.2788997 -1.8092109 4288085770
3.8530312 -2.79423 -1.7913259 4288085770
2.4193058 -2.2359109 -1.8079478 4288085770
3.8901939 -2.7522321 -1.7947983 4288085770
2.4444485 -2.1999154 -1.8095671 4288085770
3.9243374 -2.7092385 -1.7962993 4288085770
2.4675694 -2.1619267 -1.8092014 4288085770
3.9604683 -2.6662493 -1.796779 4288085770
2.4967003 -2.1259356 -1.8097781 4288085770
3.9976006 -2.6242599 -1.7972511 4288085770
2.535862 -2.0939374 -1.8132595 4288085770
4.0367203 -2.5802741 -1.7966958 4288085770
2.5609722 -2.0549517 -1.8118697 4288085770
4.081852 -2.5402865 -1.7970885 4288085770
2.5860596 -2.0169716 -1.808483 4288085770
4.1249619 -2.4983048 -1.7954966 4288085770
2.6352234 -1.9869761 -1.8118635 4288085770
4.1811008 -2.4603167 -1.7967778 4288085770
2.6903915 -1.9589782 -1.8161863 4288085770
4.2402306 -2.4233322 -1.7970299 4288085770
2.7355213 -1.9269905 -1.8166038 4288085770
4.2973385 -2.3853531 -1.7953004 4288085770
2.7716084 -1.8910127 -1.8131055 4288085770
4.3574467 -2.346375 -1.7935358 4288085770
2.8307667 -1.86202 -1.8163823 4288085770
4.4325733 -2.3123937 -1.793626 4288085770
2.8858948 -1.8320346 -1.8166987 4288085770
4.5087032 -2.2784133 -1.7937053 4288085770
2.9460258 -1.8030496 -1.816965 4288085770
4.5807991 -2.2424412 -1.7908217 4288085770
3.0051422 -1.7720685 -1.8162359 4288085770
4.6679268 -2.2094631 -1.7907864 4288085770
3.0672684 -1.7420845 -1.8164774 4288085770
4.7570419 -2.1764884 -1.7897297 4288085770
3.1313877 -1.7131042 -1.8157009 4288085770
4.853157 -2.144515 -1.7886013 4288085770
3.2025146 -1.6851225 -1.8158523 4288085770
4.9302216 -2.107553 -1.7826611 4288085770
3.2746296 -1.6561437 -1.8149902 4288085770
5.0403366 -2.0775828 -1.7813889 4288085770
3.353756 -1.6291637 -1.8150591 4288085770
5.1534519 -2.0486135 -1.7800876 4288085770
3.4489136 -1.6051784 -1.8179659 4288085770
5.2845955 -2.0226383 -1.781603 4288085770
3.5179882 -1.5732107 -1.8131267 4288085770
5.4036884 -1.9916763 -1.7782315 4288085770
3.6121101 -1.548234 -1.8130411 4288085770
5.5498295 -1.9677048 -1.7795922 4288085770
3.7182693 -1.524251 -1.8158303 4288085770
5.7009544 -1.9427409 -1.7788965 4288085770
3.8143711 -1.4972806 -1.8137172 4288085770
5.8771133 -1.9207702 -1.781942 4288085770
3.9204845 -1.4713092 -1.8125004 4288085770
6.0392265 -1.8948112 -1.7801255 4288085770
4.0155697 -1.4433451 -1.8083948 4288085770
6.2103348 -1.8698545 -1.7782158 4288085770
4.1276722 -1.416378 -1.8061107 4288085770
6.3834362 -1.8429017 -1.7752784 4288085770
4.2497959 -1.3924084 -1.8057283 4288085770
6.5454845 -1.8119617 -1.7674466 4288085770
4.4119911 -1.373425 -1.8119329 4288085770
6.7546005 -1.78901 -1.7661361 4288085770
4.5250511 -1.3434706 -1.8056291 4288085770
6.9817276 -1.7670593 -1.7656361 4288085770
4.6661625 -1.3195076 -1.8040434 4288085770
7.2318649 -1.7481112 -1.7658988 4288085770
4.8052521 -1.29355 -1.8004731 4288085770
7.491991 -1.7281685 -1.7650515 4288085770
4.971384 -1.2705855 -1.8006228 4288085770
7.7711239 -1.7082262 -1.7650005 4288085770
5.111433 -1.2416406 -1.7930328 4288085770
8.0762691 -1.6902871 -1.7656776 4288085770
5.2564812 -1.2116961 -1.7853862 4288085770
8.3903809 -1.6713595 -1.763255 4288085770
5.4476109 -1.1887383 -1.7852682 4288085770
8.680439 -1.6454406 -1.7560682 4288085770
5.640707 -1.1647892 -1.7821258 4288085770
9.0335388 -1.6265244 -1.7522283 4288085770
5.8578377 -1.1428351 -1.7827333 4288085770
9.4056416 -1.6066117 -1.7491828 4288085770
6.0949783 -1.1208849 -1.7831258 4288085770
9.8067265 -1.5867105 -1.7438259 4288085770
6.3260727 -1.0969467 -1.7795764 4288085770
10.249828 -1.5698133 -1.7400286 4288085770
6.5391178 -1.0680189 -1.7712051 4288085770
10.744961 -1.5539174 -1.7386776 4288085770
6.7912121 -1.0430841 -1.7674278 4288085770
11.259058 -1.5380354 -1.7341231 4288085770
7.0653057 -1.0181551 -1.7634152 4288085770
11.838177 -1.5241623 -1.7308789 4288085770
7.3784275 -0.99522495 -1.7619908 4288085770
12.446259 -1.5063043 -1.7243121 4288085770
7.702528 -0.97030354 -1.7584428 4288085770
13.1854 -1.4964581 -1.722367 4288085770
8.0155773 -0.94239521 -1.7500036 4288085770
13.938506 -1.4836235 -1.7172627 4288085770
8.3756657 -0.91548538 -1.7450637 4288085770
14.785585 -1.4698167 -1.7091495 4288085770
8.7437115 -0.88758945 -1.7360355 4288085770
15.702662 -1.4560256 -1.7002865 4288085770
9.1637974 -0.86069298 -1.7304534 4288085770
16.727718 -1.4432616 -1.6892705 4288085770
9.6148701 -0.83280659 -1.7235363 4288085770
10.120962 -0.8049264 -1.7180301 4288085770
10.731121 -0.78004885 -1.7184193 4288085770
11.338196 -0.75019455 -1.7108258 4288085770
12.048332 -0.72234106 -1.7091355 4288085770
12.807423 -0.69051504 -1.7019081 4288085770
13.601464 -0.65570927 -1.6902969 4288085770
14.624637 -0.62391567 -1.6892422 4288085770
15.69473 -0.58615303 -1.6806661 4288085770
16.266027 1.6625476 -1.2661889 4293729569
15.414022 1.7247064 -1.258177 4293729569
14.142632 1.7388611 -1.2178266 4293729569
15.564274 1.9101617 -0.42494178 4293729569
13.389585 1.784986 -1.2057973 4293729569
14.750597 1.9584043 -0.44756138 4293729569
13.086869 1.8680918 -1.2208062 4293729569
14.025892 2.0056181 -0.46722537 4293729569
12.865188 1.9571891 -1.2389245 4293729569
13.655274 2.0807688 -0.49199069 4293729569
12.79962 2.0612795 -1.2663158 4293729569
13.462679 2.173883 -0.51778376 4293729569
12.777082 2.1703684 -1.2962289 4293729569
12.745515 2.2784505 -1.3232423 4293729569
12.744968 2.3915303 -1.3519063 4293729569
13.107897 2.473171 -0.59370065 4293729569
12.760422 2.5076058 -1.380389 4293729569
13.115317 2.5892398 -0.61926979 4293729569
12.829917 2.6336796 -1.4122595 4293729569
13.016665 2.6893151 -0.63902962 4293729569
12.999494 2.773752 -1.4510098 4293729569
12.872983 2.7803926 -0.6563018 4293729569
13.106011 2.9068222 -1.4844604 4293729569
12.831328 2.8864532 -0.67542958 4293729569
13.12441 3.0278823 -1.5078963 4293729569
12.813672 2.9985077 -0.6942808 4293729569
13.701395 3.2499635 -1.5800114 4293729569
12.817009 3.1135535 -0.71189678 4293729569
13.412444 3.3190031 -1.5739139 4293729569
12.898385 3.2445912 -0.73262376 4293729569
13.55595 3.4700608 -1.605912 4293729569
13.007762 3.3826218 -0.75302798 4293729569
14.732576 3.8291676 -1.7311555 4288085770
14.606766 3.9352045 -1.7361894 4288085770
14.407849 4.0252299 -1.7320591 4288085770
14.244952 4.1202526 -1.7295257 4288085770
14.30029 4.2632847 -1.7464972 4288085770
14.283512 4.3893018 -1.7532964 4288085770
14.252721 4.5123205 -1.7592555 4288085770
14.24993 4.6433315 -1.7648891 4288085770
14.241117 4.7713385 -1.7685965 4288085770
14.298373 4.9203463 -1.7775289 4288085770
14.265497 5.0463405 -1.7755016 4288085770
14.321707 5.1953363 -1.7804452 4288085770
14.399927 5.3523302 -1.7861277 4288085770
14.505148 5.5183158 -1.7914921 4288085770
14.540273 5.6652932 -1.7886688 4288085770
14.785628 5.8782792 -1.8043817 4288085770
14.938853 6.0682526 -1.8091565 4288085770
15.210187 6.2962251 -1.8225445 4288085770
15.379393 6.4961886 -1.8251168 4288085770
15.569577 6.7041397 -1.8254389 4288085770
15.821828 6.9370937 -1.8310171 4288085770
16.133112 7.1950417 -1.8388835 4288085770
16.447367 7.4579787 -1.8437032 4288085770
16.228228 -0.22172403 -1.6744174 4288085770
14.826323 -0.23137903 -1.6806002 4288085770
13.57139 -0.23707914 -1.6831824 4288085770
12.535542 -0.24281168 -1.6923965 4288085770
11.583647 -0.24557829 -1.6966943 4288085770
10.697716 -0.24637222 -1.6972728 4288085770
9.9438305 -0.24618626 -1.7014211 4288085770
16.580692 -0.44691229 -1.6522675 4288085770
9.2979927 -0.24701452 -1.7094049 4288085770
15.202912 -0.43054056 -1.669113 4288085770
8.6921196 -0.24486256 -1.7139473 4288085770
13.912031 -0.41221905 -1.6760126 4288085770
8.1703224 -0.2437129 -1.7245847 4288085770
12.810183 -0.39593697 -1.6848754 4288085770
7.6774673 -0.24058533 -1.7299027 4288085770
11.847312 -0.37969446 -1.6912353 4288085770
7.2025776 -0.23647165 -1.7320235 4288085770
10.96944 -0.36447525 -1.6966797 4288085770
6.778717 -0.23236322 -1.7365927 4288085770
10.147509 -0.34728622 -1.6965129 4288085770
6.4098969 -0.2282567 -1.7445672 4288085770
9.5057049 -0.33410645 -1.7074118 4288085770
6.0700874 -0.22415638 -1.7532282 4288085770
8.8658314 -0.3199482 -1.7112863 4288085770
5.7562847 -0.21905899 -1.7626051 4288085770
8.3129902 -0.30680227 -1.7182232 4288085770
5.4244003 -0.21198082 -1.7641712 4288085770
7.8021488 -0.29366636 -1.7247062 4288085770
5.1225243 -0.20590782 -1.7664157 4288085770
7.332283 -0.27954865 -1.7287431 4288085770
4.8135948 -0.19784784 -1.7637304 4288085770
6.8954258 -0.26643562 -1.7334261 4288085770
4.5296726 -0.18979168 -1.7617749 4288085770
6.5096016 -0.25432825 -1.7405607 4288085770
4.2717819 -0.18173313 -1.7625381 4288085770
6.1858444 -0.24321699 -1.7540277 4288085770
4.0369129 -0.17367506 -1.7650527 4288085770
5.8550224 -0.23112106 -1.7615677 4288085770
3.8140316 -0.16562319 -1.7664374 4288085770
5.504097 -0.2170496 -1.7593186 4288085770
3.6101723 -0.15757132 -1.7696165 4288085770
5.2022343 -0.20397377 -1.7625424 4288085770
3.4092884 -0.14852476 -1.7707607 4288085770
4.8692532 -0.18992186 -1.7550989 4288085770
3.2334423 -0.14047384 -1.7756373 4288085770
4.6033688 -0.17685795 -1.756934 4288085770
3.0505581 -0.13143206 -1.7765869 4288085770
4.3565006 -0.16479683 -1.7595663 4288085770
2.8816833 -0.12239218 -1.778385 4288085770
4.1146202 -0.15174007 -1.7611417 4288085770
2.7268238 -0.11335278 -1.7810315 4288085770
3.8957424 -0.13868904 -1.7624685 4288085770
2.5548954 -0.1033268 -1.7778596 4288085770
3.6798477 -0.12564182 -1.7627629 4288085770
2.421051 -0.095286846 -1.7822822 4288085770
3.500021 -0.11458731 -1.7686738 4288085770
2.2962303 -0.086244106 -1.7886041 4288085770
3.2960949 -0.10155249 -1.7658385 4288085770
2.155323 -0.076219559 -1.7870969 4288085770
3.1332684 -0.089501858 -1.7715627 4288085770
2.0274487 -0.06619072 -1.7884489 4288085770
2.9734154 -0.077457905 -1.7752544 4288085770
1.9146061 -0.056156635 -1.7926384 4288085770
2.8135433 -0.0644207 -1.7769433 4288085770
2.6616573 -0.052387714 -1.7775489 4288085770
2.506752 -0.039360046 -1.776184 4288085770
2.3668671 -0.027330875 -1.7766596 4288085770
2.2430248 -0.015293121 -1.7809623 4288085770
2.1161404 -0.0022678375 -1.7812947 4288085770
2.0032845 0.009762764 -1.7844783 4288085770
1.8843956 0.022787094 -1.7847244 4288085770
1.793642 2.0152166 -1.7857929 4288085770
1.8967381 2.0411763 -1.7826036 4288085770
2.0178871 2.0721457 -1.7842046 4288085770
2.1389999 2.1011057 -1.7828118 4288085770
2.2560921 2.1280615 -1.7794684 4288085770
2.3832073 2.1570201 -1.778011 4288085770
2.5293541 2.1909823 -1.7793337 4288085770
2.6664562 2.2209353 -1.7767657 4288085770
1.7975311 1.9611852 -1.7899169 4288085770
2.8175926 2.2528934 -1.7770404 4288085770
1.915657 1.9841495 -1.7895745 4288085770
2.9626732 2.2818382 -1.7723893 4288085770
2.0297585 2.0031087 -1.7872871 4288085770
3.1237984 2.3147902 -1.7715534 4288085770
2.1438503 2.0220654 -1.7840003 4288085770
3.2869091 2.3457384 -1.7697021 4288085770
2.285017 2.0490351 -1.7873975 4288085770
3.4670448 2.3816881 -1.7696522 4288085770
2.38904 2.0619764 -1.7782367 4288085770
3.6551781 2.4176352 -1.7695163 4288085770
2.5351963 2.0859413 -1.7805892 4288085770
3.8332691 2.4485736 -1.7655035 4288085770
2.6682854 2.1048925 -1.7770976 4288085770
4.0634689 2.4925268 -1.7708904 4288085770
2.8294525 2.1318562 -1.7802793 4288085770
4.2775993 2.5304666 -1.7704681 4288085770
2.9805622 2.152808 -1.7785875 4288085770
4.4796772 2.5623946 -1.7651938 4288085770
3.1386929 2.1747639 -1.7788166 4288085770
4.7027874 2.5973263 -1.7626837 4288085770
3.3278923 2.2047288 -1.7846876 4288085770
4.9338856 2.6332521 -1.7590847 4288085770
3.4478703 2.2106535 -1.7713755 4288085770
5.1779957 2.6701777 -1.7563424 4288085770
3.648056 2.2396123 -1.7761313 4288085770
5.439106 2.7090979 -1.7534109 4288085770
3.8121223 2.2545483 -1.7703174 4288085770
5.7032032 2.7450147 -1.7494563 4288085770
4.0072632 2.2774963 -1.771145 4288085770
6.0083561 2.7899346 -1.7500323 4288085770
4.2013607 2.2974327 -1.7679929 4288085770
6.3415146 2.8388491 -1.7512945 4288085770
4.3884373 2.3123653 -1.7629312 4288085770
6.674654 2.8847578 -1.7505659 4288085770
4.6015549 2.3323021 -1.761574 4288085770
7.0318165 2.9326658 -1.7515724 4288085770
4.8266811 2.3532386 -1.7610846 4288085770
7.3899212 2.9765584 -1.7475806 4288085770
5.0387554 2.3681638 -1.7557536 4288085770
7.7770443 3.0244489 -1.7452642 4288085770
5.2748623 2.3860915 -1.7531546 4288085770
8.2302456 3.084341 -1.7491999 4288085770
5.5239868 2.4050205 -1.7524127 4288085770
8.6273136 3.1252136 -1.7417971 4288085770
5.766058 2.4189377 -1.7467612 4288085770
9.1054707 3.1810865 -1.7414758 4288085770
6.0401955 2.4388628 -1.7467469 4288085770
9.5966015 3.2339506 -1.7390237 4288085770
6.3142948 2.4537795 -1.7437475 4288085770
10.133749 3.2918069 -1.7380606 4288085770
6.6053944 2.469691 -1.740562 4288085770
10.73893 3.3586528 -1.7393373 4288085770
6.9245281 2.4876032 -1.7400686 4288085770
11.365089 3.4224868 -1.738397 4288085770
7.2246056 2.4975064 -1.7348042 4288085770
12.040257 3.4893098 -1.7379197 4288085770
7.5446835 2.5084033 -1.7293215 4288085770
12.72037 3.5501158 -1.7324069 4288085770
7.9088249 2.5253062 -1.7293463 4288085770
13.474513 3.6189098 -1.7290725 4288085770
8.2619209 2.5351996 -1.7255108 4288085770
14.277653 3.6876903 -1.7252101 4288085770
8.6460152 2.5460844 -1.7213383 4288085770
13.586087 3.4554226 -1.579353 4293729569
9.0300961 2.5509663 -1.7161839 4288085770
13.120849 3.2741795 -1.4609052 4293729569
9.4552116 2.5598452 -1.7135755 4288085770
12.889886 3.1389475 -1.3657955 4293729569
9.8642616 2.5607104 -1.7051641 4288085770
12.883179 3.0467231 -1.2921407 4293729569
10.354403 2.5705795 -1.7048521 4288085770
12.929536 2.9615009 -1.2238935 4293729569
10.870554 2.5784445 -1.7052659 4288085770
12.963903 2.8752856 -1.1567786 4293729569
11.400681 2.5832992 -1.7035382 4288085770
12.832146 2.7590818 -1.0795435 4293729569
11.97483 2.587147 -1.7033392 4288085770
12.840514 2.6678739 -1.0127239 4293729569
12.537898 2.5809774 -1.6962893 4288085770
12.860891 2.5746651 -0.94678044 4293729569
13.176043 2.5798068 -1.6954157 4288085770
12.925314 2.4874561 -0.8843447 4293729569
13.791106 2.566622 -1.6878265 4288085770
12.928725 2.3912613 -0.82159364 4293729569
14.276002 2.5294266 -1.6657116 4288085770
12.904125 2.2920716 -0.75815326 4293729569
13.290335 2.2972107 -1.5120229 4293729569
12.920557 2.1958787 -0.69726187 4293729569
13.01247 2.1610184 -1.4264216 4293729569
13.193131 2.1296549 -0.6475206 4293729569
12.972873 2.0578332 -1.3631549 4293729569
13.491707 2.0634236 -0.59749919 4293729569
12.981347 1.9586546 -1.3063585 4293729569
13.869311 2.001178 -0.54961431 4293729569
13.159977 1.8764722 -1.262678 4293729569
13.44269 1.8012841 -1.2258551 4293729569
15.40069 1.9315221 -0.46431595 4293729569
14.144732 1.760071 -1.2164131 4293729569
15.104944 1.7328346 -1.221148 4293729569
16.072102 1.6915805 -1.2208495 4293729569
15.640739 -5.5413733 -0.33719796 4293729569
15.58516 -5.6642714 -0.3691684 4293729569
9.6278954 -5.0438566 -0.68750662 4293729569
9.4831581 -5.0626984 -0.057082519 4293729569
9.5464001 -5.1027298 -0.72556412 4293729569
9.4706802 -5.1475811 -0.097474828 4293729569
9.5519505 -5.1976089 -0.76879239 4293729569
14.296385 -7.7991428 -1.3595403 4293729569
13.532656 -7.569912 -1.3720801 4293729569
12.811913 -7.3486938 -1.3831805 4293729569
12.205225 -7.1704903 -1.4001822 4293729569
11.607508 -6.9882975 -1.4140748 4293729569
11.047785 -6.8141165 -1.4275821 4293729569
10.49403 -6.6349449 -1.4380101 4293729569
9.9322491 -6.4437809 -1.445488 4293729569
9.4264793 -6.2736263 -1.4544257 4293729569
8.9727249 -6.1224794 -1.4658602 4293729569
8.5419769 -5.9763384 -1.4770621 4293729569
8.1582546 -5.8482008 -1.4908117 4293729569
7.7564659 -5.7040758 -1.4987072 4293729569
7.3526745 -5.5549545 -1.5056096 4293729569
6.9888878 -5.4198418 -1.5131233 4293729569
11.204052 -7.7283735 -1.3776534 4293729569
6.6440887 -5.2897387 -1.5194473 4293729569
10.509348 -7.424159 -1.3902239 4293729569
6.3383484 -5.1766272 -1.531402 4293729569
9.9246922 -7.1729574 -1.4077687 4293729569
6.0085239 -5.0455332 -1.5355614 4293729569
9.4050446 -6.9477682 -1.4266914 4293729569
5.7047005 -4.9234467 -1.5394679 4293729569
8.8773251 -6.7125988 -1.4386705 4293729569
5.4449406 -4.8223534 -1.5499634 4293729569
8.4296665 -6.5164328 -1.456905 4293729569
5.1991806 -4.726263 -1.5603228 4293729569
7.986969 -6.3162775 -1.4710736 4293729569
4.9864674 -4.6451674 -1.5753719 4293729569
7.5492229 -6.1121378 -1.4811765 4293729569
4.7266273 -4.5330973 -1.5778342 4293729569
7.1474857 -5.925004 -1.4919428 4293729569
4.5038414 -4.4380188 -1.5859491 4293729569
6.768734 -5.7458811 -1.5014852 4293729569
4.278017 -4.3389521 -1.5900844 4293729569
6.4239864 -5.5807648 -1.5117037 4293729569
4.0742168 -4.2498837 -1.5970128 4293729569
6.0992336 -5.4236546 -1.5217308 4293729569
3.8764191 -4.1608152 -1.6038764 4293729569
5.8054981 -5.2815466 -1.5334688 4293729569
3.6906223 -4.0757513 -1.6106228 4293729569
5.5117302 -5.1354485 -1.5421952 4293729569
3.5108109 -3.992692 -1.6163106 4293729569
5.2359619 -4.9963551 -1.5507486 4293729569
3.335989 -3.9096384 -1.6209446 4293729569
4.9671612 -4.8572721 -1.5562268 4293729569
3.2794514 -3.8965321 -1.6535169 4293729569
4.7344055 -4.7371864 -1.5663741 4293729569
3.2269058 -3.884429 -1.6850492 4293729569
4.5126266 -4.621109 -1.5744151 4293729569
3.1994286 -3.8863144 -1.7233541 4288085770
4.3058586 -4.5110312 -1.5833124 4293729569
3.1829605 -3.8931999 -1.7625555 4288085770
4.0840282 -4.3889694 -1.5863357 4293729569
3.0883064 -3.8501177 -1.7834474 4288085770
3.8792057 -4.274909 -1.5901997 4293729569
2.9334412 -3.7650814 -1.7838603 4288085770
3.7074299 -4.1798439 -1.5987653 4293729569
