# .PCD v0.7 - Point Cloud Data file format
VERSION 0.7
FIELDS x y z rgb
SIZE 4 4 4 4
TYPE F F F U
COUNT 1 1 1 1
WIDTH 1127
HEIGHT 1
VIEWPOINT 0 0 0 1 0 0 0
POINTS 1127
DATA ascii
1.6034698 -0.23073423 -1.8237681 4288085770
2.8930511 -0.33423144 -1.8124728 4288085770
1.7396545 -0.22081363 -1.8256083 4288085770
3.0782776 -0.32373047 -1.8120096 4288085770
1.875885 -0.20891619 -1.8254266 4288085770
3.2774658 -0.31331784 -1.8137481 4288085770
2.0061493 -0.19800425 -1.8221688 4288085770
3.4926605 -0.30304253 -1.8147175 4288085770
2.1454163 -0.18617499 -1.8180306 4288085770
3.7158813 -0.29282993 -1.8158026 4288085770
2.3046112 -0.17644703 -1.8192019 4288085770
3.9561157 -0.28276247 -1.8161325 4288085770
2.4509277 -0.16469514 -1.8131642 4288085770
4.2133026 -0.27381802 -1.8177187 4288085770
2.6241608 -0.15410006 -1.8125267 4288085770
4.4785309 -0.26395905 -1.8174095 4288085770
2.8173523 -0.14464009 -1.8141887 4288085770
4.7697296 -0.25429356 -1.818475 4288085770
3.0045776 -0.13516653 -1.8127642 4288085770
5.0839539 -0.24582052 -1.8188837 4288085770
3.2546387 -0.12706661 -1.8232589 4288085770
5.4380798 -0.23760676 -1.8248689 4288085770
3.4429626 -0.11666775 -1.8158374 4288085770
5.8052979 -0.22954011 -1.8270416 4288085770
3.6801605 -0.10656571 -1.8171222 4288085770
6.2124329 -0.22276628 -1.8318024 4288085770
3.9234009 -0.097544789 -1.8155048 4288085770
6.6536255 -0.21528316 -1.8350425 4288085770
4.1886139 -0.088674664 -1.8162043 4288085770
7.145752 -0.20817959 -1.8410182 4288085770
4.4618683 -0.079912305 -1.813019 4288085770
7.724823 -0.20370543 -1.853271 4288085770
4.7690735 -0.071372747 -1.8143246 4288085770
8.3169708 -0.19740045 -1.8596897 4288085770
5.1312103 -0.063222647 -1.8204224 4288085770
8.9750977 -0.19261622 -1.8670707 4288085770
5.4983673 -0.056134105 -1.8246031 4288085770
9.6982269 -0.18735504 -1.8743775 4288085770
5.8795776 -0.048189521 -1.8259742 4288085770
10.453476 -0.18242443 -1.8751454 4288085770
6.3157501 -0.041667342 -1.8291495 4288085770
11.299683 -0.17819977 -1.8782258 4288085770
6.7919006 -0.03444922 -1.83389 4288085770
12.227005 -0.17369151 -1.8754632 4288085770
7.3430023 -0.028777719 -1.8437226 4288085770
13.302261 -0.17031634 -1.8778348 4288085770
7.9480743 -0.023520827 -1.8553331 4288085770
14.601395 -0.17066181 -1.8874588 4288085770
8.6161652 -0.018782616 -1.8658516 4288085770
9.313324 -0.013340473 -1.8707771 4288085770
10.077499 -0.0094258785 -1.8766782 4288085770
10.902725 -0.0050481558 -1.8784475 4288085770
11.794037 -0.0012571812 -1.8751676 4288085770
12.851257 0.0012930632 -1.8792889 4288085770
14.123398 0.0011588335 -1.8885071 4288085770
15.565613 0.00064003468 -1.8961632 4288085770
15.161514 0.18798494 -1.8886509 4288085770
13.747833 0.21330917 -1.8763998 4288085770
12.577072 0.23673058 -1.87043 4288085770
11.579269 0.25878477 -1.8677971 4288085770
10.68544 0.27901125 -1.8665819 4288085770
9.9335632 0.29913843 -1.8702719 4288085770
9.2077789 0.31799591 -1.8683267 4288085770
15.731155 0.40526378 -1.8807254 4288085770
8.5190582 0.33548486 -1.8598945 4288085770
14.240479 0.42616069 -1.8635087 4288085770
7.8933258 0.35247254 -1.8523138 4288085770
13.049652 0.44778395 -1.8613057 4288085770
7.2926636 0.36819839 -1.8390837 4288085770
12.004852 0.46720302 -1.8570848 4288085770
6.730011 0.38361096 -1.8253682 4288085770
11.111023 0.48642969 -1.855891 4288085770
6.2502899 0.39840472 -1.8167717 4288085770
10.336136 0.50575125 -1.8602915 4288085770
5.8345337 0.41374171 -1.8140278 4288085770
9.6192932 0.52355814 -1.8604875 4288085770
5.4477692 0.42882669 -1.8096762 4288085770
9.0074005 0.54157102 -1.8660884 4288085770
5.1039734 0.44360065 -1.8089044 4288085770
8.3626709 0.55771065 -1.8582704 4288085770
4.7751923 0.45723438 -1.8063467 4288085770
7.7569427 0.57150793 -1.8480015 4288085770
4.4863892 0.47258091 -1.807307 4288085770
7.1873016 0.58597708 -1.8342094 4288085770
4.2065735 0.48683441 -1.8064005 4288085770
6.6616364 0.59808552 -1.8200324 4288085770
3.9348145 0.49999344 -1.8026137 4288085770
6.194931 0.61075532 -1.8096402 4288085770
3.6740723 0.51305401 -1.797976 4288085770
5.8051605 0.62487483 -1.8062634 4288085770
3.4652252 0.52878439 -1.8020062 4288085770
5.4443665 0.63976324 -1.8032682 4288085770
3.2364502 0.54158998 -1.797801 4288085770
5.1006012 0.65350616 -1.7995131 4288085770
3.0466156 0.55615914 -1.8010988 4288085770
4.8127899 0.66784525 -1.8005011 4288085770
2.8518524 0.56870449 -1.798352 4288085770
4.5579376 0.68395197 -1.8049123 4288085770
2.6820221 0.58310378 -1.8009202 4288085770
4.2682037 0.69723356 -1.7988873 4288085770
2.5241699 0.5974071 -1.8036506 4288085770
4.0283966 0.71117961 -1.7995238 4288085770
2.3773499 0.61263359 -1.807519 4288085770
3.7856293 0.72510731 -1.7961216 4288085770
2.2325439 0.62682283 -1.8094254 4288085770
3.5498657 0.73796928 -1.7918251 4288085770
2.086731 0.64100933 -1.8103192 4288085770
3.3580627 0.75253308 -1.7930987 4288085770
1.9499359 0.6541146 -1.8103449 4288085770
3.1622772 0.76610792 -1.79233 4288085770
1.8181305 0.66817904 -1.8104281 4288085770
2.9854736 0.78054154 -1.7928069 4288085770
1.682373 0.68125558 -1.8084688 4288085770
2.8146667 0.79492748 -1.7933648 4288085770
1.5665741 0.69620323 -1.8097572 4288085770
2.6588593 0.8101939 -1.7941146 4288085770
1.4637299 0.71106863 -1.8132203 4288085770
2.5210419 0.82634866 -1.7980955 4288085770
1.3479767 0.7239852 -1.8115311 4288085770
2.3832245 0.84149277 -1.8010876 4288085770
1.2391815 0.73785675 -1.8109257 4288085770
2.2693634 0.85948694 -1.8083706 4288085770
1.1443787 0.75263727 -1.8124979 4288085770
2.1206207 0.87163532 -1.8032489 4288085770
1.0466003 0.7664212 -1.8120408 4288085770
2.000824 0.88661516 -1.8044844 4288085770
1.8840485 0.90156043 -1.8047607 4288085770
1.7652435 0.91551173 -1.8040214 4288085770
1.6435242 0.9294554 -1.8002429 4288085770
1.5397491 0.94428647 -1.799695 4288085770
1.4339752 0.95912349 -1.7981212 4288085770
1.350174 0.97482717 -1.8008318 4288085770
1.2584229 0.99056256 -1.8004355 4288085770
1.1736298 1.0062531 -1.8011336 4288085770
1.0958405 1.0218879 -1.8019257 4288085770
1.0150757 1.0375363 -1.8016779 4288085770
0.99919128 3.1769533 -1.7524886 4288085770
1.1038055 3.2391334 -1.7552083 4288085770
1.2154236 3.3042464 -1.7569897 4288085770
1.3080139 3.3564501 -1.7526543 4288085770
1.4286652 3.423491 -1.7545333 4288085770
1.5522919 3.4905081 -1.7564516 4288085770
1.6739502 3.5555105 -1.7553639 4288085770
1.8096313 3.6264215 -1.7563987 4288085770
1.9302826 3.6874003 -1.7523386 4288085770
2.0910187 3.7691417 -1.7565889 4288085770
1.0426331 3.2326279 -1.7594166 4288085770
2.2267456 3.83499 -1.7516747 4288085770
1.1541901 3.2847114 -1.7583308 4288085770
2.3934937 3.9156528 -1.7530141 4288085770
1.2747498 3.3397431 -1.7593322 4288085770
2.5622864 3.9972897 -1.7533689 4288085770
1.3963013 3.3937559 -1.7593572 4288085770
2.7520752 4.0867877 -1.7569175 4288085770
1.520874 3.4477248 -1.7574213 4288085770
2.9348907 4.1703019 -1.7564354 4288085770
1.6624603 3.5096097 -1.7606261 4288085770
3.1387482 4.2636776 -1.7591264 4288085770
1.7990723 3.5674915 -1.7598064 4288085770
3.3475952 4.3570042 -1.7608829 4288085770
1.9376373 3.6223593 -1.7590435 4288085770
3.5454407 4.4413567 -1.756587 4288085770
2.0782471 3.6771789 -1.7553067 4288085770
3.8024139 4.5553384 -1.7627583 4288085770
2.244873 3.7438631 -1.7587879 4288085770
4.0734253 4.6742206 -1.7700613 4288085770
2.4065247 3.8065462 -1.7582443 4288085770
4.3294067 4.7801495 -1.7703009 4288085770
2.6021881 3.8840294 -1.764993 4288085770
4.6024475 4.8929524 -1.7716911 4288085770
2.7658234 3.9416661 -1.7615263 4288085770
4.8734589 5.000741 -1.7701063 4288085770
2.9314575 3.9982758 -1.7570963 4288085770
5.1705475 5.1193419 -1.7707493 4288085770
3.1311646 4.0706754 -1.7589476 4288085770
5.5077057 5.2536516 -1.7747533 4288085770
3.3058014 4.1272025 -1.7536352 4288085770
5.8178406 5.3701077 -1.7715867 4288085770
3.5164948 4.1985044 -1.7546406 4288085770
6.180069 5.5092082 -1.7748668 4288085770
3.739212 4.2737198 -1.7567623 4288085770
6.5583191 5.6511602 -1.7763252 4288085770
3.9929657 4.3617282 -1.7631569 4288085770
6.9546661 5.7979579 -1.776968 4288085770
4.2347107 4.4397707 -1.7634964 4288085770
7.3920441 5.957448 -1.7800155 4288085770
4.4954834 4.5226927 -1.7670331 4288085770
7.8715515 6.1346207 -1.7854285 4288085770
4.7562561 4.6025844 -1.7676005 4288085770
8.4773407 6.3659196 -1.8049307 4288085770
5.0390472 4.6903291 -1.7713735 4288085770
8.9628601 6.5309634 -1.8025436 4288085770
5.3538971 4.7888503 -1.7784531 4288085770
9.5856934 6.7550335 -1.8133385 4288085770
5.6486969 4.8724694 -1.7794235 4288085770
10.123291 6.9296398 -1.8095293 4288085770
5.9755707 4.9668527 -1.7827003 4288085770
10.70607 7.1188755 -1.8051562 4288085770
6.3264465 5.0680752 -1.7892194 4288085770
11.397018 7.3503494 -1.8117573 4288085770
6.6372528 5.1455145 -1.7854595 4288085770
12.063934 7.5599031 -1.8072686 4288085770
6.9721069 5.229784 -1.7839415 4288085770
12.828049 7.8037395 -1.8096917 4288085770
7.345993 5.3267803 -1.7868009 4288085770
7.7378998 5.4256339 -1.789875 4288085770
8.1959076 5.5470209 -1.7995775 4288085770
8.6849518 5.6761708 -1.8106041 4288085770
9.0487823 5.7431259 -1.8016362 4288085770
9.5177612 5.8503537 -1.8046236 4288085770
9.9486389 5.9348135 -1.8003476 4288085770
10.419601 6.0289731 -1.798492 4288085770
10.968643 6.1455717 -1.8034215 4288085770
11.575729 6.2777567 -1.8139453 4288085770
12.137741 6.385221 -1.8161345 4288085770
12.736786 6.495379 -1.8177762 4288085770
13.366852 6.6082878 -1.8197918 4288085770
14.030899 6.7249579 -1.8252099 4288085770
14.707932 6.8364916 -1.8278475 4288085770
15.42601 6.955719 -1.8329377 4288085770
15.690491 -2.563622 -1.939415 4288085770
15.095184 -2.604768 -1.9421256 4288085770
14.455063 -2.6296072 -1.9390914 4288085770
13.835983 -2.6506352 -1.9342916 4288085770
13.341705 -2.6825683 -1.9402165 4288085770
12.866455 -2.711643 -1.9473586 4288085770
12.424164 -2.7399712 -1.9559205 4288085770
11.902191 -2.7467544 -1.9542332 4288085770
11.319473 -2.736155 -1.9415851 4288085770
10.710953 -2.71241 -1.9224701 4288085770
10.2052 -2.7013946 -1.9138138 4288085770
9.7373962 -2.6926515 -1.9086716 4288085770
9.3175354 -2.6872716 -1.9061837 4288085770
8.8848114 -2.6718287 -1.8994274 4288085770
15.251175 -4.1431646 -1.950531 4288085770
8.4909821 -2.6626563 -1.897239 4288085770
14.479675 -4.0798726 -1.9529126 4288085770
8.0663452 -2.6392992 -1.8885081 4288085770
13.743195 -4.0168705 -1.9547498 4288085770
7.6826324 -2.6212482 -1.8823605 4288085770
13.060684 -3.9562998 -1.9573097 4288085770
7.2999878 -2.5972166 -1.8751664 4288085770
12.348389 -3.8795738 -1.9513216 4288085770
6.9702301 -2.5825663 -1.8727508 4288085770
11.69104 -3.8082652 -1.9480989 4288085770
6.6275482 -2.5598431 -1.8670874 4288085770
11.008896 -3.7228303 -1.9374135 4288085770
6.3347321 -2.5444679 -1.8671429 4288085770
10.414612 -3.6500664 -1.9309914 4288085770
6.0439758 -2.5271189 -1.8662052 4288085770
9.8064728 -3.5672536 -1.9182894 4288085770
5.7562561 -2.505815 -1.8632667 4288085770
9.3040314 -3.5051832 -1.9171636 4288085770
5.4815216 -2.4856045 -1.8615077 4288085770
8.8136444 -3.4422393 -1.9131856 4288085770
5.2466583 -2.4736612 -1.8653483 4288085770
8.3482666 -3.3785057 -1.9085226 4288085770
4.9670563 -2.4434628 -1.8584254 4288085770
7.8829803 -3.3098035 -1.9008105 4288085770
4.7352753 -2.4255648 -1.8602455 4288085770
7.4556274 -3.2463837 -1.8956428 4288085770
4.5075378 -2.4047191 -1.8600879 4288085770
7.0283661 -3.1770053 -1.8864157 4288085770
4.2768097 -2.3818605 -1.8588719 4288085770
6.6529083 -3.1199908 -1.8829844 4288085770
4.0660706 -2.3601508 -1.8589258 4288085770
6.299469 -3.0651512 -1.8798592 4288085770
3.8453979 -2.3343925 -1.8558114 4288085770
5.9620056 -3.0104394 -1.8769429 4288085770
3.6386871 -2.3097258 -1.854888 4288085770
5.6236267 -2.9507508 -1.8709636 4288085770
3.4429932 -2.2851572 -1.8531077 4288085770
5.3540039 -2.9105301 -1.8740697 4288085770
3.2443542 -2.2575746 -1.8502588 4288085770
5.0883789 -2.8683414 -1.877208 4288085770
3.0725861 -2.2371662 -1.8518305 4288085770
4.7989502 -2.8150442 -1.8719265 4288085770
2.902832 -2.2147741 -1.8534081 4288085770
4.5265045 -2.7628722 -1.8678758 4288085770
2.7192383 -2.1843324 -1.8487251 4288085770
4.2610779 -2.710777 -1.8619168 4288085770
2.5555267 -2.1600194 -1.8473616 4288085770
4.0175781 -2.6628261 -1.8592834 4288085770
2.4067535 -2.1387844 -1.8502223 4288085770
3.7950134 -2.6190226 -1.8589621 4288085770
2.2510834 -2.1125352 -1.848943 4288085770
3.569519 -2.5722258 -1.8555729 4288085770
2.1033783 -2.0873501 -1.8477776 4288085770
3.3460693 -2.5234656 -1.8501906 4288085770
1.9507599 -2.0591457 -1.8445182 4288085770
3.1524811 -2.4828935 -1.8502769 4288085770
1.8279419 -2.0391085 -1.8487267 4288085770
2.9619141 -2.4413555 -1.8493927 4288085770
1.6883087 -2.0119975 -1.8466463 4288085770
2.7912903 -2.4049563 -1.8508177 4288085770
1.5536346 -1.9849262 -1.8446307 4288085770
2.5918427 -2.3564086 -1.8437483 4288085770
1.42099 -1.956882 -1.8416314 4288085770
2.4352112 -2.3211215 -1.8453658 4288085770
1.3102112 -1.9359505 -1.8449874 4288085770
2.2905121 -2.2879086 -1.8491588 4288085770
1.1905518 -1.9089991 -1.8431668 4288085770
2.131958 -2.248647 -1.8467114 4288085770
1.0986786 -1.8931782 -1.8508179 4288085770
1.9833374 -2.2114444 -1.8464136 4288085770
0.98997498 -1.8682945 -1.85116 4288085770
1.8248749 -2.1682134 -1.8409271 4288085770
1.6922302 -2.1341383 -1.8408673 4288085770
1.5755157 -2.1041498 -1.8450541 4288085770
1.4360046 -2.0630603 -1.8408341 4288085770
1.3183289 -2.031095 -1.8419895 4288085770
1.2106476 -2.0011988 -1.8442941 4288085770
1.1039581 -1.9693105 -1.8465915 4288085770
0.99633789 -1.9364455 -1.8458667 4288085770
1.0031586 0.1267966 -1.8150039 4288085770
1.1143188 0.13691008 -1.8172975 4288085770
1.2255402 0.14799285 -1.8165812 4288085770
1.3318024 0.15909493 -1.8138013 4288085770
1.4480286 0.17012751 -1.8121476 4288085770
1.5792389 0.18006039 -1.8126945 4288085770
1.7213898 0.18993521 -1.8163798 4288085770
1.8745728 0.20071173 -1.8191946 4288085770
0.99975586 0.22984219 -1.8198619 4288085770
2.0008545 0.21062315 -1.8136771 4288085770
1.1069641 0.23894691 -1.8181143 4288085770
2.1341248 0.22046804 -1.8072486 4288085770
1.2221832 0.24698746 -1.816478 4288085770
2.2803802 0.23023927 -1.8039839 4288085770
1.3354187 0.25603354 -1.8138061 4288085770
2.4476013 0.24087274 -1.8039746 4288085770
1.4855194 0.26387513 -1.820612 4288085770
2.6307831 0.25038826 -1.8051784 4288085770
1.6087799 0.27283108 -1.8170664 4288085770
2.8220062 0.25982964 -1.8054826 4288085770
1.7629242 0.28059959 -1.8199227 4288085770
3.0042725 0.26929188 -1.8006732 4288085770
1.907135 0.28840792 -1.8186524 4288085770
3.2164612 0.27856445 -1.8012428 4288085770
2.0553436 0.29517341 -1.8164427 4288085770
3.4526367 0.2876755 -1.8051159 4288085770
2.1945953 0.30297017 -1.8101087 4288085770
3.6708984 0.2968384 -1.7997613 4288085770
2.3588257 0.30959737 -1.807101 4288085770
3.9360962 0.30570686 -1.8030007 4288085770
2.542984 0.31610501 -1.8083463 4288085770
4.2212524 0.31441438 -1.8064928 4288085770
2.7331696 0.32255423 -1.8086665 4288085770
4.5174561 0.32301342 -1.8081236 4288085770
2.9233856 0.32897317 -1.8059869 4288085770
4.8366241 0.33142793 -1.8100452 4288085770
3.1345825 0.33424389 -1.8055828 4288085770
5.1608429 0.33977151 -1.8090298 4288085770
3.3547821 0.34044242 -1.8052819 4288085770
5.5480042 0.34766114 -1.8138108 4288085770
3.5979156 0.34546638 -1.8062813 4288085770
5.9552002 0.35538018 -1.8178439 4288085770
3.8680878 0.35029459 -1.8096223 4288085770
6.3983765 0.36379981 -1.8213222 4288085770
4.1412659 0.35505748 -1.8090007 4288085770
6.9014893 0.3707794 -1.8295684 4288085770
4.4224548 0.35874653 -1.8074901 4288085770
7.5085144 0.37899613 -1.8461089 4288085770
4.7416077 0.36216092 -1.8094592 4288085770
8.124649 0.3860693 -1.8557725 4288085770
5.063797 0.36552107 -1.8084657 4288085770
8.7987671 0.39266706 -1.865169 4288085770
5.4568787 0.36838269 -1.8153694 4288085770
9.4899445 0.39806688 -1.8687897 4288085770
5.8520203 0.36917794 -1.817318 4288085770
10.231186 0.40200484 -1.8670521 4288085770
6.2971344 0.37059188 -1.8218882 4288085770
11.082397 0.40609109 -1.8696935 4288085770
6.7972107 0.37159562 -1.830152 4288085770
11.959717 0.40787721 -1.8636832 4288085770
7.3761749 0.37102675 -1.8454239 4288085770
13.054886 0.41000593 -1.8694072 4288085770
7.9822235 0.3701905 -1.8560359 4288085770
14.275085 0.41009164 -1.8727198 4288085770
8.6502533 0.36684692 -1.8664513 4288085770
15.829163 0.4106003 -1.8902225 4288085770
9.3513031 0.36219728 -1.8732922 4288085770
10.084442 0.35522008 -1.8735571 4288085770
10.883591 0.34569311 -1.8726749 4288085770
11.771729 0.33443189 -1.8709261 4288085770
12.811798 0.31999218 -1.8751161 4288085770
14.013824 0.30224311 -1.8803711 4288085770
15.537689 0.28001273 -1.8997111 4288085770
6.2463074 -4.8959861 -0.26580903 4293729569
6.2554626 -4.830667 -0.30525371 4293729569
6.2725525 -4.7694111 -0.34483761 4293729569
6.3295441 -4.7244859 -0.38407743 4293729569
14.778427 -5.9825187 -1.6045034 4293729569
14.757446 -5.8351202 -1.6267393 4293729569
14.922836 -5.7441096 -1.6628368 4293729569
15.829712 -5.8805213 -1.7643456 4293729569
15.090302 -5.507916 -1.7184746 4293729569
15.551819 -5.5001159 -1.7760508 4293729569
15.466187 -5.3303275 -1.7842653 4293729569
15.312576 -5.1607008 -0.8155362 4293729569
15.396515 -5.1666765 -1.7917378 4293729569
15.334839 -5.0051103 -1.7973301 4293729569
15.191483 -4.8219757 -1.7927003 4293729569
15.175644 -4.6757679 -1.8000116 4293729569
15.33139 -4.56984 -1.8198371 4293729569
15.438293 -4.4515691 -1.8339374 4293729569
15.871277 -4.4096913 -1.8758142 4293729569
15.899628 0.49535382 -1.8883045 4288085770
14.517136 0.541484 -1.8723233 4288085770
13.416519 0.58444381 -1.8697424 4288085770
12.41893 0.62351561 -1.8624313 4288085770
11.552261 0.66157269 -1.8606956 4288085770
10.813553 0.69661963 -1.8625188 4288085770
10.143875 0.73009241 -1.8631825 4288085770
9.5561218 0.76393354 -1.8678226 4288085770
8.9914398 0.79353154 -1.86678 4288085770
15.058929 1.1108147 -1.8449883 4288085770
8.3978424 0.81926525 -1.8554313 4288085770
13.903214 1.1321491 -1.8349741 4288085770
7.8631897 0.8435334 -1.8458021 4288085770
13.023392 1.1593806 -1.8401952 4288085770
7.411499 0.86817324 -1.8411601 4288085770
12.221588 1.1859745 -1.8453553 4288085770
6.9169006 0.88806117 -1.8260531 4288085770
11.384872 1.2037026 -1.835187 4288085770
6.5132599 0.91028559 -1.8190095 4288085770
10.735077 1.2270342 -1.8381948 4288085770
6.1395721 0.93126786 -1.8123367 4288085770
10.159256 1.2527899 -1.8440628 4288085770
5.7938995 0.95303619 -1.8069906 4288085770
9.6004639 1.2743598 -1.8451757 4288085770
5.4841614 0.9745332 -1.8040774 4288085770
9.070694 1.2956668 -1.8436384 4288085770
5.2044525 0.99679816 -1.8025146 4288085770
8.4610443 1.305461 -1.8252623 4288085770
4.949707 1.0188731 -1.8022525 4288085770
8.0013123 1.3241755 -1.8215873 4288085770
4.7159729 1.041788 -1.8032329 4288085770
7.5655975 1.3416771 -1.816211 4288085770
4.4992218 1.0645763 -1.8054178 4288085770
7.1698303 1.3588668 -1.8123155 4288085770
4.2595215 1.0824717 -1.7993772 4288085770
6.7971191 1.3768517 -1.8066871 4288085770
4.043808 1.1022021 -1.7966051 4288085770
6.4563751 1.3935987 -1.803453 4288085770
3.8640442 1.124683 -1.7982352 4288085770
6.1216583 1.4092585 -1.7963016 4288085770
3.6553802 1.1423088 -1.7905684 4288085770
5.8299255 1.4266011 -1.7926466 4288085770
3.4886475 1.1616658 -1.7903848 4288085770
5.5671692 1.4457306 -1.7913203 4288085770
3.3368835 1.1839205 -1.792352 4288085770
5.3214417 1.4657224 -1.7901888 4288085770
3.1691895 1.2022461 -1.7881677 4288085770
5.1036682 1.486519 -1.792383 4288085770
3.0344086 1.2233645 -1.7903492 4288085770
4.8829193 1.5052999 -1.7905617 4288085770
2.913681 1.2463704 -1.7926793 4288085770
4.6921844 1.5268694 -1.7920709 4288085770
2.7799377 1.2654513 -1.7918935 4288085770
4.4784546 1.5435647 -1.7873547 4288085770
2.6641693 1.2874175 -1.7942936 4288085770
4.2767334 1.5601546 -1.7817826 4288085770
2.559433 1.310294 -1.7968166 4288085770
4.0860443 1.5776645 -1.7773333 4288085770
2.4626617 1.3341261 -1.8014252 4288085770
3.9163055 1.5960158 -1.7741258 4288085770
2.3649139 1.3559469 -1.8040423 4288085770
3.7615662 1.6152662 -1.7730887 4288085770
2.2741699 1.3797113 -1.8067238 4288085770
3.6148529 1.6354424 -1.7711377 4288085770
2.1455078 1.3946644 -1.7970397 4288085770
3.482132 1.6575252 -1.7713354 4288085770
2.0328064 1.4115273 -1.791528 4288085770
3.3613892 1.6805211 -1.7726667 4288085770
1.9710541 1.4391073 -1.7995176 4288085770
3.2306671 1.7005683 -1.7709084 4288085770
1.8673553 1.4568876 -1.7931042 4288085770
3.1049652 1.720565 -1.7682106 4288085770
1.7956238 1.4804991 -1.7960145 4288085770
2.9972534 1.7434367 -1.767699 4288085770
1.7089233 1.5001727 -1.7927852 4288085770
2.9025421 1.7682232 -1.7693231 4288085770
1.6381836 1.5227567 -1.7937179 4288085770
2.7988129 1.7890528 -1.7678797 4288085770
1.5475006 1.5394334 -1.7874706 4288085770
2.7210999 1.8167223 -1.7716784 4288085770
1.4947662 1.5659009 -1.7915795 4288085770
2.6203918 1.8375181 -1.7692716 4288085770
1.431076 1.5884184 -1.7915969 4288085770
2.5506897 1.8651232 -1.7731664 4288085770
1.3653564 1.6099328 -1.7896001 4288085770
2.469986 1.8897771 -1.7729599 4288085770
1.3136444 1.6343728 -1.7917414 4288085770
2.3912964 1.9133955 -1.7707875 4288085770
1.2539368 1.656839 -1.7898071 4288085770
2.3216095 1.9389709 -1.771703 4288085770
1.1972504 1.6792907 -1.7889087 4288085770
2.240921 1.9615959 -1.768517 4288085770
1.1595154 1.7076372 -1.7931786 4288085770
2.1812439 1.9890908 -1.7695332 4288085770
1.1058502 1.7300454 -1.7903168 4288085770
2.1265411 2.0175462 -1.7705994 4288085770
1.0691528 1.7573646 -1.792609 4288085770
2.0698853 2.0440068 -1.7706614 4288085770
1.0184479 1.7797581 -1.7907832 4288085770
2.0112 2.0704737 -1.7697001 4288085770
1.9585419 2.0988927 -1.768791 4288085770
1.9128723 2.1282744 -1.7699556 4288085770
1.867218 2.1566372 -1.7691305 4288085770
1.8225555 2.1849918 -1.7683175 4288085770
1.7679443 2.2103877 -1.7634149 4288085770
1.7262878 2.2397084 -1.7616284 4288085770
1.6966553 2.2719612 -1.7629557 4288085770
1.6670227 2.3041945 -1.7622836 4288085770
1.642395 2.338407 -1.7636511 4288085770
1.6087952 2.3696532 -1.7609415 4288085770
1.5891724 2.4048162 -1.7613597 4288085770
1.5565643 2.4350448 -1.7576718 4288085770
1.5459747 2.4731441 -1.7591684 4288085770
1.5243683 2.5062938 -1.7565825 4288085770
1.4907837 2.5355005 -1.7498934 4288085770
1.4892273 2.5775275 -1.7514586 4288085770
1.4976501 2.6245031 -1.756094 4288085770
1.4900818 2.6635594 -1.7556174 4288085770
1.4685364 2.6956697 -1.7490423 4288085770
1.4759827 2.7416239 -1.7506762 4288085770
1.4804535 2.7845826 -1.7503035 4288085770
1.4919281 2.8325052 -1.7519658 4288085770
1.4944153 2.8744507 -1.7485797 4288085770
1.51091 2.9243321 -1.7502823 4288085770
1.5254211 2.9722004 -1.7489805 4288085770
1.5449524 3.0230479 -1.7497089 4288085770
1.5764771 3.0798182 -1.7525222 4288085770
1.6020203 3.1326075 -1.7523029 4288085770
1.6345825 3.1903505 -1.7531185 4288085770
1.6711731 3.2500606 -1.753962 4288085770
1.7077637 3.3097606 -1.7538059 4288085770
1.7443695 3.3684521 -1.7526593 4288085770
1.7949982 3.4350591 -1.7546017 4288085770
1.8436584 3.5006623 -1.7545302 4288085770
1.8923187 3.566246 -1.7524586 4288085770
1.9479828 3.6357923 -1.7524312 4288085770
2.0076904 3.7072978 -1.7514319 4288085770
2.0774231 3.7847404 -1.7524934 4288085770
2.1421509 3.8581948 -1.7505343 4288085770
1.003418 3.2864962 -1.7566817 4288085770
2.2219238 3.9405475 -1.7506661 4288085770
1.06604 3.3530068 -1.7587671 4288085770
2.3117371 4.0288386 -1.7528582 4288085770
1.1236725 3.4155273 -1.7578321 4288085770
2.4045715 4.1190867 -1.7530665 4288085770
1.1933289 3.485991 -1.760962 4288085770
2.5074615 4.2152724 -1.7553356 4288085770
1.2670135 3.5584025 -1.76212 4288085770
2.6093445 4.3104372 -1.7546022 4288085770
1.3296967 3.6218543 -1.7582347 4288085770
2.7362976 4.4204493 -1.7590201 4288085770
1.4104004 3.6982093 -1.7594371 4288085770
2.863266 4.5304413 -1.7614381 4288085770
1.4841156 3.7675819 -1.7566242 4288085770
2.9973145 4.6433678 -1.7629097 4288085770
1.5748749 3.8488564 -1.7578967 4288085770
3.1263275 4.753305 -1.7613513 4288085770
1.6546173 3.9201612 -1.7531354 4288085770
3.2824402 4.8800712 -1.7649481 4288085770
1.763443 4.0113091 -1.7565241 4288085770
3.4486084 5.0127378 -1.7666056 4288085770
1.8892975 4.1123486 -1.7630172 4288085770
3.6057739 5.1384397 -1.7642241 4288085770
1.9871368 4.1925082 -1.7583821 4288085770
3.7820129 5.2760053 -1.7639513 4288085770
2.1330719 4.3053956 -1.765996 4288085770
3.962265 5.4145198 -1.7617164 4288085770
2.2489624 4.3964295 -1.7634676 4288085770
4.1515961 5.5579529 -1.7585397 4288085770
2.3979187 4.5082631 -1.7681265 4288085770
4.3700256 5.7191787 -1.758532 4288085770
2.5509186 4.6210461 -1.770823 4288085770
4.6165771 5.8982096 -1.7616816 4288085770
2.694931 4.7268538 -1.7684808 4288085770
4.8671417 6.0771775 -1.7618787 4288085770
2.8670044 4.8504925 -1.7722957 4288085770
5.164917 6.2868147 -1.7673321 4288085770
3.023056 4.9601822 -1.7680569 4288085770
5.4727173 6.50035 -1.7708652 4288085770
3.2032013 5.0857282 -1.7689469 4288085770
5.8267517 6.7435427 -1.7776523 4288085770
3.3873444 5.2102122 -1.7668941 4288085770
6.1517029 6.9638739 -1.7743192 4288085770
3.5775452 5.3376279 -1.7628832 4288085770
6.5268402 7.2158489 -1.7762675 4288085770
3.8068542 5.4898052 -1.7670915 4288085770
6.9471893 7.4944801 -1.7804873 4288085770
4.0301819 5.6339736 -1.7653062 4288085770
7.3766174 7.7759972 -1.7807841 4288085770
4.2685547 5.7870226 -1.7636113 4288085770
4.5249786 5.9479432 -1.7640514 4288085770
4.8326263 6.1415014 -1.7697759 4288085770
5.1472626 6.3359814 -1.7735729 4288085770
5.4950562 6.5482168 -1.7795861 4288085770
5.8428802 6.7563925 -1.7796376 4288085770
6.2207947 6.9803467 -1.781889 4288085770
6.6278534 7.2190638 -1.784338 4288085770
7.0409088 7.456706 -1.7838669 4288085770
7.4911346 7.713048 -1.7836494 4288085770
8.0467377 8.0326481 -1.795054 4288085770
15.921463 -1.2707555 -1.9386148 4288085770
15.068161 -1.3121047 -1.9400172 4288085770
14.023315 -1.3291953 -1.9169483 4288085770
13.217209 -1.3549743 -1.9117563 4288085770
12.551987 -1.3837675 -1.9152415 4288085770
11.998657 -1.4153516 -1.9270632 4288085770
11.334656 -1.4292408 -1.9214218 4288085770
10.644836 -1.4330087 -1.9073822 4288085770
10.073883 -1.4426117 -1.9027889 4288085770
9.5758667 -1.4537359 -1.9030635 4288085770
16.051971 -2.281045 -1.9215851 4288085770
9.0479584 -1.4566889 -1.8969116 4288085770
15.028244 -2.2490778 -1.921303 4288085770
8.5371399 -1.4547921 -1.8889134 4288085770
13.97876 -2.2030292 -1.9085867 4288085770
8.0483551 -1.4500837 -1.8791468 4288085770
13.122025 -2.1713634 -1.9082618 4288085770
7.614502 -1.4487585 -1.8740551 4288085770
12.38913 -2.1505802 -1.9164894 4288085770
7.1936646 -1.4445428 -1.8680887 4288085770
11.79808 -2.1408281 -1.9324801 4288085770
6.8078156 -1.4405859 -1.8635342 4288085770
10.933823 -2.0823255 -1.9088132 4288085770
6.4579315 -1.4378763 -1.8624122 4288085770
10.233292 -2.0419641 -1.8992338 4288085770
6.1110992 -1.4322191 -1.8582983 4288085770
9.7054443 -2.0217931 -1.9058657 4288085770
5.7882538 -1.4257265 -1.856457 4288085770
9.1128235 -1.9862406 -1.8995948 4288085770
5.5252533 -1.4266263 -1.8623865 4288085770
8.6200562 -1.9613872 -1.901593 4288085770
5.1965332 -1.4131563 -1.8534107 4288085770
8.1114655 -1.9264889 -1.8953106 4288085770
4.9097443 -1.4029593 -1.849957 4288085770
7.548111 -1.8782856 -1.8762631 4288085770
4.6738281 -1.4000955 -1.8531675 4288085770
7.0765839 -1.8407102 -1.8663895 4288085770
4.4010773 -1.386026 -1.847841 4288085770
6.6729126 -1.8115981 -1.8633902 4288085770
4.1732178 -1.379253 -1.848109 4288085770
6.308197 -1.7857656 -1.8628771 4288085770
3.9384308 -1.367456 -1.8452485 4288085770
5.9505157 -1.7570063 -1.860419 4288085770
3.7056885 -1.3536934 -1.8403931 4288085770
5.6407318 -1.7345763 -1.862581 4288085770
3.50383 -1.3441103 -1.8419387 4288085770
5.315094 -1.7060819 -1.8585002 4288085770
3.3239288 -1.3376766 -1.8457716 4288085770
5.0223846 -1.6808115 -1.8578351 4288085770
3.1161957 -1.3231062 -1.8412013 4288085770
4.728714 -1.6535629 -1.8541403 4288085770
2.9303894 -1.3106754 -1.8399081 4288085770
4.4669952 -1.6285205 -1.8548398 4288085770
2.7446136 -1.2962545 -1.8375964 4288085770
4.1824036 -1.5973896 -1.846215 4288085770
2.5877686 -1.2860166 -1.8396628 4288085770
3.9407043 -1.5725201 -1.8451505 4288085770
2.4239655 -1.2737546 -1.8386288 4288085770
3.707016 -1.5467317 -1.8421712 4288085770
2.2601929 -1.2595025 -1.8365762 4288085770
3.4922638 -1.5240598 -1.8424432 4288085770
2.1213379 -1.2483934 -1.8398449 4288085770
3.2815857 -1.4994377 -1.8407438 4288085770
1.9805145 -1.2362884 -1.8410811 4288085770
3.0848541 -1.4759138 -1.8402183 4288085770
1.840744 -1.2222106 -1.8403111 4288085770
2.8911743 -1.4514319 -1.8377194 4288085770
1.6979828 -1.2071294 -1.837497 4288085770
2.7213898 -1.4310956 -1.8395395 4288085770
1.5821228 -1.1961966 -1.8410361 4288085770
2.5397186 -1.4067154 -1.8361821 4288085770
1.4384308 -1.177137 -1.8351734 4288085770
2.371994 -1.3834236 -1.8349984 4288085770
2.2033386 -1.3591528 -1.8307943 4288085770
2.0575714 -1.3380108 -1.8318875 4288085770
1.932724 -1.3219806 -1.8382738 4288085770
1.789032 -1.2988825 -1.8363726 4288085770
1.6572876 -1.2778569 -1.8366311 4288085770
1.5265503 -1.2568486 -1.8359017 4288085770
1.4018402 -1.2348965 -1.8342333 4288085770
1.4142609 0.72433197 -1.8003452 4288085770
1.5424652 0.73634541 -1.8016775 4288085770
1.6706848 0.74833906 -1.8010092 4288085770
1.8109131 0.76025045 -1.8014774 4288085770
1.9571075 0.77211607 -1.8020141 4288085770
2.1033478 0.78396213 -1.8005505 4288085770
2.2685394 0.79569113 -1.8023028 4288085770
2.4148102 0.8054992 -1.7968571 4288085770
1.4652863 0.74389446 -1.7986579 4288085770
2.5810547 0.81617343 -1.7936299 4288085770
1.6194153 0.75375664 -1.8053038 4288085770
2.7473145 0.82582843 -1.7884119 4288085770
1.7645569 0.76163924 -1.8068657 4288085770
2.9375305 0.83634698 -1.7884569 4288085770
1.8957825 0.76757252 -1.8022866 4288085770
3.1447449 0.84773505 -1.7886858 4288085770
2.0419922 0.77441871 -1.8008683 4288085770
3.3928833 0.86188591 -1.797353 4288085770
2.2011719 0.78117597 -1.8005979 4288085770
3.5871887 0.87028754 -1.7884612 4288085770
2.3643341 0.78690183 -1.8003821 4288085770
3.8333588 0.88139617 -1.7911327 4288085770
2.5684662 0.79639041 -1.8085945 4288085770
4.0935822 0.89237845 -1.7919633 4288085770
2.7306671 0.80007589 -1.8033855 4288085770
4.379776 0.90518963 -1.7960701 4288085770
2.8889008 0.80176365 -1.7951493 4288085770
4.6829834 0.91685116 -1.7983794 4288085770
3.0980377 0.80815613 -1.7974458 4288085770
4.9732208 0.92556512 -1.7955682 4288085770
3.3022308 0.81154954 -1.7957129 4288085770
5.3104095 0.9369663 -1.7982631 4288085770
3.5164185 0.81486547 -1.7940938 4288085770
5.6766205 0.94713604 -1.8002968 4288085770
3.7455902 0.81806648 -1.7926445 4288085770
6.0717926 0.95910203 -1.8046403 4288085770
4.001709 0.82210839 -1.7964921 4288085770
6.5349579 0.97259462 -1.814738 4288085770
4.2698517 0.8240298 -1.7974951 4288085770
7.0411072 0.98674858 -1.8243144 4288085770
4.5719757 0.82771957 -1.8018646 4288085770
7.5782471 0.99966371 -1.8342516 4288085770
4.85112 0.82651913 -1.7990198 4288085770
8.1594238 1.0132331 -1.8436787 4288085770
5.1732635 0.82802665 -1.8006341 4288085770
8.7756042 1.0245055 -1.8505213 4288085770
5.5253601 0.82732332 -1.8046079 4288085770
9.4028168 1.0326358 -1.8515158 4288085770
5.8974609 0.82645786 -1.8078079 4288085770
10.098038 1.0402452 -1.853282 4288085770
6.3115387 0.82527912 -1.8124847 4288085770
10.779327 1.0428573 -1.8439348 4288085770
6.7845917 0.82469714 -1.8228214 4288085770
11.622559 1.0503224 -1.8463702 4288085770
7.3115845 0.82372868 -1.8367703 4288085770
12.584763 1.0568851 -1.8511569 4288085770
7.8575897 0.81957686 -1.8469625 4288085770
13.581024 1.0591015 -1.8473656 4288085770
8.4456177 0.81308448 -1.8556492 4288085770
14.777252 1.0638324 -1.850807 4288085770
9.0975952 0.80513012 -1.8680706 4288085770
16.079498 1.0647031 -1.8504782 4288085770
9.6916962 0.7904588 -1.8628981 4288085770
10.338791 0.77339089 -1.8593447 4288085770
11.069824 0.75268805 -1.8577721 4288085770
11.880844 0.7303828 -1.8581152 4288085770
12.852768 0.70590043 -1.8662937 4288085770
13.824738 0.67331314 -1.8635452 4288085770
15.101547 0.63952219 -1.8782475 4288085770
8.9241333 -7.8663082 -1.6864302 4293729569
8.510788 -7.5310946 -1.6846745 4293729569
8.1590881 -7.2363138 -1.6879823 4293729569
7.8382416 -6.9637976 -1.6888418 4293729569
7.6009064 -6.743845 -1.6991193 4293729569
7.3944244 -6.543128 -1.709919 4293729569
7.1849823 -6.3424263 -1.7166872 4293729569
6.962616 -6.1356621 -1.7192583 4293729569
6.7621613 -5.9430671 -1.7222037 4293729569
6.6054382 -5.7777686 -1.7298896 4293729569
6.4875031 -5.634728 -1.7422128 4293729569
6.3785553 -5.4967756 -1.7526834 4293729569
10.960724 -7.8440533 -1.6921327 4293729569
6.2825165 -5.3679228 -1.7633824 4293729569
10.668793 -7.5787301 -1.6963785 4293729569
6.1606598 -5.2259274 -1.7676737 4293729569
10.367935 -7.3093591 -1.6984892 4293729569
6.0408173 -5.0849581 -1.7709973 4293729569
10.089951 -7.0581884 -1.6980245 4293729569
5.9299011 -4.9510665 -1.7734869 4293729569
9.8915405 -6.8495712 -1.7048371 4293729569
5.8568115 -4.8374257 -1.7805829 4293729569
6.2099762 -4.8969073 -1.2779441 4293729569
5.7966309 -4.7308745 -1.7888887 4293729569
6.2393188 -4.8329182 -1.3006334 4293729569
5.808075 -4.6607766 -1.8083248 4293729569
6.2557373 -4.7628484 -1.3211236 4293729569
5.8483582 -4.6038613 -1.8322022 4288085770
6.3398743 -4.7232394 -1.3486433 4293729569
5.9195099 -4.5611434 -1.8605516 4288085770
9.0788727 -5.9320345 -1.7230661 4293729569
5.9618378 -4.5022726 -1.8814321 4288085770
8.9651184 -5.7771115 -1.7263188 4293729569
5.9037476 -4.3968034 -1.8827705 4288085770
8.8533783 -5.6252222 -1.7276227 4293729569
5.8605499 -4.2984295 -1.8863406 4288085770
8.7625122 -5.4854827 -1.7302721 4293729569
5.840271 -4.2122211 -1.8912759 4288085770
8.6995544 -5.3579478 -1.7343414 4293729569
5.852829 -4.1392059 -1.9026957 4288085770
8.640564 -5.2334433 -1.7384832 4293729569
5.8017273 -4.0388284 -1.9001596 4288085770
8.6214142 -5.1262245 -1.745225 4293729569
5.7805023 -3.9516406 -1.9020753 4288085770
8.5714264 -5.0078168 -1.7465231 4293729569
5.7224426 -3.8492479 -1.8954446 4288085770
8.5622559 -4.9056835 -1.7524219 4293729569
5.682312 -3.7559724 -1.8910961 4288085770
8.5650635 -4.8096509 -1.7575095 4293729569
5.6551666 -3.6687961 -1.8869472 4288085770
8.5549164 -4.7085481 -1.7594073 4293729569
5.638916 -3.5856748 -1.8859563 4288085770
8.5756531 -4.6176434 -1.7657392 4293729569
5.620697 -3.5025673 -1.8819444 4288085770
8.5784912 -4.5216579 -1.7658269 4293729569
5.6243744 -3.4275889 -1.8822484 4288085770
8.6390991 -4.4460487 -1.7737386 4293729569
5.6221161 -3.351603 -1.8784778 4288085770
8.685791 -4.3653603 -1.7784498 4293729569
5.635788 -3.2807107 -1.8779292 4288085770
8.7514038 -4.2918081 -1.7844348 4293729569
5.6574249 -3.2118793 -1.8774874 4288085770
8.8260345 -4.2193336 -1.7895277 4293729569
5.6591644 -3.1369331 -1.8727703 4288085770
8.9385071 -4.1581116 -1.7991395 4293729569
5.6898041 -3.0711799 -1.8714552 4288085770
9.1496277 -4.1285481 -1.8201263 4293729569
5.7263947 -3.0074623 -1.8712256 4288085770
9.5032196 -4.1429129 -1.8600826 4288085770
5.7640076 -2.9437621 -1.8700058 4288085770
9.8399658 -4.1461959 -1.8947465 4288085770
5.8115845 -2.8841381 -1.868933 4288085770
10.052216 -4.1086879 -1.9106655 4288085770
5.867157 -2.8255756 -1.8679569 4288085770
10.226654 -4.0549474 -1.920018 4288085770
5.9337006 -2.7700772 -1.8691289 4288085770
10.362259 -3.9879665 -1.922821 4288085770
5.9972534 -2.7135749 -1.868259 4288085770
10.491943 -3.9169693 -1.9225206 4288085770
6.0598602 -2.6550844 -1.8653588 4288085770
10.670441 -3.8603077 -1.9268868 4288085770
6.1523438 -2.6057749 -1.8678708 4288085770
10.882874 -3.8098855 -1.9336801 4288085770
6.2199554 -2.5473413 -1.8630252 4288085770
11.069443 -3.7513032 -1.9361134 4288085770
6.3174438 -2.4970894 -1.8635819 4288085770
11.272003 -3.692853 -1.9377208 4288085770
6.4359131 -2.450978 -1.866405 4288085770
11.510483 -3.6416488 -1.9427862 4288085770
6.549408 -2.4018574 -1.8661449 4288085770
11.748993 -3.5884728 -1.9448321 4288085770
6.6648865 -2.3537424 -1.8669157 4288085770
12.027451 -3.5405836 -1.9493604 4288085770
6.8162994 -2.3108833 -1.870126 4288085770
12.339859 -3.4959435 -1.955287 4288085770
6.9438171 -2.260879 -1.8690081 4288085770
12.584518 -3.4358706 -1.9513292 4288085770
7.0883026 -2.2149947 -1.8691125 4288085770
12.889038 -3.3842278 -1.9511003 4288085770
7.2786713 -2.1764135 -1.8747842 4288085770
13.183624 -3.3275266 -1.9487152 4288085770
7.4481354 -2.1307204 -1.8751602 4288085770
13.51918 -3.2761388 -1.9468219 4288085770
7.647522 -2.0912175 -1.8799186 4288085770
13.888718 -3.2280102 -1.9453261 4288085770
7.8639069 -2.0508447 -1.8848522 4288085770
14.240372 -3.1707826 -1.9395483 4288085770
8.0613708 -2.0063839 -1.8835404 4288085770
14.650925 -3.120986 -1.9364774 4288085770
8.2658844 -1.9589767 -1.8822758 4288085770
15.100494 -3.0724869 -1.9338391 4288085770
8.6768646 -1.9439015 -1.9095554 4288085770
15.606995 -3.0284228 -1.9318578 4288085770
8.8944244 -1.8936222 -1.9054022 4288085770
16.175461 -2.987813 -1.9325774 4288085770
9.2476654 -1.8622377 -1.9178972 4288085770
9.5331421 -1.8174391 -1.918529 4288085770
9.7957306 -1.7655222 -1.9128437 4288085770
10.136185 -1.7211245 -1.9160714 4288085770
10.521606 -1.6790605 -1.9208062 4288085770
11.033813 -1.6488612 -1.9380233 4288085770
11.423355 -1.5978947 -1.9357133 4288085770
11.878876 -1.5493937 -1.938138 4288085770
12.292511 -1.4936577 -1.9310408 4288085770
12.752167 -1.4362637 -1.925421 4288085770
13.231873 -1.3770506 -1.9169981 4288085770
13.845413 -1.3237845 -1.9180753 4288085770
14.765594 -1.2896426 -1.9456427 4288085770
15.514206 -1.2304164 -1.9471145 4288085770
16.218994 -1.1619496 -1.9380207 4288085770
16.142456 0.9804579 -1.8572142 4288085770
15.183029 1.0487951 -1.8547413 4288085770
14.192642 1.1052543 -1.8400679 4288085770
13.439148 1.1650223 -1.838784 4288085770
12.783615 1.2230765 -1.8415182 4288085770
12.189087 1.278669 -1.8448997 4288085770
11.554581 1.3264705 -1.8379498 4288085770
10.986038 1.3727812 -1.8326886 4288085770
10.504486 1.4204713 -1.832303 4288085770
10.04892 1.4649454 -1.8302145 4288085770
9.659317 1.5119582 -1.8327758 4288085770
9.2417603 1.5511068 -1.8271279 4288085770
15.993164 2.2852044 -1.8018713 4288085770
8.8551788 1.5890211 -1.8218086 4288085770
15.155487 2.312562 -1.7950487 4288085770
8.4406281 1.6210819 -1.8092613 4288085770
14.460815 2.3488832 -1.7946002 4288085770
8.0700378 1.6538378 -1.800158 4288085770
13.778152 2.3790665 -1.7893367 4288085770
7.7704315 1.690102 -1.7967441 4288085770
13.321503 2.4296803 -1.8011799 4288085770
7.4858398 1.7262448 -1.7924852 4288085770
12.868835 2.4762259 -1.8091042 4288085770
7.2322235 1.7651893 -1.7925162 4288085770
12.424194 2.5196824 -1.8141406 4288085770
6.9756317 1.7991105 -1.787565 4288085770
11.941559 2.5533519 -1.8108845 4288085770
6.7410278 1.8348831 -1.784821 4288085770
11.461914 2.5819697 -1.804709 4288085770
6.5134277 1.8695933 -1.7811592 4288085770
11.035278 2.6131868 -1.7990487 4288085770
6.3088074 1.9051391 -1.7787242 4288085770
10.658661 2.6490536 -1.796855 4288085770
6.1002045 1.9376868 -1.7732775 4288085770
10.342041 2.6894946 -1.7982287 4288085770
5.9325714 1.9749714 -1.7732036 4288085770
10.00441 2.7240558 -1.7954462 4288085770
5.7509918 2.0093236 -1.7690158 4288085770
9.6907959 2.760427 -1.7918918 4288085770
5.5853882 2.0445652 -1.7659829 4288085770
9.383194 2.7927327 -1.7864375 4288085770
5.451767 2.083601 -1.7672398 4288085770
9.1235809 2.8307047 -1.7844183 4288085770
5.2981567 2.1177421 -1.7633402 4288085770
8.8339844 2.8608561 -1.7771695 4288085770
5.1685486 2.1547294 -1.7626581 4288085770
8.6103821 2.9005551 -1.7755015 4288085770
5.032959 2.189734 -1.7589343 4288085770
8.392807 2.9401984 -1.7728961 4288085770
4.9343414 2.2315145 -1.7615235 4288085770
8.1802521 2.9777856 -1.7683623 4288085770
4.8167572 2.2673831 -1.7579751 4288085770
8.0066833 3.0221148 -1.7681606 4288085770
4.6971588 2.3012562 -1.7534256 4288085770
7.8390961 3.0663896 -1.7670212 4288085770
4.618576 2.3458853 -1.7561913 4288085770
7.6695557 3.1076612 -1.7638903 4288085770
4.5209808 2.3826113 -1.753839 4288085770
7.5320129 3.1557174 -1.7640204 4288085770
4.4374084 2.4232407 -1.7525926 4288085770
7.385498 3.2008142 -1.7610881 4288085770
4.3428345 2.4599252 -1.7482719 4288085770
7.2539673 3.2478065 -1.7592902 4288085770
4.2802582 2.5044146 -1.7492025 4288085770
7.1374359 3.2966952 -1.7586272 4288085770
4.2187042 2.5498953 -1.750134 4288085770
7.0349579 3.3504772 -1.7580605 4288085770
4.1441345 2.589438 -1.7469902 4288085770
6.9304504 3.4002562 -1.7555118 4288085770
4.1005859 2.6367927 -1.7490869 4288085770
6.8469849 3.4549031 -1.7561297 4288085770
4.042038 2.6802325 -1.7480688 4288085770
6.7805328 3.5154223 -1.7568655 4288085770
3.9944916 2.7255893 -1.7471445 4288085770
6.6960754 3.5690489 -1.7544839 4288085770
3.9489594 2.7719307 -1.7462311 4288085770
6.6296082 3.6265492 -1.7532485 4288085770
3.9224243 2.8241563 -1.748455 4288085770
6.5742035 3.6879759 -1.7530875 4288085770
3.8849335 2.8734374 -1.7475958 4288085770
6.5237885 3.7513542 -1.7519596 4288085770
3.8504181 2.9216857 -1.7457771 4288085770
6.4983978 3.8215613 -1.7530215 4288085770
3.8329163 2.9768429 -1.7480652 4288085770
6.4480133 3.8839221 -1.7499032 4288085770
3.8194427 3.0329604 -1.7493846 4288085770
6.429657 3.9560776 -1.7510166 4288085770
3.7989655 3.0861125 -1.748661 4288085770
6.4283447 4.0361128 -1.7532279 4288085770
3.7935181 3.1451607 -1.7490339 4288085770
6.4030151 4.1062922 -1.7512896 4288085770
3.7820587 3.2022443 -1.7483649 4288085770
6.4117432 4.1902423 -1.7525656 4288085770
3.7806244 3.2632704 -1.7497597 4288085770
6.4555359 4.2879748 -1.7590654 4288085770
3.7781982 3.323277 -1.7481542 4288085770
6.481308 4.3788056 -1.7614481 4288085770
3.774765 3.3832898 -1.7465384 4288085770
6.5061035 4.4696245 -1.7618208 4288085770
3.8074036 3.4580965 -1.7521472 4288085770
6.546936 4.5683417 -1.764281 4288085770
3.7990112 3.5161104 -1.7464995 4288085770
6.6088409 4.675909 -1.7678697 4288085770
3.8256531 3.5899339 -1.7490571 4288085770
6.6677246 4.7824893 -1.7704375 4288085770
3.8513336 3.6627369 -1.7486141 4288085770
6.7186432 4.8871026 -1.7699428 4288085770
3.8910217 3.7424622 -1.7512469 4288085770
6.7825928 4.9986162 -1.7695141 4288085770
3.9266968 3.820199 -1.7518582 4288085770
6.8605957 5.1170435 -1.7711618 4288085770
3.941391 3.8890381 -1.7463412 4288085770
6.9346161 5.2344713 -1.769778 4288085770
3.9831238 3.9697199 -1.745986 4288085770
7.0016327 5.3489261 -1.765353 4288085770
4.039917 4.060307 -1.7476883 4288085770
7.0756989 5.4683251 -1.7609506 4288085770
4.0926666 4.1479149 -1.7473731 4288085770
7.1838531 5.6055064 -1.7597218 4288085770
4.157486 4.2424312 -1.748122 4288085770
7.3331451 5.7644048 -1.7627087 4288085770
4.247406 4.3507872 -1.7519929 4288085770
7.4754486 5.9213271 -1.7626431 4288085770
4.3312988 4.4571691 -1.7538216 4288085770
7.6368408 6.0901151 -1.7636573 4288085770
4.4392548 4.576407 -1.7597709 4288085770
7.8533783 6.2875414 -1.770956 4288085770
4.5372314 4.6916718 -1.7606568 4288085770
8.072998 6.4909272 -1.7762284 4288085770
4.6472473 4.8128667 -1.7636075 4288085770
8.2936401 6.6952753 -1.7785013 4288085770
4.7632904 4.9400053 -1.7655625 4288085770
8.5303802 6.9124947 -1.779814 4288085770
4.8643494 5.0582023 -1.7614501 4288085770
8.8023071 7.1504574 -1.7822833 4288085770
4.9944763 5.1942244 -1.7624619 4288085770
9.0561829 7.3815174 -1.7806358 4288085770
5.1256714 5.3322134 -1.7604649 4288085770
9.3342133 7.6283875 -1.7780807 4288085770
5.2508392 5.4662285 -1.7564447 4288085770
9.6343384 7.8900795 -1.7746069 4288085770
5.4261932 5.6309195 -1.7586391 4288085770
5.6115723 5.802536 -1.7608685 4288085770
5.8180847 5.9879899 -1.7631791 4288085770
6.0446625 6.1863132 -1.7675693 4288085770
6.3013916 6.4064198 -1.773056 4288085770
6.5611572 6.6274738 -1.775563 4288085770
6.7918701 6.8316813 -1.770936 4288085770
7.0928802 7.0824251 -1.7735748 4288085770
7.4250183 7.3529415 -1.777339 4288085770
7.7562256 7.6244192 -1.776083 4288085770
8.1537018 7.9394341 -1.7790806 4288085770
15.78273 -0.64911753 -1.8920658 4288085770
14.734436 -0.679075 -1.9010994 4288085770
13.552505 -0.69424498 -1.8856938 4288085770
12.64241 -0.71133369 -1.8859596 4288085770
11.858276 -0.7283209 -1.8924544 4288085770
11.080276 -0.73843861 -1.8899469 4288085770
10.336334 -0.74583989 -1.8847485 4288085770
9.6953583 -0.75197709 -1.8845429 4288085770
9.0784454 -0.75434166 -1.8795378 4288085770
15.26799 -1.218891 -1.9291074 4288085770
8.4995422 -0.7559914 -1.8748982 4288085770
13.871628 -1.1745584 -1.9000714 4288085770
7.9347534 -0.75280321 -1.864352 4288085770
12.878815 -1.1520108 -1.9011726 4288085770
7.4189148 -0.74895465 -1.8572779 4288085770
12.034912 -1.1365333 -1.9087923 4288085770
6.9281158 -0.744322 -1.8474417 4288085770
11.154266 -1.10893 -1.8999424 4288085770
6.4783325 -0.73798782 -1.83899 4288085770
10.337616 -1.0818256 -1.8897226 4288085770
6.0774841 -0.73399287 -1.8340378 4288085770
9.6887817 -1.0638777 -1.8922236 4288085770
5.7216034 -0.73029816 -1.8335276 4288085770
9.0251007 -1.0399026 -1.885525 4288085770
5.379776 -0.72472739 -1.8311367 4288085770
8.3844604 -1.0131472 -1.874027 4288085770
5.0539093 -0.7192862 -1.827904 4288085770
7.8107758 -0.98986626 -1.866214 4288085770
4.7351227 -0.71091658 -1.8227131 4288085770
7.3030701 -0.96806121 -1.8610578 4288085770
4.4672394 -0.70586342 -1.8250496 4288085770
6.7944489 -0.94231516 -1.8488572 4288085770
4.2113495 -0.70091975 -1.8255045 4288085770
6.3497772 -0.92101097 -1.841321 4288085770
3.9515228 -0.69297397 -1.8228936 4288085770
5.9580078 -0.90205753 -1.8393228 4288085770
3.7206726 -0.68621743 -1.8235765 4288085770
5.5942383 -0.884314 -1.8376095 4288085770
3.4938507 -0.6775195 -1.8212807 4288085770
5.2455139 -0.86471134 -1.8330252 4288085770
3.289978 -0.67095631 -1.8232286 4288085770
4.9287567 -0.84732026 -1.8317733 4288085770
3.0831451 -0.6613993 -1.8221204 4288085770
4.6429596 -0.8311429 -1.8328345 4288085770
2.9022827 -0.65499926 -1.8252945 4288085770
4.3452301 -0.81193268 -1.8277519 4288085770
2.7124786 -0.64458841 -1.8223445 4288085770
4.0734863 -0.7939074 -1.8239338 4288085770
2.521698 -0.63417995 -1.8183858 4288085770
3.8237305 -0.77702862 -1.8223405 4288085770
2.3598633 -0.62495089 -1.8187196 4288085770
3.5799866 -0.76021355 -1.8188069 4288085770
2.2179565 -0.61882478 -1.8242769 4288085770
3.3781433 -0.74564785 -1.8227067 4288085770
2.0760651 -0.61071789 -1.8278224 4288085770
3.1593933 -0.72901982 -1.8194232 4288085770
1.9212799 -0.59956938 -1.8252113 4288085770
2.9815369 -0.71562409 -1.8245671 4288085770
1.8023682 -0.59160602 -1.8319793 4288085770
2.7758331 -0.6971125 -1.8193929 4288085770
1.6615601 -0.58156282 -1.829515 4288085770
2.6010437 -0.68278646 -1.8195584 4288085770
1.5307617 -0.57057577 -1.829139 4288085770
2.4212799 -0.66545147 -1.816648 4288085770
1.4019623 -0.55962253 -1.8267832 4288085770
2.2893982 -0.65438175 -1.8242607 4288085770
2.1306305 -0.63819462 -1.8225651 4288085770
1.9878235 -0.62409878 -1.8240442 4288085770
1.8460236 -0.60902989 -1.8235242 4288085770
1.7082672 -0.59299093 -1.8230343 4288085770
1.5914154 -0.58007169 -1.8267767 4288085770
1.4596863 -0.56410599 -1.8233461 4288085770
1.5163422 1.3539995 -1.7861655 4288085770
1.6425781 1.3710476 -1.7862017 4288085770
1.7848053 1.3900143 -1.7903724 4288085770
1.9100647 1.405033 -1.7864175 4288085770
2.0642853 1.4239103 -1.7907023 4288085770
2.193573 1.4368807 -1.7848036 4288085770
2.3538055 1.4546851 -1.786155 4288085770
1.443634 1.3005465 -1.7879369 4288085770
2.5050659 1.4705197 -1.7834384 4288085770
1.573822 1.312584 -1.7900572 4288085770
2.6523438 1.4833564 -1.7777116 4288085770
1.7080078 1.3245922 -1.7922151 4288085770
2.8136139 1.4971081 -1.7741086 4288085770
1.837204 1.3336099 -1.7913532 4288085770
2.9808655 1.5108141 -1.7705631 4288085770
1.9724121 1.3435827 -1.790539 4288085770
3.1771088 1.5293514 -1.772248 4288085770
2.1055908 1.3515612 -1.7887242 4288085770
