# .PCD v0.7 - Point Cloud Data file format
VERSION 0.7
FIELDS x y z rgb
SIZE 4 4 4 4
TYPE F F F U
COUNT 1 1 1 1
WIDTH 1112
HEIGHT 1
VIEWPOINT 0 0 0 1 0 0 0
POINTS 1112
DATA ascii
-0.062864304 0.74963027 -1.7745005 4288085770
3.2001343 0.82914698 -1.7171749 4288085770
0.25008011 0.76020104 -1.7618984 4288085770
3.8189754 0.84933645 -1.7060181 4288085770
0.58504105 0.77011228 -1.7501984 4288085770
4.4998055 0.87044483 -1.6935563 4288085770
0.97500801 0.78087938 -1.741228 4288085770
5.2536354 0.89162672 -1.6787462 4288085770
1.4949989 0.79575253 -1.7465975 4288085770
6.1204433 0.91552347 -1.6653703 4288085770
2.0149879 0.80855232 -1.7449877 4288085770
7.0782413 0.93975306 -1.6485574 4288085770
2.5079575 0.8188321 -1.7325313 4288085770
8.3490181 0.97284245 -1.6461649 4288085770
3.0939255 0.83155817 -1.7246071 4288085770
9.7417717 1.0056875 -1.6361934 4288085770
3.693903 0.84245235 -1.7126347 4288085770
4.4099026 0.85413796 -1.705102 4288085770
5.1848907 0.86669719 -1.6962788 4288085770
5.992878 0.87665701 -1.6783246 4288085770
6.9478722 0.88887274 -1.664647 4288085770
8.0478916 0.90026224 -1.6502875 4288085770
9.4719315 0.91766566 -1.6493238 4288085770
4.3543015 -5.1248775 -0.34351528 4293729569
6.6505642 -5.369267 -0.66186208 4293729569
6.6571865 -5.2557564 -0.70063174 4293729569
6.7291698 -5.1652493 -0.74132419 4293729569
8.9165916 -5.7922173 -0.87423766 4293729569
8.8938103 -5.652154 -0.91187042 4293729569
10.35976 -5.9941373 -1.0203058 4293729569
8.2249699 -5.1707268 -0.94906086 4293729569
8.2826061 -5.0595064 -0.98260415 4293729569
9.6591339 -5.3668251 -0.13105133 4293729569
8.2548256 -4.9226117 -1.0112941 4293729569
8.8942375 -4.9824061 -1.0737951 4293729569
9.674511 1.168565 -1.6347328 4288085770
8.4123402 1.1798331 -1.6400198 4288085770
7.3611717 1.1942928 -1.650202 4288085770
6.4390297 1.2076656 -1.659741 4288085770
5.5868874 1.2200241 -1.6639353 4288085770
4.9037342 1.2380034 -1.6782124 4288085770
4.254612 1.2514036 -1.684365 4288085770
3.6614723 1.2666445 -1.6912144 4288085770
9.9911041 1.7219112 -1.6011776 4288085770
3.1133556 1.2805426 -1.6968496 4288085770
8.8242264 1.7156467 -1.6111715 4288085770
2.6202316 1.2952666 -1.7031968 4288085770
7.8043194 1.7125614 -1.6203853 4288085770
2.1711235 1.3086222 -1.7073348 4288085770
6.9093857 1.7123392 -1.6299338 4288085770
1.7429981 1.3232894 -1.7113531 4288085770
6.1034279 1.7144365 -1.639006 4288085770
1.3239059 1.334038 -1.7103667 4288085770
5.3804512 1.7177534 -1.6466436 4288085770
0.96078682 1.3486691 -1.7140552 4288085770
4.7434616 1.7233663 -1.6558204 4288085770
0.68264771 1.3686538 -1.7262554 4288085770
4.1624508 1.730809 -1.6646931 4288085770
0.37252617 1.3840811 -1.7306664 4288085770
3.6354275 1.7390418 -1.6722833 4288085770
0.019433975 1.3927355 -1.7223678 4288085770
3.1404095 1.7467387 -1.6787168 4288085770
-0.24067116 1.4079148 -1.7275276 4288085770
2.701355 1.7572651 -1.6848358 4288085770
-0.45481491 1.4278384 -1.7384038 4288085770
2.2763233 1.7659893 -1.6899029 4288085770
-0.73691177 1.4385769 -1.7327226 4288085770
1.8802834 1.7751331 -1.6938183 4288085770
-0.93902969 1.455637 -1.739568 4288085770
1.4942608 1.7813728 -1.6927135 4288085770
-1.1521568 1.4714817 -1.7414824 4288085770
1.1472073 1.7912216 -1.6943725 4288085770
-1.3602657 1.4853798 -1.7413919 4288085770
0.85812378 1.8049822 -1.7006956 4288085770
-1.5543842 1.5004959 -1.7422177 4288085770
0.60202217 1.8212631 -1.7098241 4288085770
-1.7425003 1.51468 -1.7410227 4288085770
0.28500175 1.8264842 -1.7043796 4288085770
-1.9156075 1.5291076 -1.7417489 4288085770
0.007938385 1.8363397 -1.7026831 4288085770
-2.098711 1.5413349 -1.7375492 4288085770
-0.20816803 1.8521819 -1.7086132 4288085770
-2.2458382 1.5581686 -1.7401181 4288085770
-0.42127991 1.8680587 -1.7135278 4288085770
-2.3799648 1.5752056 -1.7436188 4288085770
-0.64335632 1.87975 -1.7135323 4288085770
-2.5210953 1.5910969 -1.7431672 4288085770
-0.84845734 1.8937035 -1.7144268 4288085770
-2.6462269 1.6082568 -1.745621 4288085770
-1.0305748 1.9090083 -1.71619 4288085770
-2.7533779 1.6277146 -1.750959 4288085770
-1.2156715 1.9222479 -1.7159901 4288085770
-2.9174576 1.6361507 -1.7397031 4288085770
-1.3787956 1.9388447 -1.7186431 4288085770
-3.0315857 1.6524529 -1.74011 4288085770
-1.5469112 1.9533362 -1.7183439 4288085770
-3.1247482 1.6721083 -1.7443752 4288085770
-1.6680984 1.9756074 -1.7257237 4288085770
-3.2448711 1.6862693 -1.7398355 4288085770
-1.8022385 1.9936442 -1.7292142 4288085770
-3.337019 1.7049289 -1.7431059 4288085770
-1.971323 2.0040588 -1.7229632 4288085770
-3.4421482 1.7203331 -1.7404767 4288085770
-2.1034546 2.0200837 -1.7224647 4288085770
-3.5243149 1.7401302 -1.7426842 4288085770
-2.2345924 2.036113 -1.7209613 4288085770
-3.610466 1.7578471 -1.7429341 4288085770
-2.3577385 2.0532713 -1.7204052 4288085770
-3.7036018 1.7734189 -1.7392423 4288085770
-2.4688969 2.0716176 -1.7207756 4288085770
-3.7807636 1.7922692 -1.7394346 4288085770
-2.5780487 2.0889833 -1.7201463 4288085770
-3.8678989 1.8079405 -1.7367111 4288085770
-2.6782227 2.1084926 -1.7204484 4288085770
-3.9211121 1.8321981 -1.7417243 4288085770
-2.7733936 2.1280866 -1.7217242 4288085770
-3.9942646 1.8500974 -1.7409064 4288085770
-2.8695641 2.1466341 -1.7200162 4288085770
-4.0544567 1.8712096 -1.7419883 4288085770
-2.9527512 2.1674058 -1.7212187 4288085770
-4.1405792 1.8848541 -1.7352815 4288085770
-3.0259781 2.1913354 -1.7233371 4288085770
-3.1091614 2.211086 -1.7225502 4288085770
-3.2013168 2.2276618 -1.7178427 4288085770
-3.2635479 2.2517545 -1.7199033 4288085770
-3.3327618 2.2737124 -1.7190222 4288085770
-3.4019661 2.2946599 -1.7171516 4288085770
-3.4512367 2.3219552 -1.7201121 4288085770
-3.5154552 2.3439765 -1.7182049 4288085770
-3.5836601 2.3639076 -1.7133399 4288085770
-3.6309261 2.3902116 -1.714301 4288085770
-3.6881657 2.413326 -1.7113464 4288085770
-3.7324352 2.4396639 -1.7112919 4288085770
-3.7826786 2.462882 -1.7083005 4288085770
-3.8119946 2.4934638 -1.7101243 4288085770
-3.8462982 2.5219498 -1.7099965 4288085770
-3.887579 2.548311 -1.7079266 4288085770
-3.9228764 2.5757613 -1.7058148 4288085770
-3.9492073 2.6063652 -1.7056239 4288085770
-3.9765472 2.6369441 -1.7044382 4288085770
-4.0158291 2.6623039 -1.6993686 4288085770
-4.0232506 2.7002299 -1.7030038 4288085770
-4.0485916 2.7308278 -1.7008077 4288085770
-4.0610027 2.766638 -1.7004902 4288085770
-4.075386 2.8004086 -1.6992046 4288085770
-4.0907822 2.8351641 -1.6979134 4288085770
-4.1151161 2.8637345 -1.6917335 4288085770
-4.0956955 2.9141009 -1.6990992 4288085770
-4.1210403 2.9426353 -1.6909249 4288085770
-4.0966358 2.9940751 -1.6982536 4288085770
-4.0981121 3.0340264 -1.6958362 4288085770
-4.1015682 3.071938 -1.6924503 4288085770
-4.0811672 3.1222765 -1.6958112 4288085770
-4.0816402 3.1612217 -1.6913989 4288085770
-4.054285 3.214663 -1.6946912 4288085770
-4.041872 3.2618203 -1.692126 4288085770
-4.0164967 3.313211 -1.6934499 4288085770
-3.9941273 3.3635263 -1.6918001 4288085770
-3.9508972 3.426224 -1.6969129 4288085770
-3.9186058 3.4826963 -1.6961471 4288085770
-3.8873081 3.5381439 -1.6943971 4288085770
-3.8510456 3.5966749 -1.6935889 4288085770
-3.8028488 3.6604142 -1.6956646 4288085770
-3.7467461 3.7302604 -1.6966347 4288085770
-3.6985741 3.7949681 -1.6956997 4288085770
-3.6235943 3.8751464 -1.7014637 4288085770
-3.5555744 3.9511793 -1.7033069 4288085770
-3.5133762 4.0117354 -1.6964459 4288085770
-3.4513245 4.0836277 -1.6933631 4288085770
-3.3545341 4.1771393 -1.6998734 4288085770
-3.262722 4.2675352 -1.7024419 4288085770
-3.1897678 4.3455677 -1.6972376 4288085770
-3.0830841 4.4451942 -1.7006316 4288085770
-2.9853287 4.5376368 -1.6991473 4288085770
-2.8657703 4.645443 -1.7013884 4288085770
-4.120203 3.9288461 -1.714425 4288085770
-2.7342968 4.7594366 -1.7045023 4288085770
-4.065958 3.9855592 -1.7055422 4288085770
-2.6117554 4.8672557 -1.703727 4288085770
-3.9522038 4.0823431 -1.7139305 4288085770
-2.4872208 4.9750829 -1.700941 4288085770
-3.8493614 4.1709013 -1.7164613 4288085770
-2.3498192 5.0921111 -1.6989913 4288085770
-3.7544479 4.2533007 -1.7150977 4288085770
-2.2104092 5.208159 -1.6960412 4288085770
-3.6644783 4.330595 -1.7108129 4288085770
-2.0601044 5.3313575 -1.6919591 4288085770
-3.5646057 4.4150462 -1.7074015 4288085770
-1.8750992 5.4771428 -1.6944596 4288085770
-3.4319954 4.5200672 -1.7116041 4288085770
-1.6712513 5.6342177 -1.6977433 4288085770
-3.3182087 4.6107345 -1.7090549 4288085770
-1.4852467 5.7779555 -1.694259 4288085770
-3.1756516 4.7188807 -1.7111727 4288085770
-1.2774296 5.9350262 -1.6915212 4288085770
-3.0142765 4.8403368 -1.7160527 4288085770
-1.0309582 6.1177316 -1.6943129 4288085770
-2.8687553 4.9494853 -1.7141438 4288085770
-0.76663589 6.3107014 -1.6969036 4288085770
-2.7212238 5.057652 -1.7112343 4288085770
-0.47159576 6.5231371 -1.7001297 4288085770
-2.5687313 5.1678815 -1.7072774 4288085770
-0.13591194 6.7622371 -1.7088641 4288085770
-2.4092789 5.2801933 -1.701262 4288085770
0.22850609 7.0187507 -1.7162652 4288085770
-2.2329559 5.4027963 -1.6990507 4288085770
0.58105469 7.2640171 -1.7168454 4288085770
-2.0397701 5.5346394 -1.6956543 4288085770
0.92172241 7.499043 -1.7115945 4288085770
-1.8059349 5.6931663 -1.6997662 4288085770
1.3010654 7.7566504 -1.7069041 4288085770
-1.5750465 5.8466086 -1.6999463 4288085770
1.6843872 8.0142756 -1.6981924 4288085770
-1.3481178 5.9959497 -1.6961895 4288085770
2.1063843 8.2944832 -1.6900414 4288085770
-1.0646629 6.180212 -1.6997715 4288085770
2.5204983 8.5645113 -1.6760378 4293729569
-0.76135254 6.3757987 -1.7061311 4288085770
-0.43622208 6.5826879 -1.7102576 4288085770
-0.08130455 6.8050385 -1.7160664 4288085770
0.32317162 7.0591745 -1.7262828 4288085770
0.65933037 7.2611308 -1.7214019 4288085770
1.0421085 7.4897976 -1.7179974 4288085770
1.4140358 7.7062407 -1.708777 4288085770
1.8355694 7.9514704 -1.7039953 4288085770
2.2680626 8.1978188 -1.6951443 4288085770
2.7204399 8.4514418 -1.6841127 4288085770
10.1394 -0.80442387 -1.6980604 4288085770
9.2892151 -0.85490733 -1.7080524 4288085770
8.4769077 -0.89786392 -1.7147666 4288085770
7.7745953 -0.93814713 -1.7258756 4288085770
7.1112328 -0.97485572 -1.7367432 4288085770
6.444725 -1.0036626 -1.7425441 4288085770
5.8492069 -1.0304132 -1.7489506 4288085770
5.2996864 -1.055444 -1.7590979 4288085770
4.8051624 -1.079654 -1.7699481 4288085770
4.3135338 -1.097852 -1.7777199 4288085770
3.8328342 -1.1119096 -1.7833908 4288085770
10.077793 -1.8770273 -1.7576052 4288085770
3.3510265 -1.1200247 -1.7850051 4288085770
9.1806641 -1.8621316 -1.7731595 4288085770
2.9162369 -1.1284266 -1.7883756 4288085770
8.3144073 -1.8398435 -1.782474 4288085770
2.5184746 -1.1372514 -1.7945567 4288085770
7.4169388 -1.8071084 -1.7828428 4288085770
2.141674 -1.1437776 -1.7996033 4288085770
6.5854568 -1.7734115 -1.7818551 4288085770
1.7908821 -1.1498995 -1.8065095 4288085770
5.8901787 -1.7496259 -1.7882565 4288085770
1.3938789 -1.1458061 -1.8035507 4288085770
5.2227993 -1.7204707 -1.7904546 4288085770
1.0700092 -1.1475625 -1.8072693 4288085770
4.6175156 -1.6963801 -1.7943804 4288085770
0.76816177 -1.1499736 -1.8128797 4288085770
4.0481911 -1.6697695 -1.7970906 4288085770
0.47226143 -1.1493075 -1.8174263 4288085770
3.5048618 -1.6427767 -1.7996607 4288085770
0.195364 -1.1483495 -1.8228682 4288085770
3.0366497 -1.6216347 -1.805896 4288085770
-0.10064888 -1.1417367 -1.8223536 4288085770
2.5643425 -1.5955961 -1.8081037 4288085770
-0.36962509 -1.1367052 -1.8237138 4288085770
2.1581593 -1.5755315 -1.8150271 4288085770
-0.63767242 -1.1276805 -1.823027 4288085770
1.7669697 -1.5552459 -1.8218696 4288085770
-0.85857964 -1.1248777 -1.8301585 4288085770
1.3666248 -1.5271783 -1.820678 4288085770
-1.0694904 -1.1219385 -1.8362359 4288085770
1.0455189 -1.510829 -1.8301935 4288085770
-1.3055573 -1.1114421 -1.8353657 4288085770
0.70024109 -1.485919 -1.831746 4288085770
-1.5477028 -1.0970771 -1.8304867 4288085770
0.37699699 -1.4626741 -1.8342003 4288085770
-1.7708054 -1.0843999 -1.8285257 4288085770
0.045656204 -1.4345901 -1.8326463 4288085770
-1.9477539 -1.0789599 -1.8343984 4288085770
-0.28275108 -1.4035039 -1.8270451 4288085770
-2.1498566 -1.0659738 -1.8323238 4288085770
-0.51581764 -1.3888478 -1.8371161 4288085770
-2.3067951 -1.0602176 -1.8400884 4288085770
-0.79011917 -1.3629234 -1.8352851 4288085770
-2.5039616 -1.0441897 -1.8349557 4288085770
-1.0082073 -1.3470569 -1.8442646 4288085770
-2.684082 -1.0298796 -1.8327516 4288085770
-1.2454357 -1.3245449 -1.8462747 4288085770
-2.8169994 -1.0247488 -1.8423969 4288085770
-1.4937649 -1.2972584 -1.8422929 4288085770
-2.9690361 -1.0139725 -1.8450828 4288085770
-1.7009563 -1.2762833 -1.8461615 4288085770
-3.1673717 -0.99004406 -1.8318731 4288085770
-1.9393406 -1.2468815 -1.8391054 4288085770
-3.3074188 -0.97910184 -1.8334943 4288085770
-2.1476173 -1.2219737 -1.8379382 4288085770
-3.4324303 -0.96889609 -1.8390442 4288085770
-2.339859 -1.1988196 -1.837705 4288085770
-3.5805702 -0.95311421 -1.836657 4288085770
-2.5230827 -1.1765227 -1.8384339 4288085770
-3.7207336 -0.93622559 -1.833216 4288085770
-2.7043324 -1.1532171 -1.8371418 4288085770
-3.8407898 -0.92397791 -1.8357185 4288085770
-2.8685646 -1.1306508 -1.8367676 4288085770
-3.9518299 -0.91258711 -1.8391826 4288085770
-3.0267754 -1.1089854 -1.8373713 4288085770
-4.0638905 -0.90022165 -1.8416419 4288085770
-3.1940536 -1.0844951 -1.8339932 4288085770
-3.3402653 -1.0626528 -1.8345321 4288085770
-3.4844894 -1.0408018 -1.8330606 4288085770
-3.5995884 -1.0244391 -1.8394939 4288085770
-3.7418652 -0.99958044 -1.8359803 4288085770
-3.8640518 -0.9793846 -1.8364102 4288085770
-3.9782162 -0.96004945 -1.8388072 4288085770
-4.0833492 -0.94258136 -1.8411763 4288085770
-4.1154327 0.97850496 -1.7646853 4288085770
-3.9885082 0.99439931 -1.767833 4288085770
-3.8715992 1.0090836 -1.7650467 4288085770
-3.7486782 1.0228558 -1.7622375 4288085770
-3.616766 1.0377702 -1.7603679 4288085770
-3.4758663 1.0538267 -1.7594379 4288085770
-3.3329411 1.0679021 -1.7575176 4288085770
-3.1600323 1.08548 -1.7613994 4288085770
-4.0750599 1.0170481 -1.7650393 4288085770
-3.0031319 1.1007493 -1.7583909 4288085770
-3.9310837 1.0302128 -1.770124 4288085770
-2.8452168 1.1150228 -1.7543874 4288085770
-3.8111229 1.0409305 -1.7663627 4288085770
-2.6483173 1.132941 -1.757136 4288085770
-3.6801529 1.0518306 -1.76454 4288085770
-2.4684086 1.1475364 -1.7530103 4288085770
-3.5421753 1.0618225 -1.7616894 4288085770
-2.2725201 1.1643867 -1.7507749 4288085770
-3.3742008 1.0753381 -1.7666405 4288085770
-2.052618 1.1816204 -1.751406 4288085770
-3.2352409 1.0853126 -1.7607841 4288085770
-1.8227272 1.1989788 -1.7499819 4288085770
-3.0632572 1.0968444 -1.7617339 4288085770
-1.576828 1.2165927 -1.7504689 4288085770
-2.8932724 1.1073256 -1.7607054 4288085770
-1.3299465 1.234189 -1.74795 4288085770
-2.7192974 1.117844 -1.7576545 4288085770
-1.0400505 1.2534784 -1.751182 4288085770
-2.4903049 1.1323051 -1.7672665 4288085770
-0.77517891 1.2702956 -1.7445738 4288085770
-2.2893219 1.1432397 -1.7660657 4288085770
-0.47328377 1.2877073 -1.7427602 4288085770
-2.0883369 1.1531531 -1.7628753 4288085770
-0.19740295 1.3026428 -1.7321117 4288085770
-1.8813438 1.1621436 -1.758662 4288085770
0.14646912 1.3216581 -1.7290543 4288085770
-1.6723499 1.1701316 -1.7514482 4288085770
0.55032539 1.3446255 -1.7326322 4288085770
-1.3913631 1.1843213 -1.7577816 4288085770
0.89021683 1.358476 -1.7196494 4288085770
-1.1383533 1.1929955 -1.7543232 4288085770
1.2441025 1.3725209 -1.7055889 4288085770
-0.85035706 1.204224 -1.7546494 4288085770
1.7499294 1.39798 -1.7085898 4288085770
-0.56434441 1.2123702 -1.7500184 4288085770
2.2567711 1.4203901 -1.7056168 4288085770
-0.2553215 1.2208741 -1.7472593 4288085770
2.7726173 1.4408787 -1.6976144 4288085770
-0.013305664 1.222218 -1.7279358 4288085770
3.3614235 1.4644568 -1.6911865 4288085770
0.40471268 1.2364436 -1.736529 4288085770
3.9492664 1.4839561 -1.6788055 4288085770
0.73975182 1.2412536 -1.7266673 4288085770
4.6180935 1.5066826 -1.6699536 4288085770
1.0888081 1.2442472 -1.7147489 4288085770
5.3918877 1.5319452 -1.6605083 4288085770
1.5678463 1.255312 -1.7180451 4288085770
6.2176819 1.5569469 -1.6487846 4288085770
2.0399227 1.2612004 -1.714433 4288085770
7.187439 1.5870973 -1.6402297 4288085770
2.5409946 1.267513 -1.7106591 4288085770
8.2461796 1.6175177 -1.6281909 4288085770
3.0670815 1.2711382 -1.7017784 4288085770
9.4578972 1.6501653 -1.6143028 4288085770
3.6531696 1.2756622 -1.694564 4288085770
4.2843037 1.2768238 -1.6851416 4288085770
4.9544392 1.2775447 -1.6745129 4288085770
5.7355957 1.2789214 -1.666278 4288085770
6.6017723 1.279552 -1.6585916 4288085770
7.5509987 1.2763653 -1.6474965 4288085770
8.6342373 1.2741702 -1.6386672 4288085770
9.9195328 1.2709727 -1.6327575 4288085770
4.7368183 -7.1970677 -1.7567369 4293729569
4.5582523 -7.0054169 -1.7796692 4293729569
4.3685532 -6.8059683 -1.7985793 4293729569
3.8027992 -6.3693976 -1.0219728 4293729569
4.1859398 -6.6134501 -1.8145242 4293729569
3.7795887 -6.2643499 -1.0579764 4293729569
3.8188095 -6.3288994 -1.8035001 4293729569
3.8116951 -6.2306275 -1.8384875 4293729569
3.7188568 -6.0887504 -1.85948 4288085770
3.5947475 -5.9314127 -1.872479 4288085770
4.4645309 -6.2143006 -1.2536666 4293729569
3.4061203 -5.7431188 -1.8755019 4288085770
4.4834843 -6.1206613 -1.2875595 4293729569
3.2417145 -5.5694618 -1.879548 4288085770
3.0500851 -5.3832741 -1.8766096 4288085770
2.9038677 -5.2233849 -1.8777025 4288085770
7.604496 -7.2272105 -1.6692041 4293729569
2.7636852 -5.0664186 -1.8777934 4288085770
7.2987175 -6.9616408 -1.670045 4293729569
2.6245232 -4.9114585 -1.8759001 4288085770
7.0554409 -6.7291417 -1.6728952 4293729569
2.5216579 -4.7749276 -1.8780041 4288085770
6.765873 -6.4803991 -1.6678264 4293729569
2.4147606 -4.6374874 -1.8771204 4288085770
6.5578938 -6.2683969 -1.6697015 4293729569
2.3441296 -4.5164666 -1.8812129 4288085770
6.306654 -6.0421076 -1.6636618 4293729569
2.2906342 -4.4041977 -1.8853045 4288085770
6.1440697 -5.8574562 -1.664579 4293729569
2.2411804 -4.2948689 -1.8894049 4288085770
4.3528461 -5.0233555 -1.4905205 4293729569
2.1876678 -4.182632 -1.8904966 4288085770
5.9850006 -5.5576224 -1.6772412 4293729569
2.1261177 -4.0685325 -1.8896124 4288085770
5.940197 -5.4231949 -1.6840465 4293729569
2.0746479 -3.9602973 -1.8877355 4288085770
5.9256058 -5.3023067 -1.69283 4293729569
1.9970055 -3.8424957 -1.8809 4288085770
5.8767834 -5.1679802 -1.6956581 4293729569
1.9485588 -3.7362268 -1.8780272 4288085770
5.8510933 -5.0423074 -1.6994511 4293729569
1.9353428 -3.6444137 -1.8781148 4288085770
5.8143444 -4.913826 -1.7002749 4293729569
1.9080429 -3.5478275 -1.8762288 4288085770
5.8057442 -4.7949252 -1.7020459 4293729569
1.8706684 -3.4474299 -1.8703576 4288085770
5.810215 -4.6808348 -1.7037961 4293729569
1.8514023 -3.3537476 -1.8664582 4288085770
5.924324 -4.6050239 -1.7173514 4293729569
1.8351593 -3.2620313 -1.8615631 4288085770
6.1941929 -4.5748 -1.7445356 4293729569
1.8450832 -3.1798935 -1.8606262 4288085770
6.5907154 -4.5835967 -1.7844385 4293729569
1.8459244 -3.09393 -1.8556983 4288085770
7.0062237 -4.5911183 -1.8242226 4288085770
1.8708992 -3.0155833 -1.8537186 4288085770
7.2919922 -4.5546846 -1.8492512 4288085770
1.8757668 -2.9315715 -1.8477893 4288085770
7.3877277 -4.4582772 -1.8496857 4288085770
1.9228439 -2.8598928 -1.8467588 4288085770
7.4854698 -4.3628526 -1.8491192 4288085770
1.9478188 -2.7825789 -1.84179 4288085770
7.5490131 -4.2559776 -1.8436185 4288085770
2.00494 -2.7137544 -1.8407345 4288085770
7.6748066 -4.1641445 -1.8429353 4288085770
2.0530014 -2.6420939 -1.8366984 4288085770
7.747364 -4.0591707 -1.8344049 4288085770
2.1151123 -2.5732181 -1.8336143 4288085770
7.9223614 -3.9806125 -1.8345915 4288085770
2.1842537 -2.5062406 -1.8305119 4288085770
8.0410442 -3.8829463 -1.8278842 4288085770
2.2845039 -2.4457786 -1.8303074 4288085770
8.1557178 -3.786371 -1.8182104 4288085770
2.384758 -2.3853171 -1.8301024 4288085770
8.3687325 -3.7092807 -1.816202 4288085770
2.4719048 -2.319088 -1.8259081 4288085770
8.5987949 -3.6349328 -1.8151284 4288085770
2.6072311 -2.2631059 -1.8265574 4288085770
8.8227654 -3.5557158 -1.8100362 4288085770
2.7094212 -2.1996586 -1.8223091 4288085770
9.0928688 -3.4848068 -1.8067776 4288085770
2.839674 -2.1397822 -1.819944 4288085770
9.3578873 -3.408993 -1.801494 4288085770
2.9689007 -2.0789418 -1.8155742 4288085770
9.6338921 -3.3330514 -1.7931479 4288085770
3.1222191 -2.0227196 -1.8141205 4288085770
9.9931297 -3.2698257 -1.7914778 4288085770
3.2995796 -1.9691377 -1.8135619 4288085770
10.39542 -3.2099745 -1.7896055 4288085770
3.4738674 -1.9116206 -1.8109783 4288085770
10.761501 -3.1387124 -1.7818108 4288085770
3.6451206 -1.8521695 -1.8063902 4288085770
3.8675022 -1.7989242 -1.8065851 4288085770
4.1159248 -1.7482874 -1.8076657 4288085770
4.3382206 -1.6910841 -1.8038201 4288085770
4.553421 -1.6290257 -1.7959613 4288085770
4.8719254 -1.5823386 -1.7996961 4288085770
5.1130905 -1.5179136 -1.7906675 4288085770
5.4193974 -1.4604783 -1.7873538 4288085770
5.7416782 -1.4018214 -1.7829384 4288085770
6.0518799 -1.3393929 -1.7735485 4288085770
6.4131031 -1.2771914 -1.7668787 4288085770
6.78829 -1.2127974 -1.7591078 4288085770
7.2716274 -1.1547468 -1.7588066 4288085770
7.7228069 -1.0892487 -1.7506026 4288085770
8.1507835 -1.0131721 -1.7344127 4288085770
8.6608868 -0.94283885 -1.7238297 4288085770
9.1818771 -0.86638981 -1.7091205 4288085770
9.8279686 -0.79304856 -1.7007517 4288085770
10.563053 -0.71839243 -1.6938757 4288085770
10.37764 1.6369871 -1.6063536 4288085770
9.3421593 1.6720129 -1.6108353 4288085770
8.4316864 1.707866 -1.6166011 4288085770
7.6282463 1.742265 -1.6217768 4288085770
6.953804 1.7795806 -1.6311911 4288085770
6.2744312 1.8087397 -1.6327212 4288085770
5.7050285 1.8435621 -1.6405681 4288085770
5.1586723 1.8736746 -1.6443355 4288085770
4.685297 1.9068735 -1.6506566 4288085770
4.2758999 1.9430282 -1.6595838 4288085770
3.8515587 1.9729035 -1.6626632 4288085770
3.5061855 2.0079832 -1.6712399 4288085770
9.8963547 2.8446467 -1.5690122 4288085770
3.1458664 2.0367832 -1.6739686 4288085770
9.0793037 2.8518398 -1.5735599 4288085770
2.7955379 2.065717 -1.6756393 4288085770
8.3971291 2.8700345 -1.5822256 4288085770
2.5101662 2.1006527 -1.6828781 4288085770
7.6880856 2.8757451 -1.5821776 4288085770
2.1898766 2.1259882 -1.6814175 4288085770
7.1009312 2.8922799 -1.5873232 4288085770
1.8965816 2.1527355 -1.681789 4288085770
6.5837555 2.9108362 -1.5930508 4288085770
1.6212864 2.1787212 -1.6800668 4288085770
6.0845757 2.929642 -1.5976739 4288085770
1.3619804 2.2059486 -1.6792409 4288085770
5.640358 2.951241 -1.6019557 4288085770
1.1177025 2.2313929 -1.6783491 4288085770
5.2421036 2.9765258 -1.6079377 4288085770
0.88740349 2.2580285 -1.6763653 4288085770
4.8748322 3.0032575 -1.6137286 4288085770
0.68608856 2.2871149 -1.6771913 4288085770
4.5285511 3.0302825 -1.6183976 4288085770
0.50375175 2.3184965 -1.679885 4288085770
4.2232285 3.060909 -1.6237959 4288085770
0.3294239 2.3489833 -1.6815431 4288085770
3.9209423 3.0885692 -1.628209 4288085770
0.15911293 2.3775065 -1.6811994 4288085770
3.6616001 3.1208599 -1.6333288 4288085770
-0.020168304 2.4028687 -1.6779406 4288085770
3.3723316 3.1456654 -1.6336988 4288085770
-0.14555168 2.4391048 -1.68326 4288085770
3.1260033 3.1761231 -1.6367649 4288085770
-0.27392387 2.4732661 -1.6856182 4288085770
2.8956547 3.2078006 -1.6387271 4288085770
-0.41623497 2.5021939 -1.6851118 4288085770
2.6862659 3.2427919 -1.641535 4288085770
-0.54957199 2.5322409 -1.6835425 4288085770
2.4749222 3.2737336 -1.6423978 4288085770
-0.65895844 2.5676763 -1.6857796 4288085770
2.2765617 3.3058627 -1.6431741 4288085770
-0.78827667 2.5957711 -1.6832088 4288085770
2.1061363 3.3434172 -1.6457342 4288085770
-0.87171364 2.6356027 -1.6872516 4288085770
1.9496822 3.3831728 -1.648191 4288085770
-0.9790802 2.6680248 -1.6855097 4288085770
1.8012257 3.423044 -1.6506013 4288085770
-1.0734596 2.702666 -1.6866704 4288085770
1.6617565 3.4640448 -1.6529484 4288085770
-1.1568623 2.7384555 -1.6867564 4288085770
1.5372696 3.5062623 -1.6551976 4288085770
-1.2442398 2.772177 -1.6858872 4288085770
1.4187698 3.549566 -1.6574011 4288085770
-1.3166809 2.8111353 -1.6868771 4288085770
1.2982674 3.5918193 -1.6576273 4288085770
-1.4070473 2.8427815 -1.6830473 4288085770
1.1927166 3.6382997 -1.6587234 4288085770
-1.4625359 2.8860064 -1.6858952 4288085770
1.0881863 3.6827841 -1.6588349 4288085770
-1.5399284 2.9198508 -1.6829681 4288085770
1.0155506 3.7367818 -1.6636635 4288085770
-1.5654984 2.9705498 -1.6895661 4288085770
0.92597389 3.7844713 -1.6626559 4288085770
-1.641901 3.0043871 -1.6846334 4288085770
0.86331177 3.8395925 -1.6654158 4288085770
-1.7023468 3.0424871 -1.6825645 4288085770
0.77075005 3.8852177 -1.6624471 4288085770
-1.753828 3.0837269 -1.6814109 4288085770
0.73099518 3.9476905 -1.6669979 4288085770
-1.7883739 3.1302323 -1.6821047 4288085770
0.64839554 3.9954488 -1.6629497 4288085770
-1.8249054 3.1757095 -1.6828209 4288085770
0.61262512 4.0579476 -1.6644773 4288085770
-1.8464966 3.2254131 -1.6844068 4288085770
0.57486343 4.1194177 -1.6660275 4288085770
-1.863121 3.2781992 -1.6869313 4288085770
0.53708076 4.1818657 -1.665567 4288085770
-1.8907013 3.3267946 -1.686563 4288085770
0.50628281 4.2454147 -1.6650552 4288085770
-1.9272461 3.3712182 -1.6822901 4288085770
0.48444557 4.3121037 -1.6654583 4288085770
-1.9388924 3.4250655 -1.6837748 4288085770
0.46256638 4.3807707 -1.6638407 4288085770
-1.9445801 3.4819984 -1.6851926 4288085770
0.45763397 4.4547148 -1.6650699 4288085770
-1.9472771 3.5389638 -1.6855928 4288085770
0.46165276 4.5317879 -1.6662146 4288085770
-1.948 3.5979578 -1.6859599 4288085770
0.48156166 4.6171007 -1.6681805 4288085770
-1.9636421 3.649694 -1.6824899 4288085770
0.49051285 4.6982236 -1.6672534 4288085770
-1.9394875 3.7191005 -1.6876038 4288085770
0.52135086 4.7886949 -1.6691014 4288085770
-1.9203377 3.7873924 -1.6887579 4288085770
0.55416489 4.8801832 -1.6699271 4288085770
-1.9131107 3.8494904 -1.6880463 4288085770
0.58298302 4.970593 -1.6687869 4288085770
-1.8999348 3.9146638 -1.6862677 4288085770
0.61775208 5.0640779 -1.6665798 4288085770
-1.8748322 3.9860415 -1.6873548 4288085770
0.68132973 5.1730318 -1.6690426 4288085770
-1.8467445 4.0584512 -1.6874135 4288085770
0.72102737 5.2705665 -1.6647635 4288085770
-1.8166962 4.1328793 -1.6864393 4288085770
0.7676754 5.3722124 -1.6614006 4288085770
-1.7777348 4.2134466 -1.6863486 4288085770
0.84410858 5.4893203 -1.6607026 4288085770
-1.7377682 4.2940278 -1.6862516 4288085770
0.9314785 5.6115856 -1.659886 4288085770
-1.7057362 4.3684521 -1.6822659 4288085770
1.0148277 5.7347827 -1.6580825 4288085770
-1.6528702 4.4562201 -1.6820182 4288085770
1.1349125 5.8775415 -1.6588594 4288085770
-1.5821495 4.5552773 -1.6845475 4288085770
1.3026543 6.0470533 -1.6650774 4288085770
-1.4905796 4.6656566 -1.6888363 4288085770
1.4594193 6.2133732 -1.6683921 4288085770
-1.3970242 4.7770658 -1.693103 4288085770
1.6836777 6.4187531 -1.6789027 4288085770
-1.2985477 4.8935342 -1.6962868 4288085770
1.9168377 6.6302514 -1.6882963 4288085770
-1.2090111 5.0048413 -1.6965766 4288085770
2.1836586 6.8662558 -1.6992346 4288085770
-1.1115589 5.1212521 -1.6957663 4288085770
2.3511944 7.0456462 -1.6943458 4288085770
-1.0300083 5.2293916 -1.6911353 4288085770
2.5623341 7.2536983 -1.6919003 4288085770
-0.93358231 5.3467555 -1.6873202 4288085770
2.7645035 7.4575672 -1.6845502 4288085770
-0.82129288 5.4743695 -1.6853044 4288085770
2.9745731 7.6685491 -1.6770785 4288085770
-0.71100044 5.5999126 -1.6793218 4288085770
3.2411709 7.9144015 -1.6739097 4288085770
-0.57195473 5.7449241 -1.6779662 4288085770
3.5077114 8.162199 -1.6657195 4288085770
-0.42199135 5.8961029 -1.6774821 4288085770
3.7672501 8.4088631 -1.654581 4288085770
-0.25323868 6.061554 -1.6767373 4288085770
-0.030937195 6.2618523 -1.6823127 4288085770
0.22506142 6.4846787 -1.6914537 4288085770
0.51868629 6.7350807 -1.7030834 4288085770
0.82617569 6.9946828 -1.7145348 4288085770
1.0701485 7.2141972 -1.7107782 4288085770
1.3448048 7.4561648 -1.7076048 4288085770
1.6016026 7.6858101 -1.6986649 4288085770
1.9079399 7.949213 -1.6930794 4288085770
2.2241497 8.2207375 -1.6853497 4288085770
2.5581703 8.5044956 -1.6753863 4293729569
10.582066 -0.074133515 -1.6536645 4288085770
9.4858971 -0.12575048 -1.6715416 4288085770
8.4125328 -0.16713518 -1.6801773 4288085770
7.4771309 -0.20350862 -1.6909636 4288085770
6.5635567 -0.23166406 -1.6925358 4288085770
5.8440952 -0.26088625 -1.7069999 4288085770
5.1735821 -0.28641671 -1.7201425 4288085770
4.5349808 -0.30753094 -1.7290533 4288085770
3.9303017 -0.32419091 -1.7347207 4288085770
10.051968 -0.68467039 -1.6832347 4288085770
3.387619 -0.33892912 -1.7430099 4288085770
8.8358765 -0.67711693 -1.6901714 4288085770
2.8989353 -0.35288209 -1.7519791 4288085770
7.8118954 -0.6737445 -1.7020445 4288085770
2.42519 -0.36365253 -1.7578281 4288085770
6.8297958 -0.66484576 -1.7066166 4288085770
2.0174809 -0.37442261 -1.7682964 4288085770
6.0258255 -0.66030735 -1.718208 4288085770
1.6157303 -0.38312823 -1.7767082 4288085770
5.2567902 -0.65229958 -1.7265605 4288085770
1.2329197 -0.388583 -1.7829758 4288085770
4.6198387 -0.64734465 -1.7391837 4288085770
0.89115334 -0.39541739 -1.7920214 4288085770
3.9727993 -0.63859779 -1.7458242 4288085770
0.58740044 -0.40167457 -1.8038418 4288085770
3.3867474 -0.62897629 -1.7521036 4288085770
0.25452423 -0.40344471 -1.8067818 4288085770
2.8617344 -0.62045819 -1.7600425 4288085770
-0.058366776 -0.40392822 -1.8095927 4288085770
2.3626823 -0.61059922 -1.7648172 4288085770
-0.3933754 -0.39981371 -1.8044816 4288085770
1.938715 -0.60359997 -1.7751895 4288085770
-0.72644806 -0.39271373 -1.7953272 4288085770
1.485611 -0.59111398 -1.7766711 4288085770
-0.9823513 -0.39135832 -1.7997898 4288085770
1.1286373 -0.58315414 -1.7866462 4288085770
-1.2122478 -0.38961917 -1.8050982 4288085770
0.77763939 -0.57411855 -1.7955757 4288085770
-1.4722576 -0.38440698 -1.8015428 4288085770
0.44962502 -0.56477469 -1.8023694 4288085770
-1.6972237 -0.37963945 -1.80279 4288085770
0.1506443 -0.55598277 -1.8120012 4288085770
-1.9161949 -0.37479645 -1.8030021 4288085770
-0.16442108 -0.54449576 -1.8146968 4288085770
-2.1251831 -0.36881024 -1.8031443 4288085770
-0.53773499 -0.52302438 -1.8006209 4288085770
-2.3211708 -0.36263782 -1.8032094 4288085770
-0.85091782 -0.50659496 -1.7952526 4288085770
-2.5061512 -0.35628587 -1.8052092 4288085770
-1.0899181 -0.49696416 -1.8025293 4288085770
-2.6921616 -0.34898049 -1.8042046 4288085770
-1.341011 -0.48357004 -1.8038353 4288085770
-2.8641529 -0.34246355 -1.8041277 4288085770
-1.5961552 -0.46827656 -1.8011442 4288085770
-3.0191307 -0.33567065 -1.8069496 4288085770
-1.8102093 -0.45633036 -1.8042521 4288085770
-3.1721268 -0.32785994 -1.8087493 4288085770
-2.0373573 -0.44063526 -1.8013952 4288085770
-3.3321609 -0.31919247 -1.8065802 4288085770
-2.2454662 -0.42664605 -1.8004466 4288085770
-3.4741707 -0.3112455 -1.8063149 4288085770
-2.4355507 -0.41337723 -1.801402 4288085770
-3.593111 -0.30489308 -1.8129339 4288085770
-2.6136169 -0.40092522 -1.8032967 4288085770
-3.7431927 -0.29411471 -1.8076848 4288085770
-2.793726 -0.38653439 -1.8021824 4288085770
-3.8501396 -0.28759044 -1.8142327 4288085770
-2.9507751 -0.37477058 -1.8049632 4288085770
-3.9842091 -0.27656102 -1.8108886 4288085770
-3.1098709 -0.36106795 -1.8047351 4288085770
-3.2700024 -0.34641153 -1.8015025 4288085770
-3.4000359 -0.33422822 -1.8071231 4288085770
-3.559206 -0.31759006 -1.8008636 4288085770
-3.6692047 -0.30709845 -1.8083867 4288085770
-3.7842369 -0.29572141 -1.8119292 4288085770
-3.9083347 -0.28151667 -1.8114936 4288085770
-4.0184021 -0.26807904 -1.8139853 4288085770
-4.1572056 1.5605171 -1.7449039 4288085770
-4.0403442 1.5801985 -1.7460065 4288085770
-3.9214993 1.5998871 -1.7450972 4288085770
-3.8106251 1.6164186 -1.7402683 4288085770
-3.6857662 1.6351817 -1.7383333 4288085770
-3.5569077 1.6540017 -1.7363744 4288085770
-3.4060783 1.6771886 -1.7392399 4288085770
-3.2642231 1.6961938 -1.7372026 4288085770
-4.1040325 1.5452689 -1.7497461 4288085770
-3.1083832 1.7174199 -1.7370596 4288085770
-3.9851112 1.5599577 -1.7488899 4288085770
-2.9525356 1.7376351 -1.7359272 4288085770
-3.8751678 1.5714753 -1.7441202 4288085770
-2.7916965 1.757911 -1.7337644 4288085770
-3.7362309 1.587503 -1.7481326 4288085770
-2.6178646 1.7793822 -1.7325128 4288085770
-3.6132832 1.5992166 -1.7442842 4288085770
-2.4450226 1.7988074 -1.7282888 4288085770
-3.4753475 1.6131761 -1.743324 4288085770
-2.2541885 1.8205316 -1.7279345 4288085770
-3.3264236 1.6293243 -1.7452763 4288085770
-2.0463696 1.843498 -1.7274673 4288085770
-3.1874638 1.6402661 -1.7413422 4288085770
-1.8395424 1.8654397 -1.7260166 4288085770
-3.0245285 1.6556138 -1.7432203 4288085770
-1.5987549 1.8919082 -1.7283182 4288085770
-2.8795528 1.6646194 -1.7372715 4288085770
-1.3889008 1.9098384 -1.7218924 4288085770
-2.7076149 1.6790738 -1.7371062 4288085770
-1.1460876 1.932271 -1.7182248 4288085770
-2.4837151 1.7013979 -1.7485523 4288085770
-0.90027809 1.954746 -1.7145392 4288085770
-2.3247318 1.7095921 -1.7415298 4288085770
-0.63247108 1.9775345 -1.7107208 4288085770
-2.1427536 1.7201567 -1.7383468 4288085770
-0.35764694 1.9994228 -1.7068707 4288085770
-1.9407978 1.7330277 -1.7370219 4288085770
-0.063850403 2.0225706 -1.7018957 4288085770
-1.748806 1.7417135 -1.7318003 4288085770
0.23397446 2.0427434 -1.6939285 4288085770
-1.5308228 1.7528126 -1.7304001 4288085770
0.56277466 2.0664005 -1.6897422 4288085770
-1.3228264 1.7607155 -1.7240926 4288085770
0.90557098 2.0892246 -1.6824826 4288085770
-1.0868378 1.77106 -1.7215947 4288085770
1.3143044 2.1200745 -1.6827499 4288085770
-0.83085251 1.782711 -1.7209654 4288085770
1.7480469 2.1502697 -1.6818771 4288085770
-0.55985641 1.7935758 -1.7202563 4288085770
2.1778145 2.1763539 -1.6760712 4288085770
-0.30683517 1.8001194 -1.7136985 4288085770
2.6845226 2.2095993 -1.675737 4288085770
-0.04678154 1.8037417 -1.7051307 4288085770
3.1553059 2.2332246 -1.6657161 4288085770
0.28322411 1.8154786 -1.7070656 4288085770
3.6820507 2.2606688 -1.6573254 4288085770
0.62024117 1.8252833 -1.7059796 4288085770
4.2128315 2.2831054 -1.6429641 4288085770
0.93432236 1.8276854 -1.6981074 4288085770
4.8155785 2.3106213 -1.6331258 4288085770
1.2873802 1.8326755 -1.6929785 4288085770
5.4323578 2.3332829 -1.6182567 4288085770
1.7004204 1.8425946 -1.6944448 4288085770
6.1690445 2.3657064 -1.6075786 4288085770
2.1095066 1.8474035 -1.6909887 4288085770
6.9237823 2.3933542 -1.5938451 4288085770
2.5166206 1.8481407 -1.6835872 4288085770
7.8623943 2.4347188 -1.5878847 4288085770
2.9887428 1.850847 -1.679783 4288085770
8.8939781 2.4783967 -1.580353 4288085770
3.4379063 1.8481719 -1.6711707 4288085770
10.036533 2.5236442 -1.5711519 4288085770
3.9480877 1.8453872 -1.6642014 4288085770
4.4962864 1.8411331 -1.6560242 4288085770
5.0655231 1.8341672 -1.6467522 4288085770
5.7127686 1.8283448 -1.6400098 4288085770
6.38908 1.8169141 -1.6311563 4288085770
7.1553974 1.8067868 -1.62376 4288085770
7.9597836 1.7911792 -1.6141984 4288085770
8.8682022 1.7740636 -1.6050416 4288085770
9.9546471 1.7605908 -1.6048 4288085770
2.2910805 -7.3418851 -1.8826557 4288085770
1.8811264 -7.0576801 -1.8840116 4288085770
1.5590343 -6.8301425 -1.8934598 4288085770
1.2318363 -6.5967216 -1.8988746 4288085770
0.91568375 -6.368187 -1.9002767 4288085770
0.6368866 -6.1630893 -1.9047109 4288085770
0.37018967 -5.9648213 -1.9091473 4288085770
0.11252403 -5.7704673 -1.9095726 4288085770
-0.13001442 -5.5848999 -1.9100028 4288085770
-0.34226227 -5.4178596 -1.9144545 4288085770
2.7610321 -7.3252873 -1.8826562 4288085770
-0.57374763 -5.2381878 -1.9098831 4288085770
2.3921165 -7.0434976 -1.8837957 4288085770
-0.7719059 -5.0789909 -1.9103358 4288085770
2.0494576 -6.7803583 -1.8829811 4288085770
-0.94380569 -4.936389 -1.9138125 4288085770
1.7431107 -6.5376711 -1.8851726 4288085770
-1.1005821 -4.8025742 -1.9172944 4288085770
1.486269 -6.3282409 -1.8914303 4288085770
-1.2452526 -4.6755757 -1.9217786 4288085770
1.2192841 -6.1110072 -1.8926635 4288085770
-1.3889389 -4.5485964 -1.9232568 4288085770
0.99572372 -5.9221258 -1.8969461 4288085770
-1.5225372 -4.4274626 -1.9257385 4288085770
0.75800896 -5.7245002 -1.8962177 4288085770
-1.6551476 -4.3063369 -1.9262145 4288085770
0.55462074 -5.5483546 -1.8985182 4288085770
-1.7776737 -4.1910677 -1.9266938 4288085770
0.36231995 -5.3790736 -1.8988272 4288085770
-1.8810196 -4.0875058 -1.929186 4288085770
0.18112373 -5.2166257 -1.9001442 4288085770
-2.0035706 -3.9722798 -1.9256661 4288085770
0.013040543 -5.0630007 -1.9004788 4288085770
-2.1210995 -3.8589933 -1.9211371 4288085770
-0.15001869 -4.9113264 -1.8988048 4288085770
-2.2275066 -3.7535393 -1.917627 4288085770
-0.28580093 -4.7772245 -1.9011589 4288085770
-2.3248253 -3.6539443 -1.9151263 4288085770
-0.40543747 -4.6528816 -1.904523 4288085770
-2.392889 -3.5698826 -1.9176202 4288085770
-0.5028801 -4.541204 -1.9098923 4288085770
-2.4791145 -3.4771421 -1.9141278 4288085770
-0.59325027 -4.4344258 -1.9152725 4288085770
-2.5704136 -3.3805058 -1.9076231 4288085770
-0.70181084 -4.3169703 -1.9146451 4288085770
-2.6273632 -3.3042862 -1.910136 4288085770
-0.80635071 -4.201467 -1.9130149 4288085770
-2.704546 -3.2154388 -1.9046319 4288085770
-0.89876938 -4.0937815 -1.9123973 4288085770
-2.754467 -3.1421416 -1.9051344 4288085770
-1.0164299 -3.9725296 -1.9047824 4288085770
-2.8225822 -3.058176 -1.8986292 4288085770
-1.10886 -3.8658874 -1.900176 4288085770
-2.8684464 -2.9888215 -1.8991505 4288085770
-1.1770687 -3.7728603 -1.8995733 4288085770
-2.9315281 -2.9077964 -1.8916471 4288085770
-1.2533646 -3.6749785 -1.8959658 4288085770
-2.9754086 -2.8384449 -1.8891563 4288085770
-1.309473 -3.5887687 -1.8963649 4288085770
-3.0021439 -2.777808 -1.8906581 4288085770
-1.3605404 -3.5054986 -1.8957659 4288085770
-3.038969 -2.7123575 -1.8881676 4288085770
-1.4166698 -3.4193313 -1.8921652 4288085770
-1.4441051 -3.3363717 -1.8993248 4288085770
-3.0821381 -2.5861371 -1.891184 4288085770
-1.4841042 -3.2599664 -1.8977125 4288085770
-3.1028461 -2.5294535 -1.8896877 4288085770
-1.5069714 -3.1912835 -1.8991007 4288085770
-3.1316242 -2.4689176 -1.8851889 4288085770
-1.555048 -3.1110475 -1.8924861 4288085770
-3.1452904 -2.4151323 -1.8836898 4288085770
-1.5658302 -3.0481894 -1.8938783 4288085770
-3.1438332 -2.3680768 -1.8871903 4288085770
-1.5836658 -2.9824536 -1.8932735 4288085770
-3.1776638 -2.3056655 -1.8776952 4288085770
-1.5994949 -2.9177105 -1.8906695 4288085770
-3.1731853 -2.2605872 -1.8792019 4288085770
-1.6294422 -2.8462121 -1.8840609 4288085770
-3.1737728 -2.211602 -1.8786916 4288085770
-1.6422596 -2.7824244 -1.8814529 4288085770
-3.1501579 -2.1741951 -1.8851887 4288085770
-1.6278648 -2.7311931 -1.8838481 4288085770
-3.1467094 -2.1281619 -1.8836901 4288085770
-1.6286068 -2.672231 -1.8812335 4288085770
-3.1553497 -2.0773456 -1.8781981 4288085770
-1.635376 -2.6123769 -1.8766378 4288085770
-3.1347866 -2.0380342 -1.8796892 4288085770
-1.6179943 -2.5611324 -1.8760188 4288085770
-3.1504898 -1.9843616 -1.8702004 4288085770
-1.6106815 -2.5060544 -1.8734068 4288085770
-3.1410313 -1.9392519 -1.8676831 4288085770
-1.6023788 -2.4509828 -1.86879 4288085770
-3.0832233 -1.9133096 -1.8781391 4288085770
-1.5618553 -2.4083729 -1.8711524 4288085770
-3.1201038 -1.8510351 -1.8596596 4288085770
-1.5465126 -2.3561988 -1.8665329 4288085770
-3.0874767 -1.8155394 -1.8621339 4288085770
-1.5080452 -2.3106391 -1.8668737 4288085770
-3.0508442 -1.7809958 -1.8635992 4288085770
-1.4675503 -2.2670612 -1.8662258 4288085770
-3.0262985 -1.7416685 -1.8610711 4288085770
-1.4391327 -2.2196987 -1.8615949 4288085770
-2.9977417 -1.7032833 -1.858534 4288085770
-1.3966579 -2.1751025 -1.8599268 4288085770
-2.9581108 -1.6687069 -1.8589846 4288085770
-1.3592148 -2.1296093 -1.8552728 4288085770
-2.9174671 -1.6351161 -1.8594407 4288085770
-1.2895794 -2.0945787 -1.857577 4288085770
-2.8718281 -1.6014631 -1.8588725 4288085770
-1.2360821 -2.0518332 -1.8548759 4288085770
-2.8292103 -1.5668645 -1.8573086 4288085770
-1.1654701 -2.0158093 -1.855165 4288085770
-2.7684975 -1.5369525 -1.8607088 4288085770
-1.1079636 -1.974016 -1.8514551 4288085770
-2.7168484 -1.5042233 -1.8591217 4288085770
-1.0383949 -1.936039 -1.8487279 4288085770
-2.6853237 -1.4648368 -1.8525597 4288085770
-0.95980644 -1.89891 -1.8479677 4288085770
-2.5904617 -1.4433794 -1.8608874 4288085770
-0.87317467 -1.8646755 -1.8461993 4288085770
-2.5378189 -1.410646 -1.8582954 4288085770
-0.7785244 -1.8313041 -1.8464024 4288085770
-2.4791756 -1.3778262 -1.8556743 4288085770
-0.67887688 -1.7978711 -1.8455811 4288085770
-2.3913879 -1.3525128 -1.8599946 4288085770
-0.57723045 -1.7644091 -1.84475 4288085770
-2.3528824 -1.313067 -1.8493985 4288085770
-0.45850563 -1.7356799 -1.8458878 4288085770
-2.2530575 -1.2895586 -1.8556808 4288085770
-0.3508873 -1.7011628 -1.8420172 4288085770
-2.1914482 -1.2557375 -1.8490345 4288085770
-0.21617699 -1.6712024 -1.8430667 4288085770
-2.0896664 -1.2302322 -1.8522867 4288085770
-0.082456589 -1.6422668 -1.8431313 4288085770
-2.0069828 -1.2000649 -1.8495795 4288085770
0.074300766 -1.6149776 -1.8451047 4288085770
-1.9152813 -1.1707575 -1.8478389 4288085770
0.22502708 -1.5868068 -1.8440969 4288085770
-1.8235874 -1.1414602 -1.8450981 4288085770
0.3867588 -1.5584664 -1.8440353 4288085770
-1.720871 -1.112993 -1.8433141 4288085770
0.56452179 -1.5318842 -1.8449165 4288085770
-1.617157 -1.084512 -1.841525 4288085770
0.72517586 -1.4996011 -1.8408183 4288085770
-1.4873676 -1.0596125 -1.8436506 4288085770
0.8938427 -1.4682128 -1.8356913 4288085770
-1.3566036 -1.0337198 -1.8437611 4288085770
1.0955906 -1.4413047 -1.8344554 4288085770
-1.2429352 -1.0031259 -1.8389026 4288085770
1.248127 -1.4032116 -1.8233339 4288085770
-1.0740547 -0.98260957 -1.8458896 4288085770
1.4789028 -1.3778844 -1.8219771 4288085770
-0.97950554 -0.94637495 -1.8330616 4288085770
1.7327213 -1.3541927 -1.8235288 4288085770
-0.86790276 -0.91286272 -1.8231817 4288085770
1.989481 -1.3274901 -1.8220347 4288085770
-0.7091465 -0.88657624 -1.8221554 4288085770
2.2161045 -1.294306 -1.8126144 4288085770
-0.54441643 -0.85921305 -1.8200893 4288085770
2.4968472 -1.2672772 -1.8090035 4288085770
-0.37167549 -0.83172423 -1.8189842 4288085770
2.8066139 -1.2408085 -1.8072611 4288085770
-0.14382172 -0.809367 -1.8246727 4288085770
3.0952778 -1.2097178 -1.7985693 4288085770
0.06495285 -0.78333718 -1.8254124 4288085770
3.4500523 -1.1836097 -1.7956177 4288085770
0.26064301 -0.75355822 -1.8201742 4288085770
3.8418579 -1.1589456 -1.7945061 4288085770
0.48739433 -0.72628969 -1.8188158 4288085770
4.2696896 -1.1357615 -1.7932398 4288085770
0.69405746 -0.69537312 -1.8115132 4288085770
4.6503201 -1.1023629 -1.7820883 4288085770
0.94676971 -0.66573972 -1.8090069 4288085770
5.1090317 -1.0727947 -1.7746083 4288085770
1.1723881 -0.63258082 -1.7985909 4288085770
5.644846 -1.0480609 -1.7718146 4288085770
1.4420948 -0.60271245 -1.7950014 4288085770
6.1464996 -1.015924 -1.7591038 4288085770
1.7568016 -0.57217306 -1.7931921 4288085770
6.7532692 -0.98818654 -1.7539425 4288085770
2.0704975 -0.54167956 -1.7883879 4288085770
7.4130249 -0.95970351 -1.7465227 4288085770
2.3871365 -0.50817496 -1.7805377 4288085770
8.0977097 -0.92790252 -1.7349495 4288085770
2.7347736 -0.47421211 -1.773536 4288085770
8.9935837 -0.90393609 -1.7334608 4288085770
3.1164093 -0.439758 -1.7663682 4288085770
9.801178 -0.86641127 -1.7162455 4288085770
3.5490665 -0.40553588 -1.7619617 4288085770
10.816944 -0.83678597 -1.7071292 4288085770
4.0057125 -0.37097734 -1.7564381 4288085770
4.4852676 -0.33112973 -1.7467501 4288085770
5.0328789 -0.29325765 -1.7407612 4288085770
5.6174335 -0.25187284 -1.7325602 4288085770
6.2699795 -0.20950586 -1.7240268 4288085770
7.0145073 -0.16478962 -1.7170337 4288085770
7.8199787 -0.11621368 -1.7077116 4288085770
8.7604332 -0.064657152 -1.7007194 4288085770
9.8418694 -0.010043383 -1.6950281 4288085770
11.003174 0.05166173 -1.6828836 4288085770
11.129883 2.7329924 -1.594211 4288085770
10.579929 2.8040764 -1.5941429 4288085770
10.077953 2.8768594 -1.594823 4288085770
9.6709366 2.955056 -1.5999837 4288085770
9.2609711 3.0281689 -1.6012123 4288085770
8.9439392 3.1086764 -1.60791 4288085770
8.5640545 3.1751792 -1.6050612 4288085770
8.2760429 3.2530725 -1.6086454 4288085770
8.0050507 3.3302095 -1.6121542 4288085770
7.7949734 3.4142408 -1.6172938 4288085770
7.554966 3.4918015 -1.6186473 4288085770
7.3339691 3.568635 -1.6199157 4288085770
7.1438866 3.651922 -1.6219658 4288085770
6.9897995 3.7367461 -1.6258239 4288085770
6.812746 3.8171887 -1.6248403 4288085770
6.6836376 3.9033604 -1.6275624 4288085770
6.5544872 3.9915113 -1.6282642 4288085770
6.4443398 4.0799446 -1.6298702 4288085770
6.3002987 4.1588302 -1.6257417 4288085770
6.2639523 4.2633729 -1.6318187 4288085770
6.2046585 4.362536 -1.633064 4288085770
6.1762524 4.4701619 -1.6360699 4288085770
6.1478443 4.5777774 -1.6380757 4288085770
6.1363735 4.6896477 -1.6409547 4288085770
6.1418495 4.8057594 -1.6437057 4288085770
6.1492882 4.9238787 -1.6444265 4288085770
6.1158581 5.0303507 -1.6394683 4288085770
6.1232758 5.1494484 -1.6381785 4288085770
6.1535892 5.2758861 -1.6376998 4288085770
6.1868839 5.4033451 -1.6351956 4288085770
6.2549934 5.5443234 -1.6343796 4288085770
6.4117069 5.7166662 -1.641802 4288085770
6.515604 5.8731685 -1.6416481 4288085770
6.7120399 6.0650811 -1.6486708 4288085770
6.9532127 6.2766652 -1.6582685 4288085770
7.1754208 6.4839258 -1.6630037 4288085770
7.4533062 6.7160368 -1.672206 4288085770
7.6485252 6.919837 -1.6701087 4288085770
7.825819 7.1173501 -1.6651645 4288085770
8.0358791 7.3313332 -1.6598874 4288085770
8.2548122 7.553422 -1.6524818 4288085770
8.5960236 7.8303676 -1.6539025 4288085770
8.8595772 8.0790854 -1.6449986 4288085770
9.1529083 8.3432302 -1.6357868 4288085770
9.9784698 0.31745216 -1.6723825 4288085770
8.6919727 0.28415778 -1.6821903 4288085770
7.5383797 0.25774607 -1.690259 4288085770
6.5797653 0.23514125 -1.7003086 4288085770
5.7641525 0.2156347 -1.7156079 4288085770
4.9564362 0.20014787 -1.7218257 4288085770
4.2627201 0.1863153 -1.7304538 4288085770
10.57061 0.085714936 -1.6667399 4288085770
3.6509781 0.1756705 -1.7406369 4288085770
9.2387428 0.079842448 -1.6824952 4288085770
3.0902367 0.16577291 -1.7525563 4288085770
7.9897823 0.078057289 -1.6887916 4288085770
2.5564442 0.1582073 -1.7593161 4288085770
6.9608803 0.075466573 -1.6999899 4288085770
2.0876427 0.15259796 -1.7687291 4288085770
6.0399609 0.0754233 -1.7116194 4288085770
1.6788731 0.14689523 -1.7828414 4288085770
5.2020092 0.076519847 -1.7188197 4288085770
1.2570171 0.14391315 -1.7879914 4288085770
4.4990997 0.077600658 -1.7313415 4288085770
0.94927216 0.13972098 -1.8085804 4288085770
3.807127 0.080764949 -1.7367868 4288085770
0.6615181 0.1358031 -1.8280663 4282675967
3.2171783 0.084422767 -1.7457139 4288085770
0.38272667 0.13399237 -1.8454853 4282675967
2.6922436 0.088026822 -1.7563149 4288085770
0.028768539 0.13590515 -1.8432434 4282675967
2.199297 0.092065394 -1.7647505 4288085770
-0.4914875 0.14405829 -1.8037726 4288085770
1.7783642 0.097170532 -1.7768129 4288085770
-0.83250999 0.14808315 -1.7944438 4288085770
1.351387 0.10313821 -1.783897 4288085770
-1.1324959 0.15174389 -1.7899129 4288085770
1.0124931 0.10745221 -1.7995555 4288085770
-1.3533993 0.15466458 -1.7979919 4288085770
0.72262573 0.11150551 -1.8189698 4288085770
-1.6194057 0.15979868 -1.7922748 4288085770
0.47377586 0.11618388 -1.8421715 4282675967
-1.8543854 0.16441584 -1.7904071 4288085770
0.14176369 0.12447232 -1.845754 4282675967
-2.0703506 0.16933483 -1.791441 4288085770
-0.3495388 0.13810152 -1.8120826 4288085770
-2.2663212 0.17453843 -1.7923712 4288085770
-0.73170853 0.14945924 -1.794886 4288085770
-2.4512787 0.17991954 -1.7952443 4288085770
-1.0357876 0.15905243 -1.7893147 4288085770
-2.6492958 0.18705273 -1.7921649 4288085770
-1.2817917 0.1675756 -1.7934626 4288085770
-2.8042431 0.19289219 -1.7978824 4288085770
-1.5418644 0.17781603 -1.7896634 4288085770
-2.9772415 0.19939196 -1.795684 4288085770
-1.785923 0.18728423 -1.7857919 4288085770
-3.13624 0.20610136 -1.7944129 4288085770
-2.0079708 0.19709677 -1.7848059 4288085770
-3.2772141 0.21311903 -1.7980483 4288085770
-2.2019901 0.20633915 -1.7866849 4288085770
-3.4131947 0.22019753 -1.8006575 4288085770
-2.3910179 0.21564239 -1.7875384 4288085770
