# .PCD v0.7 - Point Cloud Data file format
VERSION 0.7
FIELDS x y z rgb
SIZE 4 4 4 4
TYPE F F F U
COUNT 1 1 1 1
WIDTH 1121
HEIGHT 1
VIEWPOINT 0 0 0 1 0 0 0
POINTS 1121
DATA ascii
5.3251343 -0.90864086 -1.847733 4288085770
5.1762695 -0.88970184 -1.8410314 4288085770
5.0534058 -0.87468338 -1.8424574 4288085770
5.0169678 1.0612421 -1.7851791 4288085770
5.1430969 1.07722 -1.7844232 4288085770
5.2922058 1.0972452 -1.7887018 4288085770
5.4313049 1.1142321 -1.7889763 4288085770
5.5874634 1.1332474 -1.792285 4288085770
5.7485657 1.1532602 -1.7955995 4288085770
5.9136963 1.1712561 -1.7969444 4288085770
6.093811 1.192277 -1.8013077 4288085770
5.0879211 1.0402393 -1.7895727 4288085770
6.2819214 1.2122898 -1.8047047 4288085770
5.2310181 1.0542622 -1.7938862 4288085770
6.4830933 1.2323093 -1.8091413 4288085770
5.367157 1.0652418 -1.7932051 4288085770
6.6622009 1.2482681 -1.806546 4288085770
5.5162964 1.0772467 -1.7955548 4288085770
6.8773193 1.2692785 -1.8100157 4288085770
5.6794128 1.0902786 -1.800938 4288085770
7.1064453 1.2902966 -1.814528 4288085770
5.8335266 1.1012573 -1.8003113 4288085770
7.3635864 1.3143415 -1.8220985 4288085770
6.0046692 1.1132698 -1.8037275 4288085770
7.5997009 1.3333244 -1.8226495 4288085770
6.2237549 1.1313715 -1.8172362 4288085770
7.8538208 1.3523054 -1.8232553 4288085770
6.3789062 1.1383038 -1.8116479 4288085770
8.1089783 1.3692579 -1.820882 4288085770
6.585022 1.1503325 -1.8171704 4288085770
8.4010925 1.3912544 -1.823576 4288085770
6.7971497 1.1623535 -1.8217106 4288085770
8.689209 1.4092159 -1.822293 4288085770
6.9902954 1.17031 -1.8192283 4288085770
9.0213318 1.4322195 -1.8260993 4288085770
7.2153931 1.1803198 -1.8228256 4288085770
9.3774414 1.4552298 -1.8309784 4288085770
7.4345398 1.1882839 -1.8214219 4288085770
9.7435913 1.4762039 -1.8319054 4288085770
7.6926575 1.1993113 -1.8271099 4288085770
10.133698 1.4981871 -1.8338957 4288085770
7.9257812 1.2042561 -1.8237752 4288085770
10.553833 1.5211754 -1.8369678 4288085770
8.1899109 1.2112455 -1.8255165 4288085770
11.026947 1.5461807 -1.8421832 4288085770
8.4800415 1.2192335 -1.8273276 4288085770
11.506104 1.569149 -1.8434337 4288085770
8.782135 1.2262297 -1.8301836 4288085770
12.050201 1.596158 -1.8498455 4288085770
9.1042786 1.2342348 -1.8340907 4288085770
12.638306 1.6231565 -1.8553904 4288085770
9.4324036 1.2382116 -1.8350515 4288085770
13.281464 1.6511517 -1.8610928 4288085770
9.7805176 1.2411871 -1.8360816 4288085770
13.98056 1.6801529 -1.8679556 4288085770
10.177673 1.2471962 -1.8412329 4288085770
14.726685 1.7081318 -1.8729688 4288085770
10.581757 1.2501764 -1.8434317 4288085770
15.537811 1.7371073 -1.8781689 4288085770
11.030914 1.2541933 -1.8497574 4288085770
16.495911 1.7731314 -1.8897524 4288085770
11.498016 1.2551889 -1.8541638 4288085770
17.566986 1.8111658 -1.9036595 4288085770
11.971161 1.2521477 -1.854623 4288085770
18.745087 1.8511839 -1.9168713 4288085770
12.509277 1.2511415 -1.8592607 4288085770
13.098419 1.2481394 -1.86507 4288085770
13.742462 1.2461624 -1.8740356 4288085770
14.440582 1.2401714 -1.8821995 4288085770
15.196686 1.2331781 -1.8905464 4288085770
15.980835 1.2201567 -1.8960302 4288085770
16.864929 1.2051477 -1.9038332 4288085770
17.882019 1.1901751 -1.9170365 4288085770
19.005127 1.171216 -1.9325941 4288085770
7.2637024 -5.3318853 -0.8818903 4293729569
7.3926392 -5.4283586 -0.94504583 4293729569
7.4406128 -5.4649148 -0.99746072 4293729569
11.120941 -7.9978523 -0.8293612 4293729569
11.022125 -7.9878788 -1.5200076 4293729569
11.024048 -7.9872808 -1.5899582 4293729569
7.5435486 -5.5335841 -1.154237 4293729569
11.162781 -7.9980879 -1.0353274 4293729569
7.5425415 -5.5271821 -1.2011461 4293729569
11.178711 -7.9935074 -1.1032813 4293729569
7.4835815 -5.4778466 -1.2395272 4293729569
7.4836121 -5.4664555 -1.2853963 4293729569
7.2209473 -5.2144685 -0.81547582 4293729569
7.4706421 -5.444087 -1.3281374 4293729569
7.2709656 -5.2320685 -0.8627336 4293729569
7.4956055 -5.4466724 -1.3771951 4293729569
7.7927551 -5.5712504 -0.96603882 4293729569
7.5026245 -5.4342813 -1.423075 4293729569
7.5748901 -5.3990684 -0.98393238 4293729569
7.4626465 -5.3869667 -1.4595268 4293729569
7.8338013 -5.5514522 -1.0599121 4293729569
7.442688 -5.350626 -1.4991279 4293729569
7.8927612 -5.5640297 -1.1101459 4293729569
7.4616699 -5.3402376 -1.5450578 4293729569
7.9277649 -5.5576243 -1.1581516 4293729569
7.8634644 -5.5882459 -1.667244 4293729569
7.9397888 -5.5342517 -1.201949 4293729569
8.0253601 -5.6686177 -1.7433382 4293729569
7.6989136 -5.3401818 -1.2065978 4293729569
8.0863647 -5.676156 -1.7985328 4293729569
7.2841492 -5.0303416 -1.1817861 4293729569
7.8985291 -5.5151348 -1.7986087 4293729569
7.3111267 -5.0139971 -1.2226878 4293729569
7.6976624 -5.3451471 -1.7945747 4293729569
7.2861938 -4.9607353 -1.2531328 4293729569
7.5068359 -5.1811767 -1.7886213 4293729569
7.3552246 -4.9673586 -1.2983446 4293729569
7.3719482 -5.0551248 -1.7931457 4293729569
7.4322205 -4.9769745 -1.3446031 4293729569
7.2980347 -4.9669809 -1.8091604 4293729569
7.3033447 -4.8538785 -1.3541713 4293729569
7.1801758 -4.8499308 -1.8138101 4293729569
7.4502869 -4.9034047 -1.4119592 4293729569
7.0473328 -4.7239289 -1.8123444 4293729569
7.5183105 -4.9000473 -1.4550817 4293729569
6.9274292 -4.6049194 -1.8119771 4293729569
9.1964417 -5.8943477 -1.797056 4293729569
6.7966003 -4.4799619 -1.8055285 4293729569
9.0095825 -5.7213354 -1.7960373 4293729569
6.7916565 -4.4327469 -1.8310835 4293729569
8.8557434 -5.5692992 -1.7982882 4293729569
6.8237305 -4.407474 -1.8639252 4288085770
8.7128601 -5.4232645 -1.8006216 4293729569
6.8937073 -4.4031277 -1.9060473 4288085770
8.3391418 -5.1426148 -1.7541904 4293729569
7.034729 -4.4406409 -1.965716 4282675967
8.0393677 -4.9078755 -1.7193522 4293729569
6.9778137 -4.3575773 -1.9728265 4282675967
7.7835999 -4.7030883 -1.6908902 4293729569
6.8659668 -4.2406464 -1.9635023 4282675967
8.0845032 -4.819417 -1.774652 4293729569
6.7921143 -4.1466579 -1.9614762 4282675967
8.1465149 -4.7951312 -1.8095775 4293729569
6.6773071 -4.0287609 -1.9481382 4282675967
8.0426941 -4.6761403 -1.8072542 4293729569
6.5794678 -3.9228473 -1.9369489 4288085770
7.9758301 -4.5791016 -1.8112175 4293729569
6.509613 -3.830884 -1.9319541 4288085770
7.9149475 -4.4840636 -1.815215 4293729569
6.4547424 -3.749898 -1.9300933 4288085770
7.993988 -4.4648046 -1.8472294 4293729569
6.3969421 -3.6659355 -1.9252001 4288085770
8.1280212 -4.4734488 -1.8916261 4288085770
6.36203 -3.5949244 -1.9264789 4288085770
8.263031 -4.480092 -1.936008 4288085770
6.3171692 -3.5189462 -1.9236896 4288085770
8.3340759 -4.4508686 -1.963915 4288085770
6.2713318 -3.4439845 -1.918908 4288085770
8.3012085 -4.3678403 -1.9670917 4282675967
6.2404785 -3.3749905 -1.9182165 4288085770
8.2433472 -4.2718635 -1.9640914 4282675967
6.226593 -3.3149714 -1.9206467 4288085770
6.0558777 -3.1287446 -1.4735875 4293729569
6.1947632 -3.2470112 -1.9159625 4288085770
5.9640503 -3.0348716 -1.4575266 4293729569
6.1818848 -3.189002 -1.9174134 4288085770
5.960144 -2.9838433 -1.4610617 4293729569
6.1620483 -3.1260242 -1.914804 4288085770
5.9393005 -2.9248557 -1.4594852 4293729569
6.1202087 -3.0531139 -1.9040532 4288085770
5.9424438 -2.8768282 -1.463065 4293729569
6.0323792 -2.9603109 -1.8800138 4288085770
6.234375 -2.9592896 -1.5315084 4293729569
6.0664978 -2.9232368 -1.8897674 4288085770
6.5422974 -3.0437269 -1.6030085 4293729569
6.1286011 -2.899097 -1.9077041 4288085770
6.1936646 -2.837359 -1.5233252 4293729569
6.1347351 -2.8481059 -1.9072667 4288085770
6.1678467 -2.7744217 -1.5157032 4293729569
6.1468506 -2.801096 -1.908879 4288085770
6.3208618 -2.7871618 -1.5491893 4293729569
6.1540222 -2.7511144 -1.9074534 4288085770
6.4569397 -2.7909422 -1.5775547 4293729569
6.1611328 -2.701139 -1.9050281 4288085770
6.6779175 -2.8275776 -1.6244183 4293729569
6.1832886 -2.6571407 -1.9056928 4288085770
6.7659912 -2.8074656 -1.6394548 4293729569
6.1914368 -2.6081743 -1.9022791 4288085770
6.9151001 -2.8092484 -1.6678348 4293729569
6.2285156 -2.5691519 -1.9060252 4288085770
7.2230225 -2.8707652 -1.7301313 4293729569
6.2427063 -2.5211945 -1.9016362 4288085770
8.1426392 -3.1562023 -1.9299041 4288085770
6.2757874 -2.4811964 -1.9023638 4288085770
8.1887817 -3.1072073 -1.9305823 4288085770
6.3009949 -2.4372234 -1.9000373 4288085770
8.2468872 -3.0622044 -1.9323256 4288085770
6.3390808 -2.3982258 -1.9007866 4288085770
8.2860107 -3.0102415 -1.928961 4288085770
6.3812256 -2.3602371 -1.9005548 4288085770
8.3451843 -2.9642549 -1.9286987 4288085770
6.4273376 -2.3222418 -1.9013332 4288085770
8.4292908 -2.926229 -1.9335679 4288085770
6.4735107 -2.285244 -1.9021202 4288085770
8.4894409 -2.8792686 -1.9302998 4288085770
6.5276489 -2.2502489 -1.9029448 4288085770
8.5585938 -2.8352828 -1.9300798 4288085770
6.5837402 -2.2142611 -1.902766 4288085770
8.6357422 -2.7923079 -1.9288889 4288085770
6.6598816 -2.1842337 -1.9076886 4288085770
8.7128296 -2.7493405 -1.9266981 4288085770
6.7070312 -2.1452799 -1.9034616 4288085770
8.815979 -2.7133498 -1.9276325 4288085770
6.7781677 -2.1132765 -1.9053546 4288085770
8.9111328 -2.6753659 -1.9275293 4288085770
6.8572693 -2.0822668 -1.9082763 4288085770
9.0292664 -2.6403694 -1.9295101 4288085770
6.9294128 -2.0492897 -1.9071635 4288085770
9.1274109 -2.6004124 -1.9263974 4288085770
7.0285339 -2.0222559 -1.9131694 4288085770
9.2435303 -2.5634403 -1.9253558 4288085770
7.1087036 -1.9902706 -1.9130852 4288085770
9.3746643 -2.5294533 -1.9263774 4288085770
7.1997986 -1.9592876 -1.9130371 4288085770
9.5178223 -2.4974661 -1.9274458 4288085770
7.2909546 -1.9283047 -1.9129885 4288085770
9.6479187 -2.4605122 -1.9244386 4288085770
7.3910828 -1.8983126 -1.9139712 4288085770
9.8040771 -2.4295263 -1.9255475 4288085770
7.4932251 -1.8673306 -1.9139502 4288085770
9.9822083 -2.4015369 -1.9277368 4288085770
7.5973511 -1.8363476 -1.913934 4288085770
10.195343 -2.3795061 -1.9350642 4288085770
7.7055054 -1.8053837 -1.9119277 4288085770
10.399445 -2.3535099 -1.9383346 4288085770
7.811615 -1.7734261 -1.9089078 4288085770
10.580597 -2.3205605 -1.9354875 4288085770
7.9317627 -1.7434549 -1.9079397 4288085770
10.779755 -2.2886057 -1.9336939 4288085770
8.0509033 -1.7114992 -1.9049518 4288085770
10.98587 -2.2576599 -1.9309254 4288085770
8.1870422 -1.6825275 -1.9040319 4288085770
11.238007 -2.2326746 -1.9333223 4288085770
8.3511658 -1.6575184 -1.9082152 4288085770
11.523132 -2.2116718 -1.9388347 4288085770
8.5153198 -1.6305342 -1.9093814 4288085770
11.820221 -2.1886845 -1.9423596 4288085770
8.6784363 -1.6015663 -1.9085276 4288085770
12.124359 -2.1647062 -1.9448922 4288085770
8.8675842 -1.5765686 -1.9117721 4288085770
12.435516 -2.1407461 -1.9454415 4288085770
9.0197144 -1.5446405 -1.9058646 4288085770
12.76062 -2.1147957 -1.9450078 4288085770
9.2358398 -1.5196381 -1.910176 4288085770
13.124756 -2.0918407 -1.9456964 4288085770
9.4419861 -1.4916658 -1.910436 4288085770
13.527893 -2.0708742 -1.9484971 4288085770
9.6621094 -1.4646959 -1.9107387 4288085770
13.980011 -2.0538778 -1.9554518 4288085770
9.9142456 -1.4397049 -1.9141371 4288085770
14.42215 -2.0299482 -1.9543214 4288085770
10.16037 -1.411747 -1.9134947 4288085770
14.986267 -2.0179405 -1.9645936 4288085770
10.422516 -1.3837814 -1.9138912 4288085770
15.514374 -1.9960108 -1.9646904 4288085770
10.728638 -1.3587866 -1.9184213 4288085770
16.149536 -1.9820356 -1.9721183 4288085770
11.02475 -1.3298349 -1.9178921 4288085770
16.799652 -1.9650869 -1.9765555 4288085770
11.316925 -1.2979145 -1.9133269 4288085770
17.556732 -1.9521065 -1.984292 4288085770
11.715973 -1.2738781 -1.9220961 4288085770
18.382843 -1.939167 -1.9901966 4288085770
12.107147 -1.2469025 -1.9258173 4288085770
19.357971 -1.9331789 -2.0045254 4288085770
12.522278 -1.2179451 -1.9275798 4288085770
12.958374 -1.1879978 -1.9283844 4288085770
13.445526 -1.1590424 -1.931322 4288085770
13.957672 -1.1271038 -1.9322946 4288085770
14.527771 -1.0951557 -1.9354087 4288085770
15.156921 -1.0632133 -1.9386683 4288085770
15.881042 -1.0312481 -1.9461577 4288085770
16.677185 -0.99729156 -1.9538051 4288085770
17.550262 -0.9613533 -1.9606225 4288085770
18.517365 -0.92341614 -1.9686512 4288085770
19.626495 -0.88348675 -1.9780085 4288085770
19.44928 2.3479233 -1.902549 4288085770
18.922424 2.4169617 -1.8960322 4288085770
18.425568 2.4839888 -1.8885882 4288085770
17.977753 2.5520144 -1.8822308 4288085770
17.620911 2.6270695 -1.8819935 4288085770
17.220062 2.6920824 -1.8747497 4288085770
16.841187 2.7540836 -1.8665718 4288085770
16.553375 2.8271284 -1.8664827 4288085770
16.260468 2.8951378 -1.8614229 4288085770
16.02063 2.9711828 -1.8624041 4288085770
15.726776 3.0341635 -1.8533823 4288085770
15.539917 3.1132069 -1.8554424 4288085770
15.345062 3.18923 -1.8545109 4288085770
15.194214 3.2732677 -1.8566034 4288085770
15.008362 3.3452673 -1.8527205 4288085770
14.851532 3.4232788 -1.8508481 4288085770
14.709656 3.5022774 -1.8479972 4288085770
14.585815 3.5832891 -1.8471659 4288085770
14.459961 3.6622791 -1.8433465 4288085770
14.365112 3.7482862 -1.8425339 4288085770
14.249268 3.8292665 -1.8377204 4288085770
14.172394 3.9192657 -1.8359133 4288085770
14.076538 4.0032358 -1.8301166 4288085770
14.023712 4.096221 -1.8273337 4288085770
14.010834 4.2012358 -1.8295367 4288085770
13.971985 4.2982187 -1.8267517 4288085770
13.95816 4.4032125 -1.8259546 4288085770
13.994293 4.5242252 -1.8291327 4288085770
14.002472 4.6362095 -1.8273263 4288085770
14.012604 4.7501898 -1.8255095 4288085770
14.10675 4.8922176 -1.8316424 4288085770
14.143921 5.0171852 -1.8287961 4288085770
14.186096 5.1431561 -1.8259525 4288085770
14.296173 5.296155 -1.8290365 4288085770
14.376373 5.4381275 -1.8271466 4288085770
14.487518 5.5940971 -1.826212 4288085770
14.627655 5.762085 -1.828243 4288085770
14.803833 5.9460735 -1.8312238 4288085770
14.963013 6.1280422 -1.8311892 4288085770
15.169159 6.3300266 -1.8340948 4288085770
15.351318 6.5229721 -1.831023 4288085770
15.597504 6.7479553 -1.8348352 4288085770
15.740662 6.9318333 -1.8217601 4288085770
16.084808 7.2068367 -1.8303876 4288085770
16.451996 7.4968166 -1.8369484 4288085770
16.817169 7.7907715 -1.8394775 4288085770
19.891663 -0.47230816 -1.9653941 4288085770
18.405853 -0.48214817 -1.9462146 4288085770
17.155975 -0.48998642 -1.9343781 4288085770
16.083099 -0.49683952 -1.9258026 4288085770
15.105225 -0.5007143 -1.9163518 4288085770
14.237366 -0.50260448 -1.9080546 4288085770
13.475525 -0.50349426 -1.9029107 4288085770
12.783661 -0.50338936 -1.8988668 4288085770
19.051636 -0.74627399 -1.9537722 4288085770
12.119812 -0.50032997 -1.8888464 4288085770
17.686768 -0.72310448 -1.9395701 4288085770
11.541962 -0.49825287 -1.883962 4288085770
16.520905 -0.70294571 -1.9296867 4288085770
11.04007 -0.49616432 -1.8831918 4288085770
15.449036 -0.68182945 -1.9159397 4288085770
10.54718 -0.49210548 -1.8784233 4288085770
14.537231 -0.66371155 -1.9074523 4288085770
10.120331 -0.48901749 -1.8797604 4288085770
13.714355 -0.6455946 -1.9010993 4288085770
9.6924744 -0.48297596 -1.8740777 4288085770
12.989471 -0.62949085 -1.8959064 4288085770
9.3196106 -0.47791004 -1.8734838 4288085770
12.335632 -0.61339378 -1.8918209 4288085770
8.9477539 -0.4708786 -1.8678795 4288085770
11.757751 -0.5982914 -1.8908557 4288085770
8.6348572 -0.46580601 -1.8703761 4288085770
11.197906 -0.58222389 -1.8849123 4288085770
8.3110046 -0.45877647 -1.8658445 4288085770
10.710052 -0.56714439 -1.883083 4288085770
8.038147 -0.45171833 -1.8673887 4288085770
10.244171 -0.55208874 -1.8782876 4288085770
7.78125 -0.44565487 -1.869964 4288085770
9.8163147 -0.53702736 -1.8755493 4288085770
7.5033875 -0.43664742 -1.8634896 4288085770
9.4214478 -0.52297878 -1.8718675 4288085770
7.2575073 -0.42861938 -1.8610694 4288085770
9.0585632 -0.50792217 -1.8702271 4288085770
7.0296631 -0.42058277 -1.8606765 4288085770
8.7366943 -0.49486065 -1.870661 4288085770
6.7888184 -0.41058731 -1.8532522 4288085770
8.4308167 -0.48180103 -1.8711195 4288085770
6.5829468 -0.40156651 -1.8508863 4288085770
8.1099548 -0.46678543 -1.8645438 4288085770
6.3800659 -0.39255333 -1.8475255 4288085770
7.8460999 -0.4537344 -1.8650655 4288085770
6.1852112 -0.3825407 -1.8441703 4288085770
7.5762634 -0.43871593 -1.8605663 4288085770
6.0193787 -0.37350941 -1.8448646 4288085770
7.3294067 -0.42568684 -1.8581142 4288085770
5.8414917 -0.36450672 -1.840542 4288085770
7.0935364 -0.41166782 -1.8546728 4288085770
5.6806335 -0.35449505 -1.8382382 4288085770
6.8806763 -0.398633 -1.8542719 4288085770
5.5247498 -0.34448242 -1.8359423 4288085770
6.665802 -0.38462353 -1.8498623 4288085770
5.3869019 -0.33546162 -1.8356793 4288085770
6.4499207 -0.369627 -1.8434457 4288085770
5.2480164 -0.32544136 -1.8354089 4288085770
6.2610779 -0.35661507 -1.8400818 4288085770
5.1061707 -0.31445026 -1.8301282 4288085770
6.0982056 -0.34457684 -1.8417625 4288085770
5.9113464 -0.3295927 -1.8343898 4288085770
5.766449 -0.31755066 -1.8370976 4288085770
5.6095886 -0.30355263 -1.832776 4288085770
5.4567261 -0.290555 -1.8284671 4288085770
5.3238525 -0.27753448 -1.8281875 4288085770
5.196991 -0.26452065 -1.8269172 4288085770
5.0681152 -0.25151443 -1.8246442 4288085770
5.1298523 1.7745485 -1.764316 4288085770
5.2729797 1.8065414 -1.7693185 4288085770
5.4081116 1.8355217 -1.7713287 4288085770
5.5571899 1.8665085 -1.7753451 4288085770
5.6933594 1.8914623 -1.7733809 4288085770
5.8404846 1.919426 -1.7734129 4288085770
6.0065918 1.9504099 -1.7774518 4288085770
5.0356445 1.6845646 -1.7697809 4288085770
6.1777649 1.9823809 -1.7794912 4288085770
5.1697693 1.7075491 -1.7728255 4288085770
6.3648987 2.0173721 -1.7855333 4288085770
5.2909241 1.7235136 -1.7718954 4288085770
6.5540161 2.0503435 -1.7885902 4288085770
5.4290466 1.7444916 -1.7739574 4288085770
6.7771606 2.0913515 -1.7986435 4288085770
5.5731506 1.7654676 -1.776027 4288085770
6.9412842 2.1132689 -1.7917337 4288085770
5.7153015 1.7834377 -1.777112 4288085770
7.1324463 2.1412048 -1.7888231 4288085770
5.8734131 1.8054171 -1.7801939 4288085770
7.3545532 2.1751719 -1.791917 4288085770
6.0415344 1.8274059 -1.7852888 4288085770
7.5856934 2.2101288 -1.7940166 4288085770
6.1766663 1.8393373 -1.7794003 4288085770
7.8168335 2.242074 -1.794134 4288085770
6.3968201 1.8733807 -1.795491 4288085770
8.0679626 2.276022 -1.7952654 4288085770
6.5869141 1.895359 -1.7996142 4288085770
8.3261108 2.3109722 -1.7973998 4288085770
6.7720947 1.9153328 -1.8027427 4288085770
8.591217 2.3439045 -1.7965553 4288085770
6.9321899 1.925251 -1.7958987 4288085770
8.8963928 2.3848648 -1.8017148 4288085770
7.1183472 1.9412003 -1.7950522 4288085770
9.1885071 2.4177847 -1.7999051 4288085770
7.3224792 1.9581585 -1.796223 4288085770
9.5076294 2.4557171 -1.8011006 4288085770
7.5306091 1.9741087 -1.7964048 4288085770
9.8467712 2.4936514 -1.8033218 4288085770
7.7477417 1.9910612 -1.7975923 4288085770
10.218903 2.5365887 -1.8075558 4288085770
7.9778748 2.0070152 -1.7988024 4288085770
10.597015 2.5765095 -1.8088152 4288085770
8.2119751 2.0229588 -1.7990173 4288085770
10.998169 2.6174297 -1.8110982 4288085770
8.4721375 2.039916 -1.8022599 4288085770
11.43631 2.6623487 -1.8144054 4288085770
8.7232666 2.0528574 -1.8025143 4288085770
11.890442 2.7052565 -1.8167448 4288085770
9.0123901 2.0718126 -1.806782 4288085770
12.387573 2.7541685 -1.8211038 4288085770
9.3225098 2.0917778 -1.8130708 4288085770
12.920715 2.803072 -1.8255093 4288085770
9.6016235 2.1007004 -1.8113844 4288085770
13.514862 2.8579807 -1.8329576 4288085770
9.9287415 2.1156425 -1.8147243 4288085770
14.115997 2.908864 -1.8364383 4288085770
10.251892 2.1265678 -1.8150824 4288085770
14.821106 2.9727716 -1.8479759 4288085770
10.620026 2.14252 -1.8214684 4288085770
15.513245 3.0266342 -1.8515553 4288085770
11.000153 2.1564617 -1.8268814 4288085770
16.309387 3.0905104 -1.8612094 4288085770
11.379303 2.1653805 -1.8283224 4288085770
17.219482 3.1673918 -1.8759329 4288085770
11.788391 2.174305 -1.8318017 4288085770
18.159637 3.2362347 -1.8857418 4288085770
12.209564 2.1812191 -1.8343076 4288085770
19.178772 3.3080635 -1.8956339 4288085770
12.661682 2.1871347 -1.8378589 4288085770
13.147797 2.1940479 -1.8424474 4288085770
13.649933 2.1969519 -1.8460796 4288085770
14.160034 2.1938362 -1.8467568 4288085770
14.75415 2.196743 -1.8545058 4288085770
15.341278 2.1936293 -1.8582804 4288085770
15.987427 2.1905184 -1.8651299 4288085770
16.665527 2.1813917 -1.8700548 4288085770
17.398651 2.1722679 -1.8780494 4288085770
18.206787 2.1611395 -1.8881508 4288085770
19.04187 2.144989 -1.8953148 4288085770
19.957001 2.1248446 -1.9066037 4288085770
19.039032 -5.8291569 -0.21235061 4293729569
13.399506 -5.6317596 -0.5869 4293729569
13.487549 -5.7685275 -0.63275123 4293729569
14.420441 -6.2692685 -0.71967673 4293729569
14.474487 -6.3990021 -0.7704432 4293729569
14.425568 -6.4837294 -0.81783056 4293729569
12.150696 -5.551321 -0.078805208 4293729569
12.119965 -5.5496411 -0.73475778 4293729569
12.092773 -5.6130724 -0.12105739 4293729569
12.06604 -5.6124077 -0.77502036 4293729569
11.188293 -5.3740206 -0.80757236 4293729569
11.128387 -5.4247799 -0.84876144 4293729569
10.992462 -5.4385457 -0.88565111 4293729569
11.012512 -5.5262847 -0.93414354 4293729569
9.9477844 -5.0702677 -0.8912847 4293729569
9.908844 -5.1200333 -0.93249607 4293729569
9.8809204 -5.1747832 -0.97674739 4293729569
9.8719788 -5.2365284 -1.0230604 4293729569
9.8469849 -5.2902689 -1.069309 4293729569
9.7160645 -5.285048 -1.1041012 4293729569
9.4962158 -5.2298632 -1.1285083 4293729569
9.3572998 -5.2156525 -1.1612417 4293729569
9.419342 -5.3083472 -1.2198114 4293729569
9.8552856 -5.6108546 -1.3289964 4293729569
9.6539917 -5.5177422 -0.79921758 4293729569
9.9202576 -5.7085018 -1.393599 4293729569
9.5910339 -5.5384488 -0.84724164 4293729569
9.8913269 -5.7522101 -1.4457886 4293729569
9.5510864 -5.5691628 -0.89734662 4293729569
9.800415 -5.7579432 -1.490693 4293729569
9.6861267 -5.6988287 -0.96421015 4293729569
9.7854309 -5.8046331 -1.5469155 4293729569
9.7201538 -5.7695174 -1.0226249 4293729569
9.9634399 -5.9642057 -1.6329949 4293729569
9.8601685 -5.9011559 -1.0945035 4293729569
9.9974976 -6.0378513 -1.6994245 4293729569
10.002167 -6.0337915 -1.1673894 4293729569
7.899231 -4.8379674 -1.4042488 4293729569
9.9512329 -6.0504794 -1.2224016 4293729569
7.6933594 -4.7538471 -1.4175229 4293729569
8.0028381 -4.9260073 -1.0398319 4293729569
7.9883118 -4.9713583 -1.5200649 4293729569
7.9928894 -4.9547415 -1.0879643 4293729569
7.8014221 -4.895225 -1.5364057 4293729569
7.6980286 -4.8086181 -1.0977898 4293729569
8.8520813 -5.5790691 -1.7944252 4293729569
7.7521057 -4.8733225 -1.1541977 4293729569
8.5822449 -5.449985 -1.7983729 4293729569
7.8071594 -4.9360228 -1.2115951 4293729569
8.2824097 -5.298944 -1.7931647 4293729569
7.848175 -4.989727 -1.267926 4293729569
7.6427612 -4.9292402 -1.7113461 4293729569
7.8282471 -5.0034657 -1.3149631 4293729569
7.4378662 -4.829155 -1.7185357 4293729569
10.451416 -6.6714306 -1.8042672 4293729569
7.5058899 -4.8998108 -1.7849921 4293729569
10.034607 -6.4393582 -1.7994711 4293729569
7.2340698 -4.7508149 -1.7728336 4293729569
9.65979 -6.2292786 -1.7978482 4293729569
7.1581726 -4.7246265 -1.8045855 4293729569
7.5346069 -4.9045825 -1.4650111 4293729569
6.9453125 -4.6075892 -1.802675 4293729569
7.5186768 -4.911324 -1.5120152 4293729569
6.805481 -4.5354857 -1.8160992 4293729569
6.6895752 -4.4763651 -1.833624 4293729569
7.9086304 -5.1874433 -1.6919672 4293729569
6.5927124 -4.4272275 -1.8552268 4288085770
7.7337952 -5.0863209 -1.7071893 4293729569
6.5857849 -4.4359846 -1.9002545 4288085770
7.5649109 -4.9872108 -1.7204306 4293729569
6.5498657 -4.4217834 -1.9361223 4288085770
7.5849609 -5.0059237 -1.7745433 4293729569
6.3740234 -4.3147779 -1.9303149 4288085770
7.2891846 -4.8199668 -1.7541589 4293729569
6.2451477 -4.2367153 -1.9367226 4288085770
7.1942749 -4.7608075 -1.7797087 4293729569
6.0743103 -4.1287255 -1.9279175 4288085770
7.109375 -4.7066574 -1.8042985 4293729569
5.9714355 -4.0636473 -1.9384286 4288085770
6.8995667 -4.5696473 -1.7972873 4293729569
5.8265991 -3.9686422 -1.9337267 4288085770
6.7687073 -4.4815626 -1.8076382 4293729569
5.6677856 -3.8636713 -1.9219548 4288085770
6.7137756 -4.4414024 -1.8353417 4293729569
5.5309448 -3.7706776 -1.9152749 4288085770
6.671875 -4.4072347 -1.8650937 4288085770
5.4120789 -3.6876736 -1.9116718 4288085770
6.6929626 -4.4119992 -1.9101329 4288085770
5.3062439 -3.6126537 -1.9111282 4288085770
6.657074 -4.3768277 -1.9408869 4288085770
5.1963806 -3.5336556 -1.9065588 4288085770
6.5022583 -4.26582 -1.936087 4288085770
5.0905457 -3.4556532 -1.903 4288085770
6.3753967 -4.1707969 -1.9354082 4288085770
5.0016785 -3.3876376 -1.9025166 4288085770
6.2595215 -4.0817599 -1.9377756 4288085770
6.1217041 -3.9777718 -1.9300365 4288085770
5.9758606 -3.8667984 -1.9192507 4288085770
5.8560181 -3.7728152 -1.9115889 4288085770
5.7551575 -3.6888032 -1.9100046 4288085770
5.6593018 -3.6077971 -1.9074429 4288085770
5.5734558 -3.5317831 -1.9069207 4288085770
5.4916077 -3.4577813 -1.9044145 4288085770
5.4087524 -3.3827782 -1.9019024 4288085770
5.3399048 -3.3157673 -1.9014506 4288085770
5.3010559 -3.2647152 -1.9101212 4288085770
5.2312012 -3.1967254 -1.9056637 4288085770
5.1673279 -3.1307278 -1.9032248 4288085770
5.1134644 -3.0697274 -1.901825 4288085770
5.0505981 -3.0037389 -1.8973881 4288085770
5.0097351 -2.949729 -1.8980423 4288085770
5.0213013 -1.7019815 -1.8762528 4288085770
5.0464172 -1.6720247 -1.8701214 4288085770
5.0835571 -1.6450481 -1.8680199 4288085770
5.1187134 -1.618083 -1.8639163 4288085770
5.1728516 -1.5960951 -1.8648614 4288085770
5.2339783 -1.5760918 -1.868825 4288085770
5.2901001 -1.5531101 -1.868767 4288085770
5.3442688 -1.5301342 -1.8677071 4288085770
5.4133911 -1.5101433 -1.8696803 4288085770
5.4685059 -1.4861774 -1.8666165 4288085770
5.5336609 -1.4642029 -1.8655746 4288085770
5.6007996 -1.4422293 -1.8645353 4288085770
5.684906 -1.4242382 -1.8675368 4288085770
5.7510376 -1.4012794 -1.8634913 4288085770
5.828186 -1.3803072 -1.8624691 4288085770
5.9263 -1.3633127 -1.866492 4288085770
6.0194702 -1.3443356 -1.867499 4288085770
6.121582 -1.3273535 -1.8695266 4288085770
5.0127258 -1.087162 -1.854988 4288085770
6.2267151 -1.3103714 -1.871558 4288085770
5.0898438 -1.0691843 -1.854983 4288085770
6.3198547 -1.2894144 -1.8685545 4288085770
5.1619568 -1.0502167 -1.8529667 4288085770
6.440979 -1.2724323 -1.8716043 4288085770
5.2401123 -1.03125 -1.8509578 4288085770
6.5531311 -1.254468 -1.8706387 4288085770
5.3252258 -1.0142746 -1.8509672 4288085770
6.6802368 -1.2374983 -1.8716954 4288085770
5.4163818 -0.99729443 -1.8519837 4288085770
6.8273621 -1.2235107 -1.8767908 4288085770
5.5164795 -0.98131275 -1.8540158 4288085770
6.9564819 -1.2055464 -1.8768448 4288085770
5.6056519 -0.96235466 -1.8510197 4288085770
7.1096191 -1.1915712 -1.8799472 4288085770
5.7117615 -0.94637966 -1.8520588 4288085770
7.2427673 -1.1726284 -1.8760005 4288085770
5.8279114 -0.93139458 -1.8551146 4288085770
7.4108887 -1.1576557 -1.8791149 4288085770
5.9380493 -0.91443062 -1.854153 4288085770
7.5859985 -1.1426926 -1.8812374 4288085770
6.045166 -0.89647102 -1.8521831 4288085770
7.7661133 -1.1267338 -1.8823605 4288085770
6.1802979 -0.88149261 -1.8552607 4288085770
7.9612732 -1.1127748 -1.884511 4288085770
6.3644104 -0.87246227 -1.8704259 4288085770
8.1453857 -1.0948334 -1.8826282 4288085770
6.4645691 -0.85154247 -1.8604323 4288085770
8.3615417 -1.080884 -1.8838031 4288085770
6.6466675 -0.84053898 -1.8705847 4288085770
8.5776672 -1.0649385 -1.8839674 4288085770
6.7538147 -0.8186264 -1.859594 4288085770
8.7987976 -1.0490103 -1.8811373 4288085770
6.9499207 -0.80762386 -1.8697624 4288085770
9.0539246 -1.0350657 -1.8833566 4288085770
7.1480713 -0.79463959 -1.8769228 4288085770
9.3300781 -1.0211306 -1.8846 4288085770
7.3221741 -0.77769089 -1.876035 4288085770
9.6202087 -1.0071974 -1.8858593 4288085770
7.4933167 -0.75976086 -1.8711383 4288085770
9.9343262 -0.99326611 -1.888146 4288085770
7.7084656 -0.74579716 -1.8753128 4288085770
10.268463 -0.98034382 -1.8894607 4288085770
7.9185791 -0.72984982 -1.8754714 4288085770
10.631561 -0.96742344 -1.8918084 4288085770
8.1307068 -0.71292019 -1.8726269 4288085770
11.012695 -0.95451355 -1.8931767 4288085770
8.3788452 -0.69796181 -1.876834 4288085770
11.391846 -0.93962669 -1.8895323 4288085770
8.6239624 -0.681036 -1.8750273 4288085770
11.907959 -0.93169785 -1.9010804 4288085770
8.888092 -0.66510773 -1.8742473 4288085770
12.358093 -0.91583347 -1.8965116 4288085770
9.1872253 -0.65017319 -1.8765123 4288085770
12.892242 -0.904953 -1.8990645 4288085770
9.5023804 -0.6342411 -1.8787906 4288085770
13.528381 -0.8960619 -1.9087441 4288085770
9.8485107 -0.61831188 -1.8821042 4288085770
14.195465 -0.88620377 -1.9134536 4288085770
10.184631 -0.60141182 -1.879401 4288085770
14.910583 -0.87536716 -1.9162127 4288085770
10.601746 -0.58648491 -1.8858006 4288085770
15.742706 -0.86653042 -1.9241151 4288085770
11.017914 -0.5695858 -1.8861886 4288085770
16.668823 -0.85872269 -1.9311297 4288085770
11.435059 -0.55171013 -1.8825725 4288085770
17.697998 -0.85093403 -1.9392612 4288085770
11.972168 -0.53680515 -1.8901087 4288085770
18.906097 -0.84517193 -1.9506073 4288085770
12.546265 -0.52091503 -1.8966814 4288085770
13.12442 -0.50106621 -1.8952382 4288085770
13.82254 -0.48420334 -1.9019469 4288085770
14.579651 -0.46635628 -1.9087174 4288085770
15.439789 -0.44753265 -1.9155997 4288085770
16.429901 -0.42872143 -1.9266298 4288085770
17.574036 -0.40992355 -1.9418348 4288085770
18.848114 -0.38917255 -1.9541769 4288085770
18.59024 -0.076444626 -1.9429516 4288085770
17.273438 -0.073150635 -1.9318208 4288085770
16.149536 -0.067896843 -1.9228468 4288085770
15.147675 -0.062672615 -1.9149777 4288085770
14.24881 -0.0564785 -1.906193 4288085770
13.449951 -0.050304413 -1.8984944 4288085770
12.718109 -0.043151855 -1.8898491 4288085770
18.950104 -0.043566704 -1.9410027 4288085770
12.074219 -0.036010742 -1.8842785 4288085770
17.581268 -0.030267715 -1.9278028 4288085770
11.455383 -0.027893066 -1.8737266 4288085770
16.437408 -0.018003464 -1.9207959 4288085770
10.972504 -0.02076149 -1.8772923 4288085770
15.349548 -0.0047826767 -1.9058347 4288085770
10.492615 -0.012657166 -1.872858 4288085770
14.457672 0.0074224472 -1.9000411 4288085770
10.037781 -0.0035591125 -1.8684419 4288085770
13.639862 0.019604683 -1.8933109 4288085770
9.6218872 0.004527092 -1.8640628 4288085770
12.899994 0.030755043 -1.8836505 4288085770
9.2660217 0.013616562 -1.8647302 4288085770
12.241119 0.042897224 -1.8770549 4288085770
8.9051819 0.022689819 -1.8603947 4288085770
11.683228 0.054039001 -1.8775473 4288085770
8.5752869 0.030759811 -1.8570892 4288085770
11.151367 0.06615448 -1.8730588 4288085770
8.280426 0.039830208 -1.8568093 4288085770
10.666504 0.078262329 -1.8696101 4288085770
7.9935608 0.049892426 -1.8545332 4288085770
10.212616 0.089359283 -1.8651915 4288085770
7.7486877 0.0589571 -1.8562956 4288085770
9.8097534 0.10145092 -1.862812 4288085770
7.5068054 0.069015503 -1.8560575 4288085770
9.4228821 0.11353016 -1.8584466 4288085770
7.2599487 0.078055382 -1.8508198 4288085770
9.0780334 0.12460709 -1.85612 4288085770
7.0381165 0.088101387 -1.8485997 4288085770
8.7651672 0.13668537 -1.8568169 4288085770
6.834259 0.098148346 -1.8483944 4288085770
8.4573059 0.14774895 -1.8535219 4288085770
6.6273804 0.10818291 -1.844187 4288085770
8.1794128 0.15981293 -1.8522484 4288085770
6.4255066 0.11820793 -1.8379847 4288085770
7.9295349 0.17187881 -1.8539983 4288085770
6.2506409 0.12824535 -1.8368044 4288085770
7.6637268 0.18292141 -1.8477396 4288085770
6.0708008 0.13826847 -1.8316207 4288085770
7.4308472 0.19497204 -1.8465044 4288085770
5.9269104 0.14931297 -1.8344626 4288085770
7.2079773 0.20701885 -1.844278 4288085770
5.7520142 0.15932369 -1.8262839 4288085770
6.9941101 0.21905804 -1.8410596 4288085770
5.5991821 0.16934395 -1.8221234 4288085770
6.8122559 0.23110771 -1.8428671 4288085770
5.4613037 0.18037224 -1.8209715 4288085770
6.6134033 0.242136 -1.8376654 4288085770
5.3424683 0.19140434 -1.8228352 4288085770
6.4285278 0.25416374 -1.8334715 4288085770
5.213562 0.20142269 -1.8196948 4288085770
6.2536621 0.26518917 -1.8292902 4288085770
5.094696 0.21244621 -1.8185594 4288085770
6.08078 0.27720833 -1.823107 4288085770
5.9369202 0.2892437 -1.8239474 4288085770
5.7860718 0.30026054 -1.8187864 4288085770
5.6461792 0.31228542 -1.8166308 4288085770
5.5173035 0.32430649 -1.8144844 4288085770
5.3874512 0.33632565 -1.8113375 4288085770
5.2835693 0.3493557 -1.813208 4288085770
5.1667175 0.36137104 -1.8100722 4288085770
5.0608521 0.37339211 -1.8099452 4288085770
5.0110168 2.5348482 -1.7496594 4288085770
5.1331482 2.5828228 -1.7525854 4288085770
5.2593079 2.6317968 -1.755511 4288085770
5.3704224 2.6707525 -1.7514598 4288085770
5.4935913 2.7147141 -1.7503997 4288085770
5.6187439 2.7586727 -1.748341 4288085770
5.7728882 2.8136425 -1.7522645 4288085770
5.914032 2.8616009 -1.7512028 4288085770
6.0631714 2.9105549 -1.7501427 4288085770
5.0651245 2.4908094 -1.7518834 4288085770
6.2133179 2.9585075 -1.7480866 4288085770
5.1952515 2.5307827 -1.7548406 4288085770
6.3954163 3.019474 -1.753008 4288085770
5.3283997 2.570755 -1.7577997 4288085770
6.5495911 3.0654154 -1.7479606 4288085770
5.4674988 2.61273 -1.7617559 4288085770
6.7527161 3.1303825 -1.7548821 4288085770
5.5796814 2.639678 -1.7557441 4288085770
7.0668335 3.2444019 -1.7857137 4288085770
5.7297668 2.6816492 -1.7597072 4288085770
7.2850037 3.3103533 -1.7886413 4288085770
5.868927 2.7166071 -1.7586861 4288085770
7.4941406 3.3702984 -1.7895827 4288085770
6.02005 2.7555685 -1.7596593 4288085770
7.6982727 3.4262304 -1.7855337 4288085770
6.1932068 2.8015375 -1.7646234 4288085770
7.8614502 3.4601374 -1.7705303 4288085770
6.3193359 2.8254728 -1.7556294 4288085770
8.0615845 3.509057 -1.7625012 4288085770
6.4784851 2.8614264 -1.7546171 4288085770
8.3607483 3.5970144 -1.7734072 4288085770
6.6286621 2.8913679 -1.7496184 4288085770
8.6908569 3.6929693 -1.7863064 4288085770
6.8167419 2.9343271 -1.7526009 4288085770
8.9930115 3.7739058 -1.7912365 4288085770
7.0489197 2.9933043 -1.7645588 4288085770
9.3121643 3.8578329 -1.7951672 4288085770
7.36203 3.0833149 -1.7934663 4288085770
9.6283264 3.9357576 -1.7971152 4288085770
7.5501709 3.1182547 -1.7904744 4288085770
9.9614868 4.0176716 -1.7980605 4288085770
7.6833191 3.1281624 -1.7735286 4288085770
10.309631 4.100585 -1.7990115 4288085770
7.8424683 3.1470795 -1.76157 4288085770
10.679779 4.1864939 -1.800966 4288085770
8.0795898 3.1930256 -1.7645717 4288085770
11.086914 4.2834034 -1.8059072 4288085770
8.3407288 3.2459793 -1.7715653 4288085770
11.514038 4.3813009 -1.8088574 4288085770
8.6329041 3.305934 -1.7815552 4288085770
11.982208 4.488204 -1.8158032 4288085770
8.9050293 3.3548784 -1.7865679 4288085770
12.474396 4.5990934 -1.8217504 4288085770
9.2051392 3.410821 -1.7935748 4288085770
12.955536 4.6999722 -1.8227224 4288085770
9.498291 3.4597607 -1.7985997 4288085770
13.555725 4.8348579 -1.8346573 4288085770
9.7944336 3.5056887 -1.8006357 4288085770
14.134827 4.9557247 -1.8396237 4288085770
10.114594 3.5556173 -1.8046727 4288085770
14.730988 5.0745802 -1.8426059 4288085770
10.453735 3.6085472 -1.8107114 4288085770
15.388153 5.2064304 -1.8485831 4288085770
10.79187 3.6574707 -1.8147618 4288085770
16.093323 5.3442688 -1.8555692 4288085770
11.127991 3.6984034 -1.8148464 4288085770
16.847504 5.4911213 -1.8625637 4288085770
11.511108 3.7513237 -1.8209078 4288085770
17.679626 5.6489372 -1.8705568 4288085770
11.89328 3.7982359 -1.8239868 4288085770
18.627808 5.8327465 -1.8855355 4288085770
12.277405 3.8401423 -1.8260821 4288085770
19.519012 5.9895287 -1.8885642 4288085770
12.69455 3.8890486 -1.8301742 4288085770
13.10968 3.9289446 -1.8312929 4288085770
13.553833 3.9718418 -1.8344185 4288085770
14.016968 4.0137329 -1.8375574 4288085770
14.518097 4.0596189 -1.8417051 4288085770
15.065247 4.1125088 -1.8508565 4288085770
15.61734 4.1583872 -1.8570322 4288085770
16.135498 4.1892567 -1.8572339 4288085770
16.777649 4.2431278 -1.8684344 4288085770
17.395813 4.2829933 -1.8746635 4288085770
18.056946 4.3248482 -1.8819101 4288085770
18.778046 4.3686962 -1.8921839 4288085770
19.498199 4.4035435 -1.9004835 4288085770
19.879181 -5.42665 -1.9249184 4293729569
19.21933 -5.377492 -1.9254186 4293729569
18.586456 -5.3273382 -1.9269307 4293729569
17.707611 -5.1962113 -1.8990898 4293729569
17.117767 -5.1400709 -1.8996094 4293729569
17.52417 -5.3294544 -1.1263373 4293729569
16.518921 -5.0719395 -1.8960917 4293729569
17.572205 -5.4612679 -1.1937113 4293729569
15.91806 -4.9948206 -1.8885487 4293729569
15.404205 -4.9366984 -1.8891046 4293729569
14.911346 -4.878581 -1.889672 4293729569
17.940399 -5.9266706 -1.4271376 4293729569
14.486511 -4.8354592 -1.8973168 4293729569
16.285675 -5.4854603 -1.364038 4293729569
14.097626 -4.7993407 -1.9070003 4293729569
16.316711 -5.6032562 -1.4363625 4293729569
13.742767 -4.7702184 -1.9207215 4293729569
16.166809 -5.6550574 -1.4924095 4293729569
13.447906 -4.756093 -1.9405152 4288085770
16.210876 -5.7728491 -1.5677387 4293729569
13.162018 -4.7409701 -1.9603109 4288085770
16.347961 -5.924633 -1.6532089 4293729569
12.871124 -4.7198505 -1.9780896 4288085770
7.6831665 -2.8439679 -0.83123147 4293729569
7.5730286 -2.8348122 -1.217149 4293729569
7.5452881 -2.8398743 -0.85214198 4293729569
7.5021973 -2.8557224 -1.2431631 4293729569
7.3254089 -2.8037915 -0.86292267 4293729569
7.4572754 -2.8866248 -1.273218 4293729569
7.0245361 -2.7327151 -0.86456561 4293729569
7.2114258 -2.8375783 -1.2699499 4293729569
6.9966431 -2.7636189 -0.89562941 4293729569
7.1615295 -2.8634834 -1.2989886 4293729569
7.2417603 -2.903481 -0.96313202 4293729569
7.1326294 -2.8963823 -1.332057 4293729569
6.9689026 -2.8364129 -0.96480095 4293729569
6.8308105 -2.8163633 -1.314676 4293729569
6.8739929 -2.8383207 -0.98875046 4293729569
6.5779419 -2.7533326 -1.3053672 4293729569
6.8360901 -2.8632216 -1.020792 4293729569
6.5420532 -2.7782383 -1.3354106 4293729569
6.8062134 -2.8891158 -1.05484 4293729569
6.644165 -2.8610935 -1.3946822 4293729569
6.8042908 -2.9270067 -1.092935 4293729569
6.7212219 -2.9329543 -1.4499104 4293729569
6.7934265 -2.9598985 -1.1300112 4293729569
6.7753296 -2.996819 -1.5021049 4293729569
6.436615 -2.8408747 -1.1094977 4293729569
6.6854248 -2.9957366 -1.5240483 4293729569
6.40271 -2.8607721 -1.1425272 4293729569
6.3506165 -2.8827591 -1.489563 4293729569
6.5267944 -2.9506302 -1.2028267 4293729569
6.3597107 -2.9226398 -1.5326688 4293729569
6.4199219 -2.9355454 -1.2237236 4293729569
6.3138123 -2.9365449 -1.562676 4293729569
6.4289856 -2.9724321 -1.2648205 4293729569
6.2819519 -2.9554424 -1.5967034 4293729569
6.3971252 -2.9903278 -1.2988448 4293729569
6.2480774 -2.9733424 -1.6297271 4293729569
6.5222168 -3.0791683 -1.3651397 4293729569
6.2641602 -3.0122142 -1.6768322 4293729569
6.4862976 -3.0930624 -1.4001504 4293729569
6.5671692 -3.1899347 -1.8004572 4293729569
6.517395 -3.1369348 -1.4482753 4293729569
6.8572083 -3.3636522 -1.9240636 4288085770
6.4955444 -3.1558218 -1.486306 4293729569
6.6873474 -3.3136115 -1.9258332 4288085770
8.3442383 -4.0799327 -1.9507136 4288085770
6.5075073 -3.2555842 -1.9215767 4288085770
8.0844116 -3.9878907 -1.9453219 4288085770
6.344635 -3.2035532 -1.9203454 4288085770
7.8445435 -3.901845 -1.942957 4288085770
6.1807861 -3.1495275 -1.9171087 4288085770
7.6036987 -3.812809 -1.9365845 4288085770
6.0149536 -3.0925064 -1.9118634 4288085770
7.3778381 -3.728775 -1.9312335 4288085770
5.8651123 -3.0404825 -1.90964 4288085770
7.1799927 -3.6547327 -1.9309238 4288085770
5.7062378 -2.9814696 -1.9023936 4288085770
6.972168 -3.5737038 -1.9255911 4288085770
5.5853882 -2.9414372 -1.9052175 4288085770
6.7753296 -3.4956765 -1.9202726 4288085770
5.4425049 -2.8864226 -1.8999904 4288085770
6.5984802 -3.4266424 -1.9189887 4288085770
5.3226624 -2.8423958 -1.9008049 4288085770
6.4245911 -3.3556142 -1.9157014 4288085770
5.1937866 -2.7923813 -1.8965991 4288085770
6.2947388 -3.3055687 -1.922492 4288085770
5.0799561 -2.7483597 -1.896417 4288085770
6.1179199 -3.2285547 -1.9141884 4288085770
5.9760742 -3.1685257 -1.9139476 4288085770
5.8112183 -3.0945172 -1.9046592 4288085770
5.6863403 -3.0394902 -1.9054408 4288085770
5.5324707 -2.9684868 -1.8951669 4288085770
5.4326477 -2.92345 -1.9009883 4288085770
5.3227844 -2.8714261 -1.9017866 4288085770
5.2059326 -2.815412 -1.8985717 4288085770
5.1040955 -2.7653904 -1.89938 4288085770
5.1687927 -0.52687359 -1.8347365 4288085770
5.2719116 -0.51389694 -1.835726 4288085770
5.3720398 -0.5009222 -1.8357148 4288085770
5.4831848 -0.48794842 -1.8367064 4288085770
5.59729 -0.47497177 -1.8386983 4288085770
5.6904297 -0.4600153 -1.8306794 4288085770
5.8295593 -0.44803715 -1.8356799 4288085770
5.9747314 -0.43705845 -1.8406843 4288085770
6.105835 -0.42409229 -1.8396794 4288085770
5.118927 -0.3298912 -1.8361909 4288085770
6.2579651 -0.41212273 -1.8426821 4288085770
5.2140503 -0.31792641 -1.831181 4288085770
6.4161377 -0.40015316 -1.844686 4288085770
5.3251953 -0.30595398 -1.8311749 4288085770
6.57724 -0.38818741 -1.8466902 4288085770
5.4433289 -0.29398346 -1.8311703 4288085770
6.7613831 -0.3772192 -1.8507023 4288085770
5.5624695 -0.28201485 -1.8301656 4288085770
6.9425354 -0.36525917 -1.8517107 4288085770
5.7105713 -0.27103901 -1.8351701 4288085770
7.1356506 -0.3523016 -1.8527191 4288085770
5.8617249 -0.26106071 -1.8401778 4288085770
7.3487854 -0.34133816 -1.8577368 4288085770
6.0118408 -0.25009346 -1.8411822 4288085770
7.5569153 -0.32838917 -1.8567479 4288085770
6.1730042 -0.23812485 -1.8441867 4288085770
7.8010254 -0.31743336 -1.8607723 4288085770
6.3411255 -0.22715855 -1.8461946 4288085770
8.0521545 -0.30548382 -1.8637952 4288085770
6.5032654 -0.21620083 -1.845201 4288085770
8.3182983 -0.2945385 -1.8658233 4288085770
6.7123718 -0.20622921 -1.8532203 4288085770
8.5704041 -0.28160286 -1.8628423 4288085770
6.8955383 -0.19527245 -1.8522307 4288085770
8.8865356 -0.27065754 -1.8688809 4288085770
7.114624 -0.18531036 -1.8572514 4288085770
9.1916809 -0.25872898 -1.8679136 4288085770
7.3587646 -0.17434311 -1.8662748 4288085770
9.5317993 -0.24680138 -1.8689537 4288085770
7.5518799 -0.16340733 -1.8582861 4288085770
9.9059753 -0.23587608 -1.872003 4288085770
7.7880249 -0.15246105 -1.8583066 4288085770
10.312073 -0.22496033 -1.8740588 4288085770
8.0661621 -0.14251041 -1.8633388 4288085770
10.726227 -0.2130537 -1.8731129 4288085770
8.3352966 -0.13156891 -1.8643655 4288085770
11.209351 -0.20214558 -1.878184 4288085770
8.6204529 -0.12163448 -1.8633978 4288085770
11.742493 -0.19124889 -1.8832649 4288085770
8.9445496 -0.1116991 -1.8664378 4288085770
12.312622 -0.1803627 -1.8873526 4288085770
9.2817078 -0.10077095 -1.8674777 4288085770
12.915771 -0.16849136 -1.8874438 4288085770
9.6358032 -0.09085083 -1.8665227 4288085770
13.666901 -0.1576252 -1.8985685 4288085770
10.039948 -0.080929756 -1.8705781 4288085770
14.437988 -0.14678288 -1.9016955 4288085770
10.470093 -0.071018219 -1.8726376 4288085770
15.357147 -0.13594913 -1.9138522 4288085770
10.97226 -0.062106133 -1.8807144 4288085770
16.387268 -0.12614346 -1.9240333 4288085770
11.445343 -0.052218437 -1.876781 4288085770
17.513428 -0.11436653 -1.9302274 4288085770
12.058502 -0.043321609 -1.8878789 4288085770
18.853546 -0.10461807 -1.9434689 4288085770
12.69162 -0.034445763 -1.8929794 4288085770
13.404755 -0.025580406 -1.900095 4288085770
14.194885 -0.016726494 -1.909225 4288085770
15.061005 -0.008895874 -1.9153712 4288085770
16.02713 -8.6784363e-05 -1.9205333 4288085770
17.191315 0.0066995621 -1.9337381 4288085770
18.471405 0.014457703 -1.9449613 4288085770
19.985565 0.021174431 -1.9592309 4288085770
18.891815 0.31764221 -1.929929 4288085770
17.569946 0.33478355 -1.9171382 4288085770
16.449066 0.35090637 -1.9083147 4288085770
15.456177 0.36701298 -1.8994699 4288085770
14.581299 0.38210773 -1.892606 4288085770
13.753448 0.39618778 -1.8787358 4288085770
13.087585 0.41126442 -1.8768369 4288085770
19.792664 0.6565094 -1.9184008 4288085770
12.435699 0.42532921 -1.8689369 4288085770
18.447815 0.66465855 -1.9106272 4288085770
11.891815 0.44039059 -1.8680178 4288085770
17.215942 0.6697855 -1.8948379 4288085770
11.358948 0.45344448 -1.8620991 4288085770
16.10907 0.67589855 -1.8800261 4288085770
10.898102 0.46849346 -1.860166 4288085770
15.212189 0.68499756 -1.8751752 4288085770
10.474213 0.48253918 -1.8592275 4288085770
14.420319 0.69508648 -1.8723052 4288085770
10.063354 0.49557972 -1.8542885 4288085770
13.662415 0.70316124 -1.8614318 4288085770
9.714447 0.51061916 -1.8553367 4288085770
13.014557 0.71323299 -1.8585374 4288085770
9.3656006 0.52365398 -1.8523872 4288085770
12.466705 0.72629547 -1.8606229 4288085770
9.0477295 0.53768635 -1.8504314 4288085770
11.945831 0.73735237 -1.8587058 4288085770
8.7588501 0.5517168 -1.8504708 4288085770
11.414948 0.74640274 -1.849793 4288085770
8.4829712 0.56474304 -1.8485093 4288085770
10.978088 0.75744915 -1.8478619 4288085770
8.1981201 0.57676506 -1.8405504 4288085770
10.565216 0.76949024 -1.8449256 4288085770
7.972229 0.5917902 -1.8425782 4288085770
10.187317 0.78052902 -1.8429843 4288085770
7.7493591 0.60481167 -1.8426077 4288085770
9.8334351 0.79256439 -1.8400381 4288085770
7.5335083 0.61883163 -1.8406352 4288085770
9.5105896 0.80459785 -1.8390867 4288085770
7.350647 0.63385296 -1.8446559 4288085770
9.2267151 0.81863022 -1.8411263 4288085770
7.1197815 0.64386559 -1.8336905 4288085770
8.9318237 0.8296566 -1.8371714 4288085770
6.941925 0.65788174 -1.8327119 4288085770
8.6639709 0.84168243 -1.8352109 4288085770
6.7820435 0.67289734 -1.8337288 4288085770
8.4031372 0.85370445 -1.8312491 4288085770
6.6171875 0.68591213 -1.8327492 4288085770
8.1892395 0.86872768 -1.8332762 4288085770
6.4533081 0.69892311 -1.8287694 4288085770
7.944397 0.87874603 -1.8263141 4288085770
6.2904358 0.71092987 -1.8217907 4288085770
7.7445068 0.89176559 -1.8263412 4288085770
6.160553 0.72494316 -1.8228042 4288085770
7.5456543 0.9047823 -1.8233681 4288085770
6.002655 0.73594856 -1.8148258 4288085770
7.3447571 0.91679668 -1.8183964 4288085770
5.8858032 0.75195885 -1.8158351 4288085770
7.1799011 0.93181229 -1.8194156 4288085770
5.749939 0.76396465 -1.809852 4288085770
7.0010071 0.94282436 -1.8144414 4288085770
5.6270447 0.77697086 -1.8058656 4288085770
6.8481445 0.9568367 -1.8134596 4288085770
5.5292053 0.79198074 -1.807873 4288085770
6.7162781 0.9728508 -1.8164722 4288085770
5.4353027 0.80699062 -1.8108793 4288085770
6.5684204 0.98586082 -1.8124907 4288085770
5.3314209 0.82099628 -1.807889 4288085770
6.4275513 0.9988699 -1.8095082 4288085770
5.2295532 0.83500004 -1.8048983 4288085770
6.3016357 1.0138788 -1.8085209 4288085770
5.1387024 0.8490057 -1.8039058 4288085770
6.1677856 1.0258846 -1.8035386 4288085770
5.0528259 0.86400986 -1.8029115 4288085770
6.0489197 1.0398941 -1.8015515 4288085770
5.9330139 1.0538998 -1.798564 4288085770
5.8141479 1.0669041 -1.7925781 4288085770
5.7213135 1.0839119 -1.7935836 4288085770
5.6184387 1.0969133 -1.7895951 4288085770
5.5205994 1.1119194 -1.7866038 4288085770
5.4407043 1.1289263 -1.7876072 4288085770
5.3348389 1.1399622 -1.7786298 4288085770
5.2839355 1.161973 -1.786625 4288085770
5.2020874 1.1769753 -1.7826328 4288085770
5.1262207 1.1929789 -1.7806387 4288085770
5.0453491 1.2069788 -1.7756476 4288085770
5.0180359 3.0827475 -1.7344731 4288085770
5.0951538 3.1417341 -1.7324198 4288085770
5.1802979 3.2047215 -1.7323619 4288085770
5.2774353 3.2747097 -1.7342962 4288085770
5.3845825 3.3486986 -1.7372254 4288085770
5.4837036 3.4166832 -1.7361616 4288085770
5.6228333 3.5086746 -1.74507 4288085770
5.7319336 3.580658 -1.7440016 4288085770
5.8490906 3.6556416 -1.7419297 4288085770
5.9852295 3.7416277 -1.7448455 4288085770
6.1273804 3.8296108 -1.7467589 4288085770
6.2734985 3.9185944 -1.747671 4288085770
5.1055298 3.2737017 -1.7364322 4288085770
6.4186401 4.0055742 -1.7455857 4288085770
5.2136536 3.3356867 -1.7363732 4288085770
6.5567932 4.0855503 -1.7405078 4288085770
5.336792 3.4066715 -1.7383041 4288085770
6.7369385 4.1895342 -1.7424027 4288085770
5.4999084 3.4996634 -1.7512097 4288085770
6.9420471 4.3075142 -1.7492821 4288085770
5.6100464 3.5576458 -1.7461547 4288085770
7.1202087 4.4054909 -1.7471834 4288085770
5.7381897 3.6256275 -1.7450886 4288085770
7.3323364 4.523469 -1.7500626 4288085770
5.8943176 3.7096128 -1.7500043 4288085770
7.5654907 4.6504478 -1.7549312 4288085770
6.0434265 3.7855949 -1.7499285 4288085770
