# .PCD v0.7 - Point Cloud Data file format
VERSION 0.7
FIELDS x y z rgb
SIZE 4 4 4 4
TYPE F F F U
COUNT 1 1 1 1
WIDTH 1129
HEIGHT 1
VIEWPOINT 0 0 0 1 0 0 0
POINTS 1129
DATA ascii
8.4227409 -0.25302792 -1.7767562 4288085770
5.2825775 -0.10113955 -1.7995913 4288085770
9.0288124 -0.23985922 -1.7712524 4288085770
5.6136246 -0.087511897 -1.7916682 4288085770
9.747921 -0.22946107 -1.7721028 4288085770
6.0097198 -0.073746085 -1.7913711 4288085770
10.516006 -0.21697366 -1.7686685 4288085770
6.4238014 -0.060949683 -1.7879717 4288085770
11.40411 -0.20624816 -1.7675463 4288085770
6.8748817 -0.047080278 -1.7853581 4288085770
12.373196 -0.19437003 -1.762957 4288085770
7.3879738 -0.033087134 -1.7843877 4288085770
13.500305 -0.18317902 -1.7614597 4288085770
7.9460678 -0.020005465 -1.7841597 4288085770
14.880463 -0.17348313 -1.7675095 4288085770
8.5381508 -0.0058618784 -1.7807347 4288085770
9.2402611 0.0085036755 -1.7826766 4288085770
9.9873466 0.022950888 -1.7803595 4288085770
10.869465 0.037667871 -1.7822654 4288085770
11.821552 0.053514719 -1.7797673 4288085770
12.881611 0.069567442 -1.7736477 4288085770
14.186741 0.086112976 -1.778118 4288085770
15.688858 0.10303652 -1.7784549 4288085770
15.598007 0.35285819 -1.754178 4288085770
14.274178 0.36041212 -1.7702105 4288085770
12.937233 0.36791587 -1.7673259 4288085770
11.889378 0.3759737 -1.776682 4288085770
10.874447 0.38407779 -1.7748394 4288085770
10.07959 0.39360666 -1.7846556 4288085770
9.3096809 0.40317059 -1.7863212 4288085770
8.6017685 0.411847 -1.7856117 4288085770
14.70055 0.53412163 -1.7572211 4288085770
7.9928741 0.42171347 -1.7892983 4288085770
13.411663 0.54172814 -1.7630534 4288085770
7.4149666 0.43063307 -1.7897986 4288085770
12.274757 0.549613 -1.7659608 4288085770
6.9130821 0.44069898 -1.7938347 4288085770
11.294865 0.55879104 -1.7699107 4288085770
6.4411736 0.45081615 -1.7946888 4288085770
10.406956 0.56713641 -1.7713023 4288085770
6.036293 0.46106422 -1.8001345 4288085770
9.6410599 0.57671046 -1.7739494 4288085770
5.6554184 0.47135544 -1.8044348 4288085770
8.9331551 0.58539152 -1.7762452 4288085770
5.2945099 0.48168147 -1.8066144 4288085770
8.3442726 0.59630048 -1.7828135 4288085770
4.9445992 0.49202454 -1.8067269 4288085770
7.7533607 0.60519528 -1.7823975 4288085770
4.6387138 0.50245452 -1.8105713 4288085770
7.2284584 0.61521512 -1.7835777 4288085770
4.3237915 0.51285827 -1.8074715 4288085770
6.7365456 0.62429452 -1.7835591 4288085770
4.0408821 0.52332532 -1.8071768 4288085770
6.3436813 0.63656932 -1.7919314 4288085770
3.7549477 0.53278124 -1.8029023 4288085770
5.9588051 0.6478551 -1.7972574 4288085770
3.5140533 0.54332888 -1.8043519 4288085770
5.6109276 0.66021037 -1.8033564 4288085770
3.2871513 0.55490255 -1.8057151 4288085770
5.2680283 0.67156959 -1.8054271 4288085770
3.0772514 0.56550741 -1.8069761 4288085770
4.9361229 0.68194634 -1.8054327 4288085770
2.8473091 0.57606566 -1.8013601 4288085770
4.6492386 0.69341183 -1.809162 4288085770
2.6483955 0.58668828 -1.8005549 4288085770
4.3342896 0.70381165 -1.8030653 4288085770
2.481514 0.59837699 -1.8045524 4288085770
4.063385 0.71430141 -1.8026998 4288085770
2.2995949 0.60902965 -1.8026441 4288085770
3.7954445 0.723791 -1.7983178 4288085770
2.1326828 0.62071127 -1.8016428 4288085770
3.5615349 0.735349 -1.7977254 4288085770
1.9787827 0.63142008 -1.8025634 4288085770
3.3626556 0.74797988 -1.8029174 4288085770
1.8298683 0.64313513 -1.8014526 4288085770
3.1377258 0.75854915 -1.7982724 4288085770
1.6909561 0.65387052 -1.8012826 4288085770
2.9347954 0.76916349 -1.7964935 4288085770
1.5490341 0.6655972 -1.7991296 4288085770
2.7699165 0.78185755 -1.8014786 4288085770
1.4131165 0.67633522 -1.7969415 4288085770
2.5899925 0.79451406 -1.7995561 4288085770
1.2952156 0.68811184 -1.7986418 4288085770
2.4160767 0.8051818 -1.7976003 4288085770
1.1803093 0.7008912 -1.7983226 4288085770
2.2641754 0.81789416 -1.7985067 4288085770
1.0714073 0.71268308 -1.7989682 4288085770
2.0952339 0.82756555 -1.7925224 4288085770
0.96249771 0.72447354 -1.7986141 4288085770
1.9633331 0.84131646 -1.7943056 4288085770
1.8274193 0.8530556 -1.7931166 4288085770
1.7025146 0.86581802 -1.7938588 4288085770
1.5826111 0.87858963 -1.7945706 4288085770
1.458683 0.89034832 -1.791309 4288085770
1.342762 0.90212333 -1.7889982 4288085770
1.2538795 0.91695762 -1.7935176 4288085770
1.1699982 0.93280274 -1.7990049 4288085770
1.0640717 0.94459486 -1.7956337 4288085770
0.96515656 0.95740271 -1.7942182 4288085770
0.9725914 3.1718123 -1.7936616 4288085770
1.0926247 3.2380304 -1.7978153 4288085770
1.2186508 3.3042612 -1.802931 4288085770
1.3446732 3.3704886 -1.8060465 4288085770
1.4766808 3.437726 -1.808123 4288085770
1.6216965 3.5109911 -1.8131093 4288085770
1.778717 3.5882792 -1.8190148 4288085770
1.9387283 3.6655717 -1.8239014 4288085770
2.1467628 3.7689676 -1.8404512 4288085770
0.95264435 3.1687193 -1.8007488 4288085770
2.3417778 3.8623309 -1.8500957 4288085770
1.0836906 3.2279587 -1.805842 4288085770
2.5217667 3.9446564 -1.8528489 4288085770
1.202713 3.277168 -1.8050238 4288085770
2.7227554 4.0370245 -1.8584566 4288085770
1.3437462 3.3384247 -1.809051 4288085770
2.9097328 4.11836 -1.8591665 4288085770
1.5138092 3.4127443 -1.8208783 4288085770
3.1277084 4.213758 -1.8636626 4288085770
1.6478271 3.465981 -1.8199596 4288085770
3.331665 4.3001213 -1.8622583 4288085770
1.8228722 3.5383058 -1.8287578 4288085770
3.5696373 4.401557 -1.8676199 4288085770
1.9758835 3.5965781 -1.8287125 4288085770
3.8055916 4.497983 -1.8690002 4288085770
2.157917 3.6689134 -1.8354659 4288085770
4.0835533 4.6154952 -1.877088 4288085770
2.334938 3.7362347 -1.8392569 4288085770
4.3344955 4.7139473 -1.8773704 4288085770
2.5519867 3.8216414 -1.851772 4288085770
4.6154289 4.8244548 -1.8784477 4288085770
2.7459946 3.8919921 -1.8544514 4288085770
4.9033546 4.9349747 -1.8794801 4288085770
2.9370079 3.9583364 -1.8561548 4288085770
5.2152748 5.0545402 -1.8813492 4288085770
3.1400185 4.0277019 -1.8577784 4288085770
5.54319 5.1791358 -1.8841102 4288085770
3.3550186 4.1020908 -1.8603191 4288085770
5.8690948 5.2967229 -1.8828926 4288085770
3.5560112 4.1644478 -1.8579638 4288085770
6.2459946 5.43641 -1.8873239 4288085770
3.7719994 4.231833 -1.8565069 4288085770
6.6578865 5.5871639 -1.8935192 4288085770
4.0300102 4.3163052 -1.8627622 4288085770
7.1357765 5.7660484 -1.9072607 4288085770
4.2760048 4.3917494 -1.8641049 4288085770
7.6736488 5.9670482 -1.9245938 4288085770
4.5469971 4.4762406 -1.8672775 4288085770
8.2835007 6.1941853 -1.9464378 4288085770
4.815979 4.5537248 -1.8674716 4288085770
8.8433418 6.390214 -1.956637 4288085770
5.1109772 4.6422629 -1.8724864 4288085770
9.5101585 6.631453 -1.9771003 4288085770
5.4139519 4.7288122 -1.8744528 4288085770
10.144966 6.8466182 -1.9867994 4288085770
5.7079163 4.8073387 -1.8724869 4288085770
10.803726 7.0648217 -1.9923427 4288085770
6.0408974 4.8989444 -1.8762566 4288085770
11.392494 7.2438798 -1.9853771 4288085770
6.3798676 4.9895582 -1.8779888 4288085770
12.100227 7.4661674 -1.9866025 4288085770
6.7358398 5.081203 -1.8796121 4288085770
12.969944 7.7507687 -2.0017219 4288085770
7.1118126 5.177886 -1.8831015 4288085770
13.793636 8.0032682 -2.0041723 4288085770
7.5147781 5.2806201 -1.887412 4288085770
14.580311 8.2296867 -1.9968897 4288085770
7.9247398 5.3803639 -1.8896815 4288085770
8.3686981 5.488173 -1.8947245 4288085770
8.8096542 5.5879712 -1.8957965 4288085770
9.3646126 5.7289944 -1.909093 4288085770
9.921566 5.8620172 -1.9193866 4288085770
10.533516 6.0071435 -1.9323155 4288085770
11.133453 6.1392412 -1.9403361 4288085770
11.717396 6.2593036 -1.9444728 4288085770
12.336327 6.3814292 -1.9473844 4288085770
13.208267 6.5880499 -1.9755832 4288085770
13.949181 6.7364054 -1.9846867 4288085770
14.692108 6.8737612 -1.9907902 4288085770
15.328022 6.9628997 -1.9816321 4288085770
15.641228 -3.3436403 -1.7605739 4288085770
14.974369 -3.3478532 -1.7648307 4288085770
14.313465 -3.3440595 -1.7660419 4288085770
13.721611 -3.3451328 -1.7728167 4288085770
13.126717 -3.3382187 -1.7746021 4288085770
12.533802 -3.3223 -1.7763643 4288085770
11.99791 -3.311276 -1.7797685 4288085770
11.471001 -3.2962375 -1.782111 4288085770
10.976105 -3.2811379 -1.7862493 4288085770
10.464161 -3.255075 -1.7854838 4288085770
9.9962387 -3.2329292 -1.7874418 4288085770
9.5493202 -3.2097435 -1.7902651 4288085770
9.1234055 -3.187521 -1.7929555 4288085770
15.639416 -4.9127965 -1.7453121 4288085770
8.677433 -3.1523404 -1.7907588 4288085770
14.949543 -4.8490262 -1.767638 4288085770
8.3145447 -3.1329999 -1.7960502 4288085770
14.193562 -4.758388 -1.7803557 4288085770
7.9115829 -3.0987382 -1.7955803 4288085770
13.391483 -4.645844 -1.7843432 4288085770
7.550663 -3.0713978 -1.7978503 4288085770
12.625385 -4.5322394 -1.7850999 4288085770
7.1887093 -3.0380607 -1.7981199 4288085770
11.919312 -4.4275231 -1.7874838 4288085770
6.856781 -3.0096669 -1.8002045 4288085770
11.259247 -4.3277221 -1.7905811 4288085770
6.5258408 -2.9772735 -1.8012776 4288085770
10.656208 -4.2358174 -1.7943223 4288085770
6.2108917 -2.9448504 -1.8022486 4288085770
10.059139 -4.1379056 -1.7950188 4288085770
5.9229813 -2.9163747 -1.8060514 4288085770
9.5321198 -4.053863 -1.7992837 4288085770
5.6200104 -2.878933 -1.8049401 4288085770
9.0060654 -3.9638233 -1.7995361 4288085770
5.3480797 -2.8484311 -1.806639 4288085770
8.5150337 -3.8787174 -1.8015709 4288085770
5.1071892 -2.8238664 -1.8131464 4288085770
8.0449791 -3.7935772 -1.8004713 4288085770
4.8352203 -2.785368 -1.8118364 4288085770
7.6089516 -3.7133722 -1.8021605 4288085770
4.606308 -2.7577844 -1.8162637 4288085770
7.204937 -3.6391101 -1.803652 4288085770
4.3974304 -2.7341609 -1.823568 4288085770
6.8119125 -3.563827 -1.8050727 4288085770
4.1644859 -2.7005901 -1.8240147 4288085770
6.4459038 -3.4934959 -1.8063264 4288085770
3.9425468 -2.6669979 -1.8253911 4288085770
6.0858879 -3.4211531 -1.8075399 4288085770
3.7035561 -2.6244426 -1.8218663 4288085770
5.7538872 -3.3537607 -1.8085802 4288085770
3.5236702 -2.6007662 -1.8289856 4288085770
5.4398918 -3.2883339 -1.8105077 4288085770
3.3046875 -2.5601754 -1.8253355 4288085770
5.1469116 -3.2278686 -1.8133068 4288085770
3.1217651 -2.52951 -1.8284663 4288085770
4.8919792 -3.1763272 -1.8208728 4288085770
2.9047546 -2.4839187 -1.8217981 4288085770
4.5969429 -3.1078725 -1.8176765 4288085770
2.7217979 -2.448257 -1.8219236 4288085770
4.3389587 -3.0503449 -1.8192557 4288085770
2.5338173 -2.4096098 -1.8180779 4288085770
4.1050034 -2.9977698 -1.823687 4288085770
2.3668747 -2.374917 -1.8191022 4288085770
3.8670235 -2.941206 -1.8251396 4288085770
2.2079391 -2.3432112 -1.8200791 4288085770
3.6470528 -2.8886099 -1.8264818 4288085770
2.034935 -2.3015394 -1.8141342 4288085770
3.4150467 -2.8280382 -1.8248918 4288085770
1.8839951 -2.2678185 -1.8150576 4288085770
3.192028 -2.7694545 -1.821247 4288085770
1.7340355 -2.2330999 -1.8129739 4288085770
2.9750175 -2.7098575 -1.8185626 4288085770
1.5950928 -2.2003574 -1.8138218 4288085770
2.775013 -2.65523 -1.8157753 4288085770
1.4591484 -2.1676106 -1.8136507 4288085770
2.5960464 -2.6065598 -1.8168603 4288085770
1.3292046 -2.1348534 -1.8134412 4288085770
2.4140549 -2.5548973 -1.8159614 4288085770
1.198246 -2.1000986 -1.812236 4288085770
2.2470779 -2.5072074 -1.8149711 4288085770
1.0853195 -2.0723085 -1.8139234 4288085770
2.0841026 -2.4585104 -1.8149538 4288085770
0.96536636 -2.0385342 -1.8126489 4288085770
1.9321404 -2.4137902 -1.8158712 4288085770
1.783165 -2.3680687 -1.8147682 4288085770
1.6421967 -2.3233314 -1.814615 4288085770
1.5072441 -2.280581 -1.8154258 4288085770
1.3692627 -2.2348409 -1.8132527 4288085770
1.240284 -2.191083 -1.8120241 4288085770
1.123333 -2.1513004 -1.8127234 4288085770
0.98731613 -2.101562 -1.8055334 4288085770
1.011219 0.041687489 -1.8010756 4288085770
1.1133041 0.053859711 -1.7993817 4288085770
1.2223854 0.067044258 -1.7976401 4288085770
1.3354683 0.079234838 -1.7948732 4288085770
1.4445343 0.091416955 -1.7911325 4288085770
1.5876579 0.10366797 -1.7941669 4288085770
1.7287636 0.11591315 -1.7952143 4288085770
1.8678513 0.12815213 -1.7942747 4288085770
0.93783951 0.17049479 -1.7983631 4288085770
2.0229568 0.14042187 -1.7952288 4288085770
1.063961 0.18171573 -1.8015109 4288085770
2.1850586 0.15170252 -1.7951379 4288085770
1.1880684 0.19193029 -1.8026732 4288085770
2.3681908 0.16402698 -1.7999063 4288085770
1.3061523 0.20212972 -1.799875 4288085770
2.5272522 0.17629623 -1.7948331 4288085770
1.4302368 0.21333945 -1.7970357 4288085770
2.7353821 0.18866491 -1.7994355 4288085770
1.5893745 0.22362244 -1.8029655 4288085770
2.9124489 0.19996572 -1.7942437 4288085770
1.7224503 0.2338469 -1.7990673 4288085770
3.1405716 0.21236825 -1.7977129 4288085770
1.8795624 0.24412 -1.80001 4288085770
3.3606682 0.22475183 -1.7972347 4288085770
2.0416718 0.25340199 -1.8009204 4288085770
3.6168022 0.23620498 -1.8015192 4288085770
2.2117729 0.26269662 -1.8007778 4288085770
3.8929291 0.24869382 -1.805669 4288085770
2.3918762 0.27300918 -1.8005672 4288085770
4.1510048 0.26014054 -1.801939 4288085770
2.5899887 0.28335607 -1.8022369 4288085770
4.4781532 0.27272308 -1.8087504 4288085770
2.7790718 0.2926805 -1.7989674 4288085770
4.7592201 0.28420806 -1.8028671 4288085770
3.0042 0.30207753 -1.8024588 4288085770
5.090313 0.29678762 -1.8016505 4288085770
3.2313042 0.31147313 -1.8019365 4288085770
5.4544106 0.30942667 -1.8012148 4288085770
3.4874229 0.32192528 -1.8052207 4288085770
5.806469 0.32203746 -1.7948585 4288085770
3.7285118 0.33034182 -1.8016061 4288085770
6.2095413 0.3347404 -1.7901629 4288085770
4.0236511 0.33986497 -1.8066317 4288085770
6.6566353 0.34652507 -1.7881761 4288085770
4.3187637 0.349383 -1.8076569 4288085770
7.1267128 0.35934782 -1.7840347 4288085770
4.6168442 0.35790014 -1.8036629 4288085770
7.6798248 0.37232363 -1.7843423 4288085770
4.9619675 0.36750901 -1.8063552 4288085770
8.2959404 0.38641334 -1.7862295 4288085770
5.3230782 0.37614262 -1.8059419 4288085770
8.9470291 0.39955842 -1.7828847 4288085770
5.6951637 0.38379049 -1.8014565 4288085770
9.6691208 0.41283035 -1.7800677 4288085770
6.0802307 0.39145875 -1.794884 4288085770
10.455193 0.42621171 -1.7738246 4288085770
6.5193253 0.39922738 -1.7919524 4288085770
11.345276 0.4407804 -1.7698886 4288085770
7.0094376 0.40609014 -1.7916827 4288085770
12.408398 0.45566261 -1.7708027 4288085770
7.5465469 0.41403425 -1.7900988 4288085770
13.478432 0.46953964 -1.7576697 4288085770
8.1206474 0.42004275 -1.7872705 4288085770
14.7845 0.48484254 -1.7499665 4288085770
8.8047905 0.4272542 -1.7907096 4288085770
9.4748573 0.43242574 -1.782243 4288085770
10.297981 0.43787909 -1.7817588 4288085770
11.150051 0.44237375 -1.773082 4288085770
12.176182 0.44618821 -1.7732482 4288085770
13.309292 0.44918656 -1.768703 4288085770
14.568382 0.44940329 -1.7603217 4288085770
11.528469 -5.4633551 -0.40639392 4293729569
11.508648 -5.3433509 -0.4463799 4293729569
11.634933 -5.2730894 -0.48943359 4293729569
15.086502 0.73850942 -1.7510718 4288085770
13.848572 0.76341343 -1.755461 4288085770
12.781658 0.78660798 -1.7606895 4288085770
11.784714 0.80791479 -1.7604438 4288085770
10.878757 0.82737362 -1.7585814 4288085770
10.119827 0.8470847 -1.7597198 4288085770
9.4579315 0.8669647 -1.7651986 4288085770
8.8380127 0.88591194 -1.7673926 4288085770
15.697514 1.2824646 -1.7593786 4288085770
8.2881012 0.90497822 -1.7701108 4288085770
14.339546 1.2801538 -1.7506089 4288085770
7.7741814 0.92310405 -1.7715851 4288085770
13.307663 1.2894112 -1.7576119 4288085770
7.2972603 0.94029123 -1.771809 4288085770
12.314739 1.2947254 -1.7563537 4288085770
6.8953667 0.95961297 -1.7785202 4288085770
11.434811 1.3012326 -1.756326 4288085770
6.5004539 0.97694033 -1.7801865 4288085770
10.65089 1.3089008 -1.7556449 4288085770
6.1575699 0.9963609 -1.786497 4288085770
9.9920006 1.319786 -1.7601112 4288085770
5.8166504 1.012778 -1.7867972 4288085770
9.3851013 1.3307574 -1.763224 4288085770
5.5107536 1.0312588 -1.7908571 4288085770
8.8292007 1.3408134 -1.7649913 4288085770
5.2178497 1.0477591 -1.7928308 4288085770
8.3323097 1.3539723 -1.7693542 4288085770
4.9499512 1.0663038 -1.7966322 4288085770
7.8303757 1.3641146 -1.766754 4288085770
4.6940422 1.0828664 -1.7983543 4288085770
7.4134789 1.3764069 -1.7695743 4288085770
4.4421196 1.0984323 -1.7970501 4288085770
7.0285873 1.3907539 -1.7731748 4288085770
4.2122002 1.1150377 -1.7975954 4288085770
6.6857071 1.4071752 -1.7794875 4288085770
3.9732628 1.1296234 -1.7942039 4288085770
6.3237801 1.4175541 -1.7769359 4288085770
3.7673416 1.145268 -1.793587 4288085770
6.0228882 1.4330438 -1.7809644 4288085770
3.5794373 1.1629462 -1.7958454 4288085770
5.7329826 1.4485496 -1.7829179 4288085770
3.383503 1.1776055 -1.7931615 4288085770
5.4420624 1.4600503 -1.7818828 4288085770
3.225605 1.1953354 -1.7962161 4288085770
5.1851501 1.4756106 -1.782612 4288085770
3.0446701 1.2100186 -1.7924302 4288085770
4.9612694 1.493232 -1.7881147 4288085770
2.9017601 1.2277744 -1.7953825 4288085770
4.7433586 1.5098605 -1.7905777 4288085770
2.7658691 1.2465426 -1.7992864 4288085770
4.5254478 1.5244863 -1.7910428 4288085770
2.5999069 1.2602477 -1.7923993 4288085770
4.3245392 1.541142 -1.7923902 4288085770
2.4639854 1.2760102 -1.7913064 4288085770
4.1356277 1.5578176 -1.7936562 4288085770
2.3370743 1.2927901 -1.7921512 4288085770
3.9517136 1.5724995 -1.7928904 4288085770
2.2121506 1.309571 -1.7909824 4288085770
3.7727928 1.5881909 -1.7930894 4288085770
2.1042442 1.327384 -1.7926967 4288085770
3.6138763 1.6049159 -1.7931515 4288085770
2.0083466 1.3472193 -1.7963276 4288085770
3.4379311 1.6186068 -1.7883322 4288085770
1.897419 1.3630228 -1.7940645 4288085770
3.3080368 1.6383851 -1.7921939 4288085770
1.7934952 1.3798391 -1.7927529 4288085770
3.1601105 1.6531264 -1.7901832 4288085770
1.6825523 1.3946402 -1.788491 4288085770
3.0301895 1.6709001 -1.7900472 4288085770
1.5836143 1.4104626 -1.7851464 4288085770
2.887249 1.6856475 -1.7860024 4288085770
1.5067177 1.4313302 -1.7886468 4288085770
2.7733383 1.7054503 -1.7877553 4288085770
1.4268074 1.4501901 -1.7901698 4288085770
2.6433945 1.7212198 -1.7836211 4288085770
1.3669243 1.4740895 -1.7965515 4288085770
2.5424919 1.7410445 -1.7852857 4288085770
1.2699623 1.4879107 -1.7891953 4288085770
2.4475784 1.7618794 -1.7869084 4288085770
1.2090569 1.5098054 -1.7925857 4288085770
2.3546524 1.7827168 -1.7875172 4288085770
1.1291161 1.5266598 -1.7891109 4288085770
2.2537155 1.801537 -1.7851827 4288085770
1.0682106 1.5475532 -1.7915024 4288085770
2.1848259 1.8264201 -1.7906245 4288085770
1.0123062 1.5694546 -1.7938591 4288085770
2.0908852 1.8442509 -1.7872436 4288085770
0.95539093 1.5903534 -1.7952235 4288085770
2.0159721 1.8671193 -1.7887281 4288085770
1.9370384 1.8869777 -1.7872431 4288085770
1.8510933 1.9048209 -1.7828077 4288085770
1.8001938 1.932734 -1.7881238 4288085770
1.7282562 1.953603 -1.7855902 4288085770
1.6543121 1.9724675 -1.7820722 4288085770
1.6033936 1.9983761 -1.7833904 4288085770
1.549469 2.0232787 -1.78373 4288085770
1.5105629 2.0522108 -1.7879633 4288085770
1.4385948 2.0700741 -1.7804331 4288085770
1.4026833 2.0990102 -1.783646 4288085770
1.3577423 2.1249256 -1.7819234 4288085770
1.3138084 2.1498439 -1.7811953 4288085770
1.2768784 2.1777747 -1.7814162 4288085770
1.2309189 2.201685 -1.7767026 4288085770
1.204998 2.2326365 -1.7788455 4288085770
1.1780663 2.2635856 -1.7799952 4288085770
1.1531296 2.2935364 -1.7801327 4288085770
1.1241837 2.3224783 -1.778298 4288085770
1.0992393 2.3524282 -1.7774355 4288085770
1.0823097 2.3853939 -1.7785152 4288085770
1.0603561 2.4163465 -1.775631 4288085770
1.0634384 2.4573507 -1.7815663 4288085770
1.047493 2.4903157 -1.7806392 4288085770
1.0325432 2.5232811 -1.7787055 4288085770
1.0165749 2.5552425 -1.7747797 4288085770
1.0326653 2.6022708 -1.7826201 4288085770
1.0317116 2.6402609 -1.7815858 4288085770
1.0237465 2.6762381 -1.7796012 4288085770
1.016777 2.7122145 -1.7756099 4288085770
1.0358353 2.7602429 -1.7794292 4288085770
1.0338707 2.7972288 -1.7764028 4288085770
1.0409012 2.8392308 -1.7743101 4288085770
1.0759773 2.8952904 -1.782012 4288085770
1.0890045 2.9393024 -1.7798765 4288085770
1.1210556 2.9933529 -1.783601 4288085770
1.1521034 3.0464001 -1.7863336 4288085770
1.1821365 3.0994434 -1.7870729 4288085770
1.2281837 3.1615193 -1.792694 4288085770
1.2642059 3.2175715 -1.7923893 4288085770
1.3062363 3.2766356 -1.7940409 4288085770
1.3552666 3.3397126 -1.7966408 4288085770
1.4183044 3.4108167 -1.8021369 4288085770
1.4713249 3.4748993 -1.8037086 4288085770
1.5393486 3.5490098 -1.8081676 4288085770
1.6143723 3.6261334 -1.813576 4288085770
1.7194214 3.7213159 -1.8267615 4288085770
1.7713966 3.7843885 -1.8213415 4288085770
1.8814316 3.8825765 -1.8324898 4288085770
1.9754295 3.9707303 -1.8367578 4288085770
2.0744247 4.061892 -1.8409889 4288085770
2.203434 4.1711116 -1.8519969 4288085770
2.3214264 4.2733064 -1.8580873 4288085770
0.97336578 3.5330095 -1.812032 4288085770
2.440403 4.3755021 -1.8621712 4288085770
1.056385 3.6061435 -1.8153912 4288085770
2.5883904 4.494751 -1.8720399 4288085770
1.1413918 3.6802802 -1.8177359 4288085770
2.7343559 4.6129928 -1.8779236 4288085770
1.2434158 3.7654495 -1.8239534 4288085770
2.8723068 4.7252173 -1.8808682 4288085770
1.341423 3.8466082 -1.8272024 4288085770
3.009243 4.8364367 -1.8808211 4288085770
1.4644356 3.9438152 -1.8362648 4288085770
3.169178 4.9606981 -1.8836042 4288085770
1.5774345 4.0330005 -1.840404 4288085770
3.3290977 5.0849552 -1.8843873 4288085770
1.6824074 4.1151662 -1.8396052 4288085770
3.5010033 5.2152357 -1.8860826 4288085770
1.8224068 4.2204003 -1.8475441 4288085770
3.6869011 5.3535366 -1.8866751 4288085770
1.9323692 4.3035717 -1.8447109 4288085770
3.8837967 5.4978566 -1.8881865 4288085770
2.0953636 4.420846 -1.8544815 4288085770
4.121685 5.6672516 -1.8953931 4288085770
2.3063774 4.5702124 -1.8758918 4288085770
4.3925667 5.8577056 -1.9063535 4288085770
2.5113716 4.7135644 -1.8923496 4288085770
4.6764336 6.0531793 -1.9162208 4288085770
2.6633186 4.8178082 -1.8922099 4288085770
4.9972878 6.2727184 -1.9298117 4288085770
2.826252 4.92907 -1.8919883 4288085770
5.3651314 6.5213418 -1.9490529 4288085770
2.9881744 5.0373273 -1.888777 4288085770
5.7379456 6.7699695 -1.9642608 4288085770
3.1630898 5.1526079 -1.8874705 4288085770
6.1017265 7.0105729 -1.9725392 4288085770
3.3790169 5.2929635 -1.892859 4288085770
6.4634933 7.2461672 -1.9758372 4288085770
3.587925 5.425302 -1.8933042 4288085770
6.8622169 7.5038242 -1.9798613 4288085770
3.8108215 5.5646634 -1.8936474 4288085770
7.2759171 7.7675014 -1.9807783 4288085770
4.0927277 5.7411361 -1.905551 4288085770
7.7015953 8.0351963 -1.97961 4288085770
4.380619 5.9186144 -1.9144132 4288085770
4.7025032 6.1151538 -1.9270252 4288085770
5.0503616 6.3267374 -1.9404448 4288085770
5.4502335 6.5664139 -1.9604831 4288085770
5.8450546 6.7990727 -1.9725635 4288085770
6.2248688 7.0177007 -1.9797616 4288085770
6.6206551 7.2403512 -1.9838479 4288085770
7.0254097 7.4650116 -1.9838717 4288085770
7.476162 7.7127538 -1.98856 4288085770
7.8868866 7.9304161 -1.981553 4288085770
8.3705902 8.1882076 -1.9820089 4288085770
9.2491837 8.2070103 -1.4871334 4293729569
9.2579308 8.1339293 -1.4141659 4293729569
9.5963669 8.1713409 -1.3038629 4293729569
9.7171059 8.1564598 -1.2430763 4293729569
10.022583 8.1518106 -1.1280446 4293729569
10.06638 8.0847988 -1.0638354 4293729569
10.499016 8.2284575 -1.0257716 4293729569
15.387432 -1.5137223 -1.7481984 4288085770
14.553616 -1.5450805 -1.7538048 4288085770
13.779804 -1.5723394 -1.7610055 4288085770
12.993935 -1.5906249 -1.7612756 4288085770
12.293083 -1.6077684 -1.7649769 4288085770
11.768349 -1.6366099 -1.7825168 4288085770
11.159496 -1.6496028 -1.7865988 4288085770
10.57061 -1.6555673 -1.7875389 4288085770
10.016731 -1.6604735 -1.7892439 4288085770
9.4998627 -1.6643168 -1.7927006 4288085770
9.0029678 -1.6651317 -1.7930201 4288085770
14.94128 -2.5545688 -1.74446 4288085770
8.5340843 -1.6638993 -1.7951503 4288085770
14.067406 -2.5209808 -1.7572548 4288085770
8.0851707 -1.6596371 -1.7941432 4288085770
13.155426 -2.4694672 -1.759282 4288085770
7.6572685 -1.6533397 -1.7939936 4288085770
12.31044 -2.4198461 -1.7598641 4288085770
7.2573662 -1.6479961 -1.7946581 4288085770
11.602531 -2.3829942 -1.7675468 4288085770
6.8804665 -1.6406151 -1.7951666 4288085770
10.930614 -2.3460851 -1.7739893 4288085770
6.5255661 -1.6341976 -1.7965292 4288085770
10.25964 -2.3001809 -1.7744142 4288085770
6.1986885 -1.6287318 -1.7997061 4288085770
9.6877289 -2.2661109 -1.7801923 4288085770
5.9058304 -1.6242071 -1.8066573 4288085770
9.0827255 -2.2191029 -1.7771753 4288085770
5.6049423 -1.6167005 -1.8086581 4288085770
8.5567856 -2.1799612 -1.7796403 4288085770
5.3220596 -1.6081625 -1.8125376 4288085770
8.0588226 -2.1417761 -1.7799196 4288085770
5.0301323 -1.5946461 -1.8104711 4288085770
7.6169128 -2.1094952 -1.7848319 4288085770
4.7892761 -1.5880367 -1.8170724 4288085770
7.1759529 -2.072217 -1.7847316 4288085770
4.5383873 -1.577448 -1.8197359 4288085770
6.7630005 -2.0358934 -1.7854457 4288085770
4.2974815 -1.5648443 -1.82133 4288085770
6.3990898 -2.005486 -1.7898396 4288085770
4.0856133 -1.5561892 -1.8267353 4288085770
6.0681953 -1.9790226 -1.7960179 4288085770
3.89077 -1.5505029 -1.8350306 4288085770
5.7372742 -1.9485632 -1.7991915 4288085770
3.6347847 -1.5269345 -1.8267118 4288085770
5.4153366 -1.9160908 -1.8003024 4288085770
3.4318733 -1.5122687 -1.8280498 4288085770
5.1314354 -1.890551 -1.806168 4288085770
3.196888 -1.4896663 -1.8195919 4288085770
4.8625298 -1.8639888 -1.8109323 4288085770
3.0039749 -1.4739858 -1.8198619 4288085770
4.6016312 -1.8374132 -1.8156432 4288085770
2.8220673 -1.4582862 -1.8210585 4288085770
4.3547173 -1.8108169 -1.8192607 4288085770
2.6411438 -1.4415873 -1.8202472 4288085770
4.1117973 -1.7832142 -1.8218499 4288085770
2.4882736 -1.4298364 -1.8252548 4288085770
3.873867 -1.7536052 -1.8234038 4288085770
2.3003044 -1.4071544 -1.8194832 4288085770
3.6479454 -1.7259766 -1.8248798 4288085770
2.1343689 -1.3884336 -1.8165693 4288085770
3.4169846 -1.6943604 -1.8223842 4288085770
1.9884644 -1.3736745 -1.8185265 4288085770
3.1869965 -1.6597463 -1.8168788 4288085770
1.8445587 -1.3579134 -1.8194693 4288085770
2.9940834 -1.6340629 -1.8191366 4288085770
1.7206802 -1.3451158 -1.8242821 4288085770
2.7991409 -1.6043862 -1.8184034 4288085770
1.5897865 -1.3293313 -1.8271381 4288085770
2.6152115 -1.5776907 -1.8186001 4288085770
1.4568596 -1.3115548 -1.8260051 4288085770
2.4462891 -1.5519699 -1.8196977 4288085770
1.3670464 -1.3056926 -1.8385991 4288085770
2.2703285 -1.5222646 -1.8168375 4288085770
1.2651863 -1.293857 -1.8452662 4288085770
2.0963631 -1.4915577 -1.8129629 4288085770
1.1272202 -1.2710942 -1.8391606 4288085770
1.9504509 -1.4677984 -1.8149096 4288085770
1.7934952 -1.4400624 -1.8119246 4288085770
1.6696091 -1.4192632 -1.8177278 4288085770
1.5336723 -1.3944911 -1.8166065 4288085770
1.4458542 -1.3816246 -1.830179 4288085770
1.3369751 -1.3618013 -1.8358833 4288085770
1.2360954 -1.3429641 -1.8425354 4288085770
1.1091499 -1.3161792 -1.8393515 4288085770
0.96992111 0.62069231 -1.7932878 4288085770
1.0759964 0.63385046 -1.7905695 4288085770
1.2071266 0.64805734 -1.7956839 4288085770
1.3131905 0.66021204 -1.7899667 4288085770
1.4463005 0.67441851 -1.7920681 4288085770
1.5884132 0.68863916 -1.7941098 4288085770
1.7325134 0.70186067 -1.7941391 4288085770
1.8655739 0.71405929 -1.7892427 4288085770
0.99470139 0.67368239 -1.794059 4288085770
2.0246811 0.72830653 -1.7911717 4288085770
1.1178131 0.68387187 -1.7952313 4288085770
2.2028046 0.743586 -1.7949731 4288085770
1.2359085 0.69405019 -1.7934364 4288085770
2.3698883 0.75684124 -1.7928498 4288085770
1.3770256 0.70427024 -1.7964891 4288085770
2.5640106 0.77114588 -1.7965463 4288085770
1.5091209 0.71447027 -1.7946016 4288085770
2.7641182 0.78645754 -1.7982019 4288085770
1.6602325 0.72470498 -1.7965878 4288085770
2.9551964 0.79874933 -1.7949207 4288085770
1.8193588 0.73495352 -1.7995209 4288085770
3.1763 0.81409401 -1.7964367 4288085770
1.9724579 0.74518782 -1.7984939 4288085770
3.4003906 0.82844007 -1.794934 4288085770
2.1275444 0.75342286 -1.7954558 4288085770
3.6344833 0.8418017 -1.7933662 4288085770
2.3096581 0.76370639 -1.7972362 4288085770
3.9156113 0.85824525 -1.7984829 4288085770
2.4877548 0.77197987 -1.7960455 4288085770
4.2207451 0.87572789 -1.8044392 4288085770
2.6838646 0.78128403 -1.7967341 4288085770
4.4998283 0.88915908 -1.8015726 4288085770
2.8709488 0.78956932 -1.7934836 4288085770
4.7939072 0.90361375 -1.7986054 4288085770
3.1191101 0.80096447 -1.8018248 4288085770
5.1159897 0.91811246 -1.7954522 4288085770
3.3422165 0.80930978 -1.8013352 4288085770
5.4660835 0.93365747 -1.7941121 4288085770
3.5893364 0.81769663 -1.8036865 4288085770
5.8331604 0.94722819 -1.7916614 4288085770
3.8244171 0.82505614 -1.7991183 4288085770
6.2182274 0.9618234 -1.7860901 4288085770
4.1115494 0.83350778 -1.8032039 4288085770
6.6302872 0.97546113 -1.7803407 4288085770
4.3926468 0.84094304 -1.8013304 4288085770
7.0913658 0.99117815 -1.7762637 4288085770
4.6977615 0.84741831 -1.8012987 4288085770
7.6364746 1.0090342 -1.7776269 4288085770
5.013855 0.85390741 -1.7981941 4288085770
8.1895599 1.025898 -1.7749382 4288085770
5.3389397 0.8584094 -1.7940319 4288085770
8.7966347 1.0418456 -1.7708921 4288085770
5.7150612 0.86399722 -1.79453 4288085770
9.4657173 1.0588903 -1.7664336 4288085770
6.0851479 0.86756879 -1.78907 4288085770
10.217808 1.0780704 -1.7654215 4288085770
6.4732285 0.87016839 -1.7834916 4288085770
11.035877 1.0963492 -1.7599727 4288085770
6.9283333 0.87387794 -1.7814677 4288085770
12.013988 1.1178876 -1.7604587 4288085770
7.4064293 0.87562132 -1.7772928 4288085770
13.095089 1.1405878 -1.7602595 4288085770
7.9385414 0.87645173 -1.774761 4288085770
14.334202 1.1655385 -1.7610095 4288085770
8.4966469 0.87732184 -1.7710562 4288085770
15.782326 1.1928209 -1.76337 4288085770
9.1257553 0.87630457 -1.7678823 4288085770
9.8118553 0.87437546 -1.7633314 4288085770
10.601997 0.87261701 -1.7640898 4288085770
11.489147 0.8690117 -1.7652067 4288085770
12.4683 0.86355078 -1.7657149 4288085770
13.575443 0.85528982 -1.7643765 4288085770
14.813591 0.84323424 -1.7621729 4288085770
5.5071106 -5.3884797 -0.81367272 4293729569
5.5163803 -5.304915 -0.30353919 4293729569
5.4762726 -5.3105111 -0.84875536 4293729569
5.5045586 -5.2349105 -0.34053051 4293729569
5.4954948 -5.2584481 -0.88860184 4293729569
5.5227776 -5.1808491 -0.37938046 4293729569
5.5217247 -5.209373 -0.92741483 4293729569
5.5640144 -5.1387477 -0.4171218 4293729569
5.5749817 -5.1752486 -0.96710086 4293729569
5.646286 -5.1165719 -0.45566839 4293729569
5.701355 -5.1779847 -1.0144414 4293729569
10.631615 -7.7563272 -0.71918553 4293729569
10.27153 -7.6062808 -1.5179226 4293729569
10.653824 -7.6632485 -0.76997614 4293729569
10.010307 -7.3647447 -1.5370497 4293729569
10.697052 -7.5811334 -0.82066751 4293729569
9.7170219 -7.1082683 -1.5503299 4293729569
10.81636 -7.5368781 -0.8729983 4293729569
9.456768 -6.871737 -1.5614572 4293729569
10.976715 -7.5115466 -0.92713308 4293729569
9.1504364 -6.615294 -1.5658062 4293729569
11.314281 -7.5718865 -0.99142522 4293729569
8.8661156 -6.3708119 -1.5680521 4293729569
11.501637 -7.5495076 -1.0454218 4293729569
8.6489029 -6.1652069 -1.5759852 4293729569
11.760071 -7.5599961 -1.1030791 4293729569
8.462719 -5.9785404 -1.5847745 4293729569
12.025509 -7.5704713 -1.1606996 4293729569
8.2865486 -5.7978597 -1.5925177 4293729569
12.36203 -7.6108136 -1.2239777 4293729569
8.1374016 -5.6321292 -1.6001343 4293729569
12.661476 -7.6262298 -1.2814254 4293729569
7.9992714 -5.4733791 -1.6077 4293729569
7.8701401 -5.3216138 -1.6142256 4293729569
7.7460175 -5.1728401 -1.6197281 4293729569
7.6669502 -5.0459814 -1.6290165 4293729569
13.570801 -7.5144353 -1.4825547 4293729569
7.581871 -4.9171352 -1.6363344 4293729569
13.373573 -7.292789 -1.494368 4293729569
7.5138054 -4.7962589 -1.6435713 4293729569
13.244415 -7.1040168 -1.5088573 4293729569
7.4497452 -4.6793761 -1.6497909 4293729569
13.038162 -6.8843923 -1.5137197 4293729569
7.4597778 -4.5933518 -1.6646535 4293729569
12.869949 -6.6846976 -1.5204029 4293729569
7.660099 -4.5859604 -1.7055979 4293729569
12.772808 -6.5158715 -1.5297445 4293729569
7.9154854 -4.5964632 -1.7532718 4288085770
12.689678 -6.3510199 -1.5400168 4293729569
8.1488304 -4.5940099 -1.7970484 4288085770
11.381092 -5.7184844 -1.4362408 4293729569
8.2029037 -4.5209045 -1.8136932 4288085770
11.387062 -5.6014686 -1.448094 4293729569
8.1528053 -4.4040012 -1.8138403 4288085770
11.457088 -5.5073352 -1.4646347 4293729569
8.0886841 -4.2851272 -1.8100587 4288085770
12.510246 -5.7703452 -1.5703832 4293729569
8.0495949 -4.1762047 -1.8091561 4288085770
12.544209 -5.6552815 -1.5800918 4293729569
8.0425453 -4.0792246 -1.8100972 4288085770
12.571152 -5.5382338 -1.5878353 4293729569
8.0044518 -3.9713011 -1.8071902 4288085770
12.595081 -5.4191923 -1.5935924 4293729569
8.0324326 -3.8862553 -1.8109599 4288085770
12.651031 -5.3090916 -1.6001912 4293729569
8.0223656 -3.7902813 -1.808918 4288085770
12.705978 -5.2009954 -1.6047969 4293729569
8.0233002 -3.6972885 -1.8068213 4288085770
12.774929 -5.0958734 -1.6093322 4293729569
8.0432549 -3.6102591 -1.8056312 4288085770
12.849876 -4.9917421 -1.6128371 4293729569
8.0662117 -3.5252261 -1.804427 4288085770
13.023914 -4.9164257 -1.6228521 4293729569
8.0861473 -3.4361997 -1.801235 4288085770
13.316055 -4.8728867 -1.6422801 4293729569
8.1571541 -3.3640757 -1.8037925 4288085770
13.711285 -4.8551559 -1.6691943 4293729569
8.1981049 -3.2820101 -1.8014973 4288085770
14.230618 -4.8671932 -1.7054883 4288085770
8.2560806 -3.2059131 -1.8001187 4288085770
14.808983 -4.8881207 -1.744482 4288085770
8.3490868 -3.1377506 -1.8015648 4288085770
15.249191 -4.8653111 -1.7681556 4288085770
8.4320717 -3.0666075 -1.8010604 4288085770
15.551239 -4.8007646 -1.7775111 4288085770
8.5260582 -2.9974446 -1.8005002 4288085770
15.815243 -4.7242913 -1.7810535 4288085770
8.61203 -2.9262981 -1.7979805 4288085770
16.053192 -4.6378694 -1.7797235 4288085770
8.7270279 -2.8600974 -1.7973133 4288085770
16.363194 -4.563314 -1.7820274 4288085770
8.8600273 -2.7958636 -1.797554 4288085770
9.0010376 -2.7336154 -1.7977544 4288085770
9.1310234 -2.6683898 -1.7950094 4288085770
9.2910271 -2.6061082 -1.7941105 4288085770
9.4680367 -2.5467954 -1.7941254 4288085770
9.6630516 -2.4884501 -1.7940471 4288085770
9.8660583 -2.42909 -1.7939258 4288085770
10.073063 -2.3687243 -1.7917827 4288085770
10.355114 -2.3182173 -1.7962564 4288085770
10.650166 -2.2666874 -1.8006613 4288085770
10.951199 -2.2121482 -1.8030316 4288085770
11.287251 -2.1605439 -1.8072217 4288085770
11.604263 -2.1029787 -1.8065051 4288085770
11.89922 -2.0354595 -1.7988945 4288085770
12.246216 -1.9738415 -1.7960176 4288085770
12.621208 -1.9121746 -1.7919935 4288085770
13.031197 -1.850444 -1.7887862 4288085770
13.525227 -1.793557 -1.7901437 4288085770
14.063267 -1.7365896 -1.7932707 4288085770
14.574242 -1.6686784 -1.7875286 4288085770
15.114201 -1.5987166 -1.7806324 4288085770
15.802223 -1.537479 -1.7819697 4288085770
15.844303 1.2804296 -1.7859592 4288085770
14.844349 1.3266451 -1.790349 4288085770
13.896374 1.3669491 -1.7894623 4288085770
13.038391 1.4034116 -1.7860901 4288085770
12.287426 1.4390664 -1.7851372 4288085770
11.533432 1.4697106 -1.7772062 4288085770
10.932487 1.5046344 -1.778439 4288085770
10.401543 1.5406842 -1.7812909 4288085770
9.8956032 1.5737776 -1.7830095 4288085770
9.4196548 1.6039219 -1.7815681 4288085770
9.0167236 1.6381998 -1.784726 4288085770
16.328423 2.4791963 -1.7881678 4288085770
8.6197815 1.6694869 -1.7858545 4288085770
15.624569 2.5159509 -1.8069601 4288085770
8.2518425 1.7008255 -1.7868253 4288085770
14.885681 2.5406356 -1.8159543 4288085770
7.9079018 1.7312067 -1.7876668 4288085770
14.075733 2.5501823 -1.8103497 4288085770
7.5709534 1.7595981 -1.7854723 4288085770
13.162735 2.5365329 -1.7873271 4288085770
7.278019 1.7900707 -1.7870365 4288085770
12.506798 2.5483551 -1.7828829 4288085770
7.0010834 1.819571 -1.7875147 4288085770
11.859844 2.5551903 -1.7743949 4288085770
6.7341385 1.8490882 -1.786939 4288085770
11.319904 2.5712192 -1.7703164 4288085770
6.4982033 1.8806621 -1.7881927 4288085770
10.870983 2.5954151 -1.7727354 4288085770
6.2542572 1.9082196 -1.7864939 4288085770
10.402042 2.6125708 -1.7692702 4288085770
6.0583344 1.9418668 -1.7905284 4288085770
9.996109 2.6358409 -1.7684568 4288085770
5.8513985 1.9714913 -1.7906265 4288085770
9.6381836 2.6621983 -1.7703794 4288085770
5.659462 2.0021436 -1.7916423 4288085770
9.2972527 2.688585 -1.7712097 4288085770
5.4775162 2.0308123 -1.7906059 4288085770
8.9963226 2.7180448 -1.7738203 4288085770
5.3025742 2.0614936 -1.7905295 4288085770
8.7103882 2.7475297 -1.7753488 4288085770
5.1666489 2.0962474 -1.7942371 4288085770
8.4384537 2.7760391 -1.7758019 4288085770
5.0127106 2.126967 -1.7950466 4288085770
8.1905174 2.8075919 -1.7771221 4288085770
4.8577614 2.1556826 -1.7928632 4288085770
7.9365768 2.8341315 -1.7754794 4288085770
4.7408371 2.1914701 -1.7964669 4288085770
7.7516556 2.8748007 -1.7824488 4288085770
4.6108932 2.2232316 -1.7961452 4288085770
7.5237045 2.9033856 -1.7796633 4288085770
4.4819374 2.253993 -1.7938191 4288085770
7.338768 2.9380512 -1.7816379 4288085770
4.3840218 2.2898154 -1.7983192 4288085770
7.1338158 2.9676771 -1.7787266 4288085770
4.2710686 2.3226061 -1.7969046 4288085770
6.9818726 3.0084023 -1.7825168 4288085770
4.1581154 2.3533962 -1.7944915 4288085770
6.8299332 3.0471261 -1.7843088 4288085770
4.0651703 2.3882239 -1.7949659 4288085770
6.6889839 3.0868685 -1.7850401 4288085770
3.972229 2.4230521 -1.7954404 4288085770
6.5390282 3.1235945 -1.7848233 4288085770
3.9092941 2.464936 -1.7997456 4288085770
6.4300842 3.1693962 -1.7883751 4288085770
3.8343468 2.5027966 -1.8011196 4288085770
6.3321381 3.2182178 -1.7928646 4288085770
3.7353821 2.5326092 -1.7956315 4288085770
6.2091789 3.255991 -1.7915 4288085770
3.6504135 2.5654483 -1.7920651 4288085770
6.1302185 3.3078468 -1.7958837 4288085770
3.6194954 2.6133926 -1.8001906 4288085770
6.0502663 3.3586996 -1.7992734 4288085770
3.5395203 2.6472397 -1.7955958 4288085770
5.9723053 3.4095554 -1.8016526 4288085770
3.4705658 2.6821079 -1.7929401 4288085770
5.9123497 3.4644444 -1.8059299 4288085770
3.4316177 2.7280335 -1.7961115 4288085770
5.846386 3.5173216 -1.8082418 4288085770
3.377655 2.7679298 -1.7953699 4288085770
5.79142 3.5742188 -1.8114905 4288085770
3.332695 2.8098419 -1.7945775 4288085770
5.7384453 3.6301179 -1.8127291 4288085770
3.2957382 2.8547702 -1.7957388 4288085770
5.6994629 3.6910434 -1.8158871 4288085770
3.272789 2.9037247 -1.7998203 4288085770
5.6524887 3.7479534 -1.8170924 4288085770
3.2368164 2.9486523 -1.7979766 4288085770
5.6245079 3.8128986 -1.8201871 4288085770
3.2108536 2.9965997 -1.7990756 4288085770
5.5845146 3.8728194 -1.8193519 4288085770
3.2068977 3.0535889 -1.8040468 4288085770
5.5605316 3.9377708 -1.821425 4288085770
3.2019424 3.1085761 -1.8080251 4288085770
5.5555382 4.0117569 -1.8253866 4288085770
3.1919746 3.1635525 -1.8100309 4288085770
5.5415421 4.0807252 -1.8264018 4288085770
3.1830025 3.2175298 -1.8110322 4288085770
5.5545425 4.1607442 -1.8312601 4288085770
3.1790276 3.2735167 -1.8130045 4288085770
5.5945396 4.2518134 -1.8389615 4288085770
3.1760445 3.3305049 -1.8139707 4288085770
5.598526 4.3298144 -1.8408712 4288085770
3.1940727 3.3965333 -1.8188143 4288085770
5.6145096 4.4118366 -1.8427116 4288085770
3.2190971 3.4665747 -1.8246163 4288085770
5.6564827 4.5069065 -1.8473989 4288085770
3.2371101 3.5336013 -1.8274593 4288085770
5.7214622 4.6130204 -1.8559512 4288085770
3.2521133 3.6006212 -1.8283186 4288085770
5.7704277 4.7121019 -1.8595968 4288085770
3.2851295 3.6746759 -1.8330736 4288085770
5.8123817 4.8091698 -1.8612827 4288085770
3.3161354 3.7477255 -1.8358403 4288085770
5.8913307 4.9243073 -1.8677509 4288085770
3.375145 3.8348289 -1.844442 4288085770
5.9552727 5.0324144 -1.8703071 4288085770
3.4051399 3.9098854 -1.845214 4288085770
6.0172043 5.1405263 -1.8708761 4288085770
3.4601288 3.9969792 -1.8498384 4288085770
6.1221313 5.27071 -1.8771902 4288085770
3.5121155 4.0840669 -1.8534795 4288085770
6.1880417 5.3838172 -1.8747324 4288085770
3.5440788 4.1591139 -1.8502398 4288085770
6.3109398 5.526032 -1.8809382 4288085770
3.6000557 4.2482076 -1.8528571 4288085770
6.4718399 5.6873178 -1.8929195 4288085770
3.6700211 4.3443265 -1.8563918 4288085770
6.6197205 5.8455782 -1.8999748 4288085770
3.7549858 4.4494743 -1.8618369 4288085770
6.8235817 6.0349417 -1.9136976 4288085770
3.8409424 4.5566225 -1.8662747 4288085770
7.0834312 6.2564101 -1.9350867 4288085770
3.9528961 4.6788206 -1.8755575 4288085770
7.3092651 6.4628124 -1.9486744 4288085770
4.0548325 4.7949967 -1.8799002 4288085770
7.5940704 6.7053242 -1.968909 4288085770
4.1467628 4.9071536 -1.8813009 4288085770
7.8048592 6.9086928 -1.9735814 4288085770
4.2566795 5.0293422 -1.8835945 4288085770
8.0226288 7.1160722 -1.976212 4288085770
4.3835907 5.1625633 -1.8887858 4288085770
8.2283859 7.3204274 -1.9749107 4288085770
4.4934807 5.2877488 -1.8870771 4288085770
8.4441109 7.5317984 -1.9715488 4288085770
4.6173668 5.419961 -1.8872855 4288085770
8.7148056 7.7782712 -1.9728562 4288085770
4.7682457 5.5702238 -1.8913311 4288085770
9.0064888 8.0377798 -1.9750373 4288085770
4.9611092 5.7465653 -1.9011245 4288085770
5.164959 5.9299254 -1.9108517 4288085770
5.432785 6.156405 -1.9291924 4288085770
5.703598 6.38589 -1.946514 4288085770
6.0163803 6.6424508 -1.9665825 4288085770
6.3101387 6.8899722 -1.9797627 4288085770
6.568882 7.1154251 -1.9831526 4288085770
6.8286018 7.3408756 -1.982537 4288085770
7.1452904 7.605433 -1.9885763 4288085770
7.4619446 7.8709846 -1.9896142 4288085770
7.8045845 8.1535854 -1.9914953 4288085770
15.935623 -0.68358767 -1.7602125 4288085770
14.721767 -0.70971334 -1.7600552 4288085770
13.645908 -0.73259699 -1.7611196 4288085770
12.74509 -0.75417078 -1.7681985 4288085770
11.846207 -0.76874721 -1.7672623 4288085770
11.085369 -0.78307784 -1.7725495 4288085770
10.382511 -0.79430807 -1.7765086 4288085770
9.725647 -0.80245888 -1.7792072 4288085770
9.1077576 -0.80754459 -1.7786845 4288085770
15.318684 -1.3057443 -1.7590287 4288085770
8.5598984 -0.8135041 -1.7827685 4288085770
14.145752 -1.2787935 -1.7636089 4288085770
8.0009804 -0.81248891 -1.7789104 4288085770
13.115852 -1.2565912 -1.7703876 4288085770
7.5391197 -0.81529796 -1.7835087 4288085770
12.155914 -1.2302707 -1.7717702 4288085770
7.0742226 -0.8141166 -1.7821219 4288085770
11.345032 -1.2116855 -1.780319 4288085770
6.67836 -0.81581008 -1.7873483 4288085770
10.561104 -1.1880583 -1.7817131 4288085770
6.2854729 -0.81350148 -1.7885554 4288085770
9.8361778 -1.165327 -1.783776 4288085770
5.9336128 -0.8131181 -1.7935331 4288085770
9.1882515 -1.1434625 -1.7854061 4288085770
5.5957336 -0.81071198 -1.7964311 4288085770
8.6053467 -1.1234831 -1.7886717 4288085770
5.2948723 -0.80923927 -1.8021209 4288085770
8.0283966 -1.0994967 -1.7869012 4288085770
5.0009995 -0.80575573 -1.8057704 4288085770
7.5114632 -1.0774046 -1.7867943 4288085770
4.7031021 -0.79928124 -1.8064409 4288085770
7.0475464 -1.0572189 -1.7883903 4288085770
4.443222 -0.79473889 -1.8098985 4288085770
6.6136284 -1.0379807 -1.7898182 4288085770
4.174324 -0.7872144 -1.8094051 4288085770
6.2267418 -1.0216583 -1.7949833 4288085770
3.9454613 -0.78261578 -1.8156884 4288085770
5.8548317 -1.0033115 -1.7970628 4288085770
3.689537 -0.772071 -1.8121203 4288085770
5.5219421 -0.98689497 -1.8019239 4288085770
3.4496117 -0.76149857 -1.8084619 4288085770
5.2070465 -0.97144759 -1.8056846 4288085770
3.2347069 -0.75287974 -1.8086643 4288085770
4.9031487 -0.95398104 -1.8093818 4288085770
3.0107727 -0.74127972 -1.8039156 4288085770
4.615242 -0.93648779 -1.8119893 4288085770
2.8369102 -0.73558533 -1.8098887 4288085770
4.3433342 -0.91996682 -1.8135076 4288085770
2.6399879 -0.72393739 -1.8069881 4288085770
4.0734024 -0.9004451 -1.8120126 4288085770
2.4610786 -0.71425641 -1.8059872 4288085770
3.834507 -0.8848654 -1.8153456 4288085770
2.2851639 -0.70257032 -1.8049684 4288085770
3.5825615 -0.86430323 -1.8117449 4288085770
2.1322746 -0.69383013 -1.8078189 4288085770
3.3536263 -0.84570897 -1.8100232 4288085770
1.9833755 -0.68409526 -1.8086514 4288085770
3.1266937 -0.82711232 -1.8072902 4288085770
1.8234482 -0.67238224 -1.8055452 4288085770
2.9327812 -0.81045544 -1.8083721 4288085770
1.7005806 -0.66459787 -1.8112323 4288085770
2.7168236 -0.78984177 -1.8025758 4288085770
1.5767059 -0.65581644 -1.8159245 4288085770
2.5399132 -0.77415526 -1.8035624 4288085770
1.446804 -0.6450485 -1.8166493 4288085770
2.3599854 -0.75547612 -1.8015641 4288085770
2.2171135 -0.74272621 -1.8083607 4288085770
2.0321388 -0.72206128 -1.7993895 4288085770
1.8792191 -0.70533335 -1.7992402 4288085770
1.7583504 -0.69254529 -1.8059126 4288085770
1.6324577 -0.67776787 -1.809612 4288085770
1.502552 -0.66199934 -1.8103334 4288085770
1.3886604 -0.64820135 -1.8139658 4288085770
1.4285469 1.2810332 -1.7930318 4288085770
1.5546303 1.2982427 -1.792297 4288085770
1.6867104 1.3164625 -1.7915272 4288085770
1.8518372 1.3387457 -1.7995659 4288085770
1.9818993 1.3539584 -1.7938095 4288085770
2.1239738 1.3701935 -1.7909839 4288085770
2.2810478 1.3884553 -1.7890707 4288085770
2.4571457 1.4087526 -1.7910476 4288085770
1.4844589 1.2580799 -1.7937145 4288085770
2.6402359 1.4290621 -1.7929845 4288085770
1.6195564 1.2713063 -1.7949309 4288085770
2.8393402 1.4514003 -1.7968282 4288085770
1.7616577 1.2835438 -1.795108 4288085770
3.0204086 1.4677014 -1.7927792 4288085770
1.9017525 1.2947772 -1.7942973 4288085770
3.2425079 1.491079 -1.7964904 4288085770
2.0678635 1.3100588 -1.7983348 4288085770
3.4565926 1.5104394 -1.7962503 4288085770
2.2079391 1.319289 -1.7935253 4288085770
3.6876793 1.53183 -1.7969114 4288085770
2.3710403 1.3305624 -1.7935828 4288085770
3.9648018 1.5583053 -1.8053055 4288085770
2.5661697 1.3458952 -1.7994543 4288085770
4.1948662 1.5756892 -1.799975 4288085770
2.7422638 1.3561898 -1.7984381 4288085770
4.4669456 1.5971489 -1.7994014 4288085770
2.9263573 1.3664984 -1.7973759 4288085770
4.7540321 1.6186351 -1.7997416 4288085770
3.1424828 1.3808661 -1.8021278 4288085770
5.0380974 1.6381128 -1.7961005 4288085770
3.369606 1.3942525 -1.8068174 4288085770
5.3411713 1.6586238 -1.7933497 4288085770
3.5606766 1.400569 -1.8007178 4288085770
5.6842422 1.6812048 -1.7923687 4288085770
3.8007927 1.4119762 -1.8033342 4288085770
6.0493279 1.703824 -1.7922616 4288085770
4.0308914 1.4203624 -1.8010099 4288085770
6.4123955 1.7244368 -1.7881671 4288085770
4.2839928 1.4297899 -1.8015534 4288085770
6.812458 1.7471135 -1.7848594 4288085770
4.546093 1.4382316 -1.8000457 4288085770
7.274559 1.7739013 -1.7881938 4288085770
4.8191948 1.4456925 -1.7994758 4288085770
7.7566414 1.7997212 -1.7884145 4288085770
5.1102982 1.4531837 -1.7978027 4288085770
8.2757149 1.8266034 -1.7874223 4288085770
5.3933754 1.4566579 -1.7921784 4288085770
8.8097763 1.8505096 -1.7843463 4288085770
5.7475128 1.4662617 -1.7971431 4288085770
9.4248619 1.8795574 -1.784803 4288085770
6.0755997 1.4698136 -1.7922609 4288085770
10.031906 1.9015852 -1.7773104 4288085770
6.4367104 1.4734247 -1.7911896 4288085770
10.736977 1.9307857 -1.7762513 4288085770
6.8348312 1.4781005 -1.7919058 4288085770
11.518047 1.962117 -1.7757556 4288085770
7.2309227 1.4797691 -1.7876352 4288085770
12.455158 2.0027213 -1.7833601 4288085770
7.660038 1.4794956 -1.7851772 4288085770
13.558292 2.051615 -1.7970083 4288085770
8.1461563 1.4823215 -1.7853906 4288085770
14.866451 2.1118655 -1.8184745 4288085770
8.6732979 1.4832199 -1.7883705 4288085770
15.934456 2.1366773 -1.8043396 4288085770
9.1944008 1.4791017 -1.7833883 4288085770
9.7825279 1.4761019 -1.7830213 4288085770
10.372635 1.4671005 -1.7766472 4288085770
11.099792 1.4623408 -1.7794855 4288085770
11.852924 1.4526224 -1.7781785 4288085770
12.762115 1.446179 -1.7869756 4288085770
13.720295 1.4358158 -1.7914946 4288085770
14.619419 1.4093407 -1.7823629 4288085770
15.799618 1.3903571 -1.7866167 4288085770
7.0968475 -7.5296645 -1.5260819 4293729569
6.6845016 -7.2333627 -1.5352201 4293729569
6.3322487 -6.9779582 -1.547045 4293729569
5.9739456 -6.7145686 -1.5538982 4293729569
5.6647224 -6.4840932 -1.5634954 4293729569
5.3314133 -6.234664 -1.564216 4293729569
5.1013031 -6.0560513 -1.5783989 4293729569
4.8080292 -5.8315563 -1.5779089 4293729569
