# .PCD v0.7 - Point Cloud Data file format
VERSION 0.7
FIELDS x y z rgb
SIZE 4 4 4 4
TYPE F F F U
COUNT 1 1 1 1
WIDTH 1126
HEIGHT 1
VIEWPOINT 0 0 0 1 0 0 0
POINTS 1126
DATA ascii
2.2125797 0.34123135 -1.8100519 4288085770
3.4566507 0.35145998 -1.8129095 4288085770
2.3616934 0.35113668 -1.8128629 4288085770
3.6547804 0.36333084 -1.8129889 4288085770
2.4988327 0.35904312 -1.8106107 4288085770
3.8778887 0.37519264 -1.8172063 4288085770
2.6789179 0.36893702 -1.818593 4288085770
4.1110058 0.38704538 -1.8194792 4288085770
2.8340511 0.37783337 -1.8174391 4288085770
4.3551197 0.39889336 -1.8228133 4288085770
3.00418 0.38672113 -1.8173681 4288085770
4.6062536 0.40973091 -1.8221875 4288085770
3.1873026 0.39460325 -1.8183705 4288085770
4.8823709 0.42255688 -1.8246973 4288085770
3.3814163 0.40348005 -1.8204322 4288085770
5.164506 0.43337393 -1.8232431 4288085770
3.5725546 0.41135311 -1.8184792 4288085770
5.4716282 0.44517946 -1.824926 4288085770
3.8226261 0.42020702 -1.8288509 4288085770
5.8067522 0.45696831 -1.826764 4288085770
4.0227861 0.42706823 -1.8229493 4288085770
6.1618853 0.46774244 -1.8267142 4288085770
4.2609129 0.43391514 -1.8232579 4288085770
6.5320282 0.47950315 -1.8247459 4288085770
4.5050507 0.44075489 -1.8216 4288085770
6.9751339 0.49223042 -1.8301802 4288085770
4.7871599 0.44857883 -1.8251507 4288085770
7.3942871 0.50295877 -1.8264852 4288085770
5.0662909 0.45439959 -1.8246881 4288085770
7.8944063 0.51464605 -1.8292366 4288085770
5.373415 0.46020412 -1.8253802 4288085770
8.4465208 0.52630329 -1.833276 4288085770
5.7205238 0.46698761 -1.8292925 4288085770
9.0186672 0.53793859 -1.8314266 4288085770
6.0776472 0.47276211 -1.8302618 4288085770
9.6498117 0.54953861 -1.8299038 4288085770
6.4537754 0.47752237 -1.830338 4288085770
10.379929 0.56108522 -1.8339289 4288085770
6.846921 0.48126841 -1.8275099 4288085770
11.171062 0.5735898 -1.8352904 4288085770
7.2990294 0.48498678 -1.8310082 4288085770
12.030209 0.58404827 -1.8340317 4288085770
7.7651663 0.48768902 -1.829586 4288085770
12.922405 0.59347343 -1.8239578 4288085770
8.2982759 0.49135733 -1.833533 4288085770
14.08351 0.60675669 -1.8313667 4288085770
8.8833838 0.49299335 -1.8367711 4288085770
15.168749 0.61405039 -1.8133645 4288085770
9.4965191 0.49260521 -1.8361677 4288085770
10.245605 0.49414539 -1.8443139 4288085770
11.038708 0.4926548 -1.8497087 4288085770
11.783901 0.48616886 -1.8378458 4288085770
12.704049 0.48058605 -1.8349506 4288085770
13.745193 0.4719305 -1.8327298 4288085770
14.802394 0.45924854 -1.8196043 4288085770
16.177525 0.4463892 -1.8202397 4288085770
16.596073 -7.7883658 -1.5405066 4293729569
16.216303 -7.4891152 -1.552961 4293729569
15.889507 -7.2178979 -1.5667515 4293729569
15.577726 -6.9556956 -1.5766389 4293729569
15.211996 -6.6784682 -1.5792025 4293729569
14.926222 -6.435286 -1.5862621 4293729569
14.673443 -6.2081246 -1.5925293 4293729569
12.422052 -5.2919669 -1.420621 4293729569
12.575552 -5.2221751 -0.63637096 4293729569
12.459104 -5.1859622 -1.4446831 4293729569
12.563631 -5.0971446 -0.65713167 4293729569
14.099051 -5.6107554 -1.6124798 4293729569
13.936255 -5.4266524 -1.6173116 4293729569
13.82144 -5.2605767 -1.6234378 4293729569
13.727613 -5.1015143 -1.6306915 4293729569
13.688766 -4.9614825 -1.6402804 4293729569
13.617947 -4.8144355 -1.6456803 4293729569
13.569122 -4.6714025 -1.651209 4293729569
13.560274 -4.5423932 -1.6579813 4293729569
13.811258 -4.4835114 -1.6893101 4293729569
14.377037 -4.5037837 -1.7495161 4288085770
14.907856 -4.5060449 -1.8045009 4288085770
15.112908 -4.4211469 -1.8265361 4288085770
14.969212 -4.249083 -1.8124923 4288085770
14.898473 -4.0950561 -1.8038828 4288085770
14.949657 -3.9700913 -1.8059986 4288085770
15.033832 -3.8541455 -1.8093121 4288085770
15.128012 -3.7382064 -1.8116817 4288085770
15.181233 -3.6122499 -1.8078076 4288085770
15.306414 -3.5033307 -1.8093615 4288085770
15.438601 -3.3924193 -1.8099515 4288085770
15.595778 -3.2845216 -1.8116865 4288085770
15.766969 -3.1766334 -1.8115001 4288085770
16.015123 -3.0807862 -1.8167627 4288085770
16.484558 -2.8824358 -1.8153809 4288085770
16.789713 -2.7856007 -1.8190405 4288085770
17.067896 -2.682754 -1.8185432 4288085770
15.694055 0.72155142 -1.8204207 4288085770
14.593173 0.75913239 -1.8212124 4288085770
13.609289 0.79565001 -1.8226622 4288085770
12.703428 0.82812405 -1.8195533 4288085770
11.956526 0.86051846 -1.8243371 4288085770
11.229662 0.8898983 -1.8222358 4288085770
10.562807 0.91724491 -1.8184726 4288085770
9.9499502 0.94256306 -1.8150144 4288085770
16.866407 1.3998792 -1.8075752 4288085770
9.4340611 0.9698329 -1.8170997 4288085770
15.630544 1.4105268 -1.8016272 4288085770
8.9272032 0.99409509 -1.8142376 4288085770
14.656629 1.430042 -1.8071451 4288085770
8.5222883 1.023309 -1.8219453 4288085770
13.762732 1.4465129 -1.8091143 4288085770
8.0894337 1.0455313 -1.8185004 4288085770
12.926855 1.4619505 -1.8074102 4288085770
7.6865711 1.0677388 -1.816224 4288085770
12.224945 1.4813209 -1.8124564 4288085770
7.3526821 1.0929122 -1.8193334 4288085770
11.544079 1.4956758 -1.8096237 4288085770
7.0138197 1.1140857 -1.8174171 4288085770
10.911211 1.5100052 -1.8070606 4288085770
6.7279243 1.1392343 -1.8217962 4288085770
10.355331 1.5262949 -1.806929 4288085770
6.4300594 1.1603863 -1.8201104 4288085770
9.8534508 1.5435562 -1.8071001 4288085770
6.1601906 1.182524 -1.8195814 4288085770
9.3905697 1.560797 -1.8074903 4288085770
5.9113159 1.2046514 -1.8201704 4288085770
8.9676847 1.5800173 -1.8091041 4288085770
5.6764383 1.2267706 -1.8208382 4288085770
8.578805 1.5992186 -1.8099087 4288085770
5.4675531 1.2498775 -1.8236513 4288085770
8.2149286 1.6174066 -1.8098547 4288085770
5.2476931 1.2699878 -1.8214043 4288085770
7.8780479 1.6355805 -1.8109522 4288085770
5.07479 1.2950776 -1.8274188 4288085770
7.5621662 1.6557434 -1.8121667 4288085770
4.8669415 1.3141801 -1.8232403 4288085770
7.2792807 1.6768897 -1.8145657 4288085770
4.6830769 1.3352714 -1.8221952 4288085770
7.0024052 1.6970315 -1.8149993 4288085770
4.4992266 1.3543618 -1.8181516 4288085770
6.7335443 1.7141674 -1.8124795 4288085770
4.3493443 1.3774369 -1.8202964 4288085770
6.4926691 1.7342904 -1.8131154 4288085770
4.2064686 1.399508 -1.8214812 4288085770
6.2627974 1.7544065 -1.8128129 4288085770
4.0635967 1.4215779 -1.8216662 4288085770
6.0569153 1.7755115 -1.8146449 4288085770
3.9307194 1.443644 -1.8229072 4288085770
5.8540459 1.7966137 -1.8144935 4288085770
3.794858 1.4637096 -1.8211325 4288085770
5.6611729 1.8177109 -1.8143985 4288085770
3.6739874 1.4867685 -1.8214407 4288085770
5.4902983 1.8407962 -1.8154259 4288085770
3.5531263 1.5078263 -1.81975 4288085770
5.3204203 1.8628819 -1.8164595 4288085770
3.4362593 1.5288823 -1.8190817 4288085770
5.1505604 1.8829656 -1.8144944 4288085770
3.3174133 1.5479376 -1.8144035 4288085770
5.0066843 1.9070373 -1.815673 4288085770
3.2205372 1.5709844 -1.8158464 4288085770
4.8748026 1.9321027 -1.8179183 4288085770
3.1266642 1.5940287 -1.8163062 4288085770
4.7239475 1.9521759 -1.8150601 4288085770
3.0377941 1.6170709 -1.8167942 4288085770
4.6090612 1.9782333 -1.8184003 4288085770
2.9389429 1.6371157 -1.8132278 4288085770
4.4822016 2.0022941 -1.8166746 4288085770
2.8410978 1.6571598 -1.8086672 4288085770
4.3563461 2.0233538 -1.8139561 4288085770
2.778204 1.6851904 -1.8132981 4288085770
4.2514677 2.0494051 -1.8153529 4288085770
2.6943531 1.7062273 -1.8098155 4288085770
4.1545935 2.076452 -1.8167939 4288085770
2.6324711 1.7322562 -1.8124535 4288085770
4.0507336 2.1005008 -1.8151973 4288085770
2.5596104 1.7552884 -1.8110315 4288085770
3.9428835 2.1225505 -1.8115796 4288085770
2.5037298 1.7823145 -1.8137027 4288085770
3.8699999 2.1535854 -1.8151532 4288085770
2.43188 1.8053451 -1.8102864 4288085770
3.7601662 2.1736348 -1.8085256 4288085770
2.3720131 1.8293712 -1.8099369 4288085770
3.7102661 2.2096596 -1.8152252 4288085770
2.3021698 1.8514004 -1.8055327 4288085770
3.6024427 2.2277064 -1.8066101 4288085770
2.2582884 1.8804195 -1.8082702 4288085770
3.5265846 2.2547405 -1.8051695 4288085770
2.2104187 1.9074397 -1.8089863 4288085770
3.4547262 2.2827723 -1.8037505 4288085770
2.1705437 1.9374564 -1.8107458 4288085770
3.3878698 2.3118014 -1.8023591 4288085770
2.115694 1.9614782 -1.8074248 4288085770
3.3250122 2.3418288 -1.8009899 4288085770
3.2701492 2.3728526 -1.8006649 4288085770
3.2152929 2.4038751 -1.7993398 4288085770
3.169426 2.4368944 -1.8000642 4288085770
3.1275644 2.471911 -1.7998099 4288085770
3.0886965 2.5069265 -1.8005726 4288085770
3.041851 2.5379443 -1.7972928 4288085770
3.0189714 2.5789526 -1.8011419 4288085770
2.9881163 2.6159632 -1.7999482 4288085770
2.9682426 2.6569698 -1.8028142 4288085770
2.9373932 2.6939793 -1.8006209 4288085770
2.9125414 2.7329865 -1.7994602 4288085770
2.8886938 2.7709923 -1.7973056 4288085770
2.8738356 2.812995 -1.7971994 4288085770
2.8739595 2.8619912 -1.8011733 4288085770
2.8521233 2.900995 -1.7970295 4288085770
2.851265 2.9489908 -1.7979985 4288085770
2.8644009 3.0029731 -1.8020369 4288085770
2.8645468 3.0509672 -1.8020111 4288085770
2.8736887 3.1029577 -1.8030335 4288085770
2.8928232 3.160943 -1.8061088 4288085770
2.9179554 3.2209263 -1.8102164 4288085770
2.9390993 3.2789099 -1.811303 4288085770
2.9981937 3.3568792 -1.8235915 4288085770
3.0323315 3.4218569 -1.8267472 4288085770
3.0534935 3.4798393 -1.8248338 4288085770
3.098629 3.5508118 -1.8290477 4288085770
3.139781 3.6207848 -1.83024 4288085770
3.1839266 3.6907568 -1.832449 4288085770
3.2420712 3.769722 -1.8357317 4288085770
3.3012161 3.8486862 -1.83902 4288085770
3.3563776 3.9256516 -1.8392868 4288085770
3.4235306 4.0106115 -1.8416167 4288085770
3.4966803 4.0975685 -1.844979 4288085770
2.0844889 3.3893042 -1.818458 4288085770
3.577837 4.1905212 -1.8473831 4288085770
2.1655931 3.4742613 -1.8298663 4288085770
3.6619959 4.2844715 -1.8498034 4288085770
2.2257395 3.5452247 -1.8321646 4288085770
3.7621479 4.3884149 -1.8543079 4288085770
2.2858858 3.617188 -1.8334624 4288085770
3.8762865 4.5003524 -1.8608865 4288085770
2.3510399 3.6911483 -1.8347871 4288085770
3.960474 4.5953002 -1.8583063 4288085770
2.4401674 3.7800989 -1.8422382 4288085770
4.1076126 4.7282209 -1.8680584 4288085770
2.5053387 3.855058 -1.8405625 4288085770
4.2437639 4.8541465 -1.8747524 4288085770
2.5924807 3.942008 -1.8450034 4288085770
4.3809347 4.9810696 -1.8784521 4288085770
2.6806412 4.0299559 -1.8464493 4288085770
4.5380936 5.1209836 -1.8852564 4288085770
2.7698021 4.1179037 -1.8479011 4288085770
4.7042618 5.2658925 -1.8911083 4288085770
2.8779516 4.2178426 -1.8524525 4288085770
4.8734407 5.4137988 -1.8949757 4288085770
2.9791222 4.3127832 -1.8529677 4288085770
5.0566254 5.5696969 -1.898917 4288085770
3.1122627 4.4287109 -1.8606507 4288085770
5.2498083 5.7325907 -1.9039105 4288085770
3.233428 4.5356417 -1.8632712 4288085770
5.4799852 5.9194665 -1.9120983 4288085770
3.3496056 4.6375747 -1.8628665 4288085770
5.7091789 6.1043415 -1.9172815 4288085770
3.5227375 4.778482 -1.8747599 4288085770
5.9713612 6.3102007 -1.9266382 4288085770
3.6679087 4.8984003 -1.8775078 4288085770
6.2695436 6.5400419 -1.9381835 4288085770
3.8370781 5.0343075 -1.8823814 4288085770
6.5807362 6.7788754 -1.9487967 4288085770
4.0342207 5.1882019 -1.8934021 4288085770
6.894948 7.0187063 -1.9564261 4288085770
4.2293806 5.3390956 -1.9004132 4288085770
7.2251673 7.2675276 -1.9621404 4288085770
4.4185696 5.4849906 -1.9023933 4288085770
7.6323795 7.5673113 -1.9752582 4288085770
4.6367407 5.6488719 -1.9095263 4288085770
8.0546026 7.8760862 -1.987455 4288085770
4.8649321 5.8187466 -1.9137117 4288085770
5.1021261 5.9926167 -1.9179455 4288085770
5.390296 6.1994634 -1.9294467 4288085770
5.6914759 6.4133019 -1.940017 4288085770
6.017664 6.642128 -1.9507191 4288085770
6.3468742 6.8719497 -1.9574376 4288085770
6.7030859 7.1147575 -1.9652998 4288085770
7.0783033 7.3695555 -1.9732622 4288085770
7.4885254 7.6443357 -1.9824094 4288085770
7.9747343 7.9670782 -1.9989558 4288085770
16.632378 -1.0443745 -1.8198559 4288085770
15.66745 -1.0868597 -1.8215288 4288085770
14.702573 -1.1183496 -1.8151975 4288085770
13.930624 -1.1539364 -1.8219362 4288085770
13.21569 -1.1845551 -1.8269886 4288085770
12.528767 -1.2101893 -1.8301941 4288085770
11.916821 -1.2358627 -1.8378147 4288085770
11.303913 -1.2525377 -1.8394264 4288085770
10.733011 -1.2672358 -1.8402698 4288085770
10.171129 -1.2769394 -1.8381613 4288085770
16.567974 -1.9863949 -1.8268467 4288085770
9.6832123 -1.2876806 -1.8424627 4288085770
15.446107 -1.9537978 -1.824621 4288085770
9.1943321 -1.2934237 -1.8407568 4288085770
14.455221 -1.9262691 -1.8251224 4288085770
8.7694168 -1.3021984 -1.8454061 4288085770
13.70325 -1.915863 -1.8409532 4288085770
8.3615141 -1.3069835 -1.8471482 4288085770
12.865378 -1.8864183 -1.8393013 4288085770
7.9836044 -1.3117838 -1.8510563 4288085770
12.084515 -1.8570042 -1.8369648 4288085770
7.6207018 -1.3145928 -1.8540468 4288085770
11.370649 -1.8286262 -1.8349999 4288085770
7.2088642 -1.3063798 -1.8457619 4288085770
10.691796 -1.7982678 -1.831228 4288085770
6.8539915 -1.3031964 -1.8437946 4288085770
10.072941 -1.7689419 -1.8277886 4288085770
6.5011377 -1.295013 -1.8388363 4288085770
9.5170612 -1.7436471 -1.8286995 4288085770
6.1912594 -1.2908516 -1.8381177 4288085770
8.9951973 -1.7173724 -1.8267984 4288085770
5.9003763 -1.2867007 -1.8385042 4288085770
8.5532789 -1.7001367 -1.8343437 4288085770
5.6334801 -1.2825618 -1.8410237 4288085770
8.1363773 -1.6809158 -1.8390266 4288085770
5.3775845 -1.2774282 -1.8436035 4288085770
7.7344761 -1.6607032 -1.843792 4288085770
5.1147194 -1.2692933 -1.8411437 4288085770
7.3356028 -1.6364932 -1.8435729 4288085770
4.8798304 -1.2621713 -1.8428391 4288085770
6.9437551 -1.6092892 -1.8393914 4288085770
4.6619349 -1.2570586 -1.8456295 4288085770
6.6028652 -1.58811 -1.8424945 4288085770
4.4450455 -1.2489462 -1.8474243 4288085770
6.2759914 -1.5659389 -1.8426746 4288085770
4.2451572 -1.2408433 -1.849313 4288085770
5.9880848 -1.5487871 -1.8480726 4288085770
4.0422726 -1.2317395 -1.850185 4288085770
5.706192 -1.5286393 -1.8515029 4288085770
3.8414049 -1.2206368 -1.8480674 4288085770
5.4492903 -1.5105042 -1.8560721 4288085770
3.6415482 -1.2065368 -1.8449543 4288085770
5.1664333 -1.4853587 -1.853495 4288085770
3.4496946 -1.19344 -1.8408858 4288085770
4.9005766 -1.4622221 -1.8510128 4288085770
3.3137579 -1.1893682 -1.8511304 4288085770
4.6617022 -1.4400988 -1.8516804 4288085770
3.1019592 -1.1682649 -1.8379482 4288085770
4.4348307 -1.4189816 -1.8514149 4288085770
2.9450817 -1.1561861 -1.8380738 4288085770
4.2259493 -1.3988786 -1.8542472 4288085770
2.8031998 -1.1461191 -1.8402816 4288085770
4.0021019 -1.3747654 -1.8499984 4288085770
2.6453419 -1.1310406 -1.8374014 4288085770
3.8082256 -1.3546658 -1.8509167 4288085770
2.5174465 -1.1219759 -1.8406893 4288085770
3.616354 -1.3325682 -1.8508455 4288085770
2.3695927 -1.1059036 -1.8368639 4288085770
3.4195127 -1.3084698 -1.8457459 4288085770
2.2457104 -1.094842 -1.8381732 4288085770
3.2426472 -1.2873802 -1.8447582 4288085770
2.1218281 -1.0817804 -1.8394819 4288085770
3.0628052 -1.2632904 -1.8397528 4288085770
2.9228964 -1.2472186 -1.8459713 4288085770
2.7820063 -1.2301469 -1.8491842 4288085770
2.6161747 -1.2050657 -1.8422559 4288085770
2.4553385 -1.1799874 -1.8363552 4288085770
2.3324509 -1.1629252 -1.8386675 4288085770
2.1995907 -1.14186 -1.8369234 4288085770
2.0867701 0.81848574 -1.8113184 4288085770
2.1979237 0.83141804 -1.8069226 4288085770
2.3330402 0.8453393 -1.8076578 4288085770
2.4861441 0.86125231 -1.8124912 4288085770
2.6362591 0.87516546 -1.8153087 4288085770
2.7923803 0.89007568 -1.8171588 4288085770
2.9535046 0.90398216 -1.8180366 4288085770
3.120636 0.91888523 -1.8179469 4288085770
2.1526518 0.83240938 -1.8146669 4288085770
3.2957611 0.93278456 -1.8189013 4288085770
2.2827864 0.84133196 -1.8133765 4288085770
3.4808922 0.94667816 -1.8189107 4288085770
2.4248991 0.85125017 -1.8161515 4288085770
3.6680269 0.96057034 -1.8179308 4288085770
2.5690269 0.8601656 -1.8159378 4288085770
3.8921309 0.97644424 -1.8231533 4288085770
2.7371283 0.87107038 -1.8208548 4288085770
4.1142511 0.99231768 -1.8253645 4288085770
2.8892612 0.87898111 -1.8196853 4288085770
4.3563662 1.0081813 -1.8286854 4288085770
3.0693636 0.88987875 -1.824668 4288085770
4.5795155 1.0200527 -1.8249037 4288085770
3.2325077 0.89678288 -1.8215592 4288085770
4.8416367 1.0359044 -1.827334 4288085770
3.4375982 0.90766811 -1.8286788 4288085770
5.1227551 1.0517464 -1.8298686 4288085770
3.6087513 0.91356707 -1.8236141 4288085770
5.3799162 1.0635986 -1.824273 4288085770
3.805872 0.9204545 -1.8236912 4288085770
5.6830435 1.0774276 -1.8239287 4288085770
4.0369711 0.92932415 -1.8289541 4288085770
6.0141697 1.0932415 -1.8257371 4288085770
4.2830658 0.93918657 -1.8352988 4288085770
6.3553019 1.1070497 -1.8256011 4288085770
4.4872274 0.94206667 -1.8284156 4288085770
6.7194471 1.1208444 -1.8235909 4288085770
4.7213688 0.94693279 -1.825696 4288085770
7.1095905 1.134625 -1.8217232 4288085770
4.9804945 0.95178556 -1.8261137 4288085770
7.5157394 1.1483965 -1.818943 4288085770
5.2506285 0.95563173 -1.8245916 4288085770
7.9778719 1.1631386 -1.8194693 4288085770
5.5477486 0.96146441 -1.8262168 4288085770
8.4939938 1.179852 -1.8222909 4288085770
5.8678598 0.96528482 -1.8289686 4288085770
8.9941626 1.1915708 -1.8160263 4288085770
6.1889982 0.967103 -1.8267267 4288085770
9.5822983 1.2072439 -1.8162423 4288085770
6.5461197 0.96990252 -1.8276814 4288085770
10.239429 1.2238796 -1.8178362 4288085770
6.9012623 0.96970129 -1.8246262 4288085770
10.962559 1.2404797 -1.8197914 4288085770
7.2933922 0.96948147 -1.8237735 4288085770
11.779678 1.2590292 -1.824261 4288085770
7.7185221 0.96824312 -1.8231024 4288085770
12.60583 1.2725708 -1.8217812 4288085770
8.1826458 0.96598387 -1.8236444 4288085770
13.538995 1.2870541 -1.8178874 4288085770
8.671773 0.96271086 -1.8233241 4288085770
14.614143 1.3034606 -1.8177706 4288085770
9.1899118 0.9574213 -1.8211629 4288085770
15.742319 1.3158364 -1.8119452 4288085770
9.7830191 0.95209265 -1.8244127 4288085770
10.430132 0.9447341 -1.8269588 4288085770
11.097262 0.93336344 -1.8256155 4288085770
11.89136 0.922925 -1.8309675 4288085770
12.671509 0.90449142 -1.8262453 4288085770
13.580633 0.88598824 -1.8262296 4288085770
14.565765 0.861444 -1.8246317 4288085770
15.69888 0.83481836 -1.8258451 4288085770
17.043957 0.80508041 -1.8352203 4288085770
8.9552088 -7.8585162 -1.4962268 4293729569
8.5554514 -7.5372977 -1.5049473 4293729569
8.1976795 -7.2451015 -1.5139056 4293729569
7.8928757 -6.9879346 -1.5251639 4293729569
7.6200523 -6.7527852 -1.5376033 4293729569
7.3562412 -6.5246406 -1.547094 4293729569
7.1184254 -6.3135123 -1.555732 4293729569
6.8906088 -6.1093898 -1.5644268 4293729569
5.9796181 -5.4879155 -1.4622691 4293729569
5.8237638 -5.3348298 -1.4723719 4293729569
5.9955158 -5.3190598 -0.98229855 4293729569
5.8377151 -5.2828345 -1.5084318 4293729569
5.9834986 -5.2510505 -1.014212 4293729569
5.8536654 -5.2308402 -1.5445027 4293729569
5.9904699 -5.191052 -1.0472314 4293729569
5.8296862 -5.1548257 -1.5703483 4293729569
6.0374117 -5.1540742 -1.0834761 4293729569
5.7917261 -5.0708041 -1.5931156 4293729569
6.1393147 -5.1461263 -1.1240292 4293729569
5.7447882 -4.9787793 -1.6128316 4293729569
9.3462715 -6.868814 -1.5360392 4293729569
5.6469269 -4.8587279 -1.6212614 4293729569
9.1244593 -6.6556935 -1.5447654 4293729569
5.4991293 -4.7126517 -1.620411 4293729569
8.8976564 -6.4415708 -1.5514635 4293729569
5.4112749 -4.5996079 -1.6268976 4293729569
8.7298193 -6.2614818 -1.5614939 4293729569
5.3264198 -4.488564 -1.6334013 4293729569
8.5569992 -6.0803895 -1.5684969 4293729569
5.2305927 -4.3725171 -1.6348437 4293729569
8.406168 -5.914309 -1.5756242 4293729569
5.215661 -4.3005099 -1.6517407 4293729569
8.2683334 -5.7562356 -1.5828251 4293729569
5.1428213 -4.1984744 -1.6543127 4293729569
8.1464939 -5.606173 -1.5901158 4293729569
5.0949478 -4.1094518 -1.6620251 4293729569
8.0116796 -5.4531035 -1.5933347 4293729569
5.0930271 -4.0434527 -1.6759951 4293729569
7.8828726 -5.3040366 -1.5945876 4293729569
5.2149439 -4.0395179 -1.7136593 4293729569
7.773056 -5.163981 -1.5969471 4293729569
5.3718157 -4.0485997 -1.7585181 4288085770
7.6972055 -5.0419431 -1.6034971 4293729569
5.540679 -4.0606875 -1.8044436 4288085770
7.6273642 -4.9239078 -1.6080815 4293729569
5.6206732 -4.0287318 -1.830871 4288085770
7.5655203 -4.8108783 -1.6127108 4293729569
5.5668516 -3.9347091 -1.8295496 4288085770
7.5166731 -4.7048573 -1.6174132 4293729569
5.4750834 -3.8226657 -1.8200159 4288085770
7.4788208 -4.6038413 -1.6221771 4293729569
5.4302654 -3.731647 -1.8177447 4288085770
7.4439754 -4.5038266 -1.6259581 4293729569
5.397438 -3.647635 -1.8165412 4288085770
7.4331121 -4.414824 -1.6318731 4293729569
5.3756018 -3.5686297 -1.8163992 4288085770
7.4382381 -4.3328319 -1.6388775 4293729569
5.3617573 -3.4936261 -1.8173019 4288085770
7.4473648 -4.2518411 -1.6459039 4293729569
5.3629007 -3.4236331 -1.8202882 4288085770
7.4874668 -4.183867 -1.6561035 4293729569
5.3610544 -3.3536382 -1.8212579 4288085770
7.6474533 -4.1639552 -1.6829716 4293729569
5.3432322 -3.2776351 -1.818139 4288085770
7.8913651 -4.174089 -1.7203068 4293729569
5.3583746 -3.2156491 -1.820204 4288085770
8.1552591 -4.1882329 -1.7607523 4288085770
5.3625345 -3.1486583 -1.8192078 4288085770
8.4311514 -4.2033849 -1.8012635 4288085770
5.3936615 -3.0926805 -1.8233619 4288085770
8.5761862 -4.1654668 -1.8210452 4288085770
5.4238043 -3.0337024 -1.8255099 4288085770
8.5833712 -4.0754781 -1.8180591 4288085770
5.4279814 -2.9677114 -1.8215141 4288085770
8.5665884 -3.978477 -1.8099402 4288085770
5.4591293 -2.9097357 -1.822668 4288085770
8.5777836 -3.8914914 -1.8049768 4288085770
5.4892845 -2.8507586 -1.8218163 4288085770
8.6219568 -3.8155227 -1.8031969 4288085770
5.5593948 -2.8068027 -1.8281871 4288085770
8.6961069 -3.748569 -1.8045834 4288085770
5.6085386 -2.7538352 -1.829441 4288085770
8.7692614 -3.6826167 -1.8049647 4288085770
5.6407118 -2.6948609 -1.8256003 4288085770
8.8743963 -3.6236806 -1.8085229 4288085770
5.7088404 -2.6479049 -1.8289596 4288085770
8.9795418 -3.5647464 -1.8100811 4288085770
5.7679882 -2.5969443 -1.8292687 4288085770
9.0886869 -3.5058131 -1.8116614 4288085770
5.8251467 -2.543982 -1.8275665 4288085770
9.198844 -3.4448819 -1.8112465 4288085770
5.922266 -2.5030417 -1.8320861 4288085770
9.3150005 -3.3859525 -1.8108652 4288085770
5.9874229 -2.4530849 -1.8304284 4288085770
9.4331665 -3.3270268 -1.8084948 4288085770
6.0595808 -2.403132 -1.8288093 4288085770
9.5783215 -3.2731137 -1.8082734 4288085770
6.1587124 -2.3601928 -1.8313394 4288085770
9.7264805 -3.2172046 -1.8070681 4288085770
6.2298832 -2.3082404 -1.8267143 4288085770
9.9136076 -3.1703143 -1.8100783 4288085770
6.3490114 -2.2673125 -1.8293545 4288085770
10.10875 -3.1234298 -1.8111321 4288085770
6.4661484 -2.2253842 -1.8309834 4288085770
10.301907 -3.073545 -1.8101745 4288085770
6.5862837 -2.1834574 -1.8326288 4288085770
10.513055 -3.0256705 -1.8103157 4288085770
6.7194185 -2.1425371 -1.8343457 4288085770
10.744202 -2.9808068 -1.8105673 4288085770
6.8525667 -2.1006188 -1.8340625 4288085770
11.006342 -2.9389606 -1.8119892 4288085770
6.9787235 -2.0556965 -1.8317401 4288085770
11.260498 -2.8931103 -1.8103665 4288085770
7.1268702 -2.0137863 -1.8315389 4288085770
11.532657 -2.8482704 -1.8088423 4288085770
7.3409548 -1.9839106 -1.8417015 4288085770
11.860786 -2.8104601 -1.8116262 4288085770
7.4301872 -1.9269705 -1.8271743 4288085770
12.18994 -2.7696519 -1.8104151 4288085770
7.6343088 -1.89009 -1.8312807 4288085770
12.602048 -2.7398882 -1.8166603 4288085770
7.8514233 -1.8552175 -1.8364587 4288085770
12.981207 -2.700109 -1.814723 4288085770
8.064559 -1.8173428 -1.8376141 4288085770
13.421333 -2.6683621 -1.8181211 4288085770
8.266717 -1.7744632 -1.8357084 4288085770
13.902469 -2.6346388 -1.8197432 4288085770
8.5128479 -1.7366076 -1.8380444 4288085770
14.353638 -2.5939002 -1.8161994 4288085770
8.7569914 -1.6967516 -1.838369 4288085770
14.901779 -2.5612149 -1.8171883 4288085770
9.0061464 -1.6548977 -1.8367207 4288085770
15.451948 -2.522532 -1.8131865 4288085770
9.3032837 -1.6150713 -1.8383354 4288085770
16.063114 -2.4848833 -1.810519 4288085770
9.6274147 -1.5772595 -1.8410983 4288085770
16.838215 -2.4643245 -1.8177522 4288085770
9.9615507 -1.5374532 -1.8429154 4288085770
10.348663 -1.5006757 -1.8490231 4288085770
10.747795 -1.4599066 -1.8521956 4288085770
11.133963 -1.4141312 -1.8492959 4288085770
11.546125 -1.3683658 -1.8475299 4288085770
12.003292 -1.32163 -1.8450202 4288085770
12.441483 -1.2698841 -1.8384055 4288085770
12.999643 -1.2212052 -1.837448 4288085770
13.552826 -1.1685233 -1.8334622 4288085770
14.155021 -1.1128697 -1.8267441 4288085770
14.879182 -1.0592842 -1.8266939 4288085770
15.706326 -1.0057559 -1.8302073 4288085770
16.568504 -0.9442482 -1.8279105 4288085770
16.418022 1.2742679 -1.8149314 4288085770
15.566167 1.3347538 -1.8142499 4288085770
14.79931 1.3931911 -1.8140349 4288085770
14.128432 1.449573 -1.817347 4288085770
13.488571 1.5019369 -1.8168297 4288085770
12.906707 1.5552676 -1.8176303 4288085770
12.338865 1.600589 -1.8135091 4288085770
11.889988 1.6508434 -1.8170398 4288085770
11.410145 1.6941144 -1.8134016 4288085770
10.99228 1.7393501 -1.8141034 4288085770
10.586435 1.7805786 -1.8108714 4288085770
10.252554 1.8287668 -1.8150332 4288085770
9.8967085 1.8689661 -1.8120759 4288085770
9.601841 1.9131312 -1.8134525 4288085770
16.485565 2.8941531 -1.8150578 4288085770
9.2819986 1.9513099 -1.8096927 4288085770
15.875684 2.9325006 -1.8177075 4288085770
9.0121346 1.9924603 -1.810207 4288085770
15.358788 2.9777939 -1.8238666 4288085770
8.7722673 2.0365937 -1.8118851 4288085770
14.769944 3.0081277 -1.8186332 4288085770
8.5294132 2.0777283 -1.8105475 4288085770
14.342049 3.0563707 -1.8252798 4288085770
8.3015556 2.1188545 -1.8102921 4288085770
13.870186 3.0936375 -1.8246871 4288085770
8.1016855 2.1629648 -1.8121898 4288085770
13.475313 3.1368601 -1.8265157 4288085770
7.8908319 2.2020812 -1.8100281 4288085770
13.098442 3.1800728 -1.827443 4288085770
7.7179613 2.2451758 -1.8120739 4288085770
12.75257 3.2252674 -1.8295401 4288085770
7.5421085 2.287272 -1.8111039 4288085770
12.413714 3.2684574 -1.8286761 4288085770
7.3812504 2.3303595 -1.8112158 4288085770
12.135834 3.319613 -1.8331453 4288085770
7.224391 2.3724446 -1.8113499 4288085770
11.846978 3.3647742 -1.8325552 4288085770
7.0945225 2.4185147 -1.8136314 4288085770
11.624103 3.4218984 -1.8373253 4288085770
6.967659 2.4635828 -1.8149296 4288085770
11.367247 3.4680414 -1.8369106 4288085770
6.8338099 2.5066543 -1.8131897 4288085770
11.156384 3.5221577 -1.8387471 4288085770
6.7169533 2.5517168 -1.8135428 4288085770
10.957521 3.5772674 -1.8406492 4288085770
6.6011047 2.595778 -1.8119017 4288085770
10.761669 3.6313753 -1.8405681 4288085770
6.5052423 2.6438282 -1.8133695 4288085770
10.605805 3.6924601 -1.8437053 4288085770
6.4063854 2.6908801 -1.8138211 4288085770
10.45294 3.7535436 -1.846859 4288085770
6.3235235 2.7399225 -1.8153604 4288085770
10.315082 3.816618 -1.8490947 4288085770
6.2356777 2.7879677 -1.8138722 4288085770
10.166237 3.8746984 -1.848271 4288085770
6.171814 2.8409998 -1.816515 4288085770
10.033395 3.9367695 -1.8475344 4288085770
6.1189432 2.8970253 -1.8202177 4288085770
9.9765129 4.0187984 -1.8562117 4288085770
6.053093 2.9490581 -1.8198498 4288085770
9.8556738 4.0808625 -1.8545411 4288085770
6.0152197 3.0090752 -1.8246343 4288085770
9.7748222 4.1549044 -1.8570882 4288085770
5.960371 3.0621014 -1.8243265 4288085770
9.6689959 4.2179594 -1.8534997 4288085770
5.9215126 3.1201191 -1.8261061 4288085770
9.6191416 4.2999835 -1.8572156 4288085770
5.8916521 3.1811314 -1.8289344 4288085770
9.5513048 4.3750167 -1.8568341 4288085770
5.8627968 3.2421427 -1.8307683 4288085770
9.5524387 4.473012 -1.8648274 4288085770
5.8569307 3.3121412 -1.8357271 4288085770
9.5525761 4.5710073 -1.8718154 4288085770
5.8170938 3.3681588 -1.8335013 4288085770
9.5217409 4.65802 -1.8726354 4288085770
5.8272238 3.4441483 -1.8395472 4288085770
9.5129042 4.7530198 -1.8745744 4288085770
5.7983904 3.5041595 -1.8373815 4288085770
9.5180607 4.8530116 -1.87859 4288085770
5.8035355 3.5781512 -1.8404002 4288085770
9.5482216 4.9629893 -1.8827412 4288085770
5.7956944 3.6471505 -1.8403484 4288085770
9.5883732 5.0779619 -1.8889467 4288085770
5.8148384 3.7261348 -1.8444433 4288085770
9.6115503 5.1889429 -1.8900594 4288085770
5.8339872 3.806119 -1.8475381 4288085770
9.6847115 5.3178954 -1.8964441 4288085770
5.8481445 3.8841052 -1.848606 4288085770
9.7428856 5.4418569 -1.8997473 4288085770
5.881299 3.9710813 -1.8517766 4288085770
9.7950764 5.5648217 -1.9000177 4288085770
5.9044628 4.0530624 -1.8518931 4288085770
9.9172306 5.7187471 -1.9096676 4288085770
5.9606037 4.1510253 -1.8581886 4288085770
10.025407 5.86868 -1.9152417 4288085770
6.0207596 4.2509856 -1.8625058 4288085770
10.1236 6.0156174 -1.9177614 4288085770
6.0599308 4.341958 -1.8627092 4288085770
10.287775 6.1935186 -1.9266387 4288085770
6.113102 4.4409218 -1.8639884 4288085770
10.449964 6.3734202 -1.9335052 4288085770
6.1992531 4.5558677 -1.8704462 4288085770
10.639154 6.5673065 -1.9415178 4288085770
6.2894125 4.672811 -1.8759259 4288085770
10.875333 6.7871656 -1.9547848 4288085770
6.3825779 4.7927518 -1.8804216 4288085770
11.065549 6.987051 -1.9588022 4288085770
6.4857464 4.9186873 -1.8849716 4288085770
11.283768 7.2039199 -1.9639713 4288085770
6.6198969 5.0616059 -1.8946891 4288085770
11.535993 7.4387693 -1.9703243 4288085770
6.7410727 5.1995306 -1.8993362 4288085770
11.871199 7.720572 -1.9851264 4288085770
6.8452721 5.3294649 -1.8988914 4288085770
12.183441 7.9943862 -1.9928035 4288085770
6.986455 5.4803786 -1.9036467 4288085770
7.149641 5.64428 -1.9095209 4288085770
7.3108311 5.8091817 -1.9143842 4288085770
7.503026 5.9920659 -1.9204152 4288085770
7.7212162 6.1919351 -1.9295865 4288085770
7.9863939 6.4187784 -1.9440122 4288085770
8.2235994 6.6326365 -1.9512862 4288085770
8.4838171 6.8634815 -1.9586843 4288085770
8.7710361 7.1103106 -1.9672284 4288085770
9.0662775 7.3651352 -1.9728156 4288085770
9.4265022 7.6619234 -1.9857538 4288085770
9.8117437 7.9766965 -1.9978269 4288085770
16.820412 -0.4913187 -1.8278298 4288085770
15.471553 -0.51653719 -1.8174641 4288085770
14.359642 -0.54189348 -1.8173923 4288085770
13.406713 -0.5643425 -1.8211887 4288085770
12.486824 -0.57981157 -1.8181653 4288085770
11.724897 -0.59537172 -1.8230042 4288085770
11.005987 -0.60795784 -1.8250782 4288085770
10.29112 -0.6145463 -1.8201741 4288085770
16.940035 -0.99943495 -1.8244696 4288085770
9.6522408 -0.6201787 -1.8176849 4288085770
15.540178 -0.97762299 -1.8188251 4288085770
9.1013422 -0.62586308 -1.8186761 4288085770
14.378285 -0.96095037 -1.8194802 4288085770
8.5674572 -0.62955618 -1.8177603 4288085770
13.383374 -0.94737482 -1.8240471 4288085770
8.1285267 -0.63530588 -1.8253628 4288085770
12.468471 -0.93184566 -1.8270506 4288085770
7.679636 -0.63604879 -1.825911 4288085770
11.642573 -0.91636848 -1.8295404 4288085770
7.2687387 -0.63681459 -1.8276666 4288085770
10.871699 -0.89892435 -1.8283303 4288085770
6.8908358 -0.63659906 -1.8306025 4288085770
10.165831 -0.88151741 -1.8254755 4288085770
6.5289431 -0.63539314 -1.8316257 4288085770
9.5209637 -0.86414623 -1.8229533 4288085770
6.1840658 -0.63219738 -1.8307416 4288085770
8.9560795 -0.84982204 -1.8238682 4288085770
5.8751688 -0.63002205 -1.8330543 4288085770
8.446187 -0.83552933 -1.8260833 4288085770
5.5752783 -0.62685299 -1.8344159 4288085770
8.0002642 -0.82427406 -1.8336475 4288085770
5.2674236 -0.61967897 -1.8297341 4288085770
7.5343962 -0.80800772 -1.832103 4288085770
5.0175171 -0.61653805 -1.8343687 4288085770
7.1275082 -0.79377556 -1.8338804 4288085770
4.7596388 -0.61039257 -1.8339599 4288085770
6.7376328 -0.77855301 -1.8337507 4288085770
4.5257435 -0.60526133 -1.8366821 4288085770
6.3717508 -0.76434469 -1.8347521 4288085770
4.2778883 -0.59712315 -1.8323278 4288085770
6.0338726 -0.74915266 -1.8349065 4288085770
4.0530214 -0.58899784 -1.8300993 4288085770
5.7189894 -0.73497438 -1.8361864 4288085770
3.8331604 -0.58087444 -1.826898 4288085770
5.4171171 -0.71980333 -1.8355373 4288085770
3.6312885 -0.57276154 -1.8257949 4288085770
5.1392326 -0.70564699 -1.8370192 4288085770
3.4454088 -0.56465912 -1.8257791 4288085770
4.8753529 -0.69149828 -1.8375776 4288085770
3.2605438 -0.55555677 -1.823769 4288085770
4.6214857 -0.67635489 -1.8361906 4288085770
3.1016483 -0.54846907 -1.8269006 4288085770
4.3746233 -0.66121674 -1.8338418 4288085770
2.9427614 -0.54038143 -1.8280324 4288085770
4.1487522 -0.64709044 -1.8326079 4288085770
2.7649231 -0.5282836 -1.8210608 4288085770
3.9119129 -0.62895775 -1.8263139 4288085770
2.6360111 -0.52221346 -1.827356 4288085770
3.7140379 -0.61584806 -1.8262329 4288085770
2.4861507 -0.51113176 -1.8245369 4288085770
3.5201702 -0.60073996 -1.8251735 4288085770
2.3682442 -0.50406742 -1.8298924 4288085770
3.3383017 -0.58663893 -1.8241796 4288085770
2.2273884 -0.49299145 -1.8261226 4288085770
3.1544437 -0.57053709 -1.8211751 4288085770
2.1055031 -0.48392534 -1.8274564 4288085770
2.9865751 -0.55644464 -1.8202579 4288085770
2.82971 -0.54235888 -1.8184006 4288085770
2.702795 -0.53128958 -1.8257068 4288085770
2.5539379 -0.51620817 -1.8228934 4288085770
2.4090786 -0.50112915 -1.8201017 4288085770
2.2812033 -0.48706007 -1.8204029 4288085770
2.1613216 -0.47399569 -1.8217475 4288085770
2.1262884 1.4533005 -1.8152165 4288085770
2.2394285 1.470228 -1.8138226 4288085770
2.3695612 1.4911444 -1.81452 4288085770
2.4957018 1.5100632 -1.8131956 4288085770
2.6228476 1.5279815 -1.8108764 4288085770
2.7569923 1.5458958 -1.8085951 4288085770
2.9121141 1.5667975 -1.811426 4288085770
3.0682449 1.5876982 -1.8122624 4288085770
2.155179 1.4072375 -1.8133488 4288085770
3.2353716 1.6095927 -1.8141576 4288085770
2.2892847 1.423152 -1.8170673 4288085770
3.4035015 1.6304874 -1.8140582 4288085770
2.4064322 1.4340763 -1.8136939 4288085770
3.580637 1.6513755 -1.8140068 4288085770
2.5405579 1.4469905 -1.8144118 4288085770
3.788743 1.6772456 -1.8201218 4288085770
2.6746893 1.4589045 -1.8141294 4288085770
4.0078459 1.704109 -1.8272957 4288085770
2.8168201 1.4708142 -1.8138899 4288085770
4.1880112 1.7199957 -1.8212596 4288085770
2.9709425 1.4847164 -1.8157147 4288085770
4.4181213 1.7458525 -1.8264918 4288085770
3.1320686 1.4976141 -1.8165768 4288085770
4.6342735 1.7657175 -1.8236487 4288085770
3.2981901 1.5095091 -1.8184656 4288085770
4.861413 1.7855763 -1.8228643 4288085770
3.4643202 1.521404 -1.8183541 4288085770
5.1145449 1.8094192 -1.8242192 4288085770
3.6464405 1.5342894 -1.8203285 4288085770
5.3816757 1.8322539 -1.8256489 4288085770
3.8565359 1.550158 -1.8274527 4288085770
5.6428261 1.8520918 -1.8230462 4288085770
4.0536499 1.5620344 -1.8305069 4288085770
5.9209709 1.87292 -1.8215342 4288085770
4.2208138 1.5659287 -1.8233998 4288085770
6.2191181 1.895736 -1.8201293 4288085770
4.4399338 1.5777919 -1.8255714 4288085770
6.5482483 1.9195337 -1.8218904 4288085770
4.6480665 1.5856616 -1.8246839 4288085770
6.8773994 1.9403312 -1.8196508 4288085770
4.876195 1.5945194 -1.8249034 4288085770
7.2385397 1.9641097 -1.8195827 4288085770
5.1133175 1.6033723 -1.8251708 4288085770
7.6086826 1.9848831 -1.8175625 4288085770
5.3644381 1.6112161 -1.8265129 4288085770
8.0038366 2.0066411 -1.8146756 4288085770
5.6195707 1.6170578 -1.825876 4288085770
8.4459791 2.0313709 -1.8150403 4288085770
5.891696 1.6228893 -1.8263299 4288085770
8.8921328 2.0530987 -1.8124257 4288085770
6.1538467 1.6247265 -1.8217298 4288085770
9.3842764 2.0777986 -1.8120571 4288085770
6.4699631 1.6315312 -1.8244188 4288085770
9.9074306 2.1014802 -1.8098541 4288085770
6.788085 1.6353354 -1.8251181 4288085770
10.502562 2.1301186 -1.8130364 4288085770
7.1032248 1.6361411 -1.8228005 4288085770
11.104719 2.1527529 -1.8102552 4288085770
7.4343672 1.6349375 -1.8195683 4288085770
11.815844 2.1853218 -1.8150575 4288085770
7.8104839 1.6357062 -1.8215767 4288085770
12.510006 2.2079008 -1.8117673 4288085770
8.1986094 1.6344683 -1.821649 4288085770
13.325147 2.2384074 -1.8141247 4288085770
8.5907488 1.6302276 -1.8187419 4288085770
14.149312 2.2619085 -1.8105289 4288085770
9.0208759 1.624964 -1.8180376 4288085770
15.072469 2.2883506 -1.8094621 4288085770
9.4600115 1.6166956 -1.8153809 4288085770
16.10763 2.3157256 -1.8079937 4288085770
9.9491367 1.6073968 -1.8149912 4288085770
10.462261 1.5970838 -1.8147292 4288085770
11.023378 1.5847423 -1.8147235 4288085770
11.651473 1.5743599 -1.8200755 4288085770
12.30958 1.5569596 -1.8225867 4288085770
12.982704 1.5345507 -1.8211771 4288085770
13.712828 1.5081074 -1.8200712 4288085770
14.473956 1.4756458 -1.81713 4288085770
15.313076 1.4401369 -1.8156043 4288085770
16.248177 1.4025707 -1.817591 4288085770
6.1212578 -5.0478187 -0.26928335 4293729569
6.0661573 -5.0797944 -0.30698022 4293729569
6.020051 -5.1147752 -0.34572434 4293729569
6.0129251 -5.1707807 -0.38567236 4293729569
6.0727539 -5.2648273 -0.42997015 4293729569
8.6294832 -7.6935792 -1.4980119 4293729569
8.1267366 -7.399281 -1.5053805 4293729569
7.6839571 -7.1410184 -1.5150622 4293729569
7.2951527 -6.9117894 -1.526026 4293729569
6.9313354 -6.6955762 -1.538121 4293729569
6.5755453 -6.4793677 -1.545259 4293729569
6.208787 -6.252151 -1.5473415 4293729569
5.9159632 -6.0699801 -1.5568087 4293729569
5.6521187 -5.9058261 -1.5684273 4293729569
5.4162531 -5.7576919 -1.5821921 4293729569
8.4955883 -7.7975535 -1.4931438 4293729569
5.1754141 -5.6025519 -1.5919319 4293729569
8.0168552 -7.4772696 -1.5006479 4293729569
4.9505682 -5.4544225 -1.6017559 4293729569
7.5900974 -7.1890178 -1.509423 4293729569
4.719759 -5.3002896 -1.6055495 4293729569
7.2193089 -6.9357991 -1.5204892 4293729569
4.5149193 -5.1611714 -1.6134784 4293729569
6.8755159 -6.6985984 -1.5306963 4293729569
4.3420467 -5.0430722 -1.6255738 4293729569
6.549715 -6.470408 -1.540998 4293729569
4.1572161 -4.9129682 -1.630608 4293729569
6.2279415 -6.2432179 -1.5463214 4293729569
3.9664021 -4.7768579 -1.6336118 4293729569
5.9671116 -6.0550675 -1.5579612 4293729569
3.8015652 -4.6577659 -1.6387507 4293729569
5.726285 -5.8779283 -1.5677056 4293729569
3.6457262 -4.5426755 -1.6439368 4293729569
5.5064392 -5.7148013 -1.5795591 4293729569
3.4809179 -4.4195838 -1.6440772 4293729569
5.2966003 -5.5556808 -1.5894651 4293729569
3.3630381 -4.327518 -1.6544607 4293729569
5.0927677 -5.3985648 -1.5984031 4293729569
3.2331963 -4.2254453 -1.658783 4293729569
4.908926 -5.2544599 -1.6074451 4293729569
3.1113472 -4.1273789 -1.664147 4293729569
4.7191124 -5.1053519 -1.6114568 4293729569
2.9925079 -4.030313 -1.6675271 4293729569
4.5552683 -4.9722581 -1.6196033 4293729569
2.9146032 -3.9602733 -1.6801192 4293729569
4.4064255 -4.8481746 -1.6268277 4293729569
2.8906145 -3.9252677 -1.7049898 4293729569
4.2595854 -4.7250924 -1.6330631 4293729569
2.9344988 -3.9343057 -1.7492112 4288085770
4.129735 -4.6110206 -1.6403868 4293729569
2.95543 -3.9253297 -1.7863142 4288085770
3.973937 -4.4799314 -1.639577 4293729569
2.9793625 -3.9173551 -1.8234332 4288085770
3.859086 -4.3748698 -1.645979 4293729569
2.85958 -3.8122869 -1.8168105 4288085770
3.7402534 -4.2668023 -1.6493608 4293729569
2.7587643 -3.7192311 -1.8152862 4288085770
3.6334105 -4.1657443 -1.653805 4293729569
2.6330156 -3.609158 -1.8026335 4288085770
3.5385628 -4.0716939 -1.6583115 4293729569
2.544199 -3.5241113 -1.8001716 4288085770
3.4576998 -3.9866509 -1.6648903 4293729569
2.4673691 -3.4450717 -1.799772 4288085770
3.4616995 -3.9536643 -1.6919073 4293729569
2.4085121 -3.3770413 -1.8034654 4288085770
3.5156231 -3.9497066 -1.7301821 4293729569
2.340683 -3.3030057 -1.8021128 4288085770
3.5984993 -3.96277 -1.7756062 4288085770
2.2818422 -3.2339759 -1.8028067 4288085770
3.6624165 -3.9608197 -1.8149326 4288085770
2.2240057 -3.1659474 -1.8025061 4288085770
3.6065464 -3.8857942 -1.8216417 4288085770
2.193121 -3.1129355 -1.8093448 4288085770
3.5017691 -3.781734 -1.8140986 4288085770
2.1502695 -3.0529151 -1.8111218 4288085770
3.4029894 -3.6806798 -1.8065869 4288085770
2.0974417 -2.9868889 -1.8088475 4288085770
3.3261795 -3.5936379 -1.8031886 4288085770
3.2593613 -3.5126033 -1.800842 4288085770
3.2075272 -3.4395776 -1.8005729 4288085770
3.1566858 -3.3665519 -1.8003097 4288085770
3.1128426 -3.298533 -1.801082 4288085770
3.0650187 -3.2265086 -1.7988343 4288085770
3.0351667 -3.1654963 -1.8006792 4288085770
3.0043201 -3.1034837 -1.8015192 4288085770
2.9724846 -3.041471 -1.8003541 4288085770
2.9436474 -2.9804583 -1.7992048 4288085770
2.9208088 -2.9224505 -1.7980863 4288085770
2.9269199 -2.8794613 -1.8051172 4288085770
2.9240541 -2.8314667 -1.808102 4288085770
2.9211893 -2.7834706 -1.8110868 4288085770
2.9173346 -2.7344747 -1.8120666 4288085770
2.9154787 -2.68648 -1.8130568 4288085770
2.9176283 -2.6404872 -1.8130678 4288085770
2.917778 -2.5934925 -1.8130684 4288085770
2.9259243 -2.5505042 -1.8131102 4288085770
2.937067 -2.5075169 -1.8141676 4288085770
2.9542007 -2.4675336 -1.816256 4288085770
2.973341 -2.4275517 -1.8173549 4288085770
2.9994745 -2.390574 -1.8194897 4288085770
3.0206184 -2.351593 -1.8195989 4288085770
3.0567446 -2.3176212 -1.8227855 4288085770
3.0908747 -2.2826481 -1.8249617 4288085770
3.1170235 -2.2446704 -1.8240969 4288085770
3.1421833 -2.2056909 -1.821227 4288085770
3.208271 -2.1817389 -1.8305681 4288085770
2.082509 -1.7920589 -1.838765 4288085770
3.2354364 -2.1427608 -1.8267084 4288085770
2.1056681 -1.759078 -1.8358849 4288085770
3.2775831 -2.1087923 -1.8259262 4288085770
2.1388092 -1.7291045 -1.8350564 4288085770
3.3287153 -2.0778298 -1.8271903 4288085770
2.1859245 -1.7041392 -1.8392999 4288085770
3.3928308 -2.0508757 -1.8315213 4288085770
2.2240686 -1.675169 -1.8384972 4288085770
3.4479704 -2.0199156 -1.8318061 4288085770
2.2662058 -1.6472006 -1.8387151 4288085770
3.5011168 -1.9879537 -1.8310807 4288085770
2.3143349 -1.6212358 -1.839964 4288085770
3.5652475 -1.9599991 -1.8324116 4288085770
2.3504963 -1.5902634 -1.8361512 4288085770
3.6353779 -1.9320478 -1.8337739 4288085770
2.4016266 -1.5653005 -1.8374153 4288085770
3.6795568 -1.8960795 -1.8270022 4288085770
2.4567566 -1.5403404 -1.8387003 4288085770
3.754693 -1.8691316 -1.8273901 4288085770
2.5308561 -1.5213933 -1.8450829 4288085770
3.8398123 -1.8451896 -1.8308294 4288085770
2.5919924 -1.4964361 -1.8453987 4288085770
3.9259472 -1.8192482 -1.8312739 4288085770
2.6421442 -1.468472 -1.8426579 4288085770
4.0190716 -1.7953119 -1.8337544 4288085770
2.7182608 -1.447525 -1.8460511 4288085770
4.1132059 -1.7703753 -1.8342402 4288085770
2.8093567 -1.4285874 -1.8535215 4288085770
4.2233181 -1.7484488 -1.8388085 4288085770
2.8685141 -1.4016294 -1.8498271 4288085770
4.3204641 -1.7225142 -1.8373097 4288085770
2.9466429 -1.3786831 -1.8512306 4288085770
4.4226103 -1.6965823 -1.8358371 4288085770
3.0237818 -1.3547359 -1.8506291 4288085770
4.5437326 -1.6746621 -1.838462 4288085770
3.1049166 -1.3317914 -1.851048 4288085770
4.6728544 -1.6537471 -1.841128 4288085770
3.188056 -1.307848 -1.8504773 4288085770
4.8059816 -1.631835 -1.8428149 4288085770
3.2712069 -1.2839046 -1.8479067 4288085770
4.940115 -1.6089225 -1.8435069 4288085770
3.3713341 -1.2619715 -1.8494235 4288085770
5.0852461 -1.588017 -1.8442556 4288085770
3.466465 -1.2390351 -1.8489151 4288085770
5.2453604 -1.568121 -1.847082 4288085770
3.5995588 -1.2231231 -1.8566018 4288085770
5.4184742 -1.5502334 -1.8509748 4288085770
3.6567707 -1.1911621 -1.8428973 4288085770
5.5866117 -1.5283413 -1.850842 4288085770
3.7778978 -1.1712422 -1.8445224 4288085770
5.758749 -1.507452 -1.8507298 4288085770
3.8980303 -1.1493216 -1.8451424 4288085770
5.9169149 -1.481554 -1.8455456 4288085770
4.0201674 -1.1274014 -1.8447726 4288085770
6.1150494 -1.4616804 -1.8455672 4288085770
4.1732759 -1.1095023 -1.8495625 4288085770
6.2872248 -1.4357905 -1.8384551 4288085770
4.3273973 -1.0906019 -1.8523575 4288085770
6.510355 -1.4159327 -1.8396058 4288085770
4.4745283 -1.0696983 -1.8531165 4288085770
6.7724667 -1.4010992 -1.8439572 4288085770
4.62467 -1.0487957 -1.8518909 4288085770
7.0365839 -1.3842664 -1.8473191 4288085770
4.7858124 -1.0268993 -1.8507221 4288085770
7.3127174 -1.3664408 -1.8477426 4288085770
4.9349737 -1.0029955 -1.8464913 4288085770
7.625823 -1.3516388 -1.8533568 4288085770
5.1101208 -0.98110819 -1.8443946 4288085770
7.9459438 -1.3358402 -1.856007 4288085770
5.3052511 -0.96023273 -1.8454009 4288085770
8.2391176 -1.3120236 -1.8495185 4288085770
5.5083885 -0.93936253 -1.8454483 4288085770
8.5702715 -1.2922311 -1.8462254 4288085770
5.7195292 -0.91849756 -1.8445368 4288085770
8.9314203 -1.2724566 -1.8440869 4288085770
5.9716377 -0.89965773 -1.848837 4288085770
9.3325558 -1.2557073 -1.8431548 4288085770
6.2017832 -0.87780428 -1.8470234 4288085770
9.7656994 -1.2379766 -1.8423873 4288085770
6.4329529 -0.85395002 -1.841215 4288085770
10.223856 -1.2192607 -1.8387485 4288085770
6.7030935 -0.83211994 -1.8406074 4288085770
10.769973 -1.2056012 -1.842563 4288085770
6.9842453 -0.80929708 -1.8380566 4288085770
11.310135 -1.1869354 -1.8383467 4288085770
7.2923918 -0.78649044 -1.8366448 4288085770
11.921278 -1.1703138 -1.837496 4288085770
7.6165447 -0.76269388 -1.8343157 4288085770
12.56345 -1.15171 -1.8318051 4288085770
7.9746914 -0.73991776 -1.8331614 4288085770
13.290608 -1.1341586 -1.828552 4288085770
8.3438463 -0.71614838 -1.8300635 4288085770
14.079776 -1.1166444 -1.8236181 4288085770
8.73102 -0.69038916 -1.8240583 4288085770
14.989939 -1.1002054 -1.8203079 4288085770
9.1781693 -0.66566706 -1.8223625 4288085770
16.116043 -1.0918989 -1.8271101 4288085770
9.6703157 -0.64097309 -1.8218982 4288085770
10.245439 -0.61733103 -1.8258616 4288085770
10.819599 -0.59068632 -1.8228194 4288085770
11.485744 -0.56309843 -1.8232515 4288085770
12.226882 -0.53555679 -1.8250694 4288085770
13.006042 -0.50503683 -1.8220835 4288085770
13.900198 -0.47358751 -1.8216895 4288085770
14.920353 -0.43921614 -1.8219444 4288085770
16.143484 -0.40496874 -1.8272448 4288085770
16.964371 3.9417262 -1.848171 4288085770
16.968525 4.0887117 -1.8592432 4288085770
16.943707 4.232717 -1.8651704 4288085770
16.948883 4.3817029 -1.8722483 4288085770
17.046043 4.5496292 -1.8857903 4288085770
17.037239 4.6966257 -1.8887986 4288085770
17.021456 4.8406277 -1.8877712 4288085770
17.020676 4.9886212 -1.8868201 4288085770
16.691973 7.4348364 -1.5390831 4293729569
16.500397 7.5099697 -1.4871606 4293729569
15.946861 7.4443402 -1.4083891 4293729569
16.00926 7.6103086 -1.3727615 4293729569
15.607718 7.5925817 -1.3017625 4293729569
15.601141 7.7255974 -1.2577803 4293729569
15.899558 7.9864135 -1.2313597 4293729569
16.718384 -0.1307416 -1.8254775 4288085770
15.15856 -0.13873386 -1.8088804 4288085770
14.036613 -0.14902115 -1.818413 4288085770
12.984707 -0.15435028 -1.8202894 4288085770
12.075796 -0.15877247 -1.8238623 4288085770
11.237899 -0.16123867 -1.8247821 4288085770
10.475008 -0.16175222 -1.8250682 4288085770
9.7251663 -0.15927029 -1.8154196 4288085770
15.516273 -0.28099871 -1.8045154 4288085770
9.0653057 -0.15684843 -1.8102089 4288085770
14.295357 -0.26922035 -1.81058 4288085770
8.5054188 -0.15449286 -1.8104846 4288085770
13.228455 -0.25654078 -1.8143946 4288085770
7.9955254 -0.15217066 -1.8120039 4288085770
12.247563 -0.24391508 -1.8156281 4288085770
7.5216446 -0.14787054 -1.8116993 4288085770
11.38667 -0.23236656 -1.8174448 4288085770
7.0907536 -0.14359951 -1.8136042 4288085770
10.616781 -0.21987724 -1.8187048 4288085770
6.7188444 -0.13936806 -1.8187962 4288085770
9.8669329 -0.20639563 -1.8120635 4288085770
6.3439627 -0.13413239 -1.8189741 4288085770
9.1990738 -0.19296837 -1.8078207 4288085770
6.004076 -0.12791967 -1.820323 4288085770
8.646184 -0.18161869 -1.8101361 4288085770
5.6881886 -0.12272215 -1.8217882 4288085770
8.135293 -0.17029762 -1.8126562 4288085770
5.3823118 -0.11553001 -1.8213032 4288085770
7.6414261 -0.15798283 -1.8102596 4288085770
5.0924358 -0.10834837 -1.8208963 4288085770
7.2215233 -0.14672089 -1.8152223 4288085770
4.8305531 -0.1011858 -1.8216255 4288085770
6.8096514 -0.13445997 -1.8142247 4288085770
4.5656853 -0.093019009 -1.8193407 4288085770
6.4407616 -0.12322903 -1.8164357 4288085770
4.3228178 -0.084867001 -1.817163 4288085770
6.111866 -0.11202526 -1.8208413 4288085770
4.0799665 -0.076713562 -1.8119856 4288085770
5.7919807 -0.099825382 -1.8222914 4288085770
3.8790731 -0.068591118 -1.8150122 4288085770
5.4561377 -0.087610722 -1.8156639 4288085770
