# .PCD v0.7 - Point Cloud Data file format
VERSION 0.7
FIELDS x y z rgb
SIZE 4 4 4 4
TYPE F F F U
COUNT 1 1 1 1
WIDTH 1123
HEIGHT 1
VIEWPOINT 0 0 0 1 0 0 0
POINTS 1123
DATA ascii
13.296518 3.8957329 -1.3460677 4288085770
13.977537 3.9023376 -1.3355776 4288085770
14.437956 -5.14114 -1.5054328 4293729569
13.796942 -5.0963306 -1.5208602 4293729569
13.101652 -5.0290365 -1.5307851 4293729569
12.574839 -4.9993124 -1.5503573 4293729569
12.057016 -4.9655046 -1.570652 4293729569
12.771925 -5.2788839 -0.79109871 4293729569
11.478846 -4.9063282 -1.58249 4293729569
12.176294 -5.2151041 -0.83217788 4293729569
10.893568 -4.8372526 -1.5922186 4293729569
11.76613 -5.2009039 -0.87786907 4293729569
10.375444 -4.7806253 -1.6049459 4293729569
11.687017 -5.2869768 -0.939596 4293729569
9.8763065 -4.7228727 -1.6172736 4293729569
11.828653 -5.4452143 -1.0128121 4293729569
9.4473972 -4.6814995 -1.634639 4293729569
10.665712 -5.1653595 -1.0155749 4293729569
9.07967 -4.6535912 -1.656146 4293729569
10.004347 -5.0404291 -1.0404054 4293729569
8.7610989 -4.6372519 -1.6809821 4293729569
9.9421406 -5.1164179 -1.100549 4293729569
8.478653 -4.6285725 -1.7093043 4293729569
10.904947 -5.5554781 -1.2307413 4293729569
8.199192 -4.6178732 -1.7375178 4293729569
9.2574444 -5.0602932 -1.1815813 4293729569
7.9427757 -4.6109934 -1.7663758 4288085770
9.5135117 -5.2454386 -1.2662364 4293729569
7.6702232 -4.5932999 -1.7922783 4288085770
7.3694954 -4.5608959 -1.814363 4288085770
11.485426 -6.1770706 -1.574074 4293729569
7.0124092 -4.5051222 -1.8269618 4288085770
10.782572 -6.0076523 -1.5896006 4293729569
6.690424 -4.4560375 -1.8420422 4288085770
9.9519405 -5.7765465 -1.5880785 4293729569
6.3502617 -4.3952007 -1.8521824 4288085770
9.2858982 -5.601058 -1.5957298 4293729569
6.0049915 -4.3274755 -1.8592491 4288085770
8.4006271 -5.3287725 -1.5762396 4293729569
5.647583 -4.2509317 -1.8623312 4288085770
7.8709488 -5.1912174 -1.5881724 4293729569
5.3212738 -4.1811047 -1.8679738 4288085770
7.6135521 -5.1591024 -1.6264248 4293729569
5.0129833 -4.1141567 -1.8733356 4288085770
7.2264175 -5.0682888 -1.6487415 4293729569
4.680479 -4.0335236 -1.8728268 4288085770
6.8442116 -4.9755163 -1.6679115 4293729569
4.3710384 -3.9576843 -1.8739872 4288085770
6.4618912 -4.8758211 -1.6839092 4293729569
4.0806561 -3.8866923 -1.8758962 4288085770
6.0875492 -4.7750969 -1.6987247 4293729569
3.785162 -3.807811 -1.8747067 4288085770
5.7020206 -4.6646004 -1.7075124 4293729569
3.5137634 -3.7377169 -1.8752661 4288085770
5.4502335 -4.6087265 -1.734056 4293729569
3.2513504 -3.6655648 -1.8755984 4288085770
5.2496872 -4.5713587 -1.7660618 4293729569
3.017086 -3.6041229 -1.8796494 4288085770
5.0823059 -4.5466681 -1.8017375 4293729569
2.7928085 -3.5436389 -1.8825283 4288085770
4.9319744 -4.5268373 -1.838201 4288085770
2.5785618 -3.4850624 -1.8862588 4288085770
4.805809 -4.5167189 -1.879437 4288085770
2.367281 -3.4244912 -1.8888812 4288085770
4.4782314 -4.4089098 -1.884156 4288085770
2.1781311 -3.3716726 -1.8952661 4288085770
4.17873 -4.309886 -1.8895454 4288085770
1.9858952 -3.3149488 -1.8986123 4288085770
3.8630295 -4.1991224 -1.8889558 4288085770
1.7835045 -3.2504196 -1.8969598 4288085770
3.5704212 -4.0961533 -1.8901098 4288085770
1.5982132 -3.1917 -1.8981192 4288085770
3.3059368 -4.0029192 -1.8939583 4288085770
1.4451427 -3.1455891 -1.9059668 4288085770
3.0332794 -3.9018919 -1.8917689 4288085770
1.2547054 -3.08003 -1.9020536 4288085770
2.798872 -3.8174317 -1.8962483 4288085770
1.0833645 -3.0202672 -1.900913 4288085770
2.5714245 -3.7329748 -1.8985903 4288085770
0.92507362 -2.9653916 -1.9006395 4288085770
2.3610516 -3.6543519 -1.902745 4288085770
0.75967789 -2.9036398 -1.8973322 4288085770
2.1435528 -3.5688784 -1.9028664 4288085770
0.63461113 -2.8613663 -1.9037266 4288085770
1.95825 -3.4970629 -1.907701 4288085770
0.47517776 -2.799624 -1.8983016 4288085770
1.7406235 -3.407716 -1.9027252 4288085770
0.32883072 -2.7427201 -1.8957429 4288085770
1.5562115 -3.3319948 -1.9034431 4288085770
0.22281075 -2.7042933 -1.9028614 4288085770
1.3777866 -3.2572579 -1.9030678 4288085770
0.087457657 -2.6493402 -1.8991358 4288085770
1.2184715 -3.1903183 -1.9055147 4288085770
-0.027742386 -2.6021264 -1.9002113 4288085770
1.0489845 -3.1155972 -1.901963 4288085770
-0.14496994 -2.5539508 -1.9003024 4288085770
0.88855743 -3.0437653 -1.9003077 4288085770
-0.25215912 -2.508683 -1.9012699 4288085770
0.74220657 -2.977788 -1.9005239 4288085770
0.60487556 -2.9147506 -1.9006369 4288085770
0.47457695 -2.8536408 -1.9016609 4288085770
0.31999016 -2.7789443 -1.8928163 4288085770
0.21787071 -2.7295196 -1.8985832 4288085770
0.10559273 -2.6743138 -1.8984017 4288085770
-0.0067005157 -2.6171081 -1.8981705 4288085770
-0.11603737 -2.559932 -1.8958809 4288085770
-0.2082119 -2.5115159 -1.8984768 4288085770
-0.12595749 -0.35327977 -1.8039167 4288085770
-0.040998459 -0.33878243 -1.7998886 4288085770
0.045934677 -0.32329732 -1.7947972 4288085770
0.13889122 -0.30874735 -1.790611 4288085770
0.25297546 -0.29590899 -1.7920573 4288085770
0.4042511 -0.2856012 -1.801842 4288085770
0.52327538 -0.27280474 -1.8001904 4288085770
0.65937424 -0.2597968 -1.802201 4288085770
0.82662773 -0.24940884 -1.8106706 4288085770
0.98876762 -0.2371794 -1.8141913 4288085770
-0.11038399 -0.12925136 -1.8010168 4288085770
1.1438427 -0.22407162 -1.814827 4288085770
-0.0094203949 -0.11564887 -1.7966979 4288085770
1.301878 -0.21099406 -1.8134046 4288085770
0.091522217 -0.10207134 -1.791379 4288085770
1.4568691 -0.19698662 -1.8100176 4288085770
0.20653534 -0.090326071 -1.7888319 4288085770
1.5967007 -0.18227816 -1.7989058 4288085770
0.37080765 -0.079933167 -1.7983601 4288085770
1.7455616 -0.16645658 -1.7895906 4288085770
0.53805351 -0.068541706 -1.8068047 4288085770
1.908453 -0.15252179 -1.7810478 4288085770
0.69420052 -0.057351828 -1.8104687 4288085770
2.0763149 -0.13757938 -1.7713821 4288085770
0.88852692 -0.046687067 -1.8224025 4288085770
2.2481594 -0.1226359 -1.7606378 4288085770
1.0696888 -0.035308003 -1.8265719 4288085770
2.4490604 -0.10842633 -1.7523434 4288085770
1.2478065 -0.022999048 -1.8287771 4282675967
2.7001228 -0.095687509 -1.751107 4288085770
1.4107838 -0.0099641681 -1.8242571 4282675967
2.8929062 -0.080681026 -1.7369492 4288085770
1.5536003 0.0037388802 -1.8121116 4288085770
3.1287861 -0.067266405 -1.7269886 4288085770
1.7074356 0.017539442 -1.8007479 4288085770
3.3555584 -0.052036762 -1.7121589 4288085770
1.8662281 0.031322658 -1.7872865 4288085770
3.6374683 -0.038269758 -1.7032886 4288085770
2.0451031 0.04433769 -1.7774527 4288085770
3.9263344 -0.023507178 -1.692256 4288085770
2.2419968 0.057495654 -1.7682629 4288085770
4.2652779 -0.010315478 -1.684283 4288085770
2.418745 0.071347058 -1.7524469 4288085770
4.603138 0.0037690401 -1.672307 4288085770
2.6798134 0.083151221 -1.7510376 4288085770
4.9730301 0.018113732 -1.6616979 4288085770
2.8805389 0.097135127 -1.7337477 4288085770
5.3808956 0.032683134 -1.6493382 4288085770
3.1304073 0.10961658 -1.7225358 4288085770
5.8277588 0.046509087 -1.6362329 4288085770
3.3952656 0.12219667 -1.7110274 4288085770
6.2955875 0.06144762 -1.6216884 4288085770
3.6911621 0.13503009 -1.7009058 4288085770
6.8364697 0.075940967 -1.6087241 4288085770
4.0070553 0.14799485 -1.6903887 4288085770
7.3972263 0.091415107 -1.5893433 4288085770
4.3278866 0.16091728 -1.6767743 4288085770
8.045063 0.10658628 -1.5732656 4288085770
4.7148285 0.17342347 -1.6678777 4288085770
8.763876 0.12119874 -1.5548103 4288085770
5.1016846 0.18682921 -1.654958 4288085770
9.5526466 0.13724574 -1.5339472 4288085770
5.5395584 0.19959542 -1.6420548 4288085770
10.467424 0.1541703 -1.5125935 4288085770
6.02244 0.21268171 -1.6292617 4288085770
11.492144 0.17176738 -1.487067 4288085770
6.5392952 0.22596624 -1.6147978 4288085770
12.713926 0.18978351 -1.4626701 4288085770
7.1071186 0.23956087 -1.5983262 4288085770
14.125628 0.20899761 -1.4325199 4288085770
7.7369518 0.25358731 -1.5816288 4288085770
8.4237309 0.26793781 -1.5618064 4288085770
9.2175541 0.28206632 -1.5428927 4288085770
10.115355 0.29687756 -1.5219238 4288085770
11.165155 0.31273672 -1.4999502 4288085770
12.309893 0.32814476 -1.4731257 4288085770
13.642534 0.34573725 -1.4405625 4288085770
14.194433 0.56067258 -1.4139211 4288085770
1.5891457 1.0696825 -1.7041082 4288085770
0.40896606 0.93782341 -1.7655127 4288085770
1.455246 1.0848811 -1.7101214 4288085770
0.28594971 0.94889653 -1.7634311 4288085770
1.2862167 1.0935999 -1.7069197 4288085770
1.1583061 1.1078138 -1.7118499 4288085770
1.0253372 1.1198952 -1.7129221 4288085770
0.91243553 1.1352333 -1.7185569 4288085770
0.8085289 1.1506308 -1.7240293 4288085770
0.71465302 1.1671444 -1.7312956 4288085770
0.59967422 1.1803451 -1.7320187 4288085770
0.49067688 1.1935606 -1.7316339 4288085770
0.39270782 1.2078985 -1.7330253 4288085770
0.29975319 1.2222946 -1.7353258 4288085770
0.20175362 1.2355832 -1.7347429 4288085770
0.27813911 3.621573 -1.6416025 4288085770
0.40076256 3.6974213 -1.6405118 4288085770
0.53134537 3.7762959 -1.6382024 4288085770
0.69293022 3.8725436 -1.641907 4288085770
0.81647301 3.9442494 -1.6349006 4288085770
0.97101974 4.0333281 -1.633908 4288085770
1.1435204 4.1305466 -1.6333907 4288085770
1.2909985 4.2114067 -1.6257267 4288085770
1.4454575 4.2943125 -1.6178868 4288085770
0.21637154 3.6153398 -1.6528654 4288085770
1.6259003 4.3894839 -1.6132765 4288085770
0.36405754 3.692452 -1.6552963 4288085770
1.8323078 4.4999208 -1.6118217 4288085770
0.50068092 3.760319 -1.6511528 4288085770
2.0416851 4.6093273 -1.6083381 4288085770
0.62529755 3.819011 -1.6434522 4288085770
2.2570419 4.7187481 -1.6037469 4288085770
0.77691841 3.8920243 -1.6409125 4288085770
2.4883575 4.8362961 -1.5996671 4288085770
0.93753624 3.9681213 -1.6391349 4288085770
2.7116528 4.9446688 -1.5909579 4288085770
1.1001225 4.0431814 -1.6353474 4288085770
2.9648876 5.0683088 -1.5843322 4288085770
1.2626991 4.1151919 -1.6296349 4288085770
3.2131004 5.1848183 -1.5739727 4288085770
1.437252 4.1923046 -1.6245813 4288085770
3.482275 5.311511 -1.5649843 4288085770
1.6067867 4.2643113 -1.6167436 4288085770
3.7923813 5.4575663 -1.5587807 4288085770
1.8143158 4.3547354 -1.614768 4288085770
4.1034641 5.5995541 -1.5496595 4288085770
2.0158348 4.4390478 -1.6100519 4288085770
4.452486 5.7598848 -1.5434027 4288085770
2.2373028 4.5325127 -1.6057496 4288085770
4.8284454 5.9304142 -1.5374086 4288085770
2.4687748 4.628067 -1.6022167 4288085770
5.2882614 6.1437035 -1.537848 4288085770
2.7122345 4.7277231 -1.5993669 4288085770
5.7270641 6.3386621 -1.5311182 4288085770
2.9616795 4.8263941 -1.595434 4288085770
6.2117767 6.55299 -1.5260832 4288085770
3.2210827 4.9260798 -1.5892966 4288085770
6.7074108 6.7682886 -1.5168264 4288085770
3.4814816 5.0237484 -1.582191 4288085770
7.1940556 6.9714317 -1.5040321 4288085770
3.7678471 5.1306334 -1.5763907 4288085770
7.6706562 7.1633377 -1.4846957 4288085770
4.0292301 5.2202101 -1.5654678 4288085770
8.2151299 7.382781 -1.4674568 4288085770
4.327549 5.3260984 -1.5564771 4288085770
8.8114815 7.6236067 -1.4507554 4288085770
4.6448479 5.4371347 -1.548018 4288085770
9.4956493 7.8990965 -1.4356163 4288085770
4.9591484 5.5400782 -1.5368135 4288085770
10.160772 8.1582413 -1.4122224 4288085770
5.299408 5.6532393 -1.5268893 4288085770
5.6866074 5.7848005 -1.5196667 4288085770
6.0907822 5.9194727 -1.5120618 4288085770
6.5588837 6.0787048 -1.5087011 4288085770
6.9910183 6.2135096 -1.4985909 4288085770
7.4930687 6.3769379 -1.4935164 4288085770
8.0240726 6.5465527 -1.4877684 4288085770
8.6209927 6.7397165 -1.4852536 4288085770
9.1609592 6.8962202 -1.4726691 4288085770
9.7059174 7.048707 -1.4580946 4288085770
10.26087 7.1962099 -1.4414647 4288085770
10.809828 7.3315516 -1.4202435 4288085770
11.467657 7.507844 -1.4060531 4288085770
12.192404 7.7036419 -1.3931779 4288085770
12.907145 7.8832293 -1.3748841 4288085770
13.634905 8.0578775 -1.3554796 4288085770
14.40661 8.2398109 -1.3351058 4288085770
15.143328 -2.2327833 -1.5724082 4288085770
14.348661 -2.2600908 -1.5823302 4288085770
13.628035 -2.2858162 -1.5948873 4288085770
12.898249 -2.3007288 -1.6023366 4288085770
12.266626 -2.3208003 -1.616159 4288085770
11.705046 -2.342366 -1.6307642 4288085770
11.207586 -2.367363 -1.6503088 4288085770
10.640829 -2.3750641 -1.6606588 4288085770
10.103045 -2.3806021 -1.6694353 4288085770
9.5671616 -2.3781793 -1.6759779 4288085770
9.089386 -2.3792524 -1.6865687 4288085770
8.6285534 -2.377265 -1.6947784 4288085770
8.1887245 -2.3741167 -1.7035832 4288085770
7.7749043 -2.3697736 -1.7128925 4288085770
14.306879 -3.7354276 -1.6479108 4288085770
7.3981266 -2.3671391 -1.7235816 4288085770
13.384497 -3.6535432 -1.6593974 4288085770
7.0243168 -2.3625109 -1.7331674 4288085770
12.598356 -3.5905926 -1.6759176 4288085770
6.6644764 -2.353792 -1.7424004 4288085770
11.839174 -3.5244915 -1.6908758 4288085770
6.3165894 -2.3440454 -1.7493925 4288085770
11.132982 -3.4610684 -1.7039506 4288085770
5.9907703 -2.3360798 -1.7590353 4288085770
10.437639 -3.3897011 -1.7116301 4288085770
5.6919575 -2.3279135 -1.7691894 4288085770
9.8124256 -3.3267753 -1.7222657 4288085770
5.3670101 -2.3120432 -1.7746172 4288085770
9.1880779 -3.2579687 -1.7277365 4288085770
5.0942078 -2.3026829 -1.7852757 4288085770
8.6268272 -3.1966753 -1.7352653 4288085770
4.7881927 -2.2827399 -1.7882617 4288085770
8.1286926 -3.1428688 -1.7458518 4288085770
4.5122452 -2.2655258 -1.7937784 4288085770
7.6646023 -3.0938146 -1.756947 4288085770
4.2433128 -2.2482412 -1.8001678 4288085770
7.207449 -3.0407655 -1.7658174 4288085770
3.9763088 -2.2280192 -1.803448 4288085770
6.7602215 -2.9847271 -1.7714338 4288085770
3.7313728 -2.2105782 -1.8094039 4288085770
6.3581276 -2.9362683 -1.7814326 4288085770
3.4823685 -2.1882143 -1.8133085 4288085770
5.9840317 -2.890651 -1.7900004 4288085770
3.2483425 -2.1667771 -1.8159673 4288085770
5.6128578 -2.8400648 -1.796391 4288085770
3.0253639 -2.1462183 -1.8204513 4288085770
5.2607021 -2.7913549 -1.8024871 4288085770
2.810379 -2.1246078 -1.8247654 4288085770
4.9436436 -2.7493398 -1.8111229 4288085770
2.6063957 -2.1039255 -1.8289056 4288085770
4.6023598 -2.6956844 -1.8118987 4288085770
2.438591 -2.0908308 -1.8395901 4288085770
4.287138 -2.6458092 -1.8143024 4288085770
2.2365284 -2.0662115 -1.8405962 4288085770
4.0100517 -2.6035583 -1.8212156 4288085770
2.0475101 -2.0434566 -1.843416 4288085770
3.7017288 -2.5497379 -1.8193955 4288085770
1.8775654 -2.0235023 -1.8489654 4288085770
3.4375763 -2.5054777 -1.8230252 4288085770
1.7196522 -2.005444 -1.8553467 4288085770
3.1954594 -2.465049 -1.8273561 4288085770
1.5103359 -1.9680982 -1.8471613 4288085770
2.9533157 -2.4226449 -1.8306377 4288085770
1.3674679 -1.9518919 -1.8553202 4288085770
2.7452908 -2.3879173 -1.837501 4288085770
1.2104416 -1.9279284 -1.8575363 4288085770
2.5352306 -2.3502288 -1.8433266 4288085770
1.0926685 -1.9154584 -1.8693407 4288085770
2.3351727 -2.3134744 -1.8489964 4288085770
0.89325523 -1.8741484 -1.8568769 4288085770
2.138073 -2.2757514 -1.8525879 4288085770
0.76532745 -1.8548951 -1.8626909 4288085770
1.9147301 -2.2264252 -1.8473561 4288085770
0.61419106 -1.825994 -1.8606768 4288085770
1.7427082 -2.1924629 -1.8535933 4288085770
0.48819923 -1.8037782 -1.8643813 4288085770
1.5595322 -2.1527233 -1.8538835 4288085770
0.36621475 -1.7815363 -1.8680134 4288085770
1.3833866 -2.1139133 -1.8550715 4288085770
0.23510742 -1.7544801 -1.8666866 4288085770
1.2283039 -2.079916 -1.8580046 4288085770
1.0843029 -2.0497701 -1.8638351 4288085770
0.90900612 -2.0051053 -1.8588593 4288085770
0.7628746 -1.9690993 -1.8595796 4288085770
0.62074852 -1.9340665 -1.8602524 4288085770
0.48662567 -1.8999813 -1.8608053 4288085770
0.3615551 -1.8677874 -1.8632441 4288085770
0.23745155 -1.8336124 -1.8646159 4288085770
0.20385361 0.32962781 -1.7761142 4288085770
0.35302353 0.34279951 -1.7821109 4288085770
0.50517273 0.3559655 -1.7870538 4288085770
0.71253777 0.37080958 -1.8039696 4288085770
0.90278244 0.3853693 -1.8141963 4282675967
1.1090584 0.4000819 -1.8261325 4282675967
1.2690563 0.4140988 -1.8229094 4282675967
1.4360352 0.42713651 -1.8185847 4282675967
0.20009232 0.4215073 -1.7738855 4288085770
1.5718536 0.43872476 -1.8048511 4282675967
0.36832428 0.43287641 -1.7825863 4288085770
1.7146282 0.45130783 -1.7889667 4288085770
0.54053116 0.44524574 -1.79019 4288085770
1.8584156 0.46189782 -1.7731137 4288085770
0.73580551 0.45786291 -1.8013756 4288085770
2.0332756 0.47481143 -1.7616472 4288085770
0.93605995 0.47048703 -1.8114707 4282675967
2.2161198 0.48675162 -1.7490611 4288085770
1.1754513 0.48356164 -1.828856 4282675967
2.4079647 0.49874973 -1.7363119 4288085770
1.355505 0.49475774 -1.8273439 4282675967
2.6770306 0.51359183 -1.7361116 4288085770
1.4802704 0.50317609 -1.8098857 4282675967
2.8818436 0.52462351 -1.7211525 4288085770
1.6361427 0.51194358 -1.7978632 4282675967
3.1217155 0.53697985 -1.7095327 4288085770
1.7688808 0.51936364 -1.7782857 4282675967
3.4267101 0.55095351 -1.7047069 4288085770
1.9317055 0.52710134 -1.7631624 4288085770
3.6864891 0.56331331 -1.687727 4288085770
2.120615 0.5351311 -1.7525661 4288085770
3.9984188 0.57623202 -1.6788008 4288085770
2.2984219 0.54194039 -1.7361963 4288085770
4.3292885 0.58919775 -1.666532 4288085770
2.5745544 0.55287814 -1.7379675 4288085770
4.7142258 0.60261053 -1.6572828 4288085770
2.7994366 0.56111389 -1.725719 4288085770
5.082056 0.61576378 -1.6423445 4288085770
3.0463581 0.56854123 -1.715096 4288085770
5.5259533 0.63053012 -1.6310019 4288085770
3.319294 0.57616049 -1.7050014 4288085770
5.9878006 0.64433724 -1.6163595 4288085770
3.6122169 0.58490783 -1.6945195 4288085770
6.4956779 0.65848976 -1.6028826 4288085770
3.9071293 0.59061897 -1.6820769 4288085770
7.0474911 0.67284989 -1.5856102 4288085770
4.2541027 0.59878826 -1.6736403 4288085770
7.6693439 0.6877346 -1.5700679 4288085770
4.6080132 0.60590279 -1.661103 4288085770
8.356163 0.70401138 -1.5523236 4288085770
4.986908 0.61215317 -1.6471384 4288085770
9.1159725 0.7197572 -1.5332813 4288085770
5.4369297 0.61905926 -1.6398835 4288085770
9.9917927 0.73729783 -1.5141118 4288085770
5.8647766 0.62354988 -1.622082 4288085770
10.947527 0.75525218 -1.4894946 4288085770
6.3857574 0.62986207 -1.6115665 4288085770
12.065264 0.77429694 -1.4639413 4288085770
6.9507008 0.63540709 -1.5982797 4288085770
13.335985 0.79534882 -1.4365907 4288085770
7.5586109 0.64017844 -1.5822392 4288085770
14.906736 0.81945229 -1.4087775 4288085770
8.1934738 0.6430487 -1.5627606 4288085770
8.9353886 0.64670587 -1.5453413 4288085770
9.8183575 0.65036857 -1.5293903 4288085770
10.76829 0.65241194 -1.5102758 4288085770
11.878218 0.65350848 -1.4893119 4288085770
13.059019 0.65186131 -1.4591391 4288085770
14.448874 0.64865685 -1.4292521 4288085770
5.322649 -5.2089138 -0.10239574 4293729569
5.3291416 -5.1447859 -0.14570013 4293729569
7.6838875 -5.4507456 -0.60022247 4293729569
7.6539669 -5.3460608 -0.63516605 4293729569
7.6398621 -5.2620411 0.0059784949 4293729569
7.6862278 -5.2669487 -0.6706301 4293729569
7.7312393 -5.2065964 -0.02701214 4293729569
7.7395439 -5.1936779 -0.70686173 4293729569
7.8697357 -5.1668253 -0.060546964 4293729569
9.1959877 -5.6964073 -0.81027079 4293729569
9.8685017 -5.8612242 -0.87832594 4293729569
9.9598522 -5.7856388 -0.91681725 4293729569
10.643339 -5.9383154 -0.98737359 4293729569
11.439165 -6.1220741 -1.0646892 4293729569
9.1176567 -5.1321411 -0.95867741 4293729569
9.2149067 -5.0606899 -0.99016249 4293729569
10.659216 -5.4904709 -0.28758994 4293729569
9.2157784 -4.9530602 -1.0144745 4293729569
10.674124 -5.377655 -0.31552187 4293729569
9.9241428 -5.0936337 -1.0822806 4293729569
11.185419 -5.4135866 -1.1876402 4293729569
11.196196 -5.2939215 -1.2104733 4293729569
13.302301 -5.86374 -1.3759079 4293729569
11.906054 -5.2759295 -1.2993083 4293729569
13.857992 -5.7880077 -0.48761255 4293729569
11.648783 -5.0666351 -1.298713 4293729569
13.610937 -5.5702791 -0.50163007 4293729569
13.853918 -5.6155863 -1.4718511 4293729569
14.065615 -5.5665236 -0.52937758 4293729569
13.330626 -5.314599 -1.4497399 4293729569
15.189856 -5.7489281 -0.57174021 4293729569
13.687296 -5.2782011 -1.4894409 4293729569
14.00477 -5.2251806 -1.5244293 4293729569
14.02825 -5.0896893 -1.5366347 4293729569
14.01354 -4.9415941 -1.5432091 4293729569
14.231577 -4.856535 -1.5661802 4293729569
14.750479 -4.8419561 -1.6095109 4293729569
15.008821 0.88485348 -1.4032339 4288085770
13.619921 0.91218174 -1.4255185 4288085770
12.533113 0.94260341 -1.4512999 4288085770
11.52627 0.96944773 -1.4727318 4288085770
10.633394 0.9949739 -1.4911475 4288085770
9.8254719 1.0179529 -1.5050981 4288085770
9.0785389 1.0392859 -1.5169928 4288085770
8.4506512 1.0614551 -1.5307291 4288085770
7.8477039 1.0816805 -1.5400631 4288085770
14.545851 1.5609105 -1.3647022 4288085770
7.3428173 1.1036369 -1.5525939 4288085770
13.472265 1.571547 -1.3957412 4288085770
6.8719387 1.1268283 -1.5654831 4288085770
12.4886 1.5816419 -1.4211757 4288085770
6.4220009 1.1470515 -1.5740681 4288085770
11.523813 1.585633 -1.4374187 4288085770
6.0391521 1.1698382 -1.5873861 4288085770
10.666994 1.5912921 -1.4516792 4288085770
5.664238 1.1905756 -1.5966105 4288085770
9.9371967 1.6018357 -1.4675367 4288085770
5.3052807 1.2093382 -1.6025958 4288085770
9.3144226 1.6151154 -1.4844038 4288085770
5.0053959 1.2316148 -1.6134348 4288085770
8.6965809 1.6243038 -1.4962816 4288085770
4.7114735 1.2518542 -1.6212156 4288085770
8.1417255 1.6348813 -1.5069928 4288085770
4.4325333 1.2721617 -1.6277251 4288085770
7.6658936 1.6510454 -1.5201461 4288085770
4.1696072 1.2925931 -1.634944 4288085770
7.2180424 1.6643344 -1.5308671 4288085770
3.9206562 1.3110623 -1.6399598 4288085770
6.8021584 1.6787962 -1.539984 4288085770
3.6997318 1.3327783 -1.6473923 4288085770
6.4082661 1.6913699 -1.5477521 4288085770
3.4647369 1.3492603 -1.6492052 4288085770
6.0503712 1.7061907 -1.5558174 4288085770
3.2677975 1.3701005 -1.6552281 4288085770
5.722477 1.7232214 -1.5642891 4288085770
3.0688286 1.3898791 -1.6593127 4288085770
5.4245777 1.740438 -1.5722167 4288085770
2.8888779 1.4098001 -1.6640525 4288085770
5.1426735 1.7577534 -1.5798547 4288085770
2.7399712 1.4330114 -1.6721542 4288085770
4.8757572 1.7741374 -1.5862458 4288085770
2.5649757 1.4508895 -1.6738544 4288085770
4.6208191 1.7905705 -1.5914199 4288085770
2.3889503 1.4677122 -1.6735983 4288085770
4.3999119 1.812312 -1.5998518 4288085770
2.2148991 1.4834979 -1.6713316 4288085770
4.1769829 1.829968 -1.6054206 4288085770
2.0779381 1.503685 -1.675292 4288085770
3.9740334 1.8497468 -1.6105773 4288085770
1.9489689 1.5249217 -1.6790829 4288085770
3.7891121 1.8706865 -1.617382 4288085770
1.8480549 1.5504545 -1.6872644 4288085770
3.6051579 1.8905833 -1.6221945 4288085770
1.7331009 1.5718025 -1.6918008 4288085770
3.4311867 1.9105167 -1.6258259 4288085770
1.6241283 1.5931628 -1.6952288 4288085770
3.2531986 1.9273771 -1.6276052 4288085770
1.5060997 1.6123688 -1.6948714 4288085770
3.1042442 1.9495146 -1.6327331 4288085770
1.3991089 1.6337166 -1.6972635 4288085770
2.9562607 1.9706086 -1.6358685 4288085770
1.2850494 1.651898 -1.6948595 4288085770
2.8152771 1.9917462 -1.6388772 4288085770
1.1609631 1.6659443 -1.6897373 4288085770
2.6782799 2.011884 -1.6408386 4288085770
1.0599136 1.6852306 -1.6880722 4288085770
2.5633068 2.036231 -1.6453006 4288085770
0.97591782 1.7067209 -1.6900475 4288085770
2.4032059 2.0480056 -1.6388812 4288085770
0.89090538 1.7281803 -1.6910415 4288085770
2.2821827 2.0692172 -1.639528 4288085770
0.81690216 1.7507321 -1.6928108 4288085770
2.1571426 2.0873556 -1.6383231 4288085770
0.7308445 1.7711108 -1.6908491 4288085770
2.0571308 2.1117458 -1.6405139 4288085770
0.65782738 1.7926444 -1.6916256 4288085770
1.9520798 2.1340313 -1.6398468 4288085770
0.59482574 1.8172885 -1.6941454 4288085770
1.860054 2.1574464 -1.640918 4288085770
0.5237751 1.8387846 -1.6928866 4288085770
1.7499752 2.1756277 -1.6374419 4288085770
0.46276283 1.8624165 -1.6943955 4288085770
1.6950111 2.2084424 -1.6446161 4288085770
0.40171432 1.8859988 -1.6939054 4288085770
1.5838909 2.2245436 -1.6382091 4288085770
0.34767532 1.9106489 -1.6942632 4288085770
1.5048351 2.2500141 -1.6379955 4288085770
0.29764938 1.9363481 -1.695523 4288085770
1.4428082 2.2786627 -1.6403983 4288085770
0.23054886 1.956795 -1.6912179 4288085770
1.3757572 2.3052318 -1.6409421 4288085770
0.19455147 1.9856544 -1.6951485 4288085770
1.3146935 2.3338366 -1.6413274 4288085770
1.2426109 2.3573012 -1.6390378 4288085770
1.1895428 2.3869555 -1.6392534 4288085770
1.1424732 2.4186711 -1.6403103 4288085770
1.0853882 2.4452519 -1.6386738 4288085770
1.0422993 2.4769671 -1.6386588 4288085770
1.010231 2.5117991 -1.6403687 4288085770
0.97014236 2.5435328 -1.6402993 4288085770
0.93002129 2.5752172 -1.6382306 4288085770
0.89891243 2.6100056 -1.6379237 4288085770
0.87080193 2.6448123 -1.6375623 4288085770
0.83465576 2.6774964 -1.6343968 4288085770
0.80953217 2.7143211 -1.6339314 4288085770
0.78538132 2.7501025 -1.6314738 4288085770
0.7812748 2.7951539 -1.6344275 4288085770
0.75609207 2.8298798 -1.6300137 4288085770
0.74996376 2.8728695 -1.6310544 4288085770
0.74379921 2.9158094 -1.630096 4288085770
0.73661613 2.9587183 -1.6281562 4288085770
0.73543549 3.0036881 -1.6270573 4288085770
0.74726868 3.054811 -1.6285732 4288085770
0.75507355 3.1048598 -1.6281869 4288085770
0.76786995 3.1559386 -1.6276853 4288085770
0.77865028 3.2069807 -1.6262205 4288085770
0.80644608 3.2662241 -1.6282475 4288085770
0.83821869 3.3284912 -1.6301274 4288085770
0.84894371 3.3794582 -1.625664 4288085770
0.88467026 3.4436994 -1.6254227 4288085770
0.94742203 3.5222762 -1.6313422 4288085770
0.99213028 3.5915961 -1.6318135 4288085770
1.0288181 3.6557934 -1.6295552 4288085770
1.0664845 3.7209718 -1.6262546 4288085770
1.1121368 3.7902226 -1.6237092 4288085770
1.188776 3.8778079 -1.626153 4288085770
1.245388 3.9531243 -1.6232598 4288085770
1.2959862 4.0253553 -1.6185505 4288085770
1.3835583 4.1199799 -1.6196218 4288085770
1.448103 4.200294 -1.6144605 4288085770
1.5136204 4.281589 -1.6082568 4288085770
0.20550537 3.5918641 -1.6539557 4288085770
1.6041145 4.3771324 -1.6052508 4288085770
0.25215912 3.653049 -1.6485918 4288085770
1.7045765 4.4797597 -1.60289 4288085770
0.29175758 3.7090688 -1.6384814 4288085770
1.8240356 4.5936003 -1.60391 4288085770
0.39744186 3.8080022 -1.6471238 4288085770
1.9434471 4.7063656 -1.6019564 4288085770
0.47104073 3.8854237 -1.6438727 4288085770
2.0648289 4.8211184 -1.5989172 4288085770
0.53359222 3.9556541 -1.6359968 4288085770
2.1861439 4.9367952 -1.592855 4288085770
0.62517166 4.0432563 -1.6351705 4288085770
2.3164482 5.0575504 -1.5875051 4288085770
0.72372627 4.1349001 -1.6341176 4288085770
2.4507084 5.1792803 -1.5800588 4288085770
0.81423759 4.2223969 -1.6293113 4288085770
2.5929337 5.3060579 -1.5723438 4288085770
0.91374588 4.3129725 -1.6252668 4288085770
2.7490997 5.4419174 -1.564152 4288085770
1.0222282 4.409626 -1.6219099 4288085770
2.9412136 5.601141 -1.5607345 4288085770
1.1426392 4.5143251 -1.6171379 4288085770
3.1522388 5.7734756 -1.5566509 4288085770
1.281065 4.6302567 -1.6167645 4288085770
3.3882141 5.9610338 -1.5547407 4288085770
1.4204617 4.7451439 -1.614399 4288085770
3.6810818 6.1861286 -1.5588765 4288085770
1.5648003 4.8630114 -1.6098695 4288085770
4.0387974 6.4548073 -1.5687647 4288085770
1.7141075 4.9828835 -1.6041999 4288085770
4.3634453 6.7009926 -1.567802 4288085770
1.8843708 5.1169538 -1.6008015 4288085770
4.6441116 6.9156418 -1.5574107 4288085770
2.0386181 5.2377815 -1.5920181 4288085770
4.943676 7.1423788 -1.5453775 4288085770
2.2108135 5.368741 -1.5836604 4288085770
5.2421532 7.365962 -1.5274403 4288085770
2.4069538 5.5159168 -1.5774693 4288085770
5.5725632 7.6098337 -1.5124252 4288085770
2.6080685 5.6640997 -1.5701635 4288085770
5.9328098 7.8728333 -1.4943964 4288085770
2.8490925 5.8376427 -1.5665109 4288085770
6.3528786 8.1743126 -1.479336 4288085770
3.1170368 6.0293951 -1.5639219 4288085770
3.4578533 6.2698526 -1.5698149 4288085770
3.841568 6.5376892 -1.5792568 4288085770
4.1902618 6.7770214 -1.578033 4288085770
4.502924 6.988843 -1.5661364 4288085770
4.8205299 7.2006197 -1.5511508 4288085770
5.150074 7.41642 -1.5338492 4288085770
5.5324783 7.665657 -1.5197673 4288085770
5.933794 7.9229584 -1.5031433 4288085770
6.3699703 8.2004662 -1.4853895 4288085770
14.379984 -0.9163475 -1.4986246 4288085770
13.478674 -0.96263194 -1.5239789 4288085770
12.585146 -0.99806941 -1.5409193 4288085770
11.838755 -1.034413 -1.563242 4288085770
11.141314 -1.0654602 -1.584553 4288085770
10.44272 -1.0886649 -1.5996866 4288085770
9.8722973 -1.1168653 -1.6216457 4288085770
9.2525997 -1.131641 -1.6331506 4288085770
8.7129955 -1.148805 -1.648278 4288085770
8.2143898 -1.163695 -1.6636126 4288085770
14.815256 -1.8923817 -1.563143 4288085770
7.7166939 -1.1736549 -1.6758063 4288085770
13.691355 -1.86221 -1.5835896 4288085770
7.2228794 -1.1787161 -1.682806 4288085770
12.676371 -1.830451 -1.5990379 4288085770
6.7921524 -1.1852696 -1.6937115 4288085770
11.731405 -1.7992411 -1.6142421 4288085770
6.3924389 -1.1916093 -1.7050548 4288085770
10.988695 -1.7825241 -1.6371777 4288085770
5.9966259 -1.1940248 -1.7122283 4288085770
10.298948 -1.76351 -1.6581037 4288085770
5.636879 -1.1961223 -1.7227478 4288085770
9.6752491 -1.7480445 -1.6799324 4288085770
5.2941132 -1.1981412 -1.7319598 4288085770
9.0213089 -1.7220123 -1.6920364 4288085770
4.9462395 -1.1952913 -1.7371399 4288085770
8.3431149 -1.6853786 -1.6943076 4288085770
4.6334381 -1.1931283 -1.7457092 4288085770
7.7520695 -1.6560628 -1.7011976 4288085770
4.3315926 -1.1899486 -1.7520552 4288085770
7.2220612 -1.6283269 -1.7090313 4288085770
4.0407162 -1.1847278 -1.7571528 4288085770
6.7732296 -1.6099212 -1.7226417 4288085770
3.7608376 -1.1794395 -1.7620511 4288085770
6.3122196 -1.5837646 -1.7292747 4288085770
3.516037 -1.1758387 -1.7703629 4288085770
5.9073315 -1.5631413 -1.7400393 4288085770
3.2862778 -1.1730964 -1.7804267 4288085770
5.4932995 -1.5367241 -1.7448213 4288085770
3.0473785 -1.1655594 -1.7845325 4288085770
5.1072598 -1.5101361 -1.7490957 4288085770
2.823513 -1.1578819 -1.7903657 4288085770
4.7693481 -1.4901304 -1.7576716 4288085770
2.6257401 -1.153945 -1.799825 4288085770
4.4484253 -1.4690208 -1.7659149 4288085770
2.4027576 -1.1423866 -1.8005431 4288085770
4.1334362 -1.4459503 -1.7710011 4288085770
2.1847687 -1.1297976 -1.801146 4288085770
3.8384666 -1.4237332 -1.7767494 4288085770
1.9858227 -1.1190432 -1.803453 4288085770
3.5634995 -1.4023943 -1.7821598 4288085770
1.8018951 -1.1081722 -1.806488 4288085770
3.2965107 -1.3800313 -1.7864013 4288085770
1.6300068 -1.0981786 -1.8113294 4288085770
3.0756989 -1.3641881 -1.7979789 4288085770
1.4731636 -1.0900435 -1.8179476 4288085770
2.8548031 -1.3464447 -1.8055091 4288085770
1.3152733 -1.0799646 -1.8225353 4288085770
2.6077423 -1.3220356 -1.8063397 4288085770
1.1694183 -1.0707626 -1.8289294 4288085770
2.3465157 -1.2918866 -1.8002789 4288085770
1.0074139 -1.0568334 -1.8284926 4288085770
2.1546059 -1.2729673 -1.8072586 4288085770
0.85544205 -1.0427934 -1.829874 4288085770
1.9515915 -1.2512399 -1.8093655 4288085770
0.72356415 -1.0325319 -1.8349903 4288085770
1.7716446 -1.2322971 -1.8141289 4288085770
0.5654583 -1.0146786 -1.830384 4288085770
1.6117878 -1.2161323 -1.8226023 4288085770
0.43753052 -1.0024428 -1.833379 4288085770
1.4196606 -1.1914635 -1.819438 4288085770
0.30149651 -0.98738062 -1.8314469 4288085770
1.2707748 -1.174257 -1.8266876 4288085770
1.1228676 -1.1560696 -1.8328948 4288085770
0.94872093 -1.1313156 -1.8284049 4288085770
0.8077507 -1.1121607 -1.8314619 4288085770
0.66173172 -1.0910864 -1.832561 4288085770
0.51462746 -1.0681182 -1.8296306 4288085770
0.36751747 -1.04415 -1.8266754 4288085770
0.23746109 -1.0230279 -1.8254855 4288085770
0.31095314 0.91745198 -1.7659378 4288085770
0.42889404 0.93104774 -1.7594802 4288085770
0.55486679 0.94474113 -1.7548769 4288085770
0.68180466 0.95839077 -1.7482562 4288085770
0.78863907 0.9687469 -1.7350755 4288085770
0.91052628 0.97926772 -1.7246218 4288085770
1.0504532 0.9919703 -1.7167909 4288085770
0.22562408 0.92177904 -1.7633679 4288085770
1.212429 1.0069036 -1.7125108 4288085770
0.37373352 0.93580347 -1.7663624 4288085770
1.3854218 1.0219281 -1.7090309 4288085770
0.52885246 0.94886994 -1.7692549 4288085770
1.5764427 1.0381094 -1.7071991 4288085770
0.61664009 0.95298958 -1.7515693 4288085770
1.7844906 1.055442 -1.7070343 4288085770
0.75264359 0.96174407 -1.7469089 4288085770
1.9212494 1.0628539 -1.6883872 4288085770
0.88055611 0.96830177 -1.7364457 4288085770
2.1342125 1.079092 -1.6831589 4288085770
0.99341011 0.97267061 -1.7223055 4288085770
2.3882999 1.0977743 -1.6851349 4288085770
1.1473923 0.98150778 -1.7163196 4288085770
2.6603756 1.1175638 -1.6867604 4288085770
1.3635845 0.99606329 -1.7230809 4288085770
2.9003048 1.1329138 -1.679069 4288085770
1.5094795 1.001704 -1.7113171 4288085770
3.1472092 1.1462564 -1.6693013 4288085770
1.7095566 1.0119654 -1.7104709 4288085770
3.4181328 1.1617918 -1.6610489 4288085770
1.8865013 1.0178663 -1.7011445 4288085770
3.7050419 1.1763984 -1.6515319 4288085770
2.0563812 1.0226257 -1.6879714 4288085770
4.0079479 1.1911006 -1.6417255 4288085770
2.2643852 1.0298113 -1.6820571 4288085770
4.3589211 1.2082139 -1.6359982 4288085770
2.5887051 1.0472362 -1.6958096 4288085770
4.6927738 1.2220271 -1.6226568 4288085770
2.8206882 1.0545403 -1.6884615 4288085770
5.0666504 1.237129 -1.6105657 4288085770
3.0646801 1.0599167 -1.6809456 4288085770
5.4645329 1.2533989 -1.5990145 4288085770
3.3206387 1.0643156 -1.6712384 4288085770
5.8923759 1.2687991 -1.5849464 4288085770
3.5935898 1.0698156 -1.6611986 4288085770
6.3762627 1.2856085 -1.5728383 4288085770
3.8855801 1.0744793 -1.6528387 4288085770
6.8830891 1.3024806 -1.5573151 4288085770
4.2045708 1.0783046 -1.6440148 4288085770
7.4599686 1.3208708 -1.5444982 4288085770
4.5415592 1.0822377 -1.634865 4288085770
8.0617771 1.338311 -1.5272553 4288085770
4.8875256 1.0841753 -1.6236031 4288085770
8.7426033 1.3572731 -1.5105567 4288085770
5.2644997 1.086323 -1.6127796 4288085770
9.5004234 1.3777205 -1.4934392 4288085770
5.6855049 1.0887837 -1.6031582 4288085770
10.355223 1.3997476 -1.4745407 4288085770
6.1285 1.0893515 -1.5921891 4288085770
11.303003 1.4223311 -1.453959 4288085770
6.5543861 1.0846198 -1.5736554 4288085770
12.352747 1.4454997 -1.4305313 4288085770
7.0884094 1.0847818 -1.5630627 4288085770
13.534433 1.4694076 -1.4027152 4288085770
7.6433716 1.0819705 -1.548166 4288085770
14.891085 1.495362 -1.3717064 4288085770
8.2784119 1.0797621 -1.536819 4288085770
8.9313736 1.0725132 -1.519273 4288085770
9.694397 1.0670464 -1.5047088 4288085770
10.527433 1.057999 -1.4889762 4288085770
11.468477 1.0486228 -1.4723132 4288085770
12.46747 1.0334951 -1.4507511 4288085770
13.627501 1.0163807 -1.4283481 4288085770
14.966539 0.99536276 -1.403828 4288085770
7.5252876 -7.5693645 -1.6778283 4293729569
5.5531693 -6.2550955 -0.84611106 4293729569
5.4773788 -6.2431908 -1.4674673 4293729569
5.5436211 -6.183094 -0.8885119 4293729569
5.4607677 -6.1693068 -1.5069466 4293729569
5.6154537 -6.158474 -0.93563414 4293729569
5.5517864 -6.1574202 -1.5600443 4293729569
5.5967865 -6.0786276 -0.97400147 4293729569
6.2787113 -6.5204544 -1.7001052 4293729569
6.1140842 -6.3490448 -1.7168021 4293729569
5.9423656 -6.1747761 -1.7295532 4293729569
5.7706146 -6.0015574 -1.7403302 4293729569
5.5978146 -5.8284187 -1.7481265 4293729569
5.433033 -5.6612558 -1.7549274 4293729569
5.3094482 -5.517767 -1.7645793 4293729569
5.1898746 -5.3782797 -1.7732587 4293729569
9.2512054 -7.4286594 -1.6303623 4293729569
5.1125259 -5.2614107 -1.7867455 4293729569
8.9336758 -7.1575804 -1.6313145 4293729569
5.0200596 -5.1367321 -1.7963076 4293729569
8.6492786 -6.9052753 -1.6331401 4293729569
4.9527168 -5.0268507 -1.8077879 4293729569
5.3439999 -5.1152287 -1.2897255 4293729569
4.9044495 -4.9258308 -1.820147 4293729569
5.3862686 -5.0582876 -1.3165643 4293729569
4.8471222 -4.8209143 -1.8305709 4288085770
7.8783073 -6.2130985 -1.6287479 4293729569
4.8058662 -4.7248745 -1.8419275 4288085770
7.6129036 -5.9858961 -1.6218531 4293729569
4.7585392 -4.625947 -1.8503201 4288085770
7.4811554 -5.8275595 -1.6272802 4293729569
4.7675152 -4.5534801 -1.8663645 4288085770
7.4086666 -5.6967411 -1.6373315 4293729569
4.8620396 -4.5230989 -1.8979292 4288085770
7.3080082 -5.5532169 -1.6425695 4293729569
4.8659401 -4.4467373 -1.9109664 4288085770
7.2284412 -5.4215403 -1.6487246 4293729569
4.7480793 -4.3136826 -1.9017665 4288085770
7.1639156 -5.296772 -1.6547813 4293729569
4.6533089 -4.1934624 -1.8934722 4288085770
7.0993519 -5.1730518 -1.6588643 4293729569
4.5515175 -4.0713081 -1.8842552 4288085770
7.0337811 -5.0493641 -1.6619654 4293729569
4.4808693 -3.9638917 -1.8778477 4288085770
6.9953156 -4.9374619 -1.6668744 4293729569
4.423296 -3.8633468 -1.8733776 4288085770
6.9387321 -4.8207932 -1.6669877 4293729569
4.3767548 -3.7677352 -1.8688321 4288085770
6.929369 -4.7226906 -1.6727185 4293729569
4.3412762 -3.6790307 -1.8652608 4288085770
6.937048 -4.63451 -1.6773901 4293729569
4.3068085 -3.5923202 -1.8617208 4288085770
7.0773735 -4.5970592 -1.6999533 4293729569
4.2803459 -3.5065625 -1.8580608 4288085770
7.3221378 -4.5966845 -1.7335711 4293729569
4.2649174 -3.4267371 -1.8543506 4288085770
7.5970268 -4.6050301 -1.7708671 4288085770
4.2454548 -3.3439617 -1.8496389 4288085770
7.8517532 -4.6016216 -1.80323 4288085770
4.2310162 -3.2651548 -1.8449359 4288085770
7.9336052 -4.530899 -1.8110073 4288085770
4.2346554 -3.1931899 -1.8420796 4288085770
7.9511585 -4.4377851 -1.8103766 4288085770
4.2493439 -3.1261334 -1.840148 4288085770
7.9706783 -4.3447094 -1.8077106 4288085770
4.2529449 -3.0542185 -1.8352926 4288085770
7.988142 -4.25072 -1.8020575 4288085770
4.2645607 -2.9842558 -1.8303421 4288085770
7.9985638 -4.1537981 -1.7954571 4288085770
4.2932701 -2.9211154 -1.8282564 4288085770
8.0381031 -4.0666285 -1.7915783 4288085770
4.3138847 -2.8551226 -1.8222427 4288085770
8.0745754 -3.9785497 -1.7847307 4288085770
4.3656673 -2.7977953 -1.8218884 4288085770
8.1321316 -3.8972948 -1.7796755 4288085770
4.4033508 -2.7366509 -1.8176904 4288085770
8.1906471 -3.8160856 -1.7726033 4288085770
4.4359932 -2.674587 -1.8115585 4288085770
8.2772579 -3.7416337 -1.7681966 4288085770
4.4927502 -2.6192789 -1.8091645 4288085770
8.3558292 -3.6662791 -1.7619107 4288085770
4.5544872 -2.5639663 -1.8056803 4288085770
8.4373531 -3.5889561 -1.7535219 4288085770
4.6162071 -2.5086784 -1.8011966 4288085770
8.5479832 -3.5213854 -1.7478552 4288085770
4.68293 -2.4543614 -1.7966473 4288085770
8.6776199 -3.4547026 -1.7418692 4288085770
4.76371 -2.4029107 -1.7939181 4288085770
8.8062286 -3.389075 -1.7339272 4288085770
4.8444481 -2.3515103 -1.7891901 4288085770
8.9558926 -3.3272724 -1.7277038 4288085770
4.9342136 -2.3010314 -1.7853234 4288085770
9.087429 -3.2587028 -1.7166348 4288085770
5.0269508 -2.2495604 -1.7803779 4288085770
9.3283081 -3.2131844 -1.7161832 4288085770
5.1277027 -2.2000408 -1.7753375 4288085770
9.4888821 -3.1484177 -1.7056882 4288085770
5.2424736 -2.1514142 -1.7710683 4288085770
9.7246494 -3.0990543 -1.7002304 4288085770
5.3602409 -2.104794 -1.7657948 4288085770
9.9603825 -3.0467176 -1.6936984 4288085770
5.4819679 -2.0551767 -1.7593751 4288085770
10.203058 -2.9923902 -1.6849918 4288085770
5.6408291 -2.0132134 -1.7574821 4288085770
10.504854 -2.9466124 -1.6794388 4288085770
5.8096886 -1.9711919 -1.7554083 4288085770
10.771475 -2.8912184 -1.6672747 4288085770
5.9624481 -1.9243662 -1.7495019 4288085770
11.095209 -2.8443868 -1.6583006 4288085770
6.1191921 -1.8775415 -1.7425234 4288085770
11.455 -2.8012924 -1.6507738 4288085770
6.3210583 -1.8373258 -1.7399025 4288085770
11.832735 -2.7561421 -1.6408727 4288085770
6.499794 -1.7903717 -1.7325263 4288085770
12.214411 -2.7090445 -1.6278512 4288085770
6.7186356 -1.7490809 -1.7285733 4288085770
12.581957 -2.6541307 -1.6108868 4288085770
6.9574738 -1.7076726 -1.7242589 4288085770
13.115812 -2.6189599 -1.6024351 4288085770
7.169157 -1.6585755 -1.7142372 4288085770
13.596426 -2.5713296 -1.5856242 4288085770
7.4390106 -1.6179595 -1.7103865 4288085770
14.189222 -2.5348623 -1.5740819 4288085770
7.7047634 -1.5724688 -1.702486 4288085770
14.801954 -2.4963522 -1.5591295 4288085770
8.0176067 -1.5306005 -1.6978331 4288085770
8.3594723 -1.4905362 -1.6937044 4288085770
8.6741676 -1.4428082 -1.6828694 4288085770
9.0208683 -1.393867 -1.6724303 4288085770
9.3725262 -1.3439471 -1.6598771 4288085770
9.7471294 -1.2919421 -1.6448593 4288085770
10.146727 -1.2387911 -1.6293647 4288085770
10.56027 -1.1836083 -1.6115682 4288085770
11.050859 -1.1288974 -1.5954027 4288085770
11.555372 -1.0711807 -1.5759113 4288085770
12.157976 -1.0157617 -1.5597196 4288085770
12.734423 -0.95367312 -1.5368278 4288085770
13.525076 -0.89602542 -1.5222089 4288085770
14.303534 -0.82965064 -1.4995883 4288085770
15.193029 -0.76354873 -1.4779835 4288085770
14.177767 1.4395367 -1.3884969 4288085770
13.303717 1.4894884 -1.4039328 4288085770
12.538694 1.5411439 -1.4203722 4288085770
11.84067 1.5861387 -1.4337747 4288085770
11.17161 1.6302521 -1.4446788 4288085770
10.584555 1.6738641 -1.4551244 4288085770
10.025492 1.7125899 -1.4631889 4288085770
9.5354557 1.7547874 -1.47293 4288085770
9.0803947 1.7941383 -1.4801137 4288085770
8.6513386 1.8316401 -1.486877 4288085770
8.2572727 1.8693449 -1.4930077 4288085770
7.9092522 1.9083886 -1.5012803 4288085770
7.5972176 1.9486396 -1.5088773 4288085770
14.510702 2.9234784 -1.3315816 4288085770
7.2751503 1.9857599 -1.513731 4288085770
13.789782 2.9463005 -1.3439456 4288085770
6.9870949 2.0231009 -1.5189695 4288085770
13.156862 2.9726791 -1.3566437 4288085770
6.7110386 2.0605116 -1.5239909 4288085770
12.58592 3.0014153 -1.3681713 4288085770
6.4679699 2.099112 -1.5283911 4288085770
12.05298 3.0293705 -1.3790365 4288085770
6.20788 2.1325417 -1.5302236 4288085770
11.595991 3.0647869 -1.3893542 4288085770
6.0008297 2.1703753 -1.5349975 4288085770
11.102991 3.0868509 -1.3946474 4288085770
5.8057804 2.2103024 -1.540504 4288085770
10.697992 3.1215432 -1.4030499 4288085770
5.6117058 2.2481861 -1.5440431 4288085770
10.288958 3.1491151 -1.4077003 4288085770
5.4406376 2.2882268 -1.5481162 4288085770
9.95994 3.1902933 -1.4165792 4288085770
5.2585506 2.3251557 -1.5504634 4288085770
9.6238937 3.2243342 -1.4217603 4288085770
5.1134911 2.3663707 -1.5550416 4288085770
9.3258343 3.2626173 -1.4271548 4288085770
4.9663963 2.4065251 -1.5576813 4288085770
9.0647812 3.3051624 -1.4337802 4288085770
4.8313141 2.4477735 -1.5610788 4288085770
8.8177052 3.3477638 -1.439153 4288085770
4.6892052 2.4839087 -1.5617282 4288085770
8.5886269 3.3934927 -1.4451256 4288085770
4.5550823 2.5230885 -1.5621588 4288085770
8.3935413 3.442441 -1.4514089 4288085770
4.4339561 2.5623436 -1.5623541 4288085770
8.1704121 3.4841065 -1.4533739 4288085770
4.3128281 2.6015987 -1.5625498 4288085770
7.9932823 3.5341091 -1.4573078 4288085770
4.2107162 2.6440122 -1.5643263 4288085770
7.8211555 3.5831404 -1.4611762 4288085770
4.1265965 2.6905572 -1.5666785 4288085770
7.651001 3.6321387 -1.4630096 4288085770
4.0344582 2.7340031 -1.56725 4288085770
7.521841 3.6884403 -1.4669266 4288085770
3.9433136 2.7754307 -1.5668535 4288085770
7.378664 3.739589 -1.4682217 4288085770
3.8681755 2.8209989 -1.5680676 4288085770
7.2524853 3.7958832 -1.4710846 4288085770
3.8090439 2.871707 -1.5708675 4288085770
7.1392746 3.8542271 -1.4726636 4288085770
3.7468853 2.9203491 -1.5717723 4288085770
7.0490665 3.9177516 -1.4757018 4288085770
3.6827183 2.9679551 -1.5717385 4288085770
6.9398174 3.9740443 -1.4742594 4288085770
3.6215305 3.0155532 -1.5706508 4288085770
6.8675804 4.0416708 -1.4768734 4288085770
3.5723419 3.0662451 -1.5702715 4288085770
6.793314 4.1082368 -1.4775491 4288085770
3.5451717 3.1251597 -1.5732944 4288085770
6.7580452 4.1861224 -1.481245 4288085770
3.4959679 3.1748264 -1.5719402 4288085770
6.7577438 4.2772799 -1.4869852 4288085770
3.4597511 3.2295914 -1.5712268 4288085770
6.6954269 4.3458648 -1.4853952 4288085770
3.4425488 3.2905381 -1.5730197 4288085770
6.6891003 4.4349389 -1.4892943 4288085770
3.4413471 3.3566251 -1.5763986 4288085770
6.6827297 4.5229387 -1.4902194 4288085770
3.4110851 3.4123745 -1.5735528 4288085770
6.6693611 4.6078744 -1.4903457 4288085770
3.4188614 3.4825118 -1.5766699 4288085770
6.6689682 4.6989079 -1.4910879 4288085770
3.4065895 3.5454121 -1.5753243 4288085770
6.6785259 4.7949715 -1.4905262 4288085770
3.4213238 3.6185637 -1.5772409 4288085770
6.6890736 4.8900166 -1.4889715 4288085770
3.4140224 3.6834674 -1.5747559 4288085770
6.6745949 4.9747972 -1.4831188 4288085770
3.4227238 3.7535107 -1.5738568 4288085770
6.6940975 5.0738678 -1.4803028 4288085770
3.4373989 3.8275874 -1.5727501 4288085770
6.7105465 5.1728468 -1.4745424 4288085770
3.4640713 3.9077804 -1.5732768 4288085770
6.7439804 5.2799702 -1.4702752 4288085770
3.4827156 3.9838548 -1.5710485 4288085770
6.8013878 5.3962784 -1.4673505 4288085770
3.522356 4.0691209 -1.5712166 4288085770
6.8647442 5.5175953 -1.4631939 4288085770
3.5549545 4.1522732 -1.5685618 4288085770
6.9560795 5.6511431 -1.4612324 4288085770
3.6115532 4.2466588 -1.5691988 4288085770
7.1073246 5.8151741 -1.4634399 4288085770
3.6791153 4.3491297 -1.5704384 4288085770
7.2515221 5.9780903 -1.4628005 4288085770
3.7676506 4.4607687 -1.5730743 4288085770
7.4266338 6.1592293 -1.4631536 4288085770
3.8691711 4.5815287 -1.5772512 4288085770
7.6476898 6.3637486 -1.4671028 4288085770
3.9526329 4.6940384 -1.5759547 4288085770
7.8636703 6.5691385 -1.4671195 4288085770
4.0270767 4.8014231 -1.5719461 4288085770
8.0706043 6.7734032 -1.4643252 4288085770
4.1074867 4.9138412 -1.5677052 4288085770
8.2635059 6.9714899 -1.4579344 4288085770
4.1898689 5.028245 -1.5623789 4288085770
8.4283504 7.1592445 -1.4453008 4288085770
4.244215 5.1283178 -1.550909 4288085770
8.6350975 7.370306 -1.4343367 4288085770
4.3445263 5.2538204 -1.5449848 4288085770
8.86376 7.5944901 -1.4226527 4288085770
4.4357967 5.3741741 -1.5353491 4288085770
9.1712532 7.8652859 -1.4153976 4288085770
4.5790215 5.5240154 -1.5320508 4288085770
9.4506836 8.1227264 -1.4009745 4288085770
4.7102089 5.6686897 -1.5250955 4288085770
4.9112968 5.8539762 -1.5248795 4288085770
5.1223526 6.0473423 -1.5252838 4288085770
5.3753185 6.2660398 -1.5283077 4288085770
5.6421661 6.4977636 -1.5287571 4288085770
5.9009476 6.7253189 -1.5244529 4288085770
6.1237087 6.934473 -1.5132489 4288085770
6.3503933 7.146575 -1.4988997 4288085770
6.6149788 7.3829613 -1.4862676 4288085770
6.8974609 7.6324215 -1.4719884 4288085770
7.2677193 7.9395666 -1.4627023 4288085770
7.5819969 8.2131271 -1.4442513 4288085770
14.978716 -0.300237 -1.4515135 4288085770
13.7083 -0.33735991 -1.4782298 4288085770
12.59384 -0.36857581 -1.5030017 4288085770
11.561285 -0.39440286 -1.5231686 4288085770
10.700792 -0.41810703 -1.5461988 4288085770
9.8711567 -0.43578637 -1.5625229 4288085770
9.1425438 -0.4518193 -1.5799947 4288085770
8.4859066 -0.46444535 -1.596091 4288085770
7.8411732 -0.47410333 -1.6078978 4288085770
13.978296 -0.82051158 -1.4974153 4288085770
7.3045597 -0.48497534 -1.6247985 4288085770
12.71348 -0.8047117 -1.5187123 4288085770
6.7828236 -0.49088788 -1.6363065 4288085770
11.685774 -0.79441917 -1.5418954 4288085770
6.3231602 -0.49834943 -1.6507416 4288085770
10.714983 -0.78087914 -1.5609753 4288085770
5.8784237 -0.50280118 -1.6618323 4288085770
9.8732395 -0.76953316 -1.580796 4288085770
5.4817295 -0.50690663 -1.6750541 4288085770
9.1024265 -0.75686026 -1.5963099 4288085770
5.1080036 -0.50890708 -1.6868112 4288085770
8.399601 -0.74380195 -1.6105945 4288085770
4.7482319 -0.5098784 -1.696291 4288085770
7.7788029 -0.73122966 -1.6254208 4288085770
4.4224892 -0.51060748 -1.7071557 4288085770
7.1929436 -0.71853387 -1.6366155 4288085770
4.1026611 -0.50940228 -1.7138638 4288085770
6.6801567 -0.7073245 -1.6505384 4288085770
3.809885 -0.50796974 -1.7230825 4288085770
6.2153797 -0.69581878 -1.6645932 4288085770
3.5310879 -0.50648284 -1.7310488 4288085770
5.7645416 -0.68430829 -1.6753962 4288085770
3.2853451 -0.50470865 -1.7424169 4288085770
5.3617268 -0.67247522 -1.6873307 4288085770
3.0325108 -0.50109971 -1.7488639 4288085770
4.9798965 -0.66054916 -1.697886 4288085770
2.8278313 -0.50001943 -1.7625141 4288085770
4.6060066 -0.64765239 -1.7052732 4288085770
2.5779057 -0.49349368 -1.7648346 4288085770
4.2691441 -0.63449669 -1.7139907 4288085770
