# .PCD v0.7 - Point Cloud Data file format
VERSION 0.7
FIELDS x y z rgb
SIZE 4 4 4 4
TYPE F F F U
COUNT 1 1 1 1
WIDTH 1108
HEIGHT 1
VIEWPOINT 0 0 0 1 0 0 0
POINTS 1108
DATA ascii
2.8806458 1.4883623 -1.7644463 4288085770
1.2572632 1.2852583 -1.7718928 4288085770
3.1788635 1.5046387 -1.7622283 4288085770
1.4754028 1.293735 -1.7737424 4288085770
3.4989929 1.5208583 -1.7589979 4288085770
1.7215881 1.3041544 -1.7785699 4288085770
3.8551636 1.5390024 -1.759742 4288085770
1.9347229 1.3086247 -1.7734318 4288085770
4.2433777 1.5580707 -1.7604649 4288085770
2.1618347 1.3120675 -1.7702887 4288085770
4.6415405 1.5761104 -1.7591844 4288085770
2.4039612 1.3154688 -1.7651365 4288085770
5.0957031 1.5970259 -1.7618642 4288085770
2.6791382 1.3208075 -1.7659602 4288085770
5.5698853 1.6168857 -1.7615354 4288085770
2.9732361 1.326098 -1.7657731 4288085770
6.0990601 1.6376209 -1.7641723 4288085770
3.2723694 1.3293729 -1.7645884 4288085770
6.6452637 1.6573095 -1.7638013 4288085770
3.6115417 1.3335614 -1.7663777 4288085770
7.2584229 1.6798425 -1.7653844 4288085770
3.9406738 1.3347626 -1.7641804 4288085770
7.9205933 1.7012582 -1.7669418 4288085770
4.3057861 1.3358808 -1.7629626 4288085770
8.6678162 1.7254753 -1.7704427 4288085770
4.6969299 1.3369422 -1.7637298 4288085770
9.5069885 1.7524819 -1.7768829 4288085770
5.1230469 1.3369217 -1.7654796 4288085770
10.438202 1.7802672 -1.7832675 4288085770
5.577179 1.3358321 -1.7662156 4288085770
11.446411 1.8068604 -1.7866104 4288085770
6.0582886 1.3326759 -1.7659419 4288085770
12.621613 1.8390713 -1.7958424 4288085770
6.5714111 1.3274446 -1.7666538 4288085770
13.796783 1.8602443 -1.7911017 4288085770
7.1575317 1.3230457 -1.7693217 4288085770
7.7866211 1.3165455 -1.7729695 4288085770
8.4587402 1.30794 -1.7755978 4288085770
9.2308655 1.2981062 -1.782171 4288085770
10.047974 1.2831569 -1.7857311 4288085770
10.956055 1.2669921 -1.790241 4288085770
11.896149 1.2427378 -1.7897532 4288085770
13.051208 1.2199984 -1.8001366 4288085770
14.131256 1.1833925 -1.7935984 4288085770
1.5758972 -4.7529936 -0.052979469 4293729569
1.5420532 -4.7608099 -0.09301424 4293729569
1.505188 -4.7656174 -0.13404298 4293729569
1.5002747 -4.7905011 -0.1751045 4293729569
1.4893799 -4.8083677 -0.2171514 4293729569
1.4844666 -4.8302464 -0.26020491 4293729569
1.4755859 -4.8461165 -0.30224454 4293729569
1.4747009 -4.8660049 -0.34529018 4293729569
1.4658508 -4.877871 -0.38931966 4293729569
1.4699402 -4.8967705 -0.43235898 4293729569
1.4597778 -4.8918281 -0.03134656 4293729569
1.4750366 -4.9136672 -0.47739244 4293729569
1.4638672 -4.903728 -0.074367285 4293729569
1.4661865 -4.9195328 -0.5214057 4293729569
1.4729919 -4.9166346 -0.11938691 4293729569
1.4573364 -4.9233999 -0.56541324 4293729569
1.4641418 -4.9155006 -0.16338134 4293729569
1.4544983 -4.9292798 -0.60942221 4293729569
1.4673157 -4.9203978 -0.20638382 4293729569
1.4466553 -4.9291482 -0.65341878 4293729569
1.464447 -4.9192781 -0.25037408 4293729569
1.4458008 -4.9320307 -0.69841838 4293729569
1.4686279 -4.9211755 -0.29436755 4293729569
1.4499207 -4.9359283 -0.74241757 4293729569
1.4657898 -4.9150562 -0.33834434 4293729569
1.4371338 -4.9257874 -0.78539014 4293729569
1.460968 -4.9059348 -0.38131452 4293729569
1.4422607 -4.9266844 -0.83038044 4293729569
1.4631348 -4.8988266 -0.4252851 4293729569
1.4354858 -4.9165583 -0.87334919 4293729569
1.4623108 -4.8887129 -0.4692502 4293729569
1.4476318 -4.917469 -0.91933489 4293729569
1.4614868 -4.8746004 -0.51220417 4293729569
1.4378357 -4.9003382 -0.96128678 4293729569
1.468689 -4.8655105 -0.55416584 4293729569
1.4370117 -4.8882265 -1.004246 4293729569
1.473877 -4.8534155 -0.59612083 4293729569
1.4651489 -4.8931732 -1.0512316 4293729569
1.4790649 -4.8373184 -0.6390655 4293729569
1.458374 -4.8730521 -1.0921736 4293729569
1.5062256 -4.8362727 -0.68203568 4293729569
1.4605713 -4.8559532 -1.1331174 4293729569
1.5184021 -4.8221974 -0.72298074 4293729569
1.4787292 -4.8478847 -1.1770749 4293729569
1.562561 -4.82619 -0.76695204 4293729569
1.5078735 -4.8458381 -1.2220404 4293729569
5.3578796 -7.3831182 -1.2011881 4293729569
1.5350647 -4.838788 -1.266994 4293729569
5.3990784 -7.3670506 -1.2651041 4293729569
1.5742493 -4.8387632 -1.3129575 4293729569
5.4742737 -7.3720579 -1.3310523 4293729569
4.0487366 -6.4944162 -1.7886803 4293729569
5.5164795 -7.3510013 -1.3919537 4293729569
3.7264709 -6.235673 -1.7801976 4293729569
5.6365662 -7.3781033 -1.46293 4293729569
3.4511414 -6.0070281 -1.7767639 4293729569
5.7557068 -7.4022055 -1.5328987 4293729569
3.1887817 -5.7894197 -1.7713511 4293729569
5.8838196 -7.4283295 -1.6028664 4293729569
2.9084473 -5.5597901 -1.7579193 4293729569
6.0289307 -7.4604864 -1.675838 4293729569
2.6680298 -5.3562427 -1.7495306 4293729569
6.104126 -7.4445024 -1.738729 4293729569
2.4606018 -5.1757622 -1.7451808 4293729569
5.8638 -7.2248902 -1.7542939 4293729569
2.262146 -5.0013099 -1.7388415 4293729569
5.6314392 -7.0093055 -1.7668645 4293729569
2.1455688 -4.8790121 -1.7475853 4293729569
5.3561401 -6.767642 -1.7703958 4293729569
2.0509644 -4.7717595 -1.7593539 4293729569
5.0768433 -6.5249825 -1.7689278 4293729569
1.9473877 -4.6574988 -1.7661109 4293729569
4.8245239 -6.3013868 -1.7674928 4293729569
1.8268127 -4.5332103 -1.7678528 4293729569
4.5811462 -6.084816 -1.7650707 4293729569
1.6932373 -4.400908 -1.7635827 4293729569
4.3287964 -5.8652396 -1.7566471 4293729569
1.567688 -4.2746215 -1.760323 4293729569
3.9995422 -5.6005197 -1.7331572 4293729569
1.4561157 -4.1563654 -1.7580755 4293729569
2.8283691 -4.8461914 -1.5579495 4293729569
1.3934326 -4.0692034 -1.7648773 4293729569
2.844635 -4.7941608 -1.585788 4293729569
1.4645996 -4.060277 -1.8027937 4293729569
2.8588867 -4.7411308 -1.6116254 4293729569
1.5557556 -4.0603876 -1.8447206 4288085770
2.8991699 -4.7011499 -1.6424789 4293729569
1.6309509 -4.0494738 -1.8816288 4288085770
3.2450256 -4.8317518 -1.7285731 4293729569
1.5982361 -3.975374 -1.8914442 4288085770
3.1304626 -4.7004871 -1.7272918 4293729569
1.5236206 -3.8772068 -1.8892248 4288085770
3.040863 -4.58427 -1.7300329 4293729569
1.4359741 -3.7720194 -1.8829961 4288085770
2.965271 -4.477087 -1.732789 4293729569
1.3413696 -3.6648285 -1.8717673 4288085770
2.9066162 -4.3789392 -1.7375572 4293729569
1.2837219 -3.577702 -1.869566 4288085770
2.867981 -4.291831 -1.7453406 4293729569
1.2280273 -3.4915829 -1.8663661 4288085770
2.8262939 -4.2027235 -1.7501211 4293729569
1.1863403 -3.4134889 -1.866178 4288085770
2.8276367 -4.1356974 -1.7629297 4293729569
1.1526184 -3.3404143 -1.8659978 4288085770
2.9438171 -4.1258898 -1.7968097 4293729569
1.1049805 -3.2593188 -1.8608057 4288085770
3.085968 -4.126133 -1.8346972 4288085770
1.0762634 -3.1882591 -1.8596272 4288085770
3.2210999 -4.1213655 -1.8705766 4288085770
1.0535278 -3.1222105 -1.859458 4288085770
3.2783508 -4.077457 -1.8894067 4288085770
1.027832 -3.0531633 -1.8562827 4288085770
3.2366943 -3.985369 -1.8871789 4288085770
1.019104 -2.9941421 -1.8581221 4288085770
3.1770325 -3.8862538 -1.8789456 4288085770
1.0133667 -2.9351315 -1.8589597 4288085770
3.1164246 -3.7881358 -1.8707156 4288085770
1.0076294 -2.8761265 -1.8577971 4288085770
3.0907288 -3.7050879 -1.8675008 4288085770
1.0049133 -2.8191237 -1.8586378 4288085770
3.0830383 -3.6310785 -1.8662972 4288085770
1.0071716 -2.7641366 -1.85748 4288085770
3.0523682 -3.5460277 -1.8600812 4288085770
1.0064392 -2.7061439 -1.8563166 4288085770
3.0446777 -3.4720197 -1.8578775 4288085770
1.0236816 -2.6571858 -1.8581643 4288085770
3.0489502 -3.4030414 -1.8556788 4288085770
1.0319519 -2.6052134 -1.8570101 4288085770
3.0532837 -3.3340621 -1.8534796 4288085770
1.0511475 -2.5562625 -1.8578568 4288085770
3.0895081 -3.2781498 -1.855293 4288085770
1.0684204 -2.5063133 -1.8567014 4288085770
3.1128235 -3.2162116 -1.8550987 4288085770
1.0896912 -2.4583719 -1.8555486 4288085770
3.1470642 -3.1603022 -1.8539133 4288085770
1.1119385 -2.4114337 -1.854398 4288085770
3.1843262 -3.1033936 -1.8547227 4288085770
1.1381531 -2.3645053 -1.8532445 4288085770
3.2365723 -3.0525219 -1.8555372 4288085770
1.181366 -2.3246088 -1.8550971 4288085770
3.2838135 -2.9996436 -1.8543496 4288085770
1.2205811 -2.2827063 -1.8559473 4288085770
3.3400879 -2.9487836 -1.8541608 4288085770
1.2518311 -2.2387922 -1.8537977 4288085770
3.3953247 -2.8979247 -1.8529727 4288085770
1.3040466 -2.1999164 -1.8556461 4288085770
3.4425659 -2.844054 -1.8487823 4288085770
1.3452759 -2.1580269 -1.8534946 4288085770
3.5118103 -2.795228 -1.8475893 4288085770
1.39151 -2.1161489 -1.8513391 4288085770
3.5870667 -2.7484169 -1.8463967 4288085770
1.4377441 -2.0742741 -1.8481836 4288085770
3.6792908 -2.7056398 -1.8472023 4288085770
1.5089417 -2.0404415 -1.8510311 4288085770
3.7575378 -2.6578407 -1.8440046 4288085770
1.5681763 -2.0005908 -1.8498712 4288085770
3.8667603 -2.6181066 -1.8448052 4288085770
1.6354065 -1.9637613 -1.8487132 4288085770
3.9819641 -2.5803821 -1.8466067 4288085770
1.7085876 -1.9289417 -1.8485558 4288085770
4.0892029 -2.5386491 -1.8444028 4288085770
1.7877808 -1.8951344 -1.8493972 4288085770
4.201416 -2.4979296 -1.8421981 4288085770
1.8590393 -1.856318 -1.84623 4288085770
4.3276672 -2.4582403 -1.8409851 4288085770
1.9442139 -1.8225288 -1.8460667 4288085770
4.467865 -2.4225802 -1.8407724 4288085770
2.0234375 -1.7857313 -1.8428993 4288085770
4.6220398 -2.3889551 -1.8405552 4288085770
2.1446228 -1.7600131 -1.8477297 4288085770
4.7802734 -2.3543394 -1.8403308 4288085770
2.2328491 -1.7232385 -1.8445551 4288085770
4.9674988 -2.3247843 -1.8430977 4288085770
2.3520203 -1.6935239 -1.8463757 4288085770
5.1416931 -2.2902129 -1.8408611 4288085770
2.4512939 -1.6587782 -1.8421977 4288085770
5.3078918 -2.2526271 -1.8366222 4288085770
2.5534668 -1.6240363 -1.8390174 4288085770
5.5001221 -2.2190986 -1.8343737 4288085770
2.6856689 -1.593358 -1.838825 4288085770
5.7553101 -2.1957011 -1.8391044 4288085770
2.803894 -1.5606546 -1.8356373 4288085770
6.0144958 -2.1723156 -1.8428314 4288085770
2.9480591 -1.530005 -1.8354356 4288085770
6.2686768 -2.1449265 -1.8435509 4288085770
3.0822754 -1.4973407 -1.8322356 4288085770
6.5379028 -2.1165791 -1.8422561 4288085770
3.2275085 -1.4647017 -1.8290269 4288085770
6.8500671 -2.0933242 -1.8449416 4288085770
3.3807068 -1.4330821 -1.8258147 4288085770
7.1732483 -2.0690975 -1.8466153 4288085770
3.5658875 -1.4055276 -1.8265884 4288085770
7.5474243 -2.0499816 -1.8522632 4288085770
3.7680664 -1.3780117 -1.8283491 4288085770
7.8946228 -2.0238233 -1.8499122 4288085770
3.9572754 -1.3464761 -1.8261082 4288085770
8.3168335 -2.0048261 -1.8545218 4288085770
4.15448 -1.3159614 -1.8228641 4288085770
8.756012 -1.9848762 -1.8561153 4288085770
4.4026794 -1.2905493 -1.8265941 4288085770
9.2761536 -1.9711018 -1.8646634 4288085770
4.6358643 -1.2601185 -1.8243213 4288085770
9.84729 -1.9604502 -1.8731782 4288085770
4.9090576 -1.2337699 -1.8270285 4288085770
10.373474 -1.9377193 -1.8706942 4288085770
5.1922607 -1.2054496 -1.8277216 4288085770
10.942688 -1.9150887 -1.8691757 4288085770
5.4944458 -1.177176 -1.8283997 4288085770
11.588837 -1.8956409 -1.8686059 4288085770
5.8176575 -1.148952 -1.829061 4288085770
12.384003 -1.888525 -1.8769522 4288085770
6.1898499 -1.1238313 -1.8346925 4288085770
13.107178 -1.8652711 -1.8723092 4288085770
6.5150452 -1.0896297 -1.829335 4288085770
14.011322 -1.8544273 -1.8755577 4288085770
6.9542542 -1.0646663 -1.8359132 4288085770
7.3744812 -1.0326805 -1.8344862 4288085770
7.8536682 -1.0028243 -1.8370183 4288085770
8.3318481 -0.96798134 -1.8335369 4288085770
8.8980713 -0.93633461 -1.8359945 4288085770
9.5322876 -0.90584326 -1.8404005 4288085770
10.20752 -0.8704586 -1.8417602 4288085770
10.929718 -0.83319139 -1.8410764 4288085770
11.716919 -0.79408312 -1.8393362 4288085770
12.619171 -0.75424147 -1.8405008 4288085770
13.569427 -0.7075305 -1.835608 4288085770
14.159576 1.9965549 -1.7771592 4288085770
13.581879 2.0739427 -1.7834954 4288085770
12.961151 2.1404119 -1.7809024 4288085770
12.401459 2.2057376 -1.7792544 4288085770
11.870758 2.2669902 -1.7765901 4288085770
11.379974 2.3281474 -1.7738886 4288085770
10.958252 2.3921494 -1.7741129 4288085770
10.472473 2.4442735 -1.7644315 4288085770
10.064758 2.499228 -1.75968 4288085770
9.6960144 2.5550904 -1.7558885 4288085770
9.3262634 2.6069493 -1.7491088 4288085770
9.0435181 2.6666179 -1.7492242 4288085770
8.7387695 2.7193246 -1.7433789 4288085770
8.4660034 2.7749619 -1.7404952 4288085770
8.1972656 2.8285851 -1.7356124 4288085770
7.9715271 2.8861098 -1.7326779 4288085770
7.7947998 2.9505315 -1.7346778 4288085770
7.6090698 3.0109668 -1.7336969 4288085770
7.4113464 3.0674224 -1.729738 4288085770
7.2796021 3.1357388 -1.7326841 4288085770
7.1128845 3.1941218 -1.7286901 4288085770
6.986145 3.2604203 -1.7296364 4288085770
6.8534241 3.3247275 -1.7275937 4288085770
6.7416992 3.3919845 -1.7265232 4288085770
6.6680603 3.4661641 -1.7293971 4288085770
14.296783 5.4080071 -1.7358832 4288085770
6.5763245 3.5353751 -1.7283018 4288085770
14.108093 5.5074487 -1.734802 4288085770
2.3994446 2.5038095 -1.164067 4293729569
13.879456 5.5939746 -1.7287934 4288085770
2.3606567 2.5558982 -1.1649656 4293729569
2.6375122 2.6301665 -0.76550031 4293729569
2.0336914 2.5245624 -1.1243637 4293729569
2.3996582 2.6256824 -0.74874091 4293729569
1.7667542 2.5071073 -1.0916667 4293729569
2.2267761 2.6370568 -0.73587704 4293729569
1.6208801 2.5224042 -1.0747662 4293729569
2.0358887 2.6404691 -0.72205162 4293729569
1.4259949 2.5207963 -1.0499578 4293729569
1.8470154 2.6438718 -0.7062242 4293729569
1.2711182 2.5271039 -1.0290897 4293729569
1.716156 2.6601481 -0.69530678 4293729569
1.12323 2.5343976 -1.0092123 4293729569
1.583313 2.6744275 -0.68339586 4293729569
0.9793396 2.5406823 -0.98933363 4293729569
1.438446 2.6837296 -0.66951013 4293729569
0.84545898 2.5479455 -0.97044277 4293729569
1.2835693 2.6860509 -0.65365314 4293729569
0.71661377 2.5551944 -0.95054722 4293729569
1.1457214 2.6933379 -0.63976598 4293729569
0.59674072 2.5634236 -0.93163991 4293729569
0.98480225 2.6896682 -0.62192988 4293729569
0.47888184 2.5706487 -0.91273379 4293729569
0.85693359 2.6959262 -0.60703611 4293729569
0.3710022 2.5798488 -0.89381242 4293729569
0.76708984 2.7141032 -0.59507346 4293729569
0.27410889 2.5920291 -0.87687278 4293729569
0.66223145 2.7253089 -0.58014393 4293729569
0.1942749 2.6091723 -0.8609035 4293729569
0.54232788 2.7295451 -0.56424785 4293729569
0.098419189 2.6183457 -0.84297085 4293729569
0.47351074 2.7526717 -0.55225182 4293729569
0.018554688 2.6334872 -0.82600665 4293729569
0.40768433 2.7747884 -0.53925562 4293729569
-0.086364746 2.635675 -0.80510139 4293729569
0.33682251 2.7939172 -0.5262723 4293729569
-0.12619019 2.6647296 -0.79206157 4293729569
0.18692017 2.7802138 -0.50545239 4293729569
-0.18099976 2.6868148 -0.77705479 4293729569
0.13607788 2.8052945 -0.49243402 4293729569
-0.27786255 2.6889844 -0.75614142 4293729569
0.19537354 2.8771348 -0.48718548 4293729569
-0.31668091 2.715034 -0.74210906 4293729569
0.18460083 2.9191251 -0.47608352 4293729569
-0.31851196 2.7570052 -0.73199868 4293729569
-0.28219604 2.8159003 -0.72680616 4293729569
0.18206787 3.0090556 -0.45184517 4293729569
-0.2829895 2.8578639 -0.71469498 4293729569
0.215271 3.0709434 -0.44164848 4293729569
-0.27478027 2.9048123 -0.70456147 4293729569
0.2986145 3.1557174 -0.43334222 4293729569
-0.27658081 2.9457765 -0.69145346 4293729569
0.30883789 3.2076497 -0.41919374 4293729569
-0.23727417 3.0076537 -0.6822505 4293729569
0.34912109 3.2735143 -0.40597916 4293729569
-0.25408936 3.0416455 -0.6661756 4293729569
0.33132935 3.3105044 -0.38889718 4293729569
-0.24688721 3.0865865 -0.65304852 4293729569
0.38262939 3.382339 -0.37465596 4293729569
-0.1725769 3.1663814 -0.64476395 4293729569
0.41290283 3.4432197 -0.35846448 4293729569
-0.17840576 3.2043452 -0.62766814 4293729569
0.46316528 3.5140481 -0.34122705 4293729569
-0.15612793 3.2572484 -0.61350513 4293729569
0.50942993 3.5838866 -0.32399631 4293729569
0.62878418 3.6925559 -0.30859208 4293729569
0.76318359 3.810184 -0.29114926 4293729569
0.77841187 3.8650832 -0.26898813 4293729569
0.050140381 3.5705171 -0.53347063 4293729569
0.040344238 3.6034732 -0.51039171 4293729569
0.11062622 3.6822534 -0.49311423 4293729569
0.15390015 3.7450881 -0.47190499 4293729569
0.21017456 3.8148942 -0.45066428 4293729569
0.27047729 3.8886876 -0.4294095 4293729569
0.38079834 3.9903646 -0.40903258 4293729569
0.42807007 4.0551791 -0.3838141 4293729569
13.365723 -0.28767443 -1.8130207 4288085770
12.083771 -0.300632 -1.8112216 4288085770
10.949921 -0.30994558 -1.8082776 4288085770
9.9970398 -0.31767321 -1.8111653 4288085770
9.0570984 -0.32045698 -1.8050268 4288085770
8.2432556 -0.32352972 -1.8027742 4288085770
7.5073547 -0.32379198 -1.7994435 4288085770
14.289734 -0.62389755 -1.8192129 4288085770
6.8604736 -0.32425833 -1.7990329 4288085770
12.819885 -0.59941769 -1.8134737 4288085770
6.2426147 -0.32280207 -1.7955894 4288085770
11.590057 -0.57749748 -1.8125248 4288085770
5.6877136 -0.31949234 -1.7930844 4288085770
10.513245 -0.55793428 -1.8134441 4288085770
5.2008667 -0.31833076 -1.7955229 4288085770
9.550415 -0.53764725 -1.8132582 4288085770
4.7209473 -0.31320333 -1.7919445 4288085770
8.6416016 -0.51650524 -1.8070202 4288085770
4.2891235 -0.30918169 -1.7913251 4288085770
7.8197632 -0.49657249 -1.7997072 4288085770
3.8962402 -0.3042531 -1.7906682 4288085770
7.1419067 -0.4789629 -1.8002713 4288085770
3.5283508 -0.29938459 -1.7899888 4288085770
6.5150757 -0.46247673 -1.7997921 4288085770
3.2135315 -0.29463005 -1.7942619 4288085770
5.9002686 -0.44303226 -1.7942929 4288085770
2.8796692 -0.2878437 -1.7925458 4288085770
5.3764038 -0.42779112 -1.7937243 4288085770
2.599823 -0.2821703 -1.7967839 4288085770
4.8985596 -0.41165733 -1.794111 4288085770
2.3339233 -0.27653217 -1.8010101 4288085770
4.4367371 -0.39556932 -1.7914834 4288085770
2.0630798 -0.2698946 -1.8002369 4288085770
4.033905 -0.38061428 -1.7918057 4288085770
1.8092346 -0.26129961 -1.7984436 4288085770
3.6580505 -0.36572504 -1.792104 4288085770
1.5693665 -0.25373602 -1.7976401 4288085770
3.3311768 -0.35294056 -1.7963645 4288085770
1.3475037 -0.24521255 -1.7978177 4288085770
2.9943542 -0.3381443 -1.7956276 4288085770
1.1366577 -0.23771572 -1.7979879 4288085770
2.6975098 -0.32444048 -1.7968578 4288085770
0.93777466 -0.22924757 -1.7981448 4288085770
2.4056702 -0.30975294 -1.7960806 4288085770
0.75094604 -0.22080421 -1.7992907 4288085770
2.1288452 -0.29509974 -1.7952895 4288085770
0.56008911 -0.21036291 -1.7964342 4288085770
1.8740234 -0.28150034 -1.7944815 4288085770
0.38925171 -0.20196104 -1.7965658 4288085770
1.6331482 -0.26693678 -1.792659 4288085770
0.24838257 -0.19461489 -1.8026736 4288085770
1.4223022 -0.25442886 -1.7968147 4288085770
0.070495605 -0.18321133 -1.7968023 4288085770
1.1914673 -0.23989725 -1.7919819 4288085770
-0.076324463 -0.17386389 -1.7979095 4288085770
1.0006104 -0.22644234 -1.7941175 4288085770
-0.2081604 -0.16454983 -1.8000033 4288085770
0.82077026 -0.21401405 -1.7962453 4288085770
-0.34204102 -0.15523338 -1.8010986 4288085770
0.61791992 -0.19855261 -1.7903852 4288085770
-0.47387695 -0.1449275 -1.8001895 4288085770
0.46206665 -0.18617535 -1.7944918 4288085770
0.30822754 -0.17380857 -1.7965965 4288085770
0.15539551 -0.16044664 -1.7976973 4288085770
-0.0024414062 -0.14608431 -1.7947996 4288085770
-0.14730835 -0.13274908 -1.7928932 4288085770
-0.27813721 -0.12044048 -1.793977 4288085770
-0.40097046 -0.10715008 -1.7950509 4288085770
-0.52178955 -0.093867302 -1.7951231 4288085770
-0.48913574 1.885283 -1.7472048 4288085770
-0.38397217 1.9030108 -1.7410815 4288085770
-0.23178101 1.9346652 -1.7488859 4288085770
-0.10559082 1.9563537 -1.7467365 4288085770
0.029571533 1.9800191 -1.744576 4288085770
0.18377686 2.0076537 -1.7473903 4288085770
0.33197021 2.0312896 -1.7452202 4288085770
-0.5625 1.8064485 -1.7564983 4288085770
0.49615479 2.057898 -1.7470305 4288085770
-0.4503479 1.821167 -1.7533789 4288085770
0.66033936 2.0845008 -1.746841 4288085770
-0.33016968 1.8358731 -1.7522533 4288085770
0.82452393 2.1080976 -1.7446599 4288085770
-0.20901489 1.8495703 -1.74913 4288085770
1.0067139 2.1346574 -1.7444572 4288085770
-0.061859131 1.8692241 -1.7529719 4288085770
1.1988831 2.1621966 -1.7452457 4288085770
0.077301025 1.8858886 -1.753828 4288085770
1.4291077 2.1986661 -1.7539818 4288085770
0.2114563 1.8985534 -1.7496986 4288085770
1.616272 2.2212014 -1.7487881 4288085770
0.36160278 1.9151912 -1.7505474 4288085770
1.8274536 2.2466855 -1.7465689 4288085770
0.51678467 1.9298167 -1.7503979 4288085770
2.0436401 2.2721562 -1.7433465 4288085770
0.68096924 1.9454188 -1.7502394 4288085770
2.2808838 2.3005853 -1.7431009 4288085770
0.85913086 1.9629941 -1.7520659 4288085770
2.5160522 2.3260093 -1.7398658 4288085770
1.0152588 1.9736047 -1.7479274 4288085770
2.7922363 2.3583531 -1.7425816 4288085770
1.2334595 1.9971032 -1.7567089 4288085770
3.0674133 2.3886886 -1.7413046 4288085770
1.4266357 2.0116401 -1.7575336 4288085770
3.3696289 2.4219651 -1.7429962 4288085770
1.6037598 2.0211968 -1.7523804 4288085770
3.6858521 2.4542069 -1.7436869 4288085770
1.802887 2.0337119 -1.7512085 4288085770
4.0140381 2.4864192 -1.7433701 4288085770
2.0050659 2.0442147 -1.7480402 4288085770
4.3332214 2.5126386 -1.7390764 4288085770
2.2181702 2.0546947 -1.7458649 4288085770
4.7074585 2.5477462 -1.7407193 4288085770
2.4583435 2.0681214 -1.7476618 4288085770
5.1186523 2.5857663 -1.7433286 4288085770
2.7044983 2.0805268 -1.747458 4288085770
5.5168762 2.6178069 -1.7419641 4288085770
2.9586792 2.0919175 -1.7482514 4288085770
5.9550781 2.6527543 -1.7415638 4288085770
3.2228088 2.1022801 -1.7480416 4288085770
6.3942566 2.6836896 -1.737175 4288085770
3.5049744 2.1136041 -1.748816 4288085770
6.8914795 2.7204995 -1.7377288 4288085770
3.8071289 2.1248851 -1.7515774 4288085770
7.4256897 2.7592196 -1.7382522 4288085770
4.1012878 2.1311707 -1.7493584 4288085770
7.9889221 2.7968688 -1.7377589 4288085770
4.4173889 2.1384101 -1.7491221 4288085770
8.6281433 2.8403449 -1.7401967 4288085770
4.7515564 2.1446071 -1.7488761 4288085770
9.2963867 2.8827453 -1.740618 4288085770
5.1096802 2.1507487 -1.7496138 4288085770
10.055634 2.932941 -1.7449539 4288085770
5.4878235 2.1558452 -1.7513406 4288085770
10.873871 2.9839978 -1.7502477 4288085770
5.8939819 2.1618743 -1.7530463 4288085770
11.692108 3.0260348 -1.7485676 4288085770
6.3141174 2.1648707 -1.7547512 4288085770
12.632355 3.0767922 -1.7507792 4288085770
6.775238 2.168777 -1.7594254 4288085770
13.729645 3.1401896 -1.7588463 4288085770
7.208374 2.1637282 -1.7561445 4288085770
7.6914673 2.1595693 -1.7558267 4288085770
8.2315979 2.1572833 -1.759465 4288085770
8.7886963 2.1509528 -1.7611022 4288085770
9.3788147 2.1405406 -1.761729 4288085770
10.027924 2.1299949 -1.7653165 4288085770
10.702026 2.1153874 -1.7678986 4288085770
11.476074 2.1025538 -1.7754078 4288085770
12.227173 2.0777555 -1.7759664 4288085770
13.09024 2.0537047 -1.7814469 4288085770
13.87326 2.0128131 -1.7750311 4288085770
5.534729 -4.9304256 -0.45669484 4293729569
5.4667358 -4.9811735 -0.49188709 4293729569
5.4636841 -5.0610662 -0.53111839 4293729569
2.9695435 -4.7090197 -0.95880651 4293729569
2.9502869 -4.7222037 -0.50885677 4293729569
2.9086304 -4.7267742 -0.99790049 4293729569
2.8793945 -4.7309279 -0.549932 4293729569
2.8567505 -4.7485437 -1.0389998 4293729569
2.8545227 -4.7657571 -0.59305048 4293729569
2.8397827 -4.7883873 -1.0841277 4293729569
2.8215942 -4.7925644 -0.63715219 4293729569
2.8318176 -4.8332486 -1.1302638 4293729569
2.8166504 -4.8354306 -0.68428111 4293729569
2.8358459 -4.8841257 -1.1814094 4293729569
2.7957153 -4.8662643 -0.72938657 4293729569
6.4220276 -7.0952282 -1.7313445 4293729569
6.0375671 -6.9262729 -1.7461221 4293729569
7.4263306 -7.7669363 -1.257606 4293729569
5.637146 -6.7402878 -1.7578619 4293729569
5.2616882 -6.5643711 -1.7666135 4293729569
4.8512878 -6.3603911 -1.7673073 4293729569
7.1647949 -7.7787762 -1.4608328 4293729569
4.4728699 -6.1714859 -1.7690239 4293729569
7.0070496 -7.7322426 -1.5198116 4293729569
4.0704956 -5.9625425 -1.7636983 4293729569
6.833374 -7.6726809 -1.5757642 4293729569
3.6820984 -5.7566404 -1.755372 4293729569
6.6956177 -7.6311941 -1.6357448 4293729569
3.3057251 -5.553772 -1.7450461 4293729569
6.5149231 -7.5576262 -1.6876621 4293729569
2.9952087 -5.3880377 -1.743783 4293729569
6.2783813 -7.4449487 -1.7305043 4293729569
2.6967163 -5.2253375 -1.7405205 4293729569
5.9100037 -7.2430162 -1.7511787 4293729569
2.4082336 -5.0656662 -1.7352595 4293729569
5.5076599 -7.0150261 -1.7628007 4293729569
2.1656799 -4.932086 -1.7370429 4293729569
5.1103516 -6.7850585 -1.7704132 4293729569
2.0219727 -4.8606882 -1.758939 4293729569
4.7240295 -6.5581264 -1.7750268 4293729569
1.7944336 -4.7311459 -1.7597234 4293729569
4.3396912 -6.3282123 -1.7746303 4293729569
1.5738525 -4.6036267 -1.7585094 4293729569
3.9473572 -6.0892925 -1.769213 4293729569
1.3752747 -4.4871511 -1.7603123 4293729569
3.5620728 -5.8504009 -1.7597911 4293729569
1.1576843 -4.3546524 -1.754082 4293729569
3.2177124 -5.6356001 -1.7524102 4293729569
0.97409058 -4.2432194 -1.7538893 4293729569
2.8713684 -5.4158044 -1.7420163 4293729569
0.79248047 -4.1307955 -1.7516921 4293729569
2.5968628 -5.2411585 -1.7397044 4293729569
0.65283203 -4.0434508 -1.7575393 4293729569
2.3164368 -5.0595117 -1.7323756 4293729569
0.61404419 -4.0232735 -1.7905128 4293729569
2.1258545 -4.9340372 -1.7411489 4293729569
0.61413574 -4.0251679 -1.8315246 4288085770
1.9662476 -4.8286257 -1.7539594 4293729569
0.61328125 -4.0260572 -1.8735342 4288085770
1.7687073 -4.69415 -1.7567115 4293729569
0.54754639 -3.9808459 -1.8954544 4288085770
1.5911255 -4.571722 -1.7594848 4293729569
0.39093018 -3.8734934 -1.8892555 4288085770
1.3925476 -4.4342642 -1.7552288 4293729569
0.2562561 -3.779182 -1.8870795 4288085770
1.1990051 -4.2978201 -1.7499716 4293729569
0.10961914 -3.674859 -1.8788829 4288085770
1.0334167 -4.178432 -1.7487452 4293729569
-0.026000977 -3.5765581 -1.8716958 4288085770
0.87680054 -4.0640678 -1.7465272 4293729569
-0.13967896 -3.4912996 -1.8685319 4288085770
0.83908081 -4.0259094 -1.7734506 4293729569
-0.24838257 -3.4080513 -1.8663709 4288085770
0.87420654 -4.0318747 -1.8194549 4288085770
-0.3550415 -3.3258095 -1.8632109 4288085770
0.90530396 -4.0338373 -1.8624499 4288085770
-0.4437561 -3.2536004 -1.8640683 4288085770
0.85461426 -3.9816654 -1.8833425 4288085770
-0.53640747 -3.177392 -1.8609164 4288085770
0.73794556 -3.8863883 -1.8841534 4288085770
0.6362915 -3.7991431 -1.8869779 4288085770
0.47970581 -3.6758146 -1.8717334 4288085770
0.35806274 -3.5755482 -1.8645327 4288085770
0.25738525 -3.487324 -1.8603532 4288085770
0.17266846 -3.4081244 -1.8611891 4288085770
0.092987061 -3.331939 -1.8610306 4288085770
0.011352539 -3.2537568 -1.8578672 4288085770
-0.062408447 -3.1795893 -1.8567111 4288085770
-0.14306641 -3.1014154 -1.8515468 4288085770
-0.20578003 -3.0332742 -1.8504002 4288085770
-0.2545166 -2.9731579 -1.852268 4288085770
-0.29528809 -2.9170556 -1.8561425 4288085770
-0.33999634 -2.8579545 -1.8560107 4288085770
-0.3767395 -2.8038626 -1.8588879 4288085770
-0.41946411 -2.7457695 -1.8577576 4288085770
-0.46618652 -2.6846716 -1.8546209 4288085770
-0.49597168 -2.6336043 -1.8555028 4288085770
-0.53271484 -2.5785277 -1.8533773 4288085770
-0.5604248 -2.5274656 -1.8532572 4288085770
-0.56707764 -1.7395973 -1.8402059 4288085770
-0.52990723 -1.7146831 -1.8441224 4288085770
-0.51068115 -1.681746 -1.8400257 4288085770
-0.4954834 -1.6478019 -1.8349283 4288085770
-0.44830322 -1.62391 -1.8388422 4288085770
-0.42208862 -1.5939879 -1.8357506 4288085770
-0.37994385 -1.5680933 -1.8366621 4288085770
-0.33575439 -1.5432024 -1.8375752 4288085770
-0.29553223 -1.5163107 -1.8354845 4288085770
-0.24935913 -1.4904275 -1.8353941 4288085770
-0.1882019 -1.4695711 -1.8393102 4288085770
-0.14199829 -1.4426951 -1.8362167 4288085770
-0.095794678 -1.4158201 -1.8331239 4288085770
-0.040618896 -1.3919625 -1.8320348 4288085770
0.02255249 -1.3691196 -1.8319442 4288085770
0.052764893 -1.3372264 -1.821846 4288085770
0.12991333 -1.3174095 -1.8247569 4288085770
0.18710327 -1.2915673 -1.8196619 4288085770
0.26226807 -1.2707534 -1.8195715 4288085770
0.3404541 -1.250948 -1.8194826 4288085770
0.41464233 -1.2271409 -1.816385 4288085770
0.50680542 -1.208365 -1.8172922 4288085770
-0.56552124 -0.95478201 -1.8211272 4288085770
0.60397339 -1.1905999 -1.8192 4288085770
-0.49734497 -0.93595552 -1.8200455 4288085770
0.69515991 -1.1698303 -1.8171027 4288085770
-0.42218018 -0.91713905 -1.8209605 4288085770
0.78833008 -1.1490655 -1.8150043 4288085770
-0.34701538 -0.89832687 -1.8208756 4288085770
0.90148926 -1.1313391 -1.8169053 4288085770
-0.28982544 -0.87549162 -1.8127887 4288085770
1.0116577 -1.1126099 -1.8168044 4288085770
-0.2036438 -0.85770273 -1.8137014 4288085770
1.1298523 -1.0949001 -1.8167028 4288085770
-0.11151123 -0.84092474 -1.815614 4288085770
1.2509766 -1.0772009 -1.8156002 4288085770
-0.016326904 -0.82415342 -1.8175251 4288085770
1.3821716 -1.0595183 -1.8164928 4288085770
0.08380127 -0.80839777 -1.8184376 4288085770
1.5163574 -1.0418501 -1.8153839 4288085770
0.18203735 -0.79063988 -1.8183448 4288085770
1.6684875 -1.0262175 -1.8172727 4288085770
0.27416992 -0.77087879 -1.8142502 4288085770
1.8376465 -1.012619 -1.8211584 4288085770
0.37234497 -0.75212908 -1.8111556 4288085770
1.980835 -0.99298048 -1.8170409 4288085770
0.54348755 -0.7445035 -1.8270559 4288085770
2.144989 -0.9753871 -1.8149188 4288085770
0.6086731 -0.71870995 -1.8109581 4288085770
2.3101807 -0.95779562 -1.8127964 4288085770
0.74282837 -0.70302963 -1.8138552 4288085770
2.4873657 -0.94123602 -1.8096714 4288085770
0.85400391 -0.68431997 -1.8077545 4288085770
2.6875 -0.92572355 -1.8095386 4288085770
1.0341492 -0.67272902 -1.8186412 4288085770
2.9166565 -0.91227293 -1.8123982 4288085770
1.1843262 -0.65709448 -1.819531 4288085770
3.1318359 -0.8958025 -1.8102562 4288085770
1.3154907 -0.63743258 -1.8134191 4288085770
3.3529968 -0.87935162 -1.8061121 4288085770
1.4666748 -0.6198101 -1.8103034 4288085770
3.6101379 -0.86497593 -1.8059566 4288085770
1.6398315 -0.60422945 -1.8111832 4288085770
3.8903198 -0.8516531 -1.806793 4288085770
1.8199768 -0.58866835 -1.8110602 4288085770
4.1824646 -0.83836174 -1.8066251 4288085770
1.9941711 -0.57110548 -1.8069344 4288085770
4.4916077 -0.82411432 -1.8054461 4288085770
2.214325 -0.55662966 -1.8107955 4288085770
4.8227844 -0.80992031 -1.8042579 4288085770
2.3895264 -0.53608227 -1.801662 4288085770
5.2169189 -0.79986382 -1.8080516 4288085770
2.6266785 -0.52065372 -1.8035135 4288085770
5.6000977 -0.78679419 -1.8068428 4288085770
2.8588562 -0.50422621 -1.8003647 4288085770
6.0302124 -0.77483273 -1.8076158 4288085770
3.118988 -0.48885632 -1.8012061 4288085770
6.5344238 -0.76603794 -1.8123631 4288085770
3.380127 -0.47149849 -1.7980421 4288085770
7.0325623 -0.75324583 -1.8111031 4288085770
3.6632996 -0.45518923 -1.7968714 4288085770
7.5816956 -0.74257278 -1.8108261 4288085770
3.9894714 -0.43897724 -1.7976804 4288085770
8.2318726 -0.73512936 -1.815511 4288085770
4.3346558 -0.42381191 -1.7984846 4288085770
8.9460144 -0.72684145 -1.8201652 4288085770
4.6948242 -0.40668726 -1.7972767 4288085770
9.7121277 -0.71868277 -1.8227963 4288085770
5.0879822 -0.39063597 -1.7980571 4288085770
10.55127 -0.70970821 -1.8223925 4288085770
5.5421448 -0.37472725 -1.8008099 4288085770
11.516449 -0.70302868 -1.8249378 4288085770
6.0093079 -0.35785818 -1.800555 4288085770
12.550598 -0.69352865 -1.8224447 4288085770
6.5284729 -0.34111071 -1.8012764 4288085770
13.748749 -0.68642092 -1.820884 4288085770
7.0956421 -0.32347631 -1.8029749 4288085770
7.7198486 -0.30598211 -1.8036478 4288085770
8.4309998 -0.28769207 -1.8062792 4288085770
9.2531738 -0.27065754 -1.8128643 4288085770
10.123352 -0.25175047 -1.8154235 4288085770
11.078522 -0.23005629 -1.8149374 4288085770
12.184692 -0.20872021 -1.8163848 4288085770
13.481873 -0.18583488 -1.8207421 4288085770
13.677368 0.08646965 -1.8275092 4288085770
12.167511 0.091090202 -1.8120961 4288085770
10.959656 0.094014168 -1.8105671 4288085770
9.8907471 0.099591732 -1.8059759 4288085770
8.9328918 0.10490084 -1.8013415 4288085770
8.0890198 0.1109333 -1.7966595 4288085770
7.3692017 0.11667919 -1.7979288 4288085770
14.003113 0.065626144 -1.8213716 4288085770
6.6772766 0.12433815 -1.7921827 4288085770
12.485291 0.082276821 -1.8099337 4288085770
6.0604553 0.1318264 -1.7904065 4288085770
11.235474 0.098303318 -1.8083897 4288085770
5.5226135 0.13912773 -1.7906001 4288085770
10.144592 0.11293983 -1.8057866 4288085770
5.0157471 0.14734793 -1.7887788 4288085770
9.1447754 0.12834215 -1.7981446 4288085770
4.5428772 0.1554842 -1.7859435 4288085770
8.2979431 0.14238977 -1.7964444 4288085770
4.1280518 0.16348648 -1.7860856 4288085770
7.506073 0.15628862 -1.7897236 4288085770
3.762146 0.17137766 -1.7892091 4288085770
6.8442383 0.16889429 -1.7909534 4288085770
3.4013062 0.18024826 -1.7893279 4288085770
6.2224121 0.18239164 -1.7881651 4288085770
3.0755005 0.1890378 -1.7904325 4288085770
5.6525574 0.19575977 -1.7843568 4288085770
2.7576294 0.19780064 -1.7895346 4288085770
5.140686 0.20799208 -1.7825277 4288085770
2.4837646 0.20646667 -1.7916191 4288085770
4.6928406 0.22007418 -1.7826736 4288085770
2.2119446 0.21612072 -1.7917001 4288085770
4.2760315 0.23308468 -1.7838044 4288085770
1.9590759 0.22573137 -1.792774 4288085770
3.8841858 0.24502802 -1.7829282 4288085770
1.7221985 0.23530245 -1.7928414 4288085770
3.5323486 0.25688028 -1.7840362 4288085770
1.4913635 0.24485207 -1.7909064 4288085770
3.2254944 0.26863289 -1.7891262 4288085770
1.2894897 0.25434113 -1.7929604 4288085770
2.9146423 0.28038263 -1.7892179 4288085770
1.0856323 0.26383066 -1.793015 4288085770
2.6108398 0.29310513 -1.7853045 4288085770
0.88378906 0.27330542 -1.7890692 4288085770
2.3399658 0.30475616 -1.7853808 4288085770
0.69998169 0.28374147 -1.7871134 4288085770
2.0901184 0.31735754 -1.7854462 4288085770
0.53613281 0.2931385 -1.7891521 4288085770
1.8462524 0.32894135 -1.784512 4288085770
0.3862915 0.30350685 -1.7931828 4288085770
1.6244202 0.34147596 -1.7845659 4288085770
0.23141479 0.31387615 -1.7922158 4288085770
1.4085693 0.3529911 -1.7836206 4288085770
0.084564209 0.32422638 -1.7922456 4288085770
1.2117004 0.36546421 -1.7836649 4288085770
-0.043273926 0.33553934 -1.795265 4288085770
1.0288696 0.37690449 -1.7847066 4288085770
-0.1781311 0.34585857 -1.7942903 4288085770
0.84005737 0.38934994 -1.7817478 4288085770
-0.30395508 0.35616064 -1.7953115 4288085770
0.67419434 0.40074682 -1.7817826 4288085770
-0.42581177 0.36744928 -1.7943289 4288085770
0.52536011 0.41311121 -1.7848079 4288085770
-0.56164551 0.37775421 -1.7873547 4288085770
0.37652588 0.42546892 -1.7858334 4288085770
0.23364258 0.43781042 -1.7858565 4288085770
0.08883667 0.45014858 -1.7828805 4288085770
-0.050018311 0.46147442 -1.7809048 4288085770
-0.16387939 0.47475243 -1.7839139 4288085770
-0.28369141 0.48703575 -1.7829278 4288085770
-0.39352417 0.49929905 -1.7839377 4288085770
-0.50939941 0.51156998 -1.7819505 4288085770
-0.49914551 2.6688123 -1.7308114 4288085770
-0.37390137 2.7125115 -1.7336316 4288085770
-0.25067139 2.7552066 -1.7344549 4288085770
-0.11843872 2.7998824 -1.7352686 4288085770
0.014770508 2.8425527 -1.7350869 4288085770
0.14901733 2.8852172 -1.7339046 4288085770
-0.1232605 2.7455573 -1.6154027 4293729569
-0.34146118 2.6308169 -1.5158091 4293729569
-0.52938843 2.5888572 -1.7370107 4288085770
-0.34640503 2.6097217 -1.4778633 4293729569
-0.4041748 2.6235547 -1.7398541 4288085770
-0.32330322 2.5995774 -1.4468749 4293729569
-0.2789917 2.6562448 -1.7397027 4288085770
-0.27618408 2.5993934 -1.4228489 4293729569
-0.1607666 2.6849456 -1.7375648 4288085770
-0.22509766 2.6001992 -1.398818 4293729569
-0.043579102 2.7106442 -1.7334356 4288085770
-0.16296387 2.6039872 -1.3777735 4293729569
0.096618652 2.7452998 -1.734271 4288085770
-0.11383057 2.6017957 -1.352751 4293729569
0.25283813 2.7849278 -1.7390857 4288085770
-0.077758789 2.5926261 -1.324754 4293729569
0.40005493 2.8185649 -1.73892 4288085770
-0.026641846 2.5894303 -1.2997332 4293729569
0.55126953 2.8511891 -1.7387552 4288085770
0.022460938 2.5832362 -1.2737215 4293729569
0.69845581 2.8808217 -1.7365999 4288085770
0.077575684 2.5790296 -1.2487013 4293729569
0.13464355 2.574821 -1.2246802 4293729569
0.21499634 2.6244321 -1.5295086 4293729569
0.18777466 2.5666175 -1.1986716 4293729569
0.269104 2.6142268 -1.5035045 4293729569
0.25488281 2.5633874 -1.175643 4293729569
0.2991333 2.5950675 -1.4735363 4293729569
0.32098389 2.5591607 -1.152617 4293729569
0.33526611 2.5768991 -1.4455621 4293729569
0.39007568 2.5549245 -1.12959 4293729569
0.40530396 2.5716653 -1.423537 4293729569
0.46520996 2.5516782 -1.1075571 4293729569
0.48544312 2.5674157 -1.4055045 4293729569
0.5402832 2.5474305 -1.0855265 4293729569
0.58258057 2.5691323 -1.389447 4293729569
0.63342285 2.5471435 -1.0644767 4293729569
0.69265747 2.5738235 -1.3763759 4293729569
0.72351074 2.5458655 -1.0444312 4293729569
0.78579712 2.5705447 -1.3583338 4293729569
0.81964111 2.5445704 -1.0233822 4293729569
0.88690186 2.5692496 -1.3422825 4293729569
0.92376709 2.5442615 -1.0043266 4293729569
0.98703003 2.5659556 -1.3252366 4293729569
1.0298767 2.5429444 -0.98427272 4293729569
1.084137 2.5596662 -1.3072 4293729569
1.1380005 2.5416226 -0.96421719 4293729569
1.1731873 2.5493922 -1.2881782 4293729569
1.2471008 2.5382981 -0.9441669 4293729569
1.2473145 2.5331454 -1.2651792 4293729569
1.3842468 2.5419106 -0.92608356 4293729569
1.4094849 2.542727 -1.2580678 4293729569
1.5313721 2.5475059 -0.90999007 4293729569
1.7797852 2.61589 -1.2836833 4293729569
1.7034912 2.5580411 -0.894871 4293729569
1.6817017 2.5409827 -1.230926 4293729569
1.870636 2.5655856 -0.87876201 4293729569
1.7927551 2.5296578 -1.2128952 4293729569
2.0928345 2.5860114 -0.8675909 4293729569
2.0079346 2.5471234 -1.2107353 4293729569
2.3720398 2.6203103 -0.86135411 4293729569
2.3372192 2.5943551 -1.2244394 4293729569
11.687927 5.2270322 -1.7457545 4288085770
6.1320801 3.6184936 -1.7368102 4288085770
12.497375 5.3480668 -1.7480149 4288085770
6.4922791 3.6436057 -1.7345543 4288085770
13.38382 5.4769111 -1.7492146 4288085770
6.9084778 3.6806006 -1.7392385 4288085770
14.295227 5.6026874 -1.7484095 4288085770
7.317688 3.7086005 -1.7389491 4288085770
7.7859192 3.7464767 -1.7456036 4288085770
8.2240906 3.7714028 -1.745307 4288085770
8.7213135 3.8031993 -1.7489614 4288085770
9.2415161 3.8349442 -1.7546039 4288085770
9.7297058 3.851748 -1.7533014 4288085770
10.286896 3.8774009 -1.7579403 4288085770
10.827057 3.8920846 -1.7586153 4288085770
11.430237 3.9126229 -1.762243 4288085770
12.021393 3.9221816 -1.7629044 4288085770
12.652527 3.9316468 -1.7645452 4288085770
13.314697 3.9390388 -1.7671747 4288085770
14.038849 3.947288 -1.7727695 4288085770
13.247772 -2.5705006 -0.87578034 4293729569
13.101624 -2.681107 -0.89313841 4293729569
12.446716 -2.704536 -0.88754368 4293729569
12.371552 -2.8183017 -0.90987253 4293729569
12.381378 -2.9472597 -0.93719459 4293729569
13.862915 -5.3938456 -1.7466981 4293729569
13.097229 -5.3030086 -1.7398736 4293729569
12.517487 -5.2565856 -1.7470641 4293729569
11.962738 -5.2072248 -1.7542334 4293729569
11.330048 -5.1276999 -1.7513664 4293729569
10.802338 -5.0724068 -1.7575057 4293729569
11.038635 -5.2169743 -1.0027497 4293729569
10.166687 -4.9748855 -1.7505941 4293729569
11.005524 -5.3177443 -1.062027 4293729569
9.5750122 -4.8814683 -1.744669 4293729569
9.0812988 -4.815269 -1.746762 4293729569
8.6026001 -4.7461052 -1.7488389 4293729569
8.1309204 -4.6709638 -1.7488966 4293729569
7.6742249 -4.5958595 -1.7489464 4293729569
7.2275391 -4.518784 -1.7469859 4293729569
13.990387 -7.0883131 -1.7219946 4293729569
6.8228455 -4.4508004 -1.7490263 4293729569
13.078033 -6.8670874 -1.7269113 4293729569
6.4051514 -4.3727961 -1.7470477 4293729569
12.205688 -6.6479716 -1.7268116 4293729569
6.0414429 -4.3079066 -1.7510736 4293729569
11.415283 -6.4500418 -1.7317231 4293729569
5.7036743 -4.2510786 -1.7561071 4293729569
10.618896 -6.2381191 -1.7286015 4293729569
5.4628906 -4.225451 -1.7741687 4293729569
9.9244995 -6.0564303 -1.7305028 4293729569
5.2460632 -4.2068768 -1.7942357 4293729569
9.2380676 -5.868772 -1.7283845 4293729569
5.0732117 -4.203392 -1.8213184 4288085770
8.633606 -5.7053027 -1.7302852 4293729569
4.9013977 -4.1979089 -1.8483949 4288085770
8.0810852 -5.5579515 -1.7351995 4293729569
4.7235718 -4.1864166 -1.8734589 4288085770
7.5335999 -5.4016228 -1.7360873 4293729569
4.4907837 -4.1488223 -1.8864853 4288085770
7.0140686 -5.2523675 -1.7349787 4293729569
4.2090759 -4.0851321 -1.8904705 4288085770
6.5415039 -5.1162162 -1.737879 4293729569
3.9103699 -4.0114164 -1.8884387 4288085770
6.1169434 -4.9971738 -1.7437978 4293729569
3.6366577 -3.9447541 -1.8894119 4288085770
5.7173767 -4.8801942 -1.748708 4293729569
3.3040161 -3.8449881 -1.8753314 4288085770
5.2858276 -4.7451587 -1.745589 4293729569
3.0282898 -3.7683372 -1.8702798 4288085770
4.8273315 -4.5910807 -1.7334354 4293729569
2.7666321 -3.6947167 -1.8662283 4288085770
4.4707336 -4.4792137 -1.7353358 4293729569
2.5229187 -3.6261356 -1.8641806 4288085770
4.1560669 -4.3824387 -1.7412529 4293729569
2.3092041 -3.5676157 -1.866142 4288085770
3.858429 -4.2907052 -1.7471743 4293729569
2.0645142 -3.4920423 -1.8600769 4288085770
3.5877686 -4.2060332 -1.7540989 4293729569
1.8717651 -3.4375684 -1.864038 4288085770
3.3750305 -4.1474776 -1.7710598 4293729569
1.6650391 -3.3740788 -1.8609829 4288085770
3.2632141 -4.1341219 -1.8050833 4293729569
1.4762878 -3.3156238 -1.8619318 4288085770
3.1864014 -4.1358328 -1.846127 4288085770
1.2726135 -3.2481463 -1.8568652 4288085770
3.0675659 -4.1154656 -1.8781362 4288085770
1.1048584 -3.1947396 -1.8588152 4288085770
2.8568726 -4.0459328 -1.8880677 4288085770
0.93511963 -3.1383355 -1.8577592 4288085770
2.5862122 -3.943296 -1.8819458 4288085770
0.76437378 -3.0799313 -1.8556983 4288085770
2.3555603 -3.8567362 -1.8838444 4288085770
0.60467529 -3.023551 -1.8546364 4288085770
2.0759888 -3.7430952 -1.8706987 4288085770
0.46685791 -2.9782109 -1.8585918 4288085770
1.840332 -3.6485443 -1.8645792 4288085770
0.31713867 -2.9228554 -1.8575273 4288085770
1.6296692 -3.5640395 -1.863472 4288085770
0.17141724 -2.8685129 -1.8554633 4288085770
1.4309692 -3.4835677 -1.8613689 4288085770
0.035644531 -2.8161902 -1.8543994 4288085770
1.2382812 -3.4031103 -1.8592625 4288085770
-0.075134277 -2.7759111 -1.8603528 4288085770
1.061615 -3.3296885 -1.8581657 4288085770
-0.19287109 -2.7306261 -1.8622973 4288085770
0.88690186 -3.2542748 -1.8560627 4288085770
-0.31661987 -2.6803319 -1.8612318 4288085770
0.72320557 -3.1828849 -1.8549643 4288085770
-0.44235229 -2.6270421 -1.8571599 4288085770
0.57351685 -3.1165259 -1.854871 4288085770
-0.55615234 -2.5787752 -1.8560951 4288085770
0.42178345 -3.0481679 -1.8527739 4288085770
0.29608154 -2.9918573 -1.8566937 4288085770
0.16830444 -2.9325507 -1.8576074 4288085770
0.031616211 -2.8662291 -1.8555071 4288085770
-0.084106445 -2.8099484 -1.8574219 4288085770
-0.19683838 -2.754679 -1.8573375 4288085770
-0.30459595 -2.6994212 -1.8582506 4288085770
-0.41531372 -2.642159 -1.8571601 4288085770
-0.51605225 -2.5889201 -1.8570743 4288085770
-0.50231934 -0.38357544 -1.8030541 4288085770
-0.43414307 -0.36776829 -1.79497 4288085770
-0.32098389 -0.35603476 -1.8008692 4288085770
-0.23382568 -0.34126377 -1.7967761 4288085770
-0.12765503 -0.32852602 -1.7976768 4288085770
-0.015533447 -0.31580639 -1.7975743 4288085770
0.087646484 -0.30306721 -1.7954767 4288085770
0.20678711 -0.29036522 -1.7953696 4288085770
0.33496094 -0.27768087 -1.7962575 4288085770
0.46411133 -0.26500416 -1.7951446 4288085770
-0.51257324 -0.15862608 -1.7954464 4288085770
0.58825684 -0.2523241 -1.7910347 4288085770
-0.39538574 -0.14790726 -1.7993457 4288085770
0.73742676 -0.24069071 -1.7919118 4288085770
-0.29425049 -0.13516712 -1.7962494 4288085770
0.89056396 -0.22806835 -1.7927847 4288085770
-0.17108154 -0.12446594 -1.7991452 4288085770
1.0537415 -0.2164712 -1.7926538 4288085770
-0.067932129 -0.11173916 -1.7930477 4288085770
1.2249146 -0.20489597 -1.7925181 4288085770
0.060211182 -0.10105515 -1.7939405 4288085770
1.3930664 -0.19331694 -1.7903843 4288085770
0.19638062 -0.090388298 -1.7958283 4288085770
1.5922241 -0.1818037 -1.792232 4288085770
0.32052612 -0.077710629 -1.7907183 4288085770
1.7883911 -0.17029095 -1.791081 4288085770
0.4836731 -0.068098545 -1.7965925 4288085770
2.0055237 -0.15982151 -1.7929204 4288085770
0.62982178 -0.056466103 -1.7944717 4288085770
2.2296753 -0.14837646 -1.7917531 4288085770
0.78799438 -0.045858383 -1.7943466 4288085770
2.4778137 -0.13698292 -1.793571 4288085770
0.96615601 -0.035293579 -1.7962089 4288085770
2.7299805 -0.12660551 -1.7923896 4288085770
1.1472778 -0.024741173 -1.7960699 4288085770
3.0091553 -0.11529064 -1.7931888 4288085770
1.3304443 -0.014196396 -1.7949295 4288085770
3.2952881 -0.10400009 -1.7909842 4288085770
1.5335999 -0.0036988258 -1.7947769 4288085770
3.5974731 -0.093751431 -1.7877722 4288085770
1.7567444 0.0067591667 -1.7976124 4288085770
3.9355774 -0.082581997 -1.7875361 4288085770
1.9699097 0.017224789 -1.7944536 4288085770
4.3017273 -0.072484016 -1.7862859 4288085770
2.2090759 0.027630329 -1.792279 4288085770
4.7079163 -0.062478542 -1.7870114 4288085770
2.4812012 0.03797102 -1.7960851 4288085770
5.1330872 -0.051522732 -1.7867229 4288085770
2.7323608 0.04833889 -1.7909036 4288085770
5.637207 -0.042745113 -1.7913926 4288085770
3.0085144 0.05865097 -1.7877066 4288085770
6.1543579 -0.033010006 -1.7920511 4288085770
3.337677 0.067850113 -1.7904809 4288085770
6.6985168 -0.023352623 -1.7886937 4288085770
3.6458435 0.078080654 -1.7862649 4288085770
7.3526611 -0.014938831 -1.7942727 4288085770
4.0079346 0.087191105 -1.7860188 4288085770
8.0648499 -0.0056767464 -1.795814 4288085770
4.4051208 0.096218586 -1.7867517 4288085770
8.8509521 0.0024032593 -1.7973137 4288085770
4.8432617 0.10515022 -1.78846 4288085770
9.7561035 0.010205269 -1.8027418 4288085770
5.3023987 0.11402512 -1.7891555 4288085770
10.742279 0.017794609 -1.8031206 4288085770
5.8315735 0.12173605 -1.7918117 4288085770
11.878418 0.026024818 -1.805407 4288085770
6.4047241 0.13033772 -1.7934382 4288085770
13.211578 0.03277874 -1.8095775 4288085770
7.0208435 0.1388278 -1.7930391 4288085770
7.7409973 0.14707708 -1.7975769 4288085770
8.5021362 0.15421486 -1.7980928 4288085770
9.406311 0.16102123 -1.8045225 4288085770
10.426453 0.1675415 -1.8098817 4288085770
11.55365 0.17379332 -1.8121762 4288085770
12.840759 0.17965508 -1.8153749 4288085770
13.192871 -2.9306531 -0.54639673 4293729569
13.184326 -2.796566 -0.57306218 4293729569
13.210754 -2.6685679 -0.59872484 4293729569
13.999969 -2.6543658 -0.64727807 4293729569
13.51181 0.43540525 -1.8141761 4288085770
12.097992 0.45381784 -1.8036039 4288085770
10.903137 0.4717083 -1.7979598 4288085770
9.8942871 0.48815393 -1.7952573 4288085770
8.9754333 0.50437498 -1.7905242 4288085770
8.1636353 0.52033567 -1.7857552 4288085770
7.4568176 0.53605032 -1.7849519 4288085770
14.261322 0.71849918 -1.8022873 4288085770
6.8269348 0.55058098 -1.7851255 4288085770
12.820435 0.72898674 -1.7947366 4288085770
6.2321167 0.56501532 -1.7812872 4288085770
11.583618 0.74098539 -1.791115 4288085770
5.6992493 0.57930279 -1.779429 4288085770
10.491791 0.75162697 -1.7854486 4288085770
5.2144165 0.59347439 -1.7775545 4288085770
9.5588989 0.76288509 -1.7817285 4288085770
4.7796021 0.6075263 -1.7766633 4288085770
8.7010498 0.77395582 -1.7759831 4288085770
4.3637085 0.62152863 -1.774766 4288085770
7.9872131 0.78669357 -1.7771862 4288085770
4.0039062 0.63540316 -1.7758505 4288085770
7.2883911 0.79737473 -1.7703888 4288085770
3.6600647 0.64823341 -1.7749319 4288085770
6.6965332 0.8088088 -1.7695549 4288085770
3.3442383 0.66200018 -1.7760019 4288085770
6.1606445 0.82110739 -1.7687001 4288085770
3.0413513 0.67572927 -1.7750671 4288085770
5.6907959 0.83425617 -1.7718213 4288085770
2.7774963 0.68937016 -1.7761197 4288085770
5.2229919 0.84537888 -1.7679462 4288085770
2.521698 0.70299053 -1.7771692 4288085770
4.808136 0.85738325 -1.7670517 4288085770
2.276825 0.71557999 -1.7762179 4288085770
4.413269 0.86833191 -1.764153 4288085770
2.0700073 0.73009157 -1.7812493 4288085770
4.0754089 0.88215542 -1.7662282 4288085770
1.8291626 0.74165535 -1.7742987 4288085770
3.745575 0.89394855 -1.7643061 4288085770
1.6603088 0.75708246 -1.7823148 4288085770
