# .PCD v0.7 - Point Cloud Data file format
VERSION 0.7
FIELDS x y z rgb
SIZE 4 4 4 4
TYPE F F F U
COUNT 1 1 1 1
WIDTH 1107
HEIGHT 1
VIEWPOINT 0 0 0 1 0 0 0
POINTS 1107
DATA ascii
2.409729 2.3262539 -1.7593601 4288085770
-0.67462158 1.8659306 -1.7602367 4288085770
2.1491394 2.3562021 -1.7609484 4288085770
-0.81118774 1.8975058 -1.7643495 4288085770
1.8825378 2.3821812 -1.7585473 4288085770
-0.96676636 1.9242306 -1.7614245 4288085770
1.6529846 2.4107637 -1.7582834 4288085770
-1.1033325 1.9537687 -1.7615564 4288085770
1.4344177 2.4412327 -1.7590499 4288085770
-1.2298889 1.9832048 -1.7627325 4288085770
1.2258301 2.4695778 -1.7588792 4288085770
-1.3564758 2.0116215 -1.7619181 4288085770
1.025238 2.497817 -1.7567446 4288085770
-1.4710083 2.0409136 -1.7621477 4288085770
0.81063843 2.5211763 -1.7505939 4288085770
-1.5815735 2.0701513 -1.7613955 4288085770
0.62710571 2.5482149 -1.7475441 4288085770
-1.6931458 2.0984001 -1.760648 4288085770
0.46054077 2.5790806 -1.7465334 4288085770
-1.778656 2.1313848 -1.76297 4288085770
0.31402588 2.6117411 -1.7475929 4288085770
-1.9142761 2.1518202 -1.7531903 4288085770
0.16442871 2.641407 -1.7456667 4288085770
-1.9737549 2.1895494 -1.7595816 4288085770
0.034912109 2.6748667 -1.7457929 4288085770
-2.0673523 2.2175865 -1.7579143 4288085770
-0.097595215 2.7063408 -1.7439241 4288085770
-2.1648865 2.2436428 -1.753248 4288085770
-0.22314453 2.7377472 -1.7430866 4288085770
-2.2755127 2.2657976 -1.7435613 4288085770
-0.32559204 2.7749119 -1.7442958 4288085770
-2.3340149 2.3004866 -1.746985 4288085770
-0.42810059 2.8100605 -1.7435238 4288085770
-2.4135437 2.3293581 -1.7443712 4288085770
-0.5395813 2.8432894 -1.7407305 4288085770
-2.4780884 2.362071 -1.7427874 4288085770
-0.60400391 2.8870649 -1.7460442 4288085770
-2.5245667 2.3986349 -1.7472463 4288085770
-0.71551514 2.9172678 -1.7402792 4288085770
-2.5890808 2.429328 -1.7436807 4288085770
-0.80001831 2.9532032 -1.7385781 4288085770
-2.6466064 2.4619713 -1.7431278 4288085770
-0.88449097 2.9891386 -1.736877 4288085770
-2.6971436 2.4955244 -1.7415967 4288085770
-0.96096802 3.0259771 -1.7342024 4288085770
-2.7496338 2.5291023 -1.7400572 4288085770
-1.024353 3.0676947 -1.7345393 4288085770
-2.7710571 2.5723953 -1.7455626 4288085770
-1.0797729 3.1113224 -1.7348936 4288085770
-2.825531 2.6039677 -1.7410324 4288085770
-1.1361694 3.1529436 -1.7332618 4288085770
-2.8770447 2.6355066 -1.7365158 4288085770
-1.186554 3.1975069 -1.7326291 4288085770
-2.9135132 2.6719112 -1.7360191 4288085770
-1.2279053 3.2439766 -1.7330177 4288085770
-2.9379578 2.7122021 -1.7375393 4288085770
-1.2622375 3.2923689 -1.7334189 4288085770
-2.971405 2.7495565 -1.7350471 4288085770
-1.3056335 3.3368454 -1.7318175 4288085770
-2.9928284 2.790803 -1.7355711 4288085770
-1.3309326 3.388135 -1.7322311 4288085770
-2.9791565 2.8467388 -1.7451122 4288085770
-1.3552551 3.4394054 -1.7316492 4288085770
-3.0396423 2.8723049 -1.7326112 4288085770
-1.3825684 3.4897013 -1.7300632 4288085770
-3.0640869 2.9115562 -1.7301409 4288085770
-1.3998108 3.5438929 -1.7294848 4288085770
-3.0734863 2.9576693 -1.7306721 4288085770
-1.3960266 3.6058846 -1.7329257 4288085770
-3.0758362 3.0047112 -1.7322254 4288085770
-1.4173279 3.657095 -1.7293577 4288085770
-3.0661316 3.0586462 -1.7367671 4288085770
-1.4145203 3.7190704 -1.7297943 4288085770
-3.0684509 3.1066704 -1.736311 4288085770
-1.4137268 3.7800684 -1.730231 4288085770
-3.0737915 3.153718 -1.7348509 4288085770
-1.3988342 3.8469095 -1.7306745 4288085770
-3.0771484 3.200736 -1.7323997 4288085770
-1.3829956 3.9147387 -1.7311134 4288085770
-3.0724487 3.2526808 -1.7319379 4288085770
-1.3610229 3.9855089 -1.7325509 4288085770
-3.0597229 3.3065443 -1.7324927 4288085770
-1.3311157 4.0601902 -1.7339871 4288085770
-3.0560303 3.3574734 -1.7290359 4288085770
-1.2880554 4.1407452 -1.7374253 4288085770
-3.0462646 3.4113531 -1.7275774 4288085770
-1.2540894 4.2183619 -1.7368517 4288085770
-3.0335388 3.4661894 -1.7251234 4288085770
-1.2100525 4.2988853 -1.7382941 4288085770
-3.0067139 3.5278959 -1.7256665 4288085770
-1.1700439 4.3804255 -1.7367101 4288085770
-2.9829102 3.5886278 -1.7252057 4288085770
-1.1289673 4.461956 -1.7351303 4288085770
-2.9500732 3.652257 -1.7247567 4288085770
-1.0578003 4.5581837 -1.737545 4288085770
-2.8860779 3.7336197 -1.7332792 4288085770
-1.008667 4.6446037 -1.7339544 4288085770
-2.8482056 3.8021936 -1.7328064 4288085770
-0.92944336 4.7467327 -1.7353492 4288085770
-2.8042603 3.8736992 -1.7323325 4288085770
-0.85217285 4.8478642 -1.7347441 4288085770
-2.7482605 3.9520874 -1.7338471 4288085770
-0.75476074 4.9608107 -1.738117 4288085770
-2.701355 4.0245495 -1.7323768 4288085770
-0.66641235 5.0698013 -1.7354867 4288085770
-2.6322327 4.1108017 -1.734875 4288085770
-0.55493164 5.1905813 -1.7378471 4288085770
-2.5561218 4.199976 -1.7373762 4288085770
-0.42330933 5.325139 -1.7411673 4288085770
-2.4880371 4.286211 -1.7368701 4288085770
-0.28567505 5.4616337 -1.7444949 4288085770
-2.4129333 4.3753767 -1.7373669 4288085770
-0.13592529 5.6079941 -1.7477837 4288085770
-2.336792 4.4645138 -1.7358677 4288085770
0.0128479 5.7533264 -1.7470767 4288085770
-2.2606201 4.5556316 -1.7323501 4288085770
0.18878174 5.9163914 -1.7503233 4288085770
-2.1643677 4.6575603 -1.7328196 4288085770
0.38284302 6.0902615 -1.7545478 4288085770
-2.0700989 4.7584925 -1.7312891 4288085770
0.59002686 6.2739868 -1.7587373 4288085770
-1.9546814 4.8722181 -1.7327313 4288085770
0.83444214 6.4813137 -1.764869 4288085770
-1.8222046 4.996767 -1.7361474 4288085770
1.0497131 6.6709042 -1.7640381 4288085770
-1.6947021 5.1193485 -1.7365594 4288085770
1.3193359 6.8949394 -1.7691226 4288085770
-1.5410461 5.2566614 -1.7399478 4288085770
1.6192322 7.1406536 -1.7761371 4288085770
-1.4014282 5.3860874 -1.7383478 4288085770
1.9281616 7.3902416 -1.7801535 4288085770
-1.2115173 5.5480251 -1.7446644 4288085770
2.2461548 7.6486988 -1.7811267 4288085770
-1.0336914 5.7010612 -1.7470107 4288085770
2.6849976 7.9839325 -1.7959108 4288085770
-0.83874512 5.8649044 -1.7493303 4288085770
-0.63470459 6.0346336 -1.750634 4288085770
-0.40344238 6.2240925 -1.7548721 4288085770
-0.14001465 6.4322071 -1.761076 4288085770
0.12548828 6.6422691 -1.7642696 4288085770
0.43829346 6.8838406 -1.7713754 4288085770
0.762146 7.131279 -1.7774734 4288085770
1.1112366 7.3954258 -1.7825251 4288085770
1.4673767 7.6624641 -1.7845788 4288085770
1.9030762 7.9836884 -1.7944734 4288085770
10.316162 -0.80320644 -1.8499632 4288085770
9.2709656 -0.82449627 -1.8498554 4288085770
8.3148804 -0.84080791 -1.8470688 4288085770
7.4148254 -0.85176659 -1.8424647 4288085770
6.5478821 -0.85613918 -1.8329375 4288085770
5.8428345 -0.86522961 -1.8341186 4288085770
5.1548767 -0.86954689 -1.831327 4288085770
4.5189209 -0.87244606 -1.828737 4288085770
3.9299927 -0.87287045 -1.826318 4288085770
10.375 -1.5307627 -1.8687093 4288085770
3.4549866 -0.8794775 -1.8344231 4288085770
9.1815796 -1.4864531 -1.8614025 4288085770
2.9381104 -0.87671566 -1.8312716 4288085770
8.1380615 -1.4468012 -1.8567538 4288085770
2.4772339 -0.87456226 -1.8303556 4288085770
7.1835632 -1.4091425 -1.8524895 4288085770
2.0603333 -0.87386227 -1.8336341 4288085770
6.2851257 -1.3681555 -1.8434253 4288085770
1.6724243 -0.87149715 -1.8360167 4288085770
5.5235596 -1.3356342 -1.8420002 4288085770
1.3235168 -0.87152863 -1.8425813 4288085770
4.8009949 -1.3025751 -1.8377311 4288085770
0.97161865 -0.86756611 -1.8450978 4288085770
4.1564636 -1.2713804 -1.8347991 4288085770
0.64175415 -0.86284828 -1.847698 4288085770
3.6147766 -1.249259 -1.8403718 4288085770
0.32394409 -0.85628319 -1.848331 4288085770
3.0671692 -1.221138 -1.8388667 4288085770
0.017120361 -0.8488512 -1.8480015 4288085770
2.5705261 -1.1955757 -1.838594 4288085770
-0.25674438 -0.84375 -1.8518286 4288085770
2.1218567 -1.1715231 -1.8415315 4288085770
-0.54550171 -0.8325367 -1.8495393 4288085770
1.7081909 -1.1498594 -1.8446348 4288085770
-0.89208984 -0.81083584 -1.8299177 4288085770
1.3315125 -1.1295919 -1.8499026 4288085770
-1.1568298 -0.79890919 -1.8257208 4288085770
0.97283936 -1.1085529 -1.8522375 4288085770
-1.403595 -0.78717613 -1.8225996 4288085770
0.63516235 -1.087739 -1.8556604 4288085770
-1.6213684 -0.77772903 -1.8236179 4288085770
0.31344604 -1.0671043 -1.8591511 4288085770
-1.827179 -0.767416 -1.8246779 4288085770
-0.013153076 -1.04247 -1.8565857 4288085770
-2.0199585 -0.75922966 -1.8278108 4288085770
-0.29586792 -1.0222797 -1.8592405 4288085770
-2.2167358 -0.74704552 -1.825891 4288085770
-0.62936401 -0.99164963 -1.8475926 4288085770
-2.3995056 -0.73600006 -1.8260391 4288085770
-0.98974609 -0.95380306 -1.8267691 4288085770
-2.5892029 -0.72190285 -1.8231308 4288085770
-1.2434387 -0.93197441 -1.8255291 4288085770
-2.7290649 -0.71626282 -1.8315041 4288085770
-1.4760742 -0.91137123 -1.8253858 4288085770
-2.9247437 -0.69817257 -1.8205359 4288085770
-1.678772 -0.89506531 -1.8294044 4288085770
-3.0654907 -0.68855858 -1.8248694 4288085770
-1.9064331 -0.87154579 -1.826256 4288085770
-3.1963196 -0.68003654 -1.8312542 4288085770
-2.1001282 -0.85336685 -1.8272951 4288085770
-3.3291321 -0.66952229 -1.8346126 4288085770
-2.3087158 -0.83106995 -1.8232358 4288085770
-3.4508972 -0.66011047 -1.8400259 4288085770
-2.4824524 -0.81310558 -1.8253589 4288085770
-3.5936584 -0.64554882 -1.836307 4288085770
-2.6650696 -0.79207993 -1.8234174 4288085770
-3.7064209 -0.63623714 -1.8417583 4288085770
-2.8407288 -0.77114105 -1.8205056 4288085770
-3.8172302 -0.62495899 -1.8462002 4288085770
-2.9874268 -0.75446892 -1.823751 4288085770
-3.9379578 -0.61161518 -1.8455825 4288085770
-3.1251526 -0.73788929 -1.8280344 4288085770
-3.2589111 -0.72136307 -1.8313346 4288085770
-3.3955688 -0.70382214 -1.8326132 4288085770
-3.5222778 -0.68637466 -1.8359342 4288085770
-3.6450195 -0.66999054 -1.837281 4288085770
-3.7637329 -0.6526413 -1.8396354 4288085770
-3.8793945 -0.63534451 -1.8400025 4288085770
-3.9811401 -0.62016678 -1.8444464 4288085770
-3.8712769 1.2681007 -1.8098066 4288085770
-3.7670288 1.279891 -1.8050985 4288085770
-3.6947327 1.2859192 -1.7873175 4288085770
-3.5664368 1.3004789 -1.7866774 4288085770
-3.4481506 1.3121052 -1.7810245 4288085770
-3.3108826 1.3255739 -1.7814288 4288085770
-3.1786194 1.3380547 -1.7768221 4288085770
-3.929657 1.2557735 -1.8146548 4288085770
-3.0363159 1.35044 -1.7742548 4288085770
-3.812439 1.2644472 -1.8130255 4288085770
-2.9010315 1.3608675 -1.767678 4288085770
-3.7182007 1.2693052 -1.8033409 4288085770
-2.738739 1.3750515 -1.7671716 4288085770
-3.6159668 1.2750816 -1.7946792 4288085770
-2.5784607 1.387228 -1.7636757 4288085770
-3.4997864 1.2807293 -1.7890728 4288085770
-2.3912048 1.4021416 -1.7642593 4288085770
-3.3795471 1.2873335 -1.7834725 4288085770
-2.1998901 1.4160013 -1.7638674 4288085770
-3.2423096 1.2947855 -1.7819307 4288085770
-1.9535828 1.4363604 -1.7756295 4288085770
-3.0841064 1.3040409 -1.7844536 4288085770
-1.7842712 1.4453735 -1.7651954 4288085770
-2.9508972 1.3084927 -1.7779229 4288085770
-1.5320129 1.4626112 -1.7710085 4288085770
-2.8066711 1.3138304 -1.7724266 4288085770
-1.2826843 1.4788628 -1.7748182 4288085770
-2.6124573 1.3237219 -1.7790828 4288085770
-1.0473938 1.4911976 -1.7706087 4288085770
-2.4412537 1.3297968 -1.7776837 4288085770
-0.80014038 1.5024157 -1.7684553 4288085770
-2.2550354 1.3367119 -1.7773349 4288085770
-0.49478149 1.5200462 -1.7724679 4288085770
-2.0768433 1.340682 -1.7729816 4288085770
-0.20349121 1.5337858 -1.771461 4288085770
-1.8546448 1.3482456 -1.777766 4288085770
0.12078857 1.5481863 -1.7735755 4288085770
-1.6574707 1.3510027 -1.7734964 4288085770
0.46908569 1.5633192 -1.7757754 4288085770
-1.4242554 1.3574162 -1.7753327 4288085770
0.81738281 1.576416 -1.7739933 4288085770
-1.1680908 1.3625917 -1.779269 4288085770
1.2156982 1.5909843 -1.7753904 4288085770
-0.91488647 1.3667746 -1.7802022 4288085770
1.632019 1.6053448 -1.7758584 4288085770
-0.63873291 1.3707094 -1.7822261 4288085770
2.0543213 1.6166 -1.772377 4288085770
-0.38354492 1.3698139 -1.7772124 4288085770
2.5656433 1.6329498 -1.7781928 4288085770
-0.086395264 1.3704987 -1.7773461 4288085770
3.0819397 1.6461897 -1.778055 4288085770
0.22970581 1.3719807 -1.7785454 4288085770
3.6972656 1.665391 -1.7852445 4288085770
0.56185913 1.3702755 -1.7788353 4288085770
4.3226013 1.6794462 -1.788518 4288085770
0.9119873 1.3683701 -1.7791955 4288085770
4.9718933 1.6911793 -1.7859044 4288085770
1.2980957 1.3670845 -1.7816887 4288085770
5.74823 1.7075748 -1.7917373 4288085770
1.6982117 1.3626156 -1.7812638 4288085770
6.5935364 1.7232018 -1.7978423 4288085770
2.1502991 1.358614 -1.7860353 4288085770
7.5749207 1.7423553 -1.8084383 4288085770
2.5853271 1.3487377 -1.7837937 4288085770
8.5962524 1.7559986 -1.8122368 4288085770
3.0574036 1.3384514 -1.7816978 4288085770
9.7485962 1.7712069 -1.8185244 4288085770
3.6284485 1.3311462 -1.7889555 4288085770
11.026917 1.7839842 -1.8223178 4288085770
4.1944275 1.3178339 -1.789248 4288085770
4.8054504 1.3010197 -1.7897449 4288085770
5.5383911 1.2859163 -1.7976952 4288085770
6.2973328 1.2644882 -1.8018022 4288085770
7.1982117 1.2435551 -1.8144505 4288085770
8.0830383 1.2126989 -1.8161259 4288085770
9.0988464 1.1784239 -1.8223355 4288085770
10.182587 1.1373577 -1.8248668 4288085770
2.143219 -7.5677624 -1.7570927 4293729569
1.8578796 -7.3324032 -1.7748449 4293729569
1.5904236 -7.1092792 -1.7887769 4288085770
1.3527222 -6.9044585 -1.8059897 4288085770
1.0991821 -6.6885271 -1.8160405 4288085770
0.79013062 -6.4330993 -1.8125191 4288085770
0.50292969 -6.1929235 -1.8082204 4288085770
0.26824951 -5.9882855 -1.8094466 4288085770
0.067382812 -5.8079929 -1.8140237 4288085770
-0.12759399 -5.6287766 -1.8176334 4288085770
-0.30563354 -5.4637566 -1.8204372 4288085770
3.0151062 -7.5071354 -1.7926686 4293729569
-0.4737854 -5.3048468 -1.8233349 4288085770
2.6019897 -7.1696272 -1.78 4293729569
-0.64782715 -5.1409082 -1.8221638 4288085770
2.3913269 -6.9651251 -1.7953153 4288085770
-0.78619385 -5.0003209 -1.8263419 4288085770
2.2134094 -6.7809858 -1.8109412 4288085770
-0.92947388 -4.8577137 -1.8264828 4288085770
1.9858704 -6.5673885 -1.8161101 4288085770
-1.0767822 -4.7130909 -1.8235905 4288085770
1.7563171 -6.3528066 -1.8172629 4288085770
-1.1982117 -4.5837178 -1.8249352 4288085770
1.451416 -6.0925264 -1.8027122 4288085770
-1.324646 -4.4513268 -1.8222339 4288085770
1.2099304 -5.8738871 -1.7957833 4288085770
-1.3230286 -4.4000955 -1.8487594 4288085770
1.0488586 -5.7060466 -1.7996233 4288085770
-1.3670959 -4.3194795 -1.8618433 4288085770
0.88088989 -5.5361652 -1.7994187 4288085770
-1.4468384 -4.2165604 -1.864588 4288085770
0.73175049 -5.3774848 -1.8003879 4288085770
-1.5375061 -4.1075463 -1.8642356 4288085770
0.62136841 -5.241188 -1.8067081 4288085770
-1.6222229 -4.0026088 -1.8629434 4288085770
0.51586914 -5.1109633 -1.8111031 4288085770
-1.7198486 -3.890584 -1.8555374 4288085770
0.40249634 -4.9756889 -1.8114216 4288085770
-1.7717896 -3.8049545 -1.8605454 4288085770
0.32684326 -4.8617778 -1.818078 4288085770
-1.8287048 -3.7163162 -1.860507 4288085770
0.22836304 -4.7376676 -1.8185551 4288085770
-1.8687134 -3.6378279 -1.8646252 4288085770
0.15270996 -4.6247931 -1.8212211 4288085770
-1.9137268 -3.557303 -1.8667064 4288085770
0.080993652 -4.5159616 -1.8239393 4288085770
-1.9755554 -3.4666557 -1.8616307 4288085770
0.068939209 -4.4377093 -1.8361611 4288085770
-2.0235596 -3.3841357 -1.8596821 4288085770
0.11550903 -4.3910127 -1.8588922 4288085770
-2.0675659 -3.3056579 -1.8577857 4288085770
0.028930664 -4.2750916 -1.8534892 4288085770
-2.0986328 -3.2323074 -1.8579843 4288085770
-0.016906738 -4.1805658 -1.8544352 4288085770
-2.1376343 -3.1559048 -1.8541253 4288085770
-0.077667236 -4.0779119 -1.8512506 4288085770
-2.1607361 -3.0876493 -1.8534005 4288085770
-0.10256958 -3.9946084 -1.8533776 4288085770
-2.178894 -3.02244 -1.8537223 4288085770
-0.11462402 -3.91643 -1.8575997 4288085770
-2.1980286 -2.9562397 -1.8520312 4288085770
-0.12664795 -3.8392696 -1.8598311 4288085770
-2.2112427 -2.8930955 -1.8513904 4288085770
-0.13769531 -3.7621121 -1.863066 4288085770
-2.206543 -2.8391118 -1.8549004 4288085770
-0.11294556 -3.702312 -1.870594 4288085770
-2.2107544 -2.7800674 -1.8543305 4288085770
-0.11398315 -3.6292834 -1.8719039 4288085770
-2.2159424 -2.7200203 -1.8527474 4288085770
-0.15188599 -3.5409293 -1.8639357 4288085770
-2.2221375 -2.6609812 -1.84917 4288085770
-0.18481445 -3.4556217 -1.8570142 4288085770
-2.2233887 -2.6039791 -1.8476298 4288085770
-0.19186401 -3.3815722 -1.8532922 4288085770
-2.2117004 -2.5521097 -1.8471847 4288085770
-0.18395996 -3.3126707 -1.8516726 4288085770
-2.1821289 -2.5084019 -1.8508809 4288085770
-0.16513062 -3.2498798 -1.85115 4288085770
-2.1644287 -2.458601 -1.8504767 4288085770
-0.1333313 -3.1912146 -1.8527131 4288085770
-2.1387939 -2.4108677 -1.8521209 4288085770
-0.12545776 -3.1233487 -1.8471029 4288085770
-2.1240845 -2.3600607 -1.848696 4288085770
-0.082763672 -3.0688057 -1.8487442 4288085770
-2.0805359 -2.320508 -1.8524816 4288085770
-0.026062012 -3.0194058 -1.8514841 4288085770
-2.0429688 -2.2789059 -1.8542261 4288085770
0.063415527 -2.9823155 -1.8604586 4288085770
-2.0014038 -2.237361 -1.8549855 4288085770
0.12008667 -2.9319444 -1.860189 4288085770
-1.9627991 -2.1937895 -1.8547149 4288085770
0.16488647 -2.8764682 -1.856828 4288085770
-1.9201965 -2.1522627 -1.8544779 4288085770
0.2265625 -2.8261614 -1.855577 4288085770
-1.8736267 -2.1117802 -1.854265 4288085770
0.25241089 -2.7635231 -1.84708 4288085770
-1.8091431 -2.0774689 -1.8571749 4288085770
0.32208252 -2.7153053 -1.8458769 4288085770
-1.7674866 -2.032959 -1.8539062 4288085770
0.396698 -2.6681523 -1.8437018 4288085770
-1.7139282 -1.9935637 -1.8527284 4288085770
0.48132324 -2.6240997 -1.842592 4288085770
-1.6832581 -1.9459801 -1.8443904 4288085770
0.58392334 -2.5842266 -1.843586 4288085770
-1.647583 -1.9004412 -1.8370898 4288085770
0.68054199 -2.5403156 -1.8415205 4288085770
-1.6268311 -1.8487844 -1.8246775 4288085770
0.80105591 -2.5036335 -1.8436096 4288085770
-1.5881958 -1.8042974 -1.815397 4288085770
0.90969849 -2.4618654 -1.8406067 4288085770
-1.5415649 -1.7608795 -1.8081555 4288085770
1.0332336 -2.4242334 -1.8406971 4288085770
-1.4700012 -1.7247019 -1.8050723 4288085770
1.1687622 -2.3877439 -1.8398411 4288085770
-1.370575 -1.6947765 -1.8081489 4288085770
1.3292236 -2.3565035 -1.8421249 4288085770
-1.2850647 -1.6607437 -1.8061359 4288085770
1.4787292 -2.3211689 -1.8413301 4288085770
-1.160675 -1.6360769 -1.8113515 4288085770
1.6531982 -2.2900925 -1.8426652 4288085770
-1.0701294 -1.6011086 -1.8083479 4288085770
1.8386841 -2.2601366 -1.8440502 4288085770
-0.92880249 -1.5776186 -1.8146358 4288085770
2.018219 -2.2261429 -1.8423758 4288085770
-0.76547241 -1.5583363 -1.8250422 4288085770
2.2196655 -2.1963749 -1.8428197 4288085770
-0.53335571 -1.5517035 -1.8478169 4288085770
2.4151917 -2.1625671 -1.840204 4288085770
-0.32012939 -1.539916 -1.8644738 4288085770
2.6306458 -2.1319809 -1.8376904 4288085770
-0.18765259 -1.5084028 -1.862653 4288085770
2.9000244 -2.1099253 -1.8424513 4288085770
0.0056762695 -1.4874611 -1.8721516 4288085770
3.134552 -2.0775585 -1.838989 4288085770
0.14718628 -1.4540644 -1.868345 4288085770
3.4389038 -2.0569 -1.8428888 4288085770
0.30667114 -1.4238501 -1.8666332 4288085770
3.735321 -2.0321903 -1.8427212 4288085770
0.41625977 -1.3821859 -1.8536329 4288085770
4.0666809 -2.010848 -1.8447111 4288085770
0.61071777 -1.3553295 -1.8550785 4288085770
4.4170837 -1.9877367 -1.8447528 4288085770
0.79821777 -1.3244238 -1.8534603 4288085770
4.79245 -1.9668808 -1.846905 4288085770
0.99169922 -1.2936029 -1.8498642 4288085770
5.2157898 -1.9495468 -1.8502629 4288085770
1.2171326 -1.2660999 -1.8504145 4288085770
5.6601562 -1.9304628 -1.8516796 4288085770
1.4445801 -1.2366352 -1.8489535 4288085770
6.1404724 -1.9127789 -1.8532388 4288085770
1.683075 -1.2063036 -1.8465233 4288085770
6.6687927 -1.8976145 -1.855994 4288085770
1.936554 -1.1761465 -1.8431487 4288085770
7.2321472 -1.8818474 -1.8578687 4288085770
2.2130432 -1.1472254 -1.8418682 4288085770
7.8694153 -1.8698883 -1.8610451 4288085770
2.4955139 -1.1173897 -1.8386002 4288085770
8.5686646 -1.8605976 -1.8664694 4288085770
2.8319702 -1.0901127 -1.8395505 4288085770
9.2261353 -1.8379631 -1.8586159 4288085770
3.2033691 -1.0641937 -1.8436394 4288085770
10.086334 -1.8324404 -1.8656542 4288085770
3.5548401 -1.0331297 -1.8396072 4288085770
3.9184265 -0.99921608 -1.8335907 4288085770
4.3738403 -0.97225571 -1.8349707 4288085770
4.8273926 -0.93931961 -1.8312864 4288085770
5.3459167 -0.90906525 -1.831861 4288085770
5.9223328 -0.88044071 -1.8336587 4288085770
6.5458984 -0.84834766 -1.8345923 4288085770
7.2773438 -0.82041073 -1.8399525 4288085770
8.0658569 -0.78812218 -1.8434761 4288085770
8.9643555 -0.75802135 -1.8504143 4288085770
9.8999329 -0.72138691 -1.8514235 4288085770
10.54837 1.9315901 -1.8175471 4288085770
9.899292 2.0067272 -1.8146274 4288085770
9.347168 2.0798187 -1.8140557 4288085770
8.769989 2.1461344 -1.8084641 4288085770
8.2658081 2.2116585 -1.8041275 4288085770
7.8016663 2.2777538 -1.8009205 4288085770
7.3654175 2.3395395 -1.7978497 4288085770
6.9541626 2.3990221 -1.7918851 4288085770
6.5559082 2.4563608 -1.7859852 4288085770
6.2297363 2.5199566 -1.7852697 4288085770
5.8514404 2.5700302 -1.7745066 4288085770
5.5551758 2.6292772 -1.771934 4288085770
5.2999573 2.69209 -1.7714663 4288085770
5.0346985 2.7489786 -1.7670212 4288085770
4.8155212 2.8113976 -1.7666788 4288085770
4.5692139 2.8640556 -1.7603381 4288085770
4.342926 2.9195051 -1.7550385 4288085770
4.198822 2.9881353 -1.7588906 4288085770
4.0325928 3.0509615 -1.7577238 4288085770
3.8493347 3.1079359 -1.7525551 4288085770
3.7121887 3.1734533 -1.752461 4288085770
3.611084 3.2446012 -1.7554345 4288085770
3.4898987 3.3089323 -1.7544055 4288085770
3.3637085 3.3723001 -1.7513685 4288085770
3.311676 3.4519272 -1.7564266 4288085770
10.884399 5.3021555 -1.8092911 4288085770
3.20755 3.5180511 -1.7534375 4288085770
10.69162 5.4012737 -1.8076842 4288085770
3.1494751 3.595727 -1.7564943 4288085770
10.540894 5.5079308 -1.8061469 4288085770
3.0844116 3.6704407 -1.7555549 4288085770
10.471405 5.6357632 -1.8116815 4288085770
3.0564575 3.755805 -1.7606392 4288085770
10.369812 5.7539024 -1.8122003 4288085770
3.0295105 3.8401289 -1.7627368 4288085770
10.275238 5.8729496 -1.8117337 4288085770
2.9985657 3.9234867 -1.7638297 4288085770
10.246826 6.0103016 -1.8143156 4288085770
2.9465027 4.0000391 -1.7609165 4288085770
10.219421 6.1456223 -1.8149195 4288085770
2.9486389 4.0930529 -1.7640288 4288085770
10.165985 6.2752018 -1.8124907 4288085770
2.9377136 4.1811819 -1.7641435 4288085770
10.200806 6.4308701 -1.8161099 4288085770
2.9078064 4.2644835 -1.7602398 4288085770
10.27179 6.5991383 -1.8197303 4288085770
2.9259644 4.3623104 -1.7623599 4288085770
10.331696 6.7655106 -1.8213313 4288085770
2.952179 4.4650526 -1.7644601 4288085770
10.47998 6.9639683 -1.8289232 4288085770
2.9363098 4.5521765 -1.7585666 4288085770
10.497833 7.1177197 -1.8215022 4288085770
2.95755 4.6539345 -1.7566588 4288085770
10.555817 7.2880421 -1.8160574 4288085770
3.0510254 4.7799826 -1.763762 4288085770
10.767426 7.5137882 -1.8216004 4288085770
3.090332 4.8885489 -1.7628496 4288085770
11.045288 7.7658539 -1.8321147 4288085770
3.1547852 5.0068417 -1.7619281 4288085770
3.241333 5.1349297 -1.7649877 4288085770
3.3258667 5.2640085 -1.7650306 4288085770
3.4485474 5.4086971 -1.7680526 4288085770
3.570282 5.5553894 -1.7700517 4288085770
3.7020569 5.7069626 -1.7710378 4288085770
3.86203 5.8732529 -1.7749777 4288085770
4.0571594 6.0571766 -1.7808669 4288085770
4.2412415 6.2371864 -1.7827556 4288085770
4.4414673 6.4280224 -1.7855947 4288085770
4.658783 6.6286564 -1.7863972 4288085770
4.9354553 6.8607063 -1.7940991 4288085770
5.260376 7.1162415 -1.8037372 4288085770
5.5381165 7.3562031 -1.8033648 4288085770
5.8149109 7.5981636 -1.8019693 4288085770
6.3219604 7.9578171 -1.8232214 4288085770
9.7989807 -0.30833912 -1.8347089 4288085770
8.6189575 -0.31336975 -1.835938 4288085770
7.4780579 -0.31194305 -1.8252316 4288085770
6.5191345 -0.31243134 -1.8231328 4288085770
5.6022644 -0.30745983 -1.8131177 4288085770
4.8203735 -0.3049078 -1.8095629 4288085770
4.1704712 -0.30273628 -1.8134387 4288085770
10.677002 -0.65498257 -1.8388269 4288085770
3.5485535 -0.29990768 -1.8133991 4288085770
9.300415 -0.62189865 -1.8350575 4288085770
2.9407349 -0.29327202 -1.8093686 4288085770
8.073822 -0.58949757 -1.82778 4288085770
2.4318848 -0.28867245 -1.8106778 4288085770
6.9782104 -0.5585289 -1.8209398 4288085770
1.9570007 -0.28343678 -1.8130913 4288085770
6.0286255 -0.53115177 -1.8156061 4288085770
1.5151672 -0.27758217 -1.8136053 4288085770
5.1899719 -0.50597954 -1.8116527 4288085770
1.1372986 -0.27336884 -1.8203423 4288085770
4.4303284 -0.4816618 -1.8089628 4288085770
0.73547363 -0.26498127 -1.8179617 4288085770
3.7816162 -0.46151257 -1.811672 4288085770
0.38165283 -0.25808048 -1.8197508 4288085770
3.1609497 -0.43872738 -1.8084462 4288085770
0.062835693 -0.251544 -1.8236566 4288085770
2.6222534 -0.41979313 -1.8105226 4288085770
-0.24603271 -0.24413586 -1.8255866 4288085770
2.1265259 -0.40132809 -1.8127427 4288085770
-0.5447998 -0.23485661 -1.8255308 4288085770
1.6767883 -0.38336754 -1.8151162 4288085770
-0.81161499 -0.22690105 -1.8285913 4288085770
1.256073 -0.36572456 -1.8175864 4288085770
-1.0754395 -0.21800423 -1.8286529 4288085770
0.87835693 -0.34953403 -1.8222098 4288085770
-1.354187 -0.20601177 -1.821636 4288085770
0.50262451 -0.33241367 -1.821831 4288085770
-1.5780029 -0.19753647 -1.8238306 4288085770
0.1758728 -0.31579971 -1.8246148 4288085770
-1.7738342 -0.19031811 -1.8311281 4288085770
-0.14480591 -0.29927063 -1.8254192 4288085770
-2.0255432 -0.17666149 -1.8201826 4288085770
-0.45755005 -0.2818594 -1.823241 4288085770
-2.3820496 -0.15314674 -1.7788036 4288085770
-0.7192688 -0.26692867 -1.8292515 4288085770
-2.5697937 -0.14310265 -1.7771001 4288085770
-1.0009766 -0.24986649 -1.8261771 4288085770
-2.7106628 -0.1364584 -1.7875807 4288085770
-1.2766724 -0.23189926 -1.8201134 4288085770
-2.825531 -0.13105011 -1.8031573 4288085770
-1.5093994 -0.21632481 -1.8222113 4288085770
-2.9923096 -0.1202364 -1.8015139 4288085770
-1.7351074 -0.20086575 -1.8203332 4288085770
-3.150116 -0.10951328 -1.8009009 4288085770
-1.9428406 -0.18557644 -1.8215148 4288085770
-3.3347778 -0.095608711 -1.7881701 4288085770
-2.2244263 -0.16368866 -1.8003945 4288085770
-3.449585 -0.087277412 -1.7957187 4288085770
-2.5020142 -0.1408844 -1.7752781 4288085770
-3.6053162 -0.073635101 -1.7890842 4288085770
-2.6488037 -0.12919331 -1.7836914 4288085770
-3.7001648 -0.066483498 -1.8007088 4288085770
-2.7895508 -0.1165781 -1.791115 4288085770
-3.789978 -0.058387756 -1.8123405 4288085770
-2.9512939 -0.10181141 -1.7904506 4288085770
-3.8748474 -0.050345421 -1.8239889 4288085770
-3.1000671 -0.088167191 -1.7918386 4288085770
-3.2148438 -0.075826645 -1.8003488 4288085770
-3.3904419 -0.058012962 -1.7886097 4288085770
-3.5292053 -0.043507576 -1.7870221 4288085770
-3.6539307 -0.02913475 -1.7874808 4288085770
-3.744751 -0.01803875 -1.7980804 4288085770
-3.8305054 -0.0060052872 -1.8076873 4288085770
-3.9142151 1.9242725 -1.7592981 4288085770
-3.8018494 1.946043 -1.759434 4288085770
-3.6904602 1.9657946 -1.7565861 4288085770
-3.5901489 1.9816275 -1.749742 4288085770
-3.4577332 2.0061884 -1.7509129 4288085770
-3.3273621 2.0277615 -1.7511067 4288085770
-3.1880188 2.0512342 -1.7513089 4288085770
-3.061676 2.0698032 -1.7465189 4288085770
-3.8928528 1.873045 -1.7628391 4288085770
-2.9172974 2.0912037 -1.7447574 4288085770
-3.785614 1.8858385 -1.7600462 4288085770
-2.7498779 2.1174021 -1.7480214 4288085770
-3.6793213 1.8976269 -1.75526 4288085770
-2.5914917 2.1396599 -1.7472951 4288085770
-3.5460205 1.9151974 -1.758502 4288085770
-2.420105 2.1647854 -1.7475815 4288085770
-3.4257202 1.9278517 -1.7557507 4288085770
-2.2427063 2.1888351 -1.7468967 4288085770
-3.2914429 1.9423809 -1.7560251 4288085770
-2.0392456 2.2176514 -1.7512469 4288085770
-3.1681824 1.9529839 -1.751303 4288085770
-1.8408813 2.2424908 -1.75262 4288085770
-3.0238647 1.9684057 -1.7515996 4288085770
-1.6113892 2.2750406 -1.7590144 4288085770
-2.8796082 1.9808168 -1.7509253 4288085770
-1.4039917 2.2977533 -1.7574356 4288085770
-2.7243347 1.9951181 -1.751267 4288085770
-1.1645813 2.3271656 -1.7608914 4288085770
-2.5560608 2.0112972 -1.7536306 4288085770
-0.94116211 2.3506947 -1.7583542 4288085770
-2.3797607 2.0263987 -1.75703 4288085770
-0.71481323 2.371172 -1.7538559 4288085770
-2.2254944 2.0356636 -1.7524166 4288085770
-0.45037842 2.399291 -1.7554014 4288085770
-2.0411987 2.0486574 -1.753861 4288085770
-0.18395996 2.4243698 -1.7549825 4288085770
-1.8379517 2.0654745 -1.758327 4288085770
0.10647583 2.4521961 -1.7556114 4288085770
-1.6236267 2.082181 -1.7638285 4288085770
0.38989258 2.4760599 -1.7522571 4288085770
-1.4514465 2.0862284 -1.7573216 4288085770
0.71536255 2.5055237 -1.7549787 4288085770
-1.2171631 2.1027164 -1.7628872 4288085770
1.0958862 2.5424356 -1.7627993 4288085770
-1.0129089 2.1104469 -1.759444 4288085770
1.4493103 2.5695648 -1.7626302 4288085770
-0.7746582 2.1218615 -1.7620709 4288085770
1.8187561 2.5964994 -1.7605124 4288085770
-0.54745483 2.1283493 -1.7597113 4288085770
2.2102051 2.6242142 -1.7604554 4288085770
-0.29220581 2.1375694 -1.7614119 4288085770
2.666748 2.6602669 -1.7655196 4288085770
-0.030975342 2.1457148 -1.7621415 4288085770
3.1492615 2.6940269 -1.7696867 4288085770
0.2472229 2.1536732 -1.7629259 4288085770
3.6477661 2.7275915 -1.7719052 4288085770
0.51342773 2.1557264 -1.7597299 4288085770
4.1482239 2.7540874 -1.7691979 4288085770
0.82962036 2.1643114 -1.7646263 4288085770
4.6816711 2.7832422 -1.7685668 4288085770
1.1808777 2.1755323 -1.7716055 4288085770
5.275177 2.8137417 -1.7681096 4288085770
1.4839783 2.173172 -1.7675674 4288085770
5.9697571 2.8562174 -1.7758501 4288085770
1.8201294 2.1734715 -1.7656054 4288085770
6.6452942 2.8868217 -1.7756457 4288085770
2.2113037 2.178237 -1.7707715 4288085770
7.4578857 2.9310064 -1.783735 4288085770
2.5774231 2.1742201 -1.7699449 4288085770
8.2524109 2.9623032 -1.7828932 4288085770
3.0255737 2.1783829 -1.7772934 4288085770
9.2531128 3.0144777 -1.7954886 4288085770
3.4916992 2.1793423 -1.7837288 4288085770
10.329865 3.0648012 -1.8063374 4288085770
3.9718323 2.1771374 -1.7892385 4288085770
4.3878174 2.1615076 -1.7816787 4288085770
4.8718567 2.1482029 -1.7813079 4288085770
5.4088745 2.1363382 -1.7830877 4288085770
5.9988708 2.1229258 -1.7880471 4288085770
6.6638794 2.110734 -1.7972276 4288085770
7.3407898 2.0903635 -1.8015244 4288085770
8.0496521 2.0656528 -1.8069627 4288085770
8.7774963 2.033699 -1.8085301 4288085770
9.5982666 2.0007677 -1.8143957 4288085770
10.487 1.9620962 -1.820528 4288085770
8.3978577 -7.7712598 -0.69339323 4293729569
8.0760803 -7.7453098 -0.73715067 4293729569
7.7255554 -7.7020469 -0.78064883 4293729569
6.8174438 -7.6057835 -0.91591716 4293729569
6.5526428 -7.5834265 -0.96288621 4293729569
6.337616 -7.5805912 -1.0122011 4293729569
6.0957947 -7.5604744 -1.0602632 4293729569
5.8818665 -7.550642 -1.1105126 4293729569
5.4413452 -7.4145155 -1.1408185 4293729569
5.3358154 -7.4547958 -1.1988964 4293729569
5.0693665 -7.40345 -1.2425747 4293729569
4.8079224 -7.3501472 -1.2872493 4293729569
4.5594482 -7.2970076 -1.3299654 4293729569
4.1182861 -7.1309443 -1.3529735 4293729569
4.1629944 -7.2407236 -1.4262004 4293729569
3.965332 -7.2050972 -1.4732459 4293729569
3.7855835 -7.1776567 -1.5214273 4293729569
3.5979309 -7.1421394 -1.5685048 4293729569
3.4838257 -7.147336 -1.6252106 4293729569
3.7260437 -7.3162355 -0.99358928 4293729569
3.473053 -7.2105293 -1.6958072 4293729569
3.6765137 -7.3530378 -1.0608062 4293729569
3.6072083 -7.3631067 -1.7877333 4288085770
3.7105408 -7.4366908 -1.1347426 4293729569
3.408783 -7.3064914 -1.8325694 4288085770
3.7206421 -7.506074 -1.209465 4293729569
2.8907166 -7.0468559 -1.8274159 4288085770
3.7169189 -7.563324 -1.282025 4293729569
2.4094543 -6.8036118 -1.8235373 4288085770
3.7072754 -7.6135006 -1.3554968 4293729569
1.9938354 -6.5940433 -1.8241928 4288085770
3.700592 -7.6636906 -1.4309781 4293729569
1.5802917 -6.380527 -1.8218155 4288085770
3.6840515 -7.7057915 -1.504349 4293729569
1.1181335 -6.1296 -1.8069191 4288085770
0.77816772 -5.9518566 -1.8081212 4288085770
0.45611572 -5.7812996 -1.8104494 4288085770
0.18078613 -5.6372013 -1.8181822 4288085770
-0.097473145 -5.4871116 -1.821847 4288085770
3.026001 -7.4926758 -1.7992485 4288085770
-0.36282349 -5.3401723 -1.8245826 4288085770
2.4637756 -7.1556182 -1.7871933 4288085770
-0.6340332 -5.1872082 -1.82324 4288085770
2.1101074 -6.9495773 -1.8030741 4288085770
-0.86846924 -5.0545964 -1.8272116 4288085770
1.7593689 -6.742609 -1.814955 4288085770
-1.1147766 -4.9109139 -1.8250372 4288085770
1.3175049 -6.4698334 -1.8069038 4288085770
-1.3432007 -4.7754073 -1.8249981 4288085770
0.93417358 -6.2326579 -1.803385 4288085770
-1.5507812 -4.6521277 -1.8251443 4288085770
0.60449219 -6.0270271 -1.8043425 4288085770
-1.7593079 -4.5238581 -1.8232379 4288085770
0.30368042 -5.8367 -1.8065395 4288085770
-1.9349976 -4.4158959 -1.826633 4288085770
0.051513672 -5.6758461 -1.8151777 4288085770
-2.0174561 -4.3687329 -1.8529165 4288085770
-0.21948242 -5.5008545 -1.8166175 4288085770
-2.162384 -4.2780676 -1.8605769 4288085770
-0.47055054 -5.3350711 -1.8192096 4288085770
-2.3240967 -4.1722875 -1.8610361 4288085770
-0.68295288 -5.1926804 -1.8251517 4288085770
-2.4808655 -4.0685716 -1.8605309 4288085770
-0.93197632 -5.0239878 -1.8207207 4288085770
-2.6375732 -3.9628768 -1.858006 4288085770
-1.1403198 -4.8806901 -1.8216658 4288085770
-2.7843628 -3.8612881 -1.8555522 4288085770
-1.3347473 -4.744544 -1.8227241 4288085770
-2.9212036 -3.7648005 -1.8541791 4288085770
-1.5419922 -4.5973072 -1.8186331 4288085770
-3.0500793 -3.6733885 -1.8538804 4288085770
-1.7056274 -4.4784775 -1.8219571 4288085770
-3.17099 -3.584074 -1.852627 4288085770
-1.7947693 -4.4073 -1.8419809 4288085770
-3.248291 -3.5241156 -1.8637986 4288085770
-1.9285583 -4.3047748 -1.8475578 4288085770
-3.3423767 -3.4510436 -1.8677881 4288085770
-2.0415344 -4.2154384 -1.8573289 4288085770
-3.4483337 -3.3688912 -1.8666511 4288085770
-2.1881714 -4.1018429 -1.8557558 4288085770
-3.5454102 -3.2908368 -1.865582 4288085770
-2.3218689 -3.9953785 -1.855293 4288085770
-3.6503296 -3.2057352 -1.8604183 4288085770
-2.4466553 -3.8940201 -1.8539081 4288085770
-3.7334595 -3.1358123 -1.8614721 4288085770
-2.5545959 -3.8027987 -1.8576753 4288085770
-3.8185425 -3.0628986 -1.8594904 4288085770
-2.6773376 -3.7004929 -1.853287 4288085770
-3.9006348 -2.9910159 -1.8575277 4288085770
-2.7782593 -3.6113758 -1.8540959 4288085770
-3.9777832 -2.9211893 -1.8556006 4288085770
-2.8652954 -3.5303907 -1.857028 4288085770
-2.9532471 -3.4484143 -1.8579471 4288085770
-3.04422 -3.3644266 -1.8568373 4288085770
-3.1202698 -3.2885904 -1.8568535 4288085770
-3.202301 -3.2087092 -1.854811 4288085770
-3.2704163 -3.1369591 -1.854892 4288085770
-3.3414612 -3.0621977 -1.8529339 4288085770
-3.4055786 -2.9925113 -1.851047 4288085770
-3.4706726 -2.9208255 -1.8481374 4288085770
-3.5278015 -2.8542151 -1.8463023 4288085770
-3.5422668 -2.8119407 -1.8578391 4288085770
-3.5904846 -2.7504292 -1.8560815 4288085770
-3.6277466 -2.6940055 -1.8574078 4288085770
-3.6759338 -2.6315136 -1.8536406 4288085770
-3.709198 -2.5771532 -1.8529992 4288085770
-3.7395325 -2.5238256 -1.8523772 4288085770
-3.7668457 -2.4725218 -1.8527842 4288085770
-3.7961731 -2.4202251 -1.8501754 4288085770
-3.8164978 -2.3720007 -1.8506327 4288085770
-3.8309021 -2.3258371 -1.8511286 4288085770
-3.8453064 -2.2816715 -1.8516443 4288085770
-3.8616638 -2.2345057 -1.8501241 4288085770
-3.8700562 -2.1924067 -1.8506784 4288085770
-3.8705444 -2.1533747 -1.8532875 4288085770
-3.8749695 -2.1123295 -1.8528643 4288085770
-3.8813782 -2.069273 -1.8514149 4288085770
-3.9196167 -2.0119972 -1.8367271 4288085770
-3.9379272 -1.96387 -1.8291907 4288085770
-3.9373779 -1.9248886 -1.8278029 4288085770
-3.9149475 -1.8970852 -1.8325925 4288085770
-3.9203796 -1.8550797 -1.8271561 4288085770
-3.8999023 -1.8232756 -1.8298993 4288085770
-3.8873901 -1.789423 -1.8285985 4288085770
-3.8739319 -1.7555828 -1.8273003 4288085770
-3.8395386 -1.7299013 -1.8331468 4288085770
-3.8051453 -1.7042379 -1.8369932 4288085770
-3.7807007 -1.6735067 -1.8367589 4288085770
-3.7453003 -1.6468649 -1.8395987 4288085770
-3.7088623 -1.6202335 -1.8424411 4288085770
-3.6784363 -1.591567 -1.8422453 4288085770
-3.638031 -1.5659904 -1.8441098 4288085770
-3.5976257 -1.539422 -1.8449647 4288085770
-3.5701599 -1.5087538 -1.8417397 4288085770
-3.5297241 -1.4812059 -1.8405843 4288085770
-3.4883423 -1.454669 -1.8394423 4288085770
-3.4508972 -1.4271097 -1.8362775 4288085770
-3.4194336 -1.3965139 -1.8300645 4288085770
-3.3391418 -1.3813009 -1.8391521 4288085770
-3.2857666 -1.356883 -1.8390667 4288085770
-3.234375 -1.3324652 -1.8369749 4288085770
-3.1689758 -1.3101692 -1.8379462 4288085770
-3.1225586 -1.2827368 -1.8318095 4288085770
-3.058197 -1.2604504 -1.8307776 4288085770
-3.00177 -1.2341156 -1.8256812 4288085770
-2.9303894 -1.2119045 -1.8246708 4288085770
-2.8550415 -1.1907377 -1.823683 4288085770
-3.8253784 -0.93887234 -1.8492632 4288085770
-2.7607117 -1.1737356 -1.826793 4288085770
-3.7719727 -0.91649628 -1.8451972 4288085770
-2.6853333 -1.150588 -1.8237851 4288085770
-3.6986694 -0.89827633 -1.8472328 4288085770
-2.5890503 -1.1326275 -1.8248913 4288085770
-3.6263733 -0.88006592 -1.8472655 4288085770
-2.4966736 -1.1126451 -1.8239653 4288085770
-3.5739441 -0.85670757 -1.8401864 4288085770
-2.4033203 -1.0926838 -1.8220422 4288085770
-3.4946594 -0.83856392 -1.8412402 4288085770
-2.3119507 -1.0717201 -1.8181031 4288085770
-3.4132996 -0.82045174 -1.8413 4288085770
-2.1687317 -1.0601997 -1.8264139 4288085770
-3.3499146 -0.79821205 -1.8342648 4288085770
-2.0693359 -1.0383339 -1.8214891 4288085770
-3.2576294 -0.78120804 -1.8353686 4288085770
-1.94104 -1.0217218 -1.8227034 4288085770
-3.1683044 -0.76319408 -1.8344529 4288085770
-1.8017578 -1.0072184 -1.8249714 4288085770
-3.0829468 -0.74415302 -1.8315148 4288085770
-1.6554871 -0.99279118 -1.8272612 4288085770
-2.9975891 -0.7241354 -1.8265669 4288085770
-1.526123 -0.97324085 -1.8234484 4288085770
-2.8683167 -0.71147251 -1.8338239 4288085770
-1.3738403 -0.95790005 -1.8237462 4288085770
-2.7719727 -0.69255257 -1.8309195 4288085770
-1.2065735 -0.94371033 -1.8251002 4288085770
-2.6716614 -0.67369747 -1.8260274 4288085770
-1.0083313 -0.93379879 -1.8325891 4288085770
-2.5852661 -0.65173912 -1.8160622 4288085770
-0.83303833 -0.91772747 -1.8309474 4288085770
-2.4330139 -0.64031696 -1.8243995 4288085770
-0.5569458 -0.91755295 -1.8497663 4288085770
-2.2977295 -0.62479115 -1.8246446 4288085770
-0.3296814 -0.90697479 -1.855334 4288085770
-2.1753845 -0.60716343 -1.8208299 4288085770
-0.14233398 -0.88807583 -1.8496988 4288085770
-2.005127 -0.59496593 -1.8262122 4288085770
0.0859375 -0.87456894 -1.8492398 4288085770
-1.8907776 -0.57431316 -1.8163426 4288085770
0.31427002 -0.85908318 -1.8467603 4288085770
-1.7154846 -0.56019115 -1.8197203 4288085770
0.57553101 -0.84593678 -1.8464024 4288085770
-1.5262146 -0.5472126 -1.8241508 4288085770
0.82583618 -0.83070946 -1.8419902 4288085770
-1.3648987 -0.53001881 -1.8194549 4288085770
1.0871887 -0.81462383 -1.835602 4288085770
-1.140686 -0.51938915 -1.8270128 4288085770
1.4284058 -0.80629444 -1.8405294 4288085770
-0.88647461 -0.51003456 -1.8396726 4288085770
1.7147522 -0.78949833 -1.8322072 4288085770
-0.65118408 -0.49756527 -1.8432438 4288085770
2.0640259 -0.77832699 -1.8301287 4288085770
-0.44485474 -0.48085976 -1.8386858 4288085770
2.4353333 -0.76639462 -1.8281076 4288085770
-0.20657349 -0.46546364 -1.8382356 4288085770
2.8215942 -0.75366592 -1.8221223 4288085770
0.030761719 -0.44909477 -1.8337727 4288085770
3.2968445 -0.74681282 -1.8254602 4288085770
0.30010986 -0.43405342 -1.8314178 4288085770
3.8040466 -0.73833942 -1.8258765 4288085770
0.59036255 -0.41923237 -1.8301272 4288085770
4.3363037 -0.72916698 -1.8233593 4288085770
0.89868164 -0.403615 -1.8278816 4288085770
4.9385376 -0.72372341 -1.8240864 4288085770
1.2259827 -0.38819504 -1.826694 4288085770
5.5777893 -0.71671295 -1.8219068 4288085770
1.5802612 -0.37407875 -1.824599 4288085770
6.368927 -0.71725464 -1.8302538 4288085770
1.9556274 -0.35820007 -1.8215485 4288085770
7.2191162 -0.7164669 -1.8357613 4288085770
2.3769226 -0.34478855 -1.8216584 4288085770
8.2062378 -0.71914673 -1.843709 4288085770
2.8072815 -0.3285284 -1.8167663 4288085770
9.2404175 -0.71840763 -1.8447607 4288085770
3.3395386 -0.31629658 -1.8202164 4288085770
10.417603 -0.72123337 -1.8452706 4288085770
3.902832 -0.30341053 -1.822751 4288085770
4.505188 -0.28798676 -1.8213754 4288085770
5.194458 -0.27546978 -1.824286 4288085770
5.90979 -0.26029491 -1.8212459 4288085770
6.8130798 -0.24906349 -1.8288019 4288085770
7.8083191 -0.23781967 -1.8376293 4288085770
8.9126587 -0.2238121 -1.8417501 4288085770
10.199005 -0.21175098 -1.8494284 4288085770
9.5992126 0.066889763 -1.8388948 4288085770
8.3254089 0.079559326 -1.8334835 4288085770
7.1526184 0.093080521 -1.822324 4288085770
6.1268616 0.10704231 -1.813539 4288085770
5.2070618 0.11986542 -1.8050389 4288085770
4.465271 0.13087654 -1.8070152 4288085770
3.8164673 0.14190865 -1.8112304 4288085770
9.8627014 0.03899765 -1.83376 4288085770
3.1506958 0.15501022 -1.8043818 4288085770
8.5530701 0.065050125 -1.828126 4288085770
2.5779114 0.16615391 -1.8017926 4288085770
7.398407 0.089438438 -1.8229074 4288085770
2.0701294 0.17762852 -1.802367 4288085770
6.330719 0.11382771 -1.8119135 4288085770
1.6263123 0.188447 -1.806113 4288085770
5.4040527 0.13572216 -1.8033071 4288085770
1.1925354 0.20010662 -1.8048763 4288085770
4.635376 0.15598011 -1.8011231 4288085770
0.83673096 0.21102047 -1.8128479 4288085770
3.9656372 0.17422581 -1.8042142 4288085770
0.43096924 0.22332668 -1.8066771 4288085770
3.3259277 0.19309902 -1.8023765 4288085770
0.11816406 0.23375607 -1.8127644 4288085770
2.7242126 0.21151066 -1.7956412 4288085770
-0.21054077 0.2452755 -1.8107998 4288085770
2.2104797 0.22805882 -1.7971509 4288085770
-0.5093689 0.25649548 -1.8109157 4288085770
1.7517395 0.24502754 -1.7997983 4288085770
-0.75518799 0.26722527 -1.8191729 4288085770
1.3209839 0.26067448 -1.8005307 4288085770
-1.0309448 0.27916527 -1.8163404 4288085770
0.96923828 0.27554321 -1.8084733 4288085770
-1.2726746 0.29077911 -1.8175988 4288085770
0.58450317 0.29166412 -1.8063192 4288085770
-1.5294495 0.30248451 -1.8118181 4288085770
0.23275757 0.30643082 -1.8042641 4288085770
-1.7601929 0.31393051 -1.8081069 4288085770
-0.08895874 0.32189465 -1.8042784 4288085770
-1.9879761 0.3253231 -1.8024042 4288085770
-0.34771729 0.33476448 -1.8124809 4288085770
-2.2486877 0.33794594 -1.7846043 4288085770
-0.62646484 0.34977722 -1.8136106 4288085770
-2.4634399 0.35016632 -1.7759268 4288085770
-0.89620972 0.36466217 -1.8117645 4288085770
-2.5792542 0.35958385 -1.7925315 4288085770
-1.1459656 0.37834072 -1.8109825 4288085770
-2.7420044 0.3713398 -1.7929919 4288085770
-1.3886719 0.39292622 -1.8082092 4288085770
-2.8967896 0.38300896 -1.7934737 4288085770
-1.6174011 0.40735912 -1.8054733 4288085770
-3.0475464 0.39462566 -1.7929668 4288085770
-1.8331299 0.42065239 -1.8027828 4288085770
-3.1763 0.40605736 -1.797518 4288085770
-2.0678711 0.43406868 -1.7920427 4288085770
-3.3230591 0.41759968 -1.7940221 4288085770
-2.2995911 0.44743061 -1.7793107 4288085770
-3.4758301 0.42916489 -1.7865109 4288085770
-2.4973145 0.46147919 -1.7716589 4288085770
-3.6015625 0.44050121 -1.7850709 4288085770
-2.6160889 0.47487545 -1.7832155 4288085770
-3.6903687 0.4525547 -1.7947183 4288085770
-2.7558289 0.48842525 -1.7877171 4288085770
-3.7771301 0.46458721 -1.8043711 4288085770
-2.8955688 0.50194454 -1.7892191 4288085770
-3.8588867 0.47755432 -1.8130269 4288085770
-3.0412903 0.51549625 -1.7877057 4288085770
-3.1630554 0.52883148 -1.7902555 4288085770
-3.3187866 0.54141712 -1.7817266 4288085770
-3.4295349 0.55463505 -1.7843063 4288085770
-3.5612793 0.56799507 -1.7788308 4288085770
-3.6520081 0.58202839 -1.7844529 4288085770
-3.7237854 0.59592056 -1.7961252 4288085770
-3.7985229 0.61081123 -1.8047793 4288085770
-3.8642883 0.62563801 -1.8164573 4288085770
-3.4162903 2.8512478 -1.7289195 4288085770
-3.2847595 2.8928175 -1.7300014 4288085770
-3.1812744 2.9215889 -1.7211061 4288085770
-3.0236206 2.9719172 -1.7261996 4288085770
-2.8860474 3.0114012 -1.725327 4288085770
-2.7264099 3.0586758 -1.7274606 4288085770
-2.5838318 3.0970736 -1.7236192 4288085770
-2.4151917 3.1442394 -1.7247894 4288085770
-3.4414978 2.753561 -1.7358282 4288085770
-2.2425842 3.1903524 -1.7249866 4288085770
-3.3220825 2.780221 -1.7330196 4288085770
-2.0699463 3.2354536 -1.724194 4288085770
-3.2006226 2.8068495 -1.729219 4288085770
-1.8501282 3.2971354 -1.7324145 4288085770
-3.0802612 2.8294783 -1.7244565 4288085770
-1.6585083 3.3450298 -1.7316682 4288085770
-2.9227295 2.8678083 -1.7296765 4288085770
-1.4437866 3.3997049 -1.7339423 4288085770
-2.7572327 2.9060621 -1.7359293 4288085770
-1.2351074 3.4484024 -1.732255 4288085770
-2.5926819 2.9422951 -1.7391992 4288085770
-1.0184021 3.4990234 -1.7315791 4288085770
-2.4372253 2.9725838 -1.7384953 4288085770
-0.77667236 3.5554028 -1.7339425 4288085770
-2.2687378 3.0057516 -1.7398131 4288085770
-0.53292847 3.6097279 -1.7333353 4288085770
-2.1273804 3.0261316 -1.7331576 4288085770
-0.25811768 3.6727581 -1.7367597 4288085770
-1.9498901 3.0581903 -1.7335229 4288085770
0.029724121 3.7376461 -1.740216 4288085770
-1.7734375 3.0872402 -1.731916 4288085770
0.31747437 3.7985125 -1.741715 4288085770
-1.5839233 3.1191692 -1.7323301 4288085770
0.63433838 3.8650846 -1.7452691 4288085770
-1.3724365 3.1558895 -1.7357814 4288085770
0.98129272 3.9393482 -1.7508614 4288085770
-1.1749573 3.1857204 -1.7352495 4288085770
1.3492432 4.0163937 -1.757508 4288085770
-0.9704895 3.2144756 -1.7347567 4288085770
1.7201843 4.0903749 -1.7611985 4288085770
-0.74200439 3.2489901 -1.7362988 4288085770
2.1091614 4.1651602 -1.7649522 4288085770
-0.51254272 3.2804937 -1.7378767 4288085770
2.5050659 4.2378492 -1.7667556 4288085770
-0.29110718 3.3070421 -1.7354746 4288085770
2.953125 4.3230085 -1.7726343 4288085770
-0.056640625 3.3344593 -1.7341151 4288085770
3.3951111 4.3991966 -1.7745836 4288085770
0.21084595 3.3695698 -1.7378061 4288085770
3.8560791 4.4771624 -1.7755897 4288085770
0.47134399 3.398715 -1.7375317 4288085770
4.3441162 4.5578356 -1.7766743 4288085770
0.75079346 3.4306831 -1.7403033 4288085770
4.8982849 4.6518526 -1.7838809 4288085770
1.0533142 3.4664125 -1.7441268 4288085770
5.4634094 4.7417049 -1.7871752 4288085770
1.3688354 3.5020094 -1.7490032 4288085770
6.0906677 4.8429022 -1.7925961 4288085770
1.6943054 3.5344772 -1.7519526 4288085770
6.7659302 4.9505968 -1.8001397 4288085770
2.0117188 3.5610123 -1.7529325 4288085770
7.4923096 5.062747 -1.8088391 4288085770
2.3591919 3.5932398 -1.7559714 4288085770
8.3188477 5.1948547 -1.822726 4288085770
2.7377319 3.6291618 -1.762095 4288085770
9.0901489 5.2994528 -1.8256831 4288085770
3.1061707 3.6551504 -1.7642834 4288085770
9.9756775 5.4248657 -1.8348746 4288085770
3.5126038 3.6877565 -1.7695532 4288085770
10.932312 5.5585041 -1.8442614 4288085770
3.9120178 3.7114086 -1.7718894 4288085770
4.339447 3.7387657 -1.7752979 4288085770
4.7928772 3.7658606 -1.7808125 4288085770
5.2492371 3.7879028 -1.7843924 4288085770
5.7636719 3.8163538 -1.7921355 4288085770
6.2680359 3.8358717 -1.7959325 4288085770
6.7652893 3.846447 -1.7977962 4288085770
7.2995605 3.8586283 -1.8007898 4288085770
7.986084 3.8963003 -1.81812 4288085770
8.4450684 3.8781757 -1.8091345 4288085770
9.1304016 3.8957977 -1.8206718 4288085770
9.7785645 3.8987494 -1.8252161 4288085770
10.476715 3.9011879 -1.8329649 4288085770
11.187805 3.8964758 -1.8398407 4288085770
10.243744 -5.1002622 -0.70800769 4293729569
11.146484 -5.3981495 -1.7378051 4293729569
10.231262 -5.2285495 -0.76332998 4293729569
8.1334229 -4.6464224 -1.5269086 4293729569
10.185822 -5.3484569 -0.8204338 4293729569
9.0885925 -5.0533676 -1.6700196 4293729569
10.254028 -5.5015574 -0.88233924 4293729569
9.003479 -5.1519179 -1.7197385 4293729569
8.3303528 -5.0268731 -0.84769869 4293729569
8.4161987 -5.0904889 -1.7207711 4293729569
8.1027832 -5.070909 -0.89327526 4293729569
