# .PCD v0.7 - Point Cloud Data file format
VERSION 0.7
FIELDS x y z rgb
SIZE 4 4 4 4
TYPE F F F U
COUNT 1 1 1 1
WIDTH 1128
HEIGHT 1
VIEWPOINT 0 0 0 1 0 0 0
POINTS 1128
DATA ascii
2.3260956 -2.4559903 -1.8063983 4288085770
2.3986816 -0.23973614 -1.800423 4288085770
2.4998474 -0.2282781 -1.8003076 4288085770
2.621994 -0.2179032 -1.8034068 4288085770
2.7202454 -0.20447308 -1.7982451 4288085770
2.8414001 -0.19411916 -1.7983342 4288085770
2.9416809 -0.18072569 -1.7901922 4288085770
3.0628815 -0.16939795 -1.7872728 4288085770
3.2050323 -0.15914488 -1.7885681 4288085770
3.3532104 -0.14792323 -1.7899131 4288085770
2.4403992 -0.07993573 -1.8064076 4288085770
3.5083923 -0.13774657 -1.7903358 4288085770
2.5346527 -0.068502128 -1.7992238 4288085770
3.6545868 -0.12655818 -1.7866617 4288085770
2.662796 -0.059167266 -1.8013903 4288085770
3.8118134 -0.11542684 -1.7830952 4288085770
2.7769928 -0.048811436 -1.7974111 4288085770
3.9810028 -0.1053496 -1.780655 4288085770
2.9011993 -0.038507879 -1.7935299 4288085770
4.1412659 -0.09326911 -1.7731096 4288085770
3.0274048 -0.029214978 -1.7896768 4288085770
4.3194885 -0.083256066 -1.7687577 4288085770
3.1626129 -0.019959986 -1.7869121 4288085770
4.5336304 -0.073387444 -1.7697586 4288085770
3.3307343 -0.010816336 -1.7914699 4288085770
4.7398529 -0.063520491 -1.7656811 4288085770
3.4898987 -0.0016694665 -1.7909402 4288085770
4.967041 -0.053745687 -1.7638093 4288085770
3.6660614 0.0063979626 -1.7915856 4288085770
5.2172394 -0.044082224 -1.7631627 4288085770
3.8262939 0.016496122 -1.7860571 4288085770
5.4824219 -0.034496963 -1.7626635 4288085770
3.9905243 0.02456516 -1.7795852 4288085770
5.7486267 -0.024951756 -1.7581741 4288085770
4.1767273 0.033544958 -1.7763201 4288085770
6.0528259 -0.01558733 -1.7560569 4288085770
4.3809204 0.04143995 -1.7742401 4288085770
6.3700256 -0.0072905421 -1.7540759 4288085770
4.5881195 0.049301565 -1.7701894 4288085770
6.7401886 0.0017642975 -1.7566053 4288085770
4.8232727 0.057043731 -1.7694131 4288085770
7.1063995 0.0097793341 -1.7521046 4288085770
5.056488 0.064769924 -1.7656175 4288085770
7.5535278 0.01845032 -1.7573885 4288085770
5.3206635 0.072352231 -1.7641252 4288085770
8.0057373 0.026034296 -1.7557303 4288085770
5.5888672 0.078887165 -1.7596811 4288085770
8.5079193 0.033365786 -1.7555624 4288085770
5.878067 0.085321844 -1.7564427 4288085770
9.095047 0.04128927 -1.7602187 4288085770
6.1892853 0.092624009 -1.7514113 4288085770
9.7511597 0.0478701 -1.7675594 4288085770
6.5494385 0.097722828 -1.7528769 4288085770
10.453339 0.054167211 -1.7703513 4288085770
6.9465637 0.10262889 -1.7547053 4288085770
11.230484 0.060064375 -1.7728785 4288085770
7.3777008 0.10735744 -1.7568668 4288085770
12.035721 0.066754401 -1.7686716 4288085770
7.8328705 0.11193484 -1.7562636 4288085770
12.922974 0.070982039 -1.7612859 4288085770
8.3290405 0.11630684 -1.7570618 4288085770
13.880295 0.075792015 -1.7485777 4288085770
8.9121399 0.11926049 -1.7627212 4288085770
15.102539 0.078289807 -1.7464751 4288085770
9.5692596 0.12182814 -1.7691058 4288085770
16.453796 0.081071079 -1.7406279 4288085770
10.271347 0.12415212 -1.7749313 4288085770
11.028503 0.12514597 -1.7763046 4288085770
11.869659 0.12468427 -1.7765101 4288085770
12.740906 0.12299639 -1.7690185 4288085770
13.71315 0.11975545 -1.7595252 4288085770
14.837357 0.11473054 -1.7525302 4288085770
16.170563 0.10762459 -1.7485918 4288085770
16.599564 -5.9311585 -0.54133642 4293729569
16.513077 -5.7692947 -0.58707488 4293729569
16.981781 -5.0694156 -0.85352504 4293729569
16.965317 -4.9240208 -0.88808978 4293729569
17.310776 0.25901169 -1.7421111 4288085770
15.790024 0.29196674 -1.7377855 4288085770
14.58815 0.32333511 -1.7436272 4288085770
13.527298 0.35194772 -1.7478873 4288085770
12.641403 0.37868267 -1.7568938 4288085770
11.869507 0.40482837 -1.7670323 4288085770
11.13063 0.42874926 -1.7715162 4288085770
10.454788 0.45133597 -1.7756344 4288085770
16.773758 0.63964671 -1.7214924 4288085770
9.7870026 0.4718011 -1.7708498 4288085770
15.468842 0.65953821 -1.7254115 4288085770
9.1772308 0.49093968 -1.7636501 4288085770
14.398895 0.68024176 -1.7346481 4288085770
8.6094818 0.50785154 -1.755885 4288085770
13.425003 0.70040518 -1.739838 4288085770
8.0977173 0.52548319 -1.749667 4288085770
12.585052 0.71990186 -1.7493593 4288085770
7.6579132 0.54276997 -1.7471641 4288085770
11.848145 0.73984832 -1.7578951 4288085770
7.2481079 0.56090111 -1.7449502 4288085770
11.158249 0.75852507 -1.7639066 4288085770
6.889267 0.57779604 -1.7462519 4288085770
10.546356 0.77779883 -1.7706841 4288085770
6.5654449 0.59550935 -1.747892 4288085770
9.8985443 0.79114228 -1.7641572 4288085770
6.2735748 0.61308438 -1.7528502 4288085770
9.3197479 0.80413848 -1.7593156 4288085770
5.9667664 0.62867373 -1.7506765 4288085770
8.7599792 0.81599158 -1.7496716 4288085770
5.7159271 0.64702743 -1.7550329 4288085770
8.2891541 0.83043796 -1.7468852 4288085770
5.4760437 0.66331559 -1.7585162 4288085770
7.8433533 0.84272867 -1.7413648 4288085770
5.2362213 0.67956787 -1.7579993 4288085770
7.4495239 0.85677725 -1.7393438 4288085770
5.0193939 0.69572848 -1.7607106 4288085770
7.0997009 0.87160724 -1.7387508 4288085770
4.8005829 0.71085447 -1.7584118 4288085770
6.7868347 0.88727289 -1.7415165 4288085770
4.6127319 0.72786492 -1.7614022 4288085770
6.5119629 0.90375966 -1.7466511 4288085770
4.4428864 0.74479085 -1.7655717 4288085770
6.2371368 0.91921085 -1.7477943 4288085770
4.2900085 0.76164693 -1.7719101 4288085770
5.9413452 0.93170768 -1.7417554 4288085770
4.113205 0.77655631 -1.7700275 4288085770
5.6994934 0.94698864 -1.7432264 4288085770
3.9703369 0.79434234 -1.7744564 4288085770
5.4846649 0.96313864 -1.745957 4288085770
3.8105469 0.80916387 -1.7727426 4288085770
5.2668152 0.97828609 -1.7466668 4288085770
3.6836853 0.82586771 -1.7773393 4288085770
5.0629883 0.99336094 -1.7475156 4288085770
3.5538483 0.84256893 -1.7799059 4288085770
4.8831482 1.009321 -1.7495939 4288085770
3.4240112 0.8582527 -1.7804815 4288085770
4.7123108 1.0262437 -1.7527522 4288085770
3.305191 0.8748886 -1.7821573 4288085770
4.5554504 1.0430939 -1.7560507 4288085770
3.1793976 0.889525 -1.7797812 4288085770
4.3986206 1.0599346 -1.7583486 4288085770
3.0725555 0.90610737 -1.7825764 4288085770
4.2657623 1.0786784 -1.763867 4288085770
2.9707184 0.92265564 -1.7844211 4288085770
4.1399078 1.0973859 -1.7694553 4288085770
2.8778839 0.94017488 -1.7883462 4288085770
3.9980927 1.1131229 -1.7689112 4288085770
2.7810669 0.95668775 -1.7892405 4288085770
3.8333282 1.1249158 -1.7611736 4288085770
2.6992035 0.97515887 -1.7942661 4288085770
3.7384491 1.1454813 -1.7690524 4288085770
2.6014252 0.98964149 -1.7911681 4288085770
3.6186371 1.1621039 -1.7687179 4288085770
2.5105896 1.0061147 -1.7911221 4288085770
3.5137939 1.1806853 -1.7725147 4288085770
2.432785 1.0225296 -1.7922052 4288085770
3.3930206 1.1952868 -1.7691878 4288085770
2.3579407 1.0409379 -1.7943004 4288085770
3.2982025 1.2137983 -1.7710842 4288085770
3.1983795 1.2303271 -1.7719485 4288085770
3.1095581 1.2488077 -1.7739042 4288085770
3.0337372 1.2692385 -1.7779719 4288085770
2.9369354 1.2847159 -1.7748748 4288085770
2.8601227 1.3031254 -1.7759498 4288085770
2.7853088 1.3225334 -1.778036 4288085770
2.7164917 1.3419106 -1.780182 4288085770
2.660675 1.3642383 -1.7844304 4288085770
2.5838928 1.3816214 -1.7825142 4288085770
2.5140991 1.3999767 -1.7816588 4288085770
2.4502869 1.4183013 -1.7808632 4288085770
2.3935089 1.4395988 -1.7811106 4288085770
2.3406982 1.4598932 -1.7834064 4288085770
2.4068604 3.2581906 -1.7630583 4288085770
2.4603119 3.3088369 -1.7551397 4288085770
2.550766 3.3803897 -1.7584041 4288085770
2.6302338 3.4459553 -1.7566122 4288085770
2.7187042 3.514483 -1.7558836 4288085770
2.8122101 3.5859852 -1.7551788 4288085770
2.9147034 3.6614494 -1.7555283 4288085770
3.0132141 3.7339077 -1.7528652 4288085770
3.1307373 3.8173027 -1.7542945 4288085770
3.2432861 3.8956976 -1.7527181 4288085770
3.3618469 3.9770522 -1.7501758 4288085770
3.5114594 4.0762992 -1.7537836 4288085770
2.4041748 3.4661674 -1.7641946 4288085770
3.6560211 4.1715546 -1.7553777 4288085770
2.5056305 3.5316291 -1.7636236 4288085770
3.8076477 4.2687645 -1.756024 4288085770
2.6100922 3.597074 -1.7630826 4288085770
3.9932861 4.3848534 -1.7628423 4288085770
2.716568 3.6624913 -1.7605621 4288085770
4.1669922 4.4939489 -1.7636029 4288085770
2.828064 3.7288833 -1.758083 4288085770
4.3446503 4.6020164 -1.7634131 4288085770
2.9675598 3.8121834 -1.7617329 4288085770
4.537384 4.7170053 -1.7633115 4288085770
3.0870667 3.8805242 -1.7583169 4288085770
4.7411041 4.8379469 -1.7642673 4288085770
3.2125854 3.9508257 -1.7539433 4288085770
4.9238434 4.9429255 -1.7571555 4288085770
3.3741302 4.0420208 -1.7587434 4288085770
5.1416321 5.0677676 -1.755217 4288085770
3.5326996 4.1301951 -1.7595407 4288085770
5.3774414 5.1995339 -1.7553965 4288085770
3.7082825 4.2263179 -1.7644371 4288085770
5.6282806 5.3402128 -1.7546474 4288085770
3.8708344 4.3104453 -1.7623106 4288085770
5.8801575 5.4768624 -1.7509443 4288085770
4.0494232 4.4035172 -1.7632648 4288085770
6.1560516 5.6244025 -1.7493843 4288085770
4.2350464 4.4975343 -1.7622808 4288085770
6.4620361 5.7887979 -1.7489744 4288085770
4.4346619 4.5985069 -1.7643746 4288085770
6.8020477 5.9690437 -1.7517635 4288085770
4.626297 4.6904664 -1.7604691 4288085770
7.1501312 6.1502213 -1.7516247 4288085770
4.8439789 4.7953176 -1.759709 4288085770
7.557312 6.3621373 -1.7568027 4288085770
5.081665 4.9110937 -1.7620519 4288085770
7.9835205 6.5809565 -1.7621094 4288085770
5.3083496 5.0148907 -1.7603921 4288085770
8.3877411 6.7817993 -1.757357 4288085770
5.5530701 5.1265845 -1.7578415 4288085770
8.8490448 7.0103817 -1.7569281 4288085770
5.8037872 5.2372484 -1.755361 4288085770
9.3334198 7.2468476 -1.7566592 4288085770
6.0715485 5.3558326 -1.75398 4288085770
9.8799286 7.514008 -1.7587379 4288085770
6.3523102 5.4773512 -1.7527033 4288085770
10.447464 7.7860427 -1.7589837 4288085770
6.6331024 5.5948334 -1.7474626 4288085770
6.977951 5.7450728 -1.752571 4288085770
7.3168182 5.8872895 -1.751691 4288085770
7.6947327 6.0463409 -1.7550515 4288085770
8.1026917 6.2162542 -1.7606162 4288085770
8.5206757 6.3860903 -1.7632817 4288085770
8.9176178 6.5369816 -1.7599066 4288085770
9.3536377 6.70468 -1.7577726 4288085770
9.8377228 6.8911657 -1.7599517 4288085770
10.357864 7.0894647 -1.7623867 4288085770
10.910034 7.2966084 -1.7660638 4288085770
11.341034 7.4322085 -1.7501677 4288085770
11.952301 7.6520209 -1.7513236 4288085770
12.653702 7.9114375 -1.7610284 4288085770
16.592728 -1.6608183 -1.7879626 4288085770
15.744736 -1.6944814 -1.7767435 4288085770
15.045593 -1.7328312 -1.776064 4288085770
14.555237 -1.7851315 -1.7916099 4288085770
14.035995 -1.8283184 -1.8027819 4288085770
13.536743 -1.8686087 -1.8141292 4288085770
12.926758 -1.8854539 -1.810151 4288085770
12.23201 -1.8849697 -1.7931625 4288085770
11.712021 -1.9012606 -1.7920831 4288085770
11.314835 -1.927086 -1.8033255 4288085770
10.851868 -1.9376711 -1.8027681 4288085770
10.342056 -1.9350771 -1.7946199 4288085770
16.553391 -2.9698544 -1.7733921 4288085770
9.8762054 -1.9337009 -1.7879244 4288085770
15.752457 -2.9465663 -1.7841333 4288085770
9.4283752 -1.9294176 -1.7813841 4288085770
15.066422 -2.9318259 -1.8011073 4288085770
9.0135193 -1.9252865 -1.7771767 4288085770
14.377518 -2.907124 -1.8119618 4288085770
8.6475983 -1.9253714 -1.7774996 4288085770
13.621826 -2.8631768 -1.8109695 4288085770
8.2867432 -1.9215095 -1.7748369 4288085770
12.844284 -2.8041973 -1.8006216 4288085770
7.978775 -1.9228573 -1.779754 4288085770
12.083801 -2.7413328 -1.7874092 4288085770
7.644928 -1.9161345 -1.7773372 4288085770
11.487076 -2.7012131 -1.7870497 4288085770
7.3559875 -1.9145985 -1.7804192 4288085770
10.929337 -2.6622853 -1.7880925 4288085770
7.0630951 -1.9080689 -1.7804161 4288085770
10.397629 -2.6225181 -1.786389 4288085770
6.7951965 -1.9026411 -1.7836741 4288085770
9.8779755 -2.5788307 -1.7827708 4288085770
6.5343018 -1.8962674 -1.7849942 4288085770
9.3813171 -2.534271 -1.778376 4288085770
6.2953796 -1.8909891 -1.7885453 4288085770
8.9196777 -2.4918909 -1.7743524 4288085770
6.0345764 -1.8776426 -1.7868024 4288085770
8.5099335 -2.4557431 -1.7749077 4288085770
5.8156433 -1.8724583 -1.791555 4288085770
8.1351624 -2.4237661 -1.776852 4288085770
5.5578918 -1.8541632 -1.785798 4288085770
7.770401 -2.3898494 -1.7778794 4288085770
5.3470001 -1.8450384 -1.7885956 4288085770
7.4176788 -2.3540037 -1.77801 4288085770
5.1251831 -1.8298929 -1.7872287 4288085770
7.095932 -2.32233 -1.7794725 4288085770
4.9343109 -1.8208834 -1.7912091 4288085770
6.7861786 -2.2897067 -1.7800599 4288085770
4.7573853 -1.8119168 -1.7963468 4288085770
6.5193481 -2.2642596 -1.7861441 4288085770
4.5605774 -1.7959013 -1.79522 4288085770
6.2296143 -2.2307575 -1.7849253 4288085770
4.3608093 -1.7768973 -1.7910367 4288085770
5.9797974 -2.2044163 -1.789173 4288085770
4.1929474 -1.7639952 -1.7942294 4288085770
5.7280273 -2.1740825 -1.7913646 4288085770
4.0350952 -1.7521442 -1.7975324 4288085770
5.4573822 -2.1357229 -1.7852935 4288085770
3.8632965 -1.7342663 -1.7956408 4288085770
5.2256317 -2.1055009 -1.7866873 4288085770
3.7074585 -1.7184441 -1.7969285 4288085770
5.0068512 -2.0763555 -1.7872223 4288085770
3.5496674 -1.7006292 -1.7961782 4288085770
4.8020782 -2.0482633 -1.7899071 4288085770
3.4257507 -1.6909266 -1.8028425 4288085770
4.6202393 -2.0252719 -1.7948691 4288085770
3.2729797 -1.6711553 -1.8001252 4288085770
4.4095306 -1.9912033 -1.7914404 4288085770
3.1281738 -1.6524169 -1.7984978 4288085770
4.2277527 -1.9642386 -1.793367 4288085770
3.025238 -1.644804 -1.807392 4288085770
4.0380554 -1.9322686 -1.7911681 4288085770
2.8824921 -1.6230936 -1.8037583 4288085770
3.8832245 -1.9094253 -1.7954034 4288085770
2.7656403 -1.6084633 -1.8064493 4288085770
3.710495 -1.8795433 -1.7933947 4288085770
2.6677246 -1.5978855 -1.8143677 4288085770
3.5606842 -1.8547343 -1.7966624 4288085770
2.5598602 -1.5832926 -1.8181494 4288085770
3.4049225 -1.8259215 -1.7968343 4288085770
2.4390869 -1.5626771 -1.8167468 4288085770
3.2641449 -1.801168 -1.7991933 4288085770
2.3372192 -1.5471148 -1.8205806 4288085770
3.1064758 -1.7683896 -1.7943097 4288085770
3.0025482 -1.7517636 -1.8041137 4288085770
2.8697968 -1.7250781 -1.8035363 4288085770
2.7460175 -1.6994301 -1.8040587 4288085770
2.6342163 -1.6768168 -1.8077289 4288085770
2.5313721 -1.6552407 -1.8124989 4288085770
2.4126129 -1.6276364 -1.8110543 4288085770
2.3496094 0.33597296 -1.7929384 4288085770
2.4637756 0.34738022 -1.7939941 4288085770
2.5809479 0.35876304 -1.7940801 4288085770
2.6971283 0.36914271 -1.7931656 4288085770
2.817337 0.38049239 -1.7912823 4288085770
2.9335632 0.39082736 -1.7853683 4288085770
3.0707397 0.40109867 -1.7846674 4288085770
3.2099457 0.41134208 -1.7819868 4288085770
2.3897247 0.40278453 -1.7997562 4288085770
3.365097 0.42253858 -1.7834603 4288085770
2.5048828 0.41117805 -1.7998489 4288085770
3.5352478 0.433667 -1.7860867 4288085770
2.632019 0.41950947 -1.800064 4288085770
3.6894531 0.44381541 -1.7815593 4288085770
2.7691803 0.42880791 -1.8023714 4288085770
3.8267365 0.45199877 -1.7708775 4288085770
2.8764191 0.43516272 -1.7934011 4288085770
4.0129089 0.46201807 -1.7706758 4288085770
3.0026093 0.44146484 -1.7896243 4288085770
4.2021027 0.47201401 -1.7695049 4288085770
3.1467743 0.44869155 -1.7880214 4288085770
4.375351 0.48102957 -1.7611805 4288085770
3.2949371 0.45589751 -1.7864596 4288085770
4.5975189 0.49086422 -1.7613457 4288085770
3.4640808 0.46302229 -1.7881113 4288085770
4.8217163 0.50066215 -1.7585317 4288085770
3.6222687 0.4691599 -1.7846602 4288085770
5.0529175 0.50942403 -1.7557982 4288085770
3.7784729 0.47428948 -1.7791978 4288085770
5.2991333 0.51810008 -1.7522172 4288085770
3.9506683 0.48035461 -1.7758898 4288085770
5.5713196 0.52766007 -1.750892 4288085770
4.145813 0.48531944 -1.7748245 4288085770
5.8784943 0.53806728 -1.7529145 4288085770
4.3240509 0.49031883 -1.7675866 4288085770
6.1916656 0.54741615 -1.7520074 4288085770
4.5242157 0.49423164 -1.7635814 4288085770
6.5178833 0.55567235 -1.7482418 4288085770
4.7493896 0.49904221 -1.762822 4288085770
6.8820648 0.56375951 -1.7478632 4288085770
4.9955292 0.50274473 -1.7622854 4288085770
7.2712555 0.57270139 -1.7457305 4288085770
5.2227478 0.50548404 -1.7545646 4288085770
7.7164154 0.5813902 -1.7481681 4288085770
5.4898987 0.50807017 -1.753251 4288085770
8.1975861 0.59088594 -1.7499636 4288085770
5.7890472 0.51050991 -1.7542628 4288085770
8.7806854 0.6019271 -1.7607797 4288085770
6.0941772 0.51289219 -1.7523366 4288085770
9.4237823 0.61266071 -1.7722074 4288085770
6.4253387 0.51414973 -1.7516841 4288085770
10.038956 0.62044066 -1.7723776 4288085770
6.7734833 0.51430196 -1.7492136 4288085770
10.774109 0.62963933 -1.7777523 4288085770
7.1835938 0.51518029 -1.7523657 4288085770
11.506332 0.63476533 -1.7731332 4288085770
7.5927277 0.51402825 -1.7515258 4288085770
12.242645 0.63780016 -1.7605735 4288085770
8.0418701 0.51167125 -1.7511021 4288085770
13.08992 0.64027387 -1.7501448 4288085770
8.5899048 0.50987548 -1.7596778 4288085770
14.101181 0.64293176 -1.744378 4288085770
9.1909637 0.50780839 -1.7687932 4288085770
15.17746 0.64320153 -1.7332915 4288085770
9.812027 0.50259298 -1.7731401 4288085770
16.549683 0.64601284 -1.7321855 4288085770
10.553055 0.49681538 -1.7847089 4288085770
11.230194 0.48522526 -1.7796804 4288085770
11.94838 0.47037143 -1.769097 4288085770
12.737564 0.45415312 -1.759246 4288085770
13.628708 0.43341082 -1.7504698 4288085770
14.722809 0.41066092 -1.7477707 4288085770
15.910904 0.38339359 -1.7420651 4288085770
13.049271 -7.6569757 -1.5394877 4293729569
12.66684 -7.3539019 -1.5469707 4293729569
8.1098175 -5.0306487 -0.53853106 4293729569
12.325287 -7.0770454 -1.5540968 4293729569
8.0492096 -4.9231033 -0.56497812 4293729569
8.0472107 -4.9390459 -1.1501449 4293729569
8.056427 -4.8458977 -0.59337604 4293729569
8.0524597 -4.8628478 -1.1765314 4293729569
8.1354675 -4.8010516 -0.62378323 4293729569
8.1055298 -4.804852 -1.2085615 4293729569
11.420639 -6.2169113 -1.598431 4293729569
11.146896 -5.9894805 -1.5976752 4293729569
10.96788 -5.8054843 -1.6042567 4293729569
10.77092 -5.6164212 -1.607613 4293729569
10.625809 -5.4516072 -1.613705 4293729569
10.492661 -5.2938638 -1.6189803 4293729569
10.394409 -5.1532817 -1.6267582 4293729569
10.285217 -5.008678 -1.6303905 4293729569
10.239822 -4.8913417 -1.6419061 4293729569
10.171494 -4.7659311 -1.6481198 4293729569
10.115158 -4.6455817 -1.6544992 4293729569
10.060837 -4.5262599 -1.6589073 4293729569
17.217957 -6.9798737 -1.5386637 4293729569
10.044403 -4.4221063 -1.6668316 4293729569
17.074051 -6.7760677 -1.5444299 4293729569
10.057877 -4.3290815 -1.6781558 4293729569
11.160446 -4.6018171 -1.1036335 4293729569
10.049438 -4.2279868 -1.6841878 4293729569
16.867035 -6.4058776 -1.5561057 4293729569
10.190582 -4.1755223 -1.7081584 4293729569
16.780029 -6.2283978 -1.5586773 4293729569
10.480301 -4.1716752 -1.7510566 4288085770
16.764847 -6.0752525 -1.566188 4293729569
10.755096 -4.1577773 -1.7907163 4288085770
16.53717 -5.8581614 -1.5539907 4293729569
10.80957 -4.0709887 -1.7995101 4288085770
16.744522 -5.7750735 -1.5743638 4293729569
10.788269 -3.960897 -1.7973338 4288085770
16.80722 -5.646337 -1.5818757 4293729569
10.806854 -3.8639755 -1.7996763 4288085770
16.738235 -5.4810185 -1.5767356 4293729569
10.829437 -3.7680922 -1.8000683 4288085770
16.956635 -5.3970304 -1.592213 4293729569
10.841064 -3.6691611 -1.7993227 4288085770
17.106216 -5.2917485 -1.5998083 4293729569
10.876663 -3.5763531 -1.7988733 4288085770
17.239853 -5.1804028 -1.6051897 4293729569
10.913269 -3.4835587 -1.797434 4288085770
10.964828 -3.395833 -1.797191 4288085770
17.126984 -4.8590326 -1.5792454 4293729569
11.052338 -3.314275 -1.7993654 4288085770
17.254715 -4.7437162 -1.5775329 4293729569
11.085999 -3.2214997 -1.7938963 4288085770
11.192505 -3.1430478 -1.7952906 4288085770
11.287048 -3.0615516 -1.7945367 4288085770
11.404556 -2.9851644 -1.79506 4288085770
11.531052 -2.9078238 -1.7956668 4288085770
11.658585 -2.8315058 -1.7942921 4288085770
11.837021 -2.7634153 -1.7975053 4288085770
11.98555 -2.686214 -1.7953359 4288085770
12.149078 -2.6100898 -1.7933279 4288085770
12.36055 -2.5421777 -1.7958769 4288085770
12.585007 -2.4723496 -1.7965411 4288085770
12.899338 -2.4149151 -1.8062233 4288085770
13.231674 -2.3575733 -1.8160883 4288085770
13.530121 -2.2911177 -1.8185312 4288085770
13.722809 -2.2042589 -1.8077034 4288085770
14.001373 -2.1287515 -1.8038594 4288085770
14.397797 -2.0637813 -1.8093003 4288085770
14.663452 -1.9802505 -1.8002554 4288085770
15.001068 -1.9000726 -1.7939681 4288085770
15.397614 -1.822181 -1.7902981 4288085770
15.888092 -1.7507207 -1.7936345 4288085770
16.457565 -1.6786582 -1.7987651 4288085770
17.08403 -1.6068804 -1.8054746 4288085770
17.037781 0.58364362 -1.7442039 4288085770
15.778152 0.63715404 -1.737166 4288085770
14.805435 0.68927413 -1.7430066 4288085770
13.912689 0.73795921 -1.7466763 4288085770
13.115952 0.78213412 -1.7493428 4288085770
12.454147 0.82666594 -1.7593554 4288085770
11.845352 0.86890072 -1.7669171 4288085770
11.262589 0.90696937 -1.7707735 4288085770
10.741821 0.94471878 -1.7752525 4288085770
17.250366 1.3821056 -1.6925458 4288085770
10.189102 0.97455031 -1.7694787 4288085770
16.166504 1.4087715 -1.6944956 4288085770
9.7003784 1.0060697 -1.7663304 4288085770
15.279648 1.4394672 -1.7033788 4288085770
9.2556458 1.0353632 -1.7636403 4288085770
14.551727 1.4753966 -1.7198066 4288085770
8.8299103 1.0635426 -1.7591497 4288085770
13.833862 1.5051997 -1.7273864 4288085770
8.4421692 1.0915353 -1.7560405 4288085770
13.055084 1.5242167 -1.7224478 4288085770
8.0524597 1.1155055 -1.7489454 4288085770
12.424255 1.5485153 -1.7239431 4288085770
7.7386932 1.1441345 -1.7485701 4288085770
11.888412 1.5783672 -1.731341 4288085770
7.4389343 1.1706839 -1.7473522 4288085770
11.406555 1.6069422 -1.7392889 4288085770
7.1731567 1.1980748 -1.7484671 4288085770
10.911758 1.6315346 -1.7411405 4288085770
6.9243927 1.2263868 -1.7507442 4288085770
10.379013 1.6462305 -1.7316962 4288085770
6.7155609 1.2555189 -1.7564141 4288085770
9.9442139 1.6674733 -1.7291759 4288085770
6.4538422 1.2778227 -1.749612 4288085770
9.5434113 1.688549 -1.7279962 4288085770
6.2350769 1.3029566 -1.7492157 4288085770
9.1856384 1.7124133 -1.7282234 4288085770
6.0093384 1.3240845 -1.7437836 4288085770
8.8318481 1.7322314 -1.7255243 4288085770
5.8145599 1.3490865 -1.7426287 4288085770
8.5130463 1.7548864 -1.7251512 4288085770
5.6318054 1.3730187 -1.7406024 4288085770
8.2382812 1.7803242 -1.726194 4288085770
5.4760437 1.3998451 -1.7428216 4288085770
7.954483 1.8017833 -1.7241806 4288085770
5.3162537 1.4246755 -1.743018 4288085770
7.7017212 1.8260996 -1.7244529 4288085770
5.1894684 1.4543784 -1.7485031 4288085770
7.4419403 1.8474267 -1.721681 4288085770
5.0656586 1.4830568 -1.7530271 4288085770
7.222168 1.8715737 -1.7222844 4288085770
4.9009247 1.5038548 -1.7462076 4288085770
7.0233765 1.8976123 -1.7230819 4288085770
4.7911682 1.5314536 -1.7498802 4288085770
6.8236084 1.9216399 -1.7218865 4288085770
4.6713715 1.5570781 -1.75047 4288085770
6.6468506 1.9485664 -1.7228965 4288085770
4.5576324 1.5826647 -1.7501198 4288085770
6.4710693 1.9724703 -1.7219421 4288085770
4.4508514 1.6092227 -1.7508317 4288085770
6.3182983 2.0012815 -1.724176 4288085770
4.3570557 1.6367309 -1.7536656 4288085770
6.1595459 2.0260906 -1.7223841 4288085770
4.2792816 1.6681733 -1.7586266 4288085770
6.0087891 2.0518663 -1.7216638 4288085770
4.1935272 1.6966317 -1.7605325 4288085770
5.878006 2.0805559 -1.7231194 4288085770
4.0987549 1.7221203 -1.7603737 4288085770
5.7352905 2.1052752 -1.720488 4288085770
4.0070038 1.747577 -1.7582451 4288085770
5.6115417 2.1329117 -1.7200223 4288085770
3.916275 1.7730281 -1.7561268 4288085770
5.5057678 2.1654816 -1.7226952 4288085770
3.8495026 1.8033888 -1.7582072 4288085770
5.4030151 2.195019 -1.7234234 4288085770
3.7747803 1.8307662 -1.7572325 4288085770
5.2912903 2.223578 -1.7210704 4288085770
3.7120056 1.8611069 -1.7593533 4288085770
5.2155457 2.259002 -1.7250191 4288085770
3.6252899 1.8835049 -1.7533008 4288085770
5.1188049 2.2884917 -1.7238082 4288085770
3.5695343 1.9138091 -1.7554919 4288085770
5.0440674 2.3229024 -1.7267758 4288085770
3.5217896 1.9460723 -1.7577466 4288085770
4.9473572 2.3503678 -1.7225817 4288085770
3.4700317 1.9773486 -1.7589697 4288085770
4.887619 2.387701 -1.725675 4288085770
3.4063263 2.0046446 -1.7551063 4288085770
4.809906 2.4200938 -1.7246298 4288085770
3.3675842 2.0388701 -1.7584349 4288085770
4.7541809 2.4583974 -1.7267555 4288085770
3.3078613 2.0651453 -1.75462 4288085770
4.6894836 2.4927237 -1.725824 4288085770
3.2791138 2.1023281 -1.7590243 4288085770
4.6337738 2.5300121 -1.7259585 4288085770
3.2243958 2.1305695 -1.7542435 4288085770
4.5970459 2.5722349 -1.7302412 4288085770
3.2076569 2.1707063 -1.7607428 4288085770
4.5433807 2.6094959 -1.7283958 4288085770
3.1629639 2.2009051 -1.7570454 4288085770
4.5016785 2.64972 -1.7296456 4288085770
3.1312408 2.2360697 -1.7574369 4288085770
4.4569855 2.6879346 -1.7278823 4288085770
3.1035309 2.2722139 -1.7578601 4288085770
4.4203033 2.7291243 -1.7281741 4288085770
3.0788269 2.3083422 -1.7583133 4288085770
4.3906403 2.7732785 -1.7285117 4288085770
3.0441284 2.3404889 -1.7547003 4288085770
4.3709717 2.8193977 -1.7309324 4288085770
3.0034485 2.3696511 -1.7490519 4288085770
4.3503113 2.8665054 -1.731335 4288085770
2.9967346 2.4127116 -1.752628 4288085770
4.3456421 2.9185634 -1.7358564 4288085770
2.9810486 2.4517941 -1.7531468 4288085770
4.3289948 2.965651 -1.7362999 4288085770
2.97435 2.4948375 -1.7547232 4288085770
4.323349 3.0186896 -1.7378036 4288085770
2.9496918 2.5289257 -1.750194 4288085770
4.2987366 3.0617847 -1.7342001 4288085770
2.9430389 2.5719616 -1.7507702 4288085770
4.298111 3.1167979 -1.7357377 4288085770
2.9423523 2.6169746 -1.7523903 4288085770
4.2954865 3.169805 -1.735272 4288085770
2.9316864 2.6580069 -1.7499439 4288085770
4.3078918 3.2297592 -1.7378985 4288085770
2.9320374 2.7029977 -1.7495743 4288085770
4.3092804 3.2847371 -1.7364568 4288085770
2.9303894 2.7479923 -1.7481848 4288085770
4.3237 3.3466644 -1.7370874 4288085770
2.9467316 2.8009343 -1.7519091 4288085770
4.3351288 3.4055991 -1.7367128 4288085770
2.9521179 2.8488922 -1.7505652 4288085770
4.3485565 3.4665151 -1.7353417 4288085770
2.9614716 2.8978286 -1.7492532 4288085770
4.3900146 3.5403366 -1.7401432 4288085770
2.984848 2.9547348 -1.7530149 4288085770
4.4314728 3.6161494 -1.7439288 4288085770
3.001236 3.0076363 -1.7517399 4288085770
4.4709473 3.6889567 -1.7457191 4288085770
3.0316162 3.0675058 -1.7555474 4288085770
4.5004425 3.7587819 -1.7434348 4288085770
3.0480347 3.1193991 -1.7532808 4288085770
4.5299377 3.8265991 -1.740167 4288085770
3.0774536 3.1792417 -1.7530786 4288085770
4.5854492 3.9103317 -1.7430271 4288085770
3.1098633 3.2400761 -1.753898 4288085770
4.6469879 3.997025 -1.7449228 4288085770
3.1493073 3.3058834 -1.7557465 4288085770
4.6995392 4.078732 -1.7427698 4288085770
3.1827545 3.3676891 -1.7535683 4288085770
4.7511139 4.1614361 -1.7395991 4288085770
3.216217 3.4304943 -1.751382 4288085770
4.8257141 4.2560539 -1.7405595 4288085770
3.2726746 3.5052214 -1.7543267 4288085770
4.9053192 4.3526387 -1.7405533 4288085770
3.3231506 3.5759554 -1.7542442 4288085770
5.0009613 4.4591651 -1.7436248 4288085770
3.3756561 3.6476707 -1.7531742 4288085770
5.1016083 4.5696564 -1.7457136 4288085770
3.4161377 3.7134156 -1.7480336 4288085770
5.212326 4.687098 -1.7478448 4288085770
3.4936676 3.8010435 -1.7520813 4288085770
5.3370361 4.8114734 -1.7510587 4288085770
3.5802155 3.8936243 -1.756178 4288085770
5.451767 4.9318695 -1.7502059 4288085770
3.6467743 3.9742594 -1.7541744 4288085770
5.5685272 5.0522461 -1.7483732 4288085770
3.751358 4.077765 -1.7603604 4288085770
5.7033539 5.1855397 -1.7476135 4288085770
3.8349457 4.1693206 -1.7594362 4288085770
5.8491974 5.3247738 -1.7469147 4288085770
3.9185791 4.25986 -1.7565204 4288085770
5.9910431 5.4620056 -1.7431928 4288085770
4.031189 4.3682981 -1.759746 4288085770
6.1689911 5.6220837 -1.7436415 4288085770
4.1398468 4.4747415 -1.7609483 4288085770
6.3449249 5.7811651 -1.7430784 4288085770
4.2525482 4.5831389 -1.7591745 4288085770
6.5559692 5.9630737 -1.7436763 4288085770
4.4062805 4.7183919 -1.7655882 4288085770
6.7860718 6.1578918 -1.7453572 4288085770
4.529007 4.8327379 -1.7638654 4288085770
7.0612793 6.3815203 -1.7522494 4288085770
4.6557617 4.950047 -1.7601579 4288085770
7.3455505 6.6120758 -1.7561744 4288085770
4.785553 5.0673251 -1.7544805 4288085770
7.589798 6.8157563 -1.7499222 4288085770
4.9523926 5.2094617 -1.7549669 4288085770
7.9051971 7.0661359 -1.7519931 4288085770
5.1122437 5.3456092 -1.7524337 4288085770
8.2556915 7.340344 -1.7552167 4288085770
5.2931519 5.495656 -1.7509948 4288085770
8.619278 7.6234612 -1.7554966 4288085770
5.4911041 5.6566238 -1.7506355 4288085770
9.0279846 7.9363618 -1.7579798 4288085770
5.7201233 5.8374572 -1.7534214 4288085770
5.9661865 6.0282021 -1.7562953 4288085770
6.2153015 6.2209067 -1.7561833 4288085770
6.5035248 6.439435 -1.7592469 4288085770
6.8047943 6.6638875 -1.761391 4288085770
7.1201172 6.8982596 -1.7625934 4288085770
7.4695435 7.1534572 -1.7639629 4288085770
7.8149872 7.4036441 -1.7613341 4288085770
8.2276001 7.6975245 -1.7640127 4288085770
8.6853638 8.0211735 -1.7668947 4288085770
17.009567 -0.8108179 -1.7597989 4288085770
16.039307 -0.85558319 -1.7665075 4288085770
15.069168 -0.89040816 -1.7661341 4288085770
14.295929 -0.92818528 -1.7777468 4288085770
13.564758 -0.95922577 -1.7847215 4288085770
12.808716 -0.98219442 -1.7843813 4288085770
12.128632 -1.0025462 -1.7867762 4288085770
11.495605 -1.0191621 -1.787608 4288085770
10.946518 -1.0371772 -1.7942885 4288085770
10.367584 -1.0461199 -1.7905947 4288085770
16.606873 -1.6404901 -1.7936288 4288085770
9.8066864 -1.0511745 -1.7850484 4288085770
15.307312 -1.5986998 -1.7753376 4288085770
9.3197479 -1.0575844 -1.7842499 4288085770
14.469269 -1.5911026 -1.7899274 4288085770
8.8328705 -1.0590367 -1.7784106 4288085770
13.699219 -1.5818636 -1.8051802 4288085770
8.3730164 -1.0586314 -1.7728251 4288085770
12.807526 -1.5521774 -1.7960514 4288085770
7.9880676 -1.0615697 -1.7740136 4288085770
12.027756 -1.5260469 -1.7920667 4288085770
7.601181 -1.0615231 -1.7721578 4288085770
11.396835 -1.5116068 -1.8006614 4288085770
7.2382965 -1.0596111 -1.7695256 4288085770
10.743042 -1.4881475 -1.796954 4288085770
6.9194031 -1.0589052 -1.7703408 4288085770
10.124298 -1.4628808 -1.7925798 4288085770
6.6015015 -1.0562134 -1.7701505 4288085770
9.5635529 -1.4389198 -1.7887942 4288085770
6.3245544 -1.056703 -1.7743942 4288085770
9.0437622 -1.4161655 -1.7864267 4288085770
6.0406799 -1.0521984 -1.7735273 4288085770
8.5420532 -1.390548 -1.779215 4288085770
5.7927399 -1.0498499 -1.7770363 4288085770
8.0972748 -1.368197 -1.7765979 4288085770
5.5458527 -1.045523 -1.7785388 4288085770
7.7024536 -1.3500836 -1.7775134 4288085770
5.3149567 -1.0412803 -1.780202 4288085770
7.3176727 -1.3290483 -1.7755042 4288085770
5.0711212 -1.033003 -1.7777029 4288085770
6.9638672 -1.3091582 -1.7758139 4288085770
4.8811493 -1.0309341 -1.7847918 4288085770
6.6230621 -1.2893546 -1.7742535 4288085770
4.6722717 -1.0238158 -1.7856501 4288085770
6.3222351 -1.2717354 -1.7761089 4288085770
4.4644623 -1.0147281 -1.7835025 4288085770
6.0463715 -1.2562398 -1.779231 4288085770
4.3024902 -1.0118066 -1.7908632 4288085770
5.7565918 -1.2357126 -1.7771724 4288085770
4.1027069 -1.0007777 -1.786779 4288085770
5.5067596 -1.2193619 -1.7795464 4288085770
3.9218445 -0.99082386 -1.7858933 4288085770
5.2609406 -1.2020493 -1.7799524 4288085770
3.7649689 -0.9839626 -1.7892717 4288085770
5.0281219 -1.1838052 -1.7804803 4288085770
3.6260223 -0.97817057 -1.7958378 4288085770
4.8103027 -1.1676317 -1.7821745 4288085770
3.4871063 -0.97139567 -1.8003961 4288085770
4.6054535 -1.1505182 -1.7849904 4288085770
3.3382721 -0.96160156 -1.8008302 4288085770
4.3996429 -1.1324246 -1.7847887 4288085770
3.1924286 -0.95082366 -1.8012861 4288085770
4.2138214 -1.1164277 -1.785803 4288085770
3.0575714 -0.94110328 -1.8018602 4288085770
4.02005 -1.097414 -1.7837135 4288085770
2.9326935 -0.93241882 -1.8045427 4288085770
3.8462219 -1.0794888 -1.7838315 4288085770
2.8088379 -0.92174804 -1.806218 4288085770
3.698349 -1.066658 -1.7892503 4288085770
3.555481 -1.0518622 -1.7937025 4288085770
3.4016571 -1.0350423 -1.7940296 4288085770
3.2727661 -1.0213032 -1.80063 4288085770
3.1249847 -1.0035316 -1.799009 4288085770
2.978241 -0.98378175 -1.7953814 4288085770
2.8534088 -0.96810615 -1.7970062 4288085770
2.8773804 0.95779365 -1.7785124 4288085770
2.9995728 0.97010738 -1.775602 4288085770
3.1407776 0.98434538 -1.7758611 4288085770
3.2809906 0.99757248 -1.7741188 4288085770
3.413208 1.007817 -1.7693223 4288085770
3.5694122 1.0209677 -1.768736 4288085770
3.7505646 1.0370266 -1.7733704 4288085770
2.8189392 0.93308097 -1.7811149 4288085770
3.90979 1.0481284 -1.7688299 4288085770
2.936142 0.93940514 -1.7762035 4288085770
4.0989685 1.0631204 -1.7705506 4288085770
3.0812836 0.94863874 -1.7785417 4288085770
4.2642212 1.073174 -1.7640766 4288085770
3.2214661 0.95687371 -1.7778393 4288085770
4.4474335 1.0841491 -1.7597708 4288085770
3.3606262 0.96309823 -1.7751426 4288085770
4.6536407 1.0970261 -1.7586733 4288085770
3.5088196 0.96927458 -1.7725343 4288085770
4.8458862 1.1069291 -1.7514633 4288085770
3.6729889 0.97639102 -1.7730738 4288085770
5.0840759 1.1196454 -1.7516791 4288085770
3.8411255 0.98347813 -1.7726527 4288085770
5.3003235 1.1294291 -1.7457033 4288085770
4.0192719 0.98951977 -1.7733372 4288085770
5.5515289 1.1410518 -1.7430538 4288085770
4.2144165 0.99648017 -1.77518 4288085770
5.8197479 1.1525848 -1.7405704 4288085770
4.4055939 1.0014374 -1.7739996 4288085770
6.1199341 1.1669807 -1.742376 4288085770
4.5847778 1.0034175 -1.7677258 4288085770
6.4631042 1.1831734 -1.7475859 4288085770
4.7639923 1.0043805 -1.7594599 4288085770
6.7902985 1.1954019 -1.7466711 4288085770
4.956192 1.0052829 -1.7523209 4288085770
7.1325073 1.2065432 -1.7449106 4288085770
5.1623688 1.0051284 -1.7473265 4288085770
7.4907532 1.2175751 -1.7403065 4288085770
5.4085083 1.0077944 -1.7466992 4288085770
7.9159393 1.2313085 -1.7433337 4288085770
5.6686554 1.010386 -1.7462083 4288085770
8.3741302 1.2458682 -1.7466747 4288085770
5.9417877 1.0119171 -1.7468525 4288085770
8.8343353 1.2563679 -1.7440673 4288085770
6.2419128 1.0133128 -1.7487603 4288085770
9.3705292 1.2715137 -1.7481629 4288085770
6.542038 1.0126929 -1.748684 4288085770
9.9277344 1.2835243 -1.749487 4288085770
6.851181 1.0089924 -1.7447196 4288085770
10.575882 1.2990851 -1.7556688 4288085770
7.2092896 1.0080812 -1.7472099 4288085770
11.285065 1.3143153 -1.7614461 4288085770
7.606369 1.0069804 -1.7520808 4288085770
11.897369 1.3169043 -1.7473792 4288085770
8.0114594 1.0028038 -1.7530538 4288085770
12.60463 1.3200228 -1.7382323 4288085770
8.4355774 0.99652714 -1.7542278 4288085770
13.422897 1.3265693 -1.732138 4288085770
8.9276123 0.99192256 -1.7600502 4288085770
14.354111 1.332535 -1.729148 4288085770
9.4376984 0.98420709 -1.7640718 4288085770
15.219452 1.3267105 -1.708608 4288085770
10.005722 0.97419149 -1.7696763 4288085770
16.339722 1.329634 -1.7024797 4288085770
10.576782 0.96111947 -1.7703334 4288085770
17.651978 1.3355563 -1.700195 4288085770
11.174866 0.94288093 -1.7682935 4288085770
11.827911 0.92235893 -1.7678066 4288085770
12.513 0.89661831 -1.7616721 4288085770
13.201096 0.86482161 -1.750614 4288085770
14.086075 0.83507937 -1.7534555 4288085770
15.013077 0.79706568 -1.7507709 4288085770
15.909119 0.75012773 -1.7368554 4288085770
17.106033 0.70269996 -1.7388703 4288085770
8.7218933 -7.8152552 -1.545576 4293729569
8.3444366 -7.5211253 -1.5566193 4293729569
8.021759 -7.2632713 -1.5704747 4293729569
7.7826996 -7.063807 -1.5925916 4293729569
7.606369 -6.9056368 -1.6206349 4293729569
7.463913 -6.7706304 -1.6511852 4293729569
7.2836609 -6.6064868 -1.6731461 4293729569
7.1213531 -6.4554381 -1.6953822 4293729569
6.9680481 -6.3074446 -1.7167295 4288085770
6.8356323 -6.1735625 -1.7383884 4288085770
9.5927429 -7.8680801 -1.5400063 4293729569
6.6734467 -6.0185766 -1.7525967 4288085770
9.2154541 -7.5569906 -1.5459269 4293729569
6.4853821 -5.847508 -1.7594332 4288085770
8.9048462 -7.2912245 -1.5568434 4293729569
6.3182678 -5.6895585 -1.7655736 4288085770
8.64505 -7.0597115 -1.5705162 4293729569
6.1521606 -5.5316138 -1.7717243 4288085770
8.4091644 -6.8433347 -1.5835375 4293729569
5.9801025 -5.3696775 -1.7727884 4288085770
8.2310486 -6.6642256 -1.6024042 4293729569
5.8458557 -5.233902 -1.7794198 4288085770
8.0827942 -6.5052757 -1.6217159 4293729569
5.7276001 -5.1062117 -1.7862679 4288085770
7.9505157 -6.3554101 -1.6412519 4293729569
5.602356 -4.9755077 -1.7900265 4288085770
7.7664948 -6.1753473 -1.6500577 4293729569
5.493042 -4.8538733 -1.7960094 4288085770
7.5894623 -5.9993372 -1.6569632 4293729569
5.3678436 -4.7242084 -1.794778 4288085770
7.5010223 -5.8777127 -1.6761421 4293729569
5.2585754 -4.6036053 -1.7967707 4288085770
7.4265594 -5.7641625 -1.6955179 4293729569
5.1543121 -4.4870443 -1.7968432 4288085770
7.3461456 -5.6476121 -1.7108141 4288085770
5.0470581 -4.369482 -1.7948803 4288085770
7.2627411 -5.5280533 -1.7250589 4288085770
4.958725 -4.2630053 -1.7951852 4288085770
7.1753693 -5.4084973 -1.7362663 4288085770
4.8773804 -4.1605735 -1.7945894 4288085770
7.115921 -5.3040733 -1.749859 4288085770
4.8179169 -4.0722194 -1.7993127 4288085770
7.0634308 -5.2036872 -1.7635502 4288085770
4.7346039 -3.9698 -1.795699 4288085770
6.9611816 -5.0761218 -1.7655548 4288085770
4.6602478 -3.8734207 -1.7932187 4288085770
6.8798523 -4.9606438 -1.7708539 4288085770
4.6177216 -3.795157 -1.7981843 4288085770
6.7905884 -4.8411474 -1.7730464 4288085770
4.5742493 -3.7149105 -1.8001252 4288085770
6.7192383 -4.7317376 -1.7764894 4288085770
4.5148468 -3.6276186 -1.7968601 4288085770
6.6658325 -4.6324162 -1.7811829 4288085770
4.467392 -3.5473747 -1.7957641 4288085770
6.6014709 -4.52806 -1.7827328 4288085770
4.4398651 -3.4772055 -1.798937 4288085770
6.5610046 -4.4368076 -1.7876137 4288085770
4.3844757 -3.3929584 -1.7927347 4288085770
6.5315552 -4.3506131 -1.7926389 4288085770
4.3658905 -3.3288448 -1.7950412 4288085770
6.506073 -4.2664485 -1.7967182 4288085770
4.3383942 -3.2587068 -1.7942158 4288085770
6.4616547 -4.1742053 -1.7975549 4288085770
4.3317871 -3.1996415 -1.7986761 4288085770
6.4272308 -4.0870242 -1.7975262 4288085770
4.3052673 -3.1315246 -1.7958766 4288085770
6.4057617 -4.0069032 -1.7986764 4288085770
4.2966919 -3.0714796 -1.7963108 4288085770
6.3822937 -3.9247799 -1.7987927 4288085770
4.2851257 -3.0114269 -1.7957169 4288085770
6.3688202 -3.8487096 -1.7990509 4288085770
4.2785645 -2.9524004 -1.7951788 4288085770
6.3483734 -3.7686179 -1.7972122 4288085770
4.2769775 -2.8953931 -1.7957042 4288085770
6.3329163 -3.6915522 -1.7954446 4288085770
4.2843475 -2.843425 -1.7973548 4288085770
6.3473206 -3.627615 -1.7980651 4288085770
4.2837677 -2.7874458 -1.7948979 4288085770
6.3368683 -3.5525839 -1.7953614 4288085770
4.285202 -2.7324777 -1.7924682 4288085770
6.3493195 -3.4876518 -1.7959548 4288085770
4.3085327 -2.6865873 -1.795318 4288085770
6.3627777 -3.4227407 -1.7945579 4288085770
4.3159485 -2.6326511 -1.7929536 4288085770
6.3832397 -3.3598588 -1.7942437 4288085770
4.3333282 -2.5847521 -1.7927312 4288085770
6.4057007 -3.2979953 -1.7929562 4288085770
4.3696442 -2.5429308 -1.7957362 4288085770
6.4201965 -3.2331054 -1.78957 4288085770
4.388031 -2.4940531 -1.7935156 4288085770
6.4626007 -3.1783404 -1.7895275 4288085770
4.4163818 -2.4482129 -1.7934138 4288085770
6.51297 -3.1266105 -1.7905852 4288085770
4.4666595 -2.4104588 -1.7975835 4288085770
6.5683441 -3.0759075 -1.7916981 4288085770
4.5000153 -2.3666527 -1.7965449 4288085770
6.6107788 -3.0201662 -1.7886485 4288085770
4.5304108 -2.3208468 -1.7934629 4288085770
6.6871033 -2.976567 -1.7910155 4288085770
4.5946655 -2.2871671 -1.7977966 4288085770
6.7684479 -2.9319949 -1.7934223 4288085770
4.6290436 -2.2413824 -1.7947527 4288085770
6.8368378 -2.8823841 -1.7916671 4288085770
4.682373 -2.203675 -1.7949513 4288085770
6.8982544 -2.8317442 -1.7888373 4288085770
4.7376862 -2.1649868 -1.7941612 4288085770
6.985611 -2.7882271 -1.7883095 4288085770
4.7999878 -2.12832 -1.7954534 4288085770
7.0700073 -2.7417092 -1.7857298 4288085770
4.8593292 -2.0886602 -1.7936939 4288085770
7.1733246 -2.7002699 -1.7863694 4288085770
4.926651 -2.0520358 -1.7930335 4288085770
7.261734 -2.6537819 -1.7828277 4288085770
4.9999542 -2.0164356 -1.7934378 4288085770
7.3730927 -2.6124008 -1.7815434 4288085770
5.0872345 -1.9839022 -1.7949983 4288085770
7.4894409 -2.5710537 -1.7793063 4288085770
5.1615601 -1.946323 -1.7933968 4288085770
7.6227722 -2.5337825 -1.7792617 4288085770
5.2618103 -1.9158514 -1.7960962 4288085770
7.7590942 -2.4955349 -1.7782377 4288085770
5.3630829 -1.884393 -1.7977973 4288085770
7.9173737 -2.4613893 -1.7794536 4288085770
5.4663849 -1.8519528 -1.7985097 4288085770
8.0717163 -2.4252455 -1.7776159 4288085770
5.5347595 -1.8113885 -1.7908283 4288085770
8.2300568 -2.3881309 -1.7748083 4288085770
5.6510315 -1.78001 -1.7926716 4288085770
8.4283295 -2.358191 -1.7774342 4288085770
5.7653503 -1.7476442 -1.7914881 4288085770
8.6236267 -2.3252585 -1.7770084 4288085770
5.8886261 -1.716311 -1.7923979 4288085770
8.8518677 -2.2974787 -1.7799338 4288085770
6.0159302 -1.684015 -1.7913378 4288085770
9.085144 -2.2687418 -1.7808992 4288085770
6.1681671 -1.6568213 -1.7945532 4288085770
9.3363953 -2.2411005 -1.7820421 4288085770
6.2994843 -1.6235621 -1.7915231 4288085770
9.60466 -2.2145426 -1.7843541 4288085770
6.4427948 -1.590359 -1.7896069 4288085770
9.89888 -2.1891236 -1.7869207 4288085770
6.6290283 -1.5643394 -1.7941521 4288085770
10.205139 -2.1637766 -1.7886001 4288085770
6.7743683 -1.5301707 -1.7892467 4288085770
10.577316 -2.1447513 -1.7949511 4288085770
6.9586334 -1.5001717 -1.7897419 4288085770
10.884659 -2.1114566 -1.7905775 4288085770
7.184845 -1.4743583 -1.7956654 4288085770
11.272888 -2.0885482 -1.7930485 4288085770
7.3572235 -1.4393494 -1.7890078 4288085770
11.699127 -2.0668428 -1.7958869 4288085770
7.5375977 -1.4043758 -1.7834259 4288085770
12.103424 -2.0380592 -1.7934622 4288085770
7.7938232 -1.3777382 -1.7876254 4288085770
12.697464 -2.0321739 -1.8080071 4288085770
8.0011902 -1.3419167 -1.7812911 4288085770
13.370453 -2.0296886 -1.8263229 4288085770
8.2804565 -1.3124181 -1.7836851 4288085770
13.81192 -1.9901884 -1.8131622 4288085770
8.5577545 -1.2819319 -1.7830518 4288085770
14.307373 -1.9529691 -1.8015276 4288085770
8.8760071 -1.2526422 -1.7858144 4288085770
14.904755 -1.9232714 -1.7939128 4288085770
9.2352448 -1.2255634 -1.7899803 4288085770
15.598083 -1.8980639 -1.7902373 4288085770
9.5945435 -1.1945006 -1.7921149 4288085770
16.531174 -1.8910313 -1.802965 4288085770
9.9818268 -1.1635875 -1.7945138 4288085770
17.359528 -1.865577 -1.7965583 4288085770
10.41806 -1.1339214 -1.7993842 4288085770
10.85939 -1.0993201 -1.7992634 4288085770
11.340698 -1.0649338 -1.7995204 4288085770
11.816101 -1.0255536 -1.7946812 4288085770
12.364456 -0.98754144 -1.7935404 4288085770
12.989807 -0.94993293 -1.7941269 4288085770
13.641205 -0.90748703 -1.7919203 4288085770
14.321671 -0.86124307 -1.7839566 4288085770
15.025208 -0.81015301 -1.7721714 4288085770
15.920639 -0.76302052 -1.7712246 4288085770
16.990021 -0.71479642 -1.774907 4288085770
17.205566 1.1472173 -1.7180914 4288085770
16.35408 1.2198265 -1.7128743 4288085770
15.597565 1.2879152 -1.707548 4288085770
15.026978 1.3620782 -1.7148565 4288085770
14.527374 1.4338651 -1.7238232 4288085770
14.082748 1.5063615 -1.7342821 4288085770
13.502213 1.5604665 -1.7256488 4288085770
13.044617 1.6199565 -1.7250863 4288085770
12.615036 1.6762815 -1.7247802 4288085770
12.228424 1.7343948 -1.7258679 4288085770
11.894806 1.7942369 -1.729422 4288085770
11.572189 1.8510046 -1.7310981 4288085770
11.299576 1.9105246 -1.7362052 4288085770
10.966965 1.959306 -1.7318515 4288085770
10.652359 2.0059755 -1.7256747 4288085770
10.373749 2.0544715 -1.7228097 4288085770
17.634521 3.1645808 -1.6881663 4288085770
10.07515 2.0970409 -1.7148079 4288085770
17.075882 3.2166238 -1.6877526 4288085770
9.8645325 2.1511974 -1.7165161 4288085770
16.611252 3.2741652 -1.6891466 4288085770
9.641922 2.2013917 -1.7141455 4288085770
16.156647 3.3286471 -1.689654 4288085770
9.4613037 2.2533796 -1.7151407 4288085770
15.733032 3.3829465 -1.6884428 4288085770
9.2696686 2.3024058 -1.7130586 4288085770
15.380432 3.4428844 -1.6908306 4288085770
9.0900726 2.3523676 -1.7110785 4288085770
15.088867 3.512506 -1.6956998 4288085770
8.944458 2.4071667 -1.7123705 4288085770
14.820312 3.584003 -1.7007631 4288085770
8.7748566 2.4540603 -1.7085034 4288085770
14.55574 3.652472 -1.7048851 4288085770
8.6532593 2.51073 -1.709999 4288085770
14.318192 3.7227807 -1.7072376 4288085770
8.5206451 2.5634449 -1.7094246 4288085770
14.080658 3.7910829 -1.7086054 4288085770
8.3980408 2.6170981 -1.707934 4288085770
13.848114 3.8583512 -1.7090265 4288085770
8.2874603 2.6716945 -1.7075447 4288085770
13.650589 3.9314294 -1.7097217 4288085770
8.2098694 2.7331331 -1.710404 4288085770
13.534134 4.0221119 -1.7170204 4288085770
8.1242981 2.7926006 -1.7112063 4288085770
13.278595 4.0754414 -1.7083365 4288085770
8.0427246 2.8510394 -1.7110518 4288085770
13.067093 4.137547 -1.7019862 4288085770
7.9901428 2.9173503 -1.7151028 4288085770
12.904633 4.2104087 -1.6990005 4288085770
7.9295959 2.9806752 -1.7151035 4288085770
12.783157 4.2910633 -1.6983284 4288085770
7.8620453 3.0400395 -1.7150694 4288085770
12.751755 4.3952918 -1.7072977 4288085770
7.8224945 3.1072583 -1.7162319 4288085770
12.738388 4.5064168 -1.7153808 4288085770
7.7639618 3.1695585 -1.7142593 4288085770
12.698029 4.6086597 -1.7192847 4288085770
7.7294464 3.237751 -1.7154607 4288085770
12.687698 4.7207479 -1.7243892 4288085770
7.7039185 3.3088937 -1.7167221 4288085770
12.597321 4.8082056 -1.7199506 4288085770
7.6493988 3.3701525 -1.711794 4288085770
12.600037 4.9232087 -1.723152 4288085770
7.641922 3.4472046 -1.7141765 4288085770
12.595734 5.0372424 -1.7252983 4288085770
7.6484375 3.5291805 -1.7166501 4288085770
12.563446 5.1423931 -1.7222568 4288085770
7.6289825 3.601264 -1.7139603 4288085770
12.542175 5.2504773 -1.7182938 4288085770
7.6455078 3.6871924 -1.7174968 4288085770
12.54895 5.3674235 -1.7165197 4288085770
7.6420746 3.7641883 -1.7149168 4288085770
12.605759 5.5021191 -1.7180694 4288085770
7.6806641 3.8579984 -1.7185951 4288085770
12.626587 5.6259761 -1.7143735 4288085770
7.7162476 3.9508181 -1.7212545 4288085770
12.702484 5.7705626 -1.7150253 4288085770
7.737854 4.0396852 -1.7198161 4288085770
12.819443 5.9329395 -1.7179195 4288085770
7.7994995 4.144371 -1.7236253 4288085770
12.991501 6.1170478 -1.7251533 4288085770
7.8671722 4.2520237 -1.7274674 4288085770
13.197632 6.316977 -1.7335814 4288085770
7.9438629 4.3646264 -1.7313563 4288085770
13.360748 6.504097 -1.735715 4288085770
8.028595 4.4821806 -1.7342817 4288085770
13.504898 6.6872921 -1.7337066 4288085770
8.1203308 4.6037025 -1.7382425 4288085770
13.72113 6.9011326 -1.7371284 4288085770
8.2151184 4.7271934 -1.7402169 4288085770
13.88736 7.0961804 -1.7312344 4288085770
8.3249054 4.8586106 -1.74327 4288085770
14.070633 7.3011413 -1.7264239 4288085770
8.4167328 4.9830914 -1.7412111 4288085770
14.259979 7.5120521 -1.7186259 4288085770
8.5155487 5.1135397 -1.7401737 4288085770
14.623611 7.8021207 -1.7268294 4288085770
8.6184235 5.2449455 -1.7361654 4288085770
8.72229 5.3793464 -1.7321454 4288085770
8.8612671 5.5315714 -1.7303139 4288085770
9.0413055 5.7055988 -1.7326969 4288085770
9.2213745 5.8816085 -1.7320665 4288085770
9.4695892 6.0943036 -1.7397875 4288085770
9.7168274 6.3079829 -1.7444929 4288085770
9.9661255 6.5266294 -1.7461818 4288085770
10.22847 6.7551994 -1.7469181 4288085770
10.544983 7.0144958 -1.7509223 4288085770
10.851501 7.2708173 -1.7508582 4288085770
11.130035 7.5172372 -1.7426142 4288085770
11.487747 7.8082747 -1.7417639 4288085770
16.566452 -0.42929292 -1.7573076 4288085770
15.337357 -0.44953054 -1.758855 4288085770
14.299271 -0.46878803 -1.7650391 4288085770
13.412155 -0.48585513 -1.7745086 4288085770
12.550156 -0.49610984 -1.7761513 4288085770
11.795105 -0.50692153 -1.7827183 4288085770
